1.66154, 1.67, 1.65981, 1.66088, 1.6616, 1.65164, 1.64679, 1.64397, 1.64217, 1.64067, 1.63777, 1.63645, 1.63426, 1.63473, 1.63382, 1.63352, 1.63306, 1.6343, 1.63142, 1.60427, 1.61821, 1.63027, 1.66527, 1.73499, 1.76227, 1.80553, 1.90753, 1.96259, 1.97926, 1.86592, 1.73157, 1.58199, 1.58035, 1.60807, 1.60084, 1.59183, 1.59662, 1.5858, 1.5923, 1.5817, 1.57897, 1.57646, 1.57367, 1.5704, 1.57238, 1.56831, 1.56586, 1.56484, 1.55884, 1.55688, 1.55572, 1.55392, 1.55218, 1.55053, 1.5511, 1.54916, 1.54604, 1.54539, 1.54555, 1.54676, 1.53881, 1.5367, 1.53532, 1.53418, 1.53146, 1.52962, 1.52797, 1.52736, 1.5258, 1.53837, 1.52955, 1.52849, 1.52229, 1.54567, 1.54822, 1.54043, 1.51332, 1.50971, 1.50931, 1.50678, 1.51629, 1.52057, 1.50138, 1.50209, 1.49878, 1.49937, 1.50856, 1.51538, 1.51094, 1.4778, 1.47904, 1.4792, 1.51716, 1.51447, 1.59577, 1.59324, 1.59199, 1.56996, 1.57185, 1.57013, 1.55618, 1.53793, 1.51526, 1.45845, 1.43115, 1.45516, 1.47537, 1.46841, 1.46753, 1.46459, 1.45136, 1.45066, 1.45005, 1.44702, 1.44545, 1.44468, 1.44167, 1.45575, 1.45133, 1.46528, 1.44231, 1.44132, 1.42705, 1.4265, 1.42353, 1.42209, 1.4479, 1.42371, 1.423, 1.42139, 1.42064, 1.4203, 1.41777, 1.41444, 1.41369, 1.413, 1.41256, 1.41182, 1.40838, 1.40668, 1.40524, 1.40317, 1.40152, 1.39957, 1.39882, 1.39842, 1.3957, 1.39434, 1.39479, 1.39207, 1.38858, 1.38467, 1.38358, 1.38204, 1.38112, 1.37556, 1.37422, 1.37212, 1.36885, 1.3671, 1.36589, 1.3655, 1.36514, 1.36631, 1.36615, 1.36632, 1.36728, 1.36253, 1.35985, 1.36041, 1.36223, 1.35913, 1.36826, 1.36147, 1.36793, 1.36439, 1.34486, 1.39481, 1.39475, 1.43303, 1.46949, 1.52123, 1.6064, 1.61976, 1.62314, 1.63467, 1.58831, 1.48784, 1.42905, 1.36834, 1.32608, 1.3488, 1.33788, 1.33753, 1.34894, 1.33215, 1.32854, 1.32858, 1.33352, 1.32759, 1.32795, 1.32655, 1.32896, 1.32736, 1.32576, 1.3249, 1.32405, 1.31916, 1.32031, 1.3193
1.66486, 1.66125, 1.65847, 1.65597, 1.65279, 1.6509, 1.64887, 1.64561, 1.64397, 1.64155, 1.63773, 1.63658, 1.64775, 1.63633, 1.64511, 1.64005, 1.63429, 1.63812, 1.63009, 1.60891, 1.61894, 1.64855, 1.75322, 1.72206, 1.80682, 1.82854, 1.95248, 2.06296, 1.97396, 1.91337, 1.68858, 1.57671, 1.58136, 1.60467, 1.6086, 1.61351, 1.58913, 1.58809, 1.58407, 1.58248, 1.57962, 1.5771, 1.57649, 1.57259, 1.56941, 1.56661, 1.5643, 1.56216, 1.56054, 1.55968, 1.55887, 1.55536, 1.55493, 1.55488, 1.55138, 1.54969, 1.5472, 1.54653, 1.54593, 1.54383, 1.5419, 1.53643, 1.53534, 1.53279, 1.52925, 1.52833, 1.52646, 1.52611, 1.52314, 1.523, 1.52009, 1.53399, 1.52782, 1.56083, 1.53743, 1.52704, 1.52027, 1.51303, 1.51118, 1.51017, 1.50858, 1.5054, 1.50194, 1.49914, 1.49736, 1.49574, 1.50644, 1.49698, 1.51332, 1.46964, 1.4741, 1.53821, 1.53351, 1.53351, 1.567, 1.57443, 1.57166, 1.5701, 1.57606, 1.56808, 1.54645, 1.51507, 1.50583, 1.45432, 1.44619, 1.45817, 1.46488, 1.46482, 1.47034, 1.4673, 1.47597, 1.45858, 1.44876, 1.44716, 1.44464, 1.44312, 1.4548, 1.4501, 1.45753, 1.46202, 1.45724, 1.42949, 1.42712, 1.44371, 1.42481, 1.42194, 1.4267, 1.42117, 1.42154, 1.42118, 1.41937, 1.41901, 1.41755, 1.41619, 1.4138, 1.41282, 1.41205, 1.4101, 1.40886, 1.40821, 1.4047, 1.4034, 1.40317, 1.40165, 1.40181, 1.39851, 1.39755, 1.39293, 1.39376, 1.39165, 1.38961, 1.38758, 1.38585, 1.38258, 1.37638, 1.37769, 1.37324, 1.37104, 1.37037, 1.36926, 1.36608, 1.36645, 1.3652, 1.36711, 1.37935, 1.38468, 1.36712, 1.36694, 1.36767, 1.36723, 1.36367, 1.37728, 1.36516, 1.37519, 1.36703, 1.37557, 1.34694, 1.38578, 1.40832, 1.45023, 1.47079, 1.5164, 1.54824, 1.57457, 1.59574, 1.59231, 1.56215, 1.49945, 1.40996, 1.36812, 1.30224, 1.34417, 1.34092, 1.35445, 1.35453, 1.33037, 1.32928, 1.32949, 1.3272, 1.33559, 1.34009, 1.32699, 1.32741, 1.32623, 1.32394, 1.32566, 1.32321, 1.31939, 1.31737, 1.31664
1.66269, 1.65942, 1.65758, 1.65491, 1.65415, 1.65025, 1.64829, 1.64496, 1.64245, 1.64146, 1.64036, 1.63957, 1.63662, 1.63724, 1.64831, 1.63234, 1.64195, 1.64356, 1.64196, 1.61609, 1.6094, 1.66819, 1.7127, 1.77429, 1.81861, 1.84405, 1.98333, 1.98202, 2.00732, 1.78585, 1.70573, 1.59465, 1.57093, 1.58458, 1.60715, 1.58949, 1.58914, 1.58703, 1.58465, 1.58135, 1.58664, 1.57613, 1.57489, 1.57281, 1.57346, 1.56917, 1.56587, 1.56431, 1.56195, 1.56134, 1.55814, 1.55577, 1.55702, 1.55339, 1.55215, 1.54888, 1.54741, 1.54581, 1.54309, 1.54104, 1.53911, 1.53658, 1.53318, 1.53085, 1.52786, 1.52802, 1.52631, 1.52427, 1.54088, 1.52059, 1.5191, 1.53097, 1.51844, 1.52224, 1.5503, 1.5384, 1.53654, 1.51324, 1.51094, 1.50911, 1.5131, 1.503, 1.50092, 1.51239, 1.49534, 1.49793, 1.51186, 1.49642, 1.50376, 1.46899, 1.47792, 1.48995, 1.52932, 1.54443, 1.5783, 1.5947, 1.61334, 1.55641, 1.56887, 1.55003, 1.53327, 1.53763, 1.51985, 1.47674, 1.45449, 1.47106, 1.46624, 1.46291, 1.46512, 1.45423, 1.45086, 1.44806, 1.446, 1.45121, 1.44452, 1.44068, 1.43867, 1.43906, 1.44089, 1.46116, 1.46279, 1.447, 1.42895, 1.42615, 1.42507, 1.42351, 1.42119, 1.42203, 1.42243, 1.42237, 1.4194, 1.41978, 1.41834, 1.41693, 1.41604, 1.41346, 1.41244, 1.41162, 1.41021, 1.40854, 1.40664, 1.40554, 1.40427, 1.40337, 1.40044, 1.39846, 1.3974, 1.39494, 1.39272, 1.39148, 1.39017, 1.38758, 1.38628, 1.38358, 1.37706, 1.37812, 1.37383, 1.37393, 1.3742, 1.3691, 1.36738, 1.36554, 1.36564, 1.36697, 1.3656, 1.3651, 1.36507, 1.36489, 1.36536, 1.36501, 1.36387, 1.36453, 1.36473, 1.37516, 1.37809, 1.36495, 1.35213, 1.34992, 1.41031, 1.42922, 1.44876, 1.50385, 1.51862, 1.57539, 1.5897, 1.58463, 1.59505, 1.53318, 1.48617, 1.36054, 1.31341, 1.34751, 1.35433, 1.34857, 1.34677, 1.34456, 1.33071, 1.34973, 1.33041, 1.32817, 1.32628, 1.32896, 1.32887, 1.32579, 1.32609, 1.3224, 1.32968, 1.31727, 1.31615, 1.31662
1.66253, 1.65904, 1.65723, 1.65461, 1.65217, 1.65048, 1.64798, 1.64634, 1.64327, 1.6428, 1.64198, 1.63875, 1.63778, 1.63662, 1.63416, 1.6448, 1.63377, 1.63312, 1.63649, 1.61982, 1.62151, 1.68602, 1.67918, 1.75209, 1.80024, 1.85541, 1.86364, 1.93268, 1.93196, 1.84076, 1.74743, 1.60003, 1.5849, 1.59649, 1.60135, 1.60044, 1.5892, 1.58515, 1.58324, 1.58103, 1.57854, 1.5763, 1.57503, 1.57164, 1.57075, 1.56801, 1.56616, 1.56339, 1.56112, 1.55956, 1.55849, 1.55638, 1.55493, 1.55435, 1.55022, 1.54914, 1.54731, 1.54479, 1.54114, 1.54063, 1.53711, 1.53619, 1.53388, 1.53161, 1.52997, 1.52728, 1.52476, 1.54043, 1.52143, 1.52028, 1.52001, 1.51989, 1.54386, 1.52041, 1.53795, 1.53034, 1.52891, 1.52636, 1.50878, 1.509, 1.50582, 1.50958, 1.49917, 1.49701, 1.49576, 1.49536, 1.49538, 1.49759, 1.50202, 1.48217, 1.47553, 1.53885, 1.52374, 1.55759, 1.58239, 1.58112, 1.63115, 1.62748, 1.56809, 1.56445, 1.548, 1.54758, 1.50766, 1.4882, 1.43414, 1.46824, 1.47887, 1.46444, 1.46837, 1.45745, 1.4506, 1.44727, 1.44695, 1.44331, 1.44201, 1.44014, 1.43727, 1.43516, 1.44524, 1.46093, 1.46842, 1.4444, 1.43602, 1.42667, 1.42552, 1.42402, 1.42234, 1.42376, 1.42059, 1.42042, 1.41889, 1.41835, 1.41866, 1.41694, 1.41661, 1.41498, 1.41198, 1.41228, 1.41034, 1.40977, 1.40804, 1.40696, 1.40505, 1.40309, 1.4007, 1.3982, 1.39664, 1.39547, 1.3936, 1.39135, 1.38995, 1.38801, 1.38516, 1.38394, 1.37997, 1.37804, 1.37662, 1.37667, 1.37581, 1.37156, 1.36945, 1.36657, 1.36705, 1.36512, 1.36505, 1.36728, 1.36506, 1.36486, 1.36558, 1.36506, 1.36565, 1.36417, 1.38156, 1.37912, 1.36865, 1.36786, 1.35684, 1.39518, 1.42366, 1.4341, 1.46969, 1.5044, 1.55867, 1.60382, 1.61674, 1.63042, 1.59979, 1.57787, 1.43099, 1.35132, 1.32754, 1.34978, 1.35741, 1.35619, 1.34118, 1.34029, 1.33722, 1.33265, 1.34049, 1.33714, 1.33068, 1.33287, 1.32883, 1.32615, 1.32421, 1.32255, 1.32325, 1.32011, 1.31935, 1.31851
1.66071, 1.66213, 1.6514, 1.65667, 1.65305, 1.64854, 1.64744, 1.64452, 1.64196, 1.64155, 1.63996, 1.63722, 1.63864, 1.64091, 1.63315, 1.63102, 1.63313, 1.63328, 1.63288, 1.59545, 1.61299, 1.66862, 1.70054, 1.71767, 1.79637, 1.88362, 1.88032, 1.92085, 1.97567, 1.88187, 1.69467, 1.5866, 1.57577, 1.59124, 1.59838, 1.61026, 1.6036, 1.58981, 1.58331, 1.58088, 1.57721, 1.57458, 1.57358, 1.57288, 1.57211, 1.57122, 1.56525, 1.58289, 1.56191, 1.56888, 1.55706, 1.554, 1.55181, 1.55169, 1.55013, 1.54575, 1.54434, 1.54245, 1.54177, 1.53903, 1.53737, 1.53442, 1.53316, 1.53146, 1.52937, 1.5278, 1.52444, 1.52461, 1.52849, 1.51913, 1.52394, 1.51873, 1.5201, 1.52451, 1.53334, 1.54417, 1.52565, 1.52352, 1.50869, 1.5081, 1.51345, 1.50201, 1.49974, 1.49985, 1.49857, 1.50346, 1.50359, 1.51215, 1.49845, 1.48619, 1.48056, 1.50198, 1.55379, 1.59605, 1.58715, 1.5924, 1.57863, 1.58809, 1.56315, 1.56216, 1.55806, 1.54531, 1.55515, 1.47951, 1.44502, 1.47513, 1.47089, 1.4714, 1.46863, 1.45633, 1.44916, 1.44678, 1.44447, 1.44259, 1.44041, 1.4442, 1.43881, 1.47431, 1.46207, 1.47603, 1.45038, 1.47086, 1.46225, 1.43779, 1.42335, 1.42275, 1.43334, 1.4198, 1.41914, 1.41849, 1.41807, 1.41766, 1.41594, 1.41442, 1.41388, 1.41154, 1.41035, 1.40982, 1.4092, 1.40857, 1.40712, 1.40481, 1.4297, 1.40306, 1.40143, 1.3991, 1.39874, 1.39609, 1.39549, 1.39474, 1.39178, 1.39005, 1.38788, 1.38459, 1.38002, 1.37712, 1.37731, 1.37568, 1.37454, 1.37313, 1.36889, 1.36794, 1.36795, 1.37119, 1.36802, 1.36771, 1.36747, 1.36718, 1.37765, 1.37489, 1.37838, 1.3653, 1.36546, 1.37193, 1.37274, 1.36569, 1.3505, 1.35414, 1.43382, 1.44986, 1.48506, 1.54177, 1.5501, 1.60217, 1.62409, 1.62351, 1.58301, 1.50797, 1.43988, 1.37811, 1.33648, 1.34185, 1.3474, 1.3411, 1.33666, 1.35102, 1.34195, 1.33658, 1.3335, 1.34713, 1.34387, 1.33706, 1.32756, 1.34462, 1.32577, 1.32317, 1.32067, 1.32006, 1.32048, 1.31771
1.66069, 1.66038, 1.65801, 1.65513, 1.64926, 1.6475, 1.64557, 1.64447, 1.64035, 1.63998, 1.63833, 1.63706, 1.6367, 1.63419, 1.63344, 1.63165, 1.64277, 1.65515, 1.64003, 1.62804, 1.61419, 1.69634, 1.71934, 1.76915, 1.76516, 1.83088, 1.86791, 1.96842, 1.98344, 1.85577, 1.75509, 1.58618, 1.57155, 1.60586, 1.60322, 1.60622, 1.59354, 1.58607, 1.58352, 1.58096, 1.57925, 1.57448, 1.57333, 1.57396, 1.57918, 1.56949, 1.56705, 1.56542, 1.56336, 1.5593, 1.55568, 1.55386, 1.55155, 1.55133, 1.55134, 1.54561, 1.54392, 1.54115, 1.54526, 1.56099, 1.53971, 1.53285, 1.53115, 1.52909, 1.52695, 1.52623, 1.52585, 1.5184, 1.51772, 1.51688, 1.51618, 1.51873, 1.51476, 1.51781, 1.53051, 1.53241, 1.53484, 1.51065, 1.50785, 1.5085, 1.51214, 1.50056, 1.49883, 1.49933, 1.49479, 1.49657, 1.4972, 1.50605, 1.50196, 1.51032, 1.48816, 1.48823, 1.53271, 1.6175, 1.59705, 1.58202, 1.56857, 1.58112, 1.54679, 1.56052, 1.55999, 1.53786, 1.51052, 1.49532, 1.4607, 1.47555, 1.47078, 1.46418, 1.46783, 1.45587, 1.46211, 1.44666, 1.44419, 1.4433, 1.44086, 1.43919, 1.43762, 1.43775, 1.4483, 1.46503, 1.46193, 1.44749, 1.44952, 1.44386, 1.42321, 1.42088, 1.42528, 1.41953, 1.41892, 1.41862, 1.41783, 1.41713, 1.41564, 1.413, 1.41163, 1.41258, 1.41001, 1.40822, 1.40566, 1.40448, 1.40301, 1.40342, 1.40073, 1.40017, 1.39845, 1.39863, 1.39803, 1.39684, 1.3959, 1.39475, 1.39307, 1.39085, 1.38762, 1.39211, 1.38258, 1.37964, 1.37934, 1.37657, 1.3856, 1.37245, 1.37237, 1.3709, 1.37014, 1.36867, 1.37151, 1.36758, 1.36731, 1.3659, 1.36598, 1.37062, 1.36486, 1.36336, 1.36455, 1.37182, 1.38303, 1.36244, 1.35491, 1.36981, 1.37767, 1.45912, 1.4992, 1.5161, 1.55628, 1.57532, 1.59318, 1.59244, 1.56743, 1.53156, 1.44268, 1.38731, 1.33042, 1.34731, 1.34355, 1.34673, 1.3385, 1.33309, 1.33653, 1.33206, 1.32807, 1.32942, 1.32929, 1.33044, 1.32753, 1.32443, 1.32675, 1.32149, 1.33104, 1.31959, 1.31836, 1.31442
1.64785, 1.65958, 1.65742, 1.65652, 1.64882, 1.64735, 1.64455, 1.64462, 1.6391, 1.63886, 1.63563, 1.63426, 1.63467, 1.63387, 1.63341, 1.63337, 1.63179, 1.64051, 1.63735, 1.59608, 1.58939, 1.65924, 1.67876, 1.76616, 1.79864, 1.89761, 1.84488, 1.95601, 1.97011, 1.79044, 1.67277, 1.58709, 1.57882, 1.59579, 1.60649, 1.59495, 1.61042, 1.59216, 1.58651, 1.57941, 1.59241, 1.577, 1.57715, 1.57303, 1.57301, 1.56943, 1.56667, 1.56336, 1.56173, 1.56031, 1.55488, 1.55365, 1.55154, 1.55144, 1.55074, 1.56797, 1.54418, 1.5431, 1.54061, 1.53907, 1.53677, 1.53303, 1.53006, 1.52756, 1.52601, 1.52651, 1.52174, 1.51802, 1.5172, 1.51498, 1.5137, 1.51252, 1.51218, 1.5204, 1.5248, 1.53628, 1.52466, 1.53113, 1.50771, 1.50621, 1.50907, 1.50213, 1.5003, 1.50909, 1.49403, 1.4988, 1.49696, 1.4931, 1.50611, 1.48655, 1.46907, 1.49399, 1.52989, 1.55198, 1.62809, 1.6025, 1.58383, 1.57133, 1.55923, 1.56271, 1.56294, 1.55776, 1.52956, 1.49235, 1.44827, 1.45606, 1.46983, 1.46157, 1.4592, 1.451, 1.45032, 1.4466, 1.44419, 1.44239, 1.44768, 1.43969, 1.43832, 1.43682, 1.44071, 1.43693, 1.43644, 1.44916, 1.43049, 1.43485, 1.42631, 1.42112, 1.42064, 1.41765, 1.41823, 1.41823, 1.41764, 1.41655, 1.41512, 1.41333, 1.41024, 1.40864, 1.40779, 1.40666, 1.40694, 1.40609, 1.40447, 1.40259, 1.40082, 1.39931, 1.39886, 1.39892, 1.39807, 1.39616, 1.39521, 1.39375, 1.39291, 1.39084, 1.38822, 1.38795, 1.38772, 1.38227, 1.38152, 1.37809, 1.3765, 1.37542, 1.37352, 1.3712, 1.3704, 1.36851, 1.36709, 1.36686, 1.36713, 1.36628, 1.36756, 1.36423, 1.36237, 1.36167, 1.36123, 1.36382, 1.36581, 1.36688, 1.35077, 1.35505, 1.39348, 1.43161, 1.45222, 1.52805, 1.54775, 1.5846, 1.59477, 1.60976, 1.58556, 1.54569, 1.4261, 1.36429, 1.32184, 1.34005, 1.34853, 1.35373, 1.35098, 1.33314, 1.33059, 1.33325, 1.32683, 1.32925, 1.32926, 1.33597, 1.32515, 1.3232, 1.32418, 1.32041, 1.31912, 1.31723, 1.31854, 1.3136
1.659, 1.65869, 1.65508, 1.65293, 1.65116, 1.64647, 1.64417, 1.64141, 1.65209, 1.64409, 1.6359, 1.6351, 1.63823, 1.6337, 1.63316, 1.63063, 1.63016, 1.62985, 1.63136, 1.62705, 1.60587, 1.63536, 1.67043, 1.72663, 1.78789, 1.80536, 1.87308, 1.82949, 1.88936, 1.82382, 1.68291, 1.60518, 1.58041, 1.59589, 1.60307, 1.59883, 1.60242, 1.58391, 1.5823, 1.57947, 1.5789, 1.57598, 1.57375, 1.57134, 1.57076, 1.57117, 1.56508, 1.56208, 1.55983, 1.558, 1.55633, 1.55444, 1.55234, 1.55077, 1.54888, 1.54776, 1.54601, 1.54328, 1.54026, 1.53819, 1.53672, 1.53574, 1.52975, 1.52762, 1.52779, 1.52647, 1.52458, 1.52068, 1.51592, 1.51328, 1.51178, 1.5111, 1.51155, 1.51134, 1.51795, 1.51743, 1.52733, 1.53232, 1.51974, 1.50648, 1.50577, 1.50362, 1.50851, 1.49687, 1.49512, 1.49333, 1.50266, 1.50211, 1.49289, 1.46496, 1.48283, 1.51112, 1.54772, 1.63278, 1.60074, 1.59351, 1.58857, 1.57644, 1.55883, 1.55931, 1.55426, 1.54455, 1.51027, 1.4638, 1.43715, 1.45102, 1.47047, 1.46063, 1.46338, 1.46092, 1.45567, 1.44602, 1.4446, 1.4428, 1.4402, 1.4399, 1.44462, 1.43681, 1.44823, 1.43645, 1.43126, 1.43866, 1.42662, 1.41968, 1.42577, 1.42036, 1.42038, 1.42678, 1.4176, 1.41733, 1.41859, 1.41474, 1.41339, 1.4119, 1.40921, 1.40847, 1.40666, 1.40537, 1.40439, 1.40278, 1.40236, 1.40266, 1.40072, 1.39998, 1.39871, 1.39766, 1.39696, 1.39532, 1.39542, 1.39379, 1.39231, 1.393, 1.39079, 1.38786, 1.38634, 1.38466, 1.38303, 1.38155, 1.37883, 1.37743, 1.37605, 1.37441, 1.37084, 1.36895, 1.36754, 1.36568, 1.36629, 1.36671, 1.36512, 1.36214, 1.3612, 1.3606, 1.36016, 1.36343, 1.36537, 1.3636, 1.34328, 1.35417, 1.4024, 1.42765, 1.50186, 1.51685, 1.53707, 1.58892, 1.60353, 1.65232, 1.58121, 1.49839, 1.41243, 1.34372, 1.30023, 1.34615, 1.34598, 1.36164, 1.34626, 1.33165, 1.33097, 1.32829, 1.32894, 1.32608, 1.32735, 1.33638, 1.32508, 1.32413, 1.32096, 1.31945, 1.31972, 1.31813, 1.31559, 1.31555
1.66166, 1.65872, 1.65681, 1.65339, 1.65219, 1.6483, 1.64571, 1.64247, 1.64949, 1.63808, 1.63446, 1.63904, 1.63651, 1.63272, 1.63346, 1.63179, 1.63051, 1.62926, 1.63127, 1.62466, 1.60021, 1.6153, 1.67537, 1.69605, 1.7514, 1.83309, 1.87885, 1.83747, 2.12995, 1.89899, 1.76841, 1.56843, 1.56026, 1.60347, 1.59394, 1.59103, 1.59173, 1.58565, 1.58244, 1.58076, 1.57769, 1.57597, 1.57321, 1.57153, 1.56891, 1.56919, 1.56494, 1.56246, 1.56075, 1.55839, 1.55727, 1.55557, 1.55421, 1.55254, 1.55058, 1.54907, 1.54528, 1.5453, 1.54343, 1.53976, 1.53851, 1.53459, 1.53281, 1.52864, 1.5269, 1.52592, 1.52375, 1.5199, 1.51828, 1.51566, 1.51521, 1.5194, 1.51789, 1.51418, 1.51086, 1.51722, 1.53741, 1.52935, 1.5096, 1.50803, 1.50625, 1.50444, 1.50114, 1.49839, 1.49644, 1.49477, 1.49607, 1.50249, 1.50354, 1.48953, 1.47915, 1.50299, 1.52008, 1.57415, 1.58342, 1.59584, 1.60727, 1.57581, 1.55715, 1.55711, 1.5605, 1.53735, 1.49581, 1.51414, 1.4476, 1.45286, 1.46439, 1.46068, 1.46836, 1.46453, 1.45201, 1.44647, 1.44526, 1.44343, 1.44179, 1.44126, 1.44016, 1.43995, 1.43693, 1.42709, 1.44444, 1.44361, 1.41259, 1.42104, 1.41892, 1.42437, 1.43038, 1.41811, 1.4162, 1.4143, 1.41458, 1.41437, 1.41205, 1.4101, 1.40921, 1.40897, 1.40547, 1.40907, 1.40331, 1.40186, 1.40237, 1.40093, 1.40095, 1.39954, 1.39893, 1.398, 1.39519, 1.39562, 1.3948, 1.39304, 1.39194, 1.39151, 1.38867, 1.38803, 1.38626, 1.38412, 1.38298, 1.38116, 1.38041, 1.37962, 1.3765, 1.37536, 1.37442, 1.37181, 1.37081, 1.36932, 1.37408, 1.36884, 1.36418, 1.36495, 1.36266, 1.36263, 1.36153, 1.36162, 1.37613, 1.36931, 1.35799, 1.35585, 1.40869, 1.44096, 1.4713, 1.50197, 1.55932, 1.58421, 1.62264, 1.60321, 1.5647, 1.47226, 1.37844, 1.31606, 1.33495, 1.37317, 1.34982, 1.34722, 1.3367, 1.33383, 1.33624, 1.33012, 1.33016, 1.32879, 1.32722, 1.32936, 1.32708, 1.32387, 1.32238, 1.31919, 1.31826, 1.31781, 1.31561, 1.31262
1.66225, 1.65964, 1.65711, 1.65499, 1.65141, 1.64856, 1.64838, 1.64479, 1.64001, 1.6384, 1.63429, 1.63201, 1.63419, 1.63506, 1.63586, 1.63166, 1.63155, 1.63136, 1.63438, 1.64801, 1.60525, 1.63434, 1.68528, 1.72922, 1.79675, 1.83166, 1.91092, 2.00378, 1.81383, 1.88551, 1.74291, 1.59638, 1.57868, 1.58981, 1.59841, 1.60649, 1.59988, 1.58595, 1.58358, 1.58229, 1.58077, 1.57633, 1.57437, 1.57152, 1.56905, 1.56831, 1.56525, 1.5621, 1.5604, 1.55898, 1.5576, 1.5573, 1.55527, 1.55269, 1.5515, 1.54939, 1.54701, 1.54689, 1.54341, 1.54033, 1.53787, 1.53624, 1.53427, 1.53144, 1.53009, 1.52645, 1.52289, 1.52114, 1.5182, 1.51599, 1.51471, 1.51474, 1.51377, 1.51274, 1.52616, 1.52198, 1.52469, 1.53343, 1.52066, 1.51011, 1.50939, 1.50435, 1.50369, 1.51065, 1.49582, 1.51419, 1.49622, 1.49861, 1.50361, 1.49256, 1.49265, 1.48928, 1.50377, 1.60685, 1.61347, 1.59623, 1.59717, 1.57982, 1.56489, 1.60353, 1.54918, 1.52209, 1.51723, 1.46264, 1.44775, 1.46845, 1.46123, 1.46184, 1.46643, 1.45435, 1.4508, 1.44667, 1.44625, 1.44371, 1.44331, 1.44392, 1.44333, 1.44082, 1.44639, 1.43415, 1.44741, 1.46802, 1.47107, 1.43595, 1.4315, 1.42046, 1.42718, 1.41776, 1.41862, 1.41628, 1.41446, 1.41261, 1.41256, 1.41039, 1.40927, 1.40721, 1.40404, 1.40406, 1.40188, 1.40314, 1.43747, 1.40002, 1.40007, 1.39926, 1.39813, 1.39584, 1.39442, 1.39321, 1.39184, 1.39107, 1.38963, 1.38834, 1.38652, 1.38516, 1.38438, 1.38325, 1.3815, 1.38893, 1.37864, 1.37847, 1.37793, 1.37664, 1.37566, 1.37568, 1.37326, 1.37076, 1.36776, 1.36626, 1.36587, 1.36384, 1.36391, 1.3646, 1.36105, 1.36903, 1.36469, 1.36373, 1.35393, 1.36511, 1.37814, 1.43581, 1.44353, 1.50006, 1.53669, 1.55867, 1.58196, 1.57031, 1.54437, 1.49612, 1.4272, 1.32669, 1.30613, 1.34666, 1.34564, 1.3414, 1.34379, 1.33365, 1.33012, 1.33082, 1.33049, 1.32929, 1.32737, 1.32752, 1.3246, 1.32259, 1.322, 1.32054, 1.32074, 1.34756, 1.3162, 1.31448
1.66388, 1.65801, 1.65489, 1.65306, 1.65534, 1.64783, 1.66522, 1.64404, 1.63935, 1.63771, 1.63617, 1.63553, 1.64103, 1.63502, 1.63469, 1.63312, 1.63128, 1.63194, 1.6319, 1.63516, 1.61248, 1.66108, 1.68339, 1.71365, 1.76121, 1.8398, 1.90036, 2.00183, 1.80755, 1.90561, 1.80356, 1.62716, 1.5639, 1.59461, 1.59526, 1.59286, 1.59486, 1.59533, 1.59272, 1.58145, 1.57941, 1.57686, 1.57272, 1.57088, 1.56965, 1.56771, 1.56774, 1.56314, 1.56102, 1.55962, 1.55677, 1.55638, 1.55522, 1.55403, 1.5517, 1.54929, 1.54758, 1.54544, 1.54335, 1.54304, 1.53935, 1.53645, 1.53368, 1.53298, 1.52958, 1.52654, 1.52894, 1.52187, 1.51928, 1.51672, 1.51623, 1.51364, 1.51422, 1.51237, 1.53389, 1.51983, 1.53059, 1.53465, 1.53706, 1.50682, 1.51036, 1.50298, 1.5054, 1.50565, 1.49653, 1.49878, 1.49402, 1.49584, 1.50961, 1.48138, 1.48518, 1.50378, 1.50928, 1.54246, 1.54795, 1.58433, 1.56648, 1.5535, 1.5535, 1.55076, 1.53222, 1.51429, 1.51664, 1.4914, 1.44673, 1.45607, 1.48189, 1.46385, 1.47155, 1.46247, 1.45081, 1.45579, 1.44692, 1.45548, 1.44737, 1.45918, 1.45543, 1.4517, 1.43493, 1.44063, 1.45239, 1.43525, 1.44568, 1.42787, 1.43111, 1.44003, 1.41677, 1.41613, 1.41558, 1.41566, 1.41525, 1.41305, 1.36943, 1.41074, 1.40823, 1.40667, 1.40387, 1.40215, 1.40064, 1.40012, 1.39923, 1.39918, 1.39806, 1.39827, 1.39635, 1.39576, 1.39549, 1.39281, 1.39185, 1.38865, 1.38706, 1.38624, 1.38584, 1.38371, 1.38198, 1.38218, 1.38117, 1.38197, 1.37951, 1.37862, 1.37812, 1.3759, 1.37749, 1.37555, 1.37442, 1.37296, 1.36965, 1.36739, 1.36697, 1.36569, 1.36631, 1.36273, 1.36335, 1.37899, 1.39005, 1.37511, 1.35393, 1.35475, 1.41077, 1.4111, 1.45848, 1.50563, 1.56531, 1.56206, 1.57472, 1.57608, 1.57566, 1.51555, 1.45076, 1.3688, 1.32387, 1.34949, 1.35003, 1.36166, 1.34581, 1.3324, 1.33064, 1.33035, 1.32903, 1.32916, 1.32622, 1.32655, 1.3244, 1.32391, 1.32146, 1.32062, 1.31999, 1.31764, 1.316, 1.31437
1.66132, 1.65797, 1.65417, 1.65133, 1.64931, 1.64621, 1.64603, 1.64333, 1.64201, 1.64043, 1.63797, 1.64068, 1.63538, 1.63528, 1.63418, 1.63522, 1.63127, 1.6305, 1.63321, 1.63717, 1.60851, 1.68228, 1.68483, 1.73695, 1.72983, 1.85439, 1.93335, 1.94189, 1.95688, 1.80368, 1.83311, 1.57254, 1.57615, 1.59826, 1.59372, 1.59586, 1.59154, 1.60938, 1.58114, 1.58705, 1.57785, 1.57495, 1.57344, 1.57064, 1.56921, 1.59548, 1.56486, 1.56337, 1.561, 1.55916, 1.55818, 1.55679, 1.5555, 1.55396, 1.55116, 1.54896, 1.54736, 1.54562, 1.54368, 1.54209, 1.53951, 1.53719, 1.53429, 1.53235, 1.53048, 1.52788, 1.52529, 1.52204, 1.52042, 1.51717, 1.51688, 1.51321, 1.5126, 1.51139, 1.52148, 1.52437, 1.5385, 1.53219, 1.53993, 1.52477, 1.50316, 1.51015, 1.51654, 1.51234, 1.49504, 1.49835, 1.49967, 1.49957, 1.49468, 1.47533, 1.46805, 1.50946, 1.52039, 1.5553, 1.56795, 1.55912, 1.55756, 1.55051, 1.54768, 1.54659, 1.52739, 1.54852, 1.5757, 1.47825, 1.44074, 1.44704, 1.46416, 1.47308, 1.46511, 1.45384, 1.45448, 1.44936, 1.46821, 1.4509, 1.45918, 1.45487, 1.4462, 1.44826, 1.44835, 1.46655, 1.44466, 1.44079, 1.43755, 1.43134, 1.4236, 1.43337, 1.42701, 1.41795, 1.41671, 1.41636, 1.41462, 1.41363, 1.41106, 1.41073, 1.40964, 1.40651, 1.40534, 1.40335, 1.40175, 1.40123, 1.3986, 1.39843, 1.39881, 1.39681, 1.39645, 1.39526, 1.39352, 1.39123, 1.39037, 1.38987, 1.38676, 1.38669, 1.38522, 1.3823, 1.38177, 1.38053, 1.37879, 1.37831, 1.37897, 1.37829, 1.37816, 1.37793, 1.37551, 1.37484, 1.37344, 1.37171, 1.37207, 1.36854, 1.36688, 1.36478, 1.36449, 1.36457, 1.3646, 1.38583, 1.36843, 1.36585, 1.36471, 1.32874, 1.4384, 1.43418, 1.46134, 1.5205, 1.53895, 1.62834, 1.60435, 1.64104, 1.6029, 1.54634, 1.43348, 1.3656, 1.30704, 1.33809, 1.34726, 1.35219, 1.34006, 1.35338, 1.33087, 1.3298, 1.34445, 1.32716, 1.32713, 1.32401, 1.32438, 1.32262, 1.32238, 1.31878, 1.31889, 1.31935, 1.3161, 1.32253
1.65908, 1.65557, 1.65206, 1.65131, 1.64598, 1.65387, 1.64375, 1.64262, 1.64198, 1.64075, 1.63791, 1.63792, 1.63744, 1.65096, 1.63368, 1.63242, 1.63, 1.63456, 1.62852, 1.63485, 1.59921, 1.62524, 1.70688, 1.69596, 1.77848, 1.78179, 1.86081, 1.92416, 1.94666, 1.79372, 1.65672, 1.61114, 1.58177, 1.59195, 1.60015, 1.59533, 1.59162, 1.59191, 1.58965, 1.57734, 1.57473, 1.57886, 1.56953, 1.56959, 1.5678, 1.56576, 1.56502, 1.57459, 1.56134, 1.56755, 1.55777, 1.55545, 1.55393, 1.55165, 1.55041, 1.54832, 1.5474, 1.54561, 1.54409, 1.541, 1.54075, 1.53726, 1.53448, 1.5337, 1.53004, 1.52806, 1.52555, 1.52147, 1.51973, 1.51725, 1.51862, 1.51639, 1.51226, 1.51119, 1.524, 1.51004, 1.53078, 1.54405, 1.5356, 1.53751, 1.50017, 1.51478, 1.51011, 1.50659, 1.49687, 1.49161, 1.4933, 1.49235, 1.50838, 1.4795, 1.47513, 1.48941, 1.54012, 1.55682, 1.57861, 1.5767, 1.58172, 1.56192, 1.54744, 1.54828, 1.54438, 1.53886, 1.51805, 1.45881, 1.45183, 1.44684, 1.46481, 1.46821, 1.47061, 1.45428, 1.45185, 1.45232, 1.46083, 1.45105, 1.4513, 1.4475, 1.44168, 1.44268, 1.44003, 1.46436, 1.47136, 1.447, 1.43199, 1.444, 1.42608, 1.42453, 1.42049, 1.42024, 1.42659, 1.41657, 1.41608, 1.41556, 1.41392, 1.41087, 1.40903, 1.40827, 1.40676, 1.40355, 1.40218, 1.40075, 1.4001, 1.39987, 1.39885, 1.3988, 1.39807, 1.39575, 1.39372, 1.39226, 1.3917, 1.38962, 1.38788, 1.38604, 1.38423, 1.38403, 1.38135, 1.37845, 1.37957, 1.37928, 1.37917, 1.37798, 1.37686, 1.37696, 1.37523, 1.37326, 1.37084, 1.371, 1.36976, 1.36932, 1.37269, 1.37827, 1.36146, 1.36009, 1.3593, 1.3688, 1.36209, 1.36121, 1.36059, 1.36445, 1.38914, 1.43308, 1.45838, 1.50072, 1.55421, 1.5852, 1.60922, 1.63706, 1.65488, 1.48722, 1.4922, 1.34718, 1.32671, 1.33424, 1.35239, 1.33971, 1.35147, 1.33427, 1.33367, 1.33323, 1.32921, 1.32634, 1.3245, 1.3239, 1.32327, 1.32079, 1.31983, 1.32123, 1.32896, 1.31869, 1.31605, 1.31537
1.65642, 1.65355, 1.65127, 1.64561, 1.64527, 1.64125, 1.64243, 1.64813, 1.64208, 1.64093, 1.6377, 1.63806, 1.63622, 1.63405, 1.63371, 1.6313, 1.6291, 1.62914, 1.63027, 1.63372, 1.61045, 1.63065, 1.69243, 1.72059, 1.76461, 1.84528, 1.86945, 1.99222, 1.96023, 1.81371, 1.70348, 1.58197, 1.55457, 1.58662, 1.60198, 1.58811, 1.58396, 1.58098, 1.58503, 1.58468, 1.57573, 1.57829, 1.56745, 1.56797, 1.5653, 1.56475, 1.56272, 1.5617, 1.55896, 1.55748, 1.55466, 1.55242, 1.55164, 1.55108, 1.54797, 1.54628, 1.54471, 1.5451, 1.54333, 1.53872, 1.53759, 1.53686, 1.53319, 1.53126, 1.52918, 1.52694, 1.52468, 1.5225, 1.52053, 1.51707, 1.51499, 1.51435, 1.51336, 1.51202, 1.51027, 1.51093, 1.51342, 1.52708, 1.53619, 1.53488, 1.50992, 1.50328, 1.5097, 1.49691, 1.49288, 1.50198, 1.49447, 1.50465, 1.49677, 1.49193, 1.47728, 1.4974, 1.52564, 1.59154, 1.58433, 1.58475, 1.58141, 1.57268, 1.54118, 1.5431, 1.54269, 1.52296, 1.50208, 1.48199, 1.4416, 1.44626, 1.46114, 1.46211, 1.46162, 1.45255, 1.45229, 1.45352, 1.45288, 1.45018, 1.45431, 1.44139, 1.44212, 1.46526, 1.47514, 1.47801, 1.45456, 1.4445, 1.44017, 1.42892, 1.42927, 1.42307, 1.42326, 1.43002, 1.41876, 1.41819, 1.41642, 1.41531, 1.41272, 1.4107, 1.40988, 1.40809, 1.40618, 1.40458, 1.40283, 1.40137, 1.40027, 1.39986, 1.39935, 1.39751, 1.39626, 1.39497, 1.39256, 1.39113, 1.38952, 1.38874, 1.387, 1.38525, 1.38463, 1.38255, 1.38215, 1.37905, 1.37808, 1.37703, 1.37654, 1.37687, 1.37647, 1.3761, 1.3766, 1.37711, 1.37087, 1.36982, 1.36992, 1.3821, 1.36504, 1.3654, 1.36133, 1.36193, 1.35721, 1.36771, 1.36305, 1.37099, 1.35084, 1.3364, 1.38106, 1.44289, 1.4679, 1.51848, 1.56527, 1.59511, 1.62591, 1.64335, 1.6406, 1.49102, 1.46303, 1.3386, 1.32652, 1.35114, 1.34407, 1.35696, 1.34667, 1.33202, 1.32898, 1.32926, 1.33004, 1.32667, 1.32544, 1.32432, 1.32293, 1.32221, 1.32027, 1.31908, 1.31974, 1.31845, 1.31718, 1.31523
1.65462, 1.65252, 1.65356, 1.64715, 1.64474, 1.64171, 1.64132, 1.64358, 1.64245, 1.64182, 1.6399, 1.63802, 1.63648, 1.6311, 1.63398, 1.63046, 1.62851, 1.62841, 1.62767, 1.63717, 1.59928, 1.60992, 1.68162, 1.72765, 1.76013, 1.79104, 1.85218, 1.87179, 1.92504, 1.79307, 1.79654, 1.60056, 1.56265, 1.58623, 1.59685, 1.59202, 1.5828, 1.57928, 1.57849, 1.57552, 1.57361, 1.57236, 1.56987, 1.56692, 1.56495, 1.56398, 1.56238, 1.56007, 1.55878, 1.55738, 1.55549, 1.55377, 1.55017, 1.54726, 1.54671, 1.54469, 1.54188, 1.54049, 1.54256, 1.53683, 1.5345, 1.53376, 1.53213, 1.52929, 1.52619, 1.52418, 1.52414, 1.52202, 1.52624, 1.51683, 1.51496, 1.51343, 1.51279, 1.5162, 1.50903, 1.52096, 1.51982, 1.53511, 1.54025, 1.52846, 1.52057, 1.50986, 1.50272, 1.49638, 1.50024, 1.49042, 1.49255, 1.49296, 1.50286, 1.49578, 1.47099, 1.49513, 1.52476, 1.58194, 1.57454, 1.57995, 1.57276, 1.56171, 1.53759, 1.53557, 1.53297, 1.52789, 1.52426, 1.49658, 1.4588, 1.4506, 1.44337, 1.4646, 1.45847, 1.46221, 1.45286, 1.46337, 1.45662, 1.44965, 1.45177, 1.45706, 1.45814, 1.46847, 1.46364, 1.46537, 1.44836, 1.43745, 1.43727, 1.42712, 1.42603, 1.42273, 1.42143, 1.42733, 1.41771, 1.42028, 1.4153, 1.41452, 1.41552, 1.40984, 1.40955, 1.4071, 1.40515, 1.40466, 1.40274, 1.40079, 1.40054, 1.40041, 1.39847, 1.39699, 1.39637, 1.39461, 1.39243, 1.39117, 1.3891, 1.38761, 1.38525, 1.38389, 1.38214, 1.38117, 1.37983, 1.37783, 1.37778, 1.37546, 1.37459, 1.37445, 1.37458, 1.37424, 1.37389, 1.37437, 1.37146, 1.37004, 1.36908, 1.36565, 1.36247, 1.36218, 1.36089, 1.35911, 1.3572, 1.35685, 1.37223, 1.36523, 1.36128, 1.34768, 1.37668, 1.41495, 1.45459, 1.5179, 1.56307, 1.58859, 1.59553, 1.63134, 1.61001, 1.51015, 1.48579, 1.38774, 1.32444, 1.33894, 1.35376, 1.33797, 1.33512, 1.33267, 1.33246, 1.33064, 1.33023, 1.32717, 1.32602, 1.32555, 1.32286, 1.32125, 1.32018, 1.31852, 1.3192, 1.31905, 1.31502, 1.31386
1.65697, 1.65466, 1.65172, 1.64927, 1.64585, 1.64426, 1.64424, 1.64238, 1.64154, 1.6404, 1.63779, 1.63466, 1.6346, 1.63396, 1.63368, 1.62988, 1.62933, 1.62796, 1.62795, 1.62643, 1.59949, 1.61978, 1.67167, 1.71842, 1.74933, 1.80702, 1.85533, 1.94266, 1.99212, 1.81008, 1.70322, 1.57306, 1.56833, 1.56927, 1.60637, 1.59025, 1.59049, 1.58203, 1.5784, 1.57682, 1.57422, 1.57265, 1.57046, 1.56803, 1.56775, 1.56554, 1.56571, 1.56179, 1.56026, 1.55761, 1.55625, 1.55372, 1.55209, 1.55006, 1.5472, 1.54676, 1.53933, 1.53735, 1.54272, 1.53316, 1.53146, 1.53178, 1.53171, 1.5282, 1.52738, 1.52396, 1.5228, 1.52041, 1.51932, 1.51836, 1.51666, 1.51407, 1.51439, 1.51201, 1.50972, 1.50779, 1.5106, 1.52425, 1.51906, 1.53142, 1.52027, 1.53492, 1.51622, 1.50247, 1.4923, 1.49316, 1.4952, 1.49218, 1.49336, 1.49264, 1.46645, 1.49285, 1.49794, 1.54214, 1.57117, 1.57004, 1.56218, 1.55485, 1.54169, 1.54818, 1.54057, 1.53815, 1.53087, 1.50801, 1.45183, 1.4608, 1.45546, 1.47111, 1.45806, 1.45388, 1.46134, 1.45462, 1.46453, 1.45024, 1.43839, 1.46377, 1.46556, 1.4987, 1.47819, 1.47205, 1.45268, 1.43374, 1.43631, 1.43441, 1.42856, 1.42294, 1.4198, 1.4191, 1.41912, 1.41571, 1.41446, 1.4127, 1.41109, 1.41112, 1.40826, 1.40771, 1.40791, 1.4044, 1.40368, 1.40153, 1.40437, 1.39775, 1.39666, 1.39698, 1.39497, 1.39364, 1.39203, 1.39023, 1.38921, 1.38573, 1.38513, 1.38202, 1.37991, 1.38002, 1.38046, 1.3778, 1.37738, 1.37518, 1.37411, 1.37502, 1.37476, 1.37362, 1.37396, 1.3711, 1.37057, 1.3706, 1.37058, 1.36863, 1.36481, 1.36113, 1.36067, 1.36018, 1.36044, 1.36346, 1.36128, 1.36845, 1.36436, 1.34847, 1.34854, 1.40506, 1.45543, 1.50164, 1.52597, 1.56039, 1.61279, 1.62809, 1.57726, 1.4583, 1.42334, 1.35055, 1.31849, 1.33599, 1.34997, 1.33796, 1.33407, 1.33144, 1.33114, 1.33249, 1.33586, 1.32898, 1.32625, 1.32646, 1.32341, 1.32274, 1.32156, 1.32153, 1.31957, 1.31951, 1.31842, 1.31936
1.66088, 1.65785, 1.65434, 1.65063, 1.64967, 1.64759, 1.64609, 1.64496, 1.67286, 1.6407, 1.63649, 1.63618, 1.63329, 1.63652, 1.63076, 1.63681, 1.62738, 1.62843, 1.62881, 1.63119, 1.60242, 1.60631, 1.69643, 1.69638, 1.7715, 1.8266, 1.88329, 1.92996, 1.94148, 1.90052, 1.77593, 1.62401, 1.57404, 1.60636, 1.60618, 1.59013, 1.59077, 1.58915, 1.58932, 1.57514, 1.57926, 1.57317, 1.5717, 1.57032, 1.56833, 1.5716, 1.56516, 1.56491, 1.58582, 1.55788, 1.55767, 1.55429, 1.55127, 1.54915, 1.55406, 1.54471, 1.54061, 1.53817, 1.53452, 1.53338, 1.53209, 1.53119, 1.52961, 1.52933, 1.52631, 1.52423, 1.52241, 1.52099, 1.52034, 1.51926, 1.51791, 1.51736, 1.51688, 1.51456, 1.52098, 1.51134, 1.52037, 1.53463, 1.54752, 1.53827, 1.55089, 1.52177, 1.51191, 1.50171, 1.50478, 1.49541, 1.49537, 1.49813, 1.50243, 1.4917, 1.46717, 1.49722, 1.53186, 1.57508, 1.55846, 1.56433, 1.54871, 1.54702, 1.54236, 1.55053, 1.5487, 1.54724, 1.54378, 1.47982, 1.46174, 1.43778, 1.47882, 1.48184, 1.47272, 1.45765, 1.45879, 1.45467, 1.44702, 1.46113, 1.47039, 1.46513, 1.46746, 1.49501, 1.50309, 1.45136, 1.44573, 1.43274, 1.43089, 1.42594, 1.42299, 1.4219, 1.42003, 1.4193, 1.42048, 1.41635, 1.41575, 1.41377, 1.41202, 1.41, 1.40694, 1.40539, 1.40421, 1.40459, 1.40303, 1.41138, 1.39814, 1.39685, 1.39663, 1.39545, 1.39427, 1.39271, 1.3906, 1.38787, 1.38813, 1.38633, 1.38483, 1.38216, 1.3814, 1.38079, 1.37882, 1.37812, 1.37749, 1.37674, 1.37608, 1.37609, 1.37515, 1.37353, 1.37299, 1.37235, 1.37056, 1.36958, 1.36817, 1.36686, 1.36744, 1.36274, 1.36079, 1.36178, 1.36012, 1.368, 1.36227, 1.37168, 1.3648, 1.33077, 1.33495, 1.4146, 1.4581, 1.49196, 1.54465, 1.57832, 1.58243, 1.60765, 1.5433, 1.52706, 1.3995, 1.32734, 1.32183, 1.33649, 1.35442, 1.33795, 1.34446, 1.334, 1.33327, 1.33057, 1.33179, 1.32995, 1.35429, 1.3274, 1.32363, 1.32213, 1.3218, 1.31949, 1.31957, 1.31948, 1.32144, 1.31733
1.66263, 1.69314, 1.65864, 1.65391, 1.65286, 1.64931, 1.64922, 1.64813, 1.64508, 1.64227, 1.63886, 1.63496, 1.63436, 1.6329, 1.63203, 1.62989, 1.62845, 1.639, 1.64045, 1.63808, 1.6109, 1.61013, 1.66954, 1.69746, 1.77953, 1.82058, 1.87893, 1.96375, 1.94257, 1.90204, 1.74716, 1.62809, 1.56219, 1.58322, 1.60284, 1.59211, 1.59446, 1.59557, 1.59103, 1.58593, 1.57607, 1.57668, 1.5762, 1.57557, 1.57681, 1.57316, 1.56511, 1.57224, 1.56248, 1.56796, 1.5566, 1.55414, 1.5507, 1.54836, 1.54696, 1.54357, 1.54165, 1.53629, 1.53363, 1.53154, 1.53, 1.52925, 1.52846, 1.52644, 1.5238, 1.52364, 1.5219, 1.52213, 1.51994, 1.51905, 1.51892, 1.52647, 1.54191, 1.51655, 1.51472, 1.52991, 1.51103, 1.54376, 1.52321, 1.53801, 1.54527, 1.51915, 1.51295, 1.50412, 1.52054, 1.51289, 1.52045, 1.49294, 1.49782, 1.48526, 1.4692, 1.47852, 1.52547, 1.542, 1.55254, 1.56198, 1.56354, 1.61838, 1.52472, 1.54964, 1.55608, 1.54762, 1.53321, 1.50962, 1.47061, 1.4506, 1.45812, 1.47327, 1.45875, 1.46862, 1.46185, 1.47128, 1.46418, 1.47501, 1.48867, 1.48544, 1.48616, 1.51671, 1.46768, 1.46724, 1.42946, 1.45387, 1.44299, 1.43193, 1.42739, 1.42384, 1.42332, 1.42101, 1.42095, 1.4183, 1.41689, 1.41422, 1.4124, 1.40911, 1.40723, 1.40467, 1.40309, 1.40499, 1.40021, 1.3998, 1.39824, 1.39724, 1.39705, 1.39585, 1.39406, 1.39103, 1.38917, 1.39003, 1.38757, 1.38638, 1.38365, 1.38261, 1.38218, 1.3806, 1.38073, 1.3795, 1.37866, 1.3774, 1.37694, 1.37499, 1.37521, 1.3744, 1.37212, 1.37114, 1.37093, 1.36903, 1.36815, 1.36569, 1.3643, 1.36206, 1.36185, 1.35812, 1.36332, 1.36822, 1.36564, 1.37043, 1.35618, 1.34074, 1.34638, 1.41655, 1.45425, 1.49266, 1.54617, 1.58855, 1.61365, 1.62118, 1.5851, 1.57177, 1.40703, 1.38388, 1.30617, 1.35806, 1.36107, 1.34069, 1.33598, 1.33348, 1.33266, 1.33144, 1.33352, 1.33948, 1.32833, 1.32766, 1.32594, 1.32396, 1.32081, 1.32113, 1.31886, 1.3188, 1.31901, 1.31732
1.66454, 1.66294, 1.66015, 1.65884, 1.65379, 1.65244, 1.64986, 1.6487, 1.6509, 1.65927, 1.64223, 1.63997, 1.63898, 1.63514, 1.63417, 1.64197, 1.63371, 1.63029, 1.6352, 1.62843, 1.61138, 1.60779, 1.64739, 1.68264, 1.74934, 1.82058, 1.88191, 1.90861, 1.93328, 1.876, 1.71904, 1.64009, 1.56242, 1.59202, 1.6003, 1.59633, 1.59236, 1.59692, 1.61023, 1.58373, 1.58951, 1.57866, 1.57317, 1.57129, 1.57021, 1.59394, 1.56575, 1.56459, 1.56197, 1.56367, 1.55649, 1.55205, 1.55143, 1.56086, 1.54521, 1.54516, 1.54044, 1.53676, 1.53481, 1.53337, 1.53055, 1.52979, 1.54047, 1.52696, 1.52529, 1.52368, 1.52267, 1.52231, 1.52102, 1.52673, 1.51968, 1.519, 1.5194, 1.51717, 1.51565, 1.53031, 1.51462, 1.50649, 1.51441, 1.53418, 1.5421, 1.54162, 1.51769, 1.49995, 1.51016, 1.50699, 1.51672, 1.4959, 1.49327, 1.47172, 1.4748, 1.4862, 1.49838, 1.55937, 1.5525, 1.56016, 1.57459, 1.56103, 1.53648, 1.53795, 1.5499, 1.54747, 1.5073, 1.48225, 1.44862, 1.43932, 1.44791, 1.44877, 1.48279, 1.48254, 1.47427, 1.48193, 1.47943, 1.49975, 1.49641, 1.50707, 1.48256, 1.48401, 1.46241, 1.45615, 1.45038, 1.44379, 1.44219, 1.44363, 1.42784, 1.42612, 1.424, 1.4296, 1.42298, 1.41991, 1.4175, 1.41598, 1.41287, 1.4101, 1.40676, 1.40576, 1.40441, 1.40222, 1.41228, 1.40155, 1.39864, 1.39823, 1.39736, 1.39724, 1.39577, 1.39195, 1.39128, 1.38912, 1.39021, 1.38779, 1.38637, 1.38485, 1.38402, 1.38164, 1.38176, 1.38129, 1.38222, 1.37801, 1.3775, 1.37764, 1.37596, 1.37463, 1.37372, 1.37249, 1.36935, 1.37053, 1.36784, 1.36527, 1.364, 1.36224, 1.37932, 1.36145, 1.36163, 1.36662, 1.36753, 1.37089, 1.36506, 1.3409, 1.35668, 1.40588, 1.44475, 1.47907, 1.53706, 1.61967, 1.5958, 1.61041, 1.62943, 1.54885, 1.46393, 1.33551, 1.30858, 1.35328, 1.36387, 1.3493, 1.34537, 1.341, 1.3349, 1.33462, 1.35384, 1.33016, 1.33154, 1.32952, 1.32531, 1.32648, 1.32406, 1.32308, 1.32006, 1.31941, 1.31774, 1.31884
1.66582, 1.66267, 1.66043, 1.66057, 1.65737, 1.65399, 1.65103, 1.65975, 1.64836, 1.64549, 1.64278, 1.63972, 1.63812, 1.63506, 1.63386, 1.63151, 1.64703, 1.62981, 1.62826, 1.62917, 1.61404, 1.6146, 1.66009, 1.69971, 1.74951, 1.81425, 1.85913, 1.87976, 1.96513, 2.05751, 1.86708, 1.65828, 1.56908, 1.61098, 1.60342, 1.60604, 1.58983, 1.59505, 1.58993, 1.60561, 1.58159, 1.58132, 1.57258, 1.56918, 1.56901, 1.56607, 1.56443, 1.56237, 1.57824, 1.55838, 1.55439, 1.56034, 1.54964, 1.54712, 1.54415, 1.54088, 1.53905, 1.53558, 1.53493, 1.5409, 1.52908, 1.53152, 1.52828, 1.52718, 1.52463, 1.52276, 1.52123, 1.52079, 1.52008, 1.51944, 1.51815, 1.54045, 1.52833, 1.5124, 1.51992, 1.51132, 1.5125, 1.52326, 1.51797, 1.5264, 1.56079, 1.55072, 1.53179, 1.51289, 1.49978, 1.51038, 1.51613, 1.49865, 1.49906, 1.48555, 1.47522, 1.47569, 1.49627, 1.50967, 1.54442, 1.56688, 1.55077, 1.53621, 1.52535, 1.54201, 1.54366, 1.52837, 1.49563, 1.47538, 1.45867, 1.4394, 1.45692, 1.4963, 1.47942, 1.49193, 1.49136, 1.49086, 1.50248, 1.51672, 1.48481, 1.49882, 1.49523, 1.46479, 1.47171, 1.44824, 1.45123, 1.45012, 1.4449, 1.43978, 1.42927, 1.43421, 1.42487, 1.42241, 1.42095, 1.41751, 1.43649, 1.41829, 1.41244, 1.41019, 1.40872, 1.40555, 1.40511, 1.4041, 1.40187, 1.40183, 1.40055, 1.39836, 1.39717, 1.39868, 1.39542, 1.39218, 1.39153, 1.38983, 1.38806, 1.38723, 1.38435, 1.38134, 1.3805, 1.38132, 1.38153, 1.37946, 1.37813, 1.37785, 1.37875, 1.3771, 1.37506, 1.37121, 1.37057, 1.37033, 1.36815, 1.36571, 1.36442, 1.36301, 1.3622, 1.35846, 1.35718, 1.36517, 1.3561, 1.35518, 1.3611, 1.36634, 1.33583, 1.33627, 1.33219, 1.41254, 1.45868, 1.49985, 1.53919, 1.58304, 1.60715, 1.62159, 1.64132, 1.53194, 1.47457, 1.42097, 1.32273, 1.3417, 1.34408, 1.34285, 1.34863, 1.33661, 1.34687, 1.3323, 1.33119, 1.33265, 1.32898, 1.32897, 1.34174, 1.32631, 1.32322, 1.323, 1.3205, 1.31769, 1.31935, 1.32016
1.66288, 1.66206, 1.66117, 1.65732, 1.65521, 1.65311, 1.64961, 1.64523, 1.64444, 1.64235, 1.64068, 1.64565, 1.63349, 1.63283, 1.64086, 1.64541, 1.62313, 1.62374, 1.63812, 1.64086, 1.6317, 1.59591, 1.68156, 1.72599, 1.77174, 1.82793, 1.85086, 2.00563, 2.12787, 1.98339, 1.73416, 1.67814, 1.55286, 1.56531, 1.61426, 1.59148, 1.59542, 1.59579, 1.59315, 1.58517, 1.58728, 1.57334, 1.57305, 1.57134, 1.57269, 1.5716, 1.55987, 1.56081, 1.55783, 1.57165, 1.55473, 1.55118, 1.54696, 1.5447, 1.54324, 1.54042, 1.53665, 1.53427, 1.52957, 1.52882, 1.52645, 1.52475, 1.52329, 1.52089, 1.51956, 1.51875, 1.51924, 1.51975, 1.51785, 1.51686, 1.51565, 1.53382, 1.51374, 1.52461, 1.51521, 1.50977, 1.50892, 1.50958, 1.51773, 1.55445, 1.54011, 1.54788, 1.5435, 1.51284, 1.49358, 1.50929, 1.49421, 1.49366, 1.50465, 1.49061, 1.46805, 1.48165, 1.49291, 1.49932, 1.52464, 1.56079, 1.55364, 1.53405, 1.54812, 1.54432, 1.53796, 1.56816, 1.53466, 1.49531, 1.47291, 1.46632, 1.47485, 1.48468, 1.49123, 1.50094, 1.50303, 1.50011, 1.51689, 1.50952, 1.46771, 1.47496, 1.47224, 1.46842, 1.4545, 1.44441, 1.43876, 1.43433, 1.44472, 1.43057, 1.42667, 1.42387, 1.42272, 1.42111, 1.41914, 1.30185, 1.32292, 1.41356, 1.41223, 1.40993, 1.40889, 1.40785, 1.40368, 1.4013, 1.40014, 1.39973, 1.39702, 1.39544, 1.39192, 1.39337, 1.39128, 1.39157, 1.38936, 1.38655, 1.38584, 1.38578, 1.3823, 1.38096, 1.38058, 1.38014, 1.37903, 1.37759, 1.3775, 1.37436, 1.37424, 1.3746, 1.37204, 1.37122, 1.36985, 1.36887, 1.36695, 1.36433, 1.36277, 1.36129, 1.36026, 1.3585, 1.35816, 1.35781, 1.35534, 1.36014, 1.35654, 1.36482, 1.36227, 1.33268, 1.34241, 1.39674, 1.44618, 1.47101, 1.55078, 1.58242, 1.6107, 1.63114, 1.62093, 1.50485, 1.45389, 1.40603, 1.33424, 1.34232, 1.34017, 1.34083, 1.3323, 1.32972, 1.32788, 1.3281, 1.32958, 1.32776, 1.32564, 1.32408, 1.32348, 1.31949, 1.32086, 1.31732, 1.31686, 1.31559, 1.31494, 1.31445
1.66281, 1.65872, 1.66073, 1.65585, 1.65455, 1.65211, 1.64901, 1.64698, 1.64374, 1.64191, 1.64005, 1.63517, 1.63274, 1.63012, 1.62768, 1.62343, 1.6231, 1.62278, 1.62825, 1.62495, 1.63062, 1.61313, 1.67189, 1.75347, 1.78488, 1.81928, 1.91012, 1.95192, 1.99062, 1.81438, 1.71988, 1.63498, 1.554, 1.63121, 1.59508, 1.59431, 1.58926, 1.59751, 1.58614, 1.58133, 1.57822, 1.57484, 1.57165, 1.57186, 1.56644, 1.58901, 1.56706, 1.55931, 1.55561, 1.55218, 1.58434, 1.54962, 1.54552, 1.54437, 1.54392, 1.54054, 1.55075, 1.5412, 1.52962, 1.52735, 1.52457, 1.52335, 1.52274, 1.5198, 1.51918, 1.51886, 1.5192, 1.5175, 1.51626, 1.51499, 1.51546, 1.51278, 1.51255, 1.5117, 1.50972, 1.51069, 1.5087, 1.50694, 1.50919, 1.54147, 1.55768, 1.55408, 1.55332, 1.51707, 1.51765, 1.50753, 1.49388, 1.49312, 1.49611, 1.48595, 1.46517, 1.49489, 1.52155, 1.54445, 1.5233, 1.55464, 1.55553, 1.53421, 1.53352, 1.54018, 1.53687, 1.5581, 1.5165, 1.50449, 1.51165, 1.48854, 1.47461, 1.4879, 1.49701, 1.49806, 1.505, 1.49614, 1.49634, 1.46865, 1.4721, 1.46326, 1.4485, 1.44766, 1.4458, 1.4439, 1.43547, 1.43394, 1.43046, 1.42821, 1.42563, 1.42329, 1.42236, 1.42021, 1.41895, 1.41872, 1.41443, 1.41229, 1.41085, 1.40932, 1.40842, 1.40584, 1.40199, 1.40064, 1.3988, 1.398, 1.39809, 1.39637, 1.39569, 1.39399, 1.39242, 1.38959, 1.38986, 1.38912, 1.38449, 1.38425, 1.38606, 1.38329, 1.38353, 1.38161, 1.38478, 1.37739, 1.37721, 1.37632, 1.37419, 1.37181, 1.37199, 1.37149, 1.3703, 1.36911, 1.36627, 1.3656, 1.36362, 1.36402, 1.36023, 1.35854, 1.35875, 1.35563, 1.36037, 1.35545, 1.36306, 1.3564, 1.35418, 1.34457, 1.34305, 1.40645, 1.43594, 1.48584, 1.53928, 1.60386, 1.6145, 1.63105, 1.62163, 1.58558, 1.49598, 1.36056, 1.31742, 1.33249, 1.35837, 1.33833, 1.34951, 1.3317, 1.32962, 1.32858, 1.32755, 1.32678, 1.32537, 1.32257, 1.32141, 1.3186, 1.3188, 1.3174, 1.3168, 1.3159, 1.31424, 1.31356
1.66149, 1.66842, 1.65718, 1.65572, 1.65176, 1.6516, 1.64891, 1.64749, 1.64404, 1.64259, 1.63977, 1.63667, 1.63396, 1.63114, 1.64067, 1.62743, 1.62445, 1.62425, 1.62637, 1.62467, 1.62117, 1.61648, 1.66155, 1.67984, 1.73373, 1.77271, 1.82077, 1.90211, 1.89507, 1.85559, 1.70849, 1.60667, 1.56839, 1.61251, 1.59917, 1.59941, 1.60243, 1.5899, 1.59322, 1.58188, 1.58171, 1.58541, 1.57474, 1.57308, 1.56775, 1.56705, 1.57071, 1.55869, 1.55493, 1.55773, 1.5533, 1.55121, 1.54802, 1.5465, 1.54336, 1.53997, 1.54331, 1.54059, 1.53515, 1.53105, 1.52482, 1.52514, 1.52655, 1.52239, 1.52207, 1.52172, 1.51977, 1.51681, 1.51636, 1.51564, 1.5145, 1.51399, 1.5126, 1.51245, 1.51054, 1.50897, 1.50711, 1.50596, 1.51016, 1.51769, 1.53499, 1.56035, 1.53953, 1.54351, 1.52606, 1.50135, 1.4977, 1.50575, 1.49842, 1.48864, 1.45996, 1.47446, 1.537, 1.54036, 1.55408, 1.55858, 1.55689, 1.55115, 1.52762, 1.53336, 1.54622, 1.5385, 1.51323, 1.49369, 1.4958, 1.47257, 1.47416, 1.49657, 1.49273, 1.48101, 1.47852, 1.46648, 1.45493, 1.45822, 1.45539, 1.44867, 1.45467, 1.44406, 1.44307, 1.43895, 1.43407, 1.44139, 1.4308, 1.42913, 1.42647, 1.42462, 1.42248, 1.4202, 1.41913, 1.41847, 1.41606, 1.41542, 1.41363, 1.41236, 1.41109, 1.40874, 1.40552, 1.40378, 1.39923, 1.39711, 1.39618, 1.39718, 1.39718, 1.39574, 1.39474, 1.3918, 1.3915, 1.39149, 1.38876, 1.38813, 1.38813, 1.38663, 1.38437, 1.38326, 1.38257, 1.38152, 1.3813, 1.3773, 1.37616, 1.37301, 1.37248, 1.37142, 1.36911, 1.36781, 1.36709, 1.36526, 1.36398, 1.36238, 1.36063, 1.35961, 1.35893, 1.35649, 1.35498, 1.35318, 1.3613, 1.35905, 1.3746, 1.34826, 1.37483, 1.38887, 1.45115, 1.48367, 1.56188, 1.56541, 1.62836, 1.6649, 1.67714, 1.56201, 1.45131, 1.36666, 1.31443, 1.35431, 1.34002, 1.33665, 1.33303, 1.34413, 1.32901, 1.32964, 1.32646, 1.32605, 1.32363, 1.32327, 1.3222, 1.32181, 1.32082, 1.31872, 1.31588, 1.31653, 1.31612, 1.31526
1.65927, 1.66095, 1.65452, 1.65463, 1.65308, 1.65206, 1.65104, 1.64855, 1.64831, 1.64437, 1.64051, 1.63798, 1.63561, 1.63358, 1.63724, 1.62828, 1.62531, 1.62464, 1.62384, 1.62367, 1.61038, 1.5994, 1.65111, 1.69684, 1.74533, 1.76027, 1.81415, 1.84936, 1.95795, 1.94039, 1.72508, 1.62702, 1.56661, 1.60567, 1.60171, 1.60674, 1.59301, 1.59597, 1.5892, 1.58587, 1.58621, 1.58152, 1.57869, 1.576, 1.5721, 1.57006, 1.56729, 1.57233, 1.56799, 1.55737, 1.55511, 1.55313, 1.55191, 1.54834, 1.54746, 1.54433, 1.54216, 1.54029, 1.53759, 1.53389, 1.53327, 1.53088, 1.52706, 1.52953, 1.52378, 1.52303, 1.52208, 1.52065, 1.51866, 1.51777, 1.51612, 1.51572, 1.51863, 1.51232, 1.51057, 1.50991, 1.53775, 1.5138, 1.50573, 1.51931, 1.54145, 1.5288, 1.53583, 1.53866, 1.53794, 1.51, 1.48688, 1.50159, 1.50029, 1.49186, 1.48949, 1.47524, 1.4997, 1.55262, 1.54704, 1.55138, 1.54619, 1.53578, 1.5409, 1.5086, 1.54851, 1.53327, 1.51914, 1.50864, 1.49128, 1.47307, 1.47418, 1.4715, 1.46083, 1.46184, 1.46627, 1.45225, 1.45485, 1.45029, 1.44758, 1.44758, 1.44477, 1.44146, 1.44301, 1.44199, 1.43503, 1.43308, 1.43013, 1.42837, 1.42638, 1.42456, 1.42345, 1.42307, 1.42092, 1.41804, 1.41685, 1.4147, 1.41353, 1.41143, 1.41087, 1.40911, 1.40622, 1.40517, 1.40261, 1.40114, 1.40032, 1.40146, 1.39868, 1.39621, 1.39459, 1.39424, 1.39194, 1.39211, 1.39074, 1.38932, 1.38873, 1.38783, 1.38708, 1.38711, 1.38428, 1.38347, 1.38098, 1.37854, 1.37797, 1.37465, 1.37255, 1.37194, 1.37054, 1.36923, 1.36834, 1.36793, 1.36443, 1.36424, 1.36088, 1.35881, 1.35898, 1.3565, 1.35559, 1.37208, 1.36704, 1.38147, 1.37516, 1.33866, 1.36404, 1.404, 1.43734, 1.50319, 1.51322, 1.58887, 1.62792, 1.62903, 1.62101, 1.51308, 1.40668, 1.33925, 1.29982, 1.30634, 1.3413, 1.3438, 1.35102, 1.33127, 1.33077, 1.32784, 1.32833, 1.32777, 1.32409, 1.32563, 1.32298, 1.32244, 1.32258, 1.32104, 1.31943, 1.31862, 1.31593, 1.31648
1.65469, 1.6534, 1.65164, 1.65275, 1.65201, 1.65099, 1.65854, 1.65, 1.67859, 1.64676, 1.64203, 1.63878, 1.64404, 1.65926, 1.6312, 1.62867, 1.62508, 1.62342, 1.62783, 1.62121, 1.64096, 1.60367, 1.65218, 1.71348, 1.74776, 1.85655, 1.86463, 1.86052, 1.98953, 1.98244, 1.77154, 1.60573, 1.58486, 1.61045, 1.61574, 1.60015, 1.59724, 1.6056, 1.59629, 1.59149, 1.59258, 1.58556, 1.58401, 1.58941, 1.57943, 1.58297, 1.5725, 1.60036, 1.56667, 1.56727, 1.55641, 1.5684, 1.55394, 1.55056, 1.54898, 1.54683, 1.54277, 1.54098, 1.55221, 1.53655, 1.5351, 1.53252, 1.52962, 1.52715, 1.52564, 1.52333, 1.52275, 1.5211, 1.51981, 1.51812, 1.51644, 1.51665, 1.51417, 1.51141, 1.50833, 1.50903, 1.51024, 1.51263, 1.52436, 1.51007, 1.51346, 1.54486, 1.53982, 1.56692, 1.56591, 1.52678, 1.51744, 1.485, 1.48274, 1.48349, 1.47439, 1.48147, 1.47508, 1.52871, 1.5422, 1.55805, 1.54077, 1.53504, 1.49976, 1.49904, 1.52225, 1.53237, 1.51792, 1.50975, 1.4632, 1.48601, 1.46938, 1.47179, 1.46916, 1.46135, 1.46439, 1.46154, 1.45507, 1.45045, 1.44778, 1.44611, 1.45394, 1.45518, 1.44002, 1.43737, 1.43567, 1.44011, 1.44414, 1.42811, 1.42612, 1.42686, 1.42318, 1.42135, 1.4197, 1.41809, 1.41581, 1.41478, 1.41221, 1.41033, 1.40913, 1.40842, 1.4067, 1.40519, 1.4048, 1.40249, 1.39915, 1.39983, 1.39869, 1.39652, 1.39517, 1.39278, 1.39283, 1.39152, 1.39219, 1.39111, 1.38976, 1.38842, 1.38904, 1.38744, 1.38645, 1.3853, 1.38172, 1.38056, 1.37763, 1.37582, 1.37454, 1.37398, 1.37144, 1.37088, 1.37469, 1.36476, 1.3661, 1.36494, 1.36171, 1.36102, 1.35829, 1.3572, 1.37356, 1.36138, 1.35718, 1.36113, 1.37164, 1.35943, 1.36114, 1.38013, 1.42277, 1.48533, 1.53689, 1.5758, 1.61666, 1.62825, 1.64126, 1.52501, 1.45025, 1.36458, 1.3296, 1.33685, 1.35062, 1.3495, 1.34453, 1.34015, 1.3305, 1.32969, 1.32891, 1.32669, 1.34091, 1.32634, 1.32401, 1.32323, 1.3252, 1.32217, 1.31968, 1.3195, 1.31956, 1.33374
1.65302, 1.65394, 1.65119, 1.65083, 1.65778, 1.67155, 1.65116, 1.64993, 1.64863, 1.64594, 1.64365, 1.64094, 1.63723, 1.64067, 1.6305, 1.62883, 1.62975, 1.63221, 1.62716, 1.627, 1.60813, 1.61003, 1.6341, 1.70194, 1.74833, 1.77594, 1.86563, 1.99036, 2.00798, 2.00382, 1.88002, 1.60677, 1.59892, 1.61385, 1.61081, 1.61583, 1.59013, 1.60324, 1.6091, 1.60272, 1.59308, 1.59387, 1.5846, 1.58287, 1.59882, 1.57538, 1.57224, 1.57856, 1.57423, 1.57593, 1.57875, 1.55597, 1.57303, 1.55178, 1.54832, 1.56518, 1.5441, 1.54384, 1.54046, 1.53817, 1.53997, 1.53322, 1.52972, 1.52712, 1.52526, 1.52379, 1.52216, 1.52139, 1.51979, 1.51826, 1.51624, 1.51495, 1.51269, 1.50783, 1.50479, 1.50596, 1.50662, 1.50842, 1.51433, 1.50722, 1.51093, 1.50926, 1.52839, 1.55907, 1.56587, 1.53564, 1.53365, 1.51383, 1.49945, 1.48187, 1.48564, 1.51249, 1.50553, 1.51993, 1.55818, 1.54029, 1.54083, 1.51905, 1.51552, 1.51911, 1.55043, 1.53807, 1.51904, 1.51695, 1.49861, 1.46838, 1.45839, 1.46807, 1.48557, 1.46638, 1.47538, 1.45489, 1.46075, 1.44909, 1.44432, 1.45012, 1.44099, 1.43863, 1.44019, 1.43653, 1.43365, 1.44274, 1.42835, 1.42756, 1.42453, 1.42489, 1.42294, 1.42086, 1.41913, 1.41708, 1.41494, 1.41427, 1.41221, 1.41143, 1.40787, 1.40751, 1.41252, 1.40492, 1.40429, 1.40382, 1.40235, 1.40203, 1.39851, 1.39814, 1.39488, 1.39301, 1.39394, 1.39128, 1.39112, 1.39022, 1.39093, 1.38933, 1.38847, 1.38695, 1.38505, 1.38895, 1.38332, 1.3814, 1.38074, 1.37736, 1.37532, 1.37493, 1.39248, 1.3693, 1.3762, 1.36617, 1.36535, 1.36211, 1.36342, 1.38163, 1.36058, 1.35848, 1.35895, 1.36484, 1.37128, 1.3686, 1.36363, 1.35693, 1.33932, 1.41216, 1.46213, 1.48286, 1.5388, 1.56107, 1.62366, 1.64759, 1.66878, 1.64748, 1.45184, 1.41216, 1.33128, 1.3395, 1.3579, 1.35618, 1.34587, 1.35164, 1.34042, 1.32986, 1.32908, 1.32879, 1.32633, 1.32559, 1.32586, 1.32391, 1.32252, 1.32335, 1.31963, 1.32124, 1.32386, 1.32004
1.65372, 1.65345, 1.64908, 1.65044, 1.65151, 1.65159, 1.65077, 1.64905, 1.64768, 1.64511, 1.64048, 1.63849, 1.63492, 1.63347, 1.63042, 1.628, 1.62625, 1.62464, 1.63617, 1.62564, 1.61949, 1.59835, 1.62445, 1.69295, 1.76648, 1.7849, 1.94073, 1.9721, 1.97277, 1.92184, 1.86423, 1.62371, 1.56848, 1.60934, 1.61627, 1.60843, 1.60106, 1.59287, 1.60009, 1.59204, 1.60225, 1.59514, 1.59018, 1.57974, 1.5761, 1.57349, 1.5692, 1.56958, 1.56457, 1.56151, 1.57545, 1.55473, 1.56054, 1.56039, 1.54795, 1.56097, 1.54383, 1.54044, 1.5407, 1.53698, 1.53415, 1.52956, 1.5267, 1.52415, 1.52272, 1.52028, 1.51922, 1.5189, 1.51687, 1.51608, 1.51482, 1.51334, 1.51239, 1.50918, 1.50545, 1.51056, 1.50722, 1.51671, 1.50634, 1.50621, 1.51565, 1.51004, 1.52108, 1.53727, 1.52572, 1.5381, 1.52144, 1.53695, 1.51739, 1.50488, 1.49233, 1.48701, 1.50687, 1.53062, 1.5342, 1.53637, 1.53639, 1.51388, 1.49665, 1.4973, 1.53052, 1.54139, 1.52435, 1.53334, 1.49617, 1.45716, 1.46001, 1.47522, 1.46925, 1.45499, 1.4612, 1.45803, 1.44826, 1.45416, 1.45384, 1.44121, 1.44029, 1.43716, 1.43685, 1.43375, 1.43793, 1.43015, 1.42818, 1.42578, 1.42404, 1.42509, 1.42466, 1.42343, 1.41925, 1.4171, 1.41825, 1.41432, 1.41247, 1.41188, 1.4112, 1.40972, 1.40767, 1.40619, 1.40612, 1.40576, 1.40515, 1.40323, 1.39859, 1.3971, 1.39436, 1.39295, 1.39259, 1.39135, 1.39054, 1.39158, 1.42697, 1.38977, 1.38634, 1.38721, 1.3858, 1.39065, 1.38322, 1.38171, 1.38183, 1.37696, 1.37439, 1.37483, 1.37809, 1.37146, 1.36868, 1.36795, 1.36568, 1.36462, 1.36374, 1.37181, 1.35797, 1.37191, 1.36173, 1.3729, 1.37761, 1.37446, 1.36944, 1.36309, 1.33403, 1.44768, 1.45744, 1.49413, 1.54738, 1.60304, 1.6268, 1.6656, 1.66883, 1.53341, 1.50088, 1.38276, 1.30728, 1.31707, 1.35079, 1.34353, 1.35168, 1.34727, 1.33151, 1.33394, 1.3293, 1.33029, 1.32675, 1.32534, 1.32466, 1.32388, 1.32436, 1.3264, 1.32241, 1.32271, 1.32075, 1.31921
1.65645, 1.65403, 1.65253, 1.65079, 1.65135, 1.65323, 1.65207, 1.64986, 1.64875, 1.64736, 1.64342, 1.64766, 1.63789, 1.63318, 1.63235, 1.62783, 1.62407, 1.62247, 1.62321, 1.63308, 1.62159, 1.59361, 1.62371, 1.6664, 1.72878, 1.75383, 1.84151, 1.97694, 1.97574, 1.97734, 1.82744, 1.58078, 1.57469, 1.6035, 1.61615, 1.60921, 1.59634, 1.59915, 1.59676, 1.65912, 1.60196, 1.59594, 1.59287, 1.58566, 1.57645, 1.57256, 1.58043, 1.5656, 1.56421, 1.56186, 1.55779, 1.55549, 1.55101, 1.54896, 1.5452, 1.54333, 1.54121, 1.53805, 1.53594, 1.53333, 1.53212, 1.53029, 1.5259, 1.52365, 1.52251, 1.52288, 1.52253, 1.51936, 1.5182, 1.5174, 1.51565, 1.51503, 1.51295, 1.50891, 1.50657, 1.50323, 1.50695, 1.50705, 1.50543, 1.50399, 1.51052, 1.5092, 1.51717, 1.5119, 1.51641, 1.51678, 1.51689, 1.51954, 1.51809, 1.50677, 1.48761, 1.48558, 1.49689, 1.52507, 1.55474, 1.5577, 1.54374, 1.53203, 1.4956, 1.50404, 1.51623, 1.53004, 1.5199, 1.50359, 1.4928, 1.46536, 1.47194, 1.46569, 1.4747, 1.46439, 1.4516, 1.45067, 1.44813, 1.45428, 1.44225, 1.44094, 1.43963, 1.43597, 1.43391, 1.43106, 1.4293, 1.42637, 1.42389, 1.42349, 1.42443, 1.424, 1.42328, 1.42133, 1.41826, 1.41491, 1.41327, 1.41265, 1.41132, 1.41035, 1.40911, 1.40872, 1.40843, 1.40781, 1.40674, 1.40691, 1.40512, 1.40279, 1.39851, 1.39576, 1.39384, 1.39175, 1.39187, 1.39096, 1.39028, 1.38984, 1.38883, 1.38501, 1.38325, 1.38378, 1.38331, 1.38411, 1.38171, 1.37931, 1.37789, 1.37749, 1.37388, 1.37251, 1.36945, 1.36728, 1.36661, 1.36421, 1.36166, 1.36133, 1.36156, 1.36079, 1.3581, 1.35545, 1.35556, 1.35762, 1.35998, 1.36478, 1.36447, 1.36214, 1.33466, 1.36188, 1.46174, 1.49638, 1.53604, 1.6058, 1.64957, 1.61062, 1.65783, 1.54026, 1.41611, 1.35363, 1.33521, 1.34164, 1.35849, 1.35085, 1.33684, 1.33518, 1.32977, 1.32899, 1.32715, 1.32785, 1.32737, 1.32584, 1.32478, 1.3228, 1.3224, 1.3228, 1.32174, 1.32053, 1.32004, 1.31824
1.65582, 1.65452, 1.65462, 1.65334, 1.65379, 1.65522, 1.6527, 1.65819, 1.64736, 1.64387, 1.64314, 1.64044, 1.63734, 1.63473, 1.63103, 1.63102, 1.62638, 1.62929, 1.61994, 1.62124, 1.63424, 1.58438, 1.6235, 1.68317, 1.7312, 1.78176, 1.8499, 1.91009, 1.98146, 2.22768, 1.7931, 1.60647, 1.56637, 1.60239, 1.62701, 1.60308, 1.61783, 1.61187, 1.60654, 1.60164, 1.60419, 1.592, 1.58523, 1.58171, 1.57536, 1.57179, 1.56715, 1.56488, 1.56235, 1.55881, 1.55722, 1.55503, 1.55232, 1.54877, 1.54728, 1.54487, 1.54188, 1.54028, 1.54085, 1.53599, 1.53415, 1.53218, 1.53328, 1.52601, 1.52386, 1.52295, 1.51982, 1.51832, 1.51604, 1.51561, 1.51493, 1.51328, 1.51302, 1.51224, 1.50784, 1.50747, 1.5081, 1.50528, 1.50336, 1.50082, 1.50018, 1.51308, 1.49943, 1.49958, 1.49627, 1.52096, 1.50216, 1.50521, 1.50662, 1.49328, 1.48265, 1.4845, 1.49795, 1.54826, 1.55168, 1.59374, 1.54533, 1.57172, 1.49478, 1.518, 1.51667, 1.53071, 1.52926, 1.51789, 1.47243, 1.46826, 1.46615, 1.46821, 1.47465, 1.46752, 1.45386, 1.45097, 1.45013, 1.44648, 1.4439, 1.4428, 1.44011, 1.43825, 1.43483, 1.43095, 1.42914, 1.42768, 1.42631, 1.42554, 1.42328, 1.42262, 1.4206, 1.41931, 1.4188, 1.41561, 1.41335, 1.41214, 1.41138, 1.41199, 1.41009, 1.40862, 1.40608, 1.40582, 1.40484, 1.40382, 1.40368, 1.39938, 1.39814, 1.3933, 1.39252, 1.39212, 1.38972, 1.38977, 1.38858, 1.39576, 1.38686, 1.3846, 1.38415, 1.38606, 1.38426, 1.38211, 1.38027, 1.38096, 1.37927, 1.37784, 1.37605, 1.3738, 1.37138, 1.37061, 1.36763, 1.36498, 1.36317, 1.36163, 1.36045, 1.35922, 1.35867, 1.36114, 1.36158, 1.35748, 1.35788, 1.37746, 1.36955, 1.35774, 1.34557, 1.40751, 1.41156, 1.4659, 1.51644, 1.59243, 1.6349, 1.66476, 1.66895, 1.57343, 1.53432, 1.39244, 1.34342, 1.35837, 1.345, 1.34762, 1.33459, 1.34391, 1.33965, 1.32866, 1.32715, 1.32732, 1.3244, 1.32237, 1.32337, 1.3237, 1.32313, 1.32249, 1.32309, 1.32181, 1.31857, 1.31893
1.65681, 1.65473, 1.65492, 1.65422, 1.65424, 1.6531, 1.65167, 1.64834, 1.64745, 1.65013, 1.64255, 1.63779, 1.63681, 1.63446, 1.6311, 1.6297, 1.62651, 1.6247, 1.62846, 1.62285, 1.62105, 1.6172, 1.61695, 1.65029, 1.71324, 1.78955, 1.87262, 1.92385, 1.95696, 1.89877, 1.72113, 1.62411, 1.58536, 1.59575, 1.59746, 1.60355, 1.61691, 1.60411, 1.59696, 1.59855, 1.59582, 1.58852, 1.58676, 1.59303, 1.5849, 1.57542, 1.5653, 1.56731, 1.56057, 1.55741, 1.55523, 1.55302, 1.55001, 1.54746, 1.54705, 1.54377, 1.54056, 1.538, 1.53703, 1.53597, 1.53427, 1.53223, 1.52913, 1.52648, 1.52339, 1.51979, 1.52518, 1.51591, 1.51598, 1.51494, 1.5151, 1.51234, 1.51089, 1.51055, 1.50887, 1.5103, 1.50434, 1.50326, 1.50172, 1.49885, 1.49711, 1.49819, 1.49584, 1.49589, 1.50344, 1.49258, 1.5031, 1.48626, 1.4959, 1.48863, 1.47823, 1.49625, 1.52102, 1.54323, 1.57799, 1.54758, 1.54069, 1.51912, 1.49304, 1.50685, 1.51708, 1.52374, 1.56093, 1.51296, 1.48866, 1.4621, 1.47043, 1.46707, 1.46859, 1.46749, 1.45399, 1.45092, 1.44952, 1.44678, 1.44484, 1.44341, 1.44197, 1.43955, 1.43645, 1.43576, 1.4376, 1.43072, 1.42956, 1.42651, 1.42606, 1.42463, 1.42041, 1.41963, 1.41814, 1.41564, 1.41549, 1.41348, 1.41241, 1.41215, 1.41213, 1.41011, 1.40757, 1.40679, 1.40528, 1.40504, 1.40123, 1.39875, 1.39693, 1.39494, 1.39446, 1.39326, 1.39115, 1.38957, 1.38835, 1.3867, 1.38564, 1.38286, 1.38303, 1.38183, 1.38135, 1.38099, 1.37909, 1.37843, 1.37758, 1.3745, 1.37441, 1.37096, 1.37108, 1.36926, 1.37992, 1.36748, 1.36476, 1.36381, 1.36184, 1.36056, 1.35865, 1.35898, 1.362, 1.35634, 1.35793, 1.35898, 1.36176, 1.36275, 1.36211, 1.40232, 1.40644, 1.47549, 1.48971, 1.5546, 1.60975, 1.66077, 1.66173, 1.646, 1.47593, 1.44525, 1.32382, 1.34408, 1.3427, 1.35102, 1.3369, 1.32926, 1.33169, 1.33076, 1.32857, 1.326, 1.3269, 1.32633, 1.32384, 1.32484, 1.3244, 1.3249, 1.32523, 1.32297, 1.32199, 1.31913
1.6546, 1.65369, 1.65416, 1.65422, 1.65437, 1.65215, 1.65207, 1.64815, 1.64587, 1.64354, 1.64196, 1.63775, 1.64114, 1.63222, 1.62955, 1.62839, 1.62662, 1.62544, 1.62356, 1.62588, 1.62356, 1.6016, 1.61348, 1.66978, 1.72053, 1.75098, 1.87369, 1.9302, 1.97388, 1.9626, 1.74803, 1.64047, 1.57308, 1.59382, 1.57911, 1.58567, 1.59003, 1.6026, 1.6069, 1.59885, 1.60252, 1.5898, 1.58634, 1.59332, 1.57855, 1.56945, 1.56481, 1.56036, 1.55829, 1.55685, 1.55321, 1.55167, 1.55024, 1.54759, 1.54498, 1.54205, 1.54062, 1.53843, 1.53692, 1.53393, 1.53401, 1.5321, 1.53055, 1.52676, 1.52368, 1.52208, 1.51794, 1.51726, 1.51647, 1.51507, 1.51232, 1.51268, 1.51066, 1.509, 1.50601, 1.50434, 1.50211, 1.50173, 1.50057, 1.49876, 1.49708, 1.49598, 1.49466, 1.49361, 1.49266, 1.49653, 1.49335, 1.50581, 1.4931, 1.50153, 1.48238, 1.49537, 1.5165, 1.53507, 1.57831, 1.548, 1.53286, 1.51735, 1.57219, 1.50232, 1.52424, 1.52744, 1.54398, 1.513, 1.47618, 1.47102, 1.46519, 1.46649, 1.47207, 1.4685, 1.45478, 1.45171, 1.44974, 1.44752, 1.44589, 1.44642, 1.44233, 1.43924, 1.43632, 1.43376, 1.43171, 1.4292, 1.42659, 1.42643, 1.42601, 1.42393, 1.42242, 1.42014, 1.41847, 1.41617, 1.41462, 1.41555, 1.41297, 1.41365, 1.41137, 1.40952, 1.40895, 1.4082, 1.40598, 1.40396, 1.40237, 1.39962, 1.40017, 1.39684, 1.39556, 1.39256, 1.3918, 1.39058, 1.38893, 1.38855, 1.38578, 1.38506, 1.38396, 1.38137, 1.38029, 1.38058, 1.37796, 1.37748, 1.37602, 1.37323, 1.37157, 1.3705, 1.37098, 1.37101, 1.37155, 1.36702, 1.36424, 1.36244, 1.36158, 1.36131, 1.35993, 1.35914, 1.35832, 1.35983, 1.35902, 1.36974, 1.36056, 1.35928, 1.34087, 1.37815, 1.43906, 1.4798, 1.51418, 1.54444, 1.63367, 1.65399, 1.66813, 1.63705, 1.50158, 1.39821, 1.30968, 1.33327, 1.34779, 1.3419, 1.34738, 1.331, 1.33756, 1.32897, 1.32759, 1.32442, 1.33376, 1.32576, 1.32455, 1.3244, 1.3245, 1.32508, 1.32651, 1.3212, 1.32016, 1.31932
1.65634, 1.65463, 1.65453, 1.65529, 1.6512, 1.65127, 1.65096, 1.64458, 1.64371, 1.64164, 1.63705, 1.63525, 1.63291, 1.62994, 1.62774, 1.62413, 1.62414, 1.62263, 1.62262, 1.62201, 1.62667, 1.61304, 1.62377, 1.6725, 1.68977, 1.78515, 1.81337, 1.91714, 1.98687, 1.86153, 1.78532, 1.61628, 1.59297, 1.58153, 1.5825, 1.5828, 1.5811, 1.58239, 1.58421, 1.59882, 1.60887, 1.60616, 1.59661, 1.58899, 1.57612, 1.57506, 1.57094, 1.56916, 1.55865, 1.55611, 1.55087, 1.55029, 1.54957, 1.54735, 1.54349, 1.54218, 1.53999, 1.53738, 1.53609, 1.53426, 1.53355, 1.531, 1.5295, 1.52785, 1.5254, 1.52307, 1.52209, 1.51785, 1.51597, 1.51449, 1.51331, 1.51071, 1.50886, 1.50712, 1.50632, 1.50357, 1.5022, 1.50104, 1.49904, 1.49802, 1.49636, 1.49391, 1.49312, 1.49141, 1.49144, 1.48983, 1.49853, 1.49287, 1.49321, 1.50567, 1.49044, 1.49941, 1.52877, 1.54914, 1.54815, 1.55088, 1.55143, 1.54052, 1.51366, 1.50391, 1.53126, 1.54992, 1.53321, 1.51442, 1.48376, 1.47461, 1.47303, 1.47604, 1.46908, 1.46029, 1.45292, 1.4508, 1.45018, 1.44698, 1.44412, 1.44331, 1.44055, 1.43775, 1.43655, 1.43463, 1.43251, 1.42993, 1.42849, 1.43168, 1.42608, 1.42562, 1.42255, 1.42197, 1.4198, 1.41645, 1.41564, 1.41588, 1.41371, 1.41383, 1.40971, 1.40955, 1.40852, 1.41022, 1.40468, 1.40325, 1.40188, 1.40059, 1.39908, 1.39722, 1.39471, 1.39375, 1.39219, 1.38882, 1.3882, 1.38782, 1.38528, 1.38534, 1.38281, 1.38097, 1.38042, 1.37898, 1.37715, 1.37783, 1.37632, 1.3811, 1.37147, 1.37053, 1.37139, 1.36989, 1.3682, 1.3663, 1.36396, 1.36328, 1.3615, 1.36073, 1.36046, 1.36027, 1.36177, 1.35823, 1.35828, 1.36428, 1.36228, 1.37099, 1.34959, 1.39552, 1.44518, 1.48809, 1.52723, 1.56059, 1.63516, 1.62304, 1.65983, 1.63867, 1.44958, 1.43547, 1.31954, 1.34156, 1.34188, 1.35499, 1.33358, 1.33366, 1.33116, 1.32784, 1.32802, 1.32656, 1.33505, 1.32473, 1.32408, 1.32419, 1.32524, 1.32459, 1.32528, 1.32242, 1.32003, 1.32035
1.65343, 1.65148, 1.65159, 1.65158, 1.65495, 1.64813, 1.64556, 1.64336, 1.64084, 1.64103, 1.63857, 1.63577, 1.63353, 1.63769, 1.62994, 1.62618, 1.62167, 1.62205, 1.62279, 1.62007, 1.61975, 1.6115, 1.61802, 1.68702, 1.76237, 1.82802, 1.87194, 1.90428, 2.05507, 2.20074, 1.82915, 1.60712, 1.56305, 1.55888, 1.57438, 1.57264, 1.56664, 1.56671, 1.56376, 1.56856, 1.60145, 1.60564, 1.58529, 1.60303, 1.58035, 1.57372, 1.57544, 1.5616, 1.56146, 1.55217, 1.54928, 1.54753, 1.54832, 1.54828, 1.54367, 1.54165, 1.54061, 1.53941, 1.53723, 1.53656, 1.53767, 1.53083, 1.52847, 1.52701, 1.52503, 1.52243, 1.5181, 1.51576, 1.51362, 1.51433, 1.51388, 1.50983, 1.50831, 1.50778, 1.50621, 1.50504, 1.50234, 1.50075, 1.49872, 1.49731, 1.49546, 1.49271, 1.49156, 1.48978, 1.48983, 1.4889, 1.49196, 1.49348, 1.50292, 1.5008, 1.48752, 1.50019, 1.53445, 1.53205, 1.55526, 1.54068, 1.53547, 1.58016, 1.50545, 1.50604, 1.52491, 1.53073, 1.52992, 1.50724, 1.48728, 1.4623, 1.4655, 1.46626, 1.46863, 1.45874, 1.45471, 1.45251, 1.44881, 1.44703, 1.44332, 1.44124, 1.43726, 1.43798, 1.43579, 1.43508, 1.43146, 1.42906, 1.42577, 1.42415, 1.42279, 1.42426, 1.42394, 1.4228, 1.4224, 1.41977, 1.41703, 1.41563, 1.41527, 1.41269, 1.41071, 1.40964, 1.40866, 1.40641, 1.40521, 1.40205, 1.39907, 1.39925, 1.39751, 1.39572, 1.39491, 1.39435, 1.39263, 1.39275, 1.39129, 1.38843, 1.38841, 1.38574, 1.38366, 1.382, 1.38115, 1.38091, 1.38004, 1.3773, 1.37657, 1.37373, 1.37134, 1.37054, 1.37098, 1.36944, 1.36899, 1.36746, 1.36513, 1.36404, 1.3638, 1.37077, 1.35844, 1.35843, 1.35887, 1.35789, 1.35713, 1.35785, 1.37154, 1.36504, 1.35036, 1.36815, 1.40796, 1.45812, 1.51983, 1.5498, 1.60673, 1.64485, 1.63387, 1.56227, 1.46506, 1.36164, 1.33778, 1.34453, 1.35008, 1.3555, 1.3513, 1.35427, 1.33264, 1.32976, 1.32462, 1.32603, 1.32411, 1.32596, 1.32373, 1.3253, 1.3231, 1.32524, 1.3226, 1.32246, 1.32221, 1.32077
1.6542, 1.65198, 1.64865, 1.65044, 1.65368, 1.64706, 1.64472, 1.64033, 1.637, 1.63706, 1.63662, 1.6342, 1.63229, 1.62831, 1.62742, 1.62533, 1.6218, 1.62111, 1.6224, 1.6196, 1.617, 1.60161, 1.62136, 1.6489, 1.7264, 1.80573, 1.87055, 1.92051, 1.95321, 1.99432, 1.87214, 1.57443, 1.56227, 1.54806, 1.56632, 1.57787, 1.60994, 1.60233, 1.57196, 1.57115, 1.58315, 1.59655, 1.59705, 1.58564, 1.59026, 1.57668, 1.56962, 1.56283, 1.55545, 1.55036, 1.54829, 1.54673, 1.55998, 1.54516, 1.54367, 1.54721, 1.54023, 1.53885, 1.53655, 1.53622, 1.53456, 1.52974, 1.52852, 1.52607, 1.52536, 1.52072, 1.51778, 1.51578, 1.51391, 1.5139, 1.51209, 1.50932, 1.5083, 1.50736, 1.50612, 1.53046, 1.50265, 1.50038, 1.49753, 1.49596, 1.49373, 1.49158, 1.492, 1.48962, 1.49, 1.48888, 1.48997, 1.49974, 1.49501, 1.49923, 1.49683, 1.50632, 1.53131, 1.53754, 1.5434, 1.54283, 1.42338, 1.53321, 1.49418, 1.49302, 1.51668, 1.50586, 1.52065, 1.51205, 1.48627, 1.47153, 1.47179, 1.46498, 1.46819, 1.47813, 1.45211, 1.44858, 1.44645, 1.4444, 1.44168, 1.43933, 1.43741, 1.43373, 1.43399, 1.4307, 1.42947, 1.4274, 1.42425, 1.42286, 1.42147, 1.42089, 1.42249, 1.42103, 1.4195, 1.41933, 1.41572, 1.41509, 1.4135, 1.41152, 1.41008, 1.4078, 1.40727, 1.40545, 1.40353, 1.40162, 1.39927, 1.39814, 1.39701, 1.39483, 1.39488, 1.3934, 1.3916, 1.39125, 1.38973, 1.38668, 1.38323, 1.381, 1.38508, 1.37756, 1.37808, 1.37548, 1.37615, 1.3757, 1.37436, 1.37334, 1.37138, 1.36705, 1.36426, 1.36432, 1.37141, 1.36686, 1.36434, 1.35832, 1.35724, 1.35746, 1.35941, 1.35763, 1.35676, 1.35455, 1.35336, 1.35717, 1.35865, 1.37051, 1.32315, 1.35654, 1.39241, 1.42553, 1.48241, 1.52758, 1.56586, 1.64935, 1.63779, 1.53462, 1.48177, 1.42453, 1.32681, 1.33645, 1.34854, 1.33986, 1.34002, 1.33967, 1.32979, 1.32984, 1.32671, 1.32389, 1.32554, 1.32352, 1.34382, 1.32046, 1.32021, 1.31941, 1.3179, 1.31832, 1.32044, 1.31983
1.6534, 1.65187, 1.65066, 1.6478, 1.64607, 1.6458, 1.64423, 1.63838, 1.63718, 1.63688, 1.63634, 1.63468, 1.63172, 1.63224, 1.63235, 1.6251, 1.62323, 1.62029, 1.61982, 1.61982, 1.61915, 1.60233, 1.60597, 1.65171, 1.69866, 1.77071, 1.82131, 1.85058, 2.03454, 2.00459, 1.85454, 1.6067, 1.53114, 1.5455, 1.56116, 1.6269, 1.63027, 1.67112, 1.58277, 1.58224, 1.60235, 1.61116, 1.60756, 1.60181, 1.58312, 1.57708, 1.57113, 1.56189, 1.5559, 1.55179, 1.54899, 1.55722, 1.56107, 1.55718, 1.54294, 1.54113, 1.54015, 1.53783, 1.53667, 1.53401, 1.53435, 1.53153, 1.52954, 1.52776, 1.52556, 1.52239, 1.51972, 1.51603, 1.51428, 1.51238, 1.51165, 1.50878, 1.53314, 1.50772, 1.50643, 1.50999, 1.50218, 1.49847, 1.49702, 1.49517, 1.49229, 1.49146, 1.48891, 1.48804, 1.48676, 1.48694, 1.49446, 1.48916, 1.50429, 1.49325, 1.48665, 1.49225, 1.51868, 1.52174, 1.53896, 1.54374, 1.50492, 1.52424, 1.49994, 1.49317, 1.35852, 1.51078, 1.53342, 1.53269, 1.49242, 1.46502, 1.46071, 1.47212, 1.47422, 1.46036, 1.4518, 1.44854, 1.44504, 1.44315, 1.4404, 1.43961, 1.43591, 1.43223, 1.45846, 1.4295, 1.42716, 1.42577, 1.42473, 1.42304, 1.42254, 1.42127, 1.4238, 1.42067, 1.42006, 1.41923, 1.41705, 1.41397, 1.41273, 1.41007, 1.40898, 1.40627, 1.4048, 1.40483, 1.4024, 1.40071, 1.44516, 1.39808, 1.39564, 1.39421, 1.39383, 1.39176, 1.39139, 1.38877, 1.38753, 1.38642, 1.38467, 1.38333, 1.38112, 1.37945, 1.37684, 1.37488, 1.3753, 1.37199, 1.37221, 1.36856, 1.36787, 1.36561, 1.36374, 1.36363, 1.36458, 1.36493, 1.36234, 1.36073, 1.3606, 1.35982, 1.35978, 1.35628, 1.35454, 1.35477, 1.35396, 1.35501, 1.36638, 1.3644, 1.33076, 1.36703, 1.41566, 1.47499, 1.49449, 1.55741, 1.58857, 1.68636, 1.68976, 1.67039, 1.48016, 1.37142, 1.32585, 1.35209, 1.35092, 1.34746, 1.33685, 1.33265, 1.33171, 1.3404, 1.33699, 1.32644, 1.32276, 1.32106, 1.32418, 1.32054, 1.31725, 1.31624, 1.31532, 1.31466, 1.31499, 1.31378
1.65201, 1.64823, 1.64667, 1.64744, 1.64464, 1.64319, 1.64102, 1.63818, 1.63745, 1.63692, 1.63553, 1.63473, 1.6319, 1.62851, 1.62569, 1.62365, 1.62656, 1.6206, 1.62127, 1.61838, 1.61995, 1.62732, 1.59322, 1.64115, 1.7314, 1.78183, 1.84813, 1.8892, 1.98639, 1.96901, 1.92197, 1.60326, 1.54567, 1.54692, 1.58483, 1.65139, 1.70397, 1.71359, 1.72716, 1.66639, 1.59962, 1.61752, 1.61568, 1.60656, 1.60783, 1.58539, 1.57507, 1.57989, 1.55962, 1.55342, 1.55211, 1.55006, 1.54888, 1.54836, 1.54461, 1.54178, 1.53901, 1.53753, 1.53648, 1.53447, 1.53398, 1.52999, 1.53079, 1.5274, 1.52597, 1.52194, 1.52051, 1.51753, 1.51372, 1.51288, 1.51097, 1.50905, 1.50842, 1.50738, 1.50561, 1.50406, 1.50228, 1.49937, 1.49713, 1.49476, 1.4951, 1.49038, 1.48805, 1.49297, 1.48523, 1.48615, 1.49057, 1.48959, 1.49196, 1.5006, 1.48638, 1.49434, 1.53379, 1.53191, 1.54421, 1.54273, 1.51827, 1.51282, 1.50973, 1.49512, 1.52335, 1.50635, 1.53596, 1.50694, 1.50847, 1.48256, 1.46244, 1.46372, 1.46689, 1.45741, 1.4677, 1.44523, 1.44144, 1.45785, 1.43812, 1.43451, 1.43371, 1.43072, 1.4292, 1.43719, 1.42682, 1.42347, 1.42322, 1.42296, 1.42129, 1.42131, 1.42128, 1.42287, 1.42079, 1.41941, 1.41781, 1.41388, 1.41285, 1.40967, 1.4066, 1.40504, 1.40312, 1.40493, 1.3992, 1.3994, 1.39716, 1.39648, 1.39404, 1.3935, 1.3925, 1.39154, 1.38923, 1.40667, 1.38695, 1.38517, 1.38298, 1.38447, 1.3819, 1.37898, 1.37857, 1.37868, 1.37482, 1.37229, 1.37065, 1.36916, 1.36733, 1.36493, 1.36388, 1.36548, 1.3662, 1.36424, 1.37243, 1.36048, 1.36051, 1.35884, 1.35784, 1.35692, 1.35608, 1.35407, 1.35358, 1.35539, 1.36279, 1.36576, 1.3363, 1.35732, 1.43466, 1.43529, 1.50041, 1.54817, 1.60893, 1.67191, 1.66565, 1.63732, 1.45453, 1.4177, 1.31056, 1.3382, 1.34573, 1.34092, 1.35352, 1.33439, 1.33778, 1.33838, 1.32944, 1.32521, 1.32249, 1.32927, 1.32177, 1.3185, 1.32322, 1.3148, 1.31537, 1.31287, 1.31402, 1.31317
1.65402, 1.69345, 1.64748, 1.6464, 1.64497, 1.64228, 1.64099, 1.63998, 1.63766, 1.63647, 1.63413, 1.63044, 1.62841, 1.63065, 1.62995, 1.63448, 1.62015, 1.61771, 1.62372, 1.62674, 1.62171, 1.59946, 1.61384, 1.65496, 1.69265, 1.76525, 1.81047, 1.84814, 1.93255, 2.02542, 1.83749, 1.63549, 1.55789, 1.54895, 1.65194, 1.68054, 1.75795, 1.83835, 1.77716, 1.70533, 1.57629, 1.61135, 1.60656, 1.60104, 1.59592, 1.59181, 1.58573, 1.56826, 1.56252, 1.55966, 1.55354, 1.55075, 1.54801, 1.56588, 1.54415, 1.54249, 1.54052, 1.53713, 1.53715, 1.53456, 1.53408, 1.53027, 1.52849, 1.52625, 1.5298, 1.52171, 1.5184, 1.51661, 1.5147, 1.5136, 1.51148, 1.51388, 1.50726, 1.50611, 1.50505, 1.50254, 1.5016, 1.50045, 1.49804, 1.49532, 1.49412, 1.49157, 1.48959, 1.48821, 1.48867, 1.48734, 1.48693, 1.489, 1.49285, 1.50026, 1.48628, 1.50521, 1.51567, 1.54344, 1.53391, 1.53137, 1.5329, 1.52121, 1.49296, 1.49213, 1.51409, 1.51226, 1.51522, 1.54689, 1.49143, 1.46333, 1.46132, 1.47417, 1.47561, 1.46766, 1.44742, 1.44356, 1.4414, 1.44395, 1.43665, 1.43484, 1.43226, 1.43082, 1.42878, 1.42616, 1.42696, 1.42367, 1.42245, 1.42137, 1.42091, 1.42033, 1.42092, 1.42086, 1.42111, 1.42047, 1.4174, 1.41483, 1.41225, 1.40624, 1.40573, 1.40501, 1.40327, 1.402, 1.40093, 1.3989, 1.39765, 1.39576, 1.40375, 1.39234, 1.39136, 1.38878, 1.38784, 1.38596, 1.38424, 1.38398, 1.38193, 1.38155, 1.37994, 1.37826, 1.37657, 1.37817, 1.37434, 1.3723, 1.3711, 1.36852, 1.36685, 1.36554, 1.36705, 1.36732, 1.36438, 1.3662, 1.36543, 1.36308, 1.36047, 1.3576, 1.35933, 1.35828, 1.3589, 1.35701, 1.36755, 1.35574, 1.36762, 1.36237, 1.34073, 1.35552, 1.39579, 1.47729, 1.53359, 1.59358, 1.59816, 1.66364, 1.66405, 1.58036, 1.51231, 1.45365, 1.31956, 1.34337, 1.34017, 1.35123, 1.34012, 1.34383, 1.3362, 1.32646, 1.32555, 1.32517, 1.32222, 1.32374, 1.32006, 1.32039, 1.31957, 1.31882, 1.33155, 1.31211, 1.3152, 1.31385
1.65161, 1.64933, 1.64905, 1.64734, 1.6447, 1.64413, 1.64109, 1.63972, 1.63766, 1.63531, 1.6337, 1.62979, 1.62719, 1.62598, 1.62614, 1.62004, 1.62069, 1.61951, 1.62064, 1.61859, 1.61975, 1.62393, 1.60099, 1.64343, 1.70631, 1.74126, 1.77302, 1.85127, 2.02041, 2.04343, 1.92829, 1.65764, 1.56027, 1.54868, 1.60026, 1.6584, 1.74114, 1.8094, 1.80309, 1.70934, 1.66602, 1.61113, 1.605, 1.60062, 1.59239, 1.59621, 1.57454, 1.57788, 1.56145, 1.56579, 1.55856, 1.55886, 1.56087, 1.54599, 1.5423, 1.54038, 1.53922, 1.53654, 1.53388, 1.53296, 1.53306, 1.53086, 1.52793, 1.52699, 1.52374, 1.52286, 1.51908, 1.51779, 1.51582, 1.51356, 1.51023, 1.50919, 1.50726, 1.506, 1.50421, 1.50336, 1.50139, 1.50044, 1.49826, 1.49781, 1.49426, 1.49187, 1.49039, 1.48798, 1.4868, 1.48561, 1.4861, 1.48996, 1.49951, 1.49342, 1.4793, 1.49215, 1.51113, 1.53762, 1.56264, 1.53696, 1.53395, 1.49912, 1.48723, 1.4866, 1.50887, 1.53112, 1.50993, 1.5399, 1.50409, 1.47919, 1.47495, 1.45947, 1.45851, 1.47045, 1.44911, 1.44459, 1.44884, 1.43744, 1.43652, 1.43238, 1.42952, 1.43659, 1.43705, 1.42816, 1.42432, 1.42415, 1.42217, 1.42234, 1.42251, 1.42306, 1.42253, 1.42149, 1.42089, 1.41991, 1.41875, 1.41679, 1.41294, 1.4083, 1.40653, 1.40486, 1.4016, 1.40092, 1.39943, 1.39829, 1.39541, 1.39625, 1.39332, 1.39152, 1.39162, 1.38972, 1.3877, 1.3867, 1.38555, 1.38339, 1.38262, 1.37992, 1.38065, 1.37945, 1.37845, 1.37734, 1.37661, 1.37426, 1.37216, 1.36904, 1.36862, 1.36871, 1.36786, 1.36857, 1.36739, 1.36542, 1.36212, 1.36226, 1.36138, 1.35979, 1.35983, 1.35935, 1.35968, 1.35773, 1.35693, 1.36421, 1.35954, 1.36391, 1.32417, 1.34114, 1.43884, 1.44217, 1.51993, 1.56111, 1.63631, 1.65311, 1.62474, 1.61537, 1.50953, 1.41423, 1.34048, 1.31734, 1.34256, 1.34185, 1.35094, 1.34633, 1.33371, 1.33958, 1.32631, 1.32223, 1.32241, 1.32328, 1.33311, 1.32524, 1.31889, 1.31687, 1.31545, 1.31605, 1.31364, 1.31362
1.6528, 1.65146, 1.64871, 1.64615, 1.64496, 1.64201, 1.64119, 1.64047, 1.637, 1.63408, 1.63175, 1.62836, 1.62777, 1.62351, 1.62376, 1.61921, 1.61958, 1.61994, 1.61946, 1.61907, 1.61738, 1.61341, 1.58689, 1.64344, 1.70287, 1.73742, 1.75145, 1.9504, 2.01263, 2.00363, 1.87645, 1.62528, 1.57646, 1.56466, 1.55356, 1.62767, 1.67527, 1.73002, 1.74441, 1.68855, 1.63348, 1.60908, 1.59708, 1.5935, 1.6013, 1.59275, 1.58188, 1.568, 1.57087, 1.56213, 1.55134, 1.54872, 1.56443, 1.55867, 1.54192, 1.54039, 1.53656, 1.53546, 1.54064, 1.53074, 1.53105, 1.52983, 1.5277, 1.52615, 1.52353, 1.5225, 1.52072, 1.51708, 1.51552, 1.51203, 1.51007, 1.53073, 1.50673, 1.50475, 1.5047, 1.49954, 1.50022, 1.50013, 1.49804, 1.50928, 1.4955, 1.49145, 1.48981, 1.48866, 1.48588, 1.48568, 1.48669, 1.4885, 1.49278, 1.49487, 1.49582, 1.50169, 1.51023, 1.54554, 1.55544, 1.53374, 1.5264, 1.51381, 1.48796, 1.49996, 1.51333, 1.56047, 1.53548, 1.5078, 1.48778, 1.46841, 1.45685, 1.46485, 1.45797, 1.45267, 1.44721, 1.44366, 1.43971, 1.43657, 1.4327, 1.43088, 1.42937, 1.42926, 1.4581, 1.42589, 1.41764, 1.42211, 1.42176, 1.42341, 1.42516, 1.42252, 1.42217, 1.41973, 1.41767, 1.41591, 1.41517, 1.41298, 1.41052, 1.40754, 1.40556, 1.40591, 1.40165, 1.40119, 1.39734, 1.39683, 1.39572, 1.39518, 1.39326, 1.39142, 1.3894, 1.38926, 1.38809, 1.38717, 1.38464, 1.38332, 1.38208, 1.3817, 1.37902, 1.37737, 1.3771, 1.37721, 1.37483, 1.37476, 1.37202, 1.37203, 1.37064, 1.37075, 1.37073, 1.36847, 1.36791, 1.37476, 1.36465, 1.36027, 1.36127, 1.37573, 1.36155, 1.35921, 1.37526, 1.36747, 1.35688, 1.35749, 1.37094, 1.36197, 1.35369, 1.34803, 1.37739, 1.45665, 1.51351, 1.54177, 1.60196, 1.65893, 1.73323, 1.62159, 1.49138, 1.40567, 1.32998, 1.36545, 1.34286, 1.35042, 1.34111, 1.34399, 1.32764, 1.32579, 1.32499, 1.32363, 1.32385, 1.32305, 1.32012, 1.32083, 1.31907, 1.31787, 1.31664, 1.31289, 1.31359, 1.31615
1.65051, 1.64775, 1.65075, 1.6453, 1.64288, 1.64126, 1.6388, 1.63982, 1.63448, 1.63671, 1.62999, 1.62753, 1.62615, 1.63073, 1.61987, 1.61833, 1.62329, 1.61805, 1.61728, 1.62718, 1.62321, 1.61112, 1.60103, 1.64586, 1.70767, 1.75598, 1.80265, 1.93273, 2.01061, 2.02377, 1.85646, 1.71384, 1.55084, 1.57521, 1.57849, 1.59956, 1.624, 1.63232, 1.63628, 1.65108, 1.60244, 1.59324, 1.60343, 1.5891, 1.58275, 1.58348, 1.57919, 1.57559, 1.56556, 1.55253, 1.56755, 1.55802, 1.54319, 1.54734, 1.54045, 1.54783, 1.54002, 1.53466, 1.53134, 1.5312, 1.53481, 1.52916, 1.52464, 1.52459, 1.5231, 1.52148, 1.51855, 1.51348, 1.51213, 1.51198, 1.5105, 1.50694, 1.50509, 1.52812, 1.50176, 1.50062, 1.49719, 1.49629, 1.49561, 1.49323, 1.492, 1.48976, 1.48819, 1.48698, 1.4957, 1.48468, 1.48513, 1.49558, 1.49173, 1.49174, 1.48256, 1.50137, 1.55685, 1.53737, 1.525, 1.54437, 1.53846, 1.49718, 1.52195, 1.47966, 1.51676, 1.50256, 1.50441, 1.48781, 1.50387, 1.45887, 1.45351, 1.46565, 1.4559, 1.4716, 1.44732, 1.44246, 1.43679, 1.43437, 1.43268, 1.43084, 1.4296, 1.43329, 1.4262, 1.42653, 1.42585, 1.42307, 1.42378, 1.42297, 1.42194, 1.42097, 1.42018, 1.41711, 1.41499, 1.41304, 1.41227, 1.4104, 1.40649, 1.4052, 1.40341, 1.40186, 1.39905, 1.39799, 1.39672, 1.39669, 1.39367, 1.40251, 1.39182, 1.39175, 1.39019, 1.38879, 1.38869, 1.38665, 1.38595, 1.38427, 1.3819, 1.38014, 1.37948, 1.37817, 1.37814, 1.37784, 1.37403, 1.3724, 1.37131, 1.37057, 1.3706, 1.36963, 1.36807, 1.36619, 1.36646, 1.36479, 1.36254, 1.35837, 1.35753, 1.35788, 1.37132, 1.35333, 1.35435, 1.35413, 1.35369, 1.36573, 1.37013, 1.35765, 1.35197, 1.33027, 1.3854, 1.45896, 1.46703, 1.56594, 1.61371, 1.65197, 1.64087, 1.59619, 1.53798, 1.40169, 1.33375, 1.32191, 1.35778, 1.34797, 1.33183, 1.33094, 1.33019, 1.32578, 1.32427, 1.34097, 1.32254, 1.32327, 1.31993, 1.319, 1.31729, 1.31814, 1.31449, 1.31583, 1.31172, 1.31267
1.6482, 1.64477, 1.64204, 1.64136, 1.64086, 1.64092, 1.63887, 1.65447, 1.63088, 1.62787, 1.62538, 1.62603, 1.62431, 1.61955, 1.6176, 1.61568, 1.61452, 1.61304, 1.61321, 1.61666, 1.61045, 1.60852, 1.59362, 1.66329, 1.73715, 1.79755, 1.87924, 1.98015, 2.01789, 2.03499, 1.77795, 1.64089, 1.55604, 1.56786, 1.58703, 1.53867, 1.5759, 1.56519, 1.5664, 1.57343, 1.59199, 1.60245, 1.59265, 1.60685, 1.58434, 1.58267, 1.56534, 1.55923, 1.5512, 1.55136, 1.55944, 1.54329, 1.54266, 1.5366, 1.5365, 1.53619, 1.56551, 1.53242, 1.53007, 1.52806, 1.52779, 1.52467, 1.51988, 1.51922, 1.51942, 1.51836, 1.51594, 1.51381, 1.51155, 1.51043, 1.50787, 1.50381, 1.4997, 1.49341, 1.49638, 1.53294, 1.49546, 1.49349, 1.49281, 1.48642, 1.49928, 1.48515, 1.48431, 1.48194, 1.48099, 1.48201, 1.49858, 1.4854, 1.50333, 1.48823, 1.48553, 1.50318, 1.5359, 1.53172, 1.54383, 1.54528, 1.57267, 1.53355, 1.50352, 1.49695, 1.49811, 1.52473, 1.51345, 1.50626, 1.50127, 1.47565, 1.46039, 1.46671, 1.45322, 1.45157, 1.44407, 1.43972, 1.44369, 1.43285, 1.43422, 1.43138, 1.43031, 1.42769, 1.42352, 1.42288, 1.42184, 1.41959, 1.41743, 1.44732, 1.41949, 1.41908, 1.41539, 1.41401, 1.4131, 1.41267, 1.40817, 1.40562, 1.40239, 1.40035, 1.39711, 1.39667, 1.39339, 1.39568, 1.395, 1.39407, 1.38995, 1.39111, 1.39085, 1.39182, 1.39095, 1.39015, 1.38777, 1.38777, 1.38688, 1.38552, 1.37961, 1.37886, 1.37843, 1.37795, 1.3786, 1.37378, 1.37244, 1.37217, 1.37047, 1.37016, 1.36634, 1.36664, 1.36524, 1.36511, 1.36383, 1.3651, 1.3611, 1.35887, 1.3567, 1.35891, 1.35601, 1.3514, 1.35152, 1.35073, 1.35034, 1.35398, 1.36114, 1.35491, 1.32234, 1.32781, 1.34512, 1.36889, 1.46967, 1.54442, 1.58088, 1.64123, 1.6356, 1.59327, 1.50892, 1.4256, 1.33374, 1.31222, 1.33698, 1.35506, 1.32946, 1.32646, 1.32298, 1.32063, 1.32078, 1.33126, 1.32204, 1.31358, 1.31512, 1.31241, 1.31106, 1.31343, 1.3129, 1.31066, 1.30941, 1.3097
1.64377, 1.64365, 1.63925, 1.63667, 1.63722, 1.63385, 1.63387, 1.63147, 1.6327, 1.62673, 1.62408, 1.62678, 1.62223, 1.61895, 1.61639, 1.61433, 1.61356, 1.61303, 1.60996, 1.60919, 1.60958, 1.62038, 1.59349, 1.63082, 1.66093, 1.70954, 1.83209, 1.90732, 2.01522, 1.88596, 1.88689, 1.58953, 1.57119, 1.56919, 1.58465, 1.58146, 1.60334, 1.58802, 1.58925, 1.59391, 1.59371, 1.5957, 1.58931, 1.59313, 1.57443, 1.57884, 1.58202, 1.56121, 1.55805, 1.54451, 1.54191, 1.5438, 1.53827, 1.53672, 1.53505, 1.53422, 1.53317, 1.5275, 1.52777, 1.52591, 1.52361, 1.52662, 1.51956, 1.52007, 1.51935, 1.51816, 1.51577, 1.51256, 1.51198, 1.50923, 1.50812, 1.5038, 1.49981, 1.49755, 1.49621, 1.49186, 1.49109, 1.4889, 1.48676, 1.48668, 1.48553, 1.48365, 1.48178, 1.48121, 1.47947, 1.47919, 1.47729, 1.4791, 1.48266, 1.49944, 1.49595, 1.49157, 1.51685, 1.52265, 1.52323, 1.52748, 1.5503, 1.4989, 1.48946, 1.47608, 1.48152, 1.49758, 1.49128, 1.51121, 1.51415, 1.45024, 1.46474, 1.47275, 1.45219, 1.45717, 1.44998, 1.44118, 1.43635, 1.43525, 1.4328, 1.43068, 1.43138, 1.42618, 1.42434, 1.42407, 1.42322, 1.42248, 1.41969, 1.41929, 1.41749, 1.41595, 1.41476, 1.41251, 1.412, 1.41013, 1.40874, 1.40611, 1.40202, 1.40168, 1.39823, 1.39746, 1.39449, 1.39406, 1.39298, 1.39043, 1.38775, 1.38802, 1.3885, 1.39275, 1.39103, 1.38994, 1.38909, 1.38935, 1.38859, 1.40268, 1.3807, 1.37755, 1.37728, 1.37461, 1.37309, 1.37114, 1.36854, 1.36865, 1.36727, 1.36707, 1.36666, 1.36494, 1.36505, 1.36499, 1.36158, 1.36487, 1.3619, 1.35885, 1.35857, 1.35675, 1.35523, 1.36141, 1.35108, 1.35272, 1.35015, 1.36721, 1.3547, 1.35511, 1.3422, 1.34692, 1.4005, 1.43089, 1.51583, 1.53049, 1.6099, 1.63756, 1.67959, 1.61242, 1.56872, 1.34322, 1.28807, 1.30455, 1.33499, 1.33232, 1.34134, 1.34364, 1.31965, 1.31616, 1.31756, 1.32581, 1.31589, 1.31469, 1.31491, 1.31262, 1.3134, 1.31175, 1.31103, 1.30891, 1.30769, 1.30403
1.64335, 1.64479, 1.64007, 1.63774, 1.63666, 1.63451, 1.62968, 1.631, 1.62916, 1.62515, 1.62542, 1.62335, 1.62023, 1.62807, 1.61593, 1.61692, 1.61264, 1.6128, 1.60961, 1.60874, 1.60928, 1.62232, 1.60936, 1.64614, 1.6896, 1.71611, 1.81793, 1.89303, 2.14603, 2.28259, 1.84608, 1.6064, 1.5677, 1.55909, 1.57857, 1.58875, 1.57817, 1.58374, 1.58652, 1.60185, 1.59944, 1.59677, 1.58239, 1.57604, 1.56912, 1.5711, 1.56666, 1.55162, 1.54756, 1.54282, 1.53986, 1.53904, 1.53506, 1.53321, 1.54093, 1.53253, 1.53211, 1.52675, 1.52526, 1.52479, 1.52319, 1.51955, 1.5197, 1.51947, 1.51934, 1.5158, 1.51307, 1.51143, 1.5096, 1.5085, 1.50501, 1.50248, 1.49982, 1.49815, 1.49316, 1.49214, 1.49127, 1.48848, 1.48769, 1.48766, 1.48481, 1.4831, 1.4819, 1.47916, 1.47762, 1.47667, 1.48331, 1.4925, 1.48118, 1.49876, 1.49356, 1.50266, 1.53785, 1.53444, 1.53246, 1.51009, 1.53382, 1.50888, 1.48785, 1.51595, 1.51287, 1.49389, 1.49372, 1.50923, 1.49907, 1.50212, 1.48903, 1.45837, 1.45977, 1.4521, 1.44666, 1.44365, 1.44016, 1.43592, 1.43302, 1.42989, 1.43009, 1.4279, 1.42431, 1.42474, 1.42302, 1.42225, 1.42291, 1.41666, 1.41484, 1.41416, 1.41481, 1.41146, 1.40912, 1.40656, 1.40373, 1.40042, 1.40117, 1.40157, 1.39701, 1.39697, 1.39591, 1.39262, 1.39187, 1.39057, 1.39192, 1.39116, 1.38989, 1.38975, 1.39061, 1.39051, 1.39117, 1.38881, 1.38888, 1.38574, 1.38009, 1.37908, 1.37792, 1.37486, 1.3743, 1.37106, 1.36836, 1.36472, 1.36483, 1.36611, 1.36598, 1.36642, 1.36548, 1.36659, 1.36162, 1.36052, 1.35969, 1.36044, 1.3587, 1.35367, 1.35606, 1.35147, 1.35088, 1.34904, 1.34683, 1.34662, 1.35873, 1.35084, 1.33667, 1.37187, 1.38765, 1.42963, 1.48706, 1.60058, 1.59253, 1.69687, 1.70982, 1.71134, 1.51099, 1.37929, 1.31296, 1.32974, 1.33279, 1.33822, 1.32937, 1.333, 1.33378, 1.31793, 1.3154, 1.3157, 1.31573, 1.31611, 1.31696, 1.3158, 1.3149, 1.30998, 1.30877, 1.30635, 1.30529, 1.3041
1.64094, 1.64098, 1.63862, 1.63646, 1.63544, 1.63199, 1.63144, 1.63009, 1.62901, 1.62701, 1.62532, 1.624, 1.62165, 1.62219, 1.615, 1.62402, 1.61155, 1.6113, 1.61068, 1.60742, 1.60762, 1.60658, 1.60584, 1.6356, 1.6292, 1.8023, 1.87317, 1.89952, 1.99431, 2.15363, 1.89224, 1.68216, 1.55134, 1.55521, 1.57655, 1.57801, 1.5768, 1.58884, 1.58143, 1.58256, 1.58014, 1.57328, 1.58558, 1.57928, 1.56757, 1.5612, 1.55437, 1.55048, 1.55023, 1.54353, 1.54086, 1.53774, 1.53695, 1.53475, 1.53305, 1.53172, 1.52924, 1.52819, 1.5253, 1.52383, 1.52122, 1.51965, 1.51902, 1.51929, 1.51847, 1.51552, 1.51316, 1.51152, 1.50986, 1.50714, 1.50481, 1.50218, 1.49749, 1.49715, 1.49119, 1.49175, 1.48953, 1.51549, 1.48747, 1.48558, 1.48517, 1.48223, 1.48097, 1.47817, 1.47773, 1.47535, 1.4747, 1.4748, 1.4794, 1.48191, 1.48564, 1.50363, 1.51166, 1.52309, 1.53199, 1.52877, 1.5363, 1.51735, 1.49864, 1.49271, 1.48502, 1.52648, 1.49657, 1.51434, 1.51742, 1.48844, 1.46811, 1.45782, 1.46392, 1.45799, 1.45423, 1.44316, 1.43403, 1.4363, 1.43344, 1.43182, 1.42921, 1.42861, 1.42617, 1.42312, 1.42175, 1.41984, 1.41806, 1.41568, 1.41425, 1.41394, 1.41238, 1.41135, 1.40892, 1.40702, 1.40503, 1.40095, 1.3988, 1.39738, 1.39521, 1.39464, 1.39185, 1.39132, 1.38888, 1.389, 1.38815, 1.38931, 1.38999, 1.38956, 1.38814, 1.38823, 1.38989, 1.38724, 1.38808, 1.38542, 1.38221, 1.3802, 1.37847, 1.37298, 1.36879, 1.36558, 1.36514, 1.39555, 1.3597, 1.36186, 1.36187, 1.36399, 1.36475, 1.36116, 1.35981, 1.35857, 1.35782, 1.35813, 1.35722, 1.35419, 1.35509, 1.35357, 1.35053, 1.34878, 1.34726, 1.35368, 1.35406, 1.36075, 1.35891, 1.35348, 1.39305, 1.4746, 1.48166, 1.59559, 1.62143, 1.69791, 1.71681, 1.68268, 1.60804, 1.39956, 1.3265, 1.33212, 1.33308, 1.34174, 1.32661, 1.3242, 1.32032, 1.32035, 1.31917, 1.31783, 1.31619, 1.31542, 1.31568, 1.31257, 1.31155, 1.31088, 1.30924, 1.30855, 1.3065, 1.30347
1.64232, 1.64013, 1.63702, 1.63681, 1.63403, 1.63275, 1.63245, 1.6322, 1.63047, 1.62694, 1.62581, 1.62408, 1.62038, 1.62124, 1.61592, 1.61282, 1.61114, 1.60954, 1.6091, 1.61594, 1.60841, 1.60757, 1.59381, 1.62853, 1.6842, 1.72371, 1.80103, 1.84579, 1.92168, 2.19481, 1.82385, 1.57037, 1.56516, 1.5437, 1.57814, 1.578, 1.57653, 1.57826, 1.57939, 1.58545, 1.5927, 1.58953, 1.57684, 1.56431, 1.58266, 1.56657, 1.55272, 1.54959, 1.54594, 1.54497, 1.54181, 1.53956, 1.53821, 1.53626, 1.53421, 1.53219, 1.52922, 1.52743, 1.52565, 1.52334, 1.52228, 1.51921, 1.51822, 1.51714, 1.51525, 1.51316, 1.51143, 1.51052, 1.50873, 1.50687, 1.50526, 1.50053, 1.49791, 1.49551, 1.49153, 1.48946, 1.48804, 1.48494, 1.48434, 1.50879, 1.48252, 1.4844, 1.48213, 1.48008, 1.47777, 1.4774, 1.47734, 1.49266, 1.48192, 1.48517, 1.48926, 1.48549, 1.50134, 1.54181, 1.54401, 1.52968, 1.51862, 1.50745, 1.48174, 1.48094, 1.50901, 1.49473, 1.48966, 1.49647, 1.49193, 1.47417, 1.4542, 1.45962, 1.46144, 1.45207, 1.45074, 1.44378, 1.4389, 1.43692, 1.43574, 1.43253, 1.42966, 1.4276, 1.42639, 1.42464, 1.42182, 1.42076, 1.4169, 1.41649, 1.41541, 1.41382, 1.41025, 1.40979, 1.40734, 1.40582, 1.40313, 1.40226, 1.40014, 1.39726, 1.39534, 1.39368, 1.393, 1.39128, 1.39166, 1.38774, 1.38666, 1.38624, 1.38823, 1.3888, 1.38872, 1.38705, 1.38638, 1.38616, 1.38567, 1.38382, 1.38405, 1.37754, 1.3754, 1.37067, 1.36947, 1.36712, 1.36569, 1.36804, 1.36255, 1.36176, 1.36212, 1.36275, 1.36138, 1.36068, 1.35971, 1.35701, 1.35555, 1.35662, 1.35588, 1.35243, 1.34995, 1.35244, 1.34999, 1.34766, 1.34777, 1.34712, 1.35475, 1.34647, 1.33463, 1.33339, 1.41929, 1.43438, 1.49764, 1.56956, 1.60778, 1.67324, 1.72747, 1.66886, 1.45658, 1.46568, 1.29498, 1.33009, 1.33822, 1.35418, 1.32618, 1.32613, 1.32058, 1.32051, 1.31992, 1.31902, 1.3181, 1.31852, 1.31599, 1.31593, 1.31449, 1.31143, 1.31227, 1.3116, 1.30782, 1.30299
1.64106, 1.63881, 1.63776, 1.63711, 1.63501, 1.63491, 1.63341, 1.63297, 1.62945, 1.62671, 1.62591, 1.62365, 1.62144, 1.61898, 1.61745, 1.62351, 1.61292, 1.61306, 1.60894, 1.60736, 1.60679, 1.60575, 1.57791, 1.627, 1.67609, 1.70739, 1.81749, 1.84912, 1.91843, 1.91896, 1.80234, 1.63898, 1.5768, 1.55967, 1.5827, 1.58248, 1.5763, 1.57855, 1.57424, 1.57441, 1.57291, 1.5752, 1.58134, 1.5644, 1.56082, 1.56813, 1.55613, 1.55064, 1.54915, 1.55176, 1.5425, 1.55789, 1.53873, 1.53689, 1.53496, 1.53285, 1.52783, 1.52669, 1.52476, 1.5228, 1.52073, 1.5199, 1.51672, 1.51469, 1.51542, 1.51273, 1.51147, 1.51035, 1.50781, 1.50628, 1.50509, 1.49919, 1.49708, 1.49482, 1.49324, 1.48885, 1.48809, 1.4853, 1.49324, 1.48382, 1.48187, 1.48026, 1.47994, 1.48047, 1.478, 1.47686, 1.47743, 1.48852, 1.47881, 1.47962, 1.48364, 1.48411, 1.51247, 1.54464, 1.54423, 1.52761, 1.51977, 1.54114, 1.52799, 1.48854, 1.50391, 1.5067, 1.51655, 1.49468, 1.48473, 1.48744, 1.45429, 1.46369, 1.46323, 1.46609, 1.44566, 1.44166, 1.43807, 1.43627, 1.43309, 1.43384, 1.42831, 1.42598, 1.42335, 1.42274, 1.41944, 1.4186, 1.41801, 1.41606, 1.41377, 1.41307, 1.40995, 1.40738, 1.40507, 1.40401, 1.40311, 1.40066, 1.39849, 1.39632, 1.39443, 1.39298, 1.39207, 1.39133, 1.38884, 1.38811, 1.39078, 1.38704, 1.38752, 1.38791, 1.38785, 1.38707, 1.38697, 1.38503, 1.38329, 1.38151, 1.38294, 1.3777, 1.37419, 1.37101, 1.36919, 1.36607, 1.36357, 1.36227, 1.36206, 1.36073, 1.36039, 1.3609, 1.35933, 1.35888, 1.35755, 1.35596, 1.35435, 1.35364, 1.35499, 1.35155, 1.35033, 1.35452, 1.34617, 1.34501, 1.34526, 1.34432, 1.34989, 1.36073, 1.35173, 1.33763, 1.35046, 1.42671, 1.49643, 1.52499, 1.57703, 1.65761, 1.70865, 1.7101, 1.52003, 1.44656, 1.28628, 1.30341, 1.33308, 1.32837, 1.32685, 1.32406, 1.3178, 1.3187, 1.31933, 1.31856, 1.31717, 1.3207, 1.31582, 1.31351, 1.31198, 1.31234, 1.30993, 1.30891, 1.3089, 1.30546
1.6384, 1.6375, 1.63693, 1.63706, 1.63415, 1.63465, 1.63238, 1.63083, 1.63138, 1.62817, 1.6258, 1.62531, 1.622, 1.61793, 1.6166, 1.61473, 1.61207, 1.61065, 1.60862, 1.60784, 1.61684, 1.60636, 1.59942, 1.59423, 1.63691, 1.68817, 1.76813, 1.82974, 1.86477, 2.19117, 1.75885, 1.64593, 1.55876, 1.55131, 1.57671, 1.57573, 1.57538, 1.57972, 1.57361, 1.57307, 1.56972, 1.56806, 1.56498, 1.56255, 1.57375, 1.56874, 1.5544, 1.55279, 1.54886, 1.54544, 1.54335, 1.54242, 1.53853, 1.53695, 1.53618, 1.53357, 1.52947, 1.52658, 1.525, 1.52237, 1.52157, 1.51899, 1.51749, 1.5158, 1.5142, 1.51383, 1.51314, 1.50866, 1.50909, 1.50514, 1.50338, 1.50242, 1.49757, 1.49539, 1.49141, 1.49101, 1.48879, 1.48597, 1.48558, 1.48451, 1.48334, 1.48138, 1.47881, 1.47819, 1.47672, 1.47677, 1.48596, 1.48842, 1.47941, 1.48648, 1.47613, 1.48235, 1.49263, 1.51598, 1.53015, 1.52651, 1.5455, 1.54137, 1.49488, 1.5259, 1.50071, 1.51655, 1.4937, 1.48845, 1.49962, 1.49579, 1.47256, 1.45854, 1.46878, 1.45102, 1.46079, 1.44227, 1.44199, 1.43641, 1.43383, 1.42973, 1.42821, 1.42624, 1.42317, 1.42221, 1.42059, 1.42068, 1.42338, 1.41632, 1.41436, 1.41425, 1.41248, 1.4088, 1.40698, 1.40666, 1.40275, 1.40342, 1.40017, 1.39857, 1.39713, 1.39479, 1.39162, 1.39123, 1.39172, 1.39189, 1.3866, 1.3876, 1.38846, 1.38621, 1.38805, 1.38749, 1.38803, 1.38478, 1.38342, 1.38174, 1.37864, 1.3768, 1.37372, 1.37033, 1.36775, 1.3672, 1.36346, 1.36258, 1.36262, 1.36336, 1.36311, 1.36114, 1.3604, 1.35796, 1.35816, 1.35645, 1.35437, 1.35713, 1.35316, 1.35331, 1.34956, 1.34731, 1.34656, 1.3461, 1.34405, 1.34485, 1.3518, 1.34676, 1.35089, 1.33637, 1.36942, 1.39193, 1.49876, 1.53952, 1.56877, 1.61428, 1.68901, 1.68106, 1.53401, 1.4373, 1.31332, 1.32035, 1.3247, 1.34128, 1.3327, 1.32194, 1.32041, 1.32258, 1.32366, 1.31925, 1.31907, 1.31778, 1.31433, 1.31535, 1.31251, 1.31491, 1.30977, 1.31046, 1.30914, 1.30989
1.64023, 1.63855, 1.63755, 1.63679, 1.636, 1.6351, 1.63415, 1.63309, 1.63112, 1.62905, 1.62894, 1.62344, 1.62189, 1.61935, 1.61844, 1.61707, 1.62075, 1.61152, 1.61028, 1.60885, 1.61014, 1.60994, 1.57533, 1.59718, 1.69047, 1.72437, 1.79672, 1.80807, 1.81076, 1.77676, 1.81249, 1.64179, 1.55561, 1.54786, 1.5683, 1.58123, 1.57593, 1.57203, 1.57967, 1.57072, 1.56839, 1.56839, 1.56527, 1.58152, 1.58624, 1.55747, 1.55527, 1.55334, 1.54927, 1.54774, 1.54624, 1.54464, 1.53954, 1.53764, 1.53732, 1.53466, 1.5296, 1.52601, 1.52422, 1.52377, 1.52232, 1.52105, 1.517, 1.51625, 1.51283, 1.5126, 1.51086, 1.50757, 1.50573, 1.50534, 1.50345, 1.50138, 1.49945, 1.49598, 1.49441, 1.51177, 1.48891, 1.48691, 1.49475, 1.48607, 1.48333, 1.48134, 1.48051, 1.47945, 1.478, 1.47767, 1.47803, 1.47904, 1.48157, 1.49619, 1.49125, 1.49895, 1.50063, 1.51692, 1.51552, 1.52283, 1.53066, 1.51097, 1.49568, 1.48191, 1.48884, 1.49862, 1.49658, 1.49871, 1.4961, 1.47543, 1.455, 1.47122, 1.46469, 1.45223, 1.45413, 1.44988, 1.43801, 1.437, 1.43226, 1.42977, 1.42787, 1.4258, 1.42439, 1.42317, 1.43029, 1.45105, 1.41776, 1.41521, 1.41748, 1.41391, 1.41228, 1.41181, 1.40876, 1.40635, 1.40435, 1.40213, 1.40314, 1.39909, 1.39924, 1.39622, 1.39466, 1.39321, 1.39152, 1.38974, 1.38981, 1.38884, 1.38947, 1.39038, 1.38919, 1.38808, 1.38827, 1.38493, 1.38363, 1.38155, 1.37724, 1.37545, 1.37458, 1.36993, 1.36777, 1.36509, 1.36328, 1.36083, 1.36069, 1.3623, 1.36415, 1.35937, 1.36068, 1.35984, 1.35808, 1.35772, 1.35578, 1.3557, 1.35224, 1.35328, 1.35094, 1.3478, 1.34531, 1.34659, 1.34372, 1.34401, 1.35082, 1.35731, 1.34045, 1.31924, 1.34667, 1.40308, 1.47168, 1.52892, 1.58835, 1.63335, 1.66614, 1.65849, 1.5475, 1.42996, 1.28423, 1.31475, 1.32446, 1.33979, 1.3293, 1.32359, 1.32021, 1.32249, 1.3204, 1.32266, 1.32073, 1.31956, 1.34111, 1.31843, 1.31307, 1.31461, 1.31337, 1.31157, 1.31052, 1.3096
1.63896, 1.64059, 1.6366, 1.63433, 1.63184, 1.63139, 1.63224, 1.62955, 1.62738, 1.62766, 1.62548, 1.62298, 1.62061, 1.61854, 1.61654, 1.63023, 1.6128, 1.61147, 1.60936, 1.60874, 1.61147, 1.62498, 1.6135, 1.58908, 1.65126, 1.71868, 1.78021, 1.81232, 1.80716, 1.75095, 1.75189, 1.5725, 1.55714, 1.53773, 1.58333, 1.57435, 1.57316, 1.56877, 1.56857, 1.56989, 1.5651, 1.5625, 1.56258, 1.56161, 1.5743, 1.55627, 1.55368, 1.55047, 1.54797, 1.54583, 1.54444, 1.54227, 1.54023, 1.53732, 1.53615, 1.53297, 1.52854, 1.5243, 1.52028, 1.51839, 1.51739, 1.51669, 1.51525, 1.51402, 1.51235, 1.51044, 1.50805, 1.50617, 1.50582, 1.50414, 1.50193, 1.50071, 1.4983, 1.49563, 1.49214, 1.48965, 1.48902, 1.48788, 1.48546, 1.48442, 1.48209, 1.48128, 1.47865, 1.47711, 1.47655, 1.47476, 1.47698, 1.47584, 1.47889, 1.47811, 1.4748, 1.48538, 1.51686, 1.51699, 1.52932, 1.57315, 1.52055, 1.49612, 1.49358, 1.48051, 1.51004, 1.50511, 1.51301, 1.50569, 1.49073, 1.46849, 1.45783, 1.4596, 1.45883, 1.46458, 1.45159, 1.43864, 1.43764, 1.43182, 1.44016, 1.42602, 1.42434, 1.42471, 1.4262, 1.42143, 1.42767, 1.41673, 1.41829, 1.41442, 1.41557, 1.41239, 1.41228, 1.4097, 1.40592, 1.40563, 1.40233, 1.40265, 1.40164, 1.40015, 1.39776, 1.39662, 1.39859, 1.39219, 1.39133, 1.38852, 1.39039, 1.38812, 1.39075, 1.38553, 1.38549, 1.38535, 1.38441, 1.38138, 1.37882, 1.37936, 1.37528, 1.3701, 1.36881, 1.37475, 1.36717, 1.36342, 1.36142, 1.36134, 1.36122, 1.36114, 1.36037, 1.36011, 1.36073, 1.35758, 1.35692, 1.3555, 1.35647, 1.35421, 1.35413, 1.35085, 1.35021, 1.34725, 1.35547, 1.34531, 1.34048, 1.3418, 1.34307, 1.35776, 1.36113, 1.31757, 1.32469, 1.38507, 1.46124, 1.47931, 1.58415, 1.6054, 1.71396, 1.72862, 1.57839, 1.43072, 1.30248, 1.32271, 1.32375, 1.33736, 1.32083, 1.31922, 1.32232, 1.32003, 1.31971, 1.32685, 1.345, 1.31973, 1.3234, 1.31927, 1.31219, 1.31239, 1.31469, 1.31199, 1.3104, 1.30617
1.63828, 1.63675, 1.63718, 1.63347, 1.63122, 1.6323, 1.62992, 1.62823, 1.62709, 1.62667, 1.62456, 1.62023, 1.62068, 1.61881, 1.61409, 1.61293, 1.61728, 1.60949, 1.60585, 1.6062, 1.60749, 1.60628, 1.59576, 1.59204, 1.65022, 1.7437, 1.81433, 1.85587, 1.82809, 1.76503, 1.67972, 1.6673, 1.54036, 1.53308, 1.55807, 1.57276, 1.58898, 1.57793, 1.57497, 1.5697, 1.56902, 1.56538, 1.56211, 1.56071, 1.55902, 1.56266, 1.57103, 1.55156, 1.55249, 1.54594, 1.54257, 1.54073, 1.53876, 1.53641, 1.53324, 1.53196, 1.5306, 1.52615, 1.52131, 1.51709, 1.51619, 1.51648, 1.5165, 1.51511, 1.51132, 1.51022, 1.50785, 1.50534, 1.50449, 1.50293, 1.51074, 1.50154, 1.49975, 1.50096, 1.49589, 1.49143, 1.49057, 1.48809, 1.48623, 1.48533, 1.48381, 1.47903, 1.47898, 1.4775, 1.47675, 1.47453, 1.47502, 1.47512, 1.47888, 1.48113, 1.49396, 1.52388, 1.50663, 1.50695, 1.52848, 1.5253, 1.52451, 1.50578, 1.5063, 1.47666, 1.48183, 1.50238, 1.49627, 1.49911, 1.50484, 1.47692, 1.4597, 1.4619, 1.45291, 1.45695, 1.45187, 1.43742, 1.44174, 1.43262, 1.42778, 1.42775, 1.42444, 1.42308, 1.42497, 1.43939, 1.41911, 1.41812, 1.41617, 1.41573, 1.41431, 1.41287, 1.41107, 1.40919, 1.40856, 1.40773, 1.40705, 1.40172, 1.40154, 1.39892, 1.39975, 1.39629, 1.39426, 1.39275, 1.39158, 1.3912, 1.38978, 1.38824, 1.38811, 1.38456, 1.38473, 1.38511, 1.38476, 1.38079, 1.37746, 1.37457, 1.37143, 1.37166, 1.36766, 1.36608, 1.36509, 1.36304, 1.35921, 1.36024, 1.3607, 1.35848, 1.35824, 1.35853, 1.35825, 1.35727, 1.35606, 1.35322, 1.35241, 1.35276, 1.34976, 1.34857, 1.34819, 1.34774, 1.35054, 1.34428, 1.34389, 1.34309, 1.34219, 1.36243, 1.33945, 1.3272, 1.38041, 1.41721, 1.48936, 1.48598, 1.57961, 1.6578, 1.85878, 1.64905, 1.63782, 1.42287, 1.31267, 1.31261, 1.32277, 1.32717, 1.33926, 1.32307, 1.33938, 1.31958, 1.31935, 1.31983, 1.31936, 1.3183, 1.31364, 1.31574, 1.31464, 1.31439, 1.31275, 1.30954, 1.31149, 1.30811
1.63574, 1.63363, 1.63457, 1.63449, 1.63333, 1.63063, 1.62969, 1.62941, 1.62712, 1.62535, 1.62266, 1.62085, 1.61945, 1.61755, 1.61648, 1.61302, 1.61268, 1.60832, 1.60591, 1.60552, 1.61339, 1.61623, 1.61017, 1.59392, 1.66016, 1.74092, 1.74877, 1.87975, 1.91803, 1.74694, 1.70836, 1.66099, 1.58945, 1.55202, 1.56193, 1.58448, 1.58296, 1.59948, 1.57788, 1.58559, 1.56933, 1.56613, 1.56103, 1.56138, 1.56482, 1.55949, 1.5657, 1.55164, 1.54956, 1.54707, 1.5439, 1.54424, 1.53987, 1.53781, 1.53593, 1.53353, 1.53048, 1.52768, 1.52423, 1.51923, 1.51654, 1.51771, 1.51724, 1.51655, 1.51358, 1.51196, 1.50911, 1.50728, 1.50676, 1.50383, 1.50206, 1.50058, 1.49648, 1.49565, 1.4927, 1.49026, 1.48844, 1.48713, 1.48593, 1.48494, 1.48485, 1.48242, 1.48027, 1.47985, 1.4783, 1.47799, 1.47762, 1.48874, 1.47971, 1.48012, 1.48615, 1.47553, 1.49609, 1.52589, 1.51541, 1.56063, 1.52335, 1.5024, 1.5344, 1.4991, 1.47547, 1.49661, 1.4921, 1.5118, 1.50245, 1.46676, 1.46401, 1.46958, 1.47424, 1.44656, 1.44444, 1.43688, 1.43319, 1.42949, 1.42756, 1.4264, 1.42344, 1.42294, 1.42295, 1.41908, 1.41933, 1.41703, 1.41631, 1.41553, 1.41345, 1.41371, 1.41304, 1.40924, 1.40761, 1.40732, 1.40565, 1.40529, 1.40186, 1.39967, 1.3985, 1.39538, 1.39401, 1.39294, 1.39026, 1.39411, 1.38839, 1.387, 1.385, 1.38491, 1.38372, 1.38134, 1.37728, 1.37512, 1.374, 1.37412, 1.37029, 1.3695, 1.36721, 1.36563, 1.36244, 1.36125, 1.36172, 1.36222, 1.36043, 1.35902, 1.38329, 1.36634, 1.35799, 1.36913, 1.35443, 1.35391, 1.35072, 1.35001, 1.34955, 1.3476, 1.34736, 1.34774, 1.34347, 1.34613, 1.34409, 1.36516, 1.35135, 1.35368, 1.3483, 1.31749, 1.31013, 1.37082, 1.48595, 1.53952, 1.59506, 1.6575, 1.70087, 1.6691, 1.57736, 1.43479, 1.31649, 1.31961, 1.33429, 1.34346, 1.33776, 1.33107, 1.32336, 1.32013, 1.31967, 1.31582, 1.3264, 1.31979, 1.31663, 1.31679, 1.31468, 1.31263, 1.30997, 1.31035, 1.31314, 1.30717
