1.61976, 1.61994, 1.61416, 1.61182, 1.60974, 1.61175, 1.60331, 1.60325, 1.61216, 1.61439, 1.61332, 1.60027, 1.5849, 1.60049, 1.62091, 1.64482, 1.62799, 1.63183, 1.63997, 1.66423, 1.68137, 1.68394, 1.68607, 1.66024, 1.57987, 1.53282, 1.56212, 1.57191, 1.57133, 1.55326, 1.55387, 1.56216, 1.55893, 1.5718, 1.57212, 1.56084, 1.54036, 1.52853, 1.53706, 1.52609, 1.52518, 1.5233, 1.51972, 1.52051, 1.51687, 1.51902, 1.51198, 1.51144, 1.51165, 1.50538, 1.50167, 1.49867, 1.49752, 1.49638, 1.49355, 1.49202, 1.48816, 1.48706, 1.48387, 1.48661, 1.48229, 1.48, 1.47636, 1.47483, 1.47016, 1.46616, 1.46848, 1.46813, 1.46709, 1.45838, 1.45794, 1.46486, 1.4527, 1.46196, 1.45105, 1.45088, 1.53004, 1.61365, 1.75874, 1.7302, 1.75828, 1.71108, 1.61316, 1.46749, 1.41306, 1.43147, 1.44807, 1.43467, 1.42699, 1.42178, 1.4206, 1.41645, 1.42353, 1.41364, 1.41274, 1.41211, 1.41529, 1.40347, 1.39923, 1.39804, 1.39732, 1.39802, 1.39533, 1.39339, 1.39271, 1.39122, 1.38689, 1.38419, 1.3845, 1.38522, 1.38094, 1.37977, 1.37727, 1.37497, 1.37317, 1.36799, 1.36646, 1.36809, 1.36662, 1.36563, 1.363, 1.36071, 1.36002, 1.35907, 1.35672, 1.35784, 1.35497, 1.3596, 1.35337, 1.34842, 1.34585, 1.34436, 1.3478, 1.3446, 1.34243, 1.34355, 1.33787, 1.33727, 1.33605, 1.3354, 1.33128, 1.33075, 1.32778, 1.33324, 1.33644, 1.33709, 1.33802, 1.33735, 1.33787, 1.3397, 1.37726, 1.37207, 1.35097, 1.40347, 1.36847, 1.36221, 1.37227, 1.35543, 1.36488, 1.33325, 1.31719, 1.30936, 1.30708, 1.31096, 1.30119, 1.29353, 1.28998, 1.29217, 1.28249, 1.28463, 1.28394, 1.28245, 1.28449, 1.28419, 1.28464, 1.28175, 1.28182, 1.31776, 1.33331, 1.31924, 
1.64128, 1.62701, 1.63334, 1.62029, 1.61786, 1.61731, 1.63461, 1.6131, 1.61128, 1.61398, 1.62793, 1.61342, 1.59196, 1.61421, 1.62178, 1.63377, 1.6656, 1.67385, 1.68599, 1.69327, 1.72302, 1.7247, 1.67112, 1.63919, 1.58603, 1.55685, 1.56883, 1.57533, 1.57693, 1.56166, 1.56647, 1.55713, 1.55196, 1.55022, 1.55048, 1.54197, 1.56232, 1.56885, 1.54714, 1.55088, 1.55094, 1.54464, 1.53699, 1.53005, 1.5229, 1.52308, 1.52225, 1.51938, 1.51513, 1.51183, 1.51075, 1.50808, 1.50791, 1.50494, 1.49953, 1.4986, 1.50226, 1.49855, 1.49625, 1.494, 1.49234, 1.48914, 1.48645, 1.48187, 1.47937, 1.47849, 1.47626, 1.47408, 1.47163, 1.47166, 1.47185, 1.47134, 1.48152, 1.46786, 1.44034, 1.48069, 1.52758, 1.60375, 1.67492, 1.7143, 1.73114, 1.7261, 1.58222, 1.54095, 1.41258, 1.43971, 1.44548, 1.44864, 1.45793, 1.44051, 1.43235, 1.42595, 1.42382, 1.42575, 1.43371, 1.41621, 1.41683, 1.41252, 1.41526, 1.40938, 1.40758, 1.4059, 1.4052, 1.40354, 1.40151, 1.40008, 1.39871, 1.39513, 1.39122, 1.39304, 1.38967, 1.38824, 1.38825, 1.38613, 1.38535, 1.38385, 1.38192, 1.37947, 1.37856, 1.37705, 1.37293, 1.37138, 1.36541, 1.36864, 1.36187, 1.36062, 1.35815, 1.35976, 1.35827, 1.35643, 1.35757, 1.35586, 1.35809, 1.36033, 1.35667, 1.35471, 1.35376, 1.35472, 1.35222, 1.35819, 1.34605, 1.34529, 1.34771, 1.34395, 1.34681, 1.36174, 1.3477, 1.34632, 1.34477, 1.38829, 1.35234, 1.36085, 1.35667, 1.3746, 1.36444, 1.38908, 1.37478, 1.37309, 1.36513, 1.35046, 1.31424, 1.34056, 1.3212, 1.31243, 1.3085, 1.31283, 1.30126, 1.30183, 1.29973, 1.29512, 1.32043, 1.30192, 1.29557, 1.29612, 1.29764, 1.30215, 1.29959, 1.30113, 1.29536, 1.32008, 
1.6765, 1.67855, 1.67135, 1.6319, 1.62861, 1.64189, 1.62142, 1.62459, 1.61972, 1.63475, 1.62905, 1.63029, 1.61024, 1.6145, 1.64416, 1.67792, 1.67164, 1.67167, 1.72006, 1.77916, 1.77663, 1.7434, 1.72951, 1.65456, 1.60234, 1.5658, 1.57814, 1.59622, 1.58117, 1.58582, 1.56634, 1.56315, 1.5629, 1.56783, 1.55691, 1.55317, 1.57203, 1.56461, 1.56463, 1.5474, 1.53873, 1.53801, 1.55151, 1.53479, 1.53533, 1.53359, 1.529, 1.52533, 1.52338, 1.52235, 1.51953, 1.51788, 1.51707, 1.51166, 1.5101, 1.509, 1.50599, 1.50516, 1.50301, 1.50253, 1.50178, 1.49861, 1.49633, 1.50243, 1.4951, 1.49307, 1.49009, 1.48848, 1.4872, 1.48259, 1.49233, 1.4807, 1.48787, 1.47887, 1.47512, 1.49466, 1.522, 1.62417, 1.68399, 1.73293, 1.74719, 1.70388, 1.61404, 1.55878, 1.47607, 1.43881, 1.45766, 1.46417, 1.47166, 1.46005, 1.44318, 1.44058, 1.4445, 1.43666, 1.43297, 1.4332, 1.43183, 1.44459, 1.42283, 1.42272, 1.42416, 1.41778, 1.41667, 1.41291, 1.41262, 1.41125, 1.41057, 1.40682, 1.40463, 1.40462, 1.40588, 1.40105, 1.40164, 1.39926, 1.39979, 1.39674, 1.39438, 1.3945, 1.39085, 1.38944, 1.3847, 1.37971, 1.37689, 1.37411, 1.37238, 1.36817, 1.36783, 1.36239, 1.365, 1.36031, 1.36016, 1.36043, 1.36017, 1.35992, 1.35769, 1.35888, 1.35775, 1.35356, 1.35116, 1.35236, 1.35356, 1.35154, 1.35307, 1.35239, 1.36103, 1.35256, 1.35878, 1.35227, 1.35306, 1.39557, 1.36354, 1.37459, 1.37741, 1.40276, 1.40308, 1.40037, 1.41778, 1.4477, 1.4096, 1.34486, 1.32021, 1.34347, 1.33087, 1.32607, 1.32719, 1.32109, 1.31601, 1.32285, 1.32782, 1.30898, 1.3136, 1.31918, 1.30962, 1.31215, 1.30761, 1.30747, 1.31165, 1.30671, 1.31933, 1.28798, 
1.66123, 1.67097, 1.66823, 1.66179, 1.64534, 1.64322, 1.6412, 1.63213, 1.62773, 1.63761, 1.63421, 1.62783, 1.60557, 1.61217, 1.61936, 1.67216, 1.67242, 1.69907, 1.6949, 1.73845, 1.76105, 1.75915, 1.72625, 1.68725, 1.64798, 1.60179, 1.60052, 1.58639, 1.59285, 1.58854, 1.57334, 1.56861, 1.56733, 1.56162, 1.55845, 1.55498, 1.55204, 1.55135, 1.55358, 1.56459, 1.57448, 1.56422, 1.55062, 1.54934, 1.54989, 1.5432, 1.54754, 1.53774, 1.5342, 1.53254, 1.53119, 1.52851, 1.52573, 1.52163, 1.51913, 1.51452, 1.51162, 1.50999, 1.50887, 1.50697, 1.50442, 1.50114, 1.52566, 1.49872, 1.49928, 1.51053, 1.50218, 1.4933, 1.48975, 1.48599, 1.48533, 1.48536, 1.48509, 1.49013, 1.46017, 1.47167, 1.5275, 1.59034, 1.65018, 1.71068, 1.71934, 1.70657, 1.66164, 1.57179, 1.49788, 1.433, 1.46087, 1.4634, 1.46493, 1.45028, 1.45454, 1.44379, 1.44682, 1.44318, 1.43704, 1.44748, 1.4331, 1.42913, 1.42944, 1.42803, 1.42924, 1.42176, 1.42158, 1.42119, 1.42132, 1.41786, 1.41642, 1.41362, 1.41078, 1.40764, 1.40403, 1.4032, 1.40208, 1.40322, 1.40216, 1.40175, 1.40267, 1.4037, 1.40411, 1.40174, 1.40012, 1.39768, 1.39201, 1.38907, 1.3866, 1.38546, 1.38503, 1.381, 1.37792, 1.37263, 1.37251, 1.37131, 1.37154, 1.37056, 1.37003, 1.37011, 1.36801, 1.36623, 1.36433, 1.36301, 1.35923, 1.35715, 1.35358, 1.36158, 1.35151, 1.36063, 1.35902, 1.37168, 1.35215, 1.36113, 1.41917, 1.38262, 1.39116, 1.39268, 1.39543, 1.42385, 1.414, 1.42291, 1.3963, 1.376, 1.33503, 1.33732, 1.33625, 1.33294, 1.33191, 1.32565, 1.32336, 1.32426, 1.31823, 1.31516, 1.31928, 1.31165, 1.30876, 1.30616, 1.30462, 1.30683, 1.31275, 1.30278, 1.30519, 1.32844, 
1.66859, 1.66719, 1.65799, 1.66835, 1.67257, 1.65804, 1.64867, 1.64406, 1.63387, 1.62736, 1.62547, 1.63093, 1.61719, 1.6174, 1.62241, 1.66326, 1.7072, 1.69369, 1.74174, 1.74795, 1.75775, 1.76122, 1.7291, 1.68681, 1.64476, 1.59541, 1.56997, 1.59367, 1.59961, 1.58655, 1.5804, 1.57534, 1.57427, 1.57253, 1.57124, 1.58977, 1.56271, 1.57214, 1.55531, 1.55837, 1.56713, 1.56817, 1.57103, 1.55006, 1.5555, 1.54462, 1.54164, 1.54043, 1.53901, 1.53519, 1.53469, 1.53337, 1.52986, 1.52965, 1.52694, 1.52229, 1.52562, 1.52008, 1.51759, 1.51606, 1.51392, 1.51037, 1.5094, 1.50529, 1.50552, 1.50193, 1.49981, 1.49745, 1.49276, 1.48955, 1.48933, 1.48971, 1.49405, 1.48463, 1.46115, 1.47507, 1.51415, 1.58642, 1.61386, 1.67293, 1.70282, 1.69238, 1.66371, 1.59408, 1.54737, 1.45458, 1.44138, 1.4538, 1.45129, 1.44584, 1.44102, 1.44064, 1.44077, 1.43894, 1.4383, 1.43631, 1.4337, 1.45534, 1.42895, 1.42504, 1.42538, 1.4247, 1.42422, 1.42472, 1.42329, 1.44809, 1.41959, 1.41617, 1.41327, 1.41225, 1.41132, 1.40896, 1.40674, 1.40443, 1.4025, 1.40349, 1.40099, 1.40168, 1.4, 1.39977, 1.39935, 1.39917, 1.39816, 1.39818, 1.39233, 1.38948, 1.38644, 1.38245, 1.38149, 1.38043, 1.37842, 1.37863, 1.37663, 1.37578, 1.37563, 1.37497, 1.37267, 1.37042, 1.37086, 1.37073, 1.37176, 1.36885, 1.36776, 1.36706, 1.36181, 1.36197, 1.3634, 1.37494, 1.34979, 1.3823, 1.37166, 1.43551, 1.46159, 1.45381, 1.43588, 1.43701, 1.46064, 1.46073, 1.46037, 1.41727, 1.3414, 1.33306, 1.34455, 1.34658, 1.34376, 1.32938, 1.32949, 1.32212, 1.31918, 1.31672, 1.3194, 1.31596, 1.31694, 1.31561, 1.31324, 1.31732, 1.30945, 1.30901, 1.32042, 1.31926, 
1.65817, 1.65573, 1.65311, 1.65405, 1.65922, 1.67845, 1.68343, 1.67518, 1.66589, 1.66154, 1.65148, 1.654, 1.64366, 1.63031, 1.62485, 1.66449, 1.70496, 1.76136, 1.74202, 1.79543, 1.77554, 1.78039, 1.77676, 1.74993, 1.69907, 1.6094, 1.59257, 1.604, 1.61321, 1.60752, 1.59948, 1.59385, 1.59309, 1.58166, 1.58226, 1.57792, 1.5783, 1.57558, 1.57902, 1.56973, 1.57475, 1.57532, 1.57537, 1.58801, 1.57691, 1.57141, 1.55199, 1.55065, 1.55108, 1.54107, 1.54024, 1.53686, 1.53329, 1.53186, 1.53016, 1.52998, 1.52641, 1.52526, 1.52222, 1.51968, 1.51546, 1.51485, 1.51393, 1.5192, 1.50883, 1.5368, 1.50566, 1.50344, 1.50866, 1.50028, 1.4997, 1.50878, 1.49846, 1.49671, 1.49001, 1.46845, 1.52998, 1.59342, 1.56307, 1.56359, 1.68566, 1.69539, 1.69563, 1.65143, 1.56766, 1.48312, 1.43177, 1.47227, 1.47437, 1.46503, 1.47333, 1.46027, 1.45719, 1.45412, 1.45334, 1.44717, 1.44653, 1.44374, 1.44061, 1.43766, 1.43537, 1.43033, 1.43234, 1.43197, 1.43187, 1.42982, 1.42927, 1.4282, 1.42629, 1.42382, 1.42124, 1.42146, 1.41932, 1.41693, 1.41632, 1.41532, 1.41248, 1.41213, 1.41141, 1.41091, 1.40917, 1.40301, 1.40204, 1.40218, 1.39865, 1.39462, 1.39311, 1.38988, 1.38732, 1.38747, 1.38757, 1.38411, 1.38209, 1.38015, 1.37891, 1.3752, 1.37773, 1.37433, 1.37466, 1.37348, 1.37222, 1.37121, 1.36865, 1.37037, 1.36816, 1.36827, 1.38476, 1.40467, 1.36134, 1.36427, 1.40054, 1.40971, 1.4447, 1.46545, 1.43497, 1.43909, 1.46423, 1.45225, 1.43772, 1.45471, 1.40601, 1.32438, 1.36063, 1.34665, 1.35811, 1.33984, 1.33475, 1.33312, 1.33113, 1.3276, 1.3272, 1.32708, 1.32617, 1.32297, 1.32749, 1.32279, 1.32083, 1.32235, 1.3302, 1.32707, 
1.67162, 1.66671, 1.66363, 1.67474, 1.65874, 1.66663, 1.6582, 1.68993, 1.67162, 1.65127, 1.65443, 1.65541, 1.653, 1.64736, 1.62314, 1.64506, 1.74343, 1.78309, 1.79817, 1.77263, 1.80459, 1.81919, 1.79331, 1.70831, 1.70384, 1.63277, 1.58906, 1.6143, 1.60616, 1.59971, 1.59706, 1.58965, 1.601, 1.58274, 1.58288, 1.58123, 1.58655, 1.57655, 1.5746, 1.5725, 1.57184, 1.56846, 1.58946, 1.58401, 1.60377, 1.60825, 1.58176, 1.55816, 1.57902, 1.554, 1.5568, 1.54503, 1.54248, 1.55055, 1.53954, 1.53723, 1.53384, 1.5323, 1.52986, 1.52822, 1.52489, 1.52246, 1.52336, 1.51712, 1.54147, 1.51583, 1.51207, 1.50875, 1.50651, 1.50556, 1.52448, 1.50546, 1.52788, 1.51554, 1.51557, 1.47287, 1.53408, 1.57381, 1.63018, 1.57217, 1.69193, 1.69956, 1.70044, 1.62989, 1.60332, 1.51599, 1.45107, 1.46558, 1.48684, 1.49186, 1.47953, 1.48784, 1.47237, 1.46407, 1.46481, 1.45702, 1.45486, 1.45327, 1.45007, 1.44706, 1.44473, 1.44201, 1.44067, 1.43733, 1.43666, 1.43659, 1.43752, 1.43498, 1.4327, 1.42974, 1.42774, 1.42625, 1.42368, 1.42257, 1.42165, 1.42094, 1.42011, 1.41734, 1.41662, 1.41265, 1.41202, 1.40978, 1.40984, 1.40535, 1.40356, 1.40209, 1.39889, 1.39792, 1.39363, 1.39216, 1.3901, 1.38795, 1.38554, 1.3833, 1.38491, 1.37956, 1.37735, 1.37666, 1.37771, 1.37467, 1.37497, 1.38237, 1.37437, 1.39263, 1.38639, 1.37808, 1.37887, 1.37676, 1.3752, 1.37762, 1.41486, 1.42588, 1.44567, 1.45358, 1.48523, 1.47028, 1.46772, 1.46836, 1.44104, 1.40132, 1.40587, 1.34113, 1.34583, 1.35307, 1.34773, 1.34718, 1.34031, 1.33657, 1.33288, 1.35089, 1.33487, 1.32578, 1.34092, 1.32693, 1.32588, 1.3279, 1.32695, 1.3274, 1.33439, 1.33097, 
1.67138, 1.66829, 1.66501, 1.66294, 1.66188, 1.6721, 1.65694, 1.66967, 1.67341, 1.6742, 1.67664, 1.65805, 1.64865, 1.63526, 1.60937, 1.67807, 1.74037, 1.74601, 1.82052, 1.79921, 1.79778, 1.79115, 1.78316, 1.75848, 1.69332, 1.63479, 1.59663, 1.62074, 1.61157, 1.60537, 1.60135, 1.59882, 1.59644, 1.59633, 1.5909, 1.58755, 1.58582, 1.585, 1.58076, 1.58018, 1.57498, 1.57457, 1.57289, 1.57204, 1.56898, 1.5749, 1.57663, 1.57853, 1.56871, 1.55459, 1.55271, 1.55026, 1.54905, 1.54684, 1.54505, 1.56779, 1.54128, 1.53981, 1.53711, 1.53404, 1.53081, 1.52718, 1.5248, 1.52281, 1.52302, 1.52057, 1.51881, 1.51491, 1.513, 1.51014, 1.51094, 1.50918, 1.5105, 1.52687, 1.50774, 1.485, 1.50263, 1.57225, 1.58268, 1.64549, 1.67202, 1.69236, 1.68529, 1.67655, 1.65196, 1.50706, 1.4306, 1.46042, 1.48571, 1.48053, 1.47248, 1.46845, 1.46804, 1.46382, 1.46196, 1.45802, 1.45775, 1.45657, 1.45344, 1.45418, 1.44881, 1.44771, 1.44717, 1.44605, 1.44564, 1.44366, 1.44279, 1.44087, 1.44011, 1.43578, 1.4366, 1.43357, 1.43271, 1.4303, 1.44004, 1.42871, 1.4248, 1.42474, 1.42262, 1.41997, 1.41755, 1.41797, 1.43063, 1.41255, 1.40964, 1.40748, 1.4051, 1.40292, 1.40217, 1.40106, 1.39705, 1.39648, 1.39423, 1.39384, 1.39945, 1.39166, 1.38796, 1.38633, 1.38269, 1.38354, 1.38179, 1.38196, 1.38089, 1.38103, 1.38085, 1.38471, 1.39565, 1.40101, 1.38706, 1.36138, 1.43075, 1.45559, 1.45271, 1.49295, 1.47748, 1.48122, 1.50586, 1.49227, 1.48981, 1.44675, 1.44684, 1.40276, 1.33655, 1.35036, 1.35641, 1.34354, 1.35213, 1.34072, 1.34189, 1.34111, 1.34196, 1.34012, 1.34, 1.33776, 1.33928, 1.33605, 1.33422, 1.33175, 1.33126, 1.32651, 
1.67093, 1.66913, 1.66663, 1.663, 1.65839, 1.65571, 1.65452, 1.6513, 1.6507, 1.65456, 1.67138, 1.66823, 1.66503, 1.63262, 1.61682, 1.64118, 1.71745, 1.70582, 1.76674, 1.8274, 1.83158, 1.83458, 1.83644, 1.80909, 1.72809, 1.63335, 1.59178, 1.61285, 1.61453, 1.59953, 1.59605, 1.59155, 1.59674, 1.58749, 1.5862, 1.58481, 1.58567, 1.57849, 1.57746, 1.57365, 1.57185, 1.57476, 1.56787, 1.56606, 1.56176, 1.55878, 1.55567, 1.57677, 1.57991, 1.5643, 1.5648, 1.5583, 1.53956, 1.54046, 1.54134, 1.54066, 1.54085, 1.53805, 1.53515, 1.52916, 1.52568, 1.5211, 1.52339, 1.51372, 1.50859, 1.50249, 1.52721, 1.49816, 1.50015, 1.49942, 1.49945, 1.49951, 1.5147, 1.50414, 1.51668, 1.48649, 1.48797, 1.5473, 1.59243, 1.65937, 1.67572, 1.63123, 1.61692, 1.6385, 1.61481, 1.58874, 1.47142, 1.4588, 1.46379, 1.48862, 1.47444, 1.47487, 1.4602, 1.47157, 1.46457, 1.45126, 1.44905, 1.44743, 1.44684, 1.44459, 1.44308, 1.44218, 1.44152, 1.43911, 1.43611, 1.43322, 1.43362, 1.43171, 1.42801, 1.42827, 1.42859, 1.43026, 1.43014, 1.42759, 1.42454, 1.4224, 1.42025, 1.41874, 1.41733, 1.41699, 1.4151, 1.41287, 1.4129, 1.41245, 1.40886, 1.40579, 1.40577, 1.40172, 1.40016, 1.39887, 1.39654, 1.39355, 1.39063, 1.38898, 1.3859, 1.38458, 1.3854, 1.38651, 1.38247, 1.3813, 1.38213, 1.38125, 1.3826, 1.38095, 1.38219, 1.38045, 1.37594, 1.37716, 1.37084, 1.3668, 1.40579, 1.45056, 1.47237, 1.4817, 1.48841, 1.49239, 1.50634, 1.50386, 1.48109, 1.46832, 1.43743, 1.37752, 1.32557, 1.36455, 1.3555, 1.35063, 1.35133, 1.3458, 1.34342, 1.3467, 1.33911, 1.33721, 1.33601, 1.33108, 1.33293, 1.32906, 1.3304, 1.32943, 1.32831, 1.32566, 
1.67435, 1.66855, 1.66628, 1.66635, 1.66655, 1.68011, 1.66782, 1.66998, 1.66957, 1.6659, 1.67237, 1.66964, 1.67099, 1.65847, 1.62799, 1.67838, 1.6937, 1.74705, 1.72323, 1.79262, 1.83324, 1.85839, 1.86159, 1.82077, 1.76787, 1.67523, 1.58815, 1.63601, 1.62095, 1.61646, 1.60562, 1.60241, 1.61621, 1.5965, 1.60799, 1.57925, 1.5738, 1.58184, 1.57998, 1.58281, 1.58225, 1.57773, 1.57076, 1.59615, 1.57106, 1.56624, 1.56795, 1.56777, 1.57197, 1.58271, 1.57346, 1.58206, 1.5749, 1.57012, 1.56513, 1.54382, 1.53994, 1.5398, 1.53992, 1.53864, 1.53868, 1.53688, 1.53307, 1.53796, 1.52059, 1.52094, 1.53004, 1.52155, 1.52422, 1.52465, 1.5207, 1.52672, 1.5202, 1.52016, 1.51434, 1.47971, 1.49283, 1.53869, 1.56884, 1.60598, 1.65766, 1.66914, 1.67107, 1.66755, 1.61538, 1.5456, 1.51614, 1.45483, 1.46866, 1.48695, 1.4732, 1.48851, 1.48613, 1.47806, 1.48052, 1.47813, 1.47054, 1.46466, 1.46675, 1.46434, 1.46125, 1.46109, 1.45655, 1.4542, 1.44856, 1.43515, 1.43093, 1.44319, 1.43462, 1.43884, 1.44177, 1.44382, 1.43751, 1.43281, 1.4249, 1.42425, 1.41852, 1.42645, 1.41957, 1.41975, 1.42196, 1.41949, 1.41586, 1.41531, 1.41214, 1.41111, 1.40981, 1.40395, 1.40026, 1.39609, 1.39667, 1.39632, 1.39677, 1.3955, 1.39215, 1.39223, 1.39238, 1.38791, 1.40961, 1.37909, 1.37792, 1.37877, 1.39226, 1.38506, 1.39934, 1.38104, 1.39343, 1.40259, 1.38141, 1.36009, 1.3824, 1.43075, 1.469, 1.52467, 1.52068, 1.5241, 1.4711, 1.48584, 1.50099, 1.46292, 1.43106, 1.41867, 1.33039, 1.3651, 1.35746, 1.35049, 1.34755, 1.34836, 1.36458, 1.34924, 1.34672, 1.34533, 1.35087, 1.35158, 1.33022, 1.32588, 1.32443, 1.32368, 1.32467, 1.32791, 
1.68017, 1.68503, 1.6814, 1.67247, 1.67258, 1.66916, 1.66786, 1.66096, 1.66496, 1.65594, 1.66439, 1.65882, 1.65855, 1.64911, 1.63452, 1.63252, 1.66994, 1.72711, 1.75082, 1.79641, 1.84536, 1.85476, 1.87214, 1.86477, 1.75916, 1.63044, 1.6337, 1.6266, 1.62853, 1.61709, 1.61597, 1.61655, 1.60641, 1.61208, 1.60174, 1.59302, 1.60397, 1.58874, 1.58672, 1.58649, 1.58435, 1.5836, 1.58211, 1.57958, 1.57593, 1.57256, 1.56864, 1.56821, 1.56848, 1.56431, 1.57832, 1.56577, 1.57523, 1.57169, 1.584, 1.56249, 1.55713, 1.56429, 1.5421, 1.5544, 1.5441, 1.53522, 1.53273, 1.53097, 1.52986, 1.52736, 1.525, 1.53423, 1.54126, 1.5259, 1.51715, 1.52324, 1.52146, 1.53144, 1.51655, 1.53262, 1.52266, 1.5617, 1.57665, 1.62548, 1.65413, 1.65249, 1.64458, 1.6405, 1.62393, 1.57051, 1.54257, 1.46773, 1.46385, 1.48879, 1.48804, 1.4852, 1.48835, 1.50298, 1.49516, 1.48015, 1.47525, 1.46422, 1.47436, 1.46692, 1.46635, 1.46854, 1.4489, 1.44755, 1.44706, 1.4461, 1.44249, 1.44463, 1.44205, 1.44069, 1.44029, 1.43749, 1.43648, 1.44341, 1.42988, 1.42983, 1.46105, 1.42955, 1.42679, 1.4285, 1.43136, 1.42381, 1.42234, 1.42082, 1.41658, 1.41581, 1.41224, 1.40905, 1.40702, 1.4046, 1.40391, 1.40017, 1.39909, 1.40484, 1.39673, 1.39615, 1.39626, 1.39529, 1.39996, 1.39609, 1.3888, 1.40248, 1.39194, 1.39858, 1.41034, 1.3934, 1.38549, 1.38964, 1.38657, 1.39294, 1.38134, 1.40319, 1.44798, 1.46823, 1.50161, 1.51051, 1.52211, 1.52421, 1.52144, 1.5015, 1.45177, 1.39869, 1.35484, 1.36397, 1.37075, 1.36143, 1.37617, 1.37127, 1.35674, 1.34322, 1.36714, 1.33759, 1.35156, 1.35483, 1.35789, 1.34695, 1.33652, 1.33659, 1.33441, 1.33964, 
1.6798, 1.68227, 1.70192, 1.67627, 1.67351, 1.66197, 1.65961, 1.66665, 1.65507, 1.65379, 1.65333, 1.64962, 1.6515, 1.64731, 1.64422, 1.62794, 1.64881, 1.67066, 1.6964, 1.77679, 1.80906, 1.86773, 1.87639, 1.87174, 1.82092, 1.69637, 1.59332, 1.59623, 1.61249, 1.61657, 1.61549, 1.61474, 1.60238, 1.60635, 1.59288, 1.6005, 1.59898, 1.59245, 1.60689, 1.57926, 1.57674, 1.57266, 1.5727, 1.59234, 1.56555, 1.56321, 1.57349, 1.55968, 1.55427, 1.55301, 1.56526, 1.55103, 1.5482, 1.55147, 1.56149, 1.56016, 1.54636, 1.54357, 1.54393, 1.54693, 1.53341, 1.54043, 1.53004, 1.52505, 1.55453, 1.52364, 1.52122, 1.51294, 1.51015, 1.51294, 1.51645, 1.51143, 1.51751, 1.51504, 1.51008, 1.51529, 1.4953, 1.51466, 1.58524, 1.60604, 1.61276, 1.64786, 1.64921, 1.62068, 1.58952, 1.57689, 1.52513, 1.51005, 1.44431, 1.47703, 1.486, 1.47511, 1.48121, 1.47847, 1.47944, 1.47802, 1.46087, 1.46366, 1.46144, 1.44724, 1.45291, 1.44692, 1.44606, 1.46422, 1.44376, 1.44434, 1.442, 1.43749, 1.43648, 1.43427, 1.43433, 1.43091, 1.43188, 1.42895, 1.4268, 1.4264, 1.42481, 1.42374, 1.42017, 1.41951, 1.41836, 1.41642, 1.41324, 1.40896, 1.40587, 1.40508, 1.40487, 1.40068, 1.39765, 1.43666, 1.39614, 1.39376, 1.39076, 1.3898, 1.3924, 1.38967, 1.38754, 1.38727, 1.38503, 1.39708, 1.38125, 1.40155, 1.38003, 1.38438, 1.37682, 1.37472, 1.38371, 1.3812, 1.37705, 1.36887, 1.34365, 1.39222, 1.42515, 1.4515, 1.48871, 1.51242, 1.5216, 1.55253, 1.55886, 1.53858, 1.50132, 1.39524, 1.33894, 1.36142, 1.36836, 1.35483, 1.37161, 1.35062, 1.3627, 1.34263, 1.35188, 1.35473, 1.33498, 1.33749, 1.33268, 1.35756, 1.3541, 1.33326, 1.32834, 1.32657, 
1.65927, 1.65722, 1.65622, 1.65395, 1.6727, 1.66196, 1.64619, 1.65126, 1.63876, 1.63688, 1.63377, 1.62495, 1.62744, 1.64103, 1.6305, 1.60975, 1.60427, 1.70202, 1.73378, 1.74837, 1.81836, 1.88377, 1.89385, 1.88371, 1.84518, 1.7467, 1.6504, 1.59643, 1.59552, 1.59493, 1.59026, 1.58844, 1.58448, 1.58154, 1.58576, 1.57397, 1.57302, 1.57059, 1.56789, 1.56446, 1.56326, 1.56189, 1.56041, 1.55991, 1.55727, 1.55389, 1.55114, 1.54868, 1.54412, 1.54105, 1.5386, 1.53421, 1.53162, 1.52936, 1.53388, 1.54758, 1.54191, 1.54387, 1.53786, 1.52384, 1.51935, 1.51686, 1.51688, 1.51324, 1.51254, 1.51085, 1.50884, 1.50866, 1.50593, 1.50307, 1.50162, 1.49878, 1.49848, 1.49957, 1.5022, 1.49315, 1.46836, 1.49571, 1.51062, 1.55429, 1.60247, 1.61001, 1.62704, 1.61944, 1.60669, 1.59044, 1.55224, 1.51532, 1.4505, 1.46074, 1.48552, 1.47471, 1.4603, 1.45554, 1.45534, 1.47441, 1.47865, 1.4634, 1.455, 1.44339, 1.43875, 1.44054, 1.43366, 1.43601, 1.42666, 1.42571, 1.42385, 1.42218, 1.41979, 1.41734, 1.41383, 1.41258, 1.41218, 1.40959, 1.40814, 1.40624, 1.40456, 1.40403, 1.40137, 1.40142, 1.39929, 1.39753, 1.3968, 1.39509, 1.39466, 1.39414, 1.39571, 1.38934, 1.38964, 1.38679, 1.38513, 1.38138, 1.37868, 1.37431, 1.37161, 1.37084, 1.36934, 1.36745, 1.36614, 1.36777, 1.36533, 1.36241, 1.36131, 1.36124, 1.37538, 1.35789, 1.36284, 1.37398, 1.3645, 1.34584, 1.33283, 1.43805, 1.43193, 1.47103, 1.48816, 1.49539, 1.53288, 1.53388, 1.52926, 1.50609, 1.44671, 1.38124, 1.3348, 1.32627, 1.33817, 1.3336, 1.34852, 1.33358, 1.32752, 1.32271, 1.32025, 1.31849, 1.31775, 1.31585, 1.3154, 1.31747, 1.31524, 1.31561, 1.31531, 1.31249, 
1.66113, 1.65805, 1.65936, 1.66193, 1.65405, 1.65081, 1.64358, 1.64634, 1.64024, 1.64434, 1.63468, 1.63442, 1.6348, 1.63148, 1.63202, 1.62793, 1.60152, 1.66896, 1.69537, 1.80075, 1.8208, 1.86006, 1.9023, 1.91292, 1.8463, 1.74802, 1.60679, 1.56118, 1.60181, 1.6055, 1.59632, 1.58909, 1.58394, 1.58138, 1.57934, 1.57816, 1.57915, 1.56974, 1.56664, 1.56284, 1.55483, 1.55869, 1.55636, 1.55471, 1.55757, 1.55473, 1.55199, 1.54796, 1.54583, 1.54457, 1.54184, 1.53947, 1.53649, 1.5345, 1.53138, 1.52935, 1.5272, 1.52729, 1.53604, 1.53529, 1.53048, 1.51617, 1.51563, 1.52053, 1.50886, 1.50639, 1.51408, 1.50203, 1.50215, 1.50067, 1.49701, 1.49335, 1.49244, 1.50035, 1.49583, 1.49451, 1.46876, 1.4988, 1.52435, 1.54877, 1.55562, 1.58203, 1.59919, 1.57905, 1.58924, 1.58529, 1.55091, 1.50451, 1.44811, 1.44029, 1.45758, 1.46391, 1.45556, 1.45119, 1.45916, 1.44553, 1.45389, 1.48209, 1.45698, 1.45192, 1.43696, 1.43418, 1.43163, 1.43602, 1.42781, 1.42582, 1.42586, 1.42515, 1.42299, 1.42011, 1.41878, 1.41702, 1.41468, 1.41343, 1.41166, 1.40966, 1.40788, 1.4064, 1.40555, 1.40429, 1.40389, 1.40142, 1.39916, 1.39657, 1.39503, 1.39327, 1.39138, 1.39024, 1.38647, 1.38481, 1.38311, 1.38191, 1.38094, 1.37594, 1.37471, 1.37432, 1.3718, 1.37057, 1.36975, 1.36972, 1.36849, 1.36802, 1.37535, 1.37044, 1.36412, 1.36438, 1.36384, 1.36442, 1.37802, 1.37129, 1.35163, 1.36525, 1.42245, 1.45086, 1.4787, 1.507, 1.54034, 1.54943, 1.53689, 1.50345, 1.48704, 1.42137, 1.36689, 1.33747, 1.34322, 1.3498, 1.33304, 1.33714, 1.32807, 1.32688, 1.32697, 1.32577, 1.32462, 1.32179, 1.32088, 1.31915, 1.31889, 1.31601, 1.34342, 1.31313, 
1.66248, 1.66063, 1.65948, 1.65534, 1.6542, 1.65274, 1.64744, 1.64689, 1.64088, 1.64069, 1.63816, 1.64471, 1.63363, 1.63105, 1.63917, 1.63407, 1.59737, 1.64137, 1.67458, 1.69803, 1.76729, 1.83192, 1.89399, 1.91998, 1.89706, 1.6958, 1.58808, 1.57502, 1.59559, 1.5985, 1.59096, 1.58651, 1.58388, 1.57925, 1.57632, 1.57424, 1.57198, 1.57529, 1.57482, 1.58471, 1.56654, 1.56085, 1.5586, 1.55868, 1.56106, 1.55392, 1.55173, 1.55011, 1.54786, 1.54459, 1.54255, 1.54035, 1.53708, 1.53427, 1.53189, 1.53025, 1.52754, 1.5248, 1.53282, 1.52756, 1.52872, 1.5408, 1.53676, 1.52365, 1.51604, 1.50904, 1.50711, 1.50462, 1.50329, 1.50162, 1.49992, 1.49934, 1.50862, 1.50158, 1.49661, 1.49265, 1.48138, 1.46275, 1.51563, 1.524, 1.57477, 1.58565, 1.57218, 1.5953, 1.59067, 1.58373, 1.56196, 1.52003, 1.46765, 1.4628, 1.4716, 1.46351, 1.46023, 1.45193, 1.4481, 1.4467, 1.44498, 1.44454, 1.45108, 1.45774, 1.4554, 1.46145, 1.44513, 1.4317, 1.42794, 1.42574, 1.42452, 1.4228, 1.42069, 1.41913, 1.4184, 1.41876, 1.41694, 1.41454, 1.41217, 1.41196, 1.41105, 1.40854, 1.4062, 1.40533, 1.40417, 1.40072, 1.39865, 1.39649, 1.3961, 1.39262, 1.39039, 1.38861, 1.38551, 1.38436, 1.38233, 1.38063, 1.37836, 1.37793, 1.37712, 1.37586, 1.37354, 1.37155, 1.37163, 1.37054, 1.36829, 1.36755, 1.36704, 1.36349, 1.36412, 1.35899, 1.3569, 1.35702, 1.35954, 1.36814, 1.36443, 1.34068, 1.38173, 1.43334, 1.45808, 1.50303, 1.56134, 1.57597, 1.49151, 1.52578, 1.50489, 1.39961, 1.33429, 1.32667, 1.34608, 1.35722, 1.34381, 1.33973, 1.33791, 1.33532, 1.33256, 1.33118, 1.33086, 1.32811, 1.32654, 1.3257, 1.32297, 1.3231, 1.32038, 1.31675, 
1.66264, 1.65917, 1.65714, 1.65776, 1.65053, 1.64845, 1.64602, 1.64347, 1.63806, 1.63778, 1.65032, 1.63635, 1.6448, 1.63312, 1.6372, 1.63082, 1.60845, 1.61692, 1.71083, 1.75345, 1.76673, 1.80089, 1.95227, 2.02755, 1.97388, 1.72989, 1.69232, 1.57593, 1.61061, 1.60639, 1.60021, 1.58928, 1.58539, 1.58465, 1.5802, 1.57608, 1.57317, 1.57128, 1.56802, 1.56467, 1.56257, 1.56003, 1.55957, 1.55851, 1.55587, 1.55456, 1.5501, 1.55053, 1.54792, 1.54648, 1.54393, 1.54152, 1.53691, 1.53429, 1.54349, 1.52846, 1.52737, 1.52482, 1.52411, 1.5213, 1.52034, 1.51731, 1.53226, 1.56046, 1.52856, 1.52072, 1.51305, 1.51085, 1.50888, 1.50624, 1.50182, 1.4988, 1.49697, 1.49632, 1.50537, 1.49629, 1.46937, 1.47496, 1.53614, 1.53368, 1.56864, 1.5692, 1.57163, 1.5723, 1.57639, 1.55814, 1.51623, 1.5051, 1.49915, 1.4595, 1.4673, 1.46513, 1.47501, 1.46082, 1.45281, 1.46455, 1.44774, 1.45491, 1.44371, 1.45176, 1.45095, 1.45793, 1.45463, 1.44404, 1.42821, 1.42681, 1.42452, 1.44195, 1.4214, 1.42118, 1.42181, 1.42015, 1.41911, 1.41709, 1.41587, 1.42053, 1.41252, 1.4103, 1.40878, 1.4079, 1.40547, 1.40353, 1.40179, 1.40141, 1.39872, 1.39716, 1.39319, 1.39205, 1.39075, 1.38808, 1.38785, 1.38167, 1.37587, 1.37288, 1.37093, 1.36992, 1.36871, 1.36831, 1.36521, 1.36727, 1.36553, 1.37234, 1.36538, 1.3669, 1.36608, 1.36605, 1.38015, 1.36414, 1.3655, 1.36733, 1.37577, 1.37826, 1.38898, 1.41667, 1.46684, 1.50329, 1.54711, 1.57336, 1.59548, 1.56393, 1.50079, 1.40938, 1.36735, 1.34191, 1.34777, 1.34371, 1.3519, 1.33002, 1.3313, 1.32711, 1.32704, 1.3271, 1.32674, 1.32698, 1.32613, 1.32489, 1.3233, 1.31901, 1.31913, 1.31525, 
1.6611, 1.65937, 1.65545, 1.65302, 1.64847, 1.64554, 1.6426, 1.6401, 1.63478, 1.63924, 1.63345, 1.63335, 1.63397, 1.63699, 1.6301, 1.62995, 1.62735, 1.60679, 1.62175, 1.7056, 1.74975, 1.81247, 1.87607, 1.83198, 2.12296, 1.83857, 1.59528, 1.5548, 1.59522, 1.60579, 1.60236, 1.58911, 1.5838, 1.58219, 1.57858, 1.5753, 1.57179, 1.56942, 1.56783, 1.57479, 1.56176, 1.55827, 1.55828, 1.55702, 1.55496, 1.55284, 1.55169, 1.54839, 1.54586, 1.54339, 1.54073, 1.53801, 1.53609, 1.53257, 1.52893, 1.52636, 1.5247, 1.52116, 1.51816, 1.51555, 1.5149, 1.51307, 1.51219, 1.52365, 1.52008, 1.53654, 1.53791, 1.51591, 1.50664, 1.50565, 1.50257, 1.50058, 1.49659, 1.49468, 1.50529, 1.4935, 1.4903, 1.48415, 1.48714, 1.54628, 1.57857, 1.65165, 1.59286, 1.59848, 1.55883, 1.55594, 1.53751, 1.51004, 1.49304, 1.44948, 1.4622, 1.46213, 1.46099, 1.46246, 1.45097, 1.44671, 1.44564, 1.44361, 1.44154, 1.45367, 1.44844, 1.43645, 1.41893, 1.45384, 1.4502, 1.4226, 1.44036, 1.41876, 1.41883, 1.42295, 1.41674, 1.41489, 1.41276, 1.41232, 1.40984, 1.40839, 1.40582, 1.4054, 1.40354, 1.40214, 1.40064, 1.39961, 1.39936, 1.39926, 1.43099, 1.39561, 1.39495, 1.39228, 1.39158, 1.3907, 1.38821, 1.38794, 1.38431, 1.3817, 1.38107, 1.38089, 1.37794, 1.37648, 1.37582, 1.37455, 1.38356, 1.37057, 1.3714, 1.36549, 1.36438, 1.36356, 1.36286, 1.36174, 1.36345, 1.36467, 1.36566, 1.34368, 1.40158, 1.42323, 1.48647, 1.517, 1.57316, 1.58564, 1.59781, 1.57062, 1.47578, 1.3954, 1.3341, 1.31308, 1.34341, 1.34514, 1.355, 1.33739, 1.33108, 1.32966, 1.32919, 1.32812, 1.32495, 1.32416, 1.32636, 1.32189, 1.318, 1.31714, 1.31559, 1.31492, 
1.65772, 1.65447, 1.65095, 1.64726, 1.64579, 1.6453, 1.6443, 1.64215, 1.63698, 1.63412, 1.63367, 1.63394, 1.63098, 1.63066, 1.62767, 1.63089, 1.62763, 1.60824, 1.63327, 1.73417, 1.74505, 1.76928, 1.90706, 1.9563, 1.95772, 1.91756, 1.6093, 1.55794, 1.59363, 1.59225, 1.58984, 1.58576, 1.58035, 1.57892, 1.58978, 1.5715, 1.57134, 1.56852, 1.57914, 1.56484, 1.56189, 1.56088, 1.5583, 1.55539, 1.55328, 1.54873, 1.54722, 1.54603, 1.54028, 1.53916, 1.53539, 1.53269, 1.53181, 1.53082, 1.5284, 1.5262, 1.52317, 1.5212, 1.52035, 1.51928, 1.51636, 1.51467, 1.51367, 1.51085, 1.51724, 1.50807, 1.51823, 1.55102, 1.5425, 1.51443, 1.50409, 1.50673, 1.5068, 1.50015, 1.49602, 1.49628, 1.48835, 1.46598, 1.52722, 1.52828, 1.56053, 1.57187, 1.55412, 1.5436, 1.55167, 1.54822, 1.54239, 1.54054, 1.4833, 1.45805, 1.46428, 1.4592, 1.4618, 1.47054, 1.46491, 1.45269, 1.4444, 1.44067, 1.45404, 1.46889, 1.51391, 1.48239, 1.4609, 1.45551, 1.43391, 1.42905, 1.42203, 1.42081, 1.42072, 1.41959, 1.41619, 1.41385, 1.41255, 1.41181, 1.4086, 1.40832, 1.40583, 1.40376, 1.4029, 1.40085, 1.39878, 1.39852, 1.39751, 1.39516, 1.3919, 1.39105, 1.38808, 1.38763, 1.3841, 1.38328, 1.38134, 1.38039, 1.37954, 1.37787, 1.37705, 1.37572, 1.37434, 1.37475, 1.37425, 1.37235, 1.37094, 1.37088, 1.36867, 1.36746, 1.36437, 1.36149, 1.37195, 1.35876, 1.36643, 1.37394, 1.36042, 1.36938, 1.33972, 1.37476, 1.44874, 1.49456, 1.55055, 1.5829, 1.61084, 1.58884, 1.49716, 1.41888, 1.35074, 1.32824, 1.34365, 1.34001, 1.3533, 1.34279, 1.33267, 1.33194, 1.3332, 1.3301, 1.32698, 1.32512, 1.32312, 1.32116, 1.3192, 1.3197, 1.31826, 1.31667, 
1.65949, 1.66145, 1.65561, 1.65456, 1.65184, 1.64964, 1.6482, 1.64586, 1.6418, 1.64484, 1.63623, 1.63229, 1.62896, 1.63376, 1.62395, 1.6234, 1.62599, 1.63245, 1.60423, 1.65844, 1.70559, 1.75995, 1.82219, 1.88648, 1.8638, 1.82128, 1.66086, 1.57823, 1.61258, 1.60284, 1.6039, 1.58998, 1.5911, 1.5923, 1.58278, 1.58835, 1.57792, 1.57327, 1.56981, 1.56732, 1.57105, 1.55833, 1.55646, 1.55444, 1.55055, 1.54861, 1.54592, 1.54341, 1.53989, 1.53768, 1.53685, 1.5318, 1.52799, 1.52726, 1.52339, 1.52342, 1.52181, 1.5215, 1.51905, 1.51696, 1.51612, 1.51322, 1.51304, 1.51075, 1.5112, 1.50948, 1.51415, 1.51071, 1.53444, 1.52345, 1.52513, 1.53101, 1.52609, 1.50256, 1.48547, 1.50159, 1.49701, 1.47646, 1.47866, 1.52131, 1.54429, 1.55845, 1.55384, 1.5345, 1.52435, 1.53312, 1.54573, 1.58877, 1.51616, 1.4952, 1.47419, 1.4675, 1.46475, 1.46227, 1.47203, 1.45694, 1.44484, 1.45331, 1.44768, 1.4542, 1.45919, 1.4411, 1.43643, 1.44152, 1.43124, 1.42867, 1.42613, 1.42464, 1.42237, 1.4223, 1.41962, 1.41904, 1.41491, 1.41289, 1.41213, 1.41026, 1.40856, 1.40526, 1.40417, 1.40125, 1.39835, 1.39833, 1.39782, 1.39759, 1.39214, 1.39193, 1.39187, 1.39149, 1.38885, 1.38836, 1.3869, 1.38504, 1.38228, 1.3809, 1.3802, 1.38137, 1.37539, 1.37474, 1.37155, 1.37046, 1.36861, 1.36625, 1.36492, 1.36509, 1.36807, 1.36036, 1.37075, 1.35659, 1.3572, 1.35587, 1.36374, 1.36118, 1.33628, 1.39887, 1.44686, 1.48584, 1.5545, 1.61994, 1.62888, 1.64889, 1.52301, 1.43746, 1.34758, 1.30549, 1.34654, 1.34006, 1.35974, 1.33024, 1.33091, 1.32819, 1.32741, 1.32548, 1.32361, 1.32236, 1.32369, 1.32147, 1.31932, 1.31751, 1.31638, 1.31562, 
1.65462, 1.6539, 1.65352, 1.65425, 1.65184, 1.65016, 1.64779, 1.64491, 1.64141, 1.64452, 1.63466, 1.63133, 1.62875, 1.62767, 1.62589, 1.62427, 1.63065, 1.62724, 1.59896, 1.60646, 1.71941, 1.75124, 1.86932, 1.92451, 1.9631, 1.79256, 1.69226, 1.57172, 1.59252, 1.58394, 1.60672, 1.59693, 1.60538, 1.5993, 1.60188, 1.59701, 1.5872, 1.59281, 1.572, 1.56494, 1.56029, 1.55803, 1.55515, 1.55208, 1.5505, 1.54787, 1.54524, 1.54166, 1.53969, 1.5375, 1.53501, 1.53311, 1.53177, 1.53093, 1.52641, 1.52264, 1.51961, 1.51669, 1.51575, 1.51699, 1.5124, 1.51199, 1.50925, 1.50588, 1.50444, 1.50216, 1.5011, 1.499, 1.49723, 1.4961, 1.4947, 1.49344, 1.49286, 1.49877, 1.49548, 1.49305, 1.5024, 1.48339, 1.4949, 1.53085, 1.57265, 1.5588, 1.5335, 1.52439, 1.57373, 1.50981, 1.51588, 1.52619, 1.51322, 1.47574, 1.46611, 1.46621, 1.47304, 1.46119, 1.47278, 1.45803, 1.44957, 1.44639, 1.44459, 1.44225, 1.43951, 1.4368, 1.43326, 1.43067, 1.42721, 1.42641, 1.42505, 1.42409, 1.42076, 1.41905, 1.41736, 1.41514, 1.41389, 1.41295, 1.41183, 1.41026, 1.40886, 1.4081, 1.40626, 1.40539, 1.40198, 1.40048, 1.39667, 1.39572, 1.39255, 1.39142, 1.38921, 1.3885, 1.38631, 1.3846, 1.38513, 1.38129, 1.37972, 1.37824, 1.3779, 1.37659, 1.37462, 1.37173, 1.37092, 1.36932, 1.37003, 1.36737, 1.36432, 1.3627, 1.37126, 1.36009, 1.36068, 1.3584, 1.3589, 1.35831, 1.36148, 1.37227, 1.33967, 1.37762, 1.44034, 1.51382, 1.53223, 1.54406, 1.65676, 1.66803, 1.65106, 1.50073, 1.37065, 1.3147, 1.35101, 1.34967, 1.3455, 1.33058, 1.33039, 1.32692, 1.32592, 1.33325, 1.32565, 1.32499, 1.3232, 1.32366, 1.3213, 1.32335, 1.31961, 1.31775, 
1.65092, 1.64908, 1.64816, 1.64562, 1.64494, 1.64076, 1.63817, 1.63701, 1.63368, 1.6299, 1.62736, 1.6311, 1.62623, 1.61977, 1.61992, 1.61935, 1.61852, 1.61948, 1.61894, 1.62047, 1.6639, 1.74112, 1.7971, 1.84919, 2.0221, 1.92843, 1.81799, 1.55881, 1.54962, 1.59027, 1.7037, 1.79008, 1.79623, 1.70674, 1.6834, 1.63704, 1.60072, 1.60578, 1.58886, 1.58513, 1.57544, 1.55936, 1.56535, 1.55904, 1.56156, 1.54518, 1.54137, 1.53971, 1.53706, 1.54032, 1.53296, 1.5324, 1.53108, 1.52818, 1.52569, 1.52292, 1.52098, 1.51866, 1.51584, 1.51338, 1.51572, 1.50864, 1.50628, 1.5046, 1.50192, 1.50066, 1.49937, 1.49698, 1.49489, 1.49226, 1.4897, 1.48821, 1.48546, 1.48573, 1.49497, 1.49214, 1.49318, 1.49215, 1.49324, 1.51663, 1.57905, 1.53685, 1.55181, 1.49958, 1.48759, 1.48787, 1.51697, 1.51595, 1.51396, 1.48858, 1.47894, 1.47086, 1.47089, 1.46023, 1.45438, 1.44457, 1.44039, 1.43659, 1.43293, 1.43661, 1.42857, 1.42769, 1.42578, 1.4232, 1.42327, 1.42215, 1.42227, 1.42297, 1.42212, 1.42047, 1.41879, 1.41808, 1.41501, 1.41281, 1.40833, 1.40601, 1.40235, 1.40208, 1.39913, 1.39744, 1.39553, 1.39467, 1.39195, 1.39195, 1.38944, 1.38788, 1.38568, 1.3836, 1.38219, 1.37979, 1.38052, 1.37866, 1.37788, 1.37729, 1.37462, 1.37233, 1.37063, 1.3684, 1.36921, 1.36858, 1.36756, 1.36629, 1.36309, 1.36362, 1.36121, 1.35949, 1.36069, 1.36028, 1.36047, 1.3571, 1.36619, 1.35794, 1.36112, 1.36327, 1.39277, 1.45042, 1.51323, 1.56403, 1.6539, 1.65539, 1.61371, 1.47822, 1.40598, 1.33019, 1.3613, 1.34083, 1.34841, 1.34637, 1.33953, 1.34081, 1.32901, 1.32277, 1.34361, 1.32103, 1.31969, 1.31903, 1.31825, 1.31573, 1.31304, 1.31397, 
1.64084, 1.63899, 1.63748, 1.63558, 1.63309, 1.63275, 1.63101, 1.6297, 1.62566, 1.62334, 1.62249, 1.6266, 1.61511, 1.61309, 1.61045, 1.60934, 1.60837, 1.61101, 1.602, 1.60035, 1.68325, 1.72703, 1.80029, 1.86026, 1.97058, 1.90196, 1.72235, 1.56189, 1.54095, 1.57659, 1.57768, 1.57526, 1.5841, 1.5827, 1.57551, 1.58077, 1.56585, 1.56351, 1.55937, 1.55221, 1.55152, 1.54666, 1.54364, 1.5406, 1.5389, 1.53645, 1.53349, 1.53111, 1.52785, 1.52584, 1.52348, 1.52155, 1.52053, 1.51735, 1.51528, 1.51403, 1.51268, 1.51102, 1.50932, 1.50633, 1.50514, 1.4995, 1.49687, 1.49004, 1.49589, 1.48764, 1.48481, 1.48402, 1.48334, 1.48105, 1.4804, 1.47952, 1.478, 1.47668, 1.47784, 1.481, 1.49542, 1.48858, 1.50229, 1.50193, 1.54264, 1.52867, 1.52363, 1.49621, 1.48155, 1.51366, 1.48696, 1.50063, 1.50595, 1.49509, 1.46877, 1.45314, 1.45777, 1.47023, 1.45058, 1.44226, 1.43891, 1.43547, 1.43278, 1.43014, 1.43247, 1.42414, 1.42205, 1.42031, 1.4197, 1.41626, 1.41428, 1.41266, 1.41167, 1.4082, 1.40623, 1.40254, 1.40268, 1.39927, 1.39556, 1.39404, 1.39288, 1.39155, 1.39258, 1.38831, 1.38572, 1.38746, 1.38734, 1.38764, 1.38637, 1.38646, 1.38533, 1.38446, 1.38091, 1.37866, 1.37317, 1.37048, 1.36713, 1.36717, 1.36337, 1.36363, 1.36221, 1.3618, 1.36091, 1.3601, 1.35801, 1.35634, 1.35545, 1.35645, 1.35411, 1.35522, 1.35076, 1.34639, 1.34761, 1.34573, 1.34563, 1.34843, 1.36443, 1.33726, 1.37878, 1.39231, 1.52792, 1.58699, 1.59059, 1.68534, 1.67626, 1.4994, 1.40177, 1.32393, 1.33012, 1.33069, 1.32585, 1.32569, 1.32114, 1.31892, 1.31832, 1.31832, 1.31846, 1.31664, 1.31556, 1.30917, 1.31222, 1.30934, 1.30639, 1.30923, 
1.63652, 1.63776, 1.63591, 1.63579, 1.63454, 1.63187, 1.63065, 1.64224, 1.62708, 1.62252, 1.62052, 1.61945, 1.62612, 1.61215, 1.60933, 1.60963, 1.6076, 1.61287, 1.61752, 1.59936, 1.62029, 1.6848, 1.78951, 1.91809, 1.75247, 1.77794, 1.77614, 1.58319, 1.57167, 1.57507, 1.58518, 1.5889, 1.58165, 1.58601, 1.57286, 1.56846, 1.56549, 1.56944, 1.56785, 1.55517, 1.55004, 1.54758, 1.54434, 1.54399, 1.54342, 1.54015, 1.53896, 1.53402, 1.53785, 1.5285, 1.52483, 1.52361, 1.52241, 1.52069, 1.51751, 1.51692, 1.51231, 1.51013, 1.50633, 1.50606, 1.50243, 1.50039, 1.50226, 1.49873, 1.49922, 1.49246, 1.48999, 1.48765, 1.48593, 1.48473, 1.48324, 1.4829, 1.47982, 1.48016, 1.4859, 1.48383, 1.48333, 1.48432, 1.48935, 1.51321, 1.50848, 1.53038, 1.51118, 1.4881, 1.4848, 1.46927, 1.47472, 1.51062, 1.49501, 1.48509, 1.48452, 1.45175, 1.45481, 1.44713, 1.45123, 1.43503, 1.43236, 1.43284, 1.42663, 1.42666, 1.42562, 1.42297, 1.42095, 1.4207, 1.41771, 1.41559, 1.41427, 1.41213, 1.41054, 1.40843, 1.40539, 1.4036, 1.40359, 1.40092, 1.39837, 1.39938, 1.39579, 1.39442, 1.38552, 1.39165, 1.38977, 1.38544, 1.38345, 1.38271, 1.38154, 1.38135, 1.37665, 1.3743, 1.3727, 1.36891, 1.36719, 1.37056, 1.36158, 1.36192, 1.35864, 1.35855, 1.36014, 1.36116, 1.36021, 1.36214, 1.36033, 1.35445, 1.35353, 1.35175, 1.34973, 1.34863, 1.34738, 1.34673, 1.34483, 1.34465, 1.35555, 1.34505, 1.34472, 1.34472, 1.31914, 1.40825, 1.44981, 1.52302, 1.57852, 1.70362, 1.71369, 1.58914, 1.3858, 1.30527, 1.32486, 1.32318, 1.33229, 1.3257, 1.31864, 1.31997, 1.31803, 1.31948, 1.32326, 1.31553, 1.31432, 1.3111, 1.31187, 1.31035, 1.30976, 1.30677, 
1.63779, 1.6311, 1.62617, 1.62346, 1.61995, 1.6184, 1.61781, 1.61353, 1.61056, 1.60862, 1.6062, 1.60369, 1.59941, 1.59674, 1.59599, 1.5898, 1.58685, 1.59616, 1.59227, 1.58608, 1.55813, 1.6359, 1.73384, 1.82158, 1.95946, 2.00417, 1.89865, 1.66751, 1.56164, 1.5712, 1.57965, 1.56322, 1.55977, 1.55591, 1.55347, 1.55409, 1.54508, 1.54173, 1.53752, 1.53425, 1.52948, 1.52775, 1.52503, 1.5225, 1.52086, 1.52002, 1.51969, 1.51791, 1.51806, 1.51636, 1.51445, 1.51305, 1.51164, 1.50871, 1.50664, 1.50298, 1.49979, 1.49835, 1.49757, 1.49499, 1.49367, 1.48997, 1.48807, 1.48276, 1.47838, 1.47721, 1.47598, 1.47448, 1.47406, 1.47142, 1.46818, 1.46637, 1.46477, 1.47136, 1.46626, 1.46886, 1.46964, 1.46899, 1.4756, 1.47822, 1.48214, 1.48504, 1.49459, 1.49246, 1.48198, 1.47943, 1.47502, 1.4837, 1.49893, 1.4888, 1.47683, 1.44793, 1.43974, 1.45789, 1.43103, 1.42408, 1.41942, 1.41537, 1.41456, 1.41218, 1.41231, 1.41507, 1.42108, 1.40692, 1.4061, 1.40544, 1.40316, 1.40245, 1.39722, 1.39353, 1.39159, 1.38808, 1.38617, 1.38454, 1.38159, 1.37999, 1.3803, 1.37927, 1.37894, 1.37835, 1.37858, 1.3761, 1.37569, 1.37092, 1.36648, 1.36618, 1.36293, 1.36169, 1.35897, 1.35697, 1.35381, 1.35309, 1.35172, 1.34929, 1.34623, 1.34658, 1.34795, 1.35024, 1.35034, 1.34821, 1.34638, 1.34517, 1.34312, 1.34041, 1.3383, 1.34322, 1.33638, 1.33244, 1.33023, 1.32932, 1.32737, 1.32899, 1.33046, 1.32702, 1.29525, 1.39851, 1.43868, 1.53408, 1.61391, 1.66331, 1.84516, 1.58228, 1.37833, 1.28883, 1.30611, 1.31943, 1.32978, 1.31193, 1.30536, 1.306, 1.30551, 1.30494, 1.30548, 1.31513, 1.29816, 1.29483, 1.29476, 1.29136, 1.29097, 1.28825, 
1.63064, 1.62925, 1.63067, 1.62163, 1.61935, 1.61758, 1.6131, 1.6099, 1.60748, 1.60234, 1.61598, 1.5998, 1.59961, 1.59926, 1.5986, 1.60575, 1.61341, 1.60306, 1.603, 1.59058, 1.59948, 1.60657, 1.78283, 1.78182, 2.00386, 2.03509, 1.81728, 1.62726, 1.53412, 1.56568, 1.57719, 1.56611, 1.56361, 1.55346, 1.5508, 1.54805, 1.5468, 1.54537, 1.54137, 1.5416, 1.537, 1.53353, 1.52987, 1.52752, 1.52411, 1.52113, 1.51922, 1.51525, 1.51325, 1.51636, 1.51369, 1.51039, 1.50965, 1.50696, 1.50826, 1.5027, 1.49976, 1.49836, 1.49457, 1.49182, 1.48936, 1.4867, 1.48405, 1.48187, 1.47905, 1.47585, 1.47415, 1.4721, 1.47006, 1.46825, 1.46618, 1.46388, 1.46269, 1.46256, 1.46305, 1.46927, 1.46706, 1.46841, 1.47473, 1.46829, 1.46766, 1.48405, 1.47554, 1.48251, 1.48822, 1.46541, 1.4756, 1.46623, 1.48983, 1.48255, 1.46884, 1.46325, 1.44788, 1.45206, 1.43432, 1.4278, 1.4195, 1.41181, 1.41126, 1.40924, 1.40941, 1.40716, 1.40515, 1.41829, 1.40288, 1.40182, 1.40029, 1.39976, 1.39679, 1.3948, 1.39219, 1.38965, 1.38577, 1.38427, 1.38077, 1.3799, 1.37896, 1.37608, 1.37533, 1.374, 1.37394, 1.3727, 1.36928, 1.36857, 1.36745, 1.36535, 1.36373, 1.36402, 1.36312, 1.37508, 1.36137, 1.36026, 1.35703, 1.35712, 1.35404, 1.35272, 1.35036, 1.34987, 1.34784, 1.34767, 1.34636, 1.34451, 1.34255, 1.34308, 1.34114, 1.33945, 1.33927, 1.34022, 1.33875, 1.33721, 1.34859, 1.34512, 1.34851, 1.3429, 1.3293, 1.31065, 1.45802, 1.48504, 1.58974, 1.71705, 1.72202, 1.48911, 1.46488, 1.32103, 1.33387, 1.32186, 1.31554, 1.31378, 1.30922, 1.3079, 1.30713, 1.30569, 1.305, 1.30179, 1.3086, 1.30163, 1.29857, 1.29829, 1.30597, 1.29562, 
1.59972, 1.59713, 1.59619, 1.59425, 1.59094, 1.58982, 1.58417, 1.58182, 1.57972, 1.5744, 1.57265, 1.57155, 1.57979, 1.56609, 1.5641, 1.56364, 1.56321, 1.56711, 1.56564, 1.566, 1.53016, 1.56953, 1.64486, 1.67966, 1.85176, 1.94005, 1.96537, 1.5643, 1.50339, 1.52506, 1.53019, 1.52696, 1.52317, 1.5193, 1.51678, 1.51378, 1.51138, 1.51095, 1.50987, 1.5096, 1.50986, 1.50934, 1.50941, 1.50666, 1.50346, 1.49931, 1.49736, 1.49498, 1.49282, 1.48959, 1.48419, 1.48238, 1.4787, 1.47611, 1.47418, 1.47204, 1.47029, 1.46831, 1.46935, 1.48105, 1.46113, 1.45852, 1.46036, 1.45876, 1.45485, 1.45361, 1.45364, 1.45227, 1.44435, 1.44533, 1.44159, 1.43838, 1.43676, 1.43511, 1.43473, 1.43366, 1.44442, 1.44746, 1.46646, 1.44154, 1.45896, 1.46084, 1.46182, 1.47448, 1.45029, 1.44505, 1.43755, 1.45151, 1.43721, 1.44883, 1.45283, 1.41694, 1.41079, 1.40444, 1.40186, 1.39919, 1.39606, 1.39207, 1.3845, 1.38166, 1.38114, 1.37745, 1.37692, 1.37438, 1.37827, 1.38453, 1.38536, 1.40329, 1.3821, 1.36477, 1.36297, 1.36385, 1.36367, 1.35899, 1.35588, 1.35692, 1.35219, 1.354, 1.35191, 1.35038, 1.34945, 1.34626, 1.34509, 1.34169, 1.33736, 1.33689, 1.33496, 1.33363, 1.33245, 1.32896, 1.32465, 1.32607, 1.34876, 1.33368, 1.32697, 1.31986, 1.31677, 1.31886, 1.31699, 1.31261, 1.31342, 1.31518, 1.31552, 1.31747, 1.31556, 1.31225, 1.30819, 1.30846, 1.30574, 1.30249, 1.30001, 1.30084, 1.3002, 1.30579, 1.30485, 1.28179, 1.38267, 1.47879, 1.52397, 1.58488, 1.76187, 1.57906, 1.33145, 1.27137, 1.26915, 1.28878, 1.2989, 1.29044, 1.29032, 1.28576, 1.28897, 1.27149, 1.27502, 1.2716, 1.27829, 1.26771, 1.26619, 1.26295, 1.26067, 1.25611, 
1.61533, 1.61391, 1.61274, 1.60994, 1.60671, 1.60612, 1.60359, 1.59988, 1.59779, 1.59502, 1.59049, 1.60268, 1.58707, 1.59364, 1.58345, 1.58269, 1.5828, 1.58744, 1.58355, 1.58253, 1.58649, 1.56315, 1.62033, 1.75353, 1.91488, 1.94497, 1.80387, 1.61963, 1.52824, 1.55249, 1.55756, 1.54916, 1.53732, 1.53812, 1.53117, 1.53282, 1.53246, 1.54078, 1.53869, 1.52729, 1.52337, 1.52086, 1.51717, 1.51185, 1.50772, 1.50253, 1.5034, 1.50484, 1.50296, 1.50224, 1.50665, 1.49959, 1.49841, 1.49536, 1.49338, 1.4903, 1.48905, 1.48525, 1.48382, 1.52595, 1.47522, 1.4711, 1.47128, 1.46824, 1.46741, 1.46233, 1.46134, 1.45778, 1.45868, 1.46488, 1.46336, 1.46471, 1.47105, 1.45124, 1.45148, 1.45234, 1.45302, 1.46756, 1.45766, 1.46403, 1.45692, 1.47578, 1.46141, 1.47651, 1.46691, 1.45266, 1.47143, 1.4497, 1.46344, 1.47152, 1.44988, 1.44442, 1.43866, 1.44032, 1.4258, 1.4188, 1.41517, 1.41521, 1.40527, 1.40327, 1.40205, 1.40041, 1.39859, 1.39624, 1.39547, 1.39302, 1.42763, 1.38787, 1.38526, 1.38403, 1.38193, 1.38116, 1.37916, 1.37554, 1.3739, 1.37333, 1.37378, 1.37166, 1.3704, 1.39763, 1.36524, 1.36341, 1.36079, 1.38518, 1.35727, 1.35434, 1.35342, 1.35319, 1.35195, 1.3479, 1.34968, 1.34455, 1.34521, 1.34501, 1.34047, 1.34011, 1.3389, 1.3374, 1.34329, 1.33514, 1.39921, 1.32941, 1.32941, 1.32929, 1.32876, 1.33373, 1.32659, 1.32607, 1.34199, 1.32344, 1.33673, 1.34574, 1.32512, 1.32455, 1.32574, 1.30787, 1.34693, 1.44024, 1.50995, 1.68417, 1.63519, 1.62001, 1.3856, 1.36404, 1.33889, 1.30868, 1.3138, 1.31476, 1.30209, 1.29926, 1.30048, 1.302, 1.30881, 1.29479, 1.29226, 1.30773, 1.30673, 1.28502, 1.28502, 1.2916, 
1.59571, 1.59426, 1.60201, 1.60607, 1.60417, 1.60368, 1.5962, 1.59333, 1.59088, 1.58547, 1.5842, 1.58388, 1.58301, 1.58176, 1.57951, 1.57567, 1.58508, 1.58685, 1.56896, 1.59017, 1.58227, 1.55425, 1.62473, 1.70675, 1.75914, 1.85789, 1.98865, 1.77607, 1.54493, 1.54924, 1.54161, 1.55844, 1.55474, 1.55132, 1.53746, 1.52797, 1.52505, 1.54132, 1.53294, 1.51815, 1.51437, 1.5132, 1.51048, 1.50943, 1.50627, 1.50207, 1.50055, 1.49908, 1.49659, 1.49277, 1.49081, 1.49041, 1.48845, 1.48614, 1.48482, 1.48285, 1.48241, 1.47877, 1.47607, 1.47057, 1.46808, 1.46604, 1.46435, 1.46617, 1.46129, 1.46124, 1.45846, 1.45576, 1.45466, 1.4581, 1.45135, 1.45058, 1.44849, 1.44738, 1.44708, 1.44733, 1.4501, 1.45102, 1.45999, 1.4602, 1.46259, 1.4641, 1.46, 1.46267, 1.45138, 1.45807, 1.45884, 1.45499, 1.44563, 1.45059, 1.44086, 1.4411, 1.43125, 1.42911, 1.41966, 1.41023, 1.41002, 1.40003, 1.39905, 1.39732, 1.39461, 1.39163, 1.3869, 1.39554, 1.38406, 1.3829, 1.38321, 1.37855, 1.37592, 1.37535, 1.37327, 1.37217, 1.37211, 1.37051, 1.3679, 1.3669, 1.36545, 1.36331, 1.36169, 1.36025, 1.3633, 1.3573, 1.35498, 1.35442, 1.3502, 1.34774, 1.34704, 1.3487, 1.34897, 1.35037, 1.34863, 1.34339, 1.34279, 1.33847, 1.33675, 1.34552, 1.33073, 1.33256, 1.32519, 1.32445, 1.32399, 1.32239, 1.32233, 1.32335, 1.3204, 1.3198, 1.31613, 1.31696, 1.30853, 1.30733, 1.30821, 1.31019, 1.3144, 1.31216, 1.32642, 1.29961, 1.32281, 1.42678, 1.47561, 1.62726, 1.76822, 1.98608, 1.51879, 1.47488, 1.43498, 1.41255, 1.41218, 1.33074, 1.28847, 1.28498, 1.28655, 1.30568, 1.28544, 1.28204, 1.28407, 1.28088, 1.28145, 1.27742, 1.27422, 1.27108, 
1.59945, 1.59702, 1.59541, 1.59578, 1.59394, 1.59153, 1.5891, 1.58749, 1.59591, 1.57947, 1.57818, 1.57575, 1.58415, 1.57184, 1.56778, 1.56653, 1.56827, 1.56788, 1.56154, 1.56223, 1.56236, 1.5332, 1.60575, 1.64351, 1.67836, 1.69778, 1.7517, 1.7389, 1.59655, 1.52674, 1.53711, 1.53818, 1.53428, 1.52766, 1.51755, 1.52326, 1.51391, 1.51567, 1.51552, 1.5142, 1.51206, 1.50871, 1.50686, 1.50498, 1.50284, 1.49959, 1.49943, 1.49475, 1.49342, 1.48959, 1.48847, 1.4854, 1.48384, 1.4844, 1.48216, 1.47338, 1.47143, 1.47221, 1.47188, 1.46946, 1.46736, 1.46384, 1.46246, 1.46757, 1.46076, 1.46048, 1.45784, 1.45489, 1.45186, 1.4553, 1.44761, 1.44542, 1.44136, 1.44196, 1.4415, 1.4485, 1.4426, 1.44707, 1.44537, 1.45839, 1.44788, 1.45423, 1.4487, 1.4654, 1.45545, 1.45631, 1.44972, 1.44044, 1.43363, 1.43357, 1.44609, 1.42487, 1.42739, 1.41808, 1.41483, 1.40815, 1.39467, 1.39038, 1.38558, 1.38848, 1.37928, 1.38109, 1.38116, 1.37991, 1.37913, 1.38132, 1.38126, 1.37431, 1.37194, 1.37055, 1.37077, 1.37058, 1.37107, 1.36877, 1.40336, 1.36325, 1.36196, 1.35851, 1.35772, 1.36028, 1.3621, 1.35, 1.34176, 1.33985, 1.33676, 1.33982, 1.33689, 1.33908, 1.33903, 1.3381, 1.33805, 1.33452, 1.33439, 1.33317, 1.33245, 1.33241, 1.33074, 1.33125, 1.32839, 1.32881, 1.32751, 1.32365, 1.32258, 1.32125, 1.32045, 1.32176, 1.31907, 1.3141, 1.31493, 1.32346, 1.30939, 1.30652, 1.309, 1.30593, 1.30592, 1.32594, 1.28164, 1.35525, 1.40501, 1.56978, 1.57849, 1.63388, 1.48714, 1.36813, 1.25817, 1.30289, 1.28982, 1.28796, 1.28624, 1.29946, 1.28597, 1.28447, 1.28228, 1.28217, 1.29119, 1.27316, 1.27048, 1.27163, 1.26182, 1.26481, 
1.59422, 1.59272, 1.58944, 1.58469, 1.58456, 1.57896, 1.57437, 1.57839, 1.56626, 1.55885, 1.5498, 1.58171, 1.55499, 1.56153, 1.55086, 1.54173, 1.54245, 1.54316, 1.53859, 1.5576, 1.54501, 1.54235, 1.50903, 1.60673, 1.68801, 1.77204, 1.76609, 1.66056, 1.62402, 1.48253, 1.51324, 1.50649, 1.51607, 1.51959, 1.51453, 1.5151, 1.5138, 1.5123, 1.5123, 1.50777, 1.5045, 1.49699, 1.49177, 1.48609, 1.47779, 1.4741, 1.47476, 1.47136, 1.46944, 1.46788, 1.46532, 1.46257, 1.45998, 1.45728, 1.45467, 1.45302, 1.44953, 1.44784, 1.44399, 1.44326, 1.44163, 1.43739, 1.43644, 1.43298, 1.43224, 1.433, 1.43719, 1.43713, 1.43664, 1.43088, 1.42546, 1.4227, 1.4227, 1.41803, 1.42124, 1.43498, 1.42427, 1.43696, 1.43117, 1.42989, 1.43895, 1.45249, 1.46463, 1.45016, 1.43479, 1.43423, 1.42734, 1.43086, 1.42211, 1.43121, 1.41967, 1.41365, 1.41331, 1.4157, 1.41601, 1.40185, 1.39722, 1.40623, 1.38717, 1.38105, 1.37519, 1.36916, 1.36097, 1.35677, 1.35543, 1.35588, 1.35422, 1.35218, 1.36326, 1.35252, 1.35155, 1.34974, 1.34666, 1.34394, 1.34318, 1.34224, 1.34004, 1.33449, 1.33478, 1.33082, 1.32828, 1.32739, 1.32623, 1.32294, 1.32033, 1.31872, 1.31604, 1.3138, 1.31355, 1.31515, 1.31073, 1.31093, 1.31039, 1.31011, 1.31222, 1.30985, 1.3053, 1.304, 1.30506, 1.30313, 1.30485, 1.2991, 1.2947, 1.29112, 1.29443, 1.29478, 1.29183, 1.29235, 1.29178, 1.29537, 1.28202, 1.28262, 1.29459, 1.2825, 1.28538, 1.30138, 1.30204, 1.28232, 1.39548, 1.51046, 1.66031, 1.79736, 1.80032, 1.37841, 1.33938, 1.27472, 1.28157, 1.27462, 1.25572, 1.25278, 1.24842, 1.24723, 1.2709, 1.24611, 1.25245, 1.25824, 1.25306, 1.25611, 1.26, 1.25847, 
