1.63681, 1.63834, 1.623, 1.62053, 1.61953, 1.61404, 1.61053, 1.60784, 1.60481, 1.61239, 1.60605, 1.60687, 1.60482, 1.57538, 1.59619, 1.61417, 1.64191, 1.62103, 1.63273, 1.64801, 1.69626, 1.6938, 1.67384, 1.65566, 1.59959, 1.53937, 1.57175, 1.57226, 1.55224, 1.55405, 1.55747, 1.57063, 1.56836, 1.54535, 1.53899, 1.53137, 1.52786, 1.52493, 1.52364, 1.52117, 1.51869, 1.51629, 1.51357, 1.51308, 1.51178, 1.50789, 1.50305, 1.49971, 1.49674, 1.49441, 1.49013, 1.48963, 1.49227, 1.48441, 1.4836, 1.47871, 1.47615, 1.47497, 1.46774, 1.48233, 1.46554, 1.46447, 1.46081, 1.46944, 1.47809, 1.4802, 1.4441, 1.51717, 1.55779, 1.64524, 1.75972, 1.75591, 1.75209, 1.60766, 1.44367, 1.42705, 1.43573, 1.44478, 1.43339, 1.42695, 1.44764, 1.41893, 1.41693, 1.41605, 1.41589, 1.41329, 1.40789, 1.4056, 1.40319, 1.40047, 1.39945, 1.39522, 1.39295, 1.39156, 1.3853, 1.38288, 1.38161, 1.38423, 1.38099, 1.37584, 1.37451, 1.37124, 1.37525, 1.37024, 1.37054, 1.36597, 1.36431, 1.36179, 1.36188, 1.36322, 1.36848, 1.35483, 1.35397, 1.34978, 1.34634, 1.34455, 1.3438, 1.34241, 1.36121, 1.33649, 1.33263, 1.33079, 1.32951, 1.32892, 1.32804, 1.3291, 1.34107, 1.33737, 1.33996, 1.34293, 1.35392, 1.34773, 1.37415, 1.3681, 1.37267, 1.3583, 1.38298, 1.34433, 1.34401, 1.31368, 1.32439, 1.32035, 1.31507, 1.30491, 1.29291, 1.29096, 1.28937, 1.29152, 1.29027, 1.28856, 1.28847, 1.28645, 1.30264, 
1.64833, 1.64588, 1.62159, 1.62013, 1.61978, 1.61885, 1.61705, 1.61256, 1.6101, 1.6076, 1.61249, 1.60577, 1.61267, 1.5956, 1.61028, 1.62334, 1.6319, 1.63238, 1.64734, 1.67176, 1.6726, 1.69275, 1.6964, 1.60541, 1.55429, 1.56109, 1.56189, 1.56474, 1.55285, 1.55448, 1.54843, 1.5508, 1.55539, 1.55167, 1.53492, 1.52742, 1.52905, 1.52736, 1.52429, 1.523, 1.52029, 1.51801, 1.5146, 1.51278, 1.50954, 1.50702, 1.5044, 1.50195, 1.49839, 1.49511, 1.49325, 1.49156, 1.48715, 1.48669, 1.48474, 1.48268, 1.47969, 1.47761, 1.46997, 1.46889, 1.46766, 1.4666, 1.46475, 1.47561, 1.46413, 1.47079, 1.43131, 1.47912, 1.55191, 1.6401, 1.70901, 1.76016, 1.74696, 1.53621, 1.46678, 1.42313, 1.43617, 1.43404, 1.42863, 1.42234, 1.42149, 1.4178, 1.41578, 1.41262, 1.4098, 1.40495, 1.40466, 1.40022, 1.4014, 1.39935, 1.39637, 1.40168, 1.39178, 1.38924, 1.38631, 1.38567, 1.38499, 1.38325, 1.38122, 1.3813, 1.37517, 1.37142, 1.3742, 1.36911, 1.37005, 1.36641, 1.36479, 1.36143, 1.36052, 1.36006, 1.35876, 1.35956, 1.35497, 1.3535, 1.35198, 1.34926, 1.35501, 1.34554, 1.34588, 1.34226, 1.33996, 1.34001, 1.33445, 1.33556, 1.33289, 1.34298, 1.34186, 1.34259, 1.33981, 1.34146, 1.3415, 1.3716, 1.35416, 1.37918, 1.36135, 1.36489, 1.37446, 1.36881, 1.33744, 1.32009, 1.31278, 1.31449, 1.30051, 1.29912, 1.29543, 1.29866, 1.28628, 1.28599, 1.28601, 1.28514, 1.28757, 1.28811, 1.28488, 
1.67466, 1.67671, 1.64567, 1.6416, 1.62775, 1.63064, 1.62776, 1.61372, 1.61334, 1.62751, 1.6164, 1.61164, 1.6132, 1.59213, 1.59067, 1.63393, 1.63084, 1.66249, 1.64829, 1.662, 1.69141, 1.7168, 1.70771, 1.61259, 1.54014, 1.58245, 1.56825, 1.56216, 1.56104, 1.55855, 1.55128, 1.5506, 1.55865, 1.56362, 1.55993, 1.54951, 1.53054, 1.53341, 1.52611, 1.52247, 1.52522, 1.52072, 1.5182, 1.51587, 1.51166, 1.50985, 1.50716, 1.50555, 1.50309, 1.5015, 1.49886, 1.49676, 1.49342, 1.49249, 1.48839, 1.48692, 1.48382, 1.50574, 1.47497, 1.47141, 1.47189, 1.46857, 1.47504, 1.46526, 1.46298, 1.47515, 1.43665, 1.51034, 1.53303, 1.62603, 1.73208, 1.74961, 1.69711, 1.57998, 1.51301, 1.41631, 1.43853, 1.44406, 1.43056, 1.42516, 1.42424, 1.42275, 1.41781, 1.41309, 1.41242, 1.40952, 1.40861, 1.40096, 1.41653, 1.40135, 1.39988, 1.39749, 1.39782, 1.39888, 1.39561, 1.38949, 1.38889, 1.38825, 1.38578, 1.38422, 1.38153, 1.37695, 1.37595, 1.37382, 1.3725, 1.36828, 1.36536, 1.36424, 1.36374, 1.36114, 1.35893, 1.35868, 1.35467, 1.35394, 1.35341, 1.35228, 1.35227, 1.35097, 1.35157, 1.35011, 1.34562, 1.34514, 1.3433, 1.34111, 1.34041, 1.34149, 1.34553, 1.3544, 1.34843, 1.35072, 1.36472, 1.36709, 1.35479, 1.38842, 1.37085, 1.36954, 1.36962, 1.37728, 1.33703, 1.33164, 1.33383, 1.3107, 1.32229, 1.30184, 1.29718, 1.3032, 1.2922, 1.2905, 1.2885, 1.28794, 1.29128, 1.29187, 1.29555, 
1.67476, 1.69219, 1.67198, 1.64802, 1.62812, 1.63323, 1.61921, 1.61931, 1.61731, 1.61294, 1.61254, 1.61479, 1.61391, 1.59223, 1.62233, 1.62676, 1.63464, 1.64411, 1.68833, 1.69605, 1.71879, 1.73464, 1.68172, 1.63937, 1.55782, 1.55903, 1.57431, 1.57534, 1.56296, 1.55668, 1.55344, 1.55178, 1.55733, 1.5578, 1.55209, 1.55008, 1.54145, 1.54904, 1.54446, 1.54677, 1.5276, 1.52309, 1.52282, 1.52008, 1.51683, 1.51134, 1.51004, 1.50868, 1.50089, 1.50304, 1.50026, 1.50213, 1.49733, 1.49597, 1.49395, 1.49091, 1.48835, 1.48214, 1.47845, 1.47825, 1.47357, 1.47305, 1.47308, 1.47198, 1.47234, 1.47106, 1.44759, 1.46295, 1.5443, 1.5854, 1.68537, 1.70927, 1.71672, 1.54403, 1.41975, 1.41416, 1.44473, 1.45405, 1.44208, 1.43373, 1.43027, 1.42634, 1.42373, 1.42358, 1.41985, 1.41641, 1.41345, 1.41045, 1.40869, 1.40732, 1.40578, 1.4055, 1.40224, 1.40116, 1.39621, 1.39364, 1.39311, 1.39138, 1.38803, 1.3873, 1.38525, 1.38464, 1.38283, 1.37997, 1.37763, 1.37307, 1.36934, 1.36504, 1.36583, 1.36295, 1.36172, 1.3614, 1.36115, 1.35863, 1.35817, 1.36068, 1.35979, 1.35712, 1.36396, 1.35435, 1.35395, 1.3761, 1.34806, 1.34704, 1.34643, 1.34463, 1.36739, 1.35334, 1.34926, 1.35545, 1.35901, 1.35942, 1.36183, 1.38581, 1.39294, 1.38645, 1.39282, 1.35598, 1.33764, 1.35297, 1.3211, 1.31668, 1.312, 1.30961, 1.30151, 1.30263, 1.30433, 1.29912, 1.30189, 1.29753, 1.29468, 1.29482, 1.29467, 
1.66951, 1.66117, 1.67275, 1.68346, 1.64123, 1.62891, 1.63611, 1.63487, 1.62709, 1.61973, 1.61882, 1.62611, 1.63502, 1.60414, 1.59564, 1.61973, 1.64318, 1.69277, 1.70455, 1.69437, 1.70375, 1.6965, 1.67875, 1.62776, 1.55884, 1.57493, 1.58046, 1.58127, 1.56887, 1.55889, 1.5717, 1.56234, 1.5536, 1.55163, 1.56808, 1.56617, 1.55795, 1.55333, 1.53459, 1.5333, 1.52759, 1.52523, 1.52357, 1.51981, 1.51706, 1.51613, 1.51369, 1.50924, 1.50697, 1.50539, 1.50614, 1.50287, 1.49923, 1.49772, 1.49473, 1.49204, 1.49, 1.48707, 1.48679, 1.48358, 1.48101, 1.48231, 1.48258, 1.48198, 1.48043, 1.48073, 1.45328, 1.47579, 1.5432, 1.5823, 1.69087, 1.73272, 1.72936, 1.64828, 1.48416, 1.42317, 1.46517, 1.45436, 1.44851, 1.44493, 1.43856, 1.43582, 1.43696, 1.42613, 1.42492, 1.42269, 1.42027, 1.41721, 1.4136, 1.42082, 1.40734, 1.40681, 1.40671, 1.40269, 1.4013, 1.3988, 1.39786, 1.39725, 1.39479, 1.39505, 1.39438, 1.38943, 1.38816, 1.3865, 1.38122, 1.37857, 1.37628, 1.37808, 1.37095, 1.36619, 1.36541, 1.36217, 1.36082, 1.36009, 1.36083, 1.36331, 1.36257, 1.36446, 1.3657, 1.36543, 1.36144, 1.35735, 1.35632, 1.35282, 1.35062, 1.35515, 1.35205, 1.3544, 1.35977, 1.34943, 1.36469, 1.37942, 1.41078, 1.39899, 1.40854, 1.38234, 1.43697, 1.36333, 1.3851, 1.33754, 1.32773, 1.34121, 1.32423, 1.32111, 1.30746, 1.30492, 1.30873, 1.30219, 1.3061, 1.30813, 1.30294, 1.29831, 1.29687, 
1.65324, 1.66145, 1.66857, 1.63589, 1.67421, 1.65668, 1.6379, 1.63892, 1.62391, 1.62319, 1.62784, 1.62194, 1.62187, 1.61729, 1.59982, 1.65563, 1.66458, 1.67794, 1.67209, 1.68829, 1.70518, 1.70336, 1.67171, 1.65592, 1.55574, 1.57563, 1.60007, 1.57694, 1.56959, 1.56464, 1.5723, 1.55645, 1.55757, 1.55552, 1.56149, 1.56549, 1.5549, 1.54356, 1.53834, 1.53681, 1.53664, 1.53337, 1.52808, 1.52454, 1.52357, 1.52182, 1.51876, 1.51592, 1.52328, 1.51552, 1.50778, 1.5061, 1.50398, 1.50313, 1.50038, 1.50275, 1.49627, 1.49331, 1.49129, 1.50613, 1.48845, 1.48721, 1.48191, 1.4812, 1.48611, 1.49169, 1.45084, 1.53438, 1.55808, 1.644, 1.71971, 1.7411, 1.74339, 1.61947, 1.55534, 1.44434, 1.4693, 1.45861, 1.4536, 1.44928, 1.44413, 1.44441, 1.43876, 1.43408, 1.4306, 1.4281, 1.42411, 1.42317, 1.42139, 1.42998, 1.41904, 1.41959, 1.41098, 1.40976, 1.40574, 1.404, 1.40335, 1.40214, 1.40137, 1.39753, 1.39742, 1.39506, 1.39479, 1.39114, 1.38875, 1.38519, 1.37933, 1.37824, 1.37326, 1.37077, 1.36752, 1.36188, 1.36128, 1.36409, 1.36096, 1.36266, 1.36636, 1.3644, 1.36162, 1.36146, 1.36389, 1.35781, 1.37747, 1.35616, 1.35481, 1.354, 1.35374, 1.36369, 1.35992, 1.36405, 1.36674, 1.39011, 1.38381, 1.3816, 1.42831, 1.39105, 1.44787, 1.39546, 1.34769, 1.32214, 1.3428, 1.33788, 1.32662, 1.33025, 1.32056, 1.31326, 1.31205, 1.31423, 1.31182, 1.31222, 1.3123, 1.3116, 1.31309, 
1.65047, 1.6441, 1.65506, 1.65228, 1.65472, 1.63967, 1.63345, 1.63212, 1.62848, 1.6311, 1.62288, 1.6216, 1.6251, 1.61921, 1.61413, 1.63974, 1.66201, 1.68659, 1.71459, 1.70071, 1.72857, 1.72056, 1.71317, 1.63145, 1.58276, 1.57526, 1.58756, 1.58981, 1.57508, 1.57023, 1.56291, 1.55991, 1.55868, 1.56293, 1.56889, 1.56966, 1.57526, 1.54929, 1.54422, 1.54212, 1.54191, 1.5401, 1.53388, 1.53282, 1.5276, 1.52677, 1.52346, 1.52114, 1.51766, 1.51498, 1.51048, 1.51002, 1.5068, 1.50314, 1.50161, 1.50378, 1.50271, 1.50156, 1.49855, 1.49597, 1.49376, 1.48791, 1.50366, 1.48292, 1.48956, 1.48134, 1.45551, 1.49516, 1.55858, 1.61014, 1.70558, 1.71602, 1.6939, 1.59056, 1.53657, 1.43431, 1.44786, 1.46872, 1.46385, 1.45511, 1.45122, 1.44187, 1.43957, 1.43599, 1.43576, 1.43092, 1.4288, 1.42496, 1.42512, 1.42269, 1.41882, 1.41877, 1.41595, 1.41304, 1.41086, 1.40809, 1.40637, 1.40552, 1.40363, 1.40522, 1.40155, 1.40889, 1.39892, 1.39554, 1.39267, 1.38967, 1.38561, 1.38151, 1.37635, 1.37427, 1.37113, 1.36894, 1.3657, 1.36515, 1.36251, 1.36279, 1.36192, 1.36043, 1.35852, 1.35479, 1.35625, 1.36458, 1.35702, 1.3619, 1.35831, 1.3545, 1.36367, 1.35831, 1.36398, 1.35659, 1.37705, 1.38189, 1.39795, 1.4224, 1.39707, 1.40591, 1.42044, 1.42768, 1.3714, 1.33008, 1.33368, 1.33967, 1.33964, 1.32685, 1.32065, 1.32354, 1.31722, 1.31237, 1.30881, 1.30814, 1.31313, 1.3129, 1.31107, 
1.65524, 1.64705, 1.64736, 1.64375, 1.64331, 1.64479, 1.64746, 1.63994, 1.63771, 1.64765, 1.63675, 1.6304, 1.6327, 1.63736, 1.60033, 1.61935, 1.64365, 1.6728, 1.67912, 1.77574, 1.79916, 1.75666, 1.73069, 1.71671, 1.58543, 1.59151, 1.60622, 1.5966, 1.58941, 1.57353, 1.56819, 1.56322, 1.56098, 1.55845, 1.56202, 1.58203, 1.56748, 1.56443, 1.55145, 1.54824, 1.54586, 1.54411, 1.54271, 1.56122, 1.53205, 1.5299, 1.52756, 1.52407, 1.52155, 1.51794, 1.51376, 1.51085, 1.50871, 1.50619, 1.50365, 1.50163, 1.50291, 1.49829, 1.50182, 1.51328, 1.49233, 1.49304, 1.48847, 1.48971, 1.49224, 1.48021, 1.45508, 1.48512, 1.55386, 1.65638, 1.7307, 1.73348, 1.73007, 1.68275, 1.50993, 1.46488, 1.45544, 1.46338, 1.46817, 1.46483, 1.46025, 1.45151, 1.43826, 1.43665, 1.43401, 1.4305, 1.4309, 1.42939, 1.42843, 1.42465, 1.42671, 1.42295, 1.42043, 1.41836, 1.41909, 1.41274, 1.40922, 1.40765, 1.40798, 1.40755, 1.40678, 1.40388, 1.40389, 1.40206, 1.40142, 1.39929, 1.39057, 1.39147, 1.38582, 1.37856, 1.37689, 1.37547, 1.37323, 1.3718, 1.37165, 1.36727, 1.36478, 1.36537, 1.36353, 1.36234, 1.36043, 1.35946, 1.36037, 1.35547, 1.35393, 1.35284, 1.36286, 1.3681, 1.36108, 1.34787, 1.37138, 1.38973, 1.3944, 1.39672, 1.40092, 1.40506, 1.40694, 1.41212, 1.37062, 1.32528, 1.32404, 1.3373, 1.3338, 1.34451, 1.34333, 1.32183, 1.32894, 1.3168, 1.31162, 1.31049, 1.31044, 1.31295, 1.3131, 
1.65708, 1.65274, 1.65042, 1.65573, 1.65538, 1.67173, 1.66123, 1.64115, 1.63666, 1.63461, 1.63772, 1.6264, 1.628, 1.62706, 1.61327, 1.65159, 1.66591, 1.67334, 1.70991, 1.76118, 1.7566, 1.75836, 1.7332, 1.67931, 1.59123, 1.58712, 1.58936, 1.5868, 1.58643, 1.57954, 1.56691, 1.56432, 1.56075, 1.56504, 1.55135, 1.55252, 1.5646, 1.57355, 1.57107, 1.54962, 1.554, 1.54337, 1.53911, 1.53594, 1.53439, 1.53362, 1.53141, 1.52768, 1.52135, 1.51948, 1.51339, 1.51223, 1.51084, 1.50869, 1.50453, 1.50254, 1.50094, 1.49887, 1.49666, 1.49592, 1.50239, 1.49308, 1.48661, 1.48607, 1.48632, 1.49298, 1.46059, 1.48232, 1.55775, 1.6209, 1.65171, 1.71194, 1.70995, 1.60427, 1.53226, 1.41953, 1.43381, 1.46532, 1.46174, 1.44944, 1.44706, 1.45719, 1.43762, 1.4383, 1.43403, 1.43, 1.4308, 1.42991, 1.42981, 1.4236, 1.42447, 1.42352, 1.4211, 1.41899, 1.41708, 1.41332, 1.4086, 1.40463, 1.40496, 1.40436, 1.40375, 1.4041, 1.40534, 1.40511, 1.40571, 1.40136, 1.39907, 1.39328, 1.38942, 1.38744, 1.38672, 1.38282, 1.37914, 1.37459, 1.374, 1.37309, 1.37171, 1.37012, 1.37127, 1.36985, 1.36622, 1.36364, 1.36169, 1.35649, 1.35419, 1.35208, 1.3548, 1.36023, 1.36172, 1.35493, 1.3626, 1.37779, 1.39127, 1.39571, 1.39808, 1.41842, 1.41696, 1.41481, 1.37101, 1.34031, 1.33214, 1.34435, 1.34121, 1.33028, 1.33088, 1.32449, 1.31706, 1.31524, 1.31328, 1.31411, 1.31251, 1.30963, 1.30578, 
1.67853, 1.66722, 1.66004, 1.65606, 1.66253, 1.65959, 1.67625, 1.65538, 1.6389, 1.63581, 1.63329, 1.63278, 1.6341, 1.62434, 1.60909, 1.62614, 1.67268, 1.6856, 1.70955, 1.73837, 1.73525, 1.79663, 1.78365, 1.75529, 1.58074, 1.57471, 1.59497, 1.5928, 1.58565, 1.57613, 1.57231, 1.57505, 1.57117, 1.56525, 1.55611, 1.55811, 1.5505, 1.57241, 1.55561, 1.54784, 1.55708, 1.55693, 1.5421, 1.53824, 1.54049, 1.53353, 1.53154, 1.52842, 1.52462, 1.52257, 1.51661, 1.51913, 1.51461, 1.51148, 1.50914, 1.50627, 1.50398, 1.50155, 1.50021, 1.50266, 1.49343, 1.49068, 1.48772, 1.49238, 1.48635, 1.49959, 1.45231, 1.51615, 1.57611, 1.63066, 1.66465, 1.70683, 1.70056, 1.65273, 1.54247, 1.44123, 1.43246, 1.4607, 1.46621, 1.44774, 1.44237, 1.44131, 1.43921, 1.43604, 1.44092, 1.44779, 1.427, 1.42785, 1.42437, 1.42264, 1.42253, 1.42079, 1.41819, 1.41601, 1.41352, 1.41343, 1.40788, 1.41405, 1.40371, 1.40493, 1.40303, 1.40603, 1.40174, 1.4014, 1.40018, 1.39928, 1.39599, 1.39558, 1.39478, 1.39296, 1.38823, 1.38848, 1.38329, 1.3796, 1.37669, 1.37757, 1.37621, 1.37714, 1.37519, 1.3766, 1.37451, 1.36926, 1.36559, 1.36251, 1.35783, 1.35687, 1.35704, 1.35544, 1.35911, 1.36469, 1.39243, 1.39382, 1.42207, 1.42216, 1.41289, 1.41891, 1.43049, 1.41322, 1.37443, 1.32054, 1.35097, 1.33724, 1.33555, 1.33015, 1.32769, 1.32206, 1.31986, 1.32123, 1.3197, 1.31297, 1.31553, 1.31083, 1.31978, 
1.67256, 1.66565, 1.6603, 1.65914, 1.66754, 1.66526, 1.66108, 1.6693, 1.64535, 1.64125, 1.63299, 1.63098, 1.62807, 1.62867, 1.61502, 1.6375, 1.66496, 1.68592, 1.70246, 1.77883, 1.76493, 1.76673, 1.72809, 1.67922, 1.61196, 1.5608, 1.59186, 1.58887, 1.59057, 1.57777, 1.57336, 1.57293, 1.57692, 1.56731, 1.5623, 1.55434, 1.55502, 1.5604, 1.56847, 1.56146, 1.54726, 1.54559, 1.55546, 1.54212, 1.53895, 1.53638, 1.53422, 1.53109, 1.52761, 1.53446, 1.52413, 1.52062, 1.51821, 1.51714, 1.51576, 1.51223, 1.5105, 1.50576, 1.50257, 1.49952, 1.49589, 1.50376, 1.49481, 1.4894, 1.48921, 1.49003, 1.49258, 1.50316, 1.55474, 1.60454, 1.65554, 1.69792, 1.69682, 1.62468, 1.55094, 1.47208, 1.44356, 1.46454, 1.46183, 1.45083, 1.44232, 1.44115, 1.44002, 1.43789, 1.44842, 1.43174, 1.43268, 1.4276, 1.42542, 1.42609, 1.42431, 1.42346, 1.43355, 1.41984, 1.41885, 1.41402, 1.41329, 1.41167, 1.40668, 1.40535, 1.40403, 1.40308, 1.40066, 1.40154, 1.40086, 1.39833, 1.39835, 1.39527, 1.39384, 1.39306, 1.38731, 1.3856, 1.38432, 1.38015, 1.38043, 1.37791, 1.37831, 1.37604, 1.37578, 1.39472, 1.38256, 1.37489, 1.37139, 1.37052, 1.36856, 1.3636, 1.3715, 1.36961, 1.36623, 1.35103, 1.35788, 1.37832, 1.39642, 1.40551, 1.40507, 1.44199, 1.45652, 1.41972, 1.4446, 1.34021, 1.33703, 1.357, 1.34813, 1.3321, 1.32856, 1.32797, 1.323, 1.323, 1.32059, 1.31825, 1.31645, 1.31507, 1.31334, 
1.66503, 1.66215, 1.6618, 1.65522, 1.65397, 1.6548, 1.6683, 1.65718, 1.65309, 1.65344, 1.63592, 1.64365, 1.63068, 1.63536, 1.61283, 1.61732, 1.65528, 1.69469, 1.69322, 1.73718, 1.76818, 1.77218, 1.746, 1.6933, 1.65026, 1.58336, 1.59701, 1.59709, 1.58753, 1.58519, 1.58919, 1.5796, 1.57709, 1.57354, 1.572, 1.56518, 1.56687, 1.57126, 1.57544, 1.5854, 1.56494, 1.55409, 1.54347, 1.54187, 1.53873, 1.5361, 1.53524, 1.53379, 1.53331, 1.53085, 1.52637, 1.52304, 1.52101, 1.51754, 1.51439, 1.51216, 1.51081, 1.5083, 1.50278, 1.50229, 1.5004, 1.49698, 1.49513, 1.49524, 1.49422, 1.49391, 1.47501, 1.50428, 1.5402, 1.62514, 1.66983, 1.68597, 1.70397, 1.68238, 1.60295, 1.4638, 1.43567, 1.45494, 1.45586, 1.45139, 1.44779, 1.44455, 1.44343, 1.44165, 1.44044, 1.43814, 1.43599, 1.43015, 1.42871, 1.42862, 1.43348, 1.4247, 1.42296, 1.42158, 1.41713, 1.41755, 1.41486, 1.41307, 1.41237, 1.40899, 1.40557, 1.40732, 1.40421, 1.40294, 1.40227, 1.40234, 1.40129, 1.40168, 1.39749, 1.39475, 1.38838, 1.38591, 1.38675, 1.38409, 1.38145, 1.38005, 1.3786, 1.37717, 1.37511, 1.3751, 1.37381, 1.37049, 1.37139, 1.37145, 1.37193, 1.37087, 1.36801, 1.36763, 1.36623, 1.34537, 1.40968, 1.41031, 1.44427, 1.41958, 1.44777, 1.45794, 1.45532, 1.45142, 1.43225, 1.39953, 1.34743, 1.35192, 1.35503, 1.35348, 1.32732, 1.32383, 1.34099, 1.31967, 1.31878, 1.31867, 1.32953, 1.31695, 1.31465, 
1.68168, 1.66214, 1.65786, 1.66201, 1.66514, 1.65117, 1.64467, 1.65803, 1.66104, 1.6624, 1.64778, 1.64404, 1.64787, 1.64394, 1.627, 1.67774, 1.68671, 1.73513, 1.74959, 1.76277, 1.79741, 1.82442, 1.76126, 1.70699, 1.65121, 1.58255, 1.60661, 1.60958, 1.60579, 1.59987, 1.58815, 1.58556, 1.58104, 1.58608, 1.57424, 1.5723, 1.56952, 1.56579, 1.57248, 1.58121, 1.57541, 1.56205, 1.5536, 1.55636, 1.54145, 1.54553, 1.55535, 1.53652, 1.5351, 1.53146, 1.52835, 1.52635, 1.5234, 1.52178, 1.51816, 1.51533, 1.51273, 1.50984, 1.52417, 1.51429, 1.50403, 1.50275, 1.5018, 1.49881, 1.49919, 1.49819, 1.48243, 1.49723, 1.52722, 1.60361, 1.64078, 1.68247, 1.69252, 1.67225, 1.57996, 1.54143, 1.43816, 1.46639, 1.47694, 1.4781, 1.4561, 1.45265, 1.45423, 1.44464, 1.44457, 1.44243, 1.44002, 1.43789, 1.43526, 1.43472, 1.43248, 1.4307, 1.43045, 1.43106, 1.42878, 1.42747, 1.42315, 1.41973, 1.41735, 1.4165, 1.41437, 1.41421, 1.41023, 1.40805, 1.4073, 1.40622, 1.40412, 1.40177, 1.39917, 1.39701, 1.39276, 1.39007, 1.38943, 1.38531, 1.38842, 1.38532, 1.38991, 1.38839, 1.38044, 1.37988, 1.37905, 1.37756, 1.37702, 1.38583, 1.37219, 1.37127, 1.38477, 1.38085, 1.37883, 1.37354, 1.36195, 1.41944, 1.40624, 1.43216, 1.43627, 1.45569, 1.45838, 1.4555, 1.41906, 1.3638, 1.36348, 1.36732, 1.35799, 1.34073, 1.34428, 1.33016, 1.32866, 1.32742, 1.32388, 1.32145, 1.31959, 1.33659, 1.32686, 
1.67222, 1.66907, 1.66545, 1.66524, 1.66005, 1.65714, 1.65597, 1.65582, 1.6574, 1.65902, 1.659, 1.65007, 1.64845, 1.64803, 1.63441, 1.65189, 1.66442, 1.67243, 1.72381, 1.69507, 1.7755, 1.789, 1.76469, 1.69588, 1.65233, 1.58034, 1.61094, 1.60925, 1.6097, 1.58992, 1.586, 1.58424, 1.5821, 1.58026, 1.58089, 1.57587, 1.57219, 1.57084, 1.56881, 1.58354, 1.56619, 1.56883, 1.57886, 1.54803, 1.54401, 1.54295, 1.54121, 1.53573, 1.53327, 1.53072, 1.5391, 1.52531, 1.52456, 1.52255, 1.52018, 1.51666, 1.51439, 1.51553, 1.50978, 1.50664, 1.50527, 1.50189, 1.50016, 1.49866, 1.50112, 1.50071, 1.50694, 1.48647, 1.55529, 1.59335, 1.55246, 1.70592, 1.70763, 1.69603, 1.584, 1.52253, 1.45047, 1.47941, 1.48282, 1.47218, 1.46618, 1.46162, 1.45766, 1.45229, 1.45687, 1.44546, 1.4421, 1.44032, 1.43765, 1.43442, 1.43386, 1.43231, 1.43181, 1.43115, 1.43, 1.42595, 1.42492, 1.4246, 1.42154, 1.42208, 1.41996, 1.41857, 1.41342, 1.41343, 1.41598, 1.41005, 1.40272, 1.40226, 1.40001, 1.39773, 1.39317, 1.38903, 1.38823, 1.38775, 1.38596, 1.38374, 1.38202, 1.38239, 1.37798, 1.37393, 1.37543, 1.37353, 1.37385, 1.37176, 1.36916, 1.36826, 1.36894, 1.37943, 1.37847, 1.35909, 1.37525, 1.39604, 1.43045, 1.44424, 1.45449, 1.45147, 1.46421, 1.47898, 1.41624, 1.41594, 1.32619, 1.36739, 1.36038, 1.34984, 1.33957, 1.331, 1.33256, 1.32917, 1.32972, 1.32844, 1.32363, 1.32405, 1.32077, 
1.67677, 1.67853, 1.67112, 1.66747, 1.66786, 1.66048, 1.65902, 1.66458, 1.67067, 1.67198, 1.66764, 1.66256, 1.6618, 1.64563, 1.65089, 1.64531, 1.65299, 1.67493, 1.74055, 1.75178, 1.78707, 1.78643, 1.76839, 1.7229, 1.62703, 1.58275, 1.62292, 1.61684, 1.60213, 1.60926, 1.58727, 1.58237, 1.58999, 1.57976, 1.59528, 1.57397, 1.57179, 1.57324, 1.56923, 1.57269, 1.58909, 1.58606, 1.56452, 1.55765, 1.54894, 1.55036, 1.54287, 1.54867, 1.53788, 1.53485, 1.53322, 1.53157, 1.53076, 1.52626, 1.52513, 1.52104, 1.52105, 1.51588, 1.53713, 1.53435, 1.51002, 1.50671, 1.50431, 1.50118, 1.50178, 1.50196, 1.49825, 1.4788, 1.55675, 1.5958, 1.56995, 1.67232, 1.68043, 1.65926, 1.61189, 1.55263, 1.45835, 1.47009, 1.47839, 1.47375, 1.47506, 1.48017, 1.46171, 1.45649, 1.45361, 1.44988, 1.44684, 1.44263, 1.44043, 1.43829, 1.4363, 1.43317, 1.4328, 1.43214, 1.4331, 1.43029, 1.42608, 1.42564, 1.42385, 1.42237, 1.42062, 1.42116, 1.41804, 1.41674, 1.41388, 1.40764, 1.40409, 1.40207, 1.40179, 1.39648, 1.39341, 1.39309, 1.38998, 1.38788, 1.38352, 1.38154, 1.3795, 1.37714, 1.37647, 1.37448, 1.37298, 1.37041, 1.37042, 1.37101, 1.36879, 1.3843, 1.37031, 1.37533, 1.38168, 1.35054, 1.39226, 1.39347, 1.40332, 1.48193, 1.45257, 1.45879, 1.46884, 1.44394, 1.42842, 1.3894, 1.33651, 1.35216, 1.36121, 1.33891, 1.33353, 1.33328, 1.33332, 1.32938, 1.32773, 1.32899, 1.32448, 1.3242, 1.34019, 
1.67717, 1.67329, 1.67258, 1.66925, 1.66702, 1.66243, 1.65903, 1.67177, 1.6644, 1.67226, 1.67268, 1.63819, 1.6546, 1.66094, 1.63463, 1.63847, 1.64204, 1.745, 1.78953, 1.8032, 1.86912, 1.80665, 1.77947, 1.69264, 1.6688, 1.58926, 1.61351, 1.60625, 1.60311, 1.59031, 1.59114, 1.5855, 1.59305, 1.58021, 1.57694, 1.58457, 1.57299, 1.57296, 1.57472, 1.58934, 1.58205, 1.62461, 1.60744, 1.55657, 1.55257, 1.55721, 1.54592, 1.55864, 1.55075, 1.53986, 1.53563, 1.53552, 1.53165, 1.52952, 1.5251, 1.52241, 1.52659, 1.51702, 1.51655, 1.51474, 1.5318, 1.50619, 1.50572, 1.52546, 1.50256, 1.50457, 1.50188, 1.47195, 1.55437, 1.6247, 1.57279, 1.70279, 1.70034, 1.71852, 1.62043, 1.5436, 1.45715, 1.4725, 1.48254, 1.48461, 1.47311, 1.47174, 1.46306, 1.46026, 1.45658, 1.45391, 1.45204, 1.44842, 1.44561, 1.44311, 1.43975, 1.43857, 1.43578, 1.43508, 1.43465, 1.43086, 1.4295, 1.42741, 1.42282, 1.42274, 1.42312, 1.42149, 1.42017, 1.41791, 1.41434, 1.41513, 1.41029, 1.40742, 1.40573, 1.40256, 1.39899, 1.39574, 1.39261, 1.38998, 1.38883, 1.38506, 1.38262, 1.38135, 1.3791, 1.37698, 1.37511, 1.37365, 1.37271, 1.37622, 1.37557, 1.37781, 1.38846, 1.3781, 1.38217, 1.36112, 1.41204, 1.48551, 1.49237, 1.45707, 1.47084, 1.46778, 1.46758, 1.4253, 1.41797, 1.38766, 1.33966, 1.34971, 1.34995, 1.35106, 1.34337, 1.33845, 1.33695, 1.33266, 1.32949, 1.32968, 1.32478, 1.34785, 1.3282, 
1.68315, 1.68147, 1.67537, 1.67304, 1.67132, 1.66424, 1.65903, 1.65911, 1.65834, 1.68378, 1.68165, 1.67788, 1.65496, 1.65404, 1.6348, 1.63389, 1.64419, 1.68485, 1.74497, 1.7795, 1.80815, 1.81814, 1.82433, 1.71681, 1.65571, 1.58399, 1.61053, 1.60874, 1.59864, 1.59616, 1.59244, 1.59181, 1.58595, 1.58492, 1.58897, 1.58203, 1.57809, 1.57455, 1.57292, 1.57849, 1.59275, 1.59596, 1.58235, 1.56904, 1.57202, 1.56242, 1.55777, 1.54609, 1.55506, 1.54263, 1.54144, 1.53721, 1.53639, 1.53336, 1.53093, 1.5323, 1.52472, 1.5215, 1.52029, 1.51735, 1.52841, 1.5129, 1.51014, 1.51764, 1.51724, 1.51051, 1.51734, 1.48541, 1.54622, 1.57728, 1.63457, 1.66493, 1.66676, 1.66103, 1.62754, 1.5503, 1.45804, 1.48606, 1.47895, 1.479, 1.47491, 1.47438, 1.47007, 1.46768, 1.46591, 1.46235, 1.45691, 1.45468, 1.44957, 1.44519, 1.44575, 1.44997, 1.4432, 1.44069, 1.43919, 1.43685, 1.43247, 1.43142, 1.42961, 1.42784, 1.4257, 1.423, 1.42185, 1.41914, 1.41605, 1.41327, 1.41234, 1.41045, 1.40966, 1.40553, 1.39987, 1.39828, 1.3949, 1.39178, 1.39106, 1.38988, 1.38708, 1.38778, 1.38614, 1.38243, 1.37959, 1.37906, 1.38044, 1.3791, 1.37765, 1.39999, 1.38344, 1.38731, 1.38857, 1.39911, 1.36353, 1.43986, 1.46183, 1.50763, 1.46681, 1.46934, 1.47647, 1.48926, 1.45891, 1.38172, 1.34757, 1.36409, 1.3442, 1.35409, 1.33833, 1.33775, 1.33702, 1.33781, 1.33419, 1.33142, 1.33362, 1.32974, 1.33004, 
1.67788, 1.67711, 1.67514, 1.67103, 1.66768, 1.66406, 1.66197, 1.67688, 1.66497, 1.66531, 1.67549, 1.66928, 1.6516, 1.65722, 1.63862, 1.65371, 1.69029, 1.73556, 1.74841, 1.78234, 1.81687, 1.80673, 1.80037, 1.71839, 1.62744, 1.59574, 1.6232, 1.61022, 1.60302, 1.59911, 1.59582, 1.5953, 1.59015, 1.59007, 1.58614, 1.58323, 1.58175, 1.5795, 1.57677, 1.57403, 1.57395, 1.57453, 1.58623, 1.56626, 1.55501, 1.55242, 1.55059, 1.54958, 1.54668, 1.54693, 1.54429, 1.54125, 1.54089, 1.5364, 1.53395, 1.53097, 1.52468, 1.52403, 1.52277, 1.51897, 1.51897, 1.51474, 1.51562, 1.51287, 1.52323, 1.51675, 1.52044, 1.48504, 1.5456, 1.58201, 1.63079, 1.68577, 1.6892, 1.68626, 1.63873, 1.56617, 1.50951, 1.47873, 1.48623, 1.49167, 1.48273, 1.48159, 1.46885, 1.46484, 1.47109, 1.46272, 1.45902, 1.45587, 1.45866, 1.45183, 1.45035, 1.44747, 1.44821, 1.44607, 1.44175, 1.43985, 1.43645, 1.43419, 1.43029, 1.43017, 1.42734, 1.42616, 1.42471, 1.42291, 1.42262, 1.41982, 1.41702, 1.414, 1.41014, 1.40689, 1.40306, 1.4022, 1.39921, 1.39768, 1.39483, 1.39438, 1.39206, 1.39175, 1.39037, 1.38885, 1.38598, 1.38568, 1.38606, 1.39403, 1.38457, 1.3923, 1.39283, 1.39034, 1.39861, 1.36898, 1.41104, 1.44047, 1.45114, 1.46761, 1.46736, 1.48453, 1.48511, 1.45069, 1.43768, 1.39501, 1.34104, 1.35206, 1.35257, 1.35879, 1.34127, 1.34132, 1.34315, 1.34141, 1.34771, 1.3478, 1.33741, 1.33934, 1.3364, 
1.69151, 1.67502, 1.6866, 1.67154, 1.66393, 1.65982, 1.65868, 1.6555, 1.65316, 1.65201, 1.66838, 1.67553, 1.66805, 1.6419, 1.64797, 1.62203, 1.68602, 1.71352, 1.72842, 1.81436, 1.82008, 1.82803, 1.78986, 1.77604, 1.63097, 1.61056, 1.60978, 1.60549, 1.60408, 1.59703, 1.60872, 1.59093, 1.59166, 1.59979, 1.60663, 1.5821, 1.57826, 1.57604, 1.57274, 1.57863, 1.57073, 1.58334, 1.57594, 1.57002, 1.57218, 1.55478, 1.55118, 1.54774, 1.54595, 1.54404, 1.54346, 1.54136, 1.53797, 1.53447, 1.53179, 1.52636, 1.52256, 1.51899, 1.51496, 1.51292, 1.51164, 1.50978, 1.50741, 1.50771, 1.50885, 1.50987, 1.52657, 1.48196, 1.50703, 1.49296, 1.65072, 1.66997, 1.68943, 1.67558, 1.67233, 1.55204, 1.45113, 1.44706, 1.48615, 1.47226, 1.46813, 1.47533, 1.46721, 1.46393, 1.45738, 1.44463, 1.45266, 1.45095, 1.45739, 1.44829, 1.44581, 1.44343, 1.44162, 1.4394, 1.43678, 1.43781, 1.43627, 1.43377, 1.43236, 1.43097, 1.4286, 1.429, 1.4242, 1.42419, 1.42191, 1.42015, 1.41752, 1.4164, 1.41537, 1.41231, 1.40973, 1.40655, 1.41171, 1.4028, 1.40071, 1.39688, 1.39551, 1.39129, 1.39153, 1.41251, 1.38696, 1.38519, 1.3859, 1.38361, 1.38341, 1.38203, 1.39311, 1.39181, 1.38622, 1.37531, 1.40273, 1.44384, 1.46841, 1.48826, 1.48155, 1.48683, 1.49154, 1.47573, 1.43447, 1.42389, 1.36917, 1.3473, 1.37043, 1.34945, 1.34323, 1.34673, 1.34452, 1.34376, 1.34269, 1.34097, 1.34138, 1.33728, 1.33504, 
1.68322, 1.67825, 1.67951, 1.67281, 1.66903, 1.66573, 1.66267, 1.65888, 1.65482, 1.65549, 1.66429, 1.68408, 1.66991, 1.65966, 1.6401, 1.61914, 1.66935, 1.70317, 1.72773, 1.76881, 1.83825, 1.83512, 1.81588, 1.72374, 1.66444, 1.59163, 1.6167, 1.60841, 1.59999, 1.59955, 1.58705, 1.59234, 1.58714, 1.58477, 1.58025, 1.57755, 1.57528, 1.57519, 1.57249, 1.57073, 1.57875, 1.56561, 1.57685, 1.56548, 1.57146, 1.57315, 1.56796, 1.54362, 1.55018, 1.54152, 1.5416, 1.54257, 1.53529, 1.5305, 1.52914, 1.53458, 1.52025, 1.51477, 1.51437, 1.52369, 1.50676, 1.50501, 1.50402, 1.51402, 1.50443, 1.50906, 1.45102, 1.48646, 1.52044, 1.58515, 1.64242, 1.69007, 1.69997, 1.63278, 1.64067, 1.54011, 1.49618, 1.45885, 1.47806, 1.47883, 1.47089, 1.46232, 1.46031, 1.46382, 1.45066, 1.45128, 1.45777, 1.44491, 1.44414, 1.44118, 1.44345, 1.44025, 1.4384, 1.43548, 1.4333, 1.43245, 1.43159, 1.4322, 1.43042, 1.42925, 1.42738, 1.42641, 1.42512, 1.42126, 1.42064, 1.41885, 1.41921, 1.42109, 1.41652, 1.41282, 1.41148, 1.40857, 1.40912, 1.40386, 1.40012, 1.40054, 1.39557, 1.3932, 1.40349, 1.41954, 1.40875, 1.3849, 1.38616, 1.39535, 1.39609, 1.38907, 1.39181, 1.3995, 1.38257, 1.37502, 1.38628, 1.39498, 1.44839, 1.46515, 1.53348, 1.49222, 1.49533, 1.48619, 1.45492, 1.39625, 1.3473, 1.36073, 1.36713, 1.34866, 1.35018, 1.35985, 1.34499, 1.34653, 1.34328, 1.34098, 1.3367, 1.36111, 1.33174, 
1.68422, 1.68107, 1.6767, 1.67481, 1.67255, 1.66877, 1.66385, 1.66105, 1.65886, 1.65715, 1.65456, 1.66473, 1.66613, 1.65986, 1.64972, 1.63117, 1.6408, 1.65462, 1.72771, 1.77393, 1.81536, 1.82988, 1.8184, 1.74448, 1.69017, 1.60554, 1.61358, 1.61022, 1.59649, 1.56863, 1.59089, 1.58938, 1.59152, 1.58709, 1.58396, 1.57866, 1.57829, 1.57552, 1.57302, 1.56991, 1.56542, 1.5628, 1.56152, 1.56498, 1.5692, 1.56715, 1.54848, 1.54282, 1.54132, 1.54244, 1.54257, 1.54069, 1.53971, 1.5338, 1.52692, 1.52307, 1.51693, 1.51207, 1.50539, 1.50922, 1.49846, 1.50489, 1.50084, 1.5062, 1.50262, 1.52374, 1.50655, 1.48714, 1.54566, 1.60564, 1.65794, 1.68026, 1.62721, 1.6415, 1.6514, 1.59961, 1.47204, 1.45544, 1.49206, 1.47542, 1.47603, 1.46397, 1.46807, 1.45492, 1.4509, 1.45039, 1.4476, 1.447, 1.44486, 1.44363, 1.44202, 1.43861, 1.43614, 1.4328, 1.4333, 1.42929, 1.42803, 1.43187, 1.43119, 1.429, 1.42678, 1.42312, 1.42215, 1.41936, 1.4185, 1.41703, 1.41389, 1.41632, 1.41258, 1.40732, 1.4054, 1.40871, 1.40233, 1.39834, 1.39588, 1.39162, 1.39113, 1.39218, 1.38523, 1.38662, 1.38513, 1.38341, 1.38329, 1.38452, 1.37966, 1.3811, 1.37782, 1.37774, 1.37836, 1.37127, 1.40651, 1.43297, 1.47288, 1.48311, 1.49301, 1.54787, 1.50428, 1.54721, 1.46997, 1.43903, 1.37121, 1.32623, 1.36797, 1.35791, 1.35001, 1.34532, 1.3435, 1.34132, 1.34016, 1.33695, 1.33533, 1.33105, 1.33096, 
1.69682, 1.69393, 1.6895, 1.68738, 1.68496, 1.68373, 1.67952, 1.67722, 1.67455, 1.67239, 1.66872, 1.67484, 1.67912, 1.68653, 1.67453, 1.61922, 1.64442, 1.64779, 1.74245, 1.79653, 1.85531, 1.87188, 1.85253, 1.77445, 1.67164, 1.61068, 1.62128, 1.61656, 1.60769, 1.60908, 1.60787, 1.62639, 1.59769, 1.59677, 1.59247, 1.59101, 1.58921, 1.59017, 1.58776, 1.58189, 1.57494, 1.57544, 1.57225, 1.5677, 1.57114, 1.58275, 1.57271, 1.56885, 1.57553, 1.55561, 1.54932, 1.54501, 1.54447, 1.54311, 1.54062, 1.5338, 1.52997, 1.52899, 1.52648, 1.52397, 1.52136, 1.51749, 1.5185, 1.51516, 1.52893, 1.52687, 1.53666, 1.49321, 1.55154, 1.58246, 1.61948, 1.64089, 1.65093, 1.64403, 1.6387, 1.54711, 1.49594, 1.45987, 1.46923, 1.49276, 1.48439, 1.48575, 1.48085, 1.46925, 1.47522, 1.46008, 1.45891, 1.4589, 1.45692, 1.45416, 1.45054, 1.44659, 1.4415, 1.43765, 1.43619, 1.43919, 1.43789, 1.44206, 1.44357, 1.4381, 1.43154, 1.42976, 1.42618, 1.42645, 1.42623, 1.42718, 1.42421, 1.42277, 1.41846, 1.41204, 1.40943, 1.40695, 1.40651, 1.40934, 1.40854, 1.40734, 1.40183, 1.39597, 1.39646, 1.39773, 1.39197, 1.38673, 1.38615, 1.38644, 1.38689, 1.38681, 1.38528, 1.38897, 1.38645, 1.36503, 1.39211, 1.4071, 1.45365, 1.48506, 1.52023, 1.52041, 1.52099, 1.51387, 1.47561, 1.46561, 1.34934, 1.37613, 1.37225, 1.36416, 1.36202, 1.35794, 1.34754, 1.34747, 1.35079, 1.34965, 1.3496, 1.34482, 1.33943, 
1.69253, 1.68781, 1.68202, 1.67402, 1.66848, 1.67508, 1.66683, 1.6815, 1.66769, 1.67083, 1.66701, 1.67233, 1.67095, 1.66812, 1.66827, 1.63728, 1.68041, 1.74668, 1.72244, 1.80319, 1.83446, 1.8555, 1.85456, 1.79376, 1.67154, 1.60643, 1.61327, 1.62312, 1.61956, 1.61651, 1.61621, 1.59587, 1.58899, 1.58505, 1.58924, 1.58033, 1.58324, 1.58188, 1.57592, 1.5694, 1.57807, 1.56658, 1.57443, 1.56565, 1.56839, 1.57094, 1.58516, 1.57476, 1.55538, 1.55207, 1.54171, 1.53993, 1.53978, 1.54074, 1.54144, 1.5341, 1.53322, 1.52672, 1.52364, 1.52675, 1.52424, 1.52066, 1.51764, 1.52989, 1.5178, 1.52255, 1.5147, 1.49935, 1.54168, 1.58057, 1.64015, 1.6695, 1.67883, 1.67491, 1.62071, 1.59486, 1.48942, 1.46188, 1.48383, 1.48553, 1.48526, 1.5089, 1.47732, 1.48231, 1.46603, 1.47205, 1.46721, 1.46699, 1.46403, 1.46408, 1.45779, 1.45251, 1.44433, 1.44063, 1.43751, 1.44228, 1.44526, 1.44559, 1.44496, 1.45221, 1.44427, 1.43583, 1.42766, 1.42687, 1.42736, 1.42608, 1.42243, 1.41957, 1.41764, 1.41586, 1.41346, 1.41102, 1.40711, 1.40661, 1.4064, 1.40271, 1.42298, 1.39985, 1.396, 1.42598, 1.39038, 1.40265, 1.39734, 1.4033, 1.39644, 1.39343, 1.3934, 1.40066, 1.38982, 1.37954, 1.37808, 1.42033, 1.49899, 1.49161, 1.50678, 1.52132, 1.51669, 1.60305, 1.50027, 1.47028, 1.36797, 1.35608, 1.3611, 1.36278, 1.35795, 1.35641, 1.35315, 1.35312, 1.36166, 1.34705, 1.34387, 1.35029, 1.33698, 
1.68949, 1.68648, 1.67807, 1.66729, 1.69189, 1.67194, 1.6803, 1.66336, 1.66825, 1.66985, 1.68013, 1.66545, 1.65495, 1.66226, 1.65238, 1.61784, 1.63081, 1.67789, 1.74975, 1.75612, 1.82896, 1.87333, 1.87876, 1.85096, 1.70846, 1.62295, 1.61867, 1.62262, 1.6152, 1.61092, 1.61051, 1.60555, 1.60687, 1.57337, 1.57008, 1.57976, 1.58274, 1.58228, 1.57549, 1.56746, 1.5577, 1.55536, 1.55732, 1.55737, 1.55579, 1.56521, 1.57885, 1.56148, 1.56215, 1.54683, 1.54578, 1.54779, 1.54611, 1.54286, 1.54065, 1.53584, 1.53357, 1.51722, 1.5154, 1.52969, 1.52251, 1.53271, 1.51087, 1.50883, 1.51675, 1.51904, 1.51676, 1.48979, 1.48578, 1.5687, 1.62579, 1.64458, 1.65377, 1.64929, 1.66303, 1.58174, 1.51817, 1.45048, 1.48002, 1.47757, 1.4786, 1.50312, 1.48637, 1.48481, 1.46618, 1.46713, 1.46851, 1.46271, 1.45189, 1.44693, 1.4464, 1.44011, 1.43648, 1.42857, 1.42628, 1.4305, 1.4419, 1.44482, 1.4371, 1.42802, 1.42031, 1.41268, 1.40742, 1.40518, 1.40675, 1.40732, 1.40555, 1.40389, 1.39955, 1.39907, 1.39969, 1.38845, 1.38489, 1.38465, 1.38451, 1.38663, 1.38721, 1.39165, 1.39609, 1.39527, 1.40614, 1.37813, 1.37783, 1.36895, 1.36845, 1.36959, 1.37081, 1.38272, 1.38301, 1.37503, 1.35766, 1.40936, 1.50011, 1.48686, 1.53822, 1.51982, 1.53339, 1.52879, 1.53788, 1.45841, 1.36439, 1.33753, 1.37603, 1.37155, 1.35189, 1.35072, 1.35068, 1.34693, 1.34669, 1.33396, 1.32266, 1.32109, 1.32019, 
1.69867, 1.68935, 1.69213, 1.68315, 1.68059, 1.68009, 1.67744, 1.67469, 1.67951, 1.6845, 1.66643, 1.67622, 1.65821, 1.64651, 1.64705, 1.6578, 1.62629, 1.69538, 1.73891, 1.82965, 1.90248, 1.89767, 1.89522, 1.77606, 1.68324, 1.59891, 1.62723, 1.63428, 1.62199, 1.61789, 1.61665, 1.60979, 1.62046, 1.59852, 1.59427, 1.59902, 1.59145, 1.58961, 1.58608, 1.58241, 1.5795, 1.57762, 1.57697, 1.59305, 1.57102, 1.57997, 1.58565, 1.57781, 1.58262, 1.56996, 1.55738, 1.55261, 1.55429, 1.5463, 1.54159, 1.54108, 1.54028, 1.55077, 1.54415, 1.54031, 1.53823, 1.52625, 1.53623, 1.53722, 1.52929, 1.52416, 1.53829, 1.5283, 1.52557, 1.59309, 1.64317, 1.6728, 1.67682, 1.6628, 1.65724, 1.60298, 1.50735, 1.46066, 1.48964, 1.48626, 1.4824, 1.51316, 1.51263, 1.48223, 1.47753, 1.48866, 1.48487, 1.46691, 1.46355, 1.45856, 1.45823, 1.45082, 1.44974, 1.44782, 1.44724, 1.47709, 1.44966, 1.44841, 1.44591, 1.44255, 1.43779, 1.43668, 1.43036, 1.42813, 1.4255, 1.42287, 1.43344, 1.41969, 1.43112, 1.41645, 1.41633, 1.41241, 1.40979, 1.40675, 1.409, 1.4075, 1.40889, 1.40645, 1.40573, 1.40582, 1.40181, 1.39836, 1.40429, 1.39234, 1.3936, 1.39932, 1.38958, 1.39641, 1.39616, 1.40866, 1.37165, 1.39862, 1.44956, 1.46262, 1.58375, 1.51967, 1.54762, 1.5279, 1.50996, 1.45598, 1.40318, 1.35818, 1.3707, 1.3781, 1.36869, 1.36887, 1.3584, 1.34949, 1.36346, 1.34631, 1.34593, 1.34452, 1.34316, 
1.68399, 1.67816, 1.67648, 1.6738, 1.67316, 1.671, 1.66988, 1.66864, 1.6695, 1.65977, 1.655, 1.65094, 1.662, 1.65361, 1.65178, 1.62627, 1.61729, 1.69433, 1.72413, 1.78965, 1.8341, 1.90388, 1.924, 1.84738, 1.73832, 1.60685, 1.62085, 1.61656, 1.61314, 1.60483, 1.60188, 1.5937, 1.60295, 1.58673, 1.5916, 1.5969, 1.58265, 1.57512, 1.57628, 1.57503, 1.57283, 1.5699, 1.56475, 1.56286, 1.56338, 1.5607, 1.55784, 1.56399, 1.57793, 1.56534, 1.5423, 1.53771, 1.54496, 1.53295, 1.53309, 1.5305, 1.53085, 1.5347, 1.5245, 1.52385, 1.52327, 1.51989, 1.52004, 1.51303, 1.51365, 1.51414, 1.51837, 1.49983, 1.52634, 1.57984, 1.59643, 1.65072, 1.66157, 1.66929, 1.62958, 1.59572, 1.52705, 1.45236, 1.46449, 1.47869, 1.49106, 1.49006, 1.479, 1.48911, 1.4641, 1.46466, 1.46423, 1.45205, 1.44745, 1.44275, 1.44299, 1.44203, 1.44356, 1.44303, 1.44225, 1.44027, 1.43772, 1.4362, 1.43455, 1.43397, 1.43154, 1.42953, 1.42841, 1.4238, 1.42344, 1.4215, 1.41875, 1.41703, 1.41479, 1.41223, 1.40755, 1.40544, 1.40266, 1.40093, 1.39753, 1.39519, 1.39335, 1.39349, 1.39234, 1.39147, 1.38968, 1.3894, 1.38865, 1.40383, 1.39858, 1.38582, 1.38515, 1.38955, 1.38479, 1.38842, 1.3748, 1.39509, 1.45155, 1.47584, 1.4966, 1.51599, 1.52272, 1.5165, 1.50666, 1.4585, 1.36501, 1.34872, 1.36435, 1.37482, 1.36152, 1.34965, 1.34341, 1.3407, 1.34453, 1.35142, 1.33755, 1.33781, 1.33979, 
1.67493, 1.67127, 1.67115, 1.66543, 1.66287, 1.6621, 1.66136, 1.65899, 1.6635, 1.66691, 1.64785, 1.64427, 1.64526, 1.64783, 1.65445, 1.6386, 1.64797, 1.64632, 1.74079, 1.77674, 1.80669, 1.8516, 1.87995, 1.81756, 1.73285, 1.59985, 1.60694, 1.61039, 1.60723, 1.59283, 1.59807, 1.58533, 1.58964, 1.57952, 1.58637, 1.57232, 1.56752, 1.57155, 1.56144, 1.56125, 1.55931, 1.55728, 1.55405, 1.55188, 1.55523, 1.55816, 1.56142, 1.54591, 1.54595, 1.56594, 1.55415, 1.5304, 1.532, 1.53385, 1.52495, 1.53314, 1.51984, 1.51806, 1.51533, 1.51098, 1.51137, 1.50575, 1.50543, 1.5008, 1.49998, 1.50578, 1.50857, 1.50601, 1.48254, 1.60292, 1.60696, 1.60585, 1.63393, 1.639, 1.61387, 1.55539, 1.52439, 1.46879, 1.45348, 1.47514, 1.47487, 1.46606, 1.48268, 1.49632, 1.47088, 1.4488, 1.44788, 1.44494, 1.45755, 1.43928, 1.43886, 1.43859, 1.43893, 1.44003, 1.44004, 1.43748, 1.4314, 1.42761, 1.42642, 1.42484, 1.42028, 1.41823, 1.41636, 1.41941, 1.42104, 1.41674, 1.40856, 1.40548, 1.40019, 1.39941, 1.39611, 1.3953, 1.39553, 1.38922, 1.39586, 1.38493, 1.38482, 1.38488, 1.38445, 1.39263, 1.38127, 1.38262, 1.38031, 1.37671, 1.37823, 1.38272, 1.37298, 1.3759, 1.38215, 1.39193, 1.37317, 1.38661, 1.44514, 1.46457, 1.48639, 1.52296, 1.53545, 1.58088, 1.50961, 1.50566, 1.39351, 1.35773, 1.36011, 1.35503, 1.36155, 1.33652, 1.3379, 1.34312, 1.33063, 1.33092, 1.33108, 1.33291, 1.33131, 
1.69198, 1.68385, 1.6808, 1.67914, 1.67285, 1.6687, 1.66521, 1.66931, 1.65844, 1.66105, 1.65363, 1.65375, 1.64529, 1.64594, 1.65809, 1.63887, 1.62547, 1.65918, 1.70116, 1.76237, 1.83508, 1.89633, 1.91099, 1.81671, 1.70734, 1.59012, 1.61633, 1.61811, 1.61736, 1.61722, 1.60373, 1.60574, 1.60696, 1.58827, 1.59305, 1.59058, 1.58598, 1.57526, 1.57277, 1.56907, 1.56488, 1.56295, 1.55879, 1.57649, 1.55374, 1.55118, 1.55427, 1.5497, 1.55074, 1.56516, 1.55493, 1.55481, 1.53664, 1.54224, 1.53433, 1.53146, 1.52751, 1.52404, 1.52551, 1.53694, 1.51937, 1.51009, 1.5136, 1.50717, 1.50562, 1.50809, 1.51064, 1.51727, 1.48688, 1.56369, 1.60667, 1.6115, 1.65028, 1.64404, 1.59931, 1.58256, 1.5419, 1.48685, 1.47158, 1.48678, 1.48124, 1.48118, 1.48152, 1.4794, 1.4813, 1.46125, 1.4591, 1.47143, 1.46187, 1.44679, 1.44644, 1.44406, 1.46828, 1.44158, 1.43658, 1.43658, 1.43477, 1.43324, 1.43807, 1.43022, 1.42706, 1.42439, 1.42425, 1.42249, 1.41987, 1.41802, 1.41703, 1.41101, 1.4079, 1.40562, 1.402, 1.40303, 1.39873, 1.39594, 1.39488, 1.39661, 1.39936, 1.39019, 1.39874, 1.38937, 1.41569, 1.38413, 1.40536, 1.38013, 1.38643, 1.38237, 1.37471, 1.37632, 1.39237, 1.3829, 1.33766, 1.38908, 1.41898, 1.45498, 1.48979, 1.52317, 1.54789, 1.56688, 1.52652, 1.47741, 1.37216, 1.3551, 1.37482, 1.3688, 1.359, 1.36403, 1.34557, 1.3402, 1.34114, 1.33972, 1.33799, 1.33518, 1.33359, 
1.67618, 1.67236, 1.66811, 1.66533, 1.65951, 1.65851, 1.65628, 1.65234, 1.64836, 1.64249, 1.63766, 1.63438, 1.63262, 1.62707, 1.62502, 1.61782, 1.60361, 1.69321, 1.70999, 1.77024, 1.84811, 1.86855, 1.88821, 1.8247, 1.75247, 1.57557, 1.58041, 1.6055, 1.5927, 1.58649, 1.5837, 1.58166, 1.57793, 1.57461, 1.57274, 1.57001, 1.56826, 1.56577, 1.56562, 1.562, 1.55977, 1.55623, 1.55119, 1.54997, 1.54468, 1.5408, 1.53702, 1.53325, 1.53191, 1.5241, 1.55838, 1.54687, 1.5263, 1.54175, 1.51775, 1.51348, 1.51189, 1.51383, 1.50649, 1.50396, 1.50286, 1.50571, 1.49757, 1.4952, 1.50325, 1.50222, 1.49296, 1.46834, 1.48364, 1.52697, 1.6228, 1.64496, 1.63369, 1.63327, 1.62781, 1.58612, 1.52427, 1.4713, 1.43691, 1.46578, 1.47448, 1.46971, 1.46466, 1.48186, 1.47515, 1.45851, 1.44074, 1.44126, 1.43535, 1.43378, 1.43358, 1.43149, 1.42943, 1.42724, 1.42361, 1.42077, 1.42025, 1.41625, 1.41391, 1.41211, 1.41051, 1.40719, 1.41618, 1.40417, 1.40207, 1.39835, 1.39672, 1.39349, 1.39341, 1.39121, 1.39093, 1.38773, 1.38522, 1.38333, 1.38114, 1.37928, 1.37817, 1.37511, 1.37515, 1.37225, 1.36991, 1.36821, 1.36661, 1.3639, 1.36219, 1.36044, 1.36113, 1.35904, 1.36144, 1.36071, 1.32649, 1.32906, 1.38876, 1.43154, 1.48589, 1.51784, 1.5173, 1.55432, 1.52448, 1.4756, 1.38773, 1.3241, 1.34095, 1.34976, 1.34025, 1.34675, 1.32823, 1.3415, 1.32357, 1.32162, 1.31979, 1.31852, 1.31829, 
1.67007, 1.66587, 1.66472, 1.66151, 1.65877, 1.65811, 1.6522, 1.6492, 1.6489, 1.64457, 1.63818, 1.63688, 1.64712, 1.63765, 1.63386, 1.6264, 1.60051, 1.69386, 1.64286, 1.75882, 1.81256, 1.85573, 1.86684, 1.78442, 1.7351, 1.56801, 1.58965, 1.59607, 1.60297, 1.59926, 1.5842, 1.58155, 1.5763, 1.57343, 1.58225, 1.56803, 1.566, 1.56459, 1.56337, 1.55825, 1.55747, 1.55361, 1.55017, 1.54402, 1.54218, 1.5403, 1.53412, 1.53128, 1.52664, 1.53085, 1.54688, 1.54141, 1.53159, 1.52677, 1.51833, 1.51522, 1.51412, 1.51228, 1.5096, 1.50696, 1.50643, 1.50095, 1.49859, 1.49977, 1.49749, 1.49966, 1.49981, 1.48703, 1.46751, 1.54875, 1.58307, 1.62374, 1.65133, 1.62763, 1.61571, 1.61141, 1.55178, 1.49115, 1.44679, 1.46457, 1.46275, 1.47109, 1.46056, 1.47932, 1.47613, 1.46933, 1.43819, 1.43846, 1.44037, 1.4328, 1.43146, 1.42813, 1.42627, 1.42372, 1.41931, 1.41595, 1.41378, 1.41265, 1.41029, 1.40704, 1.40578, 1.40538, 1.40168, 1.39909, 1.39659, 1.39339, 1.39393, 1.39477, 1.39196, 1.39363, 1.38966, 1.38675, 1.38394, 1.38232, 1.37901, 1.37543, 1.37449, 1.37381, 1.37074, 1.38223, 1.36781, 1.3675, 1.36698, 1.36096, 1.35895, 1.35701, 1.35439, 1.35462, 1.35745, 1.36739, 1.3539, 1.3879, 1.45032, 1.49302, 1.60695, 1.54889, 1.55876, 1.54478, 1.52033, 1.49179, 1.3224, 1.31308, 1.33929, 1.33968, 1.32602, 1.32922, 1.32598, 1.32213, 1.32259, 1.31984, 1.31548, 1.31538, 1.31661, 
1.6681, 1.66275, 1.65873, 1.65387, 1.65079, 1.64752, 1.64511, 1.64291, 1.64075, 1.63802, 1.6354, 1.63445, 1.63417, 1.64124, 1.63155, 1.6286, 1.60704, 1.65398, 1.71455, 1.75731, 1.8382, 1.86892, 1.89952, 1.82356, 1.74413, 1.57694, 1.60694, 1.61045, 1.60552, 1.59895, 1.58553, 1.58052, 1.57622, 1.57253, 1.56883, 1.56434, 1.56276, 1.55965, 1.55435, 1.55601, 1.55793, 1.55552, 1.55147, 1.54821, 1.54259, 1.54249, 1.55526, 1.53768, 1.53445, 1.53082, 1.53032, 1.54379, 1.55493, 1.54969, 1.52166, 1.51747, 1.51637, 1.51956, 1.51269, 1.51337, 1.51084, 1.51008, 1.50508, 1.50118, 1.50641, 1.50244, 1.50214, 1.46924, 1.47091, 1.51469, 1.55863, 1.60226, 1.62015, 1.63071, 1.62436, 1.58508, 1.5431, 1.519, 1.46859, 1.46961, 1.4714, 1.47219, 1.45716, 1.46396, 1.4719, 1.48171, 1.4739, 1.44451, 1.44099, 1.43678, 1.43454, 1.4319, 1.4299, 1.42729, 1.42593, 1.42677, 1.41992, 1.41867, 1.41631, 1.41395, 1.41045, 1.40994, 1.40986, 1.4086, 1.40724, 1.40526, 1.4035, 1.40187, 1.40041, 1.39883, 1.39617, 1.39498, 1.39424, 1.38804, 1.38467, 1.3819, 1.3775, 1.37734, 1.37773, 1.37608, 1.37245, 1.3706, 1.3683, 1.36686, 1.36517, 1.36379, 1.36254, 1.37127, 1.37778, 1.36774, 1.37119, 1.34948, 1.42559, 1.46619, 1.48039, 1.50697, 1.52941, 1.53739, 1.51525, 1.46912, 1.33721, 1.31866, 1.33839, 1.34404, 1.33083, 1.32818, 1.33434, 1.32601, 1.32653, 1.32423, 1.32317, 1.31921, 1.3201, 
1.66441, 1.66129, 1.65782, 1.65466, 1.6538, 1.65365, 1.65247, 1.64125, 1.63857, 1.64205, 1.63237, 1.63275, 1.63374, 1.63399, 1.64066, 1.63012, 1.61434, 1.66309, 1.68861, 1.74772, 1.84669, 1.87857, 1.88594, 1.84007, 1.7621, 1.58556, 1.57487, 1.5972, 1.59494, 1.58583, 1.58197, 1.57674, 1.57368, 1.57793, 1.58622, 1.56371, 1.56178, 1.55778, 1.55285, 1.57167, 1.55723, 1.56004, 1.55132, 1.5444, 1.54126, 1.54063, 1.53736, 1.53217, 1.53186, 1.52989, 1.53479, 1.53301, 1.53167, 1.53437, 1.51712, 1.51451, 1.51285, 1.51074, 1.51228, 1.50281, 1.50241, 1.50014, 1.4977, 1.4941, 1.49625, 1.49915, 1.4968, 1.49099, 1.46891, 1.5142, 1.54712, 1.60227, 1.6124, 1.61245, 1.59793, 1.57105, 1.54179, 1.5299, 1.44089, 1.46209, 1.45895, 1.45561, 1.44622, 1.44551, 1.46523, 1.45746, 1.46515, 1.44714, 1.43485, 1.43342, 1.43231, 1.42968, 1.42613, 1.42681, 1.42741, 1.42539, 1.42257, 1.42237, 1.41206, 1.4129, 1.4125, 1.41552, 1.40853, 1.40813, 1.40839, 1.40708, 1.40507, 1.40542, 1.40116, 1.40217, 1.39268, 1.39151, 1.39121, 1.38864, 1.38425, 1.38225, 1.37997, 1.37733, 1.37437, 1.37256, 1.3721, 1.37065, 1.36901, 1.36803, 1.36695, 1.37579, 1.36804, 1.36071, 1.3633, 1.36511, 1.34725, 1.3668, 1.44404, 1.47886, 1.48177, 1.52908, 1.55061, 1.55045, 1.54689, 1.45922, 1.37175, 1.32668, 1.35445, 1.3483, 1.32938, 1.32638, 1.32605, 1.3249, 1.32301, 1.32225, 1.34719, 1.3213, 1.31827, 
1.67341, 1.67147, 1.66949, 1.66717, 1.66531, 1.66205, 1.65583, 1.66894, 1.65755, 1.64632, 1.64144, 1.64808, 1.63548, 1.63382, 1.63327, 1.6438, 1.61779, 1.60661, 1.71001, 1.7481, 1.83483, 1.8752, 1.91455, 1.88974, 1.77168, 1.57213, 1.58383, 1.61328, 1.59925, 1.59979, 1.5887, 1.5824, 1.58232, 1.57317, 1.58006, 1.56825, 1.5647, 1.56287, 1.56028, 1.55903, 1.55631, 1.55534, 1.55144, 1.54803, 1.54494, 1.54251, 1.53979, 1.53605, 1.53383, 1.53088, 1.53427, 1.52546, 1.53548, 1.53778, 1.53368, 1.5147, 1.51303, 1.51339, 1.50592, 1.52016, 1.51549, 1.51024, 1.49767, 1.49563, 1.50719, 1.50328, 1.49894, 1.47891, 1.46642, 1.51248, 1.54359, 1.56133, 1.61796, 1.67583, 1.60248, 1.58639, 1.56136, 1.47791, 1.464, 1.472, 1.4639, 1.46081, 1.44753, 1.44523, 1.44758, 1.45804, 1.45869, 1.46278, 1.43712, 1.43341, 1.43249, 1.44322, 1.42649, 1.42509, 1.42368, 1.42287, 1.41939, 1.41862, 1.41548, 1.41258, 1.41328, 1.40815, 1.40629, 1.40411, 1.40337, 1.40183, 1.40685, 1.39886, 1.39477, 1.393, 1.38994, 1.38814, 1.38583, 1.38424, 1.38151, 1.37873, 1.37615, 1.37464, 1.37321, 1.37148, 1.37171, 1.37034, 1.36829, 1.3685, 1.37366, 1.36477, 1.36472, 1.37238, 1.3759, 1.37694, 1.36366, 1.3617, 1.40824, 1.45583, 1.49486, 1.52907, 1.55001, 1.54484, 1.52643, 1.42008, 1.39883, 1.34748, 1.34248, 1.3449, 1.34757, 1.32944, 1.33417, 1.32953, 1.3258, 1.32461, 1.32388, 1.32079, 1.3222, 
1.67186, 1.66721, 1.66812, 1.66454, 1.66098, 1.65803, 1.65492, 1.65262, 1.64694, 1.64713, 1.65192, 1.63794, 1.63296, 1.63244, 1.63156, 1.63178, 1.60332, 1.59918, 1.65539, 1.74519, 1.82309, 1.8452, 1.86889, 1.91304, 1.78236, 1.61103, 1.58524, 1.60987, 1.59084, 1.59669, 1.59319, 1.57932, 1.5751, 1.57527, 1.56579, 1.56361, 1.56553, 1.56206, 1.5596, 1.55745, 1.55586, 1.55247, 1.55077, 1.54901, 1.54605, 1.54323, 1.53852, 1.53633, 1.5355, 1.53074, 1.52726, 1.53058, 1.52623, 1.54287, 1.53657, 1.54074, 1.51992, 1.50844, 1.50389, 1.51978, 1.50258, 1.49994, 1.49566, 1.49343, 1.49178, 1.51531, 1.5005, 1.49056, 1.45827, 1.48961, 1.51968, 1.57922, 1.58905, 1.67002, 1.60684, 1.57922, 1.54637, 1.49441, 1.45142, 1.46512, 1.46115, 1.4608, 1.45421, 1.45373, 1.45501, 1.44696, 1.46227, 1.46084, 1.4476, 1.43804, 1.43303, 1.43299, 1.42628, 1.42489, 1.42467, 1.42313, 1.4175, 1.41643, 1.4156, 1.41533, 1.4119, 1.4094, 1.40891, 1.41419, 1.4036, 1.40232, 1.40557, 1.41012, 1.39328, 1.3919, 1.39106, 1.38919, 1.38889, 1.38604, 1.38207, 1.38092, 1.37913, 1.3798, 1.37633, 1.37415, 1.37504, 1.37317, 1.37071, 1.38155, 1.36919, 1.36708, 1.37483, 1.36133, 1.36037, 1.36492, 1.37195, 1.37052, 1.42542, 1.46716, 1.50189, 1.54031, 1.56712, 1.5646, 1.5197, 1.48608, 1.3985, 1.34484, 1.34788, 1.34692, 1.34759, 1.34419, 1.33685, 1.33423, 1.33315, 1.35449, 1.32777, 1.32608, 1.32315, 
1.67096, 1.66682, 1.66273, 1.66167, 1.65893, 1.65612, 1.65391, 1.65148, 1.6462, 1.64755, 1.64066, 1.63772, 1.63567, 1.63331, 1.63205, 1.64458, 1.6297, 1.65171, 1.67289, 1.70546, 1.79383, 1.89662, 1.93371, 1.97698, 1.70059, 1.58344, 1.59282, 1.59737, 1.59911, 1.5999, 1.58175, 1.57787, 1.57467, 1.57209, 1.58869, 1.57129, 1.56702, 1.5663, 1.55951, 1.5584, 1.55694, 1.55384, 1.55088, 1.54903, 1.54513, 1.54258, 1.55548, 1.53663, 1.53331, 1.53055, 1.52766, 1.52462, 1.52448, 1.52151, 1.52711, 1.53513, 1.52163, 1.51014, 1.50767, 1.50574, 1.50952, 1.50156, 1.50019, 1.4976, 1.49592, 1.49739, 1.5035, 1.48693, 1.46053, 1.50455, 1.56311, 1.58085, 1.57954, 1.58486, 1.58958, 1.57919, 1.55243, 1.51081, 1.45322, 1.4715, 1.46966, 1.46292, 1.45116, 1.44728, 1.45752, 1.45492, 1.45761, 1.45788, 1.46521, 1.44008, 1.43651, 1.42723, 1.42543, 1.42492, 1.4224, 1.41978, 1.41614, 1.41531, 1.41581, 1.41455, 1.41454, 1.41097, 1.40937, 1.40786, 1.40526, 1.40211, 1.40568, 1.39711, 1.39416, 1.39336, 1.39077, 1.38614, 1.38289, 1.3823, 1.38036, 1.3816, 1.37843, 1.37618, 1.37395, 1.37363, 1.37377, 1.37218, 1.37087, 1.36809, 1.36515, 1.36532, 1.35938, 1.35693, 1.37067, 1.37673, 1.3582, 1.36178, 1.40868, 1.45107, 1.46803, 1.52038, 1.57358, 1.5535, 1.57801, 1.48952, 1.39633, 1.33343, 1.36512, 1.34827, 1.34354, 1.33992, 1.33787, 1.33396, 1.35361, 1.32927, 1.34745, 1.32479, 1.32071, 
1.67487, 1.66812, 1.66559, 1.66271, 1.65903, 1.65426, 1.65253, 1.64856, 1.64415, 1.64222, 1.64035, 1.65186, 1.63558, 1.64201, 1.64082, 1.6513, 1.635, 1.63389, 1.68634, 1.71817, 1.79983, 1.86807, 1.91519, 1.91184, 1.77088, 1.58477, 1.5955, 1.60182, 1.59717, 1.59063, 1.58723, 1.58354, 1.58724, 1.57836, 1.57483, 1.58144, 1.56795, 1.56544, 1.56181, 1.56054, 1.55813, 1.55566, 1.55351, 1.55174, 1.5492, 1.5467, 1.54434, 1.53943, 1.53661, 1.54011, 1.53018, 1.52771, 1.52505, 1.52355, 1.52772, 1.52657, 1.54569, 1.5282, 1.53084, 1.52323, 1.51881, 1.5075, 1.50984, 1.51051, 1.5, 1.50094, 1.49904, 1.50257, 1.47344, 1.55188, 1.55631, 1.65808, 1.62321, 1.59896, 1.58523, 1.57991, 1.54618, 1.4728, 1.46039, 1.45314, 1.47544, 1.45921, 1.45496, 1.45146, 1.44948, 1.44764, 1.44562, 1.46262, 1.4615, 1.44761, 1.43589, 1.4311, 1.42954, 1.4274, 1.42458, 1.42253, 1.42137, 1.41937, 1.41938, 1.42276, 1.41563, 1.41345, 1.41086, 1.40683, 1.40528, 1.40283, 1.40057, 1.3972, 1.39497, 1.39196, 1.39175, 1.39042, 1.38645, 1.38452, 1.38325, 1.37934, 1.37799, 1.37556, 1.37385, 1.37388, 1.3712, 1.37085, 1.36498, 1.36602, 1.36561, 1.36431, 1.3616, 1.36099, 1.36194, 1.36453, 1.37662, 1.33883, 1.40726, 1.43557, 1.49587, 1.55711, 1.58234, 1.5995, 1.5169, 1.46912, 1.36762, 1.34689, 1.35204, 1.35019, 1.351, 1.34026, 1.34048, 1.33391, 1.33163, 1.33089, 1.32951, 1.32805, 1.32611, 
1.67054, 1.66715, 1.66271, 1.65954, 1.65839, 1.65746, 1.64871, 1.64735, 1.64283, 1.64037, 1.64017, 1.63387, 1.63328, 1.63287, 1.63178, 1.63226, 1.63006, 1.59838, 1.64105, 1.73363, 1.76261, 1.83241, 1.90776, 1.86781, 1.75504, 1.58201, 1.57944, 1.60026, 1.59158, 1.58572, 1.58553, 1.58067, 1.57704, 1.57304, 1.57176, 1.56851, 1.56657, 1.56327, 1.55653, 1.5554, 1.5522, 1.55068, 1.55116, 1.54742, 1.54465, 1.54674, 1.53907, 1.53609, 1.53393, 1.53116, 1.53622, 1.52719, 1.52779, 1.53334, 1.53455, 1.52986, 1.56021, 1.53538, 1.51514, 1.50915, 1.50735, 1.50783, 1.52363, 1.49915, 1.49974, 1.49862, 1.49633, 1.48432, 1.47817, 1.51348, 1.50618, 1.52369, 1.59901, 1.58027, 1.56924, 1.57423, 1.5465, 1.50984, 1.4509, 1.45839, 1.46161, 1.47524, 1.4579, 1.45155, 1.44912, 1.44671, 1.44463, 1.4424, 1.4445, 1.44807, 1.4442, 1.4343, 1.42613, 1.42258, 1.42126, 1.41992, 1.4191, 1.41786, 1.41873, 1.41644, 1.41368, 1.412, 1.41058, 1.40947, 1.40568, 1.41199, 1.40122, 1.39774, 1.3962, 1.39606, 1.39409, 1.39173, 1.39005, 1.41172, 1.38253, 1.37869, 1.37727, 1.37452, 1.37093, 1.36786, 1.3637, 1.36422, 1.36657, 1.36732, 1.3622, 1.36242, 1.36222, 1.35819, 1.36709, 1.36425, 1.36254, 1.34087, 1.41266, 1.42569, 1.49535, 1.53634, 1.60207, 1.6166, 1.62861, 1.54022, 1.37139, 1.32249, 1.34041, 1.34996, 1.33436, 1.32697, 1.32689, 1.33906, 1.33002, 1.32257, 1.32464, 1.32636, 1.31986, 
1.67249, 1.66873, 1.66477, 1.66194, 1.6449, 1.65808, 1.65035, 1.6481, 1.64223, 1.64192, 1.6392, 1.63682, 1.63694, 1.63266, 1.64483, 1.63291, 1.6334, 1.61056, 1.68259, 1.75036, 1.79772, 1.86293, 1.9309, 1.92342, 1.83839, 1.59858, 1.58331, 1.60623, 1.59225, 1.58849, 1.58282, 1.57934, 1.5767, 1.57412, 1.57055, 1.56781, 1.56695, 1.5619, 1.55871, 1.55753, 1.55461, 1.55413, 1.54828, 1.5475, 1.60265, 1.54024, 1.53699, 1.53519, 1.53222, 1.53025, 1.52526, 1.52308, 1.52101, 1.5194, 1.5185, 1.52977, 1.55135, 1.54177, 1.52773, 1.51043, 1.50686, 1.5042, 1.49928, 1.49644, 1.49913, 1.49453, 1.49639, 1.47527, 1.46657, 1.52773, 1.55789, 1.57856, 1.59346, 1.58583, 1.55765, 1.55063, 1.53703, 1.5144, 1.48253, 1.45861, 1.46509, 1.46204, 1.46186, 1.44889, 1.44623, 1.44216, 1.44022, 1.43726, 1.44235, 1.44727, 1.45755, 1.4406, 1.42633, 1.42661, 1.42155, 1.42214, 1.42114, 1.41909, 1.41864, 1.41713, 1.41636, 1.41291, 1.41177, 1.41054, 1.40877, 1.40646, 1.40954, 1.40272, 1.39933, 1.3966, 1.39256, 1.3919, 1.38918, 1.38549, 1.38194, 1.37606, 1.3733, 1.37479, 1.37486, 1.36729, 1.36568, 1.36507, 1.36437, 1.36484, 1.36487, 1.36493, 1.36324, 1.36374, 1.36321, 1.37557, 1.37306, 1.36767, 1.38678, 1.42695, 1.44737, 1.50608, 1.58027, 1.59345, 1.56738, 1.53316, 1.3619, 1.34112, 1.35184, 1.35, 1.3328, 1.33069, 1.33007, 1.32876, 1.32682, 1.32821, 1.32705, 1.32611, 1.32297, 
1.66494, 1.66426, 1.66212, 1.66911, 1.65622, 1.65726, 1.6466, 1.64351, 1.64085, 1.64369, 1.63438, 1.63302, 1.63329, 1.63279, 1.62982, 1.63155, 1.63995, 1.59665, 1.64319, 1.67915, 1.765, 1.89559, 1.95624, 1.95268, 1.7896, 1.58944, 1.59546, 1.59678, 1.59206, 1.60096, 1.58326, 1.59263, 1.58223, 1.57608, 1.57228, 1.56944, 1.56592, 1.56221, 1.55961, 1.55381, 1.55125, 1.55303, 1.54925, 1.54369, 1.55063, 1.53907, 1.53743, 1.53173, 1.52922, 1.52533, 1.53097, 1.51876, 1.51679, 1.51459, 1.51185, 1.51526, 1.52391, 1.542, 1.53054, 1.51307, 1.50635, 1.51229, 1.50546, 1.50538, 1.49389, 1.49619, 1.49275, 1.50598, 1.46634, 1.51185, 1.55898, 1.66109, 1.58511, 1.57002, 1.55848, 1.5612, 1.56097, 1.4997, 1.47061, 1.45825, 1.47599, 1.46481, 1.46133, 1.44825, 1.44438, 1.44272, 1.43955, 1.45115, 1.43474, 1.45072, 1.4412, 1.45051, 1.423, 1.42226, 1.4194, 1.41751, 1.41793, 1.41742, 1.41602, 1.41402, 1.41113, 1.40942, 1.40697, 1.40669, 1.40402, 1.40222, 1.40146, 1.39851, 1.39697, 1.3967, 1.39514, 1.39445, 1.38996, 1.38774, 1.38723, 1.3849, 1.38072, 1.37831, 1.3743, 1.37106, 1.37059, 1.3686, 1.36618, 1.36621, 1.36667, 1.36686, 1.36471, 1.36488, 1.36472, 1.36634, 1.36554, 1.34766, 1.42051, 1.45172, 1.5015, 1.52941, 1.57763, 1.58649, 1.57808, 1.49007, 1.38654, 1.33048, 1.34302, 1.35716, 1.33336, 1.3318, 1.33167, 1.32803, 1.32921, 1.33033, 1.32747, 1.3236, 1.32022, 
1.66979, 1.66452, 1.66197, 1.65821, 1.6551, 1.65349, 1.66137, 1.64457, 1.64664, 1.63654, 1.63396, 1.63258, 1.63369, 1.63358, 1.6311, 1.63548, 1.6303, 1.61914, 1.65091, 1.72878, 1.78567, 1.86875, 1.77246, 2.11845, 1.88435, 1.638, 1.55462, 1.60957, 1.5941, 1.58573, 1.58246, 1.57971, 1.5823, 1.57287, 1.56994, 1.56768, 1.56299, 1.55989, 1.55843, 1.5563, 1.55456, 1.55309, 1.54947, 1.54681, 1.54439, 1.54171, 1.53741, 1.53476, 1.53145, 1.52821, 1.52584, 1.52086, 1.51748, 1.51414, 1.51263, 1.51293, 1.51219, 1.53332, 1.53119, 1.52894, 1.50746, 1.50609, 1.50973, 1.50605, 1.50685, 1.50034, 1.49724, 1.49191, 1.48528, 1.4905, 1.5819, 1.59147, 1.60879, 1.58281, 1.56145, 1.55296, 1.53354, 1.52019, 1.45081, 1.45398, 1.46053, 1.46066, 1.46116, 1.4509, 1.44589, 1.44331, 1.45128, 1.45225, 1.45047, 1.44175, 1.45127, 1.44788, 1.40932, 1.42969, 1.41817, 1.41854, 1.4159, 1.41541, 1.41283, 1.40995, 1.40865, 1.40681, 1.40453, 1.40225, 1.40025, 1.40069, 1.40021, 1.39974, 1.39839, 1.39461, 1.39307, 1.39158, 1.39045, 1.38869, 1.38869, 1.38412, 1.38128, 1.38011, 1.37966, 1.37642, 1.37548, 1.37375, 1.38383, 1.36879, 1.36507, 1.36471, 1.36319, 1.36124, 1.36102, 1.3623, 1.37537, 1.33346, 1.4012, 1.43728, 1.49598, 1.51132, 1.60294, 1.60327, 1.51867, 1.46663, 1.37507, 1.31294, 1.35045, 1.34794, 1.33749, 1.33373, 1.32946, 1.32848, 1.32578, 1.32409, 1.32399, 1.32174, 1.31912, 
1.66603, 1.66495, 1.66171, 1.65554, 1.65113, 1.6469, 1.6432, 1.64317, 1.64243, 1.64416, 1.63769, 1.6369, 1.64327, 1.63276, 1.63468, 1.62842, 1.62798, 1.61236, 1.63828, 1.69783, 1.7711, 1.79018, 1.92897, 1.93302, 1.77261, 1.58616, 1.56814, 1.59863, 1.6098, 1.58893, 1.58818, 1.57484, 1.57346, 1.56883, 1.56876, 1.56519, 1.56426, 1.56254, 1.55981, 1.55676, 1.55425, 1.55141, 1.54892, 1.54754, 1.54487, 1.54177, 1.53873, 1.5368, 1.53322, 1.53038, 1.52614, 1.52122, 1.51894, 1.51678, 1.51417, 1.51091, 1.51015, 1.51604, 1.53047, 1.5234, 1.51594, 1.50402, 1.51601, 1.4971, 1.49267, 1.49234, 1.50383, 1.48575, 1.47555, 1.52194, 1.55827, 1.5724, 1.56923, 1.56284, 1.56617, 1.54629, 1.53637, 1.51307, 1.46299, 1.45507, 1.4632, 1.45932, 1.45259, 1.45063, 1.45102, 1.45041, 1.4581, 1.45157, 1.44986, 1.45531, 1.44563, 1.45145, 1.4248, 1.43365, 1.4207, 1.41732, 1.41659, 1.41552, 1.41289, 1.41094, 1.40981, 1.4061, 1.40382, 1.40055, 1.39988, 1.39842, 1.39888, 1.39684, 1.39489, 1.39602, 1.39242, 1.38873, 1.38526, 1.38357, 1.38269, 1.37893, 1.38749, 1.37817, 1.3785, 1.37769, 1.37465, 1.37416, 1.37348, 1.37325, 1.36725, 1.36532, 1.36581, 1.36147, 1.37035, 1.37226, 1.37172, 1.36912, 1.39809, 1.43723, 1.49824, 1.54455, 1.59442, 1.61574, 1.62738, 1.54575, 1.39162, 1.30477, 1.36089, 1.34706, 1.33821, 1.32976, 1.32741, 1.3281, 1.32722, 1.32415, 1.32248, 1.32167, 1.31788, 
1.66781, 1.6654, 1.66204, 1.65512, 1.65181, 1.6487, 1.6435, 1.64292, 1.64676, 1.63712, 1.63425, 1.63278, 1.63316, 1.6309, 1.62844, 1.63419, 1.62738, 1.62129, 1.63664, 1.70208, 1.75196, 1.81502, 1.95591, 1.94285, 1.89697, 1.57903, 1.57982, 1.59277, 1.59559, 1.58371, 1.57874, 1.57471, 1.57191, 1.56883, 1.56641, 1.56525, 1.56271, 1.56082, 1.55825, 1.55526, 1.55146, 1.54916, 1.54647, 1.53845, 1.53807, 1.53467, 1.53074, 1.53076, 1.52881, 1.52632, 1.52303, 1.52123, 1.51896, 1.51659, 1.51373, 1.51232, 1.50937, 1.50764, 1.50692, 1.51801, 1.52364, 1.51027, 1.50975, 1.50211, 1.49022, 1.50056, 1.4923, 1.4849, 1.46823, 1.49735, 1.53777, 1.58643, 1.56545, 1.56111, 1.53013, 1.53707, 1.52969, 1.52345, 1.48544, 1.45188, 1.46851, 1.45915, 1.45225, 1.45374, 1.4537, 1.45447, 1.43861, 1.46974, 1.48187, 1.46852, 1.45139, 1.43295, 1.4261, 1.44537, 1.41927, 1.41995, 1.41578, 1.41517, 1.41266, 1.41067, 1.40739, 1.40603, 1.4039, 1.40212, 1.40083, 1.40126, 1.39676, 1.39625, 1.39429, 1.39039, 1.38875, 1.38529, 1.38514, 1.38164, 1.38146, 1.37843, 1.37508, 1.37422, 1.374, 1.37438, 1.37441, 1.37225, 1.3706, 1.36868, 1.37201, 1.36176, 1.36085, 1.35905, 1.35698, 1.35813, 1.36373, 1.3452, 1.36487, 1.4234, 1.45296, 1.56105, 1.58573, 1.62929, 1.61338, 1.55829, 1.38859, 1.31548, 1.33403, 1.33479, 1.33294, 1.33162, 1.3295, 1.32869, 1.32651, 1.32387, 1.32189, 1.31986, 1.31868, 
1.67253, 1.66886, 1.67453, 1.69708, 1.65946, 1.6566, 1.65386, 1.64948, 1.65114, 1.64401, 1.63904, 1.65108, 1.64022, 1.63821, 1.64201, 1.6336, 1.62795, 1.61684, 1.64358, 1.66692, 1.76683, 1.79461, 1.86018, 1.88483, 1.73342, 1.64775, 1.56032, 1.58592, 1.59219, 1.58903, 1.58982, 1.57937, 1.57511, 1.57301, 1.57512, 1.57469, 1.56281, 1.5697, 1.56102, 1.56808, 1.55051, 1.54897, 1.54384, 1.54194, 1.53583, 1.53327, 1.531, 1.52851, 1.52727, 1.52405, 1.52225, 1.52111, 1.51987, 1.51961, 1.51813, 1.51761, 1.51586, 1.51246, 1.51305, 1.50501, 1.55352, 1.54419, 1.5232, 1.50895, 1.50631, 1.52287, 1.49747, 1.47508, 1.46841, 1.48588, 1.54091, 1.55244, 1.55149, 1.55091, 1.53603, 1.5401, 1.54008, 1.52024, 1.46782, 1.43393, 1.44844, 1.44769, 1.47333, 1.47522, 1.47839, 1.482, 1.48305, 1.48921, 1.48218, 1.47152, 1.43784, 1.44516, 1.43015, 1.42581, 1.42403, 1.42093, 1.41961, 1.43387, 1.41409, 1.40961, 1.40716, 1.40388, 1.40201, 1.4014, 1.39941, 1.39778, 1.39701, 1.39577, 1.39391, 1.38957, 1.38726, 1.38564, 1.38379, 1.38331, 1.38135, 1.38065, 1.37868, 1.37753, 1.37572, 1.37585, 1.37435, 1.37108, 1.36982, 1.36722, 1.36536, 1.36263, 1.36102, 1.37502, 1.36898, 1.35808, 1.37408, 1.35436, 1.36779, 1.40915, 1.47841, 1.55076, 1.59593, 1.61635, 1.60919, 1.45957, 1.39231, 1.31791, 1.34182, 1.34106, 1.33454, 1.33297, 1.332, 1.35378, 1.32764, 1.32561, 1.32355, 1.32227, 1.3199, 
1.6662, 1.66558, 1.66335, 1.65905, 1.65636, 1.65353, 1.65106, 1.64698, 1.64519, 1.64169, 1.63823, 1.63754, 1.62958, 1.6271, 1.62141, 1.63448, 1.62507, 1.62622, 1.60386, 1.67938, 1.78237, 1.86615, 1.92686, 1.93696, 1.84199, 1.59381, 1.55513, 1.60601, 1.5896, 1.60654, 1.58657, 1.58177, 1.57548, 1.57243, 1.56857, 1.5654, 1.56073, 1.55617, 1.5517, 1.58488, 1.55499, 1.54537, 1.54037, 1.53852, 1.52865, 1.52748, 1.52428, 1.52247, 1.52169, 1.51759, 1.51764, 1.51653, 1.51448, 1.51454, 1.51261, 1.51199, 1.50961, 1.50858, 1.51253, 1.50926, 1.52785, 1.55411, 1.54839, 1.53316, 1.52249, 1.50679, 1.49722, 1.49586, 1.47153, 1.49581, 1.52052, 1.53812, 1.55437, 1.54653, 1.53336, 1.54736, 1.54639, 1.53716, 1.49436, 1.46781, 1.49579, 1.49479, 1.49612, 1.48999, 1.49589, 1.48829, 1.46805, 1.46074, 1.44813, 1.45776, 1.43577, 1.43103, 1.42782, 1.42405, 1.42254, 1.42031, 1.41701, 1.41305, 1.41216, 1.41032, 1.40793, 1.40543, 1.40214, 1.40035, 1.39754, 1.3959, 1.39424, 1.39164, 1.39019, 1.38876, 1.38475, 1.38435, 1.38451, 1.3797, 1.3794, 1.377, 1.37628, 1.37387, 1.37202, 1.37161, 1.37019, 1.36733, 1.3655, 1.36179, 1.36133, 1.3608, 1.35789, 1.35453, 1.35484, 1.35352, 1.35894, 1.35244, 1.32674, 1.40537, 1.47506, 1.5521, 1.59434, 1.6276, 1.62451, 1.53577, 1.36229, 1.33291, 1.34385, 1.34502, 1.33034, 1.32809, 1.32761, 1.32537, 1.32489, 1.32289, 1.32063, 1.31848, 1.3168, 
1.66252, 1.65862, 1.65421, 1.65235, 1.64814, 1.65841, 1.65101, 1.64944, 1.64921, 1.64553, 1.64233, 1.63765, 1.63382, 1.63336, 1.63467, 1.62483, 1.62214, 1.62359, 1.6147, 1.69589, 1.73169, 1.86993, 1.86463, 2.00546, 1.7696, 1.58223, 1.566, 1.61274, 1.59524, 1.59626, 1.59853, 1.59883, 1.59332, 1.5949, 1.6001, 1.58606, 1.58596, 1.56611, 1.56204, 1.56696, 1.55906, 1.55079, 1.5474, 1.54383, 1.54007, 1.53724, 1.53534, 1.5299, 1.528, 1.52464, 1.52262, 1.52076, 1.51694, 1.5165, 1.51447, 1.51197, 1.5078, 1.50779, 1.52038, 1.51334, 1.52017, 1.52061, 1.54437, 1.56554, 1.55232, 1.50582, 1.48446, 1.48558, 1.48225, 1.47445, 1.53036, 1.54429, 1.55002, 1.53055, 1.49857, 1.52967, 1.53364, 1.51768, 1.49618, 1.46184, 1.47497, 1.46823, 1.46907, 1.45511, 1.45752, 1.45449, 1.4538, 1.46445, 1.44689, 1.44962, 1.43965, 1.43916, 1.42685, 1.42463, 1.42225, 1.42019, 1.41811, 1.41424, 1.41239, 1.41013, 1.40969, 1.40621, 1.40548, 1.40314, 1.40123, 1.39877, 1.39734, 1.39471, 1.39381, 1.39022, 1.39097, 1.38991, 1.38794, 1.38668, 1.38591, 1.38326, 1.38166, 1.378, 1.37521, 1.37446, 1.3712, 1.3697, 1.36744, 1.36475, 1.36458, 1.35865, 1.35707, 1.35505, 1.35411, 1.35668, 1.36063, 1.35762, 1.34717, 1.39233, 1.47858, 1.57164, 1.60971, 1.63421, 1.62844, 1.4741, 1.37597, 1.31626, 1.33767, 1.3434, 1.3333, 1.32943, 1.32705, 1.32687, 1.32598, 1.32343, 1.32224, 1.32136, 1.31972, 
1.66177, 1.65939, 1.65572, 1.65224, 1.6514, 1.6501, 1.65406, 1.65058, 1.64815, 1.64389, 1.64032, 1.64363, 1.63282, 1.62737, 1.62607, 1.62166, 1.63448, 1.62422, 1.62698, 1.67506, 1.73022, 1.83458, 1.95952, 1.9753, 1.76852, 1.57709, 1.5923, 1.62007, 1.60426, 1.61386, 1.5963, 1.60844, 1.58571, 1.5886, 1.5861, 1.5917, 1.56943, 1.56489, 1.56089, 1.55501, 1.55144, 1.54775, 1.5443, 1.54108, 1.53767, 1.53431, 1.53167, 1.52841, 1.52294, 1.52251, 1.52147, 1.51881, 1.51735, 1.51672, 1.51353, 1.51256, 1.507, 1.50405, 1.50612, 1.51343, 1.5028, 1.50235, 1.50219, 1.51071, 1.51675, 1.5151, 1.51804, 1.52312, 1.4873, 1.48579, 1.52749, 1.55978, 1.55166, 1.53454, 1.50295, 1.51041, 1.52861, 1.52549, 1.49725, 1.46297, 1.46932, 1.47002, 1.45996, 1.45013, 1.44756, 1.44479, 1.43957, 1.44418, 1.43669, 1.43201, 1.42952, 1.42477, 1.42233, 1.42355, 1.42288, 1.42111, 1.41599, 1.41397, 1.41241, 1.41176, 1.4095, 1.40789, 1.40601, 1.40625, 1.40426, 1.40031, 1.3984, 1.3946, 1.39417, 1.39052, 1.39173, 1.39062, 1.38604, 1.38602, 1.38178, 1.38485, 1.38105, 1.37863, 1.37578, 1.37152, 1.37041, 1.36809, 1.36853, 1.37727, 1.36726, 1.36075, 1.35786, 1.35799, 1.36252, 1.36084, 1.37248, 1.37503, 1.32721, 1.41641, 1.46177, 1.52977, 1.59823, 1.65231, 1.67513, 1.5008, 1.41266, 1.31567, 1.35159, 1.35318, 1.33353, 1.35083, 1.33593, 1.34437, 1.32632, 1.32522, 1.32226, 1.32326, 1.32123, 
1.66261, 1.65911, 1.66016, 1.65439, 1.65247, 1.6513, 1.65333, 1.64728, 1.64432, 1.64135, 1.6372, 1.63327, 1.62958, 1.62614, 1.6241, 1.62313, 1.62312, 1.62071, 1.61977, 1.66712, 1.70585, 1.84394, 1.92051, 1.96092, 1.825, 1.5798, 1.58832, 1.57879, 1.587, 1.58434, 1.6057, 1.61081, 1.58904, 1.59222, 1.58576, 1.56767, 1.56373, 1.55912, 1.55524, 1.55147, 1.54897, 1.5465, 1.54189, 1.5391, 1.53626, 1.53468, 1.5329, 1.53022, 1.52722, 1.52278, 1.52217, 1.51645, 1.51526, 1.51236, 1.51121, 1.50956, 1.50539, 1.50472, 1.50121, 1.4995, 1.49719, 1.49582, 1.49325, 1.49231, 1.49208, 1.49153, 1.49629, 1.49883, 1.4827, 1.49445, 1.53096, 1.57209, 1.54531, 1.52653, 1.57457, 1.51417, 1.54507, 1.52501, 1.50722, 1.46326, 1.46771, 1.4712, 1.46147, 1.45339, 1.4491, 1.44565, 1.44341, 1.44188, 1.43689, 1.43347, 1.43009, 1.42649, 1.42573, 1.42424, 1.42163, 1.4181, 1.41584, 1.41408, 1.41352, 1.41241, 1.41178, 1.40864, 1.40805, 1.40485, 1.40162, 1.39996, 1.39655, 1.39453, 1.39152, 1.39008, 1.38784, 1.38567, 1.38495, 1.3832, 1.38059, 1.4204, 1.39868, 1.37628, 1.37469, 1.37364, 1.36927, 1.36846, 1.37571, 1.36549, 1.3618, 1.36049, 1.35804, 1.35678, 1.35575, 1.355, 1.35808, 1.36028, 1.35196, 1.38591, 1.48169, 1.51156, 1.57621, 1.65924, 1.65854, 1.62214, 1.48848, 1.3233, 1.34709, 1.3396, 1.33435, 1.32987, 1.33033, 1.32579, 1.32869, 1.32469, 1.32477, 1.32529, 1.32394, 
1.66096, 1.65738, 1.65398, 1.65206, 1.64715, 1.64673, 1.64739, 1.64207, 1.63636, 1.63369, 1.63461, 1.63379, 1.63523, 1.62469, 1.62084, 1.62013, 1.61857, 1.61742, 1.59296, 1.6573, 1.70779, 1.80388, 1.88938, 2.20796, 1.95876, 1.6507, 1.55439, 1.55547, 1.6171, 1.63872, 1.56936, 1.58243, 1.59302, 1.59573, 1.58624, 1.58236, 1.58584, 1.56541, 1.55116, 1.54697, 1.54602, 1.54493, 1.54193, 1.54132, 1.53779, 1.53518, 1.53373, 1.52789, 1.52537, 1.52322, 1.51834, 1.51504, 1.51274, 1.51315, 1.50841, 1.50687, 1.50571, 1.50316, 1.49996, 1.49773, 1.49356, 1.49192, 1.48999, 1.49133, 1.488, 1.48983, 1.49318, 1.49556, 1.48882, 1.50561, 1.53086, 1.54316, 1.54241, 1.53504, 1.4997, 1.53688, 1.50516, 1.53035, 1.48441, 1.46843, 1.46503, 1.46917, 1.47598, 1.44921, 1.46789, 1.44356, 1.43954, 1.43544, 1.43312, 1.43132, 1.42979, 1.42458, 1.42275, 1.4205, 1.4198, 1.42328, 1.41969, 1.41662, 1.41387, 1.41034, 1.40845, 1.40545, 1.40535, 1.4054, 1.39827, 1.39744, 1.39871, 1.3947, 1.39337, 1.39106, 1.38993, 1.38488, 1.3821, 1.38354, 1.38118, 1.38148, 1.37656, 1.3743, 1.37289, 1.37088, 1.36469, 1.36515, 1.36734, 1.37103, 1.35999, 1.35813, 1.36094, 1.35652, 1.3569, 1.35371, 1.35707, 1.36793, 1.32001, 1.40218, 1.41401, 1.50931, 1.50384, 1.63008, 1.63853, 1.52211, 1.42367, 1.31592, 1.33895, 1.3538, 1.34134, 1.33016, 1.32597, 1.32524, 1.32297, 1.32212, 1.32264, 1.32225, 1.3225, 
1.65838, 1.65613, 1.6529, 1.6492, 1.64692, 1.64414, 1.64098, 1.63953, 1.63617, 1.63337, 1.63046, 1.62998, 1.62349, 1.62033, 1.61793, 1.63315, 1.6173, 1.61697, 1.5983, 1.62364, 1.71414, 1.79387, 1.84486, 2.04107, 1.98716, 1.56788, 1.55092, 1.60246, 1.73164, 1.80254, 1.82349, 1.67177, 1.61244, 1.61362, 1.59245, 1.59904, 1.57542, 1.5591, 1.55412, 1.55117, 1.54801, 1.55514, 1.54084, 1.53779, 1.53656, 1.53341, 1.53017, 1.52766, 1.52542, 1.52313, 1.52014, 1.51797, 1.51373, 1.50979, 1.50583, 1.50557, 1.50379, 1.50109, 1.50059, 1.49662, 1.49381, 1.49031, 1.48932, 1.48711, 1.48629, 1.48575, 1.48846, 1.49928, 1.4836, 1.51447, 1.51458, 1.53085, 1.53267, 1.51279, 1.49214, 1.48941, 1.51304, 1.51596, 1.49568, 1.46163, 1.46632, 1.47876, 1.46147, 1.44586, 1.44082, 1.43709, 1.43372, 1.43104, 1.42752, 1.42499, 1.4253, 1.42184, 1.42087, 1.42009, 1.42028, 1.42041, 1.41946, 1.41652, 1.4122, 1.40658, 1.40545, 1.40419, 1.4006, 1.39942, 1.39638, 1.39485, 1.39383, 1.39012, 1.38911, 1.38629, 1.38491, 1.38324, 1.38231, 1.38029, 1.37855, 1.3757, 1.37479, 1.37183, 1.36728, 1.36437, 1.36514, 1.36464, 1.36432, 1.37092, 1.35991, 1.35805, 1.35829, 1.35534, 1.3552, 1.35414, 1.35553, 1.3575, 1.32828, 1.32325, 1.46881, 1.53538, 1.61103, 1.66491, 1.66496, 1.53371, 1.43333, 1.33282, 1.3405, 1.34156, 1.33397, 1.32942, 1.34367, 1.32545, 1.32022, 1.32094, 1.31748, 1.31687, 1.31629, 
1.65521, 1.65352, 1.651, 1.64477, 1.64334, 1.64135, 1.64017, 1.63709, 1.63393, 1.63017, 1.62673, 1.62391, 1.61834, 1.61516, 1.6146, 1.61384, 1.62142, 1.62112, 1.59949, 1.61394, 1.71368, 1.83166, 1.88165, 2.01409, 1.76362, 1.57872, 1.56087, 1.58357, 1.58105, 1.60337, 1.61673, 1.60866, 1.58654, 1.59109, 1.58661, 1.57521, 1.57241, 1.56559, 1.5581, 1.54605, 1.54156, 1.53917, 1.53709, 1.53398, 1.53287, 1.52849, 1.54107, 1.52291, 1.52255, 1.52036, 1.51785, 1.5133, 1.51024, 1.50972, 1.50602, 1.50115, 1.50015, 1.50047, 1.49556, 1.50094, 1.49306, 1.48879, 1.4966, 1.48543, 1.48356, 1.48268, 1.49226, 1.49202, 1.48194, 1.50032, 1.55526, 1.52355, 1.53875, 1.49615, 1.47898, 1.51392, 1.5242, 1.50244, 1.48657, 1.45047, 1.46415, 1.45651, 1.46241, 1.44154, 1.43471, 1.43261, 1.4291, 1.42774, 1.44479, 1.42476, 1.42391, 1.42328, 1.42178, 1.42051, 1.4186, 1.41643, 1.4127, 1.41162, 1.41008, 1.40494, 1.40536, 1.40309, 1.39772, 1.39601, 1.3933, 1.39211, 1.3921, 1.38871, 1.3879, 1.38546, 1.38424, 1.38134, 1.37943, 1.37823, 1.38294, 1.37468, 1.3727, 1.37147, 1.37099, 1.36917, 1.36798, 1.36699, 1.36523, 1.3638, 1.36068, 1.35761, 1.35742, 1.35555, 1.35607, 1.35403, 1.36424, 1.35764, 1.3401, 1.36693, 1.40017, 1.48625, 1.57231, 1.62181, 1.72138, 1.46614, 1.46763, 1.30996, 1.34998, 1.34405, 1.34257, 1.33248, 1.33269, 1.323, 1.32062, 1.32067, 1.32033, 1.31729, 1.31639, 
1.64776, 1.64436, 1.64715, 1.64087, 1.63736, 1.63465, 1.62971, 1.62913, 1.62764, 1.62483, 1.62357, 1.62064, 1.61729, 1.61246, 1.61074, 1.60901, 1.60591, 1.61289, 1.60282, 1.60749, 1.72714, 1.7725, 1.91063, 2.09306, 1.93286, 1.62604, 1.55799, 1.57616, 1.57648, 1.5805, 1.58194, 1.5963, 1.58043, 1.59009, 1.58337, 1.58595, 1.55757, 1.55401, 1.5414, 1.53733, 1.53435, 1.53143, 1.53117, 1.52907, 1.52608, 1.52382, 1.52053, 1.51864, 1.51871, 1.51914, 1.51303, 1.50934, 1.50854, 1.50448, 1.5004, 1.49833, 1.49768, 1.49076, 1.49025, 1.48585, 1.48599, 1.48218, 1.48078, 1.47811, 1.47546, 1.47494, 1.47956, 1.48233, 1.49809, 1.50294, 1.53474, 1.52724, 1.53159, 1.51343, 1.50238, 1.51225, 1.49278, 1.5094, 1.50649, 1.45872, 1.45811, 1.45684, 1.45053, 1.44335, 1.43824, 1.43367, 1.42955, 1.43008, 1.42327, 1.42328, 1.42238, 1.42139, 1.42346, 1.41376, 1.41283, 1.41175, 1.40618, 1.40195, 1.40009, 1.40115, 1.39562, 1.39553, 1.3913, 1.391, 1.38992, 1.38831, 1.38935, 1.38991, 1.38923, 1.38813, 1.38706, 1.38255, 1.37882, 1.3758, 1.37441, 1.37178, 1.36606, 1.367, 1.36639, 1.36549, 1.36524, 1.36385, 1.3615, 1.36138, 1.35755, 1.35753, 1.35366, 1.35094, 1.34984, 1.34755, 1.35458, 1.35082, 1.35429, 1.37143, 1.40577, 1.51039, 1.57181, 1.59963, 1.70209, 1.64391, 1.43073, 1.28691, 1.33084, 1.33302, 1.33032, 1.3184, 1.31679, 1.31736, 1.32398, 1.31611, 1.3187, 1.3121, 1.30951, 
1.64389, 1.63927, 1.63878, 1.63666, 1.63381, 1.63318, 1.63122, 1.63125, 1.63018, 1.62709, 1.62377, 1.62073, 1.6178, 1.61427, 1.61228, 1.60819, 1.60538, 1.60737, 1.59985, 1.59545, 1.66245, 1.71693, 1.79972, 1.92192, 1.91591, 1.60262, 1.54779, 1.57141, 1.57642, 1.57258, 1.57925, 1.57203, 1.57741, 1.57538, 1.5688, 1.55521, 1.55994, 1.54747, 1.54509, 1.54105, 1.53738, 1.53463, 1.53097, 1.52806, 1.52464, 1.5219, 1.5182, 1.51664, 1.5144, 1.51309, 1.50997, 1.50839, 1.51345, 1.50282, 1.49828, 1.49581, 1.49192, 1.48687, 1.48558, 1.4848, 1.48202, 1.47855, 1.47821, 1.47775, 1.47523, 1.47526, 1.47796, 1.47799, 1.48319, 1.49984, 1.53014, 1.52619, 1.52079, 1.54424, 1.48652, 1.50359, 1.50689, 1.49293, 1.49436, 1.46117, 1.45444, 1.4596, 1.46128, 1.45033, 1.43658, 1.43331, 1.43284, 1.42696, 1.42442, 1.42145, 1.41932, 1.41636, 1.41594, 1.41326, 1.40929, 1.40568, 1.40409, 1.40181, 1.39909, 1.39592, 1.39375, 1.39157, 1.38951, 1.38751, 1.38767, 1.3867, 1.38636, 1.38572, 1.38566, 1.38369, 1.38293, 1.37928, 1.37545, 1.37471, 1.37048, 1.36587, 1.36223, 1.36147, 1.35975, 1.35951, 1.35926, 1.35834, 1.35699, 1.35377, 1.35319, 1.35127, 1.34939, 1.34654, 1.34412, 1.3611, 1.34671, 1.34749, 1.34609, 1.37537, 1.42756, 1.46449, 1.58706, 1.66935, 1.80013, 1.61659, 1.42123, 1.30049, 1.34062, 1.32981, 1.32482, 1.31966, 1.31923, 1.31816, 1.31654, 1.31714, 1.31409, 1.31325, 1.31747, 
1.64674, 1.63936, 1.63744, 1.63702, 1.63561, 1.63051, 1.62994, 1.62869, 1.62744, 1.62501, 1.62215, 1.61889, 1.61602, 1.61313, 1.61021, 1.60808, 1.61686, 1.60626, 1.6142, 1.59283, 1.66931, 1.75841, 1.85531, 1.80036, 1.76475, 1.61716, 1.52262, 1.56818, 1.56904, 1.57494, 1.56848, 1.56837, 1.56243, 1.56169, 1.56517, 1.56654, 1.55043, 1.5489, 1.5514, 1.54048, 1.53812, 1.53563, 1.53212, 1.52823, 1.52281, 1.5163, 1.51559, 1.51576, 1.51346, 1.51109, 1.50815, 1.50558, 1.50492, 1.50201, 1.50007, 1.49632, 1.49438, 1.48928, 1.48619, 1.48507, 1.48434, 1.4802, 1.47751, 1.47529, 1.47412, 1.47463, 1.47698, 1.47546, 1.47518, 1.5176, 1.51411, 1.57122, 1.51911, 1.49945, 1.47797, 1.48872, 1.50647, 1.49502, 1.48954, 1.46912, 1.47546, 1.45806, 1.44632, 1.43721, 1.43746, 1.43094, 1.42508, 1.42349, 1.42534, 1.42034, 1.41742, 1.4137, 1.41282, 1.41344, 1.41121, 1.40877, 1.40495, 1.40052, 1.40081, 1.40025, 1.39717, 1.39432, 1.3921, 1.3897, 1.38765, 1.38755, 1.38702, 1.38515, 1.38415, 1.38327, 1.38283, 1.37782, 1.37457, 1.36759, 1.3676, 1.3628, 1.36043, 1.36083, 1.35986, 1.36039, 1.35887, 1.35744, 1.35577, 1.35442, 1.35776, 1.35146, 1.34735, 1.3463, 1.34399, 1.3405, 1.33991, 1.34224, 1.32131, 1.33674, 1.40937, 1.46737, 1.53394, 1.61653, 1.67616, 1.5299, 1.42863, 1.28446, 1.33274, 1.32621, 1.31979, 1.3209, 1.31875, 1.31952, 1.31966, 1.31781, 1.31547, 1.31119, 1.31148, 
1.64662, 1.64127, 1.63943, 1.635, 1.63466, 1.63415, 1.63174, 1.62957, 1.62769, 1.62742, 1.62109, 1.61845, 1.62636, 1.61376, 1.60889, 1.60781, 1.60598, 1.61152, 1.60668, 1.59971, 1.67319, 1.78084, 1.91715, 1.75014, 1.75921, 1.56182, 1.55879, 1.57491, 1.59091, 1.57572, 1.57567, 1.57025, 1.56663, 1.56571, 1.55846, 1.55498, 1.55207, 1.54704, 1.54424, 1.54356, 1.54329, 1.53901, 1.53366, 1.53046, 1.52688, 1.52364, 1.52189, 1.52711, 1.51777, 1.5148, 1.51146, 1.5063, 1.50621, 1.50174, 1.49962, 1.5012, 1.49706, 1.49064, 1.48894, 1.48633, 1.48486, 1.48317, 1.48167, 1.47914, 1.47815, 1.4775, 1.47974, 1.49382, 1.497, 1.51024, 1.49485, 1.52678, 1.51788, 1.51416, 1.48242, 1.46945, 1.49075, 1.51338, 1.4991, 1.48591, 1.46833, 1.45755, 1.47804, 1.4462, 1.43181, 1.42911, 1.43368, 1.44536, 1.42327, 1.42015, 1.41771, 1.41617, 1.41461, 1.41205, 1.41061, 1.41164, 1.40519, 1.40615, 1.40271, 1.39966, 1.39861, 1.39574, 1.3925, 1.38953, 1.38905, 1.38585, 1.38335, 1.38151, 1.38064, 1.37815, 1.37436, 1.37223, 1.3703, 1.36486, 1.3655, 1.36256, 1.35753, 1.35952, 1.35798, 1.35998, 1.35911, 1.35795, 1.35657, 1.35411, 1.3493, 1.34716, 1.34418, 1.34391, 1.34228, 1.34505, 1.34222, 1.3535, 1.35921, 1.32049, 1.36411, 1.54018, 1.54363, 1.68982, 1.69982, 1.51877, 1.45156, 1.32483, 1.33039, 1.34028, 1.33206, 1.31656, 1.31749, 1.31729, 1.32313, 1.31535, 1.31658, 1.31172, 1.31073, 
1.64519, 1.63968, 1.63706, 1.63377, 1.63022, 1.6275, 1.62601, 1.62376, 1.62174, 1.61961, 1.61712, 1.6129, 1.60955, 1.6049, 1.60302, 1.59964, 1.59715, 1.59655, 1.59407, 1.60301, 1.66859, 1.69392, 1.91374, 2.06898, 2.11421, 1.58668, 1.55575, 1.5812, 1.57864, 1.57162, 1.56746, 1.56524, 1.56285, 1.56012, 1.55738, 1.56494, 1.55428, 1.54065, 1.53717, 1.54051, 1.53271, 1.53145, 1.53059, 1.52739, 1.52674, 1.52522, 1.52141, 1.51605, 1.51432, 1.51312, 1.51268, 1.50708, 1.51614, 1.49931, 1.4959, 1.49494, 1.49111, 1.48893, 1.48616, 1.48314, 1.48185, 1.48143, 1.48551, 1.47665, 1.47594, 1.48222, 1.48225, 1.48924, 1.48877, 1.48403, 1.4997, 1.531, 1.50205, 1.49094, 1.46914, 1.47096, 1.51307, 1.47789, 1.48281, 1.4654, 1.44519, 1.45442, 1.4402, 1.43103, 1.42461, 1.42252, 1.42237, 1.4342, 1.41922, 1.41885, 1.41768, 1.41475, 1.41293, 1.40827, 1.40684, 1.40392, 1.40227, 1.39842, 1.39889, 1.39522, 1.39343, 1.3921, 1.39042, 1.38682, 1.38525, 1.38367, 1.37939, 1.37557, 1.37272, 1.37071, 1.36976, 1.36252, 1.36289, 1.3586, 1.35754, 1.3577, 1.3572, 1.35413, 1.35597, 1.35633, 1.35865, 1.3592, 1.35097, 1.35374, 1.34841, 1.34659, 1.34385, 1.36164, 1.34348, 1.35449, 1.35323, 1.351, 1.33786, 1.32049, 1.39396, 1.45959, 1.51145, 1.61955, 1.721, 1.63022, 1.46735, 1.28961, 1.31724, 1.31749, 1.31909, 1.3149, 1.32682, 1.31397, 1.31403, 1.31062, 1.30623, 1.30831, 1.30409, 
1.63618, 1.63319, 1.63231, 1.62986, 1.62769, 1.62192, 1.61944, 1.61677, 1.61444, 1.6111, 1.60931, 1.60735, 1.60365, 1.59924, 1.59711, 1.59809, 1.58745, 1.59962, 1.58959, 1.58975, 1.65398, 1.73406, 1.79347, 2.10695, 1.86161, 1.73779, 1.54064, 1.57192, 1.57462, 1.56267, 1.55832, 1.55348, 1.55108, 1.54709, 1.55185, 1.53617, 1.53468, 1.52922, 1.52691, 1.52333, 1.52205, 1.52224, 1.52151, 1.52679, 1.51897, 1.51641, 1.51363, 1.51079, 1.50739, 1.50472, 1.50245, 1.49936, 1.49627, 1.49268, 1.48932, 1.4866, 1.48264, 1.48013, 1.47686, 1.47584, 1.47438, 1.47917, 1.47051, 1.47561, 1.46644, 1.47909, 1.4691, 1.47507, 1.47853, 1.47438, 1.49324, 1.50553, 1.50553, 1.50211, 1.46418, 1.46852, 1.47571, 1.52938, 1.47583, 1.47597, 1.45434, 1.4416, 1.43198, 1.42513, 1.41909, 1.41576, 1.4138, 1.41295, 1.42232, 1.40982, 1.41117, 1.40968, 1.40802, 1.40317, 1.40025, 1.39672, 1.39293, 1.38887, 1.38841, 1.38786, 1.38699, 1.38501, 1.38187, 1.38032, 1.37705, 1.37471, 1.37395, 1.37182, 1.3685, 1.36426, 1.36045, 1.3584, 1.3567, 1.35472, 1.35291, 1.35318, 1.34716, 1.34737, 1.34918, 1.35046, 1.35042, 1.34874, 1.34536, 1.34546, 1.3434, 1.34087, 1.34069, 1.3335, 1.33406, 1.33491, 1.33364, 1.33392, 1.34026, 1.31221, 1.36351, 1.44728, 1.50901, 1.61314, 1.72983, 1.58943, 1.48518, 1.27752, 1.31777, 1.31695, 1.3089, 1.30582, 1.30727, 1.30597, 1.30554, 1.30342, 1.30196, 1.29674, 1.29456, 
1.6365, 1.63172, 1.63014, 1.6283, 1.62993, 1.62276, 1.61979, 1.61677, 1.6133, 1.60999, 1.60773, 1.60798, 1.61693, 1.59996, 1.60161, 1.59381, 1.59047, 1.59583, 1.59052, 1.56566, 1.66452, 1.68677, 1.90394, 1.94595, 1.93936, 1.7552, 1.53736, 1.56503, 1.56748, 1.55842, 1.555, 1.55395, 1.54996, 1.54469, 1.54043, 1.53561, 1.53168, 1.52834, 1.52537, 1.52398, 1.52034, 1.5186, 1.51772, 1.51671, 1.51467, 1.51263, 1.5103, 1.50804, 1.50617, 1.50295, 1.49963, 1.49686, 1.4936, 1.49233, 1.48744, 1.48371, 1.48148, 1.48015, 1.4782, 1.47544, 1.47191, 1.47073, 1.46807, 1.46523, 1.46741, 1.46861, 1.47542, 1.46839, 1.47556, 1.47603, 1.46599, 1.49254, 1.4788, 1.49851, 1.47459, 1.48155, 1.48606, 1.48633, 1.48707, 1.4669, 1.44072, 1.44725, 1.44513, 1.4194, 1.41568, 1.41114, 1.40977, 1.40987, 1.40857, 1.40783, 1.40691, 1.40386, 1.4033, 1.40134, 1.39861, 1.39615, 1.38985, 1.38798, 1.38539, 1.3825, 1.38066, 1.38146, 1.3788, 1.37802, 1.37756, 1.37565, 1.37332, 1.37238, 1.36769, 1.36245, 1.36121, 1.3577, 1.35465, 1.3505, 1.35075, 1.34992, 1.34688, 1.3472, 1.3466, 1.34836, 1.347, 1.35046, 1.34668, 1.34395, 1.34663, 1.3399, 1.33539, 1.34314, 1.33162, 1.33707, 1.3282, 1.33965, 1.33044, 1.28875, 1.37051, 1.38263, 1.58034, 1.70581, 1.73442, 1.72183, 1.38317, 1.28906, 1.31622, 1.31665, 1.30623, 1.31059, 1.30603, 1.30402, 1.30175, 1.2983, 1.296, 1.294, 1.29479, 
1.63304, 1.63684, 1.62306, 1.62342, 1.62099, 1.62007, 1.6173, 1.6141, 1.61588, 1.60731, 1.62094, 1.60378, 1.59922, 1.59789, 1.59594, 1.59369, 1.60945, 1.59163, 1.59593, 1.57766, 1.6249, 1.66104, 1.74934, 1.9846, 2.0005, 1.73878, 1.53338, 1.56283, 1.56469, 1.56122, 1.5522, 1.54811, 1.54414, 1.54228, 1.54046, 1.5357, 1.54301, 1.52858, 1.52764, 1.52677, 1.54451, 1.51918, 1.516, 1.51098, 1.50804, 1.50728, 1.50597, 1.50407, 1.50261, 1.49779, 1.49516, 1.49202, 1.48928, 1.49086, 1.48626, 1.48184, 1.48119, 1.47823, 1.47548, 1.47205, 1.47178, 1.46689, 1.46565, 1.46246, 1.46398, 1.45903, 1.46084, 1.46478, 1.46799, 1.46936, 1.4735, 1.48846, 1.48204, 1.48161, 1.4752, 1.4591, 1.4951, 1.47874, 1.47253, 1.49023, 1.44357, 1.44117, 1.4413, 1.42661, 1.42923, 1.42214, 1.41177, 1.41111, 1.40943, 1.40662, 1.40448, 1.40207, 1.40125, 1.39852, 1.39688, 1.39498, 1.39812, 1.3896, 1.38448, 1.38257, 1.3811, 1.37748, 1.37442, 1.37122, 1.36803, 1.36758, 1.36691, 1.36673, 1.36752, 1.36524, 1.3674, 1.36116, 1.3617, 1.35447, 1.35296, 1.35585, 1.34824, 1.35053, 1.34941, 1.34563, 1.34555, 1.34399, 1.35379, 1.34018, 1.34027, 1.33974, 1.33824, 1.34663, 1.34283, 1.33062, 1.33375, 1.34048, 1.33805, 1.32984, 1.31388, 1.44736, 1.49643, 1.63096, 1.72608, 1.58568, 1.37426, 1.30032, 1.3134, 1.32437, 1.32082, 1.30986, 1.30555, 1.30589, 1.30935, 1.31195, 1.32303, 1.29941, 1.31335, 
1.63518, 1.63537, 1.63039, 1.62364, 1.62328, 1.61904, 1.6157, 1.61294, 1.60858, 1.60495, 1.60302, 1.59881, 1.59769, 1.59583, 1.59615, 1.5944, 1.60156, 1.59239, 1.59926, 1.59356, 1.58914, 1.66588, 1.85956, 2.00543, 2.00366, 1.8046, 1.55481, 1.57373, 1.56234, 1.55684, 1.5527, 1.55191, 1.55555, 1.54552, 1.55409, 1.53962, 1.53548, 1.53707, 1.53271, 1.52469, 1.52157, 1.51721, 1.51544, 1.51232, 1.51255, 1.51002, 1.50859, 1.50638, 1.50355, 1.50082, 1.49704, 1.49563, 1.49047, 1.48948, 1.48508, 1.4819, 1.49919, 1.47596, 1.47313, 1.47165, 1.46802, 1.46658, 1.46464, 1.46239, 1.4614, 1.46149, 1.46206, 1.46405, 1.46494, 1.46501, 1.4662, 1.47595, 1.48936, 1.47824, 1.47232, 1.46677, 1.47882, 1.46708, 1.47565, 1.47528, 1.44698, 1.44457, 1.43292, 1.42907, 1.41744, 1.42511, 1.40821, 1.40622, 1.40473, 1.40393, 1.40265, 1.41767, 1.4063, 1.39678, 1.3954, 1.39398, 1.38952, 1.38826, 1.38267, 1.38081, 1.3794, 1.37813, 1.37319, 1.37369, 1.37226, 1.37116, 1.36845, 1.36709, 1.36568, 1.36356, 1.36277, 1.3606, 1.3605, 1.3604, 1.35645, 1.3555, 1.35362, 1.35098, 1.34889, 1.34765, 1.34722, 1.34486, 1.34394, 1.34069, 1.34026, 1.33952, 1.33648, 1.33641, 1.33713, 1.33446, 1.33717, 1.33389, 1.33996, 1.33648, 1.30896, 1.46074, 1.47449, 1.58379, 1.75412, 1.70588, 1.46747, 1.28172, 1.32137, 1.32607, 1.31179, 1.3061, 1.30451, 1.3054, 1.30509, 1.30951, 1.29989, 1.2987, 1.29836, 
1.62594, 1.62044, 1.61954, 1.61439, 1.62766, 1.61214, 1.60808, 1.60646, 1.60291, 1.59874, 1.59499, 1.59683, 1.59238, 1.59755, 1.58741, 1.58499, 1.59655, 1.59242, 1.60019, 1.57852, 1.57495, 1.70543, 1.80883, 1.88192, 1.89986, 1.60416, 1.51811, 1.54017, 1.55424, 1.55071, 1.54241, 1.53942, 1.53668, 1.53319, 1.53139, 1.52805, 1.52664, 1.52567, 1.52403, 1.52047, 1.51681, 1.51124, 1.5096, 1.50726, 1.50583, 1.50194, 1.49942, 1.49461, 1.4937, 1.4936, 1.48887, 1.49529, 1.48896, 1.47917, 1.47691, 1.47425, 1.47211, 1.47042, 1.47096, 1.46826, 1.4664, 1.46482, 1.46131, 1.45797, 1.45544, 1.46471, 1.45499, 1.46872, 1.46128, 1.46507, 1.47408, 1.4811, 1.4654, 1.46854, 1.4815, 1.46399, 1.45746, 1.46659, 1.49313, 1.46439, 1.43684, 1.43102, 1.42709, 1.42549, 1.41466, 1.41356, 1.40255, 1.403, 1.4031, 1.39887, 1.41318, 1.40702, 1.4126, 1.39574, 1.39294, 1.38639, 1.38441, 1.38164, 1.38156, 1.3798, 1.37817, 1.37634, 1.37458, 1.39998, 1.37204, 1.37007, 1.3685, 1.3658, 1.36233, 1.36437, 1.35832, 1.35584, 1.35452, 1.35386, 1.35205, 1.35103, 1.34578, 1.34486, 1.34433, 1.35759, 1.3494, 1.33636, 1.33801, 1.33634, 1.35167, 1.34117, 1.33158, 1.32993, 1.32792, 1.32984, 1.34303, 1.32739, 1.33359, 1.34005, 1.3031, 1.39847, 1.4748, 1.56813, 1.68599, 1.74562, 1.35735, 1.29609, 1.31718, 1.30754, 1.30676, 1.30058, 1.30195, 1.31113, 1.29998, 1.29673, 1.29582, 1.2931, 1.29326, 
1.60783, 1.60228, 1.59952, 1.59621, 1.59402, 1.59207, 1.58954, 1.5855, 1.58131, 1.57849, 1.57447, 1.57118, 1.56883, 1.57223, 1.56229, 1.56264, 1.564, 1.564, 1.5656, 1.56574, 1.56542, 1.6609, 1.71784, 1.8119, 1.91932, 1.71776, 1.49899, 1.52885, 1.52875, 1.52466, 1.53899, 1.51761, 1.51725, 1.52727, 1.50787, 1.50806, 1.50881, 1.50891, 1.50883, 1.50551, 1.50365, 1.4981, 1.4937, 1.49048, 1.48888, 1.48316, 1.48018, 1.4777, 1.47422, 1.47194, 1.46841, 1.46617, 1.46273, 1.45982, 1.45943, 1.46022, 1.45914, 1.45641, 1.45395, 1.45262, 1.4463, 1.44585, 1.43985, 1.43854, 1.43492, 1.4349, 1.43507, 1.45885, 1.4468, 1.45023, 1.44853, 1.46845, 1.47516, 1.45146, 1.44501, 1.44134, 1.46406, 1.46105, 1.47102, 1.46748, 1.42307, 1.40803, 1.40876, 1.40201, 1.3915, 1.3869, 1.38349, 1.38185, 1.37875, 1.3779, 1.38059, 1.38823, 1.38745, 1.38509, 1.38827, 1.37103, 1.36967, 1.36387, 1.36182, 1.35939, 1.36108, 1.36485, 1.35779, 1.35608, 1.35233, 1.34703, 1.34667, 1.3413, 1.3396, 1.33734, 1.33282, 1.32783, 1.32739, 1.34397, 1.33229, 1.33442, 1.3345, 1.32829, 1.33386, 1.31872, 1.31416, 1.31566, 1.3192, 1.32026, 1.31843, 1.31365, 1.31274, 1.3119, 1.32898, 1.32236, 1.31311, 1.31363, 1.31524, 1.31153, 1.29948, 1.34685, 1.432, 1.55347, 1.57463, 1.46064, 1.43538, 1.27716, 1.27518, 1.3037, 1.29188, 1.29034, 1.28919, 1.28719, 1.29402, 1.27758, 1.27308, 1.27279, 1.26781, 
1.60459, 1.6004, 1.60006, 1.60073, 1.60106, 1.63319, 1.60378, 1.60585, 1.59576, 1.58553, 1.58451, 1.58065, 1.59531, 1.59662, 1.57978, 1.58196, 1.59534, 1.59069, 1.59952, 1.58815, 1.55912, 1.60964, 1.80254, 1.99844, 1.93498, 1.83163, 1.52171, 1.54687, 1.5507, 1.54019, 1.5456, 1.52406, 1.52013, 1.52588, 1.52231, 1.5176, 1.51786, 1.52453, 1.50917, 1.50728, 1.50546, 1.50337, 1.50268, 1.50317, 1.50006, 1.4885, 1.48648, 1.48275, 1.47999, 1.48173, 1.48031, 1.48946, 1.47938, 1.4746, 1.47319, 1.46866, 1.46337, 1.45791, 1.45567, 1.45535, 1.4495, 1.44977, 1.45181, 1.44507, 1.44311, 1.45446, 1.44428, 1.44195, 1.4483, 1.45773, 1.44682, 1.468, 1.46273, 1.45408, 1.4578, 1.44507, 1.4463, 1.44349, 1.47774, 1.4433, 1.43038, 1.4138, 1.41909, 1.41975, 1.41633, 1.40286, 1.39583, 1.41316, 1.38279, 1.38106, 1.38045, 1.38529, 1.38363, 1.37908, 1.37526, 1.36793, 1.36752, 1.37208, 1.36842, 1.36187, 1.35852, 1.35632, 1.35522, 1.35537, 1.35733, 1.35701, 1.3504, 1.34843, 1.34446, 1.33977, 1.34939, 1.34023, 1.33954, 1.32716, 1.32789, 1.33166, 1.32896, 1.32554, 1.32444, 1.32512, 1.32375, 1.31675, 1.31373, 1.32088, 1.32322, 1.32058, 1.31582, 1.3088, 1.30779, 1.30406, 1.30169, 1.31536, 1.3229, 1.31541, 1.28217, 1.35745, 1.437, 1.44437, 1.47491, 1.51653, 1.4125, 1.26872, 1.29216, 1.28892, 1.28613, 1.28659, 1.28213, 1.28634, 1.26946, 1.27827, 1.2769, 1.27849, 1.27603, 
1.61849, 1.61595, 1.61487, 1.61672, 1.6129, 1.61253, 1.60765, 1.6051, 1.60677, 1.59738, 1.61255, 1.59229, 1.59536, 1.59167, 1.58516, 1.5929, 1.59119, 1.58047, 1.58017, 1.57931, 1.58064, 1.6195, 1.72752, 1.80731, 1.75152, 1.73083, 1.54915, 1.55228, 1.55151, 1.5496, 1.54383, 1.55783, 1.53662, 1.53084, 1.55013, 1.52955, 1.52401, 1.52101, 1.51972, 1.51555, 1.51094, 1.5073, 1.51409, 1.50404, 1.50326, 1.49855, 1.4962, 1.49533, 1.49083, 1.491, 1.4895, 1.48464, 1.48158, 1.48583, 1.47523, 1.47285, 1.46935, 1.48927, 1.46339, 1.46006, 1.45827, 1.45748, 1.45455, 1.45349, 1.45457, 1.45321, 1.46748, 1.46068, 1.4525, 1.47028, 1.47036, 1.46592, 1.46152, 1.46294, 1.47149, 1.46465, 1.45762, 1.45267, 1.45954, 1.45615, 1.4351, 1.44141, 1.42258, 1.41974, 1.41293, 1.41076, 1.40575, 1.4045, 1.39891, 1.4006, 1.40531, 1.39364, 1.39564, 1.38867, 1.38593, 1.38561, 1.38225, 1.38198, 1.37632, 1.37239, 1.37039, 1.37041, 1.36918, 1.36809, 1.36684, 1.36119, 1.36058, 1.36088, 1.35614, 1.35623, 1.35455, 1.35318, 1.35048, 1.35864, 1.34663, 1.34332, 1.33932, 1.33836, 1.33693, 1.33482, 1.33577, 1.33063, 1.3326, 1.32874, 1.32925, 1.32927, 1.34099, 1.32673, 1.32576, 1.32002, 1.32938, 1.31603, 1.32968, 1.32385, 1.30879, 1.34472, 1.43542, 1.49785, 1.48864, 1.46885, 1.49235, 1.26569, 1.29608, 1.31094, 1.30795, 1.29984, 1.31546, 1.29362, 1.29438, 1.28986, 1.29065, 1.2891, 1.28498, 
1.61784, 1.61615, 1.61332, 1.61082, 1.60813, 1.60611, 1.60555, 1.59987, 1.5947, 1.59629, 1.58643, 1.58393, 1.58187, 1.58223, 1.58598, 1.57981, 1.57951, 1.57949, 1.58602, 1.58488, 1.56138, 1.63775, 1.84823, 1.983, 2.03047, 1.7647, 1.53765, 1.55642, 1.55351, 1.53367, 1.52416, 1.523, 1.52614, 1.52806, 1.52551, 1.52663, 1.52222, 1.51647, 1.51276, 1.50246, 1.495, 1.49306, 1.51008, 1.50557, 1.49879, 1.49729, 1.50213, 1.49498, 1.49064, 1.48938, 1.48584, 1.48103, 1.47603, 1.47202, 1.47566, 1.4669, 1.46464, 1.46623, 1.46787, 1.45588, 1.45391, 1.45122, 1.45182, 1.45159, 1.44989, 1.44966, 1.4618, 1.45142, 1.47175, 1.4683, 1.47582, 1.45865, 1.45788, 1.4529, 1.46419, 1.44488, 1.45563, 1.44238, 1.4474, 1.44566, 1.44015, 1.43907, 1.42876, 1.42195, 1.40721, 1.40241, 1.4014, 1.39912, 1.39676, 1.39506, 1.39852, 1.38937, 1.38621, 1.38489, 1.38559, 1.38076, 1.37794, 1.37778, 1.37482, 1.3712, 1.36971, 1.37052, 1.36865, 1.36612, 1.36414, 1.36157, 1.35856, 1.35468, 1.35761, 1.35151, 1.34882, 1.3489, 1.34444, 1.34375, 1.34318, 1.34097, 1.33925, 1.33836, 1.35084, 1.33347, 1.33275, 1.32995, 1.3263, 1.32751, 1.32669, 1.32838, 1.32341, 1.32326, 1.32688, 1.33767, 1.32652, 1.32243, 1.32778, 1.31962, 1.29012, 1.37441, 1.45302, 1.50271, 1.6281, 1.64577, 1.52715, 1.39202, 1.38518, 1.30573, 1.30869, 1.31231, 1.30774, 1.29632, 1.29341, 1.29953, 1.30164, 1.28778, 1.30867, 
1.61435, 1.61588, 1.61034, 1.60936, 1.61054, 1.60962, 1.60622, 1.60207, 1.59513, 1.58915, 1.58846, 1.58302, 1.58336, 1.58267, 1.58128, 1.57815, 1.57918, 1.57272, 1.57883, 1.5773, 1.56938, 1.61414, 1.75132, 1.88025, 2.15576, 1.8571, 1.5332, 1.54454, 1.54833, 1.5553, 1.54858, 1.53024, 1.52912, 1.55414, 1.53975, 1.52036, 1.5311, 1.51432, 1.50931, 1.54049, 1.49996, 1.49711, 1.4989, 1.49836, 1.49637, 1.49479, 1.49288, 1.49141, 1.48857, 1.48479, 1.48294, 1.48027, 1.47552, 1.47112, 1.46646, 1.46466, 1.4639, 1.46222, 1.46293, 1.46674, 1.45481, 1.45277, 1.45137, 1.45026, 1.44868, 1.44751, 1.45984, 1.45279, 1.46325, 1.45493, 1.45262, 1.46479, 1.46052, 1.4523, 1.45693, 1.45727, 1.44457, 1.46481, 1.45749, 1.44311, 1.45795, 1.4256, 1.44144, 1.40998, 1.42282, 1.40226, 1.39894, 1.39645, 1.39376, 1.38846, 1.38646, 1.3836, 1.3879, 1.38285, 1.37989, 1.37892, 1.37582, 1.37862, 1.37823, 1.37383, 1.37031, 1.36877, 1.36703, 1.36608, 1.36392, 1.36111, 1.36878, 1.35685, 1.35615, 1.35323, 1.35105, 1.35009, 1.34693, 1.354, 1.34526, 1.34464, 1.33993, 1.33728, 1.33499, 1.33228, 1.33161, 1.33073, 1.3291, 1.32942, 1.32701, 1.32579, 1.32366, 1.32426, 1.31972, 1.3167, 1.31581, 1.31433, 1.33372, 1.31261, 1.32243, 1.29558, 1.42636, 1.53402, 1.71335, 1.73079, 1.51153, 1.5078, 1.51354, 1.4787, 1.39121, 1.28945, 1.28815, 1.28679, 1.28763, 1.28815, 1.29274, 1.28258, 1.29881, 
1.60555, 1.60266, 1.59863, 1.59729, 1.59873, 1.60052, 1.60158, 1.59725, 1.59057, 1.58627, 1.58208, 1.58495, 1.58167, 1.58063, 1.58517, 1.57296, 1.57055, 1.57174, 1.57882, 1.57611, 1.53789, 1.6282, 1.70205, 1.79641, 2.19589, 1.76845, 1.53125, 1.5349, 1.55092, 1.54144, 1.5279, 1.5268, 1.52491, 1.52362, 1.52626, 1.53041, 1.52912, 1.51399, 1.50767, 1.50671, 1.50221, 1.499, 1.49764, 1.49553, 1.48903, 1.48897, 1.48687, 1.48547, 1.48276, 1.48012, 1.47851, 1.47514, 1.46906, 1.46728, 1.46534, 1.46225, 1.46424, 1.45985, 1.45749, 1.45495, 1.46107, 1.45473, 1.44718, 1.44867, 1.44652, 1.44524, 1.44751, 1.44964, 1.45129, 1.45995, 1.47569, 1.46098, 1.46463, 1.45006, 1.45514, 1.4433, 1.44406, 1.45159, 1.4408, 1.44027, 1.43651, 1.4277, 1.42582, 1.40721, 1.40661, 1.39896, 1.39717, 1.39474, 1.39152, 1.39344, 1.38303, 1.38138, 1.37866, 1.37559, 1.37728, 1.37754, 1.37127, 1.36962, 1.36729, 1.36728, 1.36553, 1.36276, 1.36077, 1.36416, 1.36037, 1.35861, 1.35397, 1.35228, 1.35043, 1.34712, 1.34716, 1.34991, 1.34848, 1.34668, 1.34298, 1.34982, 1.33702, 1.33601, 1.33032, 1.32569, 1.32514, 1.32767, 1.32193, 1.32625, 1.32673, 1.32232, 1.31838, 1.31908, 1.31348, 1.31205, 1.32329, 1.30958, 1.32677, 1.31457, 1.31131, 1.33309, 1.45255, 1.55611, 1.727, 1.94569, 1.51076, 1.47937, 1.44791, 1.43673, 1.37587, 1.31775, 1.28332, 1.28219, 1.2812, 1.28442, 1.28161, 1.28338, 1.28201, 
1.60082, 1.59729, 1.59579, 1.59284, 1.59069, 1.58946, 1.58902, 1.60721, 1.58512, 1.5767, 1.57367, 1.57295, 1.57132, 1.5707, 1.57159, 1.5785, 1.57488, 1.57613, 1.56213, 1.57533, 1.52752, 1.56121, 1.6886, 1.68631, 1.7278, 1.66266, 1.52515, 1.52727, 1.53998, 1.52066, 1.53414, 1.51893, 1.51727, 1.51639, 1.51609, 1.51315, 1.52112, 1.5081, 1.50564, 1.50541, 1.49573, 1.49298, 1.4911, 1.48733, 1.48585, 1.48549, 1.47917, 1.47457, 1.47174, 1.47061, 1.47111, 1.46573, 1.47084, 1.46166, 1.45755, 1.45747, 1.45421, 1.45254, 1.45094, 1.45064, 1.44903, 1.4479, 1.46016, 1.45104, 1.45165, 1.44083, 1.44385, 1.46119, 1.4681, 1.46103, 1.45374, 1.46367, 1.45336, 1.45597, 1.442, 1.45087, 1.4326, 1.45306, 1.42398, 1.42689, 1.42062, 1.41608, 1.40631, 1.39991, 1.39975, 1.38908, 1.3822, 1.38, 1.37847, 1.37823, 1.37635, 1.37662, 1.37578, 1.38949, 1.37288, 1.37064, 1.36885, 1.37027, 1.36574, 1.36497, 1.36219, 1.36227, 1.3569, 1.3544, 1.35079, 1.34917, 1.34663, 1.34434, 1.34271, 1.34346, 1.3401, 1.34066, 1.33885, 1.33683, 1.3318, 1.34223, 1.3288, 1.32544, 1.32246, 1.3184, 1.31777, 1.31593, 1.31638, 1.31312, 1.31378, 1.31349, 1.30733, 1.30874, 1.3137, 1.29818, 1.29797, 1.29586, 1.29376, 1.3205, 1.29913, 1.299, 1.45556, 1.49359, 1.63387, 1.62593, 1.61795, 1.43092, 1.33373, 1.3137, 1.31124, 1.27993, 1.27499, 1.2919, 1.29077, 1.28534, 1.27208, 1.28828, 1.28456, 
1.6008, 1.59927, 1.59763, 1.59864, 1.59419, 1.59282, 1.5903, 1.58736, 1.58096, 1.58068, 1.58218, 1.57396, 1.57325, 1.5722, 1.56551, 1.56409, 1.56953, 1.56445, 1.55594, 1.56405, 1.54744, 1.60653, 1.62547, 1.65105, 1.70578, 1.72247, 1.51704, 1.52953, 1.53252, 1.53355, 1.51738, 1.51479, 1.5128, 1.51307, 1.51211, 1.51234, 1.50991, 1.50719, 1.50336, 1.50358, 1.50023, 1.49635, 1.49487, 1.48899, 1.48537, 1.48261, 1.47871, 1.47592, 1.4716, 1.47077, 1.46398, 1.46514, 1.46514, 1.46191, 1.4596, 1.45607, 1.45632, 1.45373, 1.45329, 1.45223, 1.45042, 1.47448, 1.4412, 1.43894, 1.43994, 1.45064, 1.4387, 1.46529, 1.45752, 1.46154, 1.45165, 1.45125, 1.44931, 1.45156, 1.44819, 1.44841, 1.43048, 1.44197, 1.43977, 1.45122, 1.43226, 1.41096, 1.41949, 1.41079, 1.39485, 1.38847, 1.38338, 1.37771, 1.37532, 1.37289, 1.3723, 1.37455, 1.36977, 1.37109, 1.36988, 1.36701, 1.36615, 1.36503, 1.36515, 1.36307, 1.36014, 1.35588, 1.355, 1.35209, 1.34885, 1.34329, 1.33964, 1.33728, 1.33545, 1.33442, 1.33318, 1.33361, 1.33344, 1.33385, 1.33206, 1.32971, 1.32822, 1.33002, 1.32423, 1.32042, 1.3223, 1.32153, 1.31936, 1.3204, 1.31569, 1.31294, 1.31137, 1.30706, 1.30895, 1.30423, 1.30287, 1.29949, 1.29818, 1.29943, 1.30162, 1.27945, 1.42607, 1.51668, 1.5719, 1.51195, 1.50892, 1.34341, 1.30926, 1.28367, 1.27957, 1.27561, 1.27807, 1.27905, 1.28371, 1.278, 1.27435, 1.26769, 1.26509, 
1.60372, 1.59883, 1.59791, 1.59602, 1.59364, 1.59058, 1.58736, 1.5878, 1.58515, 1.59376, 1.5929, 1.59914, 1.57275, 1.57095, 1.57905, 1.56839, 1.5612, 1.56837, 1.57313, 1.57246, 1.5572, 1.55713, 1.83754, 1.82119, 1.70804, 1.69356, 1.50026, 1.54966, 1.53486, 1.53499, 1.51977, 1.52005, 1.51868, 1.51829, 1.52076, 1.51575, 1.50909, 1.50635, 1.50308, 1.52962, 1.49773, 1.49668, 1.49514, 1.49267, 1.49001, 1.48858, 1.48307, 1.48007, 1.47603, 1.47347, 1.47199, 1.47128, 1.4675, 1.46638, 1.46501, 1.45946, 1.45745, 1.45724, 1.45602, 1.45609, 1.45107, 1.45471, 1.44424, 1.45039, 1.44219, 1.44125, 1.44015, 1.43989, 1.44475, 1.44763, 1.45865, 1.45382, 1.46577, 1.46627, 1.45465, 1.45021, 1.43413, 1.43409, 1.42781, 1.42298, 1.42013, 1.41606, 1.40248, 1.39606, 1.38981, 1.38511, 1.38295, 1.3884, 1.37822, 1.37901, 1.39289, 1.37423, 1.37453, 1.37495, 1.37047, 1.36988, 1.37255, 1.36965, 1.36643, 1.36559, 1.36478, 1.35761, 1.35649, 1.35621, 1.35245, 1.34967, 1.35403, 1.34234, 1.34072, 1.33875, 1.33831, 1.33679, 1.33625, 1.33101, 1.33324, 1.33131, 1.32813, 1.32846, 1.32752, 1.32653, 1.32677, 1.32349, 1.32016, 1.3225, 1.31856, 1.33632, 1.31566, 1.33723, 1.32, 1.33436, 1.31932, 1.30625, 1.32237, 1.30939, 1.30213, 1.26727, 1.33036, 1.40826, 1.60265, 1.5826, 1.59037, 1.26805, 1.24837, 1.30961, 1.29321, 1.30866, 1.28153, 1.28869, 1.2793, 1.27437, 1.27297, 1.27765, 1.26394, 
1.59724, 1.59691, 1.60418, 1.59003, 1.58614, 1.58359, 1.58132, 1.58453, 1.57462, 1.56737, 1.55667, 1.55995, 1.55948, 1.55833, 1.56233, 1.56571, 1.5605, 1.54365, 1.55248, 1.54647, 1.55796, 1.52699, 1.77564, 1.7168, 1.68763, 1.71318, 1.50937, 1.50401, 1.51429, 1.52266, 1.52051, 1.5157, 1.51639, 1.51299, 1.5119, 1.52055, 1.5037, 1.50092, 1.51339, 1.48798, 1.4884, 1.47839, 1.47783, 1.47662, 1.47238, 1.48563, 1.46661, 1.48174, 1.45893, 1.45612, 1.45262, 1.45398, 1.44974, 1.44795, 1.45203, 1.44718, 1.43881, 1.43811, 1.44055, 1.44123, 1.4409, 1.43338, 1.42759, 1.42674, 1.42373, 1.43592, 1.4363, 1.43841, 1.43743, 1.43672, 1.43988, 1.44794, 1.46218, 1.45778, 1.44221, 1.43658, 1.4327, 1.42239, 1.42282, 1.42694, 1.42248, 1.4103, 1.40675, 1.40538, 1.39246, 1.3832, 1.38256, 1.37841, 1.37571, 1.36817, 1.36539, 1.36757, 1.36168, 1.38207, 1.36104, 1.35654, 1.35981, 1.35457, 1.35819, 1.35358, 1.35659, 1.34718, 1.34572, 1.3542, 1.34171, 1.33747, 1.33733, 1.33565, 1.3331, 1.33048, 1.32967, 1.32584, 1.3218, 1.33049, 1.3191, 1.31877, 1.32662, 1.31688, 1.31518, 1.31564, 1.31287, 1.31002, 1.30938, 1.30946, 1.30751, 1.32459, 1.3045, 1.31292, 1.31512, 1.29811, 1.30012, 1.29575, 1.31207, 1.296, 1.29827, 1.31691, 1.329, 1.47863, 1.71968, 1.84119, 1.47188, 1.39253, 1.32997, 1.303, 1.28587, 1.27063, 1.27823, 1.26925, 1.26133, 1.26016, 1.28565, 1.26012, 1.25483, 
