1.67557, 1.67577, 1.68848, 1.66216, 1.63118, 1.65537, 1.62713, 1.62361, 1.61995, 1.62908, 1.63319, 1.63061, 1.62439, 1.65465, 1.65058, 1.68186, 1.69974, 1.70118, 1.71073, 1.6443, 1.57843, 1.58018, 1.57616, 1.57881, 1.56649, 1.56219, 1.56904, 1.56875, 1.57564, 1.5718, 1.5558, 1.54843, 1.53849, 1.5399, 1.53156, 1.52807, 1.52414, 1.52032, 1.51736, 1.5165, 1.51194, 1.5103, 1.50739, 1.50326, 1.50073, 1.49851, 1.49468, 1.4935, 1.49588, 1.48877, 1.48564, 1.48569, 1.48302, 1.48153, 1.47856, 1.46274, 1.52037, 1.53977, 1.59633, 1.75507, 1.73454, 1.67807, 1.4436, 1.43334, 1.45983, 1.46526, 1.44857, 1.44233, 1.43857, 1.43416, 1.42939, 1.42651, 1.42419, 1.42261, 1.4184, 1.4103, 1.41286, 1.40966, 1.40964, 1.40298, 1.4024, 1.39994, 1.3986, 1.39946, 1.39556, 1.39234, 1.39104, 1.38789, 1.38107, 1.37714, 1.37414, 1.37217, 1.36861, 1.36299, 1.36296, 1.3654, 1.36511, 1.36748, 1.3704, 1.36921, 1.36412, 1.36214, 1.36409, 1.35582, 1.35398, 1.35618, 1.36016, 1.35635, 1.35112, 1.36787, 1.36831, 1.39845, 1.42568, 1.38161, 1.43814, 1.36083, 1.35128, 1.32991, 1.33395, 1.31923, 1.31268, 1.31727, 1.30951, 1.30708, 1.31002, 1.30936, 1.30391, 1.3067
1.66879, 1.66968, 1.66899, 1.63766, 1.64548, 1.6339, 1.63033, 1.62446, 1.63332, 1.63661, 1.62403, 1.62951, 1.631, 1.64216, 1.68704, 1.68131, 1.75085, 1.6985, 1.67184, 1.66029, 1.57485, 1.58875, 1.59295, 1.57364, 1.57804, 1.57294, 1.56093, 1.56669, 1.56953, 1.57224, 1.55399, 1.54771, 1.55152, 1.53843, 1.53437, 1.53503, 1.52828, 1.52487, 1.52145, 1.51988, 1.5161, 1.5132, 1.50926, 1.50893, 1.51293, 1.50274, 1.50121, 1.49835, 1.49587, 1.4958, 1.49923, 1.48902, 1.48769, 1.49824, 1.49642, 1.45437, 1.52693, 1.56519, 1.64691, 1.77179, 1.74143, 1.64716, 1.44335, 1.46553, 1.46367, 1.46293, 1.4522, 1.44842, 1.4541, 1.43745, 1.43149, 1.42948, 1.45721, 1.42665, 1.42457, 1.41996, 1.41779, 1.41615, 1.4123, 1.4115, 1.40658, 1.40429, 1.40195, 1.40008, 1.39937, 1.39641, 1.39376, 1.39231, 1.38692, 1.38289, 1.37939, 1.37185, 1.37017, 1.36781, 1.3637, 1.36345, 1.36673, 1.36736, 1.36768, 1.37095, 1.36359, 1.361, 1.36451, 1.35556, 1.35528, 1.35794, 1.37411, 1.36157, 1.35814, 1.37157, 1.37528, 1.38092, 1.41817, 1.39779, 1.40328, 1.39288, 1.36185, 1.33651, 1.33492, 1.33259, 1.32546, 1.32693, 1.32362, 1.31427, 1.31489, 1.31619, 1.31323, 1.30877
1.64972, 1.66517, 1.67668, 1.67643, 1.65207, 1.63601, 1.64079, 1.62461, 1.62181, 1.62337, 1.63249, 1.63024, 1.60583, 1.63364, 1.67118, 1.68976, 1.7177, 1.7451, 1.70822, 1.63283, 1.58859, 1.58391, 1.59614, 1.58178, 1.57022, 1.56463, 1.56205, 1.55839, 1.5639, 1.57395, 1.55113, 1.5464, 1.54198, 1.5412, 1.5417, 1.53607, 1.53101, 1.52673, 1.52431, 1.52269, 1.51776, 1.51344, 1.51111, 1.50886, 1.50613, 1.50455, 1.50347, 1.50081, 1.49941, 1.49765, 1.49208, 1.48975, 1.48572, 1.49237, 1.49041, 1.47251, 1.49967, 1.62822, 1.64394, 1.74833, 1.75178, 1.61841, 1.51508, 1.44218, 1.46221, 1.46386, 1.46406, 1.45168, 1.44802, 1.44029, 1.43632, 1.44915, 1.42718, 1.42958, 1.4229, 1.42887, 1.41691, 1.41604, 1.41249, 1.40927, 1.40775, 1.40636, 1.40495, 1.40262, 1.40531, 1.39886, 1.39957, 1.39459, 1.38718, 1.38304, 1.37957, 1.37807, 1.37229, 1.3703, 1.36728, 1.36551, 1.36517, 1.36364, 1.36362, 1.36087, 1.35981, 1.36145, 1.35752, 1.35699, 1.35508, 1.35926, 1.36962, 1.37205, 1.38063, 1.36816, 1.37957, 1.38197, 1.39709, 1.40245, 1.44708, 1.38742, 1.33408, 1.33308, 1.3323, 1.34738, 1.34128, 1.3201, 1.31667, 1.31667, 1.31237, 1.31344, 1.31375, 1.31265
1.65457, 1.67916, 1.67748, 1.64488, 1.65884, 1.64126, 1.63308, 1.62976, 1.62628, 1.62648, 1.62912, 1.62667, 1.62679, 1.69609, 1.68011, 1.68311, 1.72432, 1.74681, 1.74612, 1.6507, 1.57572, 1.58905, 1.58862, 1.58872, 1.57501, 1.56942, 1.56252, 1.56197, 1.55799, 1.56883, 1.57529, 1.5645, 1.54864, 1.54832, 1.54717, 1.53882, 1.54086, 1.53094, 1.52786, 1.52511, 1.52085, 1.51986, 1.51524, 1.51268, 1.5088, 1.50746, 1.50709, 1.50671, 1.50234, 1.49997, 1.49837, 1.49881, 1.48615, 1.5066, 1.4994, 1.46823, 1.50935, 1.58567, 1.67132, 1.71554, 1.71088, 1.66036, 1.48248, 1.45855, 1.46202, 1.45691, 1.45567, 1.44756, 1.47487, 1.44172, 1.43872, 1.43391, 1.43137, 1.42827, 1.4285, 1.42473, 1.42053, 1.42231, 1.41819, 1.41309, 1.4105, 1.41207, 1.40806, 1.40668, 1.40515, 1.40437, 1.40354, 1.40094, 1.39361, 1.38766, 1.38213, 1.37774, 1.37581, 1.37264, 1.37026, 1.36774, 1.36559, 1.36372, 1.36214, 1.35887, 1.36215, 1.35933, 1.35806, 1.37511, 1.35725, 1.364, 1.36347, 1.37697, 1.37819, 1.41845, 1.39973, 1.40262, 1.42482, 1.40481, 1.42291, 1.40232, 1.34071, 1.34358, 1.33757, 1.33467, 1.32985, 1.3375, 1.32339, 1.31515, 1.31411, 1.31198, 1.31373, 1.31672
1.65446, 1.64903, 1.65807, 1.64467, 1.65986, 1.65829, 1.63941, 1.63444, 1.64096, 1.62852, 1.63728, 1.63408, 1.60298, 1.64573, 1.65581, 1.67663, 1.75238, 1.77145, 1.7691, 1.71025, 1.60089, 1.5942, 1.59381, 1.58949, 1.57694, 1.5715, 1.56622, 1.57061, 1.56386, 1.57598, 1.57852, 1.5712, 1.55284, 1.55229, 1.54672, 1.54552, 1.55479, 1.53506, 1.53134, 1.52722, 1.52463, 1.51771, 1.51547, 1.51257, 1.50945, 1.50664, 1.50845, 1.50464, 1.50183, 1.50071, 1.49641, 1.49574, 1.49042, 1.49544, 1.49235, 1.46151, 1.48938, 1.58603, 1.65809, 1.73556, 1.73477, 1.69905, 1.51241, 1.43793, 1.46163, 1.47152, 1.46822, 1.45063, 1.446, 1.44024, 1.4391, 1.43289, 1.43355, 1.43069, 1.43287, 1.42701, 1.42648, 1.42554, 1.42113, 1.4181, 1.41285, 1.40988, 1.40919, 1.40911, 1.40805, 1.40717, 1.40541, 1.40357, 1.4021, 1.39296, 1.38829, 1.38145, 1.38097, 1.37764, 1.37292, 1.37398, 1.37131, 1.36804, 1.36731, 1.36606, 1.36462, 1.36342, 1.36304, 1.35853, 1.35535, 1.35889, 1.36728, 1.36475, 1.37058, 1.41252, 1.3959, 1.39966, 1.40616, 1.40754, 1.40966, 1.37361, 1.35113, 1.32771, 1.34754, 1.33717, 1.33868, 1.32577, 1.33697, 1.31904, 1.31481, 1.31221, 1.31386, 1.31522
1.6628, 1.65804, 1.65456, 1.66863, 1.67212, 1.65438, 1.64814, 1.64491, 1.63205, 1.62791, 1.63709, 1.6277, 1.61428, 1.68257, 1.68166, 1.69793, 1.7492, 1.76933, 1.73011, 1.65411, 1.58958, 1.59524, 1.5963, 1.58192, 1.57858, 1.56924, 1.56498, 1.56124, 1.55721, 1.56499, 1.58242, 1.55911, 1.56195, 1.55197, 1.55604, 1.54364, 1.53923, 1.53601, 1.53358, 1.53068, 1.52795, 1.52306, 1.51801, 1.51395, 1.50922, 1.50929, 1.50507, 1.5031, 1.50092, 1.50112, 1.49986, 1.4932, 1.49076, 1.49046, 1.4967, 1.47758, 1.4906, 1.56999, 1.62075, 1.71737, 1.63484, 1.70573, 1.49975, 1.44009, 1.4594, 1.45833, 1.45261, 1.44811, 1.44237, 1.45211, 1.43613, 1.43513, 1.43258, 1.43404, 1.43178, 1.42726, 1.42732, 1.42282, 1.42254, 1.41746, 1.41278, 1.40701, 1.40923, 1.40566, 1.40672, 1.40588, 1.40617, 1.40746, 1.40284, 1.39831, 1.3931, 1.38962, 1.3873, 1.38452, 1.37918, 1.37657, 1.37412, 1.37226, 1.36951, 1.3708, 1.36803, 1.36509, 1.36251, 1.358, 1.36025, 1.35683, 1.36058, 1.36107, 1.3602, 1.37001, 1.38479, 1.39214, 1.41104, 1.42333, 1.41534, 1.40125, 1.37741, 1.33273, 1.33877, 1.33431, 1.33208, 1.32663, 1.32113, 1.32294, 1.31518, 1.31574, 1.31211, 1.32035
1.6601, 1.66003, 1.65485, 1.66519, 1.6694, 1.66311, 1.64743, 1.64023, 1.63391, 1.63036, 1.63393, 1.62415, 1.61306, 1.65534, 1.68158, 1.70955, 1.7545, 1.75498, 1.73357, 1.69929, 1.63103, 1.58375, 1.59564, 1.58194, 1.5758, 1.57223, 1.5662, 1.56422, 1.56153, 1.55341, 1.55286, 1.56944, 1.55168, 1.55013, 1.55379, 1.54362, 1.53961, 1.53696, 1.53469, 1.52841, 1.5264, 1.52316, 1.51631, 1.51454, 1.51301, 1.51052, 1.50851, 1.50424, 1.50205, 1.4993, 1.50825, 1.49278, 1.49118, 1.49025, 1.49852, 1.48931, 1.50389, 1.5481, 1.60998, 1.70218, 1.70188, 1.64717, 1.45134, 1.43482, 1.46041, 1.46413, 1.45197, 1.45531, 1.44062, 1.44044, 1.43975, 1.43353, 1.43288, 1.43122, 1.42832, 1.42602, 1.42632, 1.42416, 1.42062, 1.4157, 1.41093, 1.40906, 1.40679, 1.40623, 1.40696, 1.40717, 1.4057, 1.40585, 1.40467, 1.39688, 1.39374, 1.39169, 1.39091, 1.3884, 1.38138, 1.37694, 1.37608, 1.3782, 1.37475, 1.376, 1.37415, 1.37101, 1.36497, 1.36078, 1.35609, 1.35701, 1.3594, 1.35447, 1.34712, 1.3631, 1.39439, 1.40578, 1.42327, 1.42534, 1.42674, 1.41029, 1.35729, 1.32859, 1.34766, 1.34671, 1.33023, 1.32698, 1.32219, 1.31995, 1.32348, 1.31977, 1.31886, 1.32587
1.66145, 1.66342, 1.66129, 1.66087, 1.68207, 1.66888, 1.65881, 1.6479, 1.63728, 1.63127, 1.63141, 1.62073, 1.61981, 1.65409, 1.69302, 1.71745, 1.74094, 1.77861, 1.80113, 1.74518, 1.63746, 1.59365, 1.61288, 1.5996, 1.58025, 1.57568, 1.56909, 1.57299, 1.56569, 1.56424, 1.56085, 1.57103, 1.55949, 1.55512, 1.55489, 1.55386, 1.54212, 1.54429, 1.53504, 1.53283, 1.53046, 1.5264, 1.51993, 1.51891, 1.51755, 1.51306, 1.50895, 1.50726, 1.50671, 1.50112, 1.49642, 1.49257, 1.49675, 1.50926, 1.49357, 1.46802, 1.49074, 1.5801, 1.66592, 1.70607, 1.70052, 1.66629, 1.57725, 1.42916, 1.46336, 1.46385, 1.45688, 1.44581, 1.44546, 1.44135, 1.43772, 1.43409, 1.43176, 1.42824, 1.42728, 1.42513, 1.4236, 1.42043, 1.41811, 1.42281, 1.41072, 1.41148, 1.40743, 1.40828, 1.4065, 1.40511, 1.40318, 1.40273, 1.40911, 1.43736, 1.39993, 1.39831, 1.39869, 1.38796, 1.38574, 1.3802, 1.3802, 1.38051, 1.37864, 1.37871, 1.3766, 1.37447, 1.37069, 1.36672, 1.36141, 1.36157, 1.36144, 1.35831, 1.35517, 1.38478, 1.39931, 1.40918, 1.41704, 1.43468, 1.43676, 1.41734, 1.36883, 1.32292, 1.35464, 1.34116, 1.33021, 1.32979, 1.33118, 1.32233, 1.31949, 1.31741, 1.3158, 1.31946
1.66718, 1.6813, 1.66741, 1.66407, 1.65897, 1.68281, 1.66587, 1.64807, 1.64773, 1.63634, 1.63001, 1.625, 1.6414, 1.64451, 1.70342, 1.73299, 1.7506, 1.76183, 1.74396, 1.70597, 1.57654, 1.59176, 1.60941, 1.58979, 1.58283, 1.57821, 1.5725, 1.56934, 1.56539, 1.5589, 1.55334, 1.56097, 1.56988, 1.55501, 1.57138, 1.55586, 1.5581, 1.54019, 1.53864, 1.53499, 1.53059, 1.52739, 1.52468, 1.52466, 1.52059, 1.51661, 1.51344, 1.50902, 1.50583, 1.50134, 1.5003, 1.49683, 1.49211, 1.49247, 1.49339, 1.48804, 1.47805, 1.57802, 1.62301, 1.70221, 1.70905, 1.62868, 1.55161, 1.44016, 1.45285, 1.45906, 1.46433, 1.44523, 1.44293, 1.44141, 1.44259, 1.43509, 1.43319, 1.45448, 1.42952, 1.43044, 1.42899, 1.42318, 1.42166, 1.4202, 1.41431, 1.41138, 1.40794, 1.40613, 1.40444, 1.40502, 1.40267, 1.40197, 1.40127, 1.39938, 1.39702, 1.39821, 1.39146, 1.38794, 1.38574, 1.38237, 1.38213, 1.38304, 1.38116, 1.38079, 1.37786, 1.37551, 1.37336, 1.3695, 1.36778, 1.37203, 1.37231, 1.37834, 1.36417, 1.39224, 1.38232, 1.40766, 1.41063, 1.42703, 1.43271, 1.42076, 1.42053, 1.35387, 1.35024, 1.3475, 1.33369, 1.32983, 1.32734, 1.32564, 1.32646, 1.32236, 1.32244, 1.31907
1.66847, 1.66608, 1.6642, 1.65923, 1.67496, 1.66852, 1.6772, 1.65488, 1.6349, 1.63324, 1.63048, 1.62104, 1.61333, 1.6846, 1.70234, 1.71444, 1.75428, 1.75338, 1.71277, 1.68742, 1.6381, 1.60567, 1.59612, 1.58816, 1.58537, 1.58206, 1.57532, 1.57412, 1.56605, 1.563, 1.5594, 1.55882, 1.56843, 1.55888, 1.55005, 1.54731, 1.54458, 1.54221, 1.53917, 1.53661, 1.53307, 1.52975, 1.52711, 1.52503, 1.52186, 1.51939, 1.51573, 1.5121, 1.50687, 1.50643, 1.50088, 1.49664, 1.50789, 1.49488, 1.50186, 1.47969, 1.46953, 1.56981, 1.65729, 1.69523, 1.69295, 1.67653, 1.55378, 1.4546, 1.45459, 1.46057, 1.46079, 1.4457, 1.44347, 1.44376, 1.4419, 1.43714, 1.43543, 1.43115, 1.42933, 1.42982, 1.42706, 1.42615, 1.42252, 1.41844, 1.41665, 1.41471, 1.41161, 1.40866, 1.4064, 1.40809, 1.40541, 1.40513, 1.40315, 1.40312, 1.40006, 1.399, 1.39112, 1.38791, 1.38641, 1.3841, 1.38179, 1.37976, 1.37991, 1.37818, 1.37542, 1.37555, 1.37241, 1.37242, 1.3714, 1.36696, 1.36586, 1.38151, 1.3541, 1.37457, 1.44065, 1.44771, 1.46912, 1.44292, 1.46795, 1.44091, 1.41283, 1.33024, 1.36048, 1.34342, 1.33662, 1.32655, 1.32754, 1.32417, 1.32375, 1.32013, 1.3179, 1.32059
1.66806, 1.66744, 1.65956, 1.65768, 1.65483, 1.66109, 1.66925, 1.66756, 1.64955, 1.64665, 1.63788, 1.61012, 1.62368, 1.62724, 1.69673, 1.73334, 1.72513, 1.77937, 1.75613, 1.70427, 1.62997, 1.58982, 1.59871, 1.59664, 1.59198, 1.58661, 1.5833, 1.58232, 1.57349, 1.56811, 1.56633, 1.57058, 1.57821, 1.5755, 1.55928, 1.54865, 1.54415, 1.54082, 1.53725, 1.53732, 1.53497, 1.53137, 1.52815, 1.5249, 1.52313, 1.51791, 1.51571, 1.51255, 1.5097, 1.5048, 1.50418, 1.50184, 1.49947, 1.49909, 1.49828, 1.50262, 1.47657, 1.54829, 1.62399, 1.68675, 1.70236, 1.69019, 1.53188, 1.43923, 1.43394, 1.47181, 1.45459, 1.45017, 1.44812, 1.44673, 1.44215, 1.44266, 1.43775, 1.43349, 1.43273, 1.43301, 1.43078, 1.42794, 1.42569, 1.42204, 1.42119, 1.4171, 1.41297, 1.41155, 1.41147, 1.41086, 1.41062, 1.40487, 1.4036, 1.40404, 1.40053, 1.40118, 1.3944, 1.39062, 1.39215, 1.38548, 1.38312, 1.38075, 1.38033, 1.38234, 1.37846, 1.37334, 1.37427, 1.37468, 1.37322, 1.3715, 1.37558, 1.39493, 1.3513, 1.37734, 1.3996, 1.42641, 1.45231, 1.4817, 1.45714, 1.43433, 1.39124, 1.36008, 1.35391, 1.35068, 1.33458, 1.32824, 1.32453, 1.32114, 1.3182, 1.31951, 1.32115, 1.31618
1.66475, 1.671, 1.65968, 1.6582, 1.65409, 1.66292, 1.6836, 1.67259, 1.64971, 1.64573, 1.65163, 1.64738, 1.61696, 1.67836, 1.75563, 1.80159, 1.78108, 1.7921, 1.77679, 1.75472, 1.68243, 1.60301, 1.62411, 1.59741, 1.59422, 1.591, 1.58703, 1.5833, 1.58628, 1.57673, 1.56996, 1.56806, 1.57838, 1.56753, 1.57595, 1.55558, 1.55586, 1.54384, 1.55729, 1.53882, 1.53877, 1.53421, 1.52734, 1.52935, 1.52795, 1.52173, 1.51912, 1.5146, 1.54095, 1.51343, 1.51621, 1.50571, 1.50255, 1.50125, 1.52035, 1.50936, 1.47593, 1.5577, 1.65369, 1.71347, 1.70565, 1.67549, 1.61903, 1.44097, 1.46521, 1.4687, 1.4622, 1.45642, 1.45238, 1.44996, 1.44771, 1.44521, 1.44117, 1.43861, 1.43635, 1.43469, 1.43381, 1.43181, 1.43133, 1.4302, 1.4265, 1.42019, 1.42009, 1.41722, 1.41643, 1.41472, 1.40771, 1.41161, 1.40643, 1.4059, 1.4032, 1.40299, 1.39788, 1.3924, 1.40005, 1.38883, 1.38766, 1.38636, 1.38313, 1.38314, 1.39185, 1.38033, 1.37724, 1.37466, 1.37485, 1.37428, 1.37206, 1.3715, 1.3686, 1.37742, 1.4087, 1.43022, 1.45128, 1.45176, 1.46064, 1.44623, 1.39066, 1.33675, 1.35105, 1.35215, 1.33697, 1.33278, 1.33241, 1.3255, 1.32651, 1.32085, 1.31915, 1.31948
1.67228, 1.66647, 1.66277, 1.65893, 1.65682, 1.6682, 1.68202, 1.69291, 1.66924, 1.65602, 1.65686, 1.64667, 1.63421, 1.66777, 1.72337, 1.76709, 1.79921, 1.79403, 1.77262, 1.75225, 1.61115, 1.58962, 1.62173, 1.61013, 1.59453, 1.59854, 1.58601, 1.59386, 1.58881, 1.57695, 1.58148, 1.57267, 1.57598, 1.58925, 1.57572, 1.55722, 1.56209, 1.55038, 1.5415, 1.5387, 1.53753, 1.5331, 1.53047, 1.52752, 1.52554, 1.51995, 1.5173, 1.51525, 1.51074, 1.51023, 1.50674, 1.51659, 1.50432, 1.51293, 1.50653, 1.49987, 1.48198, 1.58981, 1.54422, 1.6907, 1.69603, 1.68687, 1.62235, 1.47396, 1.46274, 1.4786, 1.47535, 1.46812, 1.45782, 1.45451, 1.45149, 1.44749, 1.44538, 1.44411, 1.4378, 1.43608, 1.43602, 1.43409, 1.43244, 1.4296, 1.42726, 1.42372, 1.42322, 1.42051, 1.41896, 1.41906, 1.41331, 1.41256, 1.40998, 1.40674, 1.40382, 1.40202, 1.39846, 1.394, 1.39204, 1.38999, 1.38873, 1.38552, 1.38242, 1.37986, 1.37931, 1.38492, 1.37878, 1.37512, 1.37407, 1.37449, 1.37507, 1.37228, 1.35482, 1.38133, 1.39248, 1.43016, 1.45386, 1.45459, 1.4542, 1.43538, 1.43248, 1.33757, 1.36374, 1.35029, 1.35161, 1.33711, 1.33569, 1.3318, 1.32925, 1.32724, 1.32526, 1.32349
1.67704, 1.6746, 1.66665, 1.66514, 1.66169, 1.65831, 1.67484, 1.6788, 1.66536, 1.65843, 1.65246, 1.65205, 1.62449, 1.68811, 1.69604, 1.77208, 1.79031, 1.79594, 1.77621, 1.73592, 1.63464, 1.57839, 1.60701, 1.60682, 1.59439, 1.59894, 1.58724, 1.58405, 1.58225, 1.57929, 1.57721, 1.57435, 1.57629, 1.58565, 1.5789, 1.56632, 1.553, 1.5472, 1.54503, 1.53914, 1.53619, 1.53618, 1.53013, 1.5302, 1.52699, 1.52381, 1.52058, 1.51905, 1.51685, 1.52107, 1.51059, 1.50877, 1.50428, 1.50302, 1.50314, 1.50081, 1.49448, 1.53793, 1.66229, 1.7012, 1.71608, 1.71019, 1.57899, 1.50212, 1.47711, 1.48187, 1.47261, 1.47122, 1.46304, 1.46748, 1.45325, 1.44942, 1.44358, 1.44708, 1.43882, 1.43497, 1.43344, 1.43386, 1.43162, 1.42998, 1.42921, 1.42737, 1.4295, 1.42238, 1.41906, 1.41759, 1.41604, 1.41621, 1.40955, 1.40617, 1.40231, 1.39867, 1.39431, 1.39243, 1.3901, 1.38652, 1.38462, 1.38495, 1.38113, 1.37819, 1.37759, 1.37519, 1.37556, 1.3734, 1.37283, 1.37201, 1.37547, 1.37412, 1.38724, 1.38802, 1.43074, 1.4544, 1.48881, 1.46669, 1.46484, 1.44427, 1.39816, 1.33798, 1.36683, 1.34835, 1.34056, 1.33678, 1.33455, 1.33394, 1.33078, 1.32967, 1.3249, 1.32643
1.68001, 1.6788, 1.67128, 1.66879, 1.68978, 1.66236, 1.67945, 1.67939, 1.67118, 1.67139, 1.65537, 1.65542, 1.63148, 1.65869, 1.70341, 1.74263, 1.65067, 1.78619, 1.77094, 1.72187, 1.62969, 1.59992, 1.60994, 1.60614, 1.60013, 1.59313, 1.59077, 1.59153, 1.58226, 1.58282, 1.5829, 1.58305, 1.56937, 1.57562, 1.58277, 1.56912, 1.55668, 1.55173, 1.55208, 1.54441, 1.54059, 1.53674, 1.53469, 1.5332, 1.53057, 1.52666, 1.52398, 1.51969, 1.51769, 1.51474, 1.51229, 1.50917, 1.50569, 1.50464, 1.50547, 1.50302, 1.49048, 1.56838, 1.64052, 1.67221, 1.68036, 1.66419, 1.57681, 1.53294, 1.46503, 1.48127, 1.48876, 1.4727, 1.48569, 1.46506, 1.45559, 1.45207, 1.44833, 1.45008, 1.44149, 1.43917, 1.43694, 1.43403, 1.43348, 1.43267, 1.43008, 1.4303, 1.42605, 1.42404, 1.42321, 1.42291, 1.41807, 1.41591, 1.40965, 1.40593, 1.40434, 1.40032, 1.39721, 1.39373, 1.39142, 1.38788, 1.38329, 1.3814, 1.38182, 1.37977, 1.38018, 1.37554, 1.38136, 1.37233, 1.37256, 1.37203, 1.38074, 1.37927, 1.36162, 1.39576, 1.41572, 1.44889, 1.45871, 1.46099, 1.47081, 1.4511, 1.39004, 1.33342, 1.3591, 1.35432, 1.3366, 1.33324, 1.33462, 1.33409, 1.32871, 1.33386, 1.32712, 1.32619
1.68005, 1.67602, 1.67472, 1.67135, 1.67308, 1.66217, 1.66459, 1.67566, 1.67453, 1.65154, 1.66247, 1.65907, 1.63193, 1.64491, 1.68493, 1.81137, 1.77651, 1.78449, 1.83755, 1.74046, 1.62704, 1.60689, 1.6182, 1.61389, 1.5931, 1.58909, 1.59611, 1.58314, 1.5804, 1.57854, 1.57519, 1.57416, 1.57855, 1.57828, 1.58214, 1.56608, 1.57551, 1.56092, 1.55133, 1.54517, 1.5472, 1.53725, 1.53644, 1.53443, 1.53228, 1.52862, 1.52454, 1.52107, 1.52087, 1.52582, 1.51289, 1.51505, 1.51722, 1.51285, 1.50457, 1.5073, 1.48074, 1.52962, 1.60475, 1.67126, 1.69332, 1.70951, 1.62767, 1.5329, 1.48903, 1.4894, 1.48397, 1.4797, 1.46661, 1.47237, 1.46518, 1.45509, 1.45197, 1.44677, 1.44352, 1.44054, 1.43888, 1.43854, 1.43668, 1.43685, 1.43172, 1.43018, 1.42836, 1.42686, 1.42409, 1.42313, 1.42037, 1.4171, 1.41531, 1.41107, 1.40723, 1.40394, 1.40066, 1.39573, 1.39425, 1.38855, 1.38804, 1.38426, 1.38295, 1.3802, 1.37585, 1.37557, 1.37524, 1.37695, 1.37466, 1.37822, 1.38975, 1.3781, 1.38555, 1.3896, 1.43326, 1.46783, 1.4731, 1.46863, 1.4759, 1.46827, 1.43553, 1.33956, 1.35852, 1.35781, 1.3433, 1.34038, 1.35478, 1.33394, 1.33032, 1.33677, 1.33024, 1.33496
1.68215, 1.678, 1.67545, 1.69557, 1.67249, 1.66252, 1.66764, 1.66568, 1.68292, 1.6619, 1.64911, 1.65461, 1.63798, 1.64298, 1.69638, 1.79678, 1.776, 1.81018, 1.7981, 1.75678, 1.59731, 1.59634, 1.61101, 1.60061, 1.59742, 1.59073, 1.58651, 1.58612, 1.58438, 1.57933, 1.5801, 1.57502, 1.58683, 1.60332, 1.59971, 1.60258, 1.57166, 1.55445, 1.55894, 1.54776, 1.5468, 1.54379, 1.5411, 1.53812, 1.53488, 1.53065, 1.52696, 1.52374, 1.53399, 1.52669, 1.52152, 1.51052, 1.51353, 1.5199, 1.51103, 1.50059, 1.48916, 1.55577, 1.56709, 1.68211, 1.70408, 1.71104, 1.62804, 1.48932, 1.47239, 1.48185, 1.48279, 1.47534, 1.47056, 1.46597, 1.46885, 1.45883, 1.45758, 1.45212, 1.449, 1.44746, 1.44071, 1.4395, 1.44196, 1.43768, 1.43395, 1.42929, 1.42754, 1.42575, 1.4258, 1.42231, 1.4203, 1.41647, 1.4146, 1.41337, 1.40986, 1.40707, 1.40409, 1.40151, 1.3962, 1.39422, 1.39146, 1.3876, 1.38772, 1.38419, 1.38144, 1.37925, 1.3796, 1.37983, 1.37794, 1.38009, 1.38156, 1.38802, 1.35554, 1.41697, 1.43649, 1.44741, 1.48811, 1.48849, 1.47711, 1.43201, 1.40852, 1.3704, 1.35153, 1.3639, 1.3417, 1.33971, 1.34328, 1.33781, 1.33212, 1.33373, 1.33028, 1.33303
1.68609, 1.68019, 1.68177, 1.67464, 1.6676, 1.6721, 1.66155, 1.66203, 1.68458, 1.68359, 1.66614, 1.65214, 1.6386, 1.63689, 1.68954, 1.77747, 1.78366, 1.823, 1.81906, 1.8097, 1.65856, 1.59861, 1.61578, 1.61236, 1.60025, 1.60089, 1.59646, 1.58796, 1.5877, 1.58282, 1.57985, 1.57684, 1.57465, 1.5952, 1.59513, 1.58617, 1.58153, 1.56481, 1.56062, 1.56138, 1.55844, 1.54515, 1.54344, 1.53912, 1.53967, 1.53456, 1.53399, 1.528, 1.52377, 1.52151, 1.52123, 1.51576, 1.52022, 1.51642, 1.51146, 1.514, 1.48231, 1.54928, 1.57424, 1.63084, 1.66889, 1.68726, 1.57808, 1.54192, 1.47277, 1.50318, 1.4859, 1.47849, 1.48106, 1.47181, 1.46971, 1.46492, 1.46029, 1.45615, 1.45327, 1.44908, 1.45125, 1.44511, 1.44333, 1.44244, 1.43713, 1.43474, 1.43306, 1.43048, 1.43259, 1.42506, 1.4215, 1.4186, 1.41634, 1.41498, 1.41268, 1.40822, 1.40298, 1.39882, 1.39716, 1.39547, 1.39281, 1.38907, 1.38859, 1.38596, 1.38308, 1.38143, 1.38129, 1.38327, 1.38212, 1.38574, 1.38989, 1.39963, 1.38313, 1.36845, 1.46423, 1.48231, 1.47886, 1.47806, 1.49201, 1.48284, 1.46223, 1.3816, 1.3513, 1.36104, 1.35743, 1.34021, 1.35, 1.33754, 1.33679, 1.3331, 1.33658, 1.3331
1.68514, 1.67921, 1.67564, 1.67403, 1.66803, 1.66519, 1.66305, 1.67532, 1.67681, 1.67576, 1.65529, 1.66146, 1.62996, 1.64886, 1.71486, 1.72504, 1.85193, 1.83589, 1.83474, 1.74208, 1.67616, 1.61626, 1.61752, 1.60984, 1.60623, 1.60652, 1.59639, 1.59679, 1.61216, 1.58683, 1.5824, 1.58822, 1.5889, 1.57301, 1.57973, 1.58559, 1.57988, 1.55746, 1.55431, 1.55417, 1.55026, 1.54928, 1.54717, 1.54375, 1.54453, 1.53729, 1.53054, 1.52847, 1.525, 1.53788, 1.52113, 1.51884, 1.51601, 1.52548, 1.51627, 1.52346, 1.48671, 1.50329, 1.67122, 1.70484, 1.69401, 1.69403, 1.63203, 1.53145, 1.46291, 1.49407, 1.47975, 1.47674, 1.48686, 1.4715, 1.47475, 1.4641, 1.46407, 1.45947, 1.45519, 1.45366, 1.45191, 1.44814, 1.44732, 1.44321, 1.43844, 1.43632, 1.43301, 1.43158, 1.42935, 1.42731, 1.42515, 1.42152, 1.41915, 1.41701, 1.41568, 1.40986, 1.40508, 1.40325, 1.40072, 1.39716, 1.39624, 1.39875, 1.39233, 1.39113, 1.39348, 1.38794, 1.3878, 1.38711, 1.39873, 1.38657, 1.38703, 1.39872, 1.37514, 1.42809, 1.4472, 1.49076, 1.47939, 1.50836, 1.48186, 1.46735, 1.40279, 1.3664, 1.36512, 1.3543, 1.3507, 1.34254, 1.34393, 1.34144, 1.34343, 1.33948, 1.33696, 1.33741
1.68351, 1.67973, 1.67614, 1.67164, 1.67237, 1.66435, 1.66098, 1.65999, 1.66739, 1.67918, 1.68272, 1.65795, 1.62646, 1.68154, 1.72145, 1.83157, 1.79783, 1.80339, 1.79718, 1.7232, 1.62846, 1.60514, 1.6202, 1.6093, 1.60245, 1.59975, 1.59827, 1.59309, 1.58884, 1.58549, 1.5827, 1.57829, 1.57663, 1.57591, 1.57368, 1.58151, 1.58924, 1.55845, 1.55597, 1.55314, 1.55035, 1.54809, 1.54431, 1.54246, 1.53911, 1.53494, 1.5306, 1.52776, 1.52541, 1.52311, 1.51966, 1.51522, 1.51492, 1.51245, 1.52964, 1.50918, 1.49131, 1.57625, 1.58805, 1.66598, 1.69602, 1.68922, 1.58654, 1.52364, 1.46206, 1.47457, 1.47849, 1.47286, 1.47198, 1.47537, 1.46144, 1.46057, 1.45788, 1.45449, 1.45358, 1.45194, 1.45076, 1.44745, 1.44707, 1.44474, 1.43997, 1.43836, 1.43528, 1.43403, 1.43096, 1.42858, 1.42618, 1.42337, 1.42259, 1.41921, 1.4158, 1.41543, 1.40953, 1.40792, 1.40472, 1.40017, 1.39917, 1.39464, 1.39398, 1.39593, 1.39013, 1.38822, 1.38782, 1.38541, 1.38533, 1.38491, 1.40629, 1.38998, 1.38146, 1.38895, 1.48145, 1.47925, 1.48861, 1.49196, 1.49855, 1.49155, 1.45399, 1.36088, 1.34102, 1.36511, 1.35053, 1.34356, 1.34724, 1.34609, 1.34449, 1.34033, 1.34082, 1.34035
1.68042, 1.67858, 1.67284, 1.66831, 1.66911, 1.66148, 1.66839, 1.65542, 1.65947, 1.68993, 1.66635, 1.64945, 1.62778, 1.6231, 1.71211, 1.73054, 1.79374, 1.82388, 1.83688, 1.80234, 1.66505, 1.60266, 1.62348, 1.61752, 1.60016, 1.60578, 1.59383, 1.59055, 1.58516, 1.58353, 1.57942, 1.57878, 1.59555, 1.58514, 1.58349, 1.58022, 1.59223, 1.56798, 1.55475, 1.55172, 1.54873, 1.54726, 1.54457, 1.54166, 1.53686, 1.53191, 1.52854, 1.52394, 1.52012, 1.51682, 1.52184, 1.51264, 1.51037, 1.51642, 1.51275, 1.51366, 1.49663, 1.57838, 1.63338, 1.67591, 1.68755, 1.69235, 1.64498, 1.52063, 1.45558, 1.50251, 1.48583, 1.47775, 1.46923, 1.46027, 1.46584, 1.45735, 1.45211, 1.45136, 1.44781, 1.45055, 1.44461, 1.4437, 1.44207, 1.44051, 1.43501, 1.43488, 1.43444, 1.43455, 1.43167, 1.43009, 1.42664, 1.42461, 1.42616, 1.42235, 1.4169, 1.4133, 1.41321, 1.40921, 1.40888, 1.40595, 1.40228, 1.39735, 1.39938, 1.3911, 1.39121, 1.38848, 1.38884, 1.38661, 1.38492, 1.40924, 1.40536, 1.39118, 1.3775, 1.40991, 1.4261, 1.48417, 1.48425, 1.50968, 1.48935, 1.48238, 1.45972, 1.36291, 1.35769, 1.35718, 1.35124, 1.34831, 1.34942, 1.34654, 1.34367, 1.34486, 1.33997, 1.33909
1.69887, 1.68068, 1.67644, 1.67831, 1.6669, 1.66888, 1.66596, 1.66311, 1.66472, 1.67942, 1.66898, 1.66109, 1.63299, 1.63806, 1.70904, 1.76649, 1.79733, 1.8411, 1.82479, 1.75619, 1.69307, 1.58821, 1.6307, 1.61273, 1.59733, 1.62117, 1.6057, 1.61085, 1.59444, 1.58213, 1.58556, 1.57578, 1.57631, 1.58565, 1.56992, 1.57128, 1.58521, 1.579, 1.56369, 1.55628, 1.54614, 1.55176, 1.54699, 1.54388, 1.57454, 1.53052, 1.52686, 1.52434, 1.51948, 1.54058, 1.51057, 1.52382, 1.50665, 1.50613, 1.5179, 1.51681, 1.46791, 1.5453, 1.63481, 1.68643, 1.70683, 1.70381, 1.6314, 1.52237, 1.46359, 1.46735, 1.4787, 1.48104, 1.46553, 1.46521, 1.47088, 1.45463, 1.45058, 1.44815, 1.44635, 1.46617, 1.44408, 1.44163, 1.43636, 1.43398, 1.43449, 1.43499, 1.43394, 1.43278, 1.42939, 1.4289, 1.43061, 1.42416, 1.42042, 1.42338, 1.41914, 1.41652, 1.41355, 1.4122, 1.41346, 1.40538, 1.40198, 1.39833, 1.39519, 1.39341, 1.39973, 1.39024, 1.39511, 1.38848, 1.38654, 1.38952, 1.39198, 1.38546, 1.35426, 1.39572, 1.39577, 1.47644, 1.49266, 1.52492, 1.49584, 1.48822, 1.4332, 1.37439, 1.35822, 1.35919, 1.36584, 1.35498, 1.35175, 1.35044, 1.34782, 1.34276, 1.34049, 1.33646
1.68571, 1.6821, 1.67698, 1.67206, 1.66826, 1.66139, 1.66342, 1.66403, 1.65234, 1.66918, 1.67506, 1.66239, 1.63164, 1.61918, 1.70118, 1.80271, 1.82889, 1.83236, 1.84531, 1.77516, 1.67481, 1.60246, 1.6109, 1.60892, 1.60585, 1.59521, 1.59192, 1.60207, 1.58727, 1.58005, 1.57703, 1.57335, 1.56904, 1.56593, 1.56483, 1.55845, 1.58314, 1.57966, 1.56217, 1.54439, 1.54333, 1.54637, 1.54487, 1.54049, 1.53431, 1.53086, 1.5228, 1.51845, 1.5156, 1.50644, 1.50307, 1.50299, 1.50437, 1.50348, 1.50549, 1.50669, 1.4923, 1.52004, 1.59101, 1.67926, 1.68359, 1.64374, 1.62514, 1.52853, 1.46429, 1.47513, 1.47569, 1.47286, 1.46205, 1.46341, 1.45383, 1.45257, 1.44861, 1.44681, 1.44778, 1.44446, 1.44258, 1.44039, 1.43655, 1.43257, 1.43307, 1.43486, 1.43369, 1.43211, 1.4272, 1.42548, 1.42405, 1.42276, 1.41985, 1.4188, 1.41716, 1.41387, 1.41392, 1.4101, 1.409, 1.40468, 1.39887, 1.39494, 1.39277, 1.39182, 1.39185, 1.38862, 1.39845, 1.38536, 1.3826, 1.38537, 1.39011, 1.38948, 1.34865, 1.40524, 1.41781, 1.45466, 1.47508, 1.49541, 1.51332, 1.49907, 1.46844, 1.40363, 1.32521, 1.36387, 1.36105, 1.3493, 1.34811, 1.35683, 1.3462, 1.34087, 1.3387, 1.33543
1.6877, 1.68345, 1.6791, 1.67821, 1.67319, 1.66806, 1.6664, 1.66238, 1.65948, 1.66898, 1.67819, 1.67246, 1.65549, 1.63434, 1.66417, 1.74715, 1.81402, 1.83412, 1.83178, 1.79739, 1.65549, 1.60601, 1.62354, 1.61365, 1.60594, 1.59677, 1.59279, 1.59239, 1.59182, 1.58538, 1.58273, 1.58336, 1.57871, 1.57323, 1.57259, 1.5608, 1.57646, 1.56932, 1.57465, 1.5483, 1.54808, 1.54796, 1.54704, 1.54688, 1.54359, 1.53325, 1.52726, 1.52124, 1.51683, 1.51011, 1.51822, 1.50396, 1.50695, 1.51993, 1.51246, 1.5182, 1.49036, 1.5617, 1.65414, 1.65751, 1.63159, 1.6552, 1.6451, 1.54432, 1.43717, 1.48581, 1.48928, 1.48014, 1.472, 1.46066, 1.46383, 1.45487, 1.45437, 1.45123, 1.44965, 1.44776, 1.44253, 1.44011, 1.43521, 1.43654, 1.43312, 1.43507, 1.43905, 1.4313, 1.42914, 1.42626, 1.42518, 1.42307, 1.4198, 1.41723, 1.41516, 1.41233, 1.40759, 1.40587, 1.40286, 1.39965, 1.39646, 1.39666, 1.3952, 1.39014, 1.3892, 1.38629, 1.38625, 1.38485, 1.38084, 1.3796, 1.38792, 1.39214, 1.38502, 1.39204, 1.48106, 1.48238, 1.49189, 1.50156, 1.52611, 1.5064, 1.48182, 1.36515, 1.36128, 1.36021, 1.36398, 1.35008, 1.34721, 1.34617, 1.34297, 1.33965, 1.33522, 1.33563
1.6995, 1.69609, 1.69068, 1.68835, 1.68475, 1.68212, 1.6784, 1.67563, 1.6736, 1.67173, 1.6943, 1.68182, 1.66585, 1.6337, 1.63068, 1.81096, 1.80357, 1.86949, 1.88653, 1.83192, 1.71331, 1.6044, 1.62582, 1.61001, 1.61137, 1.60922, 1.60295, 1.59919, 1.59783, 1.59265, 1.59176, 1.59229, 1.58619, 1.58466, 1.57018, 1.5792, 1.56948, 1.57092, 1.5854, 1.56239, 1.55992, 1.55864, 1.54949, 1.54731, 1.54729, 1.54125, 1.53611, 1.52915, 1.52822, 1.52687, 1.53263, 1.527, 1.51465, 1.51733, 1.52699, 1.53483, 1.52082, 1.54298, 1.60898, 1.62971, 1.6623, 1.64203, 1.62428, 1.50553, 1.46387, 1.46369, 1.49683, 1.48509, 1.48983, 1.46965, 1.47081, 1.46219, 1.46381, 1.47191, 1.45701, 1.45102, 1.44694, 1.44189, 1.43882, 1.43945, 1.44007, 1.44363, 1.44434, 1.44029, 1.43181, 1.42992, 1.42795, 1.42952, 1.42897, 1.42545, 1.42289, 1.41364, 1.41023, 1.40895, 1.40914, 1.41011, 1.40828, 1.40104, 1.3976, 1.39857, 1.40664, 1.39038, 1.38834, 1.38819, 1.38868, 1.3886, 1.38344, 1.38357, 1.37143, 1.36427, 1.44415, 1.48709, 1.52843, 1.51816, 1.51884, 1.5019, 1.45805, 1.39224, 1.37861, 1.36575, 1.36401, 1.35048, 1.34857, 1.35327, 1.3652, 1.34856, 1.347, 1.33859
1.6999, 1.6904, 1.69788, 1.68336, 1.68038, 1.68558, 1.6774, 1.67789, 1.67942, 1.67016, 1.68239, 1.67134, 1.67248, 1.62602, 1.66948, 1.74123, 1.77286, 1.84731, 1.85913, 1.78349, 1.71156, 1.59659, 1.63344, 1.62394, 1.63372, 1.61471, 1.61614, 1.59949, 1.59393, 1.5904, 1.59072, 1.59015, 1.59224, 1.58296, 1.58263, 1.57734, 1.57334, 1.57762, 1.58782, 1.57564, 1.57601, 1.56383, 1.55046, 1.54764, 1.54432, 1.54403, 1.53847, 1.53671, 1.53375, 1.53063, 1.52835, 1.53307, 1.52486, 1.52524, 1.53781, 1.53455, 1.53331, 1.57769, 1.61995, 1.66175, 1.67028, 1.66344, 1.63807, 1.58436, 1.46824, 1.48521, 1.48823, 1.49713, 1.49211, 1.48547, 1.48114, 1.479, 1.47552, 1.47491, 1.46621, 1.46232, 1.4563, 1.45028, 1.44724, 1.44704, 1.44882, 1.4505, 1.45021, 1.44307, 1.43833, 1.43631, 1.43311, 1.4334, 1.43057, 1.4279, 1.42381, 1.42091, 1.41901, 1.4172, 1.41432, 1.41329, 1.41059, 1.41082, 1.40401, 1.40322, 1.40067, 1.39575, 1.39252, 1.39546, 1.39147, 1.39207, 1.39289, 1.39334, 1.39562, 1.4168, 1.44819, 1.52856, 1.52652, 1.56084, 1.53562, 1.53065, 1.48273, 1.42076, 1.37196, 1.37853, 1.36836, 1.35768, 1.35429, 1.35503, 1.35455, 1.35085, 1.3601, 1.37016
1.69071, 1.68533, 1.67325, 1.66606, 1.66414, 1.66161, 1.66606, 1.67167, 1.67282, 1.67173, 1.65936, 1.66442, 1.65786, 1.62436, 1.68229, 1.73117, 1.85326, 1.84451, 1.85667, 1.83728, 1.66574, 1.58974, 1.62431, 1.62132, 1.62355, 1.61395, 1.59852, 1.58182, 1.57277, 1.60628, 1.58492, 1.58385, 1.56862, 1.5644, 1.5652, 1.57537, 1.56682, 1.57194, 1.57958, 1.5807, 1.57102, 1.54877, 1.54392, 1.54324, 1.54309, 1.54211, 1.53884, 1.53183, 1.52002, 1.52256, 1.53048, 1.52164, 1.51982, 1.51511, 1.52575, 1.52342, 1.48308, 1.5344, 1.58321, 1.62323, 1.65154, 1.6525, 1.62388, 1.56642, 1.47484, 1.46475, 1.49333, 1.49047, 1.49971, 1.48542, 1.46877, 1.46901, 1.48516, 1.46805, 1.46255, 1.46232, 1.46485, 1.44406, 1.43342, 1.43811, 1.44179, 1.44626, 1.44203, 1.43453, 1.42703, 1.42234, 1.42337, 1.42316, 1.42422, 1.4212, 1.41734, 1.41505, 1.41319, 1.4084, 1.40195, 1.40258, 1.40139, 1.3982, 1.40694, 1.39555, 1.39147, 1.38581, 1.39159, 1.39663, 1.38221, 1.38488, 1.38647, 1.40859, 1.36004, 1.3797, 1.44692, 1.49714, 1.52813, 1.5257, 1.4771, 1.51026, 1.47563, 1.41957, 1.35473, 1.36651, 1.35175, 1.37044, 1.37163, 1.36536, 1.36126, 1.34033, 1.33485, 1.33287
1.69178, 1.68804, 1.68189, 1.66977, 1.67306, 1.66751, 1.67067, 1.6721, 1.67126, 1.65585, 1.65711, 1.6643, 1.66939, 1.63226, 1.69781, 1.75823, 1.76676, 1.86955, 1.88551, 1.85471, 1.66473, 1.6106, 1.63546, 1.61861, 1.61371, 1.61149, 1.60706, 1.57988, 1.57299, 1.58189, 1.58614, 1.58539, 1.57534, 1.56142, 1.55945, 1.56026, 1.55984, 1.55754, 1.56546, 1.56938, 1.56563, 1.54807, 1.54839, 1.5493, 1.5468, 1.5442, 1.53915, 1.52775, 1.51987, 1.53042, 1.52479, 1.52654, 1.51265, 1.52261, 1.52077, 1.51076, 1.49306, 1.52376, 1.61727, 1.62473, 1.65567, 1.65423, 1.66563, 1.57194, 1.45188, 1.47186, 1.48183, 1.48255, 1.50288, 1.49915, 1.46858, 1.47033, 1.47109, 1.46471, 1.45071, 1.44927, 1.44615, 1.43916, 1.4298, 1.42948, 1.43851, 1.44645, 1.43996, 1.42692, 1.41706, 1.41108, 1.40905, 1.40926, 1.41911, 1.40746, 1.40482, 1.40057, 1.40265, 1.3953, 1.38793, 1.38744, 1.38792, 1.38928, 1.40388, 1.39852, 1.39584, 1.4106, 1.37847, 1.37193, 1.37165, 1.37215, 1.37461, 1.39223, 1.37763, 1.36245, 1.40539, 1.48915, 1.54086, 1.52317, 1.53956, 1.53088, 1.47215, 1.41208, 1.34053, 1.36297, 1.3755, 1.35413, 1.35397, 1.35036, 1.34921, 1.32628, 1.32321, 1.32332
1.69915, 1.691, 1.68885, 1.68425, 1.68285, 1.68163, 1.68044, 1.67638, 1.68235, 1.67573, 1.66433, 1.6576, 1.64724, 1.63106, 1.69661, 1.75559, 1.80323, 1.90646, 1.90267, 1.86831, 1.7646, 1.63008, 1.64047, 1.63754, 1.63203, 1.6241, 1.61262, 1.59988, 1.60194, 1.5995, 1.59309, 1.59049, 1.58606, 1.58109, 1.57632, 1.57417, 1.57174, 1.57029, 1.5774, 1.59935, 1.58346, 1.5724, 1.55801, 1.55525, 1.54767, 1.54469, 1.54214, 1.54011, 1.54501, 1.54357, 1.54074, 1.53045, 1.52743, 1.52373, 1.53383, 1.53744, 1.49863, 1.53261, 1.60053, 1.66603, 1.68208, 1.67336, 1.65655, 1.5546, 1.50613, 1.48411, 1.48803, 1.49311, 1.51065, 1.49594, 1.48488, 1.4864, 1.47289, 1.46901, 1.46275, 1.45705, 1.44974, 1.45153, 1.44426, 1.44725, 1.45024, 1.45169, 1.44771, 1.4419, 1.43738, 1.43981, 1.42387, 1.42103, 1.41633, 1.41585, 1.41248, 1.41343, 1.41008, 1.40542, 1.40307, 1.40511, 1.4055, 1.4162, 1.4069, 1.40684, 1.40781, 1.41298, 1.39211, 1.3943, 1.38854, 1.39429, 1.39837, 1.39313, 1.39951, 1.38393, 1.39914, 1.44513, 1.47501, 1.51756, 1.51099, 1.51728, 1.45863, 1.39238, 1.34415, 1.38024, 1.36923, 1.36553, 1.35382, 1.35427, 1.35463, 1.33739, 1.34093, 1.34051
1.70425, 1.69027, 1.68753, 1.68212, 1.68279, 1.67515, 1.67281, 1.6721, 1.66498, 1.66864, 1.66488, 1.66056, 1.6401, 1.67514, 1.71405, 1.78241, 1.80054, 1.85826, 1.87267, 1.81955, 1.71954, 1.61989, 1.62549, 1.62172, 1.61776, 1.62709, 1.61758, 1.5993, 1.59327, 1.61629, 1.59654, 1.58894, 1.58568, 1.58106, 1.5801, 1.57754, 1.56994, 1.5694, 1.57596, 1.57167, 1.57331, 1.57098, 1.56061, 1.55765, 1.55199, 1.54686, 1.55132, 1.53703, 1.53417, 1.53411, 1.53788, 1.5266, 1.5217, 1.52773, 1.52751, 1.53161, 1.51455, 1.55071, 1.59557, 1.64481, 1.67116, 1.64438, 1.62625, 1.57244, 1.49933, 1.47171, 1.4936, 1.48909, 1.50734, 1.50665, 1.48328, 1.47904, 1.47169, 1.47466, 1.46401, 1.4558, 1.45291, 1.46547, 1.45483, 1.48354, 1.44844, 1.44715, 1.44996, 1.43902, 1.43712, 1.43722, 1.4338, 1.43618, 1.43629, 1.429, 1.42615, 1.43922, 1.41927, 1.41587, 1.4132, 1.41331, 1.40943, 1.40871, 1.40619, 1.40621, 1.40389, 1.40013, 1.40359, 1.39547, 1.40326, 1.40804, 1.39341, 1.39455, 1.39029, 1.38203, 1.39655, 1.47858, 1.49007, 1.52628, 1.55184, 1.53497, 1.47918, 1.39181, 1.35468, 1.37478, 1.367, 1.37056, 1.35772, 1.35502, 1.34828, 1.34979, 1.35001, 1.35055
1.68751, 1.68183, 1.67929, 1.67545, 1.67521, 1.67213, 1.67107, 1.66829, 1.65914, 1.65764, 1.65893, 1.65987, 1.66186, 1.62164, 1.69036, 1.74116, 1.80305, 1.85122, 1.87234, 1.85361, 1.68252, 1.61337, 1.62052, 1.61722, 1.61531, 1.61341, 1.60378, 1.58883, 1.58457, 1.58212, 1.58189, 1.58265, 1.57697, 1.57581, 1.57201, 1.56842, 1.57264, 1.56364, 1.56263, 1.5605, 1.57606, 1.5598, 1.54576, 1.54775, 1.5498, 1.53338, 1.53191, 1.53064, 1.52646, 1.52723, 1.52589, 1.52292, 1.52309, 1.52315, 1.51737, 1.51687, 1.52037, 1.54283, 1.59941, 1.64131, 1.65226, 1.64278, 1.61992, 1.56187, 1.49402, 1.48508, 1.48327, 1.47709, 1.4897, 1.49383, 1.47595, 1.47174, 1.45658, 1.45118, 1.44544, 1.44413, 1.44427, 1.44536, 1.44519, 1.44377, 1.44069, 1.43802, 1.43691, 1.43602, 1.43246, 1.4302, 1.42599, 1.42629, 1.42387, 1.42029, 1.41691, 1.4137, 1.40924, 1.4065, 1.40254, 1.39998, 1.39702, 1.39535, 1.39388, 1.3929, 1.39297, 1.3923, 1.39882, 1.38836, 1.39094, 1.39163, 1.38578, 1.38717, 1.38797, 1.37352, 1.4252, 1.45387, 1.50138, 1.52943, 1.52784, 1.50966, 1.48047, 1.38623, 1.35878, 1.36507, 1.36345, 1.35883, 1.3499, 1.34258, 1.34405, 1.34018, 1.34559, 1.33967
1.6783, 1.67546, 1.67146, 1.66825, 1.66704, 1.66442, 1.66179, 1.6653, 1.65526, 1.64729, 1.64656, 1.64949, 1.65921, 1.61466, 1.67226, 1.75146, 1.79554, 1.84383, 1.86898, 1.87473, 1.67298, 1.60763, 1.60759, 1.61662, 1.60216, 1.59704, 1.59153, 1.59975, 1.58209, 1.57844, 1.56983, 1.57751, 1.56438, 1.56619, 1.5655, 1.55872, 1.55495, 1.55924, 1.55831, 1.5517, 1.56167, 1.55693, 1.54068, 1.53335, 1.54153, 1.53015, 1.52739, 1.52547, 1.51993, 1.51814, 1.51744, 1.51123, 1.50678, 1.50398, 1.52317, 1.51049, 1.50164, 1.54359, 1.59039, 1.61162, 1.62827, 1.63398, 1.61731, 1.58219, 1.47806, 1.46372, 1.48626, 1.47393, 1.47568, 1.47684, 1.47157, 1.46737, 1.46671, 1.46298, 1.4503, 1.44162, 1.44098, 1.44339, 1.44579, 1.44399, 1.44161, 1.43282, 1.42971, 1.42922, 1.42492, 1.42003, 1.41734, 1.42112, 1.41964, 1.41641, 1.4064, 1.40369, 1.39945, 1.40097, 1.39968, 1.3938, 1.38797, 1.39037, 1.38887, 1.38545, 1.39252, 1.38838, 1.3842, 1.38172, 1.37944, 1.37728, 1.37804, 1.38889, 1.37171, 1.36397, 1.46216, 1.45761, 1.49875, 1.51784, 1.54859, 1.5228, 1.5044, 1.43051, 1.36144, 1.36405, 1.35363, 1.34328, 1.34371, 1.3399, 1.33781, 1.33301, 1.33433, 1.33629
1.68523, 1.68912, 1.6815, 1.67685, 1.67325, 1.66825, 1.67233, 1.68625, 1.65799, 1.65411, 1.65169, 1.65059, 1.64793, 1.61727, 1.69987, 1.7212, 1.79726, 1.85807, 1.8728, 1.85644, 1.73809, 1.5956, 1.62996, 1.61346, 1.61027, 1.59926, 1.60001, 1.59007, 1.58697, 1.58264, 1.58856, 1.57325, 1.56914, 1.56653, 1.56429, 1.562, 1.56489, 1.56833, 1.56875, 1.56022, 1.55057, 1.55679, 1.54144, 1.55087, 1.54355, 1.54406, 1.54419, 1.52845, 1.52481, 1.53103, 1.5133, 1.52357, 1.50289, 1.5052, 1.51633, 1.52446, 1.52003, 1.51353, 1.5476, 1.60435, 1.64091, 1.63941, 1.60803, 1.57296, 1.5122, 1.45117, 1.48278, 1.47954, 1.47147, 1.483, 1.47072, 1.45456, 1.45239, 1.451, 1.44375, 1.44343, 1.44329, 1.44344, 1.44048, 1.43959, 1.43749, 1.43506, 1.43062, 1.42924, 1.42604, 1.42318, 1.42514, 1.42631, 1.42371, 1.41808, 1.40994, 1.40412, 1.40257, 1.3999, 1.39495, 1.39166, 1.39002, 1.38708, 1.38533, 1.38583, 1.3851, 1.38426, 1.38236, 1.37851, 1.39096, 1.3719, 1.39331, 1.38134, 1.37625, 1.34733, 1.43338, 1.44144, 1.47793, 1.52056, 1.55889, 1.53554, 1.52352, 1.41536, 1.35761, 1.3652, 1.36663, 1.34739, 1.33631, 1.33795, 1.33362, 1.33496, 1.33993, 1.33293
1.68625, 1.68298, 1.68365, 1.67627, 1.672, 1.68629, 1.68911, 1.66826, 1.66104, 1.65144, 1.64876, 1.65183, 1.64488, 1.63152, 1.6756, 1.69199, 1.79292, 1.89183, 1.87876, 1.84555, 1.70096, 1.59244, 1.61987, 1.62284, 1.61995, 1.6031, 1.593, 1.59093, 1.60255, 1.5991, 1.57922, 1.60654, 1.57223, 1.57541, 1.56382, 1.561, 1.55764, 1.55801, 1.55128, 1.54766, 1.54671, 1.55862, 1.55541, 1.55759, 1.53825, 1.535, 1.53064, 1.52697, 1.52852, 1.54074, 1.51428, 1.51384, 1.51062, 1.51829, 1.51654, 1.52372, 1.52141, 1.5085, 1.54134, 1.61568, 1.65768, 1.64394, 1.59632, 1.56842, 1.52624, 1.47915, 1.49906, 1.47462, 1.47476, 1.4754, 1.48529, 1.45711, 1.45894, 1.45822, 1.45087, 1.44811, 1.44835, 1.44457, 1.43985, 1.43686, 1.4355, 1.43443, 1.43322, 1.42952, 1.44743, 1.42481, 1.42879, 1.42196, 1.4193, 1.41701, 1.41267, 1.40719, 1.40415, 1.40175, 1.40004, 1.39686, 1.39553, 1.39206, 1.39208, 1.39117, 1.38827, 1.38597, 1.40608, 1.39562, 1.38833, 1.38412, 1.38669, 1.38921, 1.35349, 1.33967, 1.39868, 1.48062, 1.49345, 1.52576, 1.56538, 1.56458, 1.52271, 1.3918, 1.36049, 1.36836, 1.35803, 1.35117, 1.35873, 1.34308, 1.35521, 1.33813, 1.35734, 1.33601
1.67777, 1.67487, 1.66869, 1.6731, 1.66198, 1.65823, 1.6552, 1.64853, 1.64428, 1.63786, 1.64593, 1.63094, 1.62897, 1.59684, 1.68275, 1.70626, 1.73928, 1.85887, 1.8831, 1.83936, 1.76064, 1.59705, 1.60935, 1.5964, 1.58876, 1.58597, 1.58269, 1.57826, 1.57625, 1.57281, 1.57114, 1.5684, 1.56542, 1.56158, 1.5584, 1.55607, 1.5536, 1.54576, 1.54174, 1.5442, 1.54372, 1.53417, 1.55955, 1.54133, 1.53974, 1.52181, 1.51717, 1.51588, 1.51093, 1.50796, 1.50867, 1.49955, 1.51707, 1.49629, 1.49576, 1.5079, 1.5064, 1.49311, 1.56609, 1.62308, 1.64305, 1.62902, 1.61535, 1.57724, 1.52246, 1.45327, 1.46869, 1.48221, 1.47065, 1.48129, 1.48329, 1.47613, 1.45794, 1.4403, 1.43857, 1.4369, 1.43464, 1.43249, 1.43021, 1.42638, 1.42291, 1.42116, 1.41925, 1.41861, 1.41537, 1.41096, 1.40778, 1.40542, 1.40379, 1.41621, 1.39938, 1.39528, 1.39189, 1.38913, 1.38699, 1.38452, 1.38277, 1.38155, 1.37872, 1.3775, 1.37447, 1.37208, 1.36912, 1.36845, 1.36597, 1.38589, 1.36531, 1.37149, 1.3756, 1.33183, 1.35714, 1.41756, 1.56271, 1.52859, 1.53455, 1.56949, 1.49939, 1.37165, 1.34649, 1.35646, 1.35532, 1.34008, 1.33785, 1.33245, 1.33053, 1.3253, 1.34397, 1.3261
1.67843, 1.67305, 1.66868, 1.66522, 1.6641, 1.65638, 1.65088, 1.64612, 1.64163, 1.63491, 1.63331, 1.6406, 1.62814, 1.58592, 1.61942, 1.68944, 1.73379, 1.84102, 1.8689, 1.85852, 1.69279, 1.57464, 1.60942, 1.60631, 1.60065, 1.59903, 1.5824, 1.5787, 1.57573, 1.57119, 1.56838, 1.5674, 1.56441, 1.56295, 1.55887, 1.55465, 1.55169, 1.5477, 1.53762, 1.53441, 1.52718, 1.52699, 1.54479, 1.54463, 1.53333, 1.53106, 1.52825, 1.52542, 1.51215, 1.5099, 1.51782, 1.50268, 1.50073, 1.51101, 1.50567, 1.50826, 1.49959, 1.47184, 1.57421, 1.62482, 1.64747, 1.64388, 1.59956, 1.57007, 1.51034, 1.44989, 1.46763, 1.46568, 1.45838, 1.46458, 1.47713, 1.46411, 1.44726, 1.44026, 1.43893, 1.43067, 1.43071, 1.43131, 1.42386, 1.42065, 1.41772, 1.41647, 1.41328, 1.41307, 1.41668, 1.41335, 1.40179, 1.39635, 1.39504, 1.39437, 1.39286, 1.39408, 1.39296, 1.3924, 1.38776, 1.38379, 1.38122, 1.37868, 1.3764, 1.37481, 1.37119, 1.36904, 1.36615, 1.36413, 1.36305, 1.36349, 1.36094, 1.36075, 1.3476, 1.34471, 1.42747, 1.47044, 1.48496, 1.50938, 1.54808, 1.5354, 1.51011, 1.43061, 1.34294, 1.34773, 1.33655, 1.33859, 1.32858, 1.32629, 1.32364, 1.32033, 1.32103, 1.31702
1.67001, 1.66478, 1.66197, 1.65865, 1.65583, 1.65072, 1.64798, 1.64198, 1.64017, 1.64331, 1.63122, 1.6275, 1.63375, 1.60662, 1.62222, 1.74167, 1.78019, 1.91813, 1.89305, 1.88868, 1.74964, 1.56098, 1.59968, 1.59775, 1.59338, 1.58696, 1.58967, 1.57901, 1.57473, 1.57127, 1.56732, 1.56451, 1.56338, 1.56155, 1.55803, 1.55389, 1.54936, 1.54424, 1.54365, 1.5338, 1.5326, 1.53138, 1.53149, 1.54782, 1.52456, 1.52186, 1.51938, 1.51654, 1.51537, 1.51253, 1.51064, 1.50575, 1.50409, 1.50079, 1.50203, 1.51989, 1.50077, 1.50018, 1.53665, 1.5706, 1.63678, 1.61992, 1.62803, 1.56136, 1.56137, 1.44842, 1.48056, 1.4761, 1.46064, 1.46036, 1.47223, 1.47447, 1.4526, 1.44465, 1.44083, 1.45756, 1.44782, 1.42666, 1.42646, 1.42388, 1.41993, 1.41692, 1.41368, 1.41109, 1.40834, 1.40573, 1.40451, 1.40228, 1.40068, 1.39734, 1.39496, 1.39428, 1.3941, 1.38902, 1.38607, 1.38445, 1.38042, 1.37601, 1.37347, 1.37345, 1.37063, 1.36858, 1.36863, 1.36197, 1.35935, 1.36008, 1.35804, 1.35863, 1.35759, 1.34513, 1.4028, 1.47874, 1.50601, 1.55188, 1.5544, 1.54419, 1.48732, 1.3424, 1.30881, 1.34106, 1.33699, 1.32907, 1.33704, 1.33001, 1.32262, 1.31921, 1.31594, 1.31645
1.67039, 1.66206, 1.65759, 1.65422, 1.6494, 1.64714, 1.64438, 1.64221, 1.63846, 1.63696, 1.6373, 1.63529, 1.64684, 1.62141, 1.65081, 1.71721, 1.80279, 1.85808, 1.90184, 1.81969, 1.74767, 1.58271, 1.61353, 1.60695, 1.59339, 1.58811, 1.58357, 1.57966, 1.57287, 1.56881, 1.56606, 1.56263, 1.55739, 1.56054, 1.55813, 1.55351, 1.54854, 1.54534, 1.54313, 1.54788, 1.53733, 1.53386, 1.53733, 1.54117, 1.53783, 1.52396, 1.51981, 1.51885, 1.52225, 1.51554, 1.51351, 1.51241, 1.5061, 1.50377, 1.51596, 1.50589, 1.47191, 1.47319, 1.53838, 1.61915, 1.61733, 1.63421, 1.62459, 1.57874, 1.53433, 1.46259, 1.47336, 1.47403, 1.46886, 1.47178, 1.48156, 1.47971, 1.47306, 1.44592, 1.44302, 1.43701, 1.43993, 1.43315, 1.42975, 1.42624, 1.42214, 1.4212, 1.41891, 1.417, 1.41343, 1.41286, 1.41238, 1.40913, 1.40715, 1.40532, 1.40364, 1.40302, 1.39939, 1.39638, 1.39348, 1.38898, 1.38244, 1.3797, 1.37952, 1.37867, 1.37611, 1.37385, 1.37263, 1.36877, 1.37058, 1.36503, 1.3641, 1.37552, 1.37864, 1.35012, 1.38616, 1.43617, 1.48401, 1.51067, 1.53252, 1.55056, 1.49151, 1.40148, 1.32539, 1.35166, 1.33499, 1.33039, 1.33865, 1.33955, 1.32644, 1.32595, 1.32107, 1.32182
1.6681, 1.66253, 1.65603, 1.65319, 1.65211, 1.65733, 1.64164, 1.63961, 1.6367, 1.6359, 1.63903, 1.6518, 1.64256, 1.61943, 1.63391, 1.71531, 1.752, 1.83296, 1.88362, 1.79905, 1.69678, 1.56435, 1.61272, 1.59967, 1.59969, 1.58344, 1.57944, 1.57542, 1.57207, 1.56513, 1.56174, 1.56488, 1.55469, 1.55854, 1.56204, 1.55358, 1.54808, 1.54489, 1.54027, 1.53702, 1.53315, 1.54879, 1.52644, 1.53543, 1.53858, 1.52662, 1.51736, 1.52244, 1.51287, 1.51227, 1.50568, 1.50363, 1.50032, 1.49786, 1.50088, 1.51069, 1.5, 1.47896, 1.533, 1.53882, 1.62081, 1.61137, 1.60572, 1.55889, 1.52724, 1.4349, 1.46722, 1.46398, 1.45423, 1.45449, 1.45948, 1.47699, 1.46458, 1.43954, 1.43636, 1.43987, 1.42878, 1.42832, 1.42642, 1.42797, 1.42721, 1.42406, 1.41639, 1.41604, 1.41568, 1.4124, 1.41198, 1.41136, 1.4085, 1.40533, 1.40192, 1.40139, 1.40002, 1.3987, 1.39608, 1.38839, 1.39289, 1.38345, 1.38116, 1.38072, 1.37908, 1.38429, 1.38412, 1.37204, 1.37538, 1.36775, 1.37451, 1.376, 1.37134, 1.35523, 1.40168, 1.44763, 1.46784, 1.52844, 1.57027, 1.54758, 1.48613, 1.37031, 1.31733, 1.33676, 1.33422, 1.32954, 1.32733, 1.32587, 1.32576, 1.32743, 1.32175, 1.3198
1.66865, 1.66788, 1.66249, 1.65888, 1.65987, 1.65333, 1.64683, 1.64296, 1.64895, 1.63698, 1.63537, 1.63658, 1.63295, 1.61217, 1.6606, 1.7316, 1.82213, 1.85443, 1.90324, 1.89392, 1.71043, 1.57756, 1.60464, 1.5981, 1.59053, 1.58569, 1.58305, 1.57437, 1.57216, 1.56913, 1.56345, 1.56653, 1.55717, 1.55695, 1.55669, 1.5541, 1.54916, 1.54792, 1.54446, 1.53995, 1.53796, 1.53211, 1.53299, 1.5364, 1.54049, 1.53718, 1.51642, 1.51441, 1.51097, 1.51376, 1.50263, 1.49914, 1.49614, 1.49619, 1.49614, 1.49826, 1.50688, 1.48638, 1.50899, 1.57244, 1.58882, 1.60413, 1.58866, 1.57541, 1.52419, 1.44858, 1.47061, 1.46167, 1.45262, 1.447, 1.45812, 1.46352, 1.45672, 1.44111, 1.43737, 1.44496, 1.44528, 1.4282, 1.42808, 1.42877, 1.42307, 1.42017, 1.41694, 1.41568, 1.41308, 1.41304, 1.41092, 1.40737, 1.40484, 1.40373, 1.4008, 1.4003, 1.3978, 1.39611, 1.38726, 1.38437, 1.38115, 1.3799, 1.37838, 1.37762, 1.37626, 1.37295, 1.37089, 1.36872, 1.36762, 1.36706, 1.36886, 1.3681, 1.36857, 1.36251, 1.40037, 1.47495, 1.50276, 1.56354, 1.57072, 1.56093, 1.52463, 1.39581, 1.33406, 1.33711, 1.33757, 1.33069, 1.32798, 1.32761, 1.32558, 1.3258, 1.32622, 1.33025
1.67568, 1.67299, 1.67315, 1.66857, 1.66625, 1.65879, 1.65911, 1.65141, 1.64605, 1.64845, 1.63835, 1.63481, 1.63559, 1.63131, 1.61724, 1.69202, 1.78277, 1.85843, 1.89728, 1.89629, 1.77722, 1.57419, 1.60292, 1.60983, 1.60239, 1.59296, 1.58357, 1.57955, 1.57481, 1.57383, 1.56759, 1.56447, 1.56116, 1.56151, 1.55873, 1.55243, 1.55165, 1.54718, 1.5433, 1.54119, 1.53716, 1.53383, 1.53028, 1.52823, 1.53413, 1.53766, 1.52721, 1.51488, 1.51039, 1.50823, 1.50939, 1.50299, 1.4995, 1.49773, 1.49999, 1.49997, 1.4901, 1.46894, 1.50974, 1.57526, 1.621, 1.6812, 1.60135, 1.56876, 1.54123, 1.46299, 1.47195, 1.46368, 1.4598, 1.4575, 1.44882, 1.46165, 1.4648, 1.44835, 1.44528, 1.43414, 1.4317, 1.42947, 1.4272, 1.42536, 1.42257, 1.42017, 1.41674, 1.41535, 1.4127, 1.41086, 1.40632, 1.40517, 1.40478, 1.40209, 1.39942, 1.39662, 1.39232, 1.39075, 1.38701, 1.38557, 1.38312, 1.37809, 1.37773, 1.37645, 1.37459, 1.37359, 1.3716, 1.37063, 1.36846, 1.36729, 1.37324, 1.37999, 1.37603, 1.3509, 1.40804, 1.44509, 1.47239, 1.51507, 1.54938, 1.53794, 1.42383, 1.4225, 1.33712, 1.35045, 1.3407, 1.35422, 1.32935, 1.34208, 1.33442, 1.32869, 1.32393, 1.32319
1.67443, 1.67101, 1.66991, 1.66616, 1.6628, 1.65913, 1.6575, 1.65276, 1.65015, 1.64267, 1.63788, 1.63371, 1.64799, 1.61661, 1.61742, 1.65266, 1.75073, 1.84467, 1.87917, 1.90469, 1.75434, 1.58222, 1.60224, 1.61454, 1.59924, 1.59978, 1.58199, 1.59018, 1.58165, 1.569, 1.56651, 1.56427, 1.56095, 1.55847, 1.55578, 1.55475, 1.55204, 1.55036, 1.54375, 1.539, 1.53718, 1.53436, 1.52821, 1.53348, 1.53399, 1.53228, 1.54012, 1.53283, 1.51142, 1.50929, 1.50378, 1.50056, 1.50855, 1.49709, 1.50502, 1.50869, 1.48959, 1.47586, 1.49303, 1.52386, 1.6025, 1.61973, 1.6216, 1.58706, 1.53026, 1.44248, 1.47498, 1.46942, 1.45272, 1.45703, 1.44828, 1.45695, 1.47445, 1.46232, 1.44482, 1.45423, 1.43237, 1.43088, 1.42821, 1.42663, 1.42472, 1.41978, 1.41696, 1.4161, 1.4128, 1.41154, 1.40855, 1.40649, 1.40953, 1.40912, 1.3988, 1.39569, 1.39242, 1.39124, 1.3887, 1.38657, 1.38384, 1.38137, 1.38007, 1.37819, 1.37737, 1.37575, 1.37424, 1.37338, 1.37189, 1.37041, 1.36451, 1.37169, 1.37056, 1.36329, 1.37536, 1.44137, 1.4752, 1.5472, 1.57267, 1.55719, 1.50919, 1.42527, 1.34069, 1.35075, 1.34699, 1.3404, 1.33591, 1.33374, 1.33207, 1.32975, 1.3539, 1.32686
1.67432, 1.67184, 1.67088, 1.66736, 1.66399, 1.65886, 1.6529, 1.65034, 1.65449, 1.64389, 1.63926, 1.64536, 1.63723, 1.63721, 1.61922, 1.68933, 1.75404, 1.86563, 1.86339, 1.95049, 1.72794, 1.5821, 1.60499, 1.59994, 1.58857, 1.58189, 1.57748, 1.57508, 1.57144, 1.56745, 1.56899, 1.56537, 1.5609, 1.55861, 1.55534, 1.55401, 1.551, 1.5474, 1.55138, 1.54001, 1.53812, 1.53346, 1.52865, 1.52588, 1.52734, 1.53321, 1.53101, 1.51387, 1.50982, 1.50701, 1.50363, 1.50184, 1.49916, 1.49611, 1.52344, 1.50525, 1.49432, 1.46544, 1.52482, 1.58282, 1.6062, 1.59485, 1.60977, 1.57544, 1.5134, 1.47905, 1.46899, 1.47546, 1.45357, 1.45022, 1.44728, 1.45785, 1.46001, 1.46366, 1.45317, 1.44697, 1.42953, 1.42843, 1.42591, 1.42446, 1.42066, 1.419, 1.41868, 1.41464, 1.41297, 1.4124, 1.41005, 1.42271, 1.40336, 1.40134, 1.39842, 1.39887, 1.39233, 1.38965, 1.38582, 1.3827, 1.38223, 1.38142, 1.37854, 1.37728, 1.37427, 1.37491, 1.37419, 1.3718, 1.3658, 1.36534, 1.36368, 1.36074, 1.36537, 1.34654, 1.41507, 1.44654, 1.4987, 1.527, 1.57994, 1.57527, 1.48881, 1.331, 1.33305, 1.35685, 1.34905, 1.35737, 1.3448, 1.33905, 1.33603, 1.33015, 1.32839, 1.32563
1.67275, 1.67146, 1.66512, 1.66211, 1.65843, 1.65561, 1.65275, 1.65352, 1.64477, 1.64101, 1.63828, 1.6355, 1.63658, 1.64847, 1.60657, 1.67288, 1.6863, 1.79591, 1.85449, 1.94991, 1.81659, 1.58624, 1.60006, 1.61123, 1.59013, 1.58394, 1.58112, 1.57724, 1.57349, 1.57201, 1.57073, 1.56863, 1.56585, 1.56201, 1.55922, 1.55403, 1.55143, 1.54796, 1.54461, 1.54238, 1.53684, 1.53372, 1.53004, 1.52743, 1.52708, 1.52494, 1.5439, 1.52228, 1.5131, 1.50997, 1.50697, 1.50603, 1.503, 1.50202, 1.49849, 1.50058, 1.49603, 1.48022, 1.5177, 1.57912, 1.58854, 1.59874, 1.59232, 1.60255, 1.52653, 1.47942, 1.46591, 1.46583, 1.46046, 1.45411, 1.44997, 1.44786, 1.4524, 1.45878, 1.45229, 1.45049, 1.43753, 1.42827, 1.42645, 1.42345, 1.42105, 1.42081, 1.41728, 1.41626, 1.41467, 1.412, 1.41059, 1.40708, 1.40391, 1.40234, 1.39854, 1.39552, 1.39273, 1.39027, 1.38685, 1.38483, 1.38202, 1.3811, 1.37928, 1.37703, 1.37603, 1.37445, 1.3728, 1.36846, 1.36737, 1.36358, 1.36046, 1.36091, 1.36381, 1.36461, 1.4159, 1.42964, 1.47468, 1.55746, 1.39834, 1.58228, 1.4797, 1.3888, 1.32969, 1.35816, 1.35577, 1.34285, 1.34661, 1.33801, 1.33448, 1.33214, 1.33108, 1.32673
1.67225, 1.67167, 1.66552, 1.6633, 1.65848, 1.66442, 1.64868, 1.64569, 1.6427, 1.64029, 1.64384, 1.65373, 1.64999, 1.6451, 1.60751, 1.68297, 1.76252, 1.80539, 1.90613, 1.91338, 1.84753, 1.58873, 1.60353, 1.60922, 1.60217, 1.58885, 1.58558, 1.60255, 1.57701, 1.5895, 1.57071, 1.5688, 1.56438, 1.56212, 1.56042, 1.55676, 1.55365, 1.55102, 1.54933, 1.54468, 1.54003, 1.53743, 1.53026, 1.52936, 1.52615, 1.53817, 1.53458, 1.53725, 1.52872, 1.52249, 1.51927, 1.52039, 1.51323, 1.50379, 1.50361, 1.51414, 1.49603, 1.48629, 1.52843, 1.57034, 1.62111, 1.60374, 1.59663, 1.56599, 1.49551, 1.47281, 1.47072, 1.47022, 1.46179, 1.45611, 1.45916, 1.45048, 1.44814, 1.45934, 1.4543, 1.44416, 1.44147, 1.43175, 1.42847, 1.4261, 1.42396, 1.42263, 1.42167, 1.41985, 1.41888, 1.41546, 1.41252, 1.40841, 1.40549, 1.40184, 1.39918, 1.39509, 1.39533, 1.39177, 1.38812, 1.38653, 1.38345, 1.38021, 1.3779, 1.37664, 1.37497, 1.37269, 1.37228, 1.36919, 1.36803, 1.36429, 1.36599, 1.3742, 1.36787, 1.36604, 1.38883, 1.43755, 1.50961, 1.5233, 1.58946, 1.58256, 1.53102, 1.4212, 1.3203, 1.35807, 1.36031, 1.34632, 1.34728, 1.34091, 1.33675, 1.33312, 1.32927, 1.32929
1.67526, 1.66848, 1.66477, 1.65877, 1.65658, 1.65455, 1.64784, 1.64569, 1.64224, 1.64176, 1.63646, 1.63545, 1.63576, 1.64508, 1.61329, 1.70994, 1.75812, 1.80829, 1.86832, 1.8706, 1.76861, 1.58235, 1.60028, 1.60509, 1.60675, 1.58692, 1.58284, 1.57913, 1.57554, 1.57163, 1.56858, 1.56166, 1.55906, 1.55749, 1.55542, 1.55677, 1.55053, 1.55008, 1.54772, 1.54061, 1.53853, 1.53473, 1.53161, 1.52696, 1.52535, 1.52397, 1.53814, 1.53657, 1.5136, 1.5129, 1.51076, 1.52018, 1.50252, 1.49992, 1.4995, 1.50675, 1.47142, 1.48055, 1.54484, 1.57781, 1.6076, 1.59712, 1.57972, 1.56476, 1.51662, 1.48427, 1.46424, 1.48288, 1.4646, 1.45565, 1.45162, 1.45452, 1.44497, 1.46451, 1.45694, 1.43972, 1.43357, 1.42994, 1.42689, 1.42441, 1.42287, 1.42203, 1.42046, 1.41985, 1.41496, 1.41346, 1.4106, 1.40878, 1.40587, 1.40281, 1.40397, 1.39885, 1.39879, 1.39365, 1.39082, 1.38611, 1.38415, 1.38007, 1.37746, 1.37494, 1.37365, 1.37048, 1.37229, 1.37767, 1.36455, 1.36341, 1.36475, 1.37106, 1.36808, 1.3695, 1.38601, 1.43023, 1.46679, 1.51945, 1.57088, 1.59605, 1.50676, 1.44065, 1.33737, 1.35693, 1.36109, 1.35791, 1.33098, 1.33619, 1.32712, 1.3273, 1.32861, 1.32775
1.67576, 1.66902, 1.66734, 1.66203, 1.65762, 1.65422, 1.64806, 1.64532, 1.65639, 1.63834, 1.63882, 1.63678, 1.63581, 1.64527, 1.60935, 1.68384, 1.72525, 1.77251, 1.89331, 1.97599, 1.68992, 1.58606, 1.60252, 1.61389, 1.59094, 1.58958, 1.58204, 1.58984, 1.57667, 1.57135, 1.56747, 1.56496, 1.56426, 1.55754, 1.55558, 1.55431, 1.54892, 1.5471, 1.54681, 1.53882, 1.53436, 1.53168, 1.52986, 1.52752, 1.52481, 1.52174, 1.5233, 1.53428, 1.52361, 1.5123, 1.5224, 1.50959, 1.50537, 1.50273, 1.49884, 1.49974, 1.4937, 1.47735, 1.52834, 1.5269, 1.5827, 1.57366, 1.58764, 1.55663, 1.51967, 1.47078, 1.45931, 1.47122, 1.46053, 1.45504, 1.45277, 1.4484, 1.44685, 1.45434, 1.4622, 1.45164, 1.43777, 1.43668, 1.43393, 1.42529, 1.4258, 1.42305, 1.42231, 1.41789, 1.41584, 1.41435, 1.40966, 1.41033, 1.40552, 1.40347, 1.40145, 1.39903, 1.39638, 1.39218, 1.38895, 1.38497, 1.3824, 1.37653, 1.37437, 1.3704, 1.36751, 1.36758, 1.36898, 1.36668, 1.36373, 1.3622, 1.36402, 1.36182, 1.36572, 1.36652, 1.38273, 1.44336, 1.4848, 1.60396, 1.62508, 1.65585, 1.59315, 1.42911, 1.3286, 1.34131, 1.34723, 1.3322, 1.33989, 1.34651, 1.33026, 1.32641, 1.32881, 1.3284
1.67512, 1.66963, 1.66557, 1.65946, 1.65652, 1.65241, 1.6496, 1.64389, 1.64416, 1.64038, 1.63911, 1.6364, 1.63519, 1.6353, 1.62357, 1.69169, 1.77548, 1.80111, 1.93326, 1.93593, 1.84183, 1.58785, 1.59958, 1.60385, 1.59047, 1.58584, 1.58174, 1.57817, 1.5749, 1.57067, 1.57295, 1.5644, 1.56212, 1.5591, 1.55563, 1.55165, 1.54943, 1.54567, 1.54088, 1.53694, 1.53606, 1.53012, 1.52747, 1.52461, 1.52671, 1.52016, 1.52027, 1.53234, 1.54712, 1.51303, 1.51175, 1.50787, 1.50042, 1.49815, 1.49745, 1.49899, 1.46848, 1.48841, 1.55879, 1.56445, 1.59259, 1.58911, 1.57249, 1.53993, 1.52025, 1.48648, 1.45268, 1.47872, 1.4663, 1.45416, 1.45029, 1.44679, 1.44192, 1.43987, 1.45131, 1.44801, 1.4371, 1.43006, 1.43439, 1.42402, 1.42436, 1.4231, 1.42208, 1.41943, 1.41714, 1.41519, 1.41385, 1.41078, 1.40773, 1.4064, 1.40289, 1.39937, 1.39615, 1.39207, 1.38969, 1.38749, 1.37987, 1.37662, 1.37601, 1.37523, 1.36976, 1.36853, 1.36774, 1.36893, 1.37038, 1.36801, 1.36697, 1.36707, 1.37863, 1.36852, 1.36875, 1.4337, 1.45338, 1.52331, 1.58443, 1.58879, 1.55596, 1.40057, 1.35009, 1.35503, 1.34843, 1.33639, 1.33407, 1.33093, 1.32972, 1.32969, 1.32937, 1.327
1.67326, 1.665, 1.66144, 1.66531, 1.65856, 1.65066, 1.64585, 1.64242, 1.64094, 1.63843, 1.63665, 1.64139, 1.64714, 1.64095, 1.60483, 1.70314, 1.77021, 1.83381, 1.83524, 1.9839, 1.76157, 1.58165, 1.58607, 1.60442, 1.59559, 1.58589, 1.5819, 1.57699, 1.5739, 1.57199, 1.56934, 1.56522, 1.5612, 1.55606, 1.55449, 1.55377, 1.54652, 1.54344, 1.5418, 1.53481, 1.53207, 1.53094, 1.52653, 1.52004, 1.51937, 1.51868, 1.51699, 1.5343, 1.54151, 1.51797, 1.51984, 1.50949, 1.50152, 1.50169, 1.49851, 1.4997, 1.49616, 1.47508, 1.51325, 1.59, 1.57001, 1.60554, 1.56115, 1.56199, 1.54051, 1.48501, 1.45773, 1.4691, 1.47124, 1.46595, 1.44809, 1.4451, 1.44155, 1.44907, 1.45677, 1.46636, 1.47078, 1.46323, 1.42962, 1.42216, 1.42074, 1.41945, 1.41905, 1.4157, 1.41384, 1.41304, 1.4119, 1.40919, 1.40631, 1.40527, 1.41317, 1.40207, 1.39824, 1.39542, 1.3954, 1.38943, 1.38134, 1.37832, 1.37717, 1.37438, 1.37047, 1.37016, 1.37099, 1.36983, 1.36826, 1.3682, 1.36881, 1.37604, 1.37603, 1.36723, 1.35205, 1.441, 1.51289, 1.55548, 1.62687, 1.6262, 1.50152, 1.38095, 1.34487, 1.35088, 1.34434, 1.34011, 1.3353, 1.33714, 1.34843, 1.33002, 1.33331, 1.3274
1.66932, 1.66498, 1.66298, 1.65928, 1.65607, 1.65292, 1.64503, 1.64205, 1.63926, 1.63653, 1.63571, 1.63342, 1.63157, 1.63621, 1.6037, 1.64982, 1.70996, 1.76494, 1.77396, 1.89028, 1.6853, 1.58204, 1.58118, 1.59674, 1.6036, 1.58475, 1.58152, 1.58833, 1.57357, 1.57269, 1.56515, 1.56223, 1.55956, 1.55545, 1.55397, 1.55085, 1.54779, 1.54371, 1.54035, 1.53801, 1.53113, 1.52899, 1.52846, 1.52122, 1.51594, 1.51286, 1.5129, 1.53067, 1.54044, 1.53055, 1.50996, 1.50728, 1.5119, 1.4974, 1.49565, 1.51034, 1.4997, 1.47492, 1.53705, 1.65853, 1.62209, 1.59012, 1.56205, 1.56234, 1.53285, 1.50371, 1.46527, 1.4696, 1.46095, 1.45216, 1.4474, 1.44348, 1.44186, 1.44029, 1.44261, 1.4371, 1.4303, 1.43463, 1.43253, 1.42155, 1.42005, 1.41968, 1.41867, 1.41581, 1.41252, 1.41006, 1.40726, 1.40641, 1.40358, 1.40274, 1.4004, 1.39983, 1.3982, 1.39614, 1.39509, 1.38987, 1.38797, 1.38543, 1.38125, 1.37756, 1.37426, 1.3723, 1.37028, 1.36792, 1.37833, 1.36706, 1.36499, 1.3646, 1.37363, 1.37241, 1.36134, 1.39613, 1.45848, 1.52365, 1.58908, 1.5968, 1.56649, 1.42929, 1.33028, 1.3578, 1.35327, 1.33446, 1.33465, 1.33111, 1.3309, 1.32773, 1.32615, 1.34387
1.6709, 1.66684, 1.66262, 1.65873, 1.65617, 1.65143, 1.64732, 1.64059, 1.63851, 1.63573, 1.63648, 1.63479, 1.63419, 1.63566, 1.62641, 1.66557, 1.72741, 1.80276, 1.97019, 1.77797, 1.91339, 1.57545, 1.59447, 1.59888, 1.59027, 1.58465, 1.58193, 1.57849, 1.57361, 1.56923, 1.57178, 1.56324, 1.56097, 1.55749, 1.5558, 1.55257, 1.54879, 1.54511, 1.54176, 1.53759, 1.53436, 1.53193, 1.52766, 1.52301, 1.51923, 1.51641, 1.51518, 1.52667, 1.52837, 1.53429, 1.52222, 1.51947, 1.51045, 1.50011, 1.49864, 1.49912, 1.49559, 1.48902, 1.49365, 1.5937, 1.59792, 1.58505, 1.56185, 1.5448, 1.52925, 1.47687, 1.47222, 1.47126, 1.465, 1.45381, 1.44884, 1.44603, 1.44519, 1.44413, 1.43041, 1.4444, 1.45629, 1.42231, 1.42066, 1.42029, 1.41978, 1.41657, 1.41596, 1.41219, 1.41112, 1.41535, 1.40533, 1.40381, 1.40235, 1.40206, 1.40062, 1.39676, 1.39556, 1.39291, 1.39192, 1.39072, 1.38752, 1.38441, 1.38312, 1.38021, 1.37833, 1.37628, 1.37562, 1.37115, 1.36808, 1.36588, 1.3653, 1.36469, 1.36605, 1.36794, 1.34572, 1.42526, 1.48879, 1.52082, 1.58923, 1.5818, 1.47783, 1.35915, 1.31678, 1.35307, 1.34833, 1.3361, 1.33365, 1.33121, 1.32949, 1.32642, 1.35039, 1.33407
1.66921, 1.66535, 1.66255, 1.65774, 1.65232, 1.64824, 1.64506, 1.64467, 1.6412, 1.63919, 1.63906, 1.6345, 1.63243, 1.64463, 1.60736, 1.64831, 1.6893, 1.81744, 1.91472, 1.9374, 1.84607, 1.57092, 1.59999, 1.60361, 1.5896, 1.59734, 1.5802, 1.57592, 1.5734, 1.56903, 1.56706, 1.57524, 1.57179, 1.55918, 1.557, 1.5523, 1.54905, 1.54714, 1.544, 1.54245, 1.53685, 1.53429, 1.52759, 1.52451, 1.51956, 1.51692, 1.51321, 1.52442, 1.5278, 1.53087, 1.5259, 1.50939, 1.50616, 1.50577, 1.50029, 1.5025, 1.50264, 1.50011, 1.52277, 1.57145, 1.55932, 1.55428, 1.54847, 1.54774, 1.53309, 1.47893, 1.46422, 1.46671, 1.4652, 1.46558, 1.46051, 1.4511, 1.45827, 1.46161, 1.44083, 1.44752, 1.43995, 1.44351, 1.43226, 1.42007, 1.41881, 1.41754, 1.41522, 1.41262, 1.40907, 1.40656, 1.4038, 1.40273, 1.40154, 1.40101, 1.39802, 1.39626, 1.3926, 1.39026, 1.38926, 1.38693, 1.38366, 1.38271, 1.38125, 1.38182, 1.37919, 1.37804, 1.37756, 1.37366, 1.36994, 1.36789, 1.36611, 1.36796, 1.36681, 1.37931, 1.3338, 1.46782, 1.45511, 1.53734, 1.57886, 1.59132, 1.54106, 1.44841, 1.34873, 1.35812, 1.34419, 1.33661, 1.33112, 1.33935, 1.32902, 1.32766, 1.32358, 1.33694
1.66854, 1.66671, 1.65784, 1.65306, 1.64888, 1.64421, 1.64519, 1.64508, 1.64041, 1.64029, 1.63396, 1.63195, 1.63058, 1.63393, 1.63343, 1.62912, 1.72655, 1.79856, 1.88867, 1.92558, 1.77856, 1.56971, 1.58171, 1.59344, 1.5867, 1.59931, 1.57835, 1.57159, 1.56862, 1.5678, 1.56408, 1.56265, 1.56121, 1.5541, 1.55233, 1.54863, 1.54758, 1.54467, 1.54053, 1.53789, 1.53306, 1.53015, 1.52508, 1.52258, 1.52005, 1.5159, 1.51531, 1.5124, 1.51619, 1.55131, 1.541, 1.51596, 1.50174, 1.49777, 1.4942, 1.49919, 1.49211, 1.49194, 1.54463, 1.58571, 1.58481, 1.57874, 1.54557, 1.54427, 1.51679, 1.46684, 1.44974, 1.46328, 1.46131, 1.45398, 1.45595, 1.45259, 1.4487, 1.46177, 1.46629, 1.45723, 1.44058, 1.43147, 1.43092, 1.42365, 1.4209, 1.41923, 1.41687, 1.41386, 1.40921, 1.40749, 1.40519, 1.40359, 1.40493, 1.40151, 1.39787, 1.39482, 1.39273, 1.39118, 1.38869, 1.38584, 1.38306, 1.38091, 1.37932, 1.37922, 1.37944, 1.37854, 1.37268, 1.37056, 1.37071, 1.36761, 1.36303, 1.36151, 1.37727, 1.37784, 1.33765, 1.43013, 1.51644, 1.55081, 1.6178, 1.64912, 1.47311, 1.43441, 1.31501, 1.34518, 1.35027, 1.33392, 1.33057, 1.33689, 1.3269, 1.32603, 1.32508, 1.31994
1.67001, 1.66909, 1.6616, 1.65811, 1.65219, 1.64807, 1.6472, 1.64399, 1.64026, 1.63586, 1.63474, 1.63238, 1.62976, 1.63097, 1.62743, 1.61495, 1.71076, 1.80939, 1.91609, 1.95887, 1.83185, 1.57183, 1.57812, 1.60161, 1.58732, 1.58189, 1.59338, 1.57455, 1.57155, 1.56891, 1.56512, 1.56218, 1.55949, 1.56508, 1.551, 1.54881, 1.54201, 1.54008, 1.53504, 1.53329, 1.53129, 1.52886, 1.5256, 1.52351, 1.51972, 1.51712, 1.52315, 1.51386, 1.51056, 1.52996, 1.55246, 1.52376, 1.51133, 1.50162, 1.49943, 1.49723, 1.49563, 1.4998, 1.51683, 1.56697, 1.57283, 1.55529, 1.54689, 1.5408, 1.53433, 1.50937, 1.45474, 1.4657, 1.45992, 1.45748, 1.46555, 1.44013, 1.45354, 1.49933, 1.47967, 1.45487, 1.43345, 1.43042, 1.42604, 1.4214, 1.42166, 1.41775, 1.41407, 1.41226, 1.40926, 1.40776, 1.40392, 1.4035, 1.40126, 1.39871, 1.39617, 1.39493, 1.39071, 1.38854, 1.3829, 1.38206, 1.38158, 1.3788, 1.3778, 1.37682, 1.37526, 1.3752, 1.37323, 1.37094, 1.37006, 1.36504, 1.3641, 1.36198, 1.36795, 1.37277, 1.34403, 1.40548, 1.48881, 1.55021, 1.61173, 1.62574, 1.57506, 1.44876, 1.32732, 1.33774, 1.34466, 1.33434, 1.33482, 1.33271, 1.32934, 1.32731, 1.3242, 1.32247
1.67457, 1.67098, 1.66869, 1.66329, 1.66293, 1.65375, 1.6503, 1.65478, 1.64211, 1.6401, 1.63647, 1.63318, 1.63086, 1.63235, 1.63455, 1.61048, 1.69768, 1.80953, 1.88828, 1.91356, 1.86522, 1.59971, 1.57681, 1.61037, 1.59302, 1.58657, 1.5896, 1.58003, 1.57205, 1.57045, 1.56786, 1.56408, 1.55956, 1.55551, 1.55083, 1.54669, 1.54041, 1.53603, 1.53332, 1.53152, 1.53625, 1.5266, 1.52392, 1.52301, 1.52187, 1.52734, 1.52024, 1.51654, 1.52134, 1.52253, 1.53301, 1.5453, 1.50041, 1.50665, 1.51226, 1.50475, 1.50597, 1.47201, 1.52491, 1.55496, 1.55962, 1.51642, 1.54797, 1.54774, 1.55997, 1.5026, 1.4479, 1.47423, 1.45418, 1.45863, 1.46724, 1.49876, 1.48984, 1.4965, 1.47147, 1.44442, 1.44835, 1.44719, 1.42648, 1.42456, 1.42376, 1.41912, 1.41475, 1.41226, 1.40817, 1.40503, 1.4017, 1.40172, 1.39956, 1.39753, 1.3959, 1.39164, 1.38975, 1.3856, 1.38497, 1.38393, 1.38253, 1.37969, 1.37879, 1.37826, 1.37785, 1.37527, 1.37461, 1.36986, 1.37462, 1.36566, 1.37721, 1.3686, 1.36987, 1.36855, 1.34352, 1.3967, 1.4892, 1.52944, 1.58288, 1.60137, 1.57192, 1.41329, 1.32286, 1.35174, 1.33765, 1.33702, 1.34851, 1.33526, 1.33823, 1.32731, 1.32536, 1.32335
1.67124, 1.6681, 1.66551, 1.66281, 1.65853, 1.65486, 1.649, 1.64621, 1.64133, 1.64072, 1.63456, 1.64366, 1.62561, 1.62931, 1.63285, 1.66444, 1.6997, 1.79223, 1.85254, 2.08633, 1.73675, 1.59288, 1.57226, 1.60198, 1.6006, 1.59549, 1.58022, 1.5997, 1.57257, 1.56924, 1.56381, 1.56172, 1.56535, 1.55401, 1.55363, 1.54495, 1.54098, 1.53212, 1.53082, 1.52563, 1.52627, 1.52216, 1.52165, 1.52108, 1.51999, 1.53579, 1.51625, 1.52605, 1.51447, 1.52422, 1.5461, 1.5421, 1.53054, 1.50448, 1.50754, 1.49676, 1.49643, 1.47915, 1.49648, 1.56934, 1.56214, 1.54406, 1.54814, 1.54281, 1.51605, 1.47596, 1.45231, 1.49463, 1.47928, 1.49932, 1.49909, 1.50695, 1.49187, 1.47071, 1.45575, 1.44181, 1.44177, 1.43582, 1.43659, 1.42762, 1.4302, 1.41957, 1.41556, 1.41261, 1.40909, 1.40614, 1.40381, 1.40321, 1.40033, 1.39961, 1.39629, 1.39325, 1.39031, 1.38825, 1.38542, 1.382, 1.38354, 1.38059, 1.37973, 1.37825, 1.37412, 1.37247, 1.37107, 1.36711, 1.36535, 1.36067, 1.36, 1.36989, 1.37557, 1.36866, 1.33788, 1.38525, 1.46016, 1.54189, 1.58879, 1.62387, 1.5346, 1.39532, 1.33809, 1.35407, 1.34505, 1.34292, 1.33364, 1.33407, 1.32998, 1.32955, 1.3266, 1.32334
1.67169, 1.66683, 1.66315, 1.66028, 1.65594, 1.65402, 1.6496, 1.64529, 1.64339, 1.63762, 1.64168, 1.62849, 1.62618, 1.6269, 1.62402, 1.61939, 1.72829, 1.78253, 1.90254, 1.89632, 1.79415, 1.59884, 1.60011, 1.59515, 1.59435, 1.5958, 1.58629, 1.57868, 1.57313, 1.56943, 1.56733, 1.55476, 1.55495, 1.55335, 1.54899, 1.54437, 1.54, 1.53172, 1.53312, 1.52484, 1.52329, 1.52308, 1.52186, 1.51781, 1.51679, 1.51573, 1.51492, 1.51306, 1.52304, 1.50729, 1.51594, 1.54799, 1.55734, 1.52855, 1.50004, 1.49539, 1.49261, 1.46449, 1.52337, 1.53947, 1.55572, 1.54475, 1.5397, 1.56332, 1.53781, 1.49223, 1.47191, 1.47951, 1.4944, 1.49621, 1.48175, 1.47241, 1.46072, 1.44782, 1.44679, 1.43758, 1.43406, 1.42932, 1.42698, 1.42421, 1.42107, 1.41756, 1.41448, 1.41202, 1.41067, 1.40393, 1.40248, 1.3987, 1.3983, 1.39681, 1.39446, 1.39166, 1.391, 1.38777, 1.38603, 1.38468, 1.38296, 1.38084, 1.37781, 1.3734, 1.37419, 1.37177, 1.36869, 1.36495, 1.36596, 1.36084, 1.3603, 1.36063, 1.36393, 1.35839, 1.34702, 1.42539, 1.43811, 1.48865, 1.6009, 1.6311, 1.62335, 1.37561, 1.33417, 1.34356, 1.34003, 1.33095, 1.32972, 1.32929, 1.32655, 1.32335, 1.31976, 1.31787
1.66622, 1.65945, 1.65483, 1.65253, 1.65314, 1.65286, 1.65894, 1.64939, 1.64513, 1.64022, 1.63877, 1.6307, 1.62615, 1.63536, 1.62101, 1.63752, 1.69046, 1.77577, 1.85986, 1.98315, 1.97923, 1.57909, 1.61644, 1.60725, 1.59597, 1.60997, 1.59283, 1.58633, 1.58906, 1.58607, 1.57887, 1.5717, 1.56796, 1.55618, 1.55344, 1.55015, 1.54704, 1.54196, 1.53699, 1.53517, 1.53019, 1.52657, 1.5252, 1.52152, 1.51985, 1.51818, 1.51495, 1.51108, 1.51653, 1.51071, 1.50971, 1.54407, 1.56471, 1.56719, 1.53313, 1.49193, 1.49671, 1.46725, 1.48555, 1.54873, 1.55365, 1.53535, 1.50603, 1.54066, 1.53369, 1.52725, 1.47045, 1.46827, 1.46761, 1.46137, 1.46751, 1.45159, 1.45239, 1.45135, 1.44167, 1.43825, 1.44488, 1.43013, 1.42686, 1.42475, 1.4212, 1.4179, 1.415, 1.41354, 1.41091, 1.40829, 1.40663, 1.40249, 1.40005, 1.39966, 1.39578, 1.39472, 1.3919, 1.3916, 1.39109, 1.38869, 1.38829, 1.38284, 1.37959, 1.37765, 1.37254, 1.37158, 1.37048, 1.36686, 1.36402, 1.36089, 1.35802, 1.35798, 1.35889, 1.36169, 1.34009, 1.36517, 1.46083, 1.51587, 1.62426, 1.63065, 1.55159, 1.40937, 1.31434, 1.34389, 1.34476, 1.33383, 1.3313, 1.32894, 1.32709, 1.32649, 1.32338, 1.32382
1.66739, 1.65535, 1.6554, 1.6517, 1.65251, 1.6528, 1.65215, 1.64971, 1.64417, 1.63879, 1.64012, 1.63114, 1.63331, 1.62592, 1.62076, 1.63274, 1.71382, 1.77261, 1.97435, 1.99995, 1.88895, 1.56669, 1.58603, 1.61227, 1.5936, 1.59673, 1.59431, 1.59647, 1.59284, 1.57603, 1.57135, 1.56597, 1.56143, 1.576, 1.55276, 1.55926, 1.54448, 1.54205, 1.53718, 1.53314, 1.52678, 1.52435, 1.52073, 1.51972, 1.51725, 1.51566, 1.51384, 1.50789, 1.50745, 1.51758, 1.50883, 1.51144, 1.53529, 1.52706, 1.52991, 1.52945, 1.50903, 1.4889, 1.50617, 1.53176, 1.53433, 1.52135, 1.51953, 1.53729, 1.54021, 1.49037, 1.45089, 1.47113, 1.47939, 1.45524, 1.45236, 1.44879, 1.44383, 1.44049, 1.43743, 1.43961, 1.43014, 1.43085, 1.42772, 1.42511, 1.45723, 1.41795, 1.41732, 1.41624, 1.41143, 1.40871, 1.40774, 1.40552, 1.40322, 1.4006, 1.39806, 1.39364, 1.39298, 1.39136, 1.39016, 1.3911, 1.42593, 1.38433, 1.38343, 1.37882, 1.37807, 1.37427, 1.37069, 1.36775, 1.36409, 1.38553, 1.36118, 1.36278, 1.36434, 1.37814, 1.35083, 1.33935, 1.46773, 1.54014, 1.61013, 1.65226, 1.53409, 1.45257, 1.32931, 1.34723, 1.34724, 1.34417, 1.33142, 1.33138, 1.3292, 1.32665, 1.32639, 1.32513
1.66661, 1.66282, 1.65894, 1.65554, 1.6548, 1.65587, 1.65323, 1.64794, 1.64507, 1.64116, 1.63516, 1.63216, 1.62871, 1.6313, 1.63754, 1.61724, 1.69305, 1.74515, 1.86315, 1.96976, 1.7992, 1.5689, 1.60294, 1.60324, 1.61096, 1.60044, 1.60917, 1.59566, 1.5898, 1.57338, 1.57119, 1.56407, 1.55985, 1.55524, 1.55083, 1.54657, 1.54346, 1.54118, 1.53678, 1.53448, 1.53363, 1.52561, 1.52331, 1.51951, 1.51674, 1.51573, 1.51398, 1.50909, 1.50909, 1.50641, 1.50299, 1.50252, 1.50159, 1.5097, 1.50534, 1.52466, 1.5163, 1.48479, 1.49553, 1.55995, 1.59733, 1.57419, 1.51973, 1.54272, 1.52939, 1.53639, 1.47545, 1.46899, 1.47568, 1.45492, 1.45342, 1.44737, 1.44315, 1.44045, 1.46052, 1.432, 1.42849, 1.42511, 1.4242, 1.42884, 1.42023, 1.41386, 1.41295, 1.4125, 1.41255, 1.40905, 1.40625, 1.40568, 1.40093, 1.39639, 1.39508, 1.39452, 1.39184, 1.3899, 1.39575, 1.38206, 1.38358, 1.38267, 1.38118, 1.37908, 1.37614, 1.37298, 1.36857, 1.36657, 1.36388, 1.36107, 1.36778, 1.35852, 1.36039, 1.36406, 1.34507, 1.40182, 1.47842, 1.54229, 1.63583, 1.66553, 1.60345, 1.46965, 1.34352, 1.34376, 1.34018, 1.33411, 1.33238, 1.328, 1.33055, 1.32644, 1.32652, 1.32336
1.66505, 1.65964, 1.65796, 1.65589, 1.65449, 1.65265, 1.64902, 1.64596, 1.64213, 1.63682, 1.63141, 1.62998, 1.62542, 1.6257, 1.62413, 1.60418, 1.67127, 1.73888, 1.84482, 1.9148, 1.82784, 1.56079, 1.59171, 1.58928, 1.58638, 1.60698, 1.61372, 1.59253, 1.58285, 1.58597, 1.56666, 1.56236, 1.55521, 1.55289, 1.56096, 1.54524, 1.54273, 1.53874, 1.53626, 1.53334, 1.5305, 1.52604, 1.51989, 1.51759, 1.51556, 1.51578, 1.5128, 1.50791, 1.50376, 1.50196, 1.50036, 1.49814, 1.49633, 1.49492, 1.50271, 1.49887, 1.50529, 1.49583, 1.49731, 1.57512, 1.55118, 1.52988, 1.57118, 1.51683, 1.53124, 1.51144, 1.47579, 1.46834, 1.46557, 1.46143, 1.45222, 1.44767, 1.44525, 1.44337, 1.43714, 1.43385, 1.4295, 1.42744, 1.42629, 1.42299, 1.41901, 1.41886, 1.41569, 1.4155, 1.41134, 1.41175, 1.40732, 1.40427, 1.40364, 1.39853, 1.39527, 1.39334, 1.3911, 1.38844, 1.3852, 1.38552, 1.38315, 1.38104, 1.37891, 1.37704, 1.37213, 1.37076, 1.36956, 1.36763, 1.36426, 1.36171, 1.36017, 1.35904, 1.36052, 1.36278, 1.35477, 1.35446, 1.48447, 1.53395, 1.65432, 1.66147, 1.65475, 1.51285, 1.34815, 1.34746, 1.33716, 1.33322, 1.33087, 1.32732, 1.32799, 1.32962, 1.32676, 1.32462
1.66619, 1.66059, 1.65465, 1.65139, 1.65292, 1.64937, 1.64241, 1.64019, 1.6392, 1.63539, 1.63426, 1.62666, 1.62448, 1.62213, 1.62134, 1.60242, 1.65517, 1.87246, 1.92407, 2.18621, 1.93043, 1.56957, 1.55541, 1.57172, 1.58288, 1.58166, 1.60626, 1.61305, 1.58851, 1.59178, 1.57305, 1.56127, 1.55026, 1.54941, 1.56898, 1.54447, 1.54325, 1.53908, 1.53759, 1.5308, 1.52926, 1.52958, 1.51932, 1.51702, 1.5153, 1.51181, 1.51024, 1.50757, 1.50517, 1.50076, 1.50706, 1.49528, 1.49317, 1.49207, 1.49078, 1.49427, 1.49624, 1.49404, 1.53394, 1.57091, 1.54132, 1.59399, 1.50676, 1.51025, 1.56327, 1.48936, 1.46484, 1.47052, 1.47035, 1.45628, 1.45098, 1.4487, 1.44331, 1.43951, 1.43694, 1.43134, 1.42729, 1.42587, 1.42476, 1.425, 1.42348, 1.42004, 1.41684, 1.41348, 1.41172, 1.40949, 1.40738, 1.40241, 1.40126, 1.39807, 1.39655, 1.3951, 1.3918, 1.39111, 1.38567, 1.38337, 1.38219, 1.38083, 1.37758, 1.37403, 1.37373, 1.37213, 1.37128, 1.37037, 1.36494, 1.36313, 1.36037, 1.35983, 1.36712, 1.35983, 1.36925, 1.34512, 1.4547, 1.54797, 1.59273, 1.65497, 1.6236, 1.45439, 1.30934, 1.34413, 1.34357, 1.33445, 1.33247, 1.33565, 1.3376, 1.32624, 1.32622, 1.32642
1.66289, 1.65839, 1.65283, 1.64799, 1.64763, 1.64544, 1.64038, 1.64026, 1.63756, 1.63325, 1.62828, 1.62641, 1.62434, 1.63785, 1.62657, 1.61345, 1.70347, 1.74824, 1.83127, 1.99729, 1.81436, 1.5547, 1.54784, 1.66065, 1.71921, 1.64792, 1.6611, 1.6169, 1.60555, 1.5821, 1.56865, 1.57232, 1.55178, 1.55256, 1.56367, 1.55492, 1.53983, 1.53682, 1.53631, 1.5322, 1.53151, 1.52659, 1.52083, 1.51844, 1.51557, 1.51433, 1.50957, 1.50911, 1.50514, 1.49959, 1.49614, 1.49252, 1.48991, 1.48915, 1.48871, 1.49193, 1.49368, 1.49272, 1.51223, 1.5401, 1.5144, 1.52376, 1.48821, 1.35148, 1.51384, 1.49735, 1.45948, 1.46523, 1.46966, 1.45273, 1.44919, 1.44386, 1.44098, 1.45102, 1.44123, 1.42985, 1.42649, 1.42427, 1.42257, 1.42379, 1.42189, 1.42016, 1.41586, 1.41289, 1.40879, 1.40649, 1.40554, 1.40229, 1.39972, 1.39801, 1.39384, 1.39491, 1.38921, 1.38608, 1.38515, 1.38182, 1.37853, 1.37577, 1.37509, 1.37252, 1.36821, 1.36525, 1.36739, 1.36599, 1.3625, 1.35986, 1.35783, 1.35613, 1.35622, 1.35772, 1.36822, 1.37046, 1.38858, 1.50008, 1.59333, 1.73727, 1.62277, 1.48662, 1.32028, 1.34321, 1.34473, 1.34401, 1.33003, 1.33393, 1.32438, 1.3257, 1.32002, 1.3175
1.66226, 1.65599, 1.65363, 1.65076, 1.64863, 1.64464, 1.64125, 1.6402, 1.63428, 1.63084, 1.62512, 1.62158, 1.62087, 1.61978, 1.62068, 1.58966, 1.6176, 1.79637, 1.87166, 2.01663, 2.04517, 1.57385, 1.56616, 1.61997, 1.80994, 1.77579, 1.71508, 1.61229, 1.60271, 1.59257, 1.57025, 1.56815, 1.55782, 1.55855, 1.54827, 1.54455, 1.54061, 1.53742, 1.5361, 1.53582, 1.52888, 1.52574, 1.52192, 1.51797, 1.51521, 1.5108, 1.50848, 1.50564, 1.50368, 1.50028, 1.49858, 1.49464, 1.49135, 1.48917, 1.48756, 1.49058, 1.49517, 1.48589, 1.52297, 1.54687, 1.52782, 1.49563, 1.49274, 1.50378, 1.51204, 1.53106, 1.45308, 1.46853, 1.46087, 1.4502, 1.44517, 1.43905, 1.43545, 1.43318, 1.42931, 1.42689, 1.42403, 1.42228, 1.42232, 1.4225, 1.42279, 1.4224, 1.41518, 1.41505, 1.40744, 1.40514, 1.40258, 1.39895, 1.39802, 1.39929, 1.39135, 1.3896, 1.38533, 1.38502, 1.38358, 1.38133, 1.37894, 1.37726, 1.3729, 1.36933, 1.36814, 1.36812, 1.3698, 1.36669, 1.36183, 1.35942, 1.36017, 1.36494, 1.35705, 1.35718, 1.36057, 1.33347, 1.39605, 1.54082, 1.65077, 1.66437, 1.57281, 1.49299, 1.34654, 1.34265, 1.34784, 1.34768, 1.34715, 1.32706, 1.34812, 1.32226, 1.3194, 1.34953
1.65812, 1.65472, 1.65044, 1.65435, 1.6458, 1.64413, 1.64056, 1.63805, 1.63058, 1.62647, 1.63098, 1.62035, 1.62061, 1.62982, 1.6276, 1.60564, 1.64583, 1.78304, 1.93389, 1.98244, 1.77576, 1.55939, 1.57845, 1.5549, 1.64091, 1.62726, 1.62729, 1.6126, 1.59278, 1.58502, 1.57608, 1.56063, 1.5609, 1.54705, 1.54399, 1.54095, 1.53784, 1.53519, 1.53342, 1.53013, 1.52702, 1.52443, 1.5203, 1.5168, 1.5125, 1.50969, 1.50576, 1.50368, 1.50166, 1.49928, 1.49629, 1.49215, 1.49133, 1.48867, 1.48638, 1.48978, 1.49328, 1.48782, 1.50956, 1.56418, 1.54118, 1.49652, 1.48246, 1.53465, 1.5009, 1.50213, 1.44812, 1.46736, 1.46434, 1.44895, 1.44826, 1.43482, 1.43303, 1.42959, 1.42984, 1.42707, 1.42418, 1.42357, 1.4234, 1.42214, 1.41762, 1.41589, 1.41207, 1.40915, 1.40864, 1.40541, 1.39875, 1.39848, 1.39537, 1.39472, 1.39201, 1.38894, 1.38616, 1.38351, 1.38326, 1.37916, 1.37812, 1.37555, 1.37427, 1.37382, 1.37259, 1.37115, 1.36961, 1.36654, 1.36221, 1.3615, 1.368, 1.35859, 1.35907, 1.35874, 1.36035, 1.33753, 1.41393, 1.49327, 1.61313, 1.72714, 1.64442, 1.39149, 1.3273, 1.34198, 1.36155, 1.36834, 1.33691, 1.33602, 1.34388, 1.32397, 1.32002, 1.32149
1.66491, 1.6491, 1.64518, 1.6445, 1.63882, 1.6358, 1.63326, 1.63128, 1.62539, 1.62412, 1.61983, 1.61681, 1.61474, 1.61131, 1.61045, 1.6238, 1.61346, 1.73776, 1.90744, 2.01635, 1.88838, 1.57294, 1.57192, 1.58329, 1.60436, 1.59164, 1.58838, 1.60851, 1.58772, 1.5779, 1.5624, 1.56906, 1.54536, 1.54121, 1.53989, 1.53636, 1.53296, 1.52987, 1.52692, 1.52064, 1.52132, 1.52136, 1.51665, 1.51438, 1.51103, 1.50443, 1.49972, 1.4995, 1.49162, 1.48886, 1.48762, 1.48622, 1.48459, 1.48156, 1.48135, 1.49601, 1.49451, 1.48636, 1.50325, 1.53004, 1.53017, 1.52021, 1.50333, 1.50264, 1.53108, 1.49604, 1.45321, 1.45446, 1.46418, 1.4508, 1.43897, 1.43608, 1.43321, 1.43107, 1.42581, 1.4227, 1.42101, 1.42029, 1.42112, 1.41563, 1.41373, 1.41082, 1.40661, 1.4015, 1.39765, 1.3953, 1.39605, 1.39158, 1.39108, 1.39459, 1.39142, 1.39174, 1.38845, 1.38426, 1.38087, 1.37897, 1.37217, 1.37285, 1.3762, 1.36842, 1.36764, 1.36636, 1.3645, 1.36175, 1.35933, 1.35759, 1.35323, 1.35323, 1.35117, 1.36333, 1.35711, 1.32712, 1.36815, 1.51372, 1.58892, 1.63809, 1.60213, 1.4271, 1.3338, 1.34806, 1.34295, 1.32765, 1.34697, 1.33019, 1.32273, 1.31639, 1.31381, 1.32611
1.64819, 1.6446, 1.64287, 1.6393, 1.63686, 1.63443, 1.63365, 1.63059, 1.62526, 1.62495, 1.6173, 1.61424, 1.61263, 1.61051, 1.60855, 1.6107, 1.63414, 1.73811, 1.8728, 2.04734, 1.90706, 1.57971, 1.55841, 1.57951, 1.57865, 1.58345, 1.58175, 1.57436, 1.57109, 1.56965, 1.55532, 1.549, 1.543, 1.53963, 1.53546, 1.53429, 1.53102, 1.52686, 1.52401, 1.52089, 1.52035, 1.51845, 1.51481, 1.51116, 1.50648, 1.50607, 1.49944, 1.49564, 1.49167, 1.48871, 1.48832, 1.48507, 1.48128, 1.47873, 1.47608, 1.48107, 1.48372, 1.48123, 1.51984, 1.53661, 1.53552, 1.52028, 1.51613, 1.50601, 1.5381, 1.50325, 1.47038, 1.45806, 1.46493, 1.44767, 1.44383, 1.43854, 1.43578, 1.43081, 1.42773, 1.42362, 1.42033, 1.41755, 1.41586, 1.41223, 1.41001, 1.40601, 1.40172, 1.39945, 1.39824, 1.39412, 1.39469, 1.39109, 1.39149, 1.39104, 1.39052, 1.39125, 1.39083, 1.38304, 1.38165, 1.37731, 1.37269, 1.36805, 1.36458, 1.36693, 1.36608, 1.368, 1.36396, 1.36065, 1.35782, 1.35403, 1.3566, 1.35099, 1.34844, 1.35681, 1.35633, 1.33115, 1.368, 1.48021, 1.59336, 1.69974, 1.71353, 1.43393, 1.30339, 1.33321, 1.33389, 1.33381, 1.31867, 1.31783, 1.31959, 1.3178, 1.31832, 1.31244
1.64689, 1.64449, 1.63893, 1.63744, 1.63649, 1.6352, 1.63339, 1.63067, 1.62719, 1.62378, 1.62084, 1.6169, 1.61296, 1.61041, 1.61805, 1.60909, 1.61673, 1.77019, 1.80337, 2.08565, 1.91752, 1.64047, 1.57333, 1.58044, 1.58145, 1.57539, 1.58076, 1.58306, 1.56733, 1.55918, 1.55331, 1.55, 1.54485, 1.54293, 1.53855, 1.53426, 1.52989, 1.52682, 1.5239, 1.52063, 1.51687, 1.51584, 1.51294, 1.51022, 1.50703, 1.50388, 1.49736, 1.49433, 1.48861, 1.48637, 1.48716, 1.48382, 1.48127, 1.48016, 1.4793, 1.47881, 1.49703, 1.47522, 1.5141, 1.52664, 1.52285, 1.55201, 1.48725, 1.50569, 1.51322, 1.49594, 1.46938, 1.44912, 1.45813, 1.44632, 1.44117, 1.43777, 1.43293, 1.43025, 1.4256, 1.42279, 1.41979, 1.41819, 1.41437, 1.40944, 1.40853, 1.40417, 1.402, 1.3969, 1.39496, 1.39277, 1.39028, 1.38845, 1.38995, 1.38974, 1.38846, 1.38739, 1.38601, 1.38323, 1.37679, 1.37202, 1.36885, 1.36834, 1.36395, 1.36326, 1.36255, 1.36148, 1.35767, 1.35716, 1.35707, 1.36175, 1.35145, 1.34789, 1.34819, 1.34784, 1.36187, 1.35709, 1.39121, 1.44979, 1.59758, 1.7156, 1.65196, 1.46472, 1.3121, 1.33339, 1.34078, 1.32639, 1.32141, 1.32117, 1.3193, 1.31753, 1.31607, 1.31163
1.64403, 1.64525, 1.64101, 1.63977, 1.63775, 1.63609, 1.63454, 1.63085, 1.62857, 1.62533, 1.61973, 1.61709, 1.61346, 1.61151, 1.61089, 1.59955, 1.63675, 1.7158, 1.80026, 1.79885, 1.76725, 1.6434, 1.55698, 1.57623, 1.58172, 1.5726, 1.57769, 1.56603, 1.56544, 1.55818, 1.55506, 1.55181, 1.54825, 1.5535, 1.53821, 1.53679, 1.53012, 1.52596, 1.53051, 1.52157, 1.51755, 1.51457, 1.51314, 1.50825, 1.50589, 1.50324, 1.49814, 1.49607, 1.49145, 1.49645, 1.49648, 1.48453, 1.48216, 1.47976, 1.47818, 1.48112, 1.47943, 1.47507, 1.51685, 1.51851, 1.52397, 1.52482, 1.496, 1.50134, 1.50076, 1.51001, 1.46449, 1.47441, 1.45669, 1.44796, 1.4408, 1.43633, 1.43076, 1.42834, 1.43341, 1.42384, 1.42082, 1.41885, 1.41682, 1.41298, 1.40883, 1.40587, 1.40572, 1.40054, 1.39827, 1.39553, 1.39331, 1.39132, 1.38981, 1.39198, 1.38955, 1.38764, 1.3855, 1.38128, 1.37849, 1.37264, 1.36859, 1.36493, 1.36427, 1.36347, 1.36234, 1.36064, 1.35886, 1.35737, 1.35539, 1.35994, 1.34871, 1.34565, 1.3444, 1.35393, 1.35794, 1.3102, 1.38707, 1.45809, 1.59215, 1.6883, 1.68313, 1.42731, 1.29951, 1.32643, 1.34278, 1.32195, 1.32594, 1.32029, 1.31992, 1.32052, 1.31525, 1.31544
1.64706, 1.64281, 1.63673, 1.63615, 1.63557, 1.63224, 1.63158, 1.62762, 1.62505, 1.6212, 1.61973, 1.62011, 1.61065, 1.60814, 1.60764, 1.62424, 1.64782, 1.66154, 1.81006, 1.82022, 1.68863, 1.66394, 1.55014, 1.57926, 1.57084, 1.57205, 1.56889, 1.56517, 1.56105, 1.55887, 1.56487, 1.55128, 1.54522, 1.54071, 1.53719, 1.53527, 1.53151, 1.52709, 1.51843, 1.51812, 1.51666, 1.51284, 1.51087, 1.50686, 1.5051, 1.50371, 1.49989, 1.4937, 1.49175, 1.48853, 1.48596, 1.4835, 1.48087, 1.47804, 1.47481, 1.47598, 1.49326, 1.4786, 1.50873, 1.53357, 1.52712, 1.50658, 1.48546, 1.48129, 1.48945, 1.48864, 1.46841, 1.46169, 1.48149, 1.4522, 1.43707, 1.4288, 1.42843, 1.42552, 1.42344, 1.42, 1.41867, 1.41725, 1.41381, 1.41126, 1.40848, 1.40868, 1.4029, 1.39927, 1.39793, 1.39634, 1.39161, 1.39052, 1.3894, 1.38619, 1.38731, 1.38197, 1.38082, 1.37617, 1.37398, 1.37046, 1.36482, 1.36422, 1.35946, 1.36047, 1.36023, 1.35904, 1.35715, 1.36386, 1.35394, 1.35136, 1.35036, 1.34494, 1.34275, 1.34526, 1.34392, 1.31949, 1.40638, 1.43371, 1.58086, 1.69702, 1.67077, 1.44837, 1.29297, 1.3245, 1.32099, 1.32106, 1.33514, 1.33379, 1.32006, 1.33747, 1.31542, 1.31527
1.64838, 1.64216, 1.63784, 1.63725, 1.63667, 1.63442, 1.63171, 1.63066, 1.62698, 1.62181, 1.62937, 1.6149, 1.61098, 1.6094, 1.62356, 1.60934, 1.60294, 1.6764, 1.80525, 1.73713, 1.77961, 1.56992, 1.57154, 1.59486, 1.57985, 1.57868, 1.58189, 1.56895, 1.57074, 1.55769, 1.5542, 1.55945, 1.54575, 1.54543, 1.54368, 1.5375, 1.53396, 1.52946, 1.52452, 1.53025, 1.52013, 1.51661, 1.51296, 1.50857, 1.50601, 1.50235, 1.50594, 1.49975, 1.49323, 1.4912, 1.48759, 1.48602, 1.48364, 1.48139, 1.48052, 1.4826, 1.49715, 1.50176, 1.49944, 1.55443, 1.52063, 1.51688, 1.48479, 1.47843, 1.51607, 1.50288, 1.49539, 1.4589, 1.46087, 1.45023, 1.43989, 1.43165, 1.43648, 1.43676, 1.4247, 1.42066, 1.41896, 1.41741, 1.41366, 1.41368, 1.4097, 1.40615, 1.40585, 1.40194, 1.39872, 1.39946, 1.39308, 1.39208, 1.38828, 1.38533, 1.38298, 1.38108, 1.37731, 1.37386, 1.37411, 1.3681, 1.36539, 1.36093, 1.3618, 1.36144, 1.36207, 1.36208, 1.3591, 1.36605, 1.35014, 1.34808, 1.34648, 1.34536, 1.34744, 1.35462, 1.36479, 1.32336, 1.35282, 1.49913, 1.55796, 1.70056, 1.69969, 1.52141, 1.33796, 1.32521, 1.32404, 1.32622, 1.31952, 1.32001, 1.31774, 1.3168, 1.31693, 1.3123
1.64621, 1.64145, 1.63878, 1.63479, 1.63232, 1.63045, 1.62958, 1.62659, 1.62401, 1.61855, 1.62436, 1.6185, 1.61341, 1.60607, 1.60999, 1.62411, 1.58599, 1.68633, 1.74186, 1.77815, 1.73294, 1.78829, 1.57633, 1.60283, 1.58295, 1.57325, 1.58196, 1.5745, 1.56102, 1.56036, 1.5514, 1.57505, 1.5412, 1.5403, 1.53865, 1.53429, 1.53157, 1.52993, 1.5265, 1.52134, 1.51893, 1.52046, 1.51253, 1.50949, 1.50452, 1.5003, 1.4988, 1.49965, 1.49211, 1.48948, 1.4873, 1.48608, 1.48038, 1.48083, 1.4794, 1.49609, 1.48579, 1.48255, 1.48581, 1.50646, 1.50484, 1.49938, 1.47197, 1.47882, 1.49565, 1.48335, 1.462, 1.44897, 1.45538, 1.44381, 1.43082, 1.42665, 1.42556, 1.42419, 1.42266, 1.42233, 1.41916, 1.41657, 1.41198, 1.40982, 1.40756, 1.4042, 1.40051, 1.40033, 1.3985, 1.39361, 1.39336, 1.38864, 1.38538, 1.38116, 1.37859, 1.37581, 1.37228, 1.3677, 1.36735, 1.36138, 1.35978, 1.36819, 1.35883, 1.36057, 1.36712, 1.3579, 1.37403, 1.37235, 1.35276, 1.35021, 1.34876, 1.34605, 1.3466, 1.3449, 1.34789, 1.33699, 1.38464, 1.40918, 1.53016, 1.69944, 1.72769, 1.47565, 1.28225, 1.34394, 1.33842, 1.32034, 1.31726, 1.31808, 1.31639, 1.31604, 1.31078, 1.32264
1.64308, 1.63825, 1.63383, 1.63081, 1.62701, 1.62442, 1.62393, 1.62027, 1.61596, 1.61394, 1.61065, 1.60624, 1.6028, 1.598, 1.59574, 1.59582, 1.59992, 1.68994, 1.78272, 1.87842, 1.74422, 1.70307, 1.54548, 1.57809, 1.57529, 1.56695, 1.56388, 1.55581, 1.5573, 1.56878, 1.56896, 1.53699, 1.53292, 1.53326, 1.53137, 1.52929, 1.52747, 1.52575, 1.52272, 1.5174, 1.515, 1.50775, 1.5058, 1.5034, 1.49862, 1.49637, 1.49282, 1.48975, 1.48633, 1.4827, 1.48194, 1.48011, 1.47822, 1.47604, 1.47477, 1.47514, 1.4762, 1.49848, 1.49313, 1.51697, 1.49773, 1.47929, 1.46912, 1.47283, 1.50708, 1.49524, 1.46693, 1.44019, 1.43852, 1.43978, 1.42663, 1.42116, 1.42072, 1.41775, 1.41697, 1.41758, 1.41489, 1.41246, 1.40945, 1.40512, 1.40864, 1.39855, 1.3975, 1.39559, 1.39449, 1.39051, 1.38711, 1.38507, 1.38039, 1.37882, 1.37362, 1.37098, 1.37144, 1.36169, 1.36179, 1.35924, 1.35686, 1.35493, 1.36456, 1.35448, 1.35457, 1.35442, 1.35128, 1.34949, 1.34917, 1.34558, 1.34112, 1.34311, 1.34369, 1.33948, 1.34376, 1.33243, 1.33752, 1.4663, 1.57603, 1.67143, 1.72384, 1.48251, 1.31227, 1.3269, 1.33078, 1.32019, 1.31314, 1.31469, 1.31923, 1.31107, 1.3069, 1.303
1.63845, 1.63684, 1.63374, 1.63208, 1.62485, 1.62175, 1.61916, 1.6224, 1.61066, 1.61388, 1.60634, 1.60158, 1.59686, 1.58908, 1.6015, 1.59105, 1.62697, 1.70284, 1.80746, 1.94142, 1.99927, 1.63488, 1.56526, 1.57155, 1.58468, 1.55827, 1.55515, 1.55799, 1.55008, 1.54307, 1.54849, 1.53223, 1.52859, 1.5245, 1.52379, 1.52337, 1.52189, 1.52724, 1.52143, 1.5143, 1.50964, 1.50735, 1.50406, 1.49998, 1.49547, 1.49274, 1.48818, 1.48484, 1.48138, 1.47926, 1.47601, 1.47444, 1.47444, 1.46965, 1.46773, 1.47496, 1.47368, 1.47516, 1.47591, 1.51792, 1.50439, 1.50684, 1.48668, 1.5026, 1.51451, 1.4854, 1.46235, 1.45413, 1.43685, 1.43024, 1.42212, 1.41985, 1.41661, 1.41634, 1.41874, 1.41258, 1.42038, 1.40864, 1.40539, 1.39888, 1.39736, 1.39272, 1.39055, 1.38891, 1.38681, 1.38675, 1.38004, 1.37872, 1.37797, 1.37496, 1.37369, 1.36657, 1.36388, 1.36004, 1.35798, 1.35713, 1.3549, 1.35106, 1.35013, 1.35316, 1.35259, 1.35148, 1.34926, 1.34837, 1.34638, 1.36126, 1.3369, 1.34014, 1.33668, 1.33662, 1.33941, 1.33275, 1.33279, 1.45538, 1.50649, 1.60286, 1.73519, 1.48826, 1.28154, 1.30791, 1.32183, 1.31229, 1.30869, 1.31082, 1.30838, 1.30544, 1.30043, 1.29637
1.63912, 1.63555, 1.63312, 1.63036, 1.62971, 1.62309, 1.61899, 1.61414, 1.60954, 1.60995, 1.60708, 1.60046, 1.59688, 1.59222, 1.59158, 1.60281, 1.57909, 1.63561, 1.84393, 1.88051, 1.87206, 1.70259, 1.57115, 1.56907, 1.56165, 1.57173, 1.55592, 1.549, 1.54415, 1.54009, 1.53497, 1.53291, 1.52605, 1.52321, 1.52114, 1.51968, 1.51937, 1.51568, 1.51456, 1.51422, 1.5082, 1.50467, 1.50212, 1.49729, 1.49542, 1.49283, 1.48793, 1.48342, 1.48117, 1.47806, 1.47564, 1.47259, 1.46833, 1.46612, 1.46559, 1.46579, 1.47062, 1.47121, 1.46924, 1.50077, 1.53348, 1.4955, 1.4745, 1.48551, 1.48474, 1.48911, 1.49052, 1.44034, 1.4528, 1.44194, 1.42689, 1.41692, 1.41291, 1.41183, 1.41054, 1.40784, 1.40614, 1.40729, 1.40351, 1.39931, 1.39821, 1.38942, 1.3876, 1.38494, 1.38116, 1.38277, 1.38582, 1.37876, 1.37823, 1.37525, 1.37077, 1.36593, 1.36392, 1.36063, 1.35803, 1.35411, 1.35362, 1.34808, 1.34936, 1.34902, 1.35109, 1.35035, 1.34755, 1.34747, 1.34313, 1.33991, 1.3364, 1.33441, 1.32946, 1.33648, 1.34009, 1.31995, 1.36016, 1.44727, 1.55169, 1.67632, 1.85021, 1.40669, 1.31001, 1.31829, 1.333, 1.31427, 1.30929, 1.31914, 1.30272, 1.30962, 1.29772, 1.29613
1.64391, 1.63155, 1.63092, 1.6279, 1.62391, 1.62082, 1.61928, 1.62063, 1.61067, 1.62063, 1.60483, 1.60111, 1.59758, 1.59532, 1.61334, 1.59372, 1.5817, 1.64085, 1.70678, 1.9202, 2.01223, 1.59871, 1.57193, 1.57638, 1.56764, 1.56884, 1.55143, 1.54879, 1.54437, 1.54362, 1.5432, 1.53313, 1.53012, 1.52517, 1.52136, 1.51897, 1.5284, 1.51326, 1.51082, 1.50875, 1.50603, 1.50218, 1.49922, 1.49289, 1.49146, 1.48758, 1.48652, 1.48222, 1.4801, 1.47667, 1.47381, 1.47842, 1.46745, 1.46482, 1.46449, 1.47136, 1.46593, 1.47791, 1.47399, 1.47511, 1.47965, 1.49231, 1.48032, 1.4852, 1.48112, 1.47827, 1.46889, 1.44841, 1.44871, 1.43792, 1.42533, 1.41925, 1.41273, 1.41087, 1.41158, 1.41102, 1.40355, 1.40504, 1.39749, 1.39716, 1.39319, 1.39232, 1.39066, 1.38853, 1.38224, 1.37966, 1.3789, 1.37881, 1.37361, 1.37399, 1.37282, 1.36914, 1.36481, 1.36054, 1.35608, 1.35186, 1.35077, 1.35419, 1.35085, 1.35059, 1.3503, 1.34791, 1.35326, 1.34992, 1.34504, 1.34104, 1.34352, 1.3359, 1.33502, 1.33358, 1.33621, 1.3375, 1.33019, 1.40312, 1.53133, 1.65223, 1.6686, 1.55957, 1.29353, 1.3145, 1.31406, 1.3097, 1.31104, 1.30468, 1.30553, 1.30144, 1.29831, 1.29945
1.63481, 1.63154, 1.62637, 1.62508, 1.6236, 1.61979, 1.61907, 1.61265, 1.60729, 1.60439, 1.60197, 1.59999, 1.59718, 1.59885, 1.59761, 1.5999, 1.58527, 1.65052, 1.75143, 1.97306, 1.9338, 1.58592, 1.538, 1.56541, 1.56566, 1.5676, 1.54869, 1.54573, 1.55433, 1.54341, 1.53721, 1.53237, 1.52864, 1.52763, 1.52043, 1.517, 1.51235, 1.51304, 1.51095, 1.50665, 1.50383, 1.49929, 1.49598, 1.49356, 1.49398, 1.48986, 1.48531, 1.48287, 1.48046, 1.4766, 1.47564, 1.46941, 1.46589, 1.46482, 1.46331, 1.46458, 1.46642, 1.46554, 1.47528, 1.49332, 1.4964, 1.4787, 1.49167, 1.4689, 1.49147, 1.47377, 1.47149, 1.44823, 1.43994, 1.43777, 1.42551, 1.41714, 1.42259, 1.42096, 1.40715, 1.40744, 1.40568, 1.40374, 1.41004, 1.4092, 1.39315, 1.39143, 1.38775, 1.38468, 1.38221, 1.37871, 1.37513, 1.37102, 1.36879, 1.36923, 1.36818, 1.36791, 1.36536, 1.36361, 1.35988, 1.3562, 1.35424, 1.35474, 1.35133, 1.35039, 1.34725, 1.34636, 1.34664, 1.34345, 1.34288, 1.34154, 1.33999, 1.33791, 1.3371, 1.34811, 1.34731, 1.33263, 1.3029, 1.39552, 1.53493, 1.71182, 1.73784, 1.52347, 1.31254, 1.32269, 1.32716, 1.3177, 1.3301, 1.31561, 1.30338, 1.32335, 1.30155, 1.30577
1.64439, 1.63551, 1.63063, 1.62692, 1.62494, 1.61856, 1.61591, 1.61082, 1.6057, 1.60115, 1.60099, 1.60053, 1.59749, 1.6173, 1.60172, 1.60521, 1.59756, 1.6594, 1.86244, 2.03795, 2.02923, 1.55839, 1.5369, 1.58878, 1.56796, 1.55394, 1.55417, 1.55082, 1.54893, 1.54426, 1.54167, 1.54422, 1.5286, 1.52596, 1.52176, 1.52002, 1.51584, 1.51526, 1.51305, 1.50929, 1.50772, 1.50425, 1.50008, 1.49572, 1.49226, 1.49039, 1.48524, 1.48266, 1.47772, 1.47435, 1.4722, 1.47053, 1.46667, 1.46413, 1.4644, 1.46394, 1.46813, 1.46897, 1.47549, 1.46832, 1.49487, 1.50906, 1.48942, 1.46423, 1.47117, 1.47963, 1.47008, 1.44825, 1.44633, 1.43604, 1.42325, 1.41279, 1.41137, 1.41019, 1.40761, 1.40608, 1.40408, 1.40272, 1.39957, 1.3968, 1.39376, 1.38984, 1.38623, 1.38191, 1.37893, 1.37723, 1.37441, 1.37399, 1.37133, 1.3714, 1.36868, 1.36818, 1.36444, 1.36373, 1.36091, 1.35834, 1.35807, 1.35539, 1.35443, 1.35068, 1.34974, 1.34972, 1.34413, 1.34325, 1.34125, 1.33787, 1.33934, 1.34527, 1.33679, 1.34326, 1.3434, 1.34754, 1.33751, 1.39331, 1.49491, 1.70018, 1.78185, 1.58657, 1.28038, 1.32051, 1.31963, 1.32291, 1.30635, 1.30671, 1.30705, 1.30568, 1.30199, 1.29844
1.63217, 1.62862, 1.62483, 1.62123, 1.61715, 1.61904, 1.61198, 1.60607, 1.6028, 1.6024, 1.61676, 1.59788, 1.61206, 1.59292, 1.60224, 1.61384, 1.58997, 1.60909, 1.78279, 1.86514, 1.99462, 1.57691, 1.53321, 1.57153, 1.55582, 1.5619, 1.54748, 1.5454, 1.55445, 1.53763, 1.56215, 1.52985, 1.5272, 1.53104, 1.5184, 1.51574, 1.51344, 1.51019, 1.50784, 1.5058, 1.50235, 1.50022, 1.49897, 1.48939, 1.48844, 1.48517, 1.48313, 1.47838, 1.47583, 1.47325, 1.49512, 1.46915, 1.46622, 1.46092, 1.46116, 1.46141, 1.47166, 1.48066, 1.47554, 1.47659, 1.47079, 1.4886, 1.47682, 1.46927, 1.47387, 1.47912, 1.47171, 1.45744, 1.44391, 1.43406, 1.41814, 1.41052, 1.40636, 1.40563, 1.40582, 1.40517, 1.40544, 1.40281, 1.3992, 1.39665, 1.3916, 1.38872, 1.38556, 1.38271, 1.38275, 1.38003, 1.37885, 1.37577, 1.37268, 1.38777, 1.37155, 1.36997, 1.36545, 1.36147, 1.36207, 1.35972, 1.35592, 1.35372, 1.35062, 1.34721, 1.34593, 1.34464, 1.34457, 1.34082, 1.36722, 1.33942, 1.33733, 1.3446, 1.33784, 1.34183, 1.34949, 1.33727, 1.33061, 1.40627, 1.46255, 1.52619, 1.64758, 1.39444, 1.29779, 1.32242, 1.32314, 1.31208, 1.30748, 1.30363, 1.30588, 1.30376, 1.30152, 1.30293
1.62776, 1.62062, 1.61664, 1.61117, 1.6098, 1.60872, 1.6029, 1.60114, 1.59495, 1.59899, 1.59036, 1.60022, 1.58598, 1.59986, 1.59196, 1.59073, 1.57047, 1.5943, 1.73416, 1.85007, 1.9095, 1.55875, 1.54456, 1.55187, 1.56067, 1.54099, 1.54009, 1.53218, 1.53385, 1.53315, 1.52829, 1.5236, 1.52549, 1.53778, 1.51469, 1.50851, 1.50778, 1.50304, 1.49912, 1.49411, 1.49275, 1.48968, 1.48587, 1.48274, 1.47808, 1.47686, 1.4737, 1.47095, 1.46974, 1.46753, 1.46594, 1.46953, 1.45889, 1.47498, 1.46845, 1.46151, 1.46472, 1.46424, 1.46457, 1.48214, 1.46903, 1.46476, 1.47442, 1.4583, 1.45755, 1.4656, 1.45085, 1.43328, 1.43176, 1.42545, 1.41609, 1.40646, 1.41938, 1.40036, 1.40024, 1.39863, 1.40579, 1.39786, 1.39615, 1.39015, 1.38528, 1.38282, 1.38156, 1.37855, 1.3764, 1.37607, 1.3755, 1.37489, 1.36881, 1.36445, 1.36519, 1.35697, 1.35756, 1.35182, 1.35076, 1.35137, 1.34728, 1.34446, 1.3648, 1.33756, 1.33838, 1.33702, 1.33638, 1.3369, 1.33632, 1.33407, 1.33342, 1.32842, 1.32986, 1.32591, 1.32322, 1.32952, 1.30595, 1.42258, 1.46611, 1.66236, 1.74608, 1.38452, 1.28212, 1.33359, 1.33006, 1.30522, 1.30348, 1.30301, 1.29561, 1.3123, 1.29445, 1.2926
1.61008, 1.60481, 1.60057, 1.59737, 1.59508, 1.59328, 1.58809, 1.58326, 1.57811, 1.57456, 1.57175, 1.57087, 1.56557, 1.56825, 1.57039, 1.5688, 1.56964, 1.6414, 1.65048, 1.84807, 1.94834, 1.76514, 1.50619, 1.53288, 1.53073, 1.54086, 1.52222, 1.51699, 1.51017, 1.51107, 1.51227, 1.51114, 1.50981, 1.50657, 1.50145, 1.49736, 1.49388, 1.48876, 1.48554, 1.48128, 1.47812, 1.47539, 1.47063, 1.46786, 1.464, 1.46235, 1.46371, 1.46089, 1.45736, 1.45623, 1.45087, 1.44997, 1.46153, 1.44935, 1.43715, 1.45016, 1.44467, 1.45085, 1.45865, 1.4619, 1.46921, 1.45506, 1.45017, 1.44445, 1.45013, 1.46072, 1.45782, 1.42765, 1.4111, 1.4063, 1.41587, 1.39621, 1.38479, 1.38411, 1.38272, 1.38233, 1.38822, 1.39471, 1.38618, 1.39128, 1.37618, 1.36831, 1.36458, 1.36341, 1.36154, 1.36901, 1.36208, 1.3549, 1.35056, 1.34995, 1.34437, 1.34352, 1.34792, 1.33204, 1.3378, 1.33601, 1.33788, 1.3373, 1.32985, 1.32563, 1.32182, 1.31789, 1.32036, 1.3232, 1.32039, 1.31639, 1.31504, 1.33279, 1.3269, 1.31627, 1.3164, 1.32607, 1.29151, 1.3857, 1.50608, 1.58488, 1.45964, 1.42957, 1.27893, 1.28144, 1.29434, 1.29381, 1.29078, 1.28866, 1.29492, 1.28165, 1.27631, 1.28067
1.60742, 1.60245, 1.60029, 1.59977, 1.60241, 1.59835, 1.5859, 1.58499, 1.57924, 1.57541, 1.57752, 1.57304, 1.58515, 1.56713, 1.57241, 1.57526, 1.56419, 1.57309, 1.65419, 1.79069, 2.10689, 1.59145, 1.5089, 1.54766, 1.54261, 1.53463, 1.51372, 1.51448, 1.51126, 1.51623, 1.51634, 1.50878, 1.50649, 1.50461, 1.50253, 1.50303, 1.50267, 1.49254, 1.49012, 1.48892, 1.47866, 1.47415, 1.47684, 1.47876, 1.47648, 1.47009, 1.46614, 1.46353, 1.45447, 1.45474, 1.45134, 1.45166, 1.448, 1.44462, 1.43438, 1.43705, 1.44402, 1.45741, 1.44785, 1.45212, 1.45466, 1.48166, 1.44728, 1.44588, 1.43951, 1.45197, 1.44125, 1.43091, 1.42048, 1.41885, 1.40296, 1.41578, 1.39226, 1.3843, 1.38088, 1.38219, 1.38218, 1.3847, 1.37596, 1.36847, 1.36331, 1.36483, 1.36471, 1.35799, 1.35577, 1.35503, 1.35465, 1.35748, 1.34874, 1.34675, 1.34412, 1.33677, 1.33569, 1.33737, 1.32582, 1.32669, 1.33162, 1.33238, 1.32287, 1.32196, 1.32077, 1.3173, 1.31514, 1.31661, 1.31955, 1.31855, 1.3085, 1.30352, 1.30454, 1.3003, 1.30497, 1.30932, 1.30728, 1.43852, 1.50671, 1.58946, 1.56165, 1.52745, 1.28232, 1.30217, 1.28982, 1.29261, 1.28718, 1.27892, 1.27187, 1.27369, 1.27503, 1.26898
1.61415, 1.61242, 1.61363, 1.61331, 1.61401, 1.61143, 1.61022, 1.59666, 1.59661, 1.59806, 1.58674, 1.58383, 1.58294, 1.58964, 1.58778, 1.58275, 1.57995, 1.58171, 1.6613, 2.05838, 2.08242, 1.52973, 1.51566, 1.55229, 1.55586, 1.55467, 1.53442, 1.52533, 1.52349, 1.525, 1.52388, 1.52331, 1.52361, 1.51567, 1.51071, 1.50921, 1.50698, 1.50365, 1.49578, 1.49346, 1.49226, 1.48799, 1.48864, 1.48491, 1.48369, 1.48038, 1.47541, 1.46816, 1.46404, 1.45931, 1.45753, 1.45729, 1.45706, 1.45084, 1.46424, 1.44315, 1.45232, 1.46762, 1.45801, 1.45797, 1.47615, 1.45721, 1.46715, 1.44703, 1.47543, 1.45525, 1.45484, 1.44483, 1.41973, 1.41659, 1.41412, 1.40841, 1.40516, 1.4022, 1.3912, 1.39692, 1.38946, 1.39323, 1.38283, 1.37729, 1.3758, 1.37818, 1.37632, 1.36951, 1.36789, 1.36771, 1.36639, 1.36482, 1.36295, 1.35874, 1.3573, 1.35335, 1.34788, 1.34807, 1.34188, 1.33843, 1.3441, 1.33601, 1.33572, 1.33267, 1.33292, 1.32927, 1.32286, 1.32777, 1.32732, 1.33207, 1.32396, 1.31305, 1.31618, 1.32208, 1.31887, 1.33413, 1.29599, 1.44234, 1.49398, 1.55928, 1.48644, 1.49984, 1.2688, 1.29248, 1.29918, 1.29438, 1.29012, 1.28727, 1.29313, 1.28257, 1.28253, 1.28143
