1.64414, 1.63787, 1.62193, 1.6146, 1.61027, 1.60412, 1.61008, 1.57548, 1.6144, 1.63769, 1.65019, 1.69362, 1.6827, 1.53935, 1.56161, 1.55417, 1.55641, 1.56117, 1.54138, 1.52599, 1.52142, 1.51746, 1.51283, 1.51087, 1.50034, 1.49493, 1.4875, 1.4855, 1.47953, 1.47223, 1.48091, 1.46689, 1.46878, 1.47872, 1.47274, 1.55788, 1.75226, 1.61812, 1.4363, 1.43278, 1.42685, 1.42083, 1.41651, 1.40906, 1.40404, 1.40113, 1.39363, 1.38815, 1.38281, 1.38081, 1.37513, 1.37308, 1.36766, 1.36571, 1.36223, 1.36382, 1.35414, 1.34487, 1.37113, 1.34272, 1.33307, 1.33022, 1.32941, 1.33, 1.3363, 1.3432, 1.34809, 1.38581, 1.3573, 1.34421, 1.31355, 1.31357, 1.30345, 1.29004, 1.2883, 1.2889, 
1.63664, 1.65209, 1.62142, 1.61917, 1.61957, 1.60828, 1.61261, 1.60947, 1.65517, 1.6378, 1.67172, 1.69609, 1.66771, 1.56127, 1.56706, 1.5545, 1.54836, 1.56156, 1.53376, 1.52672, 1.52141, 1.51967, 1.51316, 1.50597, 1.50097, 1.49495, 1.49131, 1.48575, 1.48295, 1.47598, 1.46926, 1.46508, 1.46836, 1.47128, 1.50354, 1.57334, 1.7609, 1.53506, 1.44818, 1.43013, 1.42254, 1.41717, 1.416, 1.405, 1.40006, 1.39791, 1.3952, 1.39036, 1.38423, 1.38058, 1.37531, 1.3712, 1.36998, 1.37092, 1.36089, 1.3594, 1.35539, 1.35127, 1.34771, 1.34539, 1.34078, 1.33826, 1.33405, 1.34317, 1.34004, 1.34365, 1.37761, 1.37077, 1.38563, 1.36756, 1.31284, 1.307, 1.29587, 1.28642, 1.28559, 1.28595, 
1.68538, 1.66757, 1.64282, 1.63003, 1.61494, 1.61317, 1.6246, 1.61576, 1.59127, 1.62997, 1.68665, 1.71248, 1.61982, 1.58195, 1.56993, 1.56062, 1.55834, 1.56414, 1.54835, 1.53, 1.52268, 1.53098, 1.51657, 1.51191, 1.50422, 1.49939, 1.49766, 1.49219, 1.48663, 1.48847, 1.46914, 1.47217, 1.4663, 1.47324, 1.43638, 1.62453, 1.74992, 1.51281, 1.43682, 1.43846, 1.42903, 1.42235, 1.41355, 1.41079, 1.40235, 1.39716, 1.39877, 1.40216, 1.38874, 1.38703, 1.38068, 1.37644, 1.37173, 1.36747, 1.3637, 1.36465, 1.35603, 1.3566, 1.35067, 1.35072, 1.34913, 1.34406, 1.34034, 1.3434, 1.34416, 1.35081, 1.36433, 1.36671, 1.36904, 1.36899, 1.31623, 1.31173, 1.30051, 1.29178, 1.28979, 1.29043, 
1.64437, 1.67469, 1.67251, 1.63382, 1.61946, 1.61493, 1.61308, 1.61396, 1.62315, 1.6351, 1.68898, 1.72697, 1.63949, 1.56699, 1.57563, 1.55757, 1.55184, 1.55653, 1.55066, 1.54045, 1.5469, 1.52314, 1.52354, 1.51198, 1.50779, 1.50269, 1.50337, 1.49505, 1.49022, 1.48483, 1.48984, 1.47282, 1.47258, 1.48073, 1.4917, 1.56222, 1.72548, 1.54478, 1.41662, 1.44648, 1.43286, 1.42625, 1.42153, 1.41326, 1.41375, 1.40629, 1.40405, 1.39671, 1.39266, 1.39021, 1.38787, 1.38338, 1.38054, 1.37514, 1.36525, 1.36531, 1.36063, 1.35793, 1.36072, 1.35508, 1.35435, 1.35157, 1.34484, 1.35059, 1.36253, 1.35751, 1.36267, 1.39296, 1.38946, 1.35571, 1.32069, 1.31777, 1.31602, 1.30268, 1.31327, 1.29757, 
1.65155, 1.68372, 1.68987, 1.629, 1.63492, 1.62672, 1.6233, 1.63418, 1.62448, 1.64107, 1.69333, 1.69679, 1.65568, 1.56458, 1.58122, 1.5614, 1.55442, 1.55181, 1.56831, 1.54162, 1.53436, 1.52724, 1.5214, 1.5157, 1.50931, 1.50632, 1.49967, 1.49648, 1.49292, 1.48876, 1.48621, 1.48185, 1.48143, 1.48038, 1.45259, 1.5821, 1.72594, 1.5331, 1.45062, 1.45429, 1.44631, 1.43619, 1.42535, 1.4231, 1.41743, 1.4166, 1.40548, 1.40178, 1.39834, 1.39339, 1.39491, 1.3891, 1.38489, 1.37659, 1.37402, 1.36523, 1.36114, 1.36002, 1.36201, 1.36414, 1.36475, 1.35665, 1.35103, 1.34809, 1.3534, 1.34896, 1.38406, 1.39906, 1.42807, 1.36298, 1.35181, 1.3409, 1.3263, 1.30564, 1.30408, 1.3024, 
1.6655, 1.65757, 1.66139, 1.65531, 1.63342, 1.62211, 1.62752, 1.64889, 1.60015, 1.6789, 1.67168, 1.70511, 1.67163, 1.57635, 1.57622, 1.57326, 1.55696, 1.55459, 1.56516, 1.54305, 1.53714, 1.53349, 1.52718, 1.52202, 1.51888, 1.51118, 1.50537, 1.5025, 1.49657, 1.49268, 1.4891, 1.48554, 1.4825, 1.48574, 1.45441, 1.58682, 1.7424, 1.61922, 1.4498, 1.46441, 1.45078, 1.4399, 1.43653, 1.42692, 1.42281, 1.42093, 1.42049, 1.41704, 1.40407, 1.40188, 1.39697, 1.39277, 1.39091, 1.3843, 1.37448, 1.37029, 1.36104, 1.36145, 1.36691, 1.36242, 1.3712, 1.35823, 1.35623, 1.35421, 1.36041, 1.35867, 1.38175, 1.39842, 1.39092, 1.39672, 1.32996, 1.33737, 1.32947, 1.31286, 1.3116, 1.31138, 
1.65379, 1.65074, 1.65351, 1.63883, 1.63278, 1.62737, 1.62158, 1.62662, 1.6135, 1.68723, 1.69982, 1.73271, 1.68892, 1.5742, 1.58932, 1.57472, 1.56089, 1.56261, 1.56908, 1.55067, 1.54241, 1.541, 1.53335, 1.52744, 1.52076, 1.51488, 1.50787, 1.50347, 1.50297, 1.50259, 1.49652, 1.48986, 1.4826, 1.48186, 1.47496, 1.56618, 1.70677, 1.61055, 1.44653, 1.46565, 1.45425, 1.44122, 1.43567, 1.43022, 1.42461, 1.42234, 1.41554, 1.41099, 1.40767, 1.40596, 1.40368, 1.4007, 1.39393, 1.38769, 1.37591, 1.37304, 1.36787, 1.36324, 1.36197, 1.36136, 1.35558, 1.35189, 1.35383, 1.35499, 1.35792, 1.37491, 1.38175, 1.44757, 1.39746, 1.42755, 1.33209, 1.33874, 1.32098, 1.31331, 1.31198, 1.30714, 
1.66588, 1.65698, 1.64637, 1.64119, 1.6377, 1.64766, 1.63711, 1.63606, 1.62138, 1.65499, 1.71841, 1.75711, 1.68707, 1.58983, 1.59534, 1.57385, 1.56747, 1.55962, 1.56691, 1.56782, 1.55356, 1.54512, 1.53884, 1.53099, 1.52439, 1.51669, 1.5123, 1.50674, 1.50154, 1.50374, 1.49826, 1.49253, 1.49244, 1.49629, 1.53429, 1.64389, 1.73276, 1.68184, 1.43435, 1.4745, 1.46866, 1.44365, 1.43677, 1.43135, 1.43016, 1.42539, 1.42078, 1.41761, 1.40952, 1.40773, 1.4068, 1.4031, 1.4019, 1.39676, 1.38961, 1.38484, 1.37396, 1.37076, 1.36533, 1.36228, 1.36095, 1.35981, 1.35492, 1.36175, 1.36707, 1.36757, 1.39512, 1.40045, 1.40567, 1.38496, 1.35009, 1.33336, 1.33072, 1.32134, 1.31857, 1.31024, 
1.65462, 1.65561, 1.65427, 1.65798, 1.64575, 1.63654, 1.6363, 1.63002, 1.63848, 1.66572, 1.76269, 1.76477, 1.7154, 1.60012, 1.58869, 1.58395, 1.56699, 1.56483, 1.55194, 1.5657, 1.54919, 1.54437, 1.53711, 1.53356, 1.53254, 1.51986, 1.51166, 1.50801, 1.50177, 1.4986, 1.49499, 1.49236, 1.48506, 1.48693, 1.47822, 1.65125, 1.71013, 1.69141, 1.42836, 1.46616, 1.45021, 1.45778, 1.44085, 1.4301, 1.42926, 1.42392, 1.42221, 1.41661, 1.41265, 1.40507, 1.40344, 1.4047, 1.4048, 1.40099, 1.39429, 1.38716, 1.38119, 1.37333, 1.37317, 1.36927, 1.36764, 1.36261, 1.35489, 1.3573, 1.361, 1.3547, 1.38929, 1.39813, 1.41633, 1.38428, 1.34045, 1.3427, 1.3297, 1.3223, 1.32687, 1.31279, 
1.66608, 1.66583, 1.66898, 1.66559, 1.65919, 1.64147, 1.63422, 1.63335, 1.60927, 1.70368, 1.75294, 1.77626, 1.78535, 1.57329, 1.59464, 1.58592, 1.57294, 1.56671, 1.5518, 1.55587, 1.55568, 1.55615, 1.53847, 1.53325, 1.52726, 1.52339, 1.51733, 1.51412, 1.5077, 1.5028, 1.50198, 1.49182, 1.48788, 1.48641, 1.5091, 1.64719, 1.70438, 1.67991, 1.42661, 1.45788, 1.46871, 1.44158, 1.43994, 1.44083, 1.42676, 1.42299, 1.42088, 1.41551, 1.40885, 1.40567, 1.40137, 1.40163, 1.39926, 1.39853, 1.39582, 1.39246, 1.3873, 1.37798, 1.37648, 1.37461, 1.37539, 1.36786, 1.36154, 1.35663, 1.35459, 1.37051, 1.39358, 1.42137, 1.41942, 1.41914, 1.35101, 1.33524, 1.32747, 1.31979, 1.31802, 1.31546, 
1.66556, 1.66491, 1.65951, 1.6653, 1.67239, 1.6435, 1.63382, 1.65097, 1.6367, 1.68506, 1.70297, 1.76249, 1.73998, 1.61327, 1.59042, 1.5775, 1.57266, 1.56759, 1.56145, 1.55507, 1.55593, 1.55999, 1.54738, 1.53795, 1.53206, 1.52822, 1.51979, 1.51681, 1.51044, 1.50439, 1.4972, 1.49393, 1.49017, 1.48918, 1.50214, 1.60074, 1.69857, 1.62361, 1.44356, 1.45273, 1.44181, 1.45397, 1.44785, 1.43213, 1.42646, 1.42527, 1.42274, 1.42259, 1.41357, 1.40881, 1.40484, 1.40228, 1.39972, 1.39752, 1.3935, 1.39047, 1.38519, 1.38035, 1.37652, 1.37537, 1.39528, 1.37172, 1.36811, 1.362, 1.36946, 1.35713, 1.37883, 1.40232, 1.44205, 1.42112, 1.3819, 1.34745, 1.32844, 1.32301, 1.32548, 1.31667, 
1.67035, 1.66874, 1.66222, 1.65474, 1.65384, 1.65373, 1.63605, 1.63048, 1.61365, 1.6725, 1.69561, 1.75208, 1.70071, 1.58498, 1.59746, 1.58592, 1.58763, 1.57599, 1.56634, 1.56862, 1.56567, 1.55736, 1.54299, 1.53458, 1.53453, 1.53059, 1.52355, 1.51972, 1.51106, 1.50972, 1.50053, 1.49659, 1.49482, 1.50212, 1.53362, 1.58506, 1.69381, 1.64792, 1.43495, 1.45534, 1.45433, 1.444, 1.44183, 1.4374, 1.43071, 1.42802, 1.42482, 1.41985, 1.41711, 1.41204, 1.40788, 1.4062, 1.40216, 1.40082, 1.39697, 1.39063, 1.38692, 1.38364, 1.37825, 1.37595, 1.3744, 1.36907, 1.37167, 1.37135, 1.36667, 1.38182, 1.43258, 1.43785, 1.47197, 1.45095, 1.39962, 1.37212, 1.32706, 1.3236, 1.31901, 1.316, 
1.66638, 1.68196, 1.66504, 1.65304, 1.64575, 1.66196, 1.64468, 1.64485, 1.63274, 1.73674, 1.75123, 1.80905, 1.76208, 1.58202, 1.61301, 1.59675, 1.58644, 1.58054, 1.57414, 1.56625, 1.58109, 1.5693, 1.54809, 1.55168, 1.53576, 1.53286, 1.5286, 1.52026, 1.51438, 1.51061, 1.50433, 1.5026, 1.4988, 1.49745, 1.46598, 1.5732, 1.68293, 1.68285, 1.55106, 1.4766, 1.47777, 1.45193, 1.44462, 1.44111, 1.43686, 1.43405, 1.43065, 1.42891, 1.42949, 1.4222, 1.41499, 1.41197, 1.40631, 1.40556, 1.40035, 1.39555, 1.39035, 1.39197, 1.39198, 1.38225, 1.37959, 1.37607, 1.38633, 1.37049, 1.37089, 1.36281, 1.41756, 1.43174, 1.45658, 1.4508, 1.35559, 1.35675, 1.34021, 1.33075, 1.3293, 1.32094, 
1.67631, 1.67008, 1.66502, 1.65861, 1.65639, 1.64848, 1.65843, 1.64802, 1.63402, 1.66389, 1.72385, 1.7893, 1.75225, 1.61419, 1.61215, 1.60904, 1.58468, 1.58116, 1.57586, 1.5701, 1.5689, 1.56812, 1.54837, 1.54451, 1.5526, 1.531, 1.52537, 1.52146, 1.51813, 1.51473, 1.50689, 1.50301, 1.49874, 1.50253, 1.47856, 1.54372, 1.70773, 1.67562, 1.56021, 1.47943, 1.47218, 1.46039, 1.45139, 1.44339, 1.44096, 1.43465, 1.4325, 1.43068, 1.42616, 1.42196, 1.42121, 1.41654, 1.41348, 1.40886, 1.40099, 1.39358, 1.38788, 1.38605, 1.38237, 1.3794, 1.37404, 1.37317, 1.37135, 1.36773, 1.37893, 1.37599, 1.41596, 1.44314, 1.45863, 1.4303, 1.39557, 1.36194, 1.33631, 1.33026, 1.32975, 1.32467, 
1.68251, 1.6769, 1.66884, 1.66844, 1.65934, 1.67094, 1.66202, 1.65562, 1.64855, 1.65423, 1.75085, 1.77919, 1.77603, 1.58743, 1.60889, 1.60061, 1.58874, 1.58231, 1.57382, 1.57689, 1.56781, 1.58607, 1.55476, 1.55011, 1.54055, 1.53445, 1.53183, 1.52709, 1.52131, 1.51671, 1.51017, 1.50558, 1.50078, 1.50166, 1.48934, 1.59593, 1.6783, 1.61102, 1.57562, 1.4779, 1.47599, 1.46882, 1.45423, 1.44838, 1.44178, 1.43736, 1.43313, 1.43202, 1.42746, 1.42449, 1.42193, 1.41792, 1.41577, 1.40588, 1.40142, 1.39599, 1.39208, 1.38537, 1.38074, 1.37654, 1.37581, 1.36975, 1.37093, 1.38417, 1.3791, 1.36801, 1.40361, 1.45144, 1.46879, 1.44469, 1.34621, 1.35122, 1.33446, 1.33119, 1.34371, 1.3268, 
1.68466, 1.67898, 1.67269, 1.66464, 1.66479, 1.67509, 1.66538, 1.66059, 1.63475, 1.64193, 1.77605, 1.80614, 1.76868, 1.58999, 1.62019, 1.60225, 1.58564, 1.58866, 1.58803, 1.57293, 1.5896, 1.60858, 1.57938, 1.54881, 1.54733, 1.53964, 1.53329, 1.52919, 1.5232, 1.51712, 1.51525, 1.50643, 1.50368, 1.50229, 1.47381, 1.62325, 1.66467, 1.70127, 1.51762, 1.48161, 1.4799, 1.47101, 1.46114, 1.45226, 1.4459, 1.4435, 1.43816, 1.4351, 1.42963, 1.42813, 1.42273, 1.4208, 1.41685, 1.4195, 1.40656, 1.40359, 1.39393, 1.3883, 1.3832, 1.38153, 1.37589, 1.37281, 1.39092, 1.37815, 1.37857, 1.38789, 1.45869, 1.45667, 1.46772, 1.45138, 1.38632, 1.34963, 1.34287, 1.33637, 1.33208, 1.32808, 
1.68742, 1.68287, 1.67497, 1.66447, 1.65933, 1.65886, 1.68189, 1.65483, 1.63357, 1.68529, 1.7857, 1.8165, 1.80526, 1.61428, 1.60903, 1.61113, 1.59517, 1.58538, 1.58867, 1.57453, 1.57316, 1.60613, 1.57585, 1.55754, 1.55797, 1.55704, 1.54784, 1.5349, 1.53037, 1.52263, 1.51854, 1.51076, 1.51091, 1.51788, 1.48194, 1.57161, 1.66797, 1.66349, 1.52608, 1.48511, 1.48251, 1.47264, 1.46804, 1.46197, 1.45652, 1.44525, 1.44208, 1.43965, 1.43871, 1.43054, 1.42709, 1.42343, 1.41859, 1.4131, 1.41065, 1.4044, 1.39554, 1.39178, 1.38933, 1.38552, 1.38146, 1.37925, 1.37838, 1.3971, 1.39537, 1.39122, 1.46255, 1.46538, 1.47789, 1.48961, 1.38046, 1.35682, 1.34812, 1.33703, 1.33384, 1.33229, 
1.68567, 1.6794, 1.67268, 1.66587, 1.66179, 1.65991, 1.67897, 1.65619, 1.65684, 1.71973, 1.78138, 1.81456, 1.78996, 1.62044, 1.61074, 1.60128, 1.596, 1.58957, 1.5839, 1.58227, 1.58872, 1.57458, 1.5789, 1.55091, 1.54981, 1.54604, 1.54183, 1.53381, 1.53277, 1.5245, 1.51905, 1.53344, 1.51284, 1.52247, 1.48619, 1.63024, 1.70228, 1.68872, 1.53669, 1.47763, 1.48431, 1.47072, 1.46496, 1.46183, 1.46276, 1.45158, 1.44704, 1.44218, 1.43767, 1.43671, 1.43084, 1.42586, 1.42218, 1.42104, 1.41504, 1.40639, 1.40493, 1.3958, 1.39539, 1.3907, 1.38813, 1.38452, 1.38264, 1.39193, 1.39847, 1.36761, 1.45106, 1.46736, 1.48492, 1.44984, 1.39483, 1.35181, 1.35853, 1.34327, 1.34035, 1.34614, 
1.6869, 1.67528, 1.68588, 1.66814, 1.66027, 1.65218, 1.67291, 1.64293, 1.62567, 1.68667, 1.74675, 1.85572, 1.83289, 1.61108, 1.61681, 1.61013, 1.59648, 1.59001, 1.58304, 1.57684, 1.57175, 1.57578, 1.57185, 1.55519, 1.54828, 1.54407, 1.54154, 1.53368, 1.5487, 1.54088, 1.51351, 1.51036, 1.50961, 1.50952, 1.50682, 1.49121, 1.69012, 1.69015, 1.48769, 1.48802, 1.46833, 1.47413, 1.46994, 1.45758, 1.4508, 1.44726, 1.44245, 1.43717, 1.43514, 1.43284, 1.42851, 1.42776, 1.4228, 1.41884, 1.41548, 1.40935, 1.40579, 1.40083, 1.3971, 1.39263, 1.38599, 1.38533, 1.38295, 1.3818, 1.39112, 1.38267, 1.46775, 1.48011, 1.48766, 1.47536, 1.44123, 1.35489, 1.35045, 1.34432, 1.35764, 1.34, 
1.68609, 1.68212, 1.6755, 1.66874, 1.66187, 1.65603, 1.66301, 1.66194, 1.63826, 1.6982, 1.72675, 1.83859, 1.80231, 1.59182, 1.60762, 1.60643, 1.59352, 1.59169, 1.58534, 1.57553, 1.57114, 1.56613, 1.58071, 1.57207, 1.54708, 1.54194, 1.5386, 1.53015, 1.52676, 1.51629, 1.50722, 1.50554, 1.50411, 1.50634, 1.471, 1.58516, 1.69333, 1.69239, 1.49628, 1.47649, 1.4697, 1.46308, 1.46305, 1.46175, 1.45103, 1.44329, 1.44011, 1.43638, 1.43227, 1.43043, 1.42933, 1.42584, 1.42068, 1.41778, 1.41668, 1.41061, 1.40875, 1.40309, 1.39973, 1.39198, 1.40236, 1.38623, 1.3956, 1.3866, 1.38171, 1.37703, 1.39454, 1.46507, 1.49268, 1.49992, 1.39594, 1.3605, 1.35773, 1.35668, 1.34346, 1.3398, 
1.68926, 1.68163, 1.67544, 1.67193, 1.66324, 1.65978, 1.67149, 1.67553, 1.65005, 1.64722, 1.77196, 1.82688, 1.81315, 1.58779, 1.62042, 1.59658, 1.58962, 1.58714, 1.58558, 1.57683, 1.57232, 1.563, 1.57447, 1.57237, 1.54214, 1.54287, 1.54065, 1.53157, 1.52727, 1.51337, 1.50453, 1.50004, 1.50266, 1.52365, 1.51698, 1.58487, 1.69021, 1.63437, 1.60423, 1.47785, 1.47101, 1.46065, 1.45362, 1.44931, 1.44629, 1.441, 1.43698, 1.43424, 1.4286, 1.43087, 1.42895, 1.42292, 1.41922, 1.4159, 1.41303, 1.40653, 1.40525, 1.39863, 1.39117, 1.38475, 1.38611, 1.38271, 1.38246, 1.37794, 1.37885, 1.36943, 1.4326, 1.48295, 1.50453, 1.47973, 1.43619, 1.35501, 1.35155, 1.34394, 1.33994, 1.33611, 
1.69869, 1.69692, 1.68752, 1.68382, 1.6782, 1.67368, 1.67523, 1.67191, 1.61921, 1.64425, 1.78898, 1.85566, 1.85217, 1.61067, 1.62755, 1.60906, 1.61245, 1.59702, 1.59126, 1.58957, 1.58287, 1.58474, 1.57134, 1.57318, 1.57553, 1.56281, 1.54454, 1.54398, 1.53664, 1.52737, 1.5234, 1.51766, 1.51803, 1.52607, 1.53105, 1.60021, 1.65123, 1.64197, 1.49479, 1.46184, 1.48483, 1.47939, 1.46935, 1.46029, 1.45722, 1.45168, 1.44567, 1.43717, 1.43731, 1.44285, 1.43766, 1.42844, 1.42639, 1.42631, 1.421, 1.41233, 1.40701, 1.41038, 1.40253, 1.39601, 1.39153, 1.38613, 1.38613, 1.38603, 1.38886, 1.37264, 1.45502, 1.53363, 1.52073, 1.51352, 1.46488, 1.37129, 1.37185, 1.34973, 1.35141, 1.34849, 
1.69369, 1.69096, 1.68, 1.66825, 1.67104, 1.68068, 1.66592, 1.6709, 1.63811, 1.68019, 1.78679, 1.85533, 1.85115, 1.59899, 1.61319, 1.6145, 1.60305, 1.59566, 1.58861, 1.58281, 1.57565, 1.57237, 1.5683, 1.57496, 1.58276, 1.55688, 1.53946, 1.54017, 1.5352, 1.52665, 1.52507, 1.53392, 1.51677, 1.52304, 1.50004, 1.58032, 1.67157, 1.67731, 1.50874, 1.46243, 1.48455, 1.47634, 1.47559, 1.46709, 1.47382, 1.4629, 1.45677, 1.45137, 1.44972, 1.44498, 1.45202, 1.42735, 1.42689, 1.42399, 1.41837, 1.42708, 1.41093, 1.40501, 1.42364, 1.40223, 1.39809, 1.39843, 1.403, 1.39776, 1.40164, 1.37706, 1.42069, 1.50607, 1.51679, 1.59682, 1.47078, 1.35859, 1.36154, 1.35406, 1.35063, 1.34157, 
1.68827, 1.6891, 1.66808, 1.66986, 1.66289, 1.66878, 1.65391, 1.65551, 1.65651, 1.69604, 1.78149, 1.86591, 1.89983, 1.62274, 1.62115, 1.61276, 1.60472, 1.58809, 1.58126, 1.58325, 1.56482, 1.56703, 1.55715, 1.56582, 1.56183, 1.54508, 1.54711, 1.54355, 1.54007, 1.52231, 1.5269, 1.52284, 1.50915, 1.51743, 1.48867, 1.59947, 1.64391, 1.64998, 1.58189, 1.45003, 1.47246, 1.49914, 1.48529, 1.46822, 1.46698, 1.44642, 1.438, 1.42676, 1.43615, 1.44338, 1.42223, 1.41024, 1.4062, 1.40736, 1.40345, 1.39949, 1.38571, 1.38398, 1.38607, 1.39044, 1.39508, 1.3781, 1.36928, 1.36952, 1.38298, 1.35565, 1.47264, 1.54426, 1.53259, 1.539, 1.40878, 1.36373, 1.36109, 1.35015, 1.34666, 1.32292, 
1.6992, 1.69604, 1.68429, 1.67891, 1.6762, 1.68324, 1.66752, 1.6579, 1.65071, 1.69503, 1.82765, 1.89767, 1.89471, 1.59873, 1.6345, 1.62419, 1.6101, 1.60873, 1.59867, 1.58928, 1.5844, 1.57798, 1.59274, 1.57929, 1.58326, 1.56104, 1.55517, 1.5593, 1.55201, 1.55116, 1.55601, 1.53864, 1.52714, 1.52508, 1.51236, 1.52611, 1.67405, 1.6792, 1.57848, 1.46463, 1.49775, 1.51297, 1.48991, 1.488, 1.46579, 1.4586, 1.44985, 1.44704, 1.44855, 1.45111, 1.44153, 1.43647, 1.42752, 1.42259, 1.41997, 1.41643, 1.41019, 1.40789, 1.40691, 1.40609, 1.40612, 1.40195, 1.39247, 1.39225, 1.39547, 1.40882, 1.37513, 1.47145, 1.56845, 1.52931, 1.45552, 1.37035, 1.37831, 1.36804, 1.36158, 1.34481, 
1.68866, 1.69125, 1.67666, 1.6719, 1.66914, 1.66556, 1.6545, 1.65228, 1.65052, 1.61776, 1.75885, 1.83317, 1.92412, 1.60764, 1.6248, 1.61148, 1.60044, 1.58636, 1.58258, 1.58217, 1.57589, 1.57006, 1.56393, 1.56099, 1.56093, 1.54534, 1.54402, 1.53292, 1.53207, 1.52709, 1.52338, 1.53021, 1.51303, 1.51994, 1.50387, 1.59626, 1.6622, 1.66101, 1.61114, 1.4585, 1.48936, 1.50375, 1.48703, 1.4647, 1.45385, 1.4421, 1.44292, 1.4425, 1.43928, 1.43455, 1.43274, 1.42979, 1.4241, 1.42009, 1.41615, 1.41086, 1.40698, 1.40042, 1.39396, 1.39304, 1.39026, 1.38812, 1.40315, 1.38517, 1.38495, 1.38948, 1.40976, 1.47558, 1.51559, 1.49906, 1.45895, 1.38205, 1.36688, 1.34897, 1.34187, 1.33701, 
1.67974, 1.67466, 1.67104, 1.66228, 1.67228, 1.66506, 1.64563, 1.64697, 1.63921, 1.64669, 1.78325, 1.84495, 1.88049, 1.58922, 1.61214, 1.59465, 1.59721, 1.58761, 1.58992, 1.56483, 1.56094, 1.55773, 1.55258, 1.55816, 1.55037, 1.55126, 1.53683, 1.52736, 1.52366, 1.51725, 1.51149, 1.50607, 1.49945, 1.50492, 1.47459, 1.59459, 1.59353, 1.63855, 1.57278, 1.46115, 1.47218, 1.4674, 1.48199, 1.44954, 1.44772, 1.43874, 1.43855, 1.43954, 1.43685, 1.42656, 1.42561, 1.41909, 1.41906, 1.41696, 1.40194, 1.39762, 1.39518, 1.38699, 1.38355, 1.38462, 1.38082, 1.38145, 1.37303, 1.38446, 1.38076, 1.39199, 1.41281, 1.48337, 1.52173, 1.54091, 1.50293, 1.3581, 1.35224, 1.33717, 1.33375, 1.33077, 
1.69249, 1.68438, 1.68158, 1.67305, 1.6633, 1.6584, 1.65449, 1.65344, 1.65246, 1.6655, 1.74416, 1.83897, 1.89075, 1.59068, 1.6165, 1.61784, 1.59567, 1.59031, 1.58982, 1.57547, 1.56965, 1.56315, 1.56112, 1.55111, 1.55243, 1.55787, 1.55468, 1.53469, 1.53269, 1.52495, 1.51593, 1.51064, 1.50547, 1.51461, 1.49255, 1.58992, 1.6095, 1.64777, 1.562, 1.44445, 1.49265, 1.48304, 1.48797, 1.45909, 1.44774, 1.44662, 1.47289, 1.44209, 1.43474, 1.43238, 1.42756, 1.42352, 1.42247, 1.41742, 1.41105, 1.40472, 1.40301, 1.3952, 1.3912, 1.38951, 1.3957, 1.41238, 1.37978, 1.39521, 1.3796, 1.38231, 1.41341, 1.47869, 1.52376, 1.55829, 1.37273, 1.35853, 1.36828, 1.34754, 1.34814, 1.33672, 
1.67976, 1.67354, 1.66692, 1.66, 1.65441, 1.6583, 1.63564, 1.63396, 1.62511, 1.61996, 1.70991, 1.87475, 1.88373, 1.57625, 1.59433, 1.587, 1.59002, 1.57507, 1.56965, 1.56736, 1.56555, 1.5569, 1.54999, 1.54132, 1.53374, 1.54054, 1.54722, 1.51973, 1.5127, 1.50899, 1.50333, 1.49956, 1.50267, 1.49985, 1.49321, 1.52441, 1.63474, 1.63387, 1.58934, 1.43657, 1.46559, 1.45826, 1.48597, 1.45498, 1.43814, 1.43404, 1.43121, 1.42496, 1.4227, 1.41408, 1.41217, 1.40735, 1.40475, 1.39766, 1.39236, 1.3902, 1.38756, 1.38188, 1.38534, 1.37447, 1.37184, 1.36596, 1.36304, 1.36088, 1.36055, 1.36108, 1.32815, 1.45808, 1.51682, 1.52485, 1.40602, 1.32307, 1.33955, 1.32793, 1.32323, 1.32071, 
1.67355, 1.67079, 1.66317, 1.65886, 1.64975, 1.64735, 1.63705, 1.63504, 1.62501, 1.61332, 1.63254, 1.79698, 1.78433, 1.7342, 1.5955, 1.60076, 1.5824, 1.57646, 1.56806, 1.56392, 1.5584, 1.55478, 1.54951, 1.54149, 1.53087, 1.52399, 1.53806, 1.51977, 1.5144, 1.51395, 1.5074, 1.50054, 1.49898, 1.50443, 1.48768, 1.51939, 1.58229, 1.62778, 1.58847, 1.45394, 1.46462, 1.46088, 1.46697, 1.47435, 1.44385, 1.43124, 1.4277, 1.41964, 1.41569, 1.41188, 1.40712, 1.40253, 1.39918, 1.39326, 1.39368, 1.39291, 1.38557, 1.37991, 1.37537, 1.37257, 1.36943, 1.36706, 1.36116, 1.35485, 1.35433, 1.35837, 1.4139, 1.51537, 1.54902, 1.53069, 1.49161, 1.35334, 1.34066, 1.32419, 1.32103, 1.32213, 
1.67643, 1.66847, 1.65713, 1.64832, 1.6438, 1.63889, 1.63622, 1.63332, 1.63839, 1.60676, 1.71457, 1.86801, 1.89891, 1.57696, 1.61062, 1.60007, 1.58552, 1.58533, 1.56564, 1.56172, 1.55578, 1.55748, 1.55026, 1.54282, 1.53778, 1.5365, 1.53331, 1.52224, 1.51748, 1.5336, 1.52069, 1.51245, 1.50478, 1.51325, 1.50329, 1.55192, 1.61423, 1.6311, 1.60026, 1.46165, 1.47048, 1.47294, 1.45699, 1.47389, 1.44175, 1.45091, 1.43299, 1.43411, 1.42118, 1.41725, 1.41395, 1.41043, 1.40881, 1.40355, 1.40065, 1.39612, 1.39304, 1.38772, 1.37973, 1.37708, 1.37462, 1.36944, 1.36559, 1.36128, 1.37224, 1.37502, 1.34745, 1.46615, 1.52687, 1.53442, 1.47206, 1.34939, 1.33214, 1.3261, 1.32618, 1.31998, 
1.67507, 1.66326, 1.65637, 1.65396, 1.65774, 1.63899, 1.6324, 1.63361, 1.64085, 1.60735, 1.68304, 1.87776, 1.88502, 1.7373, 1.59776, 1.59558, 1.58049, 1.58093, 1.56461, 1.55734, 1.55381, 1.55727, 1.5438, 1.53977, 1.53312, 1.53125, 1.52259, 1.55053, 1.51444, 1.51214, 1.50319, 1.49975, 1.4944, 1.49964, 1.46757, 1.53094, 1.60119, 1.61281, 1.59936, 1.42938, 1.45847, 1.46951, 1.44483, 1.45771, 1.4402, 1.43352, 1.42816, 1.42666, 1.42353, 1.41888, 1.41215, 1.40967, 1.40825, 1.40624, 1.4024, 1.40031, 1.39145, 1.38566, 1.37972, 1.37492, 1.37218, 1.36954, 1.36681, 1.36852, 1.36056, 1.3654, 1.36682, 1.47936, 1.55036, 1.54655, 1.45857, 1.33591, 1.33937, 1.32594, 1.32276, 1.32005, 
1.67867, 1.67141, 1.66871, 1.66461, 1.65683, 1.64746, 1.64204, 1.63447, 1.63298, 1.62055, 1.72773, 1.853, 1.89213, 1.57302, 1.60338, 1.60918, 1.58281, 1.57805, 1.56974, 1.58848, 1.55922, 1.55805, 1.54727, 1.54319, 1.53713, 1.53164, 1.53195, 1.54012, 1.54372, 1.51992, 1.50433, 1.5032, 1.49569, 1.50165, 1.49196, 1.51173, 1.56936, 1.62303, 1.56255, 1.55301, 1.46129, 1.45576, 1.45304, 1.45822, 1.44691, 1.43403, 1.44463, 1.42403, 1.42151, 1.41716, 1.41237, 1.40749, 1.40321, 1.40161, 1.39729, 1.39268, 1.38578, 1.38285, 1.37583, 1.37397, 1.37091, 1.37018, 1.36604, 1.36424, 1.37218, 1.37523, 1.42025, 1.45687, 1.5493, 1.55077, 1.41974, 1.34266, 1.3476, 1.32902, 1.32849, 1.32517, 
1.67328, 1.67027, 1.66594, 1.65906, 1.65531, 1.64526, 1.65055, 1.63231, 1.64529, 1.61152, 1.73333, 1.83191, 1.86766, 1.58778, 1.59833, 1.60021, 1.57928, 1.57717, 1.56262, 1.56178, 1.55803, 1.55267, 1.55068, 1.54514, 1.53744, 1.53022, 1.5251, 1.53037, 1.5411, 1.5099, 1.5045, 1.50042, 1.49255, 1.4995, 1.49828, 1.51948, 1.57942, 1.64618, 1.59975, 1.50627, 1.45961, 1.46107, 1.44718, 1.4472, 1.46781, 1.43403, 1.42782, 1.42364, 1.42339, 1.41604, 1.41305, 1.40942, 1.40343, 1.40369, 1.39684, 1.39099, 1.38836, 1.38451, 1.37967, 1.3797, 1.37443, 1.37237, 1.36821, 1.3746, 1.36067, 1.36242, 1.39431, 1.5011, 1.56076, 1.56801, 1.4864, 1.35425, 1.35036, 1.35778, 1.33251, 1.35382, 
1.67186, 1.66948, 1.66239, 1.65601, 1.65362, 1.64657, 1.63845, 1.63409, 1.64061, 1.62827, 1.70029, 1.80323, 1.87641, 1.58902, 1.60167, 1.59954, 1.57818, 1.58255, 1.58858, 1.56795, 1.56843, 1.55392, 1.54804, 1.54275, 1.53692, 1.53021, 1.52598, 1.52092, 1.53506, 1.50937, 1.50594, 1.50171, 1.49655, 1.49719, 1.50572, 1.53157, 1.58949, 1.58998, 1.58009, 1.52926, 1.46725, 1.46064, 1.44708, 1.44663, 1.45797, 1.44601, 1.4263, 1.42225, 1.42026, 1.41556, 1.41334, 1.41062, 1.40695, 1.40069, 1.39567, 1.3925, 1.38516, 1.38304, 1.38015, 1.37534, 1.37215, 1.37128, 1.36756, 1.35869, 1.3565, 1.3752, 1.36286, 1.46468, 1.52071, 1.54402, 1.45139, 1.35746, 1.34542, 1.33804, 1.33325, 1.32744, 
1.67641, 1.67321, 1.66385, 1.66089, 1.65474, 1.64383, 1.644, 1.64451, 1.64034, 1.63465, 1.68671, 1.86718, 1.91075, 1.58344, 1.60084, 1.59076, 1.58792, 1.58864, 1.58487, 1.5736, 1.56045, 1.55562, 1.55178, 1.54702, 1.54101, 1.53731, 1.5266, 1.52463, 1.54441, 1.53064, 1.52084, 1.5084, 1.50082, 1.50702, 1.49695, 1.54858, 1.65801, 1.61713, 1.58049, 1.47175, 1.46049, 1.4645, 1.46185, 1.44663, 1.46161, 1.45036, 1.42948, 1.42619, 1.42146, 1.41964, 1.41706, 1.41251, 1.40644, 1.40078, 1.39725, 1.39153, 1.38986, 1.38446, 1.37916, 1.37583, 1.37351, 1.37114, 1.36552, 1.362, 1.36191, 1.36498, 1.33774, 1.43018, 1.58144, 1.59983, 1.47083, 1.34826, 1.35694, 1.35842, 1.33306, 1.33044, 
1.67495, 1.66995, 1.66819, 1.65726, 1.64607, 1.64144, 1.63495, 1.6339, 1.63273, 1.63086, 1.66463, 1.75391, 1.86195, 1.58215, 1.60009, 1.58648, 1.58157, 1.57299, 1.56872, 1.564, 1.55534, 1.55131, 1.54529, 1.54484, 1.53519, 1.5324, 1.52714, 1.53283, 1.53744, 1.52782, 1.50843, 1.50786, 1.49949, 1.49733, 1.49677, 1.47828, 1.50896, 1.5804, 1.57157, 1.45075, 1.46116, 1.47429, 1.45313, 1.44649, 1.44218, 1.44691, 1.43431, 1.42268, 1.41957, 1.41761, 1.41641, 1.41157, 1.40799, 1.41336, 1.39667, 1.3946, 1.39093, 1.38906, 1.37824, 1.3729, 1.36522, 1.36415, 1.36219, 1.36244, 1.35844, 1.36279, 1.38069, 1.44803, 1.58878, 1.61887, 1.37188, 1.33947, 1.33486, 1.32622, 1.32728, 1.32312, 
1.6755, 1.67153, 1.66331, 1.65234, 1.6495, 1.64168, 1.63775, 1.63672, 1.63244, 1.63167, 1.67774, 1.86255, 1.9064, 1.57459, 1.60274, 1.59881, 1.57947, 1.57707, 1.56852, 1.56196, 1.55776, 1.55368, 1.54732, 1.5582, 1.53652, 1.52835, 1.52492, 1.51963, 1.53026, 1.54107, 1.51051, 1.5062, 1.49722, 1.49552, 1.46628, 1.52837, 1.57905, 1.60623, 1.55691, 1.51903, 1.47256, 1.46947, 1.44712, 1.44127, 1.43751, 1.45982, 1.43945, 1.42544, 1.42159, 1.4188, 1.41741, 1.41332, 1.41033, 1.40582, 1.40147, 1.39282, 1.38867, 1.38336, 1.3739, 1.3731, 1.3668, 1.36407, 1.36555, 1.36398, 1.3643, 1.37621, 1.37775, 1.44757, 1.50576, 1.56839, 1.52158, 1.35137, 1.34989, 1.3303, 1.32725, 1.32786, 
1.67272, 1.66592, 1.66863, 1.65699, 1.64706, 1.63887, 1.63369, 1.63317, 1.63067, 1.59632, 1.71984, 1.76537, 1.96895, 1.58993, 1.59544, 1.60348, 1.59448, 1.58009, 1.57119, 1.56528, 1.55418, 1.55059, 1.54354, 1.5402, 1.53068, 1.52605, 1.51769, 1.51426, 1.51148, 1.52081, 1.5073, 1.50209, 1.50593, 1.49507, 1.49195, 1.50648, 1.58356, 1.5682, 1.55979, 1.49942, 1.4618, 1.4648, 1.46596, 1.44156, 1.44703, 1.44383, 1.4472, 1.43064, 1.41724, 1.42086, 1.41173, 1.40837, 1.4051, 1.40321, 1.39927, 1.39676, 1.39201, 1.38804, 1.38079, 1.37556, 1.37084, 1.36791, 1.36551, 1.3661, 1.36401, 1.37928, 1.37797, 1.50233, 1.578, 1.59209, 1.48935, 1.3404, 1.34071, 1.33105, 1.32801, 1.32637, 
1.67421, 1.66913, 1.65958, 1.65538, 1.6474, 1.6391, 1.63459, 1.63331, 1.63165, 1.63078, 1.65116, 1.85549, 1.77243, 1.6197, 1.59562, 1.58548, 1.58104, 1.58254, 1.56823, 1.56143, 1.55731, 1.55354, 1.54678, 1.5426, 1.53568, 1.52818, 1.51952, 1.51552, 1.51234, 1.52879, 1.53301, 1.50583, 1.50787, 1.49764, 1.49236, 1.4911, 1.59686, 1.57539, 1.55898, 1.50338, 1.45934, 1.46044, 1.45012, 1.44339, 1.45176, 1.44755, 1.44498, 1.41951, 1.41705, 1.41313, 1.40895, 1.40599, 1.4025, 1.40014, 1.39957, 1.39428, 1.39112, 1.38774, 1.38338, 1.37964, 1.37564, 1.37421, 1.36956, 1.36398, 1.36087, 1.36222, 1.40213, 1.4346, 1.51066, 1.60143, 1.47658, 1.35941, 1.3408, 1.33067, 1.32686, 1.32361, 
1.68692, 1.66523, 1.66144, 1.65081, 1.64355, 1.64188, 1.63779, 1.63328, 1.6294, 1.61709, 1.69463, 1.77174, 1.93184, 1.58552, 1.60311, 1.58385, 1.58785, 1.56952, 1.56507, 1.56323, 1.55661, 1.5531, 1.54742, 1.54324, 1.53664, 1.53175, 1.52128, 1.5186, 1.51217, 1.51685, 1.54768, 1.50899, 1.50295, 1.49136, 1.47793, 1.52257, 1.57227, 1.58189, 1.5459, 1.49986, 1.45894, 1.47965, 1.45187, 1.45038, 1.44852, 1.4437, 1.42989, 1.43301, 1.4167, 1.41505, 1.41005, 1.40415, 1.39977, 1.39833, 1.3964, 1.39567, 1.38554, 1.38284, 1.379, 1.37771, 1.3757, 1.3736, 1.36962, 1.36577, 1.3681, 1.37215, 1.38125, 1.43736, 1.52791, 1.6155, 1.54572, 1.34842, 1.34708, 1.32685, 1.32433, 1.33065, 
1.67089, 1.66647, 1.6615, 1.65144, 1.64388, 1.64421, 1.63436, 1.63156, 1.62772, 1.62728, 1.67118, 1.75156, 1.94423, 1.57962, 1.5927, 1.58843, 1.57611, 1.56869, 1.56638, 1.5619, 1.55653, 1.54893, 1.53796, 1.54029, 1.53115, 1.52639, 1.52072, 1.51661, 1.52319, 1.50699, 1.5176, 1.52397, 1.50153, 1.49059, 1.49006, 1.49779, 1.57994, 1.55914, 1.53974, 1.52861, 1.46794, 1.45883, 1.45361, 1.44076, 1.47002, 1.46919, 1.43467, 1.42498, 1.42286, 1.41346, 1.40984, 1.40511, 1.40169, 1.398, 1.39683, 1.39122, 1.38608, 1.38177, 1.37606, 1.37383, 1.37364, 1.37101, 1.36849, 1.36072, 1.36037, 1.36349, 1.34482, 1.40006, 1.5922, 1.62774, 1.38843, 1.34649, 1.33376, 1.33054, 1.3268, 1.32287, 
1.67487, 1.67071, 1.67486, 1.6585, 1.65205, 1.64412, 1.64005, 1.63792, 1.63136, 1.62787, 1.66792, 1.79536, 1.91907, 1.59986, 1.60015, 1.59042, 1.58961, 1.57361, 1.57548, 1.56893, 1.55914, 1.55891, 1.54693, 1.53238, 1.52918, 1.52373, 1.51976, 1.51953, 1.51704, 1.51447, 1.51339, 1.52775, 1.50937, 1.50827, 1.46717, 1.48328, 1.55226, 1.5509, 1.53919, 1.52109, 1.44768, 1.44778, 1.49273, 1.48211, 1.48984, 1.45272, 1.44651, 1.42584, 1.42115, 1.42311, 1.4093, 1.40266, 1.40002, 1.39716, 1.39605, 1.38828, 1.38539, 1.38209, 1.38026, 1.37692, 1.37437, 1.36949, 1.36721, 1.36058, 1.37129, 1.3586, 1.36027, 1.47734, 1.5958, 1.61596, 1.51021, 1.34188, 1.3542, 1.33297, 1.35365, 1.32408, 
1.67215, 1.66625, 1.66411, 1.65591, 1.64866, 1.64723, 1.63718, 1.64284, 1.62214, 1.62644, 1.60284, 1.78266, 1.93116, 1.59375, 1.60636, 1.59556, 1.58301, 1.57584, 1.56573, 1.55887, 1.55059, 1.54451, 1.53862, 1.52711, 1.52157, 1.5176, 1.51581, 1.51541, 1.51147, 1.51561, 1.51263, 1.55192, 1.51494, 1.49538, 1.48831, 1.49603, 1.53716, 1.53345, 1.5465, 1.53422, 1.50655, 1.48814, 1.48939, 1.45947, 1.44536, 1.44982, 1.43056, 1.42394, 1.42059, 1.41308, 1.41092, 1.40483, 1.4002, 1.39631, 1.39151, 1.38609, 1.38439, 1.37918, 1.37614, 1.37442, 1.37146, 1.36597, 1.36162, 1.35808, 1.35432, 1.35354, 1.34965, 1.40556, 1.59291, 1.62462, 1.44283, 1.34363, 1.33065, 1.32706, 1.32438, 1.3225, 
1.6673, 1.6605, 1.65451, 1.65826, 1.64959, 1.65013, 1.63747, 1.63338, 1.62485, 1.6326, 1.69678, 1.76471, 1.86492, 1.58208, 1.60782, 1.59665, 1.59872, 1.59518, 1.58198, 1.57175, 1.56158, 1.54868, 1.54452, 1.57612, 1.52996, 1.52366, 1.52094, 1.51622, 1.51127, 1.50749, 1.51973, 1.53778, 1.5626, 1.53349, 1.48319, 1.46866, 1.55033, 1.54441, 1.49814, 1.52441, 1.46209, 1.46822, 1.45705, 1.4543, 1.44628, 1.43928, 1.42836, 1.43311, 1.42118, 1.41439, 1.40953, 1.40777, 1.40277, 1.39829, 1.39374, 1.39059, 1.38895, 1.38632, 1.38272, 1.38034, 1.37803, 1.36868, 1.36408, 1.35761, 1.35442, 1.35744, 1.35819, 1.46559, 1.59394, 1.63411, 1.43501, 1.35508, 1.33778, 1.3285, 1.32845, 1.32133, 
1.66603, 1.66041, 1.65641, 1.65544, 1.65009, 1.64505, 1.64337, 1.63109, 1.6266, 1.62949, 1.58632, 1.73042, 1.97422, 1.57774, 1.60292, 1.61438, 1.60666, 1.58888, 1.57723, 1.57187, 1.55616, 1.54767, 1.54129, 1.53471, 1.52973, 1.52226, 1.51924, 1.51491, 1.5108, 1.50549, 1.50616, 1.50906, 1.51265, 1.51615, 1.51793, 1.48568, 1.55428, 1.52489, 1.50439, 1.52752, 1.46195, 1.4691, 1.44836, 1.44047, 1.43729, 1.43457, 1.42294, 1.42273, 1.41747, 1.41319, 1.41037, 1.407, 1.40515, 1.40004, 1.3951, 1.39114, 1.38864, 1.38214, 1.38263, 1.37762, 1.37106, 1.36785, 1.36503, 1.36201, 1.35794, 1.36127, 1.37533, 1.41666, 1.53006, 1.65305, 1.39886, 1.31583, 1.35464, 1.34056, 1.32671, 1.32506, 
1.66824, 1.66442, 1.65492, 1.65203, 1.64904, 1.64417, 1.6349, 1.62828, 1.62383, 1.62274, 1.61967, 1.84226, 1.96985, 1.77696, 1.57846, 1.58617, 1.60041, 1.59276, 1.5882, 1.56079, 1.55202, 1.54794, 1.54035, 1.53389, 1.52996, 1.52274, 1.51627, 1.512, 1.50933, 1.50429, 1.49913, 1.4959, 1.4922, 1.49845, 1.50315, 1.49438, 1.57168, 1.53376, 1.51156, 1.54434, 1.46487, 1.46419, 1.45502, 1.46247, 1.44114, 1.43156, 1.42635, 1.42354, 1.41681, 1.41344, 1.4122, 1.40844, 1.4036, 1.3988, 1.39298, 1.38932, 1.38539, 1.38374, 1.38066, 1.3748, 1.37225, 1.3673, 1.36435, 1.35914, 1.35566, 1.35531, 1.36068, 1.45568, 1.54012, 1.65225, 1.48772, 1.35086, 1.33889, 1.32995, 1.3246, 1.32372, 
1.6653, 1.66218, 1.65292, 1.64724, 1.64379, 1.63669, 1.63242, 1.63732, 1.6197, 1.61802, 1.65782, 1.82568, 1.87969, 1.58818, 1.55587, 1.62705, 1.59606, 1.59606, 1.5835, 1.56578, 1.54728, 1.56105, 1.54591, 1.53473, 1.52851, 1.52449, 1.51356, 1.51262, 1.50653, 1.50315, 1.49676, 1.49173, 1.48854, 1.4911, 1.50225, 1.52832, 1.5437, 1.51979, 1.49374, 1.51022, 1.48489, 1.46611, 1.44852, 1.44183, 1.43423, 1.43016, 1.42373, 1.42112, 1.41898, 1.41504, 1.40929, 1.4052, 1.40291, 1.39697, 1.39409, 1.39095, 1.38402, 1.39913, 1.37822, 1.37772, 1.37067, 1.36543, 1.36433, 1.35901, 1.35674, 1.35409, 1.36102, 1.41319, 1.50437, 1.63783, 1.52085, 1.33786, 1.35483, 1.32753, 1.32378, 1.32273, 
1.66524, 1.65862, 1.64968, 1.64472, 1.64057, 1.63533, 1.62997, 1.62187, 1.61716, 1.61718, 1.62139, 1.65899, 1.84442, 1.56824, 1.55903, 1.74182, 1.8234, 1.61289, 1.59035, 1.57394, 1.5687, 1.55532, 1.53903, 1.53374, 1.52878, 1.52148, 1.51545, 1.51038, 1.50522, 1.5022, 1.49679, 1.4914, 1.48797, 1.48642, 1.49006, 1.51409, 1.53392, 1.51829, 1.50185, 1.50959, 1.46164, 1.46447, 1.44739, 1.43516, 1.42843, 1.42522, 1.42115, 1.41957, 1.42058, 1.41767, 1.40659, 1.40571, 1.39894, 1.39495, 1.39225, 1.38454, 1.38301, 1.37943, 1.37597, 1.36818, 1.36408, 1.36432, 1.36894, 1.35733, 1.35447, 1.35416, 1.35759, 1.32311, 1.5352, 1.66781, 1.49485, 1.34047, 1.33431, 1.32737, 1.32052, 1.31662, 
1.66017, 1.6555, 1.64483, 1.6429, 1.64088, 1.63153, 1.62525, 1.61781, 1.61409, 1.62046, 1.59968, 1.69559, 1.93865, 1.58609, 1.57332, 1.60023, 1.58927, 1.58861, 1.5947, 1.57499, 1.56775, 1.53945, 1.53375, 1.53027, 1.5263, 1.52122, 1.51284, 1.50867, 1.5024, 1.49787, 1.49273, 1.48899, 1.48497, 1.48268, 1.49277, 1.55521, 1.52317, 1.51929, 1.49937, 1.52264, 1.45114, 1.46273, 1.455, 1.43292, 1.42683, 1.42483, 1.4227, 1.41961, 1.41661, 1.41176, 1.40494, 1.40107, 1.39317, 1.39218, 1.38799, 1.3849, 1.37942, 1.37776, 1.37328, 1.37037, 1.36836, 1.36633, 1.36707, 1.35799, 1.37578, 1.35338, 1.35831, 1.39924, 1.46118, 1.72112, 1.46549, 1.33066, 1.34071, 1.32874, 1.32942, 1.31937, 
1.65224, 1.6453, 1.64088, 1.63585, 1.62981, 1.6267, 1.62438, 1.61755, 1.6104, 1.60592, 1.60199, 1.77973, 2.02937, 1.78677, 1.57551, 1.57933, 1.58223, 1.58867, 1.59338, 1.55582, 1.53815, 1.53175, 1.52956, 1.52508, 1.51877, 1.51752, 1.50932, 1.50448, 1.49863, 1.49031, 1.48691, 1.48209, 1.47654, 1.47607, 1.48122, 1.50262, 1.52705, 1.52081, 1.50186, 1.50718, 1.45874, 1.45819, 1.44315, 1.4293, 1.42454, 1.42276, 1.42343, 1.41337, 1.40972, 1.40469, 1.39761, 1.39356, 1.39009, 1.38845, 1.3885, 1.38745, 1.37933, 1.37359, 1.37162, 1.36472, 1.36492, 1.36343, 1.35879, 1.35786, 1.34926, 1.3469, 1.36067, 1.40546, 1.5709, 1.59969, 1.64328, 1.28765, 1.32999, 1.31752, 1.31711, 1.31461, 
1.65096, 1.64223, 1.64001, 1.63345, 1.6313, 1.63081, 1.62438, 1.61859, 1.60909, 1.61243, 1.59309, 1.70681, 1.79989, 1.59684, 1.57098, 1.57607, 1.57179, 1.5779, 1.56634, 1.5477, 1.54113, 1.53623, 1.53006, 1.52289, 1.51621, 1.51403, 1.50894, 1.50382, 1.49526, 1.48728, 1.48464, 1.47932, 1.47647, 1.47552, 1.47789, 1.50997, 1.52367, 1.52987, 1.48551, 1.49296, 1.4687, 1.4613, 1.44291, 1.43337, 1.42638, 1.4198, 1.41559, 1.41253, 1.40639, 1.40057, 1.39856, 1.39186, 1.38637, 1.38577, 1.38559, 1.38431, 1.37737, 1.37413, 1.36331, 1.36079, 1.35918, 1.35858, 1.35349, 1.35214, 1.34581, 1.34681, 1.34685, 1.3752, 1.51221, 1.66911, 1.37461, 1.31316, 1.32808, 1.31759, 1.31723, 1.31363, 
1.64809, 1.64114, 1.63784, 1.63119, 1.62989, 1.62693, 1.61905, 1.61437, 1.60929, 1.60639, 1.59008, 1.76497, 1.8009, 1.70367, 1.54071, 1.57649, 1.56798, 1.56882, 1.55728, 1.55051, 1.54154, 1.53672, 1.52802, 1.52049, 1.51484, 1.5108, 1.50588, 1.50057, 1.49619, 1.4904, 1.485, 1.47905, 1.47464, 1.47443, 1.47578, 1.51744, 1.52462, 1.49198, 1.47781, 1.49312, 1.449, 1.45965, 1.4481, 1.44492, 1.423, 1.4202, 1.41299, 1.41148, 1.40979, 1.4005, 1.39913, 1.39448, 1.38836, 1.38668, 1.38525, 1.37955, 1.37762, 1.37013, 1.36056, 1.35999, 1.35883, 1.35663, 1.35346, 1.34904, 1.34509, 1.33965, 1.34239, 1.33629, 1.46782, 1.67513, 1.52945, 1.28813, 1.32969, 1.32044, 1.31997, 1.31598, 
1.65308, 1.64666, 1.63498, 1.63409, 1.63197, 1.62883, 1.61983, 1.62129, 1.6077, 1.60656, 1.61344, 1.67404, 1.74041, 1.75763, 1.57537, 1.57652, 1.5814, 1.56587, 1.55505, 1.57272, 1.54375, 1.53987, 1.53136, 1.52363, 1.51858, 1.51338, 1.50662, 1.50267, 1.49882, 1.49179, 1.48767, 1.48213, 1.47861, 1.47818, 1.48475, 1.49029, 1.52612, 1.48144, 1.47614, 1.51319, 1.47884, 1.45714, 1.44645, 1.42976, 1.42439, 1.41727, 1.41624, 1.41028, 1.41081, 1.40233, 1.40271, 1.39506, 1.38863, 1.38611, 1.38039, 1.37496, 1.37349, 1.36466, 1.36325, 1.35909, 1.35863, 1.35669, 1.34814, 1.34546, 1.34208, 1.34176, 1.35086, 1.32091, 1.54219, 1.69673, 1.51885, 1.3304, 1.33745, 1.31603, 1.31584, 1.31356, 
1.64919, 1.6443, 1.63417, 1.62998, 1.62554, 1.62095, 1.61749, 1.60703, 1.60588, 1.5966, 1.59686, 1.67093, 2.07271, 1.59767, 1.5572, 1.58482, 1.56729, 1.55991, 1.56556, 1.54181, 1.53361, 1.53097, 1.52778, 1.52551, 1.5162, 1.51343, 1.50626, 1.49672, 1.49366, 1.48884, 1.48266, 1.48134, 1.47739, 1.47458, 1.48911, 1.48909, 1.50276, 1.49913, 1.47087, 1.47796, 1.44468, 1.45384, 1.44708, 1.42212, 1.42037, 1.418, 1.41477, 1.4091, 1.40259, 1.39861, 1.39481, 1.39203, 1.38799, 1.38196, 1.37434, 1.37463, 1.364, 1.35852, 1.35714, 1.35392, 1.35411, 1.36111, 1.34891, 1.34633, 1.34169, 1.35429, 1.34512, 1.30762, 1.51113, 1.64302, 1.52278, 1.31594, 1.31702, 1.32709, 1.31276, 1.30709, 
1.6418, 1.63458, 1.63032, 1.62634, 1.61825, 1.61297, 1.60725, 1.59993, 1.59658, 1.58745, 1.58903, 1.73441, 1.82296, 1.65476, 1.57052, 1.57255, 1.55344, 1.54785, 1.53554, 1.53381, 1.52456, 1.52199, 1.52035, 1.51762, 1.51019, 1.5049, 1.50057, 1.49207, 1.4874, 1.48005, 1.47566, 1.47254, 1.46919, 1.4718, 1.48584, 1.48076, 1.5133, 1.50339, 1.46871, 1.52395, 1.45756, 1.45841, 1.43001, 1.41408, 1.42625, 1.4093, 1.40995, 1.40293, 1.39521, 1.38845, 1.38557, 1.38196, 1.38091, 1.37382, 1.37168, 1.36287, 1.35549, 1.35379, 1.35343, 1.34757, 1.34997, 1.34817, 1.34315, 1.34179, 1.33384, 1.3333, 1.33351, 1.33861, 1.44693, 1.62103, 1.38539, 1.30451, 1.31284, 1.30507, 1.30555, 1.3009, 
1.64, 1.63616, 1.64255, 1.62742, 1.61816, 1.61108, 1.60736, 1.61634, 1.59442, 1.59523, 1.58902, 1.63504, 1.94582, 1.65522, 1.56703, 1.55953, 1.55392, 1.5467, 1.53567, 1.53042, 1.52347, 1.51909, 1.51662, 1.51357, 1.50864, 1.50276, 1.49779, 1.48944, 1.48466, 1.47994, 1.47613, 1.47063, 1.46683, 1.46178, 1.46642, 1.48545, 1.49258, 1.48993, 1.48237, 1.48646, 1.47596, 1.44699, 1.42547, 1.41317, 1.40942, 1.40798, 1.40974, 1.40067, 1.39671, 1.39014, 1.38518, 1.37934, 1.37733, 1.37459, 1.37374, 1.36159, 1.35689, 1.34994, 1.3494, 1.36194, 1.34703, 1.34662, 1.34572, 1.33466, 1.33096, 1.32795, 1.33938, 1.31934, 1.38263, 1.73314, 1.72174, 1.30648, 1.31565, 1.3031, 1.30186, 1.29811, 
1.63795, 1.63464, 1.62319, 1.61986, 1.61721, 1.62477, 1.60481, 1.61703, 1.59345, 1.59968, 1.59413, 1.6684, 1.7498, 1.7394, 1.56282, 1.5679, 1.5507, 1.5626, 1.53765, 1.53115, 1.52648, 1.51846, 1.5105, 1.50698, 1.50373, 1.49671, 1.49225, 1.48989, 1.48293, 1.47949, 1.48085, 1.46833, 1.46209, 1.46048, 1.47134, 1.46094, 1.49606, 1.48903, 1.4613, 1.49493, 1.459, 1.44069, 1.42623, 1.4302, 1.41088, 1.40709, 1.40204, 1.39778, 1.39606, 1.38696, 1.38872, 1.37677, 1.37134, 1.3678, 1.36661, 1.36244, 1.36082, 1.35768, 1.34806, 1.3474, 1.34583, 1.3418, 1.33953, 1.33816, 1.34283, 1.33112, 1.33757, 1.31715, 1.44755, 1.73033, 1.73577, 1.31324, 1.32339, 1.30662, 1.31225, 1.3109, 
1.64133, 1.63572, 1.63784, 1.62044, 1.6151, 1.60683, 1.60391, 1.59725, 1.5959, 1.6019, 1.60159, 1.64866, 1.9008, 1.82109, 1.56447, 1.55891, 1.5547, 1.54702, 1.54134, 1.53689, 1.52431, 1.51672, 1.5129, 1.51998, 1.51235, 1.49984, 1.49607, 1.48841, 1.48283, 1.47495, 1.47084, 1.46705, 1.46243, 1.46155, 1.47505, 1.46539, 1.48288, 1.50292, 1.47874, 1.46615, 1.46043, 1.43572, 1.42333, 1.40774, 1.40615, 1.40344, 1.39981, 1.40376, 1.39368, 1.38758, 1.37883, 1.37486, 1.3718, 1.36928, 1.36586, 1.3624, 1.36047, 1.3587, 1.35528, 1.35214, 1.34696, 1.34331, 1.33981, 1.33744, 1.33577, 1.3488, 1.35029, 1.31696, 1.4857, 1.58148, 1.39127, 1.32266, 1.32139, 1.30395, 1.30297, 1.30091, 
1.63423, 1.62674, 1.61932, 1.61992, 1.60907, 1.59918, 1.59624, 1.61404, 1.58618, 1.58964, 1.6001, 1.66826, 1.87254, 1.99565, 1.5265, 1.55082, 1.54258, 1.53363, 1.53686, 1.52541, 1.52578, 1.55117, 1.50685, 1.50504, 1.49525, 1.50384, 1.48475, 1.47851, 1.47515, 1.47121, 1.46844, 1.47136, 1.45722, 1.46142, 1.47501, 1.47493, 1.47143, 1.46529, 1.45575, 1.49286, 1.45207, 1.43142, 1.41687, 1.40404, 1.40576, 1.3991, 1.41573, 1.39653, 1.38544, 1.38218, 1.38063, 1.37496, 1.39934, 1.36935, 1.364, 1.35807, 1.35525, 1.35391, 1.3491, 1.34288, 1.3369, 1.337, 1.33593, 1.34073, 1.33714, 1.33789, 1.32631, 1.32934, 1.45596, 1.73038, 1.74552, 1.31571, 1.31227, 1.30037, 1.29892, 1.29466, 
1.61157, 1.6063, 1.59974, 1.59288, 1.59122, 1.58205, 1.5724, 1.56809, 1.56303, 1.57104, 1.56543, 1.64643, 1.73333, 1.64673, 1.4995, 1.52735, 1.52542, 1.52753, 1.50818, 1.50863, 1.50673, 1.49819, 1.49211, 1.48382, 1.47648, 1.47295, 1.46642, 1.46155, 1.46022, 1.45413, 1.45226, 1.4441, 1.43822, 1.43453, 1.44632, 1.44553, 1.47061, 1.45265, 1.44033, 1.45926, 1.4685, 1.4091, 1.40567, 1.38347, 1.38052, 1.39915, 1.38259, 1.38567, 1.38687, 1.36469, 1.35896, 1.3575, 1.35601, 1.34705, 1.33896, 1.33455, 1.32729, 1.32839, 1.33473, 1.33668, 1.31443, 1.31547, 1.31786, 1.31252, 1.31075, 1.31629, 1.31324, 1.32249, 1.4361, 1.55344, 1.46139, 1.27572, 1.29234, 1.28936, 1.28769, 1.2847, 
1.61592, 1.60357, 1.59936, 1.60626, 1.61362, 1.5971, 1.5851, 1.59209, 1.58246, 1.58711, 1.57608, 1.60901, 1.71673, 1.9335, 1.54463, 1.54364, 1.52417, 1.52251, 1.51911, 1.52446, 1.50736, 1.50435, 1.50267, 1.48851, 1.48477, 1.47916, 1.48162, 1.47409, 1.46852, 1.45737, 1.45571, 1.45114, 1.45717, 1.43702, 1.44489, 1.45714, 1.46486, 1.45185, 1.47085, 1.45752, 1.44763, 1.41579, 1.41814, 1.41118, 1.39585, 1.37977, 1.38161, 1.37928, 1.38191, 1.36895, 1.35872, 1.35785, 1.35573, 1.35645, 1.34393, 1.34854, 1.34015, 1.32717, 1.33039, 1.32392, 1.32497, 1.3163, 1.3251, 1.3177, 1.30872, 1.30277, 1.31602, 1.28434, 1.37481, 1.47225, 1.51705, 1.29148, 1.28804, 1.28595, 1.2692, 1.27825, 
1.62292, 1.61953, 1.61534, 1.61322, 1.60826, 1.60265, 1.59337, 1.5893, 1.59227, 1.57952, 1.58045, 1.62034, 1.82173, 1.75119, 1.55314, 1.55042, 1.54189, 1.53018, 1.52842, 1.52092, 1.51499, 1.50979, 1.50516, 1.49684, 1.49604, 1.49014, 1.48314, 1.48027, 1.47523, 1.46823, 1.45892, 1.46054, 1.4537, 1.45347, 1.45415, 1.47025, 1.4688, 1.4676, 1.47231, 1.46011, 1.45438, 1.42755, 1.41914, 1.41216, 1.40314, 1.40783, 1.40815, 1.38869, 1.40454, 1.3815, 1.37065, 1.36931, 1.3671, 1.36159, 1.36, 1.35496, 1.3515, 1.36818, 1.34258, 1.33683, 1.33488, 1.33074, 1.32885, 1.32785, 1.33356, 1.32861, 1.32584, 1.32365, 1.43441, 1.49578, 1.46919, 1.29765, 1.3068, 1.31305, 1.30634, 1.2892, 
1.6224, 1.61699, 1.61312, 1.60703, 1.60122, 1.59593, 1.58593, 1.58942, 1.57979, 1.57999, 1.57662, 1.56225, 1.84814, 2.16897, 1.53693, 1.55559, 1.52414, 1.52701, 1.52526, 1.51772, 1.51187, 1.4928, 1.50621, 1.49928, 1.492, 1.48893, 1.47896, 1.47297, 1.46617, 1.46566, 1.45487, 1.45175, 1.44985, 1.44833, 1.45913, 1.4676, 1.45704, 1.46419, 1.44348, 1.44424, 1.44646, 1.429, 1.43051, 1.40182, 1.40233, 1.39453, 1.38858, 1.40613, 1.37949, 1.37598, 1.36989, 1.36959, 1.36555, 1.36008, 1.3566, 1.35129, 1.34648, 1.34389, 1.33967, 1.3352, 1.33278, 1.32728, 1.32651, 1.34765, 1.32335, 1.33795, 1.31666, 1.31941, 1.43469, 1.62617, 1.53049, 1.39863, 1.30577, 1.30629, 1.2934, 1.30018, 
1.62091, 1.61485, 1.60928, 1.60877, 1.61005, 1.59521, 1.58805, 1.58629, 1.57998, 1.58205, 1.57208, 1.56994, 1.75143, 2.15572, 1.54526, 1.55563, 1.54062, 1.55442, 1.52041, 1.51321, 1.53837, 1.49818, 1.49933, 1.49529, 1.49178, 1.48457, 1.48117, 1.46861, 1.46407, 1.4634, 1.45843, 1.45296, 1.45136, 1.4475, 1.46133, 1.46519, 1.45979, 1.44694, 1.45574, 1.45918, 1.44184, 1.4447, 1.4103, 1.41924, 1.39541, 1.39165, 1.38493, 1.38012, 1.37828, 1.37616, 1.37318, 1.36798, 1.36524, 1.35936, 1.35609, 1.35244, 1.34988, 1.34539, 1.34621, 1.33624, 1.3314, 1.33688, 1.32858, 1.32414, 1.3256, 1.31584, 1.31342, 1.31258, 1.29484, 1.56268, 1.72414, 1.51322, 1.4664, 1.28829, 1.28791, 1.28642, 
1.61117, 1.60526, 1.59911, 1.59988, 1.5986, 1.59262, 1.58136, 1.58151, 1.57518, 1.59221, 1.57624, 1.55103, 1.70222, 1.76845, 1.51727, 1.5417, 1.52767, 1.5233, 1.53044, 1.51025, 1.50685, 1.49958, 1.49534, 1.48866, 1.48756, 1.48184, 1.47492, 1.46818, 1.46383, 1.4586, 1.45543, 1.46845, 1.44741, 1.4449, 1.45062, 1.46095, 1.45079, 1.4573, 1.46002, 1.44543, 1.4469, 1.42656, 1.41993, 1.39868, 1.39351, 1.39344, 1.38039, 1.37506, 1.37253, 1.36964, 1.36718, 1.36131, 1.36461, 1.3579, 1.35241, 1.34626, 1.34843, 1.34566, 1.33759, 1.3346, 1.32554, 1.32204, 1.3279, 1.32917, 1.31229, 1.31073, 1.31081, 1.30553, 1.45122, 1.55788, 1.51111, 1.48126, 1.44753, 1.28636, 1.28307, 1.281, 
1.60981, 1.59982, 1.59488, 1.58992, 1.5878, 1.57659, 1.57586, 1.57109, 1.57139, 1.58254, 1.57686, 1.548, 1.694, 1.72782, 1.52678, 1.52877, 1.51981, 1.51737, 1.51429, 1.50761, 1.50556, 1.49246, 1.49122, 1.48545, 1.47474, 1.47155, 1.4711, 1.46139, 1.45748, 1.45368, 1.45141, 1.4479, 1.45147, 1.44297, 1.45546, 1.4583, 1.45347, 1.45433, 1.44378, 1.43704, 1.42188, 1.40832, 1.40015, 1.38808, 1.37995, 1.37711, 1.37706, 1.37342, 1.36943, 1.36851, 1.37098, 1.36967, 1.35046, 1.34892, 1.34511, 1.34096, 1.3397, 1.33814, 1.32904, 1.32653, 1.31676, 1.31556, 1.31257, 1.3137, 1.30377, 1.29882, 1.29421, 1.31275, 1.26651, 1.63605, 1.61674, 1.4307, 1.32415, 1.27545, 1.29115, 1.26882, 
1.60432, 1.60007, 1.59684, 1.59385, 1.59228, 1.58151, 1.57428, 1.57789, 1.56403, 1.56021, 1.56158, 1.55397, 1.6348, 1.72028, 1.52259, 1.53517, 1.51535, 1.51337, 1.5123, 1.50763, 1.50327, 1.49743, 1.49058, 1.48239, 1.4742, 1.47157, 1.46457, 1.46091, 1.45797, 1.45436, 1.45372, 1.45328, 1.44, 1.43706, 1.4494, 1.45177, 1.44842, 1.45081, 1.43702, 1.42812, 1.44123, 1.40939, 1.411, 1.38881, 1.37787, 1.37336, 1.37475, 1.37004, 1.36563, 1.36497, 1.3617, 1.35511, 1.35123, 1.34296, 1.33549, 1.33775, 1.33661, 1.33628, 1.32942, 1.32501, 1.3248, 1.321, 1.31546, 1.31029, 1.30732, 1.30223, 1.29928, 1.29965, 1.32732, 1.55883, 1.51037, 1.34346, 1.27889, 1.27728, 1.27894, 1.27209, 
1.60737, 1.60217, 1.59766, 1.5906, 1.58676, 1.59226, 1.59011, 1.5717, 1.57911, 1.5613, 1.57251, 1.55541, 1.82196, 1.69348, 1.54946, 1.5378, 1.51976, 1.51803, 1.51204, 1.5075, 1.50109, 1.49752, 1.49319, 1.4899, 1.48299, 1.47345, 1.47115, 1.46561, 1.45773, 1.45628, 1.45524, 1.44537, 1.44179, 1.4402, 1.44784, 1.44483, 1.46554, 1.4552, 1.45126, 1.43098, 1.44214, 1.41452, 1.39297, 1.39609, 1.38031, 1.37861, 1.39194, 1.37366, 1.36968, 1.36956, 1.36482, 1.35799, 1.35717, 1.37192, 1.3415, 1.34005, 1.33694, 1.33617, 1.32781, 1.32789, 1.36136, 1.3199, 1.31881, 1.35183, 1.32169, 1.31881, 1.30608, 1.30625, 1.26647, 1.62025, 1.58277, 1.24754, 1.30286, 1.28845, 1.27888, 1.2742, 
1.60079, 1.59717, 1.59118, 1.58489, 1.58047, 1.57551, 1.56113, 1.55919, 1.55501, 1.55557, 1.55762, 1.54772, 1.7168, 1.70226, 1.50472, 1.52364, 1.51471, 1.51402, 1.5203, 1.50356, 1.51057, 1.47807, 1.47698, 1.47167, 1.46425, 1.45692, 1.45114, 1.45064, 1.44976, 1.43957, 1.44109, 1.43331, 1.42506, 1.43105, 1.44523, 1.45011, 1.44847, 1.45848, 1.44167, 1.42298, 1.42402, 1.40244, 1.41059, 1.38417, 1.3755, 1.36838, 1.36164, 1.35905, 1.35669, 1.3543, 1.35713, 1.35047, 1.3429, 1.3374, 1.33436, 1.32728, 1.32399, 1.31834, 1.32735, 1.31639, 1.31955, 1.3101, 1.30835, 1.30561, 1.31365, 1.30674, 1.29532, 1.29641, 1.31672, 1.71857, 1.47079, 1.3466, 1.28973, 1.27767, 1.26069, 1.26356, 
