1.62085, 1.61348, 1.60924, 1.60217, 1.60741, 1.61935, 1.66242, 1.68189, 1.66213, 1.56105, 1.55363, 1.56185, 1.57194, 1.52709, 1.52117, 1.51986, 1.51059, 1.49959, 1.49555, 1.49055, 1.48199, 1.47669, 1.47062, 1.46701, 1.46207, 1.45612, 1.53093, 1.73628, 1.46726, 1.43448, 1.42566, 1.41476, 1.41052, 1.39825, 1.39677, 1.39178, 1.38504, 1.37966, 1.37556, 1.36874, 1.36659, 1.36017, 1.35502, 1.35029, 1.34432, 1.34386, 1.33548, 1.3297, 1.33672, 1.33745, 1.33461, 1.34869, 1.36447, 1.33301, 1.30854, 1.2978, 1.29526, 1.28236, 1.28399, 1.28937, 
1.62726, 1.61709, 1.60936, 1.6122, 1.60494, 1.62058, 1.66801, 1.69565, 1.67655, 1.56476, 1.56129, 1.55479, 1.55234, 1.53151, 1.52659, 1.51491, 1.51043, 1.50598, 1.49897, 1.49146, 1.48574, 1.479, 1.48459, 1.46379, 1.47131, 1.46579, 1.64243, 1.71056, 1.40143, 1.43321, 1.4243, 1.41927, 1.4089, 1.39619, 1.39471, 1.39282, 1.38499, 1.3831, 1.37594, 1.3719, 1.36406, 1.36257, 1.35776, 1.35228, 1.34915, 1.3499, 1.34441, 1.33903, 1.33733, 1.33828, 1.36158, 1.38801, 1.38548, 1.35798, 1.30809, 1.2955, 1.2868, 1.28446, 1.28782, 1.2897, 
1.6407, 1.62313, 1.62397, 1.61106, 1.60348, 1.63188, 1.66329, 1.71235, 1.70208, 1.57315, 1.55751, 1.55116, 1.56523, 1.54404, 1.54501, 1.5216, 1.51623, 1.50949, 1.50182, 1.4982, 1.49861, 1.50368, 1.47143, 1.46887, 1.46458, 1.46108, 1.52987, 1.77813, 1.42458, 1.43516, 1.43634, 1.42246, 1.41249, 1.40362, 1.40235, 1.39947, 1.39259, 1.38734, 1.38207, 1.37682, 1.3745, 1.36362, 1.35931, 1.35679, 1.35496, 1.36511, 1.34997, 1.3409, 1.34362, 1.34412, 1.35704, 1.36718, 1.36767, 1.36564, 1.31473, 1.3068, 1.29495, 1.29695, 1.28983, 1.29177, 
1.68116, 1.63477, 1.61763, 1.6133, 1.61405, 1.63359, 1.68691, 1.72056, 1.63954, 1.5777, 1.56787, 1.55105, 1.56915, 1.54151, 1.53984, 1.52207, 1.52219, 1.51046, 1.50483, 1.49855, 1.49283, 1.48727, 1.47557, 1.47086, 1.47146, 1.47876, 1.59541, 1.72985, 1.43036, 1.44944, 1.44255, 1.42423, 1.41562, 1.40934, 1.40543, 1.39931, 1.39922, 1.39007, 1.3842, 1.38109, 1.37724, 1.36593, 1.36113, 1.35825, 1.35717, 1.35493, 1.35147, 1.34382, 1.34629, 1.34741, 1.36854, 1.37062, 1.37498, 1.3454, 1.31298, 1.30765, 1.30207, 1.29455, 1.29289, 1.28922, 
1.67008, 1.62651, 1.62699, 1.61665, 1.61903, 1.62055, 1.69633, 1.70313, 1.67705, 1.587, 1.56195, 1.56045, 1.55112, 1.54385, 1.53405, 1.52713, 1.51909, 1.50903, 1.50523, 1.50049, 1.49796, 1.48863, 1.48123, 1.47673, 1.47627, 1.45512, 1.53538, 1.72785, 1.4233, 1.45344, 1.44359, 1.43475, 1.42166, 1.41673, 1.4077, 1.40338, 1.39791, 1.39372, 1.39229, 1.3881, 1.37887, 1.36922, 1.36217, 1.35861, 1.35966, 1.36344, 1.35884, 1.35048, 1.34654, 1.3496, 1.36324, 1.36485, 1.43438, 1.35858, 1.32311, 1.31584, 1.30578, 1.30144, 1.29691, 1.29338, 
1.68669, 1.64176, 1.62528, 1.61992, 1.62725, 1.63412, 1.67818, 1.71028, 1.61389, 1.57246, 1.58942, 1.55819, 1.56388, 1.56975, 1.54763, 1.53049, 1.52288, 1.51705, 1.51021, 1.50279, 1.49782, 1.49319, 1.49482, 1.48267, 1.47931, 1.45585, 1.62195, 1.74976, 1.61766, 1.45733, 1.44769, 1.4379, 1.44325, 1.42329, 1.41746, 1.40973, 1.40176, 1.39704, 1.39506, 1.39168, 1.38366, 1.37421, 1.36376, 1.35708, 1.35963, 1.36035, 1.36143, 1.35444, 1.35093, 1.36476, 1.37104, 1.37293, 1.39102, 1.38969, 1.33852, 1.32848, 1.32313, 1.31059, 1.30808, 1.33023, 
1.67962, 1.67146, 1.6252, 1.62431, 1.62302, 1.64631, 1.67488, 1.72072, 1.722, 1.58926, 1.57243, 1.56183, 1.56095, 1.55842, 1.5349, 1.53482, 1.52608, 1.51992, 1.51327, 1.50625, 1.50137, 1.49713, 1.49104, 1.48398, 1.48007, 1.46479, 1.68998, 1.73795, 1.62133, 1.47206, 1.45755, 1.44392, 1.43054, 1.42291, 1.41602, 1.41056, 1.40577, 1.40196, 1.399, 1.39426, 1.38224, 1.37776, 1.36725, 1.36326, 1.3593, 1.35704, 1.35419, 1.35076, 1.34948, 1.36204, 1.37799, 1.3992, 1.39699, 1.39946, 1.3484, 1.32701, 1.31275, 1.30701, 1.3081, 1.30802, 
1.65429, 1.63405, 1.63176, 1.62192, 1.62646, 1.65455, 1.6796, 1.74093, 1.70222, 1.59916, 1.58298, 1.56256, 1.55785, 1.57347, 1.54549, 1.54126, 1.52908, 1.52555, 1.51509, 1.50884, 1.50433, 1.50239, 1.49512, 1.49177, 1.48625, 1.47425, 1.66266, 1.71125, 1.47212, 1.45449, 1.4523, 1.44049, 1.43469, 1.42411, 1.42602, 1.41669, 1.40954, 1.40385, 1.40109, 1.39898, 1.39017, 1.38449, 1.37197, 1.36647, 1.36124, 1.35801, 1.35547, 1.36221, 1.35239, 1.35807, 1.38958, 1.3888, 1.42225, 1.39529, 1.34034, 1.32492, 1.31748, 1.30872, 1.31015, 1.31036, 
1.65225, 1.65503, 1.64435, 1.62853, 1.62711, 1.59853, 1.67116, 1.74156, 1.73463, 1.59051, 1.58641, 1.5683, 1.56559, 1.5619, 1.54854, 1.55056, 1.53746, 1.52385, 1.52054, 1.5094, 1.50302, 1.50515, 1.49945, 1.48731, 1.48526, 1.45982, 1.65524, 1.73354, 1.48222, 1.45177, 1.47151, 1.43742, 1.43038, 1.42811, 1.42436, 1.41956, 1.41011, 1.40586, 1.40357, 1.40265, 1.39938, 1.38819, 1.37631, 1.37213, 1.36625, 1.36378, 1.36404, 1.35944, 1.35708, 1.37027, 1.35631, 1.38505, 1.4057, 1.40395, 1.33122, 1.3317, 1.32939, 1.31501, 1.30705, 1.30611, 
1.66045, 1.6662, 1.64808, 1.63292, 1.63399, 1.62547, 1.68084, 1.76631, 1.6495, 1.58965, 1.57791, 1.5696, 1.55512, 1.56163, 1.5528, 1.55413, 1.5345, 1.53001, 1.52126, 1.51175, 1.50733, 1.4989, 1.49598, 1.48672, 1.48498, 1.48032, 1.59658, 1.72125, 1.55774, 1.45436, 1.44548, 1.44, 1.43013, 1.42788, 1.42095, 1.41913, 1.4142, 1.40565, 1.40262, 1.40313, 1.40017, 1.39267, 1.38304, 1.37792, 1.36894, 1.36745, 1.36409, 1.35791, 1.3515, 1.35478, 1.35497, 1.39503, 1.41414, 1.39206, 1.33511, 1.32914, 1.32243, 1.32654, 1.30658, 1.30218, 
1.65242, 1.65804, 1.63808, 1.62729, 1.62166, 1.5961, 1.69968, 1.75138, 1.73098, 1.5886, 1.58404, 1.5658, 1.56292, 1.54851, 1.56487, 1.55251, 1.53485, 1.5338, 1.52278, 1.51165, 1.5065, 1.5033, 1.49889, 1.48779, 1.48489, 1.49254, 1.64942, 1.68317, 1.62068, 1.4383, 1.44824, 1.43935, 1.4312, 1.42592, 1.42284, 1.4199, 1.40969, 1.406, 1.4016, 1.40053, 1.39771, 1.39327, 1.39231, 1.3787, 1.37349, 1.37299, 1.37065, 1.35859, 1.35205, 1.35452, 1.39522, 1.41029, 1.48868, 1.41608, 1.35731, 1.32907, 1.32036, 1.31441, 1.31212, 1.30517, 
1.67562, 1.6584, 1.64905, 1.63515, 1.63373, 1.65111, 1.70734, 1.78136, 1.67544, 1.57454, 1.59513, 1.57528, 1.56549, 1.55088, 1.56664, 1.54386, 1.53977, 1.53581, 1.52501, 1.51636, 1.51286, 1.50655, 1.49907, 1.4916, 1.48717, 1.48602, 1.657, 1.68919, 1.60752, 1.43728, 1.45216, 1.44051, 1.43348, 1.42772, 1.42321, 1.42247, 1.41395, 1.40947, 1.40177, 1.39833, 1.39538, 1.39404, 1.3898, 1.38291, 1.37596, 1.37506, 1.37354, 1.36778, 1.3591, 1.35804, 1.37264, 1.40299, 1.41945, 1.38327, 1.34166, 1.3476, 1.34069, 1.31851, 1.31238, 1.31926, 
1.66198, 1.66788, 1.66247, 1.64398, 1.62517, 1.64346, 1.69721, 1.73846, 1.74342, 1.58998, 1.58998, 1.57468, 1.56813, 1.55301, 1.55429, 1.54489, 1.53841, 1.53672, 1.52759, 1.51963, 1.51638, 1.50835, 1.5027, 1.49854, 1.48855, 1.48089, 1.64798, 1.68062, 1.6206, 1.44973, 1.45822, 1.43938, 1.43613, 1.4264, 1.42378, 1.42076, 1.41381, 1.40861, 1.4029, 1.39967, 1.39792, 1.39309, 1.38853, 1.38176, 1.37493, 1.37377, 1.37139, 1.36857, 1.37844, 1.37916, 1.39136, 1.40503, 1.44418, 1.43788, 1.36187, 1.33974, 1.32341, 1.31611, 1.31286, 1.30947, 
1.65963, 1.65452, 1.66792, 1.64293, 1.63723, 1.64553, 1.73748, 1.7229, 1.7268, 1.58542, 1.58563, 1.58231, 1.57454, 1.56517, 1.56766, 1.54646, 1.54136, 1.53327, 1.53278, 1.52133, 1.51355, 1.50919, 1.5024, 1.49386, 1.49357, 1.49179, 1.53754, 1.70425, 1.52101, 1.4566, 1.4543, 1.43987, 1.43656, 1.43247, 1.42668, 1.42207, 1.4262, 1.41109, 1.40423, 1.40099, 1.40033, 1.39824, 1.38775, 1.38486, 1.37805, 1.37379, 1.37271, 1.36884, 1.36955, 1.36526, 1.3696, 1.41446, 1.45344, 1.45198, 1.36026, 1.34676, 1.32372, 1.31361, 1.31611, 1.309, 
1.65463, 1.65161, 1.6625, 1.64771, 1.64548, 1.62392, 1.74353, 1.76473, 1.75953, 1.59801, 1.60374, 1.58551, 1.57781, 1.56471, 1.57925, 1.55781, 1.54469, 1.53685, 1.53124, 1.52728, 1.52057, 1.51215, 1.50519, 1.50116, 1.49531, 1.47461, 1.52073, 1.7106, 1.67088, 1.47447, 1.455, 1.44544, 1.43984, 1.43728, 1.43174, 1.42792, 1.42393, 1.41732, 1.42016, 1.40932, 1.40493, 1.39839, 1.39439, 1.38685, 1.38843, 1.37896, 1.3766, 1.38241, 1.36791, 1.37073, 1.36862, 1.42815, 1.4512, 1.45469, 1.36268, 1.35163, 1.3288, 1.32071, 1.31403, 1.31583, 
1.66235, 1.65262, 1.66218, 1.65792, 1.67349, 1.62864, 1.74245, 1.79328, 1.78727, 1.61107, 1.60064, 1.60807, 1.57916, 1.58926, 1.56649, 1.57389, 1.5584, 1.53865, 1.5332, 1.52551, 1.51985, 1.51091, 1.51325, 1.50159, 1.50274, 1.49542, 1.56333, 1.68809, 1.62915, 1.4517, 1.46797, 1.4621, 1.45057, 1.43687, 1.43099, 1.43007, 1.42729, 1.4214, 1.41534, 1.41291, 1.40743, 1.39982, 1.39606, 1.38824, 1.38227, 1.37747, 1.3748, 1.37306, 1.36824, 1.36873, 1.36822, 1.4371, 1.44019, 1.42659, 1.36629, 1.3416, 1.33134, 1.3268, 1.31994, 1.32348, 
1.6677, 1.6577, 1.65556, 1.66082, 1.6486, 1.6537, 1.66472, 1.77421, 1.78845, 1.62491, 1.60309, 1.58523, 1.58111, 1.57522, 1.56884, 1.59958, 1.54955, 1.54161, 1.53321, 1.52558, 1.5204, 1.52026, 1.50978, 1.5034, 1.49864, 1.5034, 1.65556, 1.71275, 1.57493, 1.47519, 1.47929, 1.4615, 1.44645, 1.43935, 1.43623, 1.42938, 1.42567, 1.42252, 1.41693, 1.4118, 1.40964, 1.39862, 1.38979, 1.38548, 1.38278, 1.37479, 1.37379, 1.37252, 1.36769, 1.36976, 1.35897, 1.45544, 1.46899, 1.467, 1.319, 1.34786, 1.32845, 1.32796, 1.31957, 1.33728, 
1.67172, 1.66541, 1.6611, 1.67176, 1.65833, 1.64201, 1.75826, 1.77629, 1.76601, 1.60967, 1.6091, 1.58967, 1.58088, 1.57858, 1.57266, 1.57312, 1.55381, 1.568, 1.53646, 1.53062, 1.52734, 1.51717, 1.50909, 1.50576, 1.49966, 1.49854, 1.56452, 1.67494, 1.60968, 1.47134, 1.47663, 1.46564, 1.45149, 1.44264, 1.43741, 1.4319, 1.4302, 1.42527, 1.42045, 1.41758, 1.41285, 1.40055, 1.39249, 1.3875, 1.37949, 1.37515, 1.37403, 1.3687, 1.36889, 1.39286, 1.34723, 1.46551, 1.46347, 1.46134, 1.34912, 1.34782, 1.34356, 1.3289, 1.32267, 1.32655, 
1.67447, 1.68234, 1.66298, 1.67287, 1.65509, 1.63271, 1.7252, 1.76181, 1.73837, 1.62177, 1.60856, 1.59216, 1.58194, 1.57353, 1.57943, 1.59259, 1.56136, 1.54711, 1.53852, 1.53105, 1.52642, 1.51911, 1.51412, 1.50853, 1.50762, 1.50561, 1.52754, 1.69078, 1.63902, 1.44027, 1.47605, 1.47384, 1.45752, 1.44997, 1.44005, 1.43493, 1.43623, 1.42665, 1.42317, 1.41889, 1.41324, 1.40729, 1.40235, 1.38945, 1.38535, 1.37973, 1.37252, 1.37164, 1.37087, 1.37373, 1.38182, 1.45357, 1.46416, 1.4508, 1.34113, 1.34743, 1.33743, 1.32838, 1.34104, 1.32862, 
1.67244, 1.66603, 1.67869, 1.67891, 1.66556, 1.64331, 1.68189, 1.80386, 1.79723, 1.60695, 1.6057, 1.58874, 1.58244, 1.57707, 1.57134, 1.59421, 1.57486, 1.54784, 1.5421, 1.54001, 1.52962, 1.52465, 1.5283, 1.50891, 1.51174, 1.50721, 1.56525, 1.68924, 1.61691, 1.47392, 1.47524, 1.4793, 1.46768, 1.45415, 1.44468, 1.44329, 1.43505, 1.42937, 1.42325, 1.41962, 1.41213, 1.40812, 1.40176, 1.39353, 1.38751, 1.38428, 1.37913, 1.37621, 1.37798, 1.38274, 1.37546, 1.45402, 1.4748, 1.46861, 1.34854, 1.34081, 1.3339, 1.34726, 1.34079, 1.33454, 
1.6719, 1.66856, 1.65935, 1.68336, 1.65368, 1.63923, 1.66507, 1.83201, 1.8284, 1.61774, 1.62057, 1.5951, 1.58919, 1.58254, 1.5724, 1.58116, 1.55897, 1.57297, 1.54504, 1.54077, 1.54112, 1.52361, 1.51946, 1.52292, 1.51107, 1.48146, 1.57835, 1.66696, 1.55877, 1.45794, 1.47583, 1.47257, 1.46251, 1.45687, 1.44842, 1.44534, 1.43964, 1.43254, 1.43063, 1.41977, 1.41524, 1.4099, 1.40307, 1.39823, 1.38974, 1.3873, 1.37997, 1.37897, 1.37958, 1.38352, 1.38211, 1.4684, 1.47261, 1.43708, 1.34509, 1.34014, 1.33793, 1.33963, 1.33266, 1.33299, 
1.67233, 1.66492, 1.66167, 1.67411, 1.66518, 1.65686, 1.73402, 1.82771, 1.7985, 1.6298, 1.60764, 1.5972, 1.58942, 1.58297, 1.58862, 1.57262, 1.58475, 1.55012, 1.54664, 1.54138, 1.53505, 1.52651, 1.51847, 1.51533, 1.52594, 1.51664, 1.61392, 1.67269, 1.57956, 1.51268, 1.48983, 1.47118, 1.47171, 1.45644, 1.44967, 1.44558, 1.4405, 1.43473, 1.42784, 1.42254, 1.41901, 1.41582, 1.40599, 1.39675, 1.39358, 1.38885, 1.39938, 1.38233, 1.38133, 1.38196, 1.41533, 1.47895, 1.47994, 1.48077, 1.34786, 1.34799, 1.33971, 1.33786, 1.33518, 1.33265, 
1.67798, 1.66198, 1.65868, 1.68893, 1.67987, 1.63574, 1.70108, 1.80965, 1.7702, 1.59254, 1.60419, 1.59693, 1.58547, 1.58116, 1.57494, 1.56627, 1.57837, 1.55294, 1.54657, 1.54021, 1.53737, 1.5271, 1.51928, 1.5076, 1.51644, 1.51885, 1.50548, 1.69277, 1.67651, 1.43863, 1.48632, 1.46602, 1.45624, 1.45106, 1.44606, 1.44158, 1.43392, 1.4335, 1.42694, 1.42253, 1.41739, 1.4142, 1.40927, 1.40172, 1.40142, 1.38895, 1.38593, 1.38351, 1.38046, 1.39153, 1.36539, 1.48768, 1.48676, 1.47818, 1.4086, 1.35273, 1.34359, 1.34018, 1.33522, 1.33108, 
1.67238, 1.66458, 1.65622, 1.65153, 1.66697, 1.62052, 1.68225, 1.80684, 1.73553, 1.58898, 1.62213, 1.59394, 1.59459, 1.58223, 1.5796, 1.57173, 1.55996, 1.55068, 1.54599, 1.53854, 1.53076, 1.53494, 1.51808, 1.50653, 1.52106, 1.50346, 1.61797, 1.70243, 1.69751, 1.45533, 1.47825, 1.47424, 1.4633, 1.44511, 1.44162, 1.43752, 1.43176, 1.42924, 1.42668, 1.42262, 1.4202, 1.41655, 1.41931, 1.40977, 1.39558, 1.39255, 1.38632, 1.38272, 1.38771, 1.37819, 1.40696, 1.4735, 1.49127, 1.48193, 1.375, 1.35463, 1.36895, 1.34761, 1.33736, 1.32989, 
1.68235, 1.67433, 1.66766, 1.65279, 1.6756, 1.60747, 1.69175, 1.8221, 1.8104, 1.61152, 1.60687, 1.60516, 1.58585, 1.57413, 1.56969, 1.56051, 1.57337, 1.5537, 1.5432, 1.54416, 1.53326, 1.52142, 1.50642, 1.50513, 1.50062, 1.49973, 1.60316, 1.68251, 1.63009, 1.46159, 1.47961, 1.45896, 1.45414, 1.44422, 1.44297, 1.43793, 1.42985, 1.42953, 1.42747, 1.42144, 1.41635, 1.41359, 1.40914, 1.40558, 1.3935, 1.38865, 1.38469, 1.38858, 1.38852, 1.3825, 1.35602, 1.47121, 1.51895, 1.52193, 1.3518, 1.36166, 1.34429, 1.34301, 1.33717, 1.32921, 
1.68208, 1.67423, 1.65991, 1.67167, 1.66148, 1.65114, 1.64794, 1.82535, 1.83592, 1.58931, 1.59359, 1.61874, 1.59836, 1.58013, 1.57474, 1.56501, 1.56462, 1.57493, 1.55502, 1.54068, 1.53892, 1.5162, 1.50995, 1.50688, 1.50832, 1.52574, 1.6206, 1.69664, 1.67642, 1.46771, 1.4768, 1.45919, 1.45209, 1.45065, 1.44353, 1.4377, 1.43193, 1.43093, 1.43131, 1.42262, 1.41954, 1.4122, 1.40878, 1.41899, 1.3935, 1.38807, 1.38756, 1.3822, 1.3779, 1.3816, 1.39508, 1.46853, 1.51854, 1.50405, 1.35764, 1.35984, 1.34331, 1.34002, 1.33362, 1.3322, 
1.68695, 1.68267, 1.67531, 1.66817, 1.66827, 1.62511, 1.63492, 1.84013, 1.87902, 1.5955, 1.6177, 1.61082, 1.59558, 1.5893, 1.58809, 1.57953, 1.56317, 1.56964, 1.56196, 1.54593, 1.54636, 1.52979, 1.52458, 1.51675, 1.52335, 1.53813, 1.60935, 1.65196, 1.63522, 1.46915, 1.48417, 1.48851, 1.46958, 1.45801, 1.45189, 1.44205, 1.43682, 1.43996, 1.44429, 1.42731, 1.42782, 1.42056, 1.41223, 1.40594, 1.40774, 1.3961, 1.39668, 1.38531, 1.38559, 1.38204, 1.36438, 1.47465, 1.51843, 1.52164, 1.35682, 1.36083, 1.35356, 1.3496, 1.34764, 1.34379, 
1.68993, 1.68074, 1.67905, 1.66976, 1.67615, 1.66061, 1.67961, 1.81779, 1.84196, 1.62019, 1.60948, 1.60695, 1.59685, 1.5875, 1.58898, 1.59237, 1.57437, 1.5899, 1.56335, 1.54026, 1.53943, 1.5331, 1.52688, 1.52405, 1.52763, 1.52773, 1.60923, 1.67033, 1.66888, 1.44937, 1.48858, 1.49154, 1.47846, 1.46539, 1.46097, 1.45414, 1.44091, 1.44434, 1.46364, 1.43175, 1.42652, 1.4231, 1.41658, 1.40938, 1.40604, 1.3999, 1.41606, 1.39052, 1.39287, 1.39657, 1.38672, 1.48392, 1.53354, 1.51681, 1.46863, 1.35809, 1.35682, 1.35344, 1.34096, 1.33414, 
1.67092, 1.66924, 1.6618, 1.67203, 1.66892, 1.6573, 1.66599, 1.85558, 1.85577, 1.58895, 1.61351, 1.60193, 1.57096, 1.58172, 1.5788, 1.5581, 1.57642, 1.58215, 1.57343, 1.54031, 1.54063, 1.52608, 1.51358, 1.51774, 1.50924, 1.51083, 1.51408, 1.64259, 1.62787, 1.48741, 1.47314, 1.48924, 1.47052, 1.46356, 1.45267, 1.44769, 1.42737, 1.44005, 1.4308, 1.40909, 1.41562, 1.41261, 1.40542, 1.39215, 1.38897, 1.39029, 1.39166, 1.37197, 1.37221, 1.38909, 1.38855, 1.48482, 1.51624, 1.49972, 1.32827, 1.35796, 1.34748, 1.35152, 1.32673, 1.31708, 
1.67127, 1.67191, 1.67223, 1.67752, 1.64918, 1.6387, 1.68603, 1.75653, 1.88617, 1.63034, 1.62366, 1.62127, 1.58876, 1.59163, 1.61981, 1.55979, 1.55675, 1.55829, 1.56496, 1.54747, 1.5424, 1.54327, 1.52151, 1.52571, 1.51268, 1.51987, 1.48464, 1.62928, 1.65491, 1.45441, 1.47544, 1.47493, 1.47128, 1.4754, 1.44866, 1.43824, 1.4342, 1.44467, 1.42594, 1.41539, 1.40599, 1.4054, 1.39863, 1.39135, 1.39021, 1.39608, 1.40099, 1.37952, 1.37226, 1.38365, 1.39884, 1.44048, 1.484, 1.52737, 1.35321, 1.36251, 1.35828, 1.34077, 1.33027, 1.32848, 
1.70011, 1.684, 1.69079, 1.67052, 1.66023, 1.6425, 1.69544, 1.89627, 1.90292, 1.60842, 1.62727, 1.63137, 1.60857, 1.59283, 1.59225, 1.57915, 1.57635, 1.58342, 1.57832, 1.5616, 1.56165, 1.55123, 1.5348, 1.53252, 1.52694, 1.5276, 1.51098, 1.67571, 1.67548, 1.46225, 1.48678, 1.50601, 1.48661, 1.48279, 1.45793, 1.44854, 1.44824, 1.44831, 1.43685, 1.43531, 1.4278, 1.42139, 1.41881, 1.41226, 1.40863, 1.40756, 1.40341, 1.39546, 1.39122, 1.38836, 1.37546, 1.47088, 1.52044, 1.55291, 1.47472, 1.37186, 1.36829, 1.36403, 1.34454, 1.34053, 
1.68151, 1.67316, 1.66899, 1.66858, 1.65997, 1.6404, 1.73729, 1.83499, 1.88817, 1.62399, 1.6143, 1.61309, 1.59678, 1.59639, 1.57951, 1.57616, 1.56591, 1.56012, 1.57543, 1.55992, 1.53692, 1.53071, 1.52552, 1.51989, 1.51742, 1.51278, 1.53987, 1.65834, 1.64201, 1.44712, 1.484, 1.49265, 1.46651, 1.46102, 1.44289, 1.44163, 1.44005, 1.43519, 1.43235, 1.42749, 1.42509, 1.43109, 1.4165, 1.40071, 1.39524, 1.39145, 1.38926, 1.38692, 1.39564, 1.38584, 1.40258, 1.45826, 1.51659, 1.51876, 1.36492, 1.36067, 1.34976, 1.33787, 1.3367, 1.33441, 
1.67768, 1.6703, 1.6654, 1.65297, 1.64584, 1.64732, 1.66207, 1.83135, 1.84918, 1.59867, 1.62261, 1.61757, 1.58307, 1.57168, 1.56485, 1.56692, 1.55671, 1.55846, 1.56188, 1.54852, 1.54298, 1.53764, 1.5268, 1.53615, 1.51366, 1.51303, 1.54548, 1.63473, 1.6375, 1.45504, 1.47166, 1.48047, 1.46907, 1.45413, 1.43886, 1.44028, 1.44199, 1.43147, 1.42662, 1.42094, 1.41696, 1.40368, 1.39737, 1.39672, 1.38597, 1.38587, 1.38178, 1.38469, 1.37398, 1.37825, 1.37862, 1.45717, 1.51261, 1.52713, 1.34704, 1.36034, 1.36044, 1.33473, 1.33086, 1.32973, 
1.67216, 1.66532, 1.65826, 1.65205, 1.66147, 1.64819, 1.64893, 1.79937, 1.84447, 1.57904, 1.60612, 1.59666, 1.58433, 1.57568, 1.56714, 1.56121, 1.55661, 1.55583, 1.56424, 1.54073, 1.52942, 1.5243, 1.54098, 1.50665, 1.50016, 1.51312, 1.48825, 1.64063, 1.65545, 1.46725, 1.48202, 1.47793, 1.4823, 1.44798, 1.43936, 1.43843, 1.43933, 1.43209, 1.42606, 1.4208, 1.42246, 1.41287, 1.39981, 1.39182, 1.38849, 1.38341, 1.38287, 1.39718, 1.38498, 1.38081, 1.37936, 1.45899, 1.44495, 1.55952, 1.39476, 1.36909, 1.34389, 1.33283, 1.33102, 1.32828, 
1.68189, 1.67377, 1.65868, 1.66106, 1.64924, 1.65402, 1.67894, 1.79937, 1.89833, 1.60679, 1.61626, 1.59503, 1.59288, 1.588, 1.57546, 1.56244, 1.56189, 1.55124, 1.55729, 1.54862, 1.53462, 1.53184, 1.51958, 1.50921, 1.51648, 1.5131, 1.48031, 1.65123, 1.6435, 1.52272, 1.49594, 1.48014, 1.46858, 1.4553, 1.44492, 1.44499, 1.43425, 1.4306, 1.42562, 1.4234, 1.41672, 1.40901, 1.40224, 1.39603, 1.39631, 1.38587, 1.38463, 1.37638, 1.38522, 1.39003, 1.36819, 1.43061, 1.51326, 1.54289, 1.38961, 1.36041, 1.34744, 1.36386, 1.33125, 1.32912, 
1.67328, 1.66419, 1.65432, 1.6416, 1.63281, 1.63567, 1.70281, 1.74, 1.87983, 1.54761, 1.59743, 1.59255, 1.59249, 1.56928, 1.56532, 1.55632, 1.54795, 1.55652, 1.53431, 1.56136, 1.53997, 1.52918, 1.50569, 1.50218, 1.49785, 1.5141, 1.47031, 1.62132, 1.62816, 1.55819, 1.46543, 1.46057, 1.48856, 1.45514, 1.43463, 1.42968, 1.4238, 1.41385, 1.41055, 1.40559, 1.39863, 1.39399, 1.39063, 1.38354, 1.38005, 1.37443, 1.36946, 1.3648, 1.35889, 1.35768, 1.35697, 1.42089, 1.51296, 1.51958, 1.32098, 1.34767, 1.34124, 1.32378, 1.31458, 1.31365, 
1.66497, 1.6632, 1.65095, 1.66402, 1.63061, 1.62532, 1.61392, 1.72828, 1.86508, 1.68864, 1.60668, 1.60033, 1.57646, 1.56661, 1.56351, 1.56039, 1.54552, 1.53607, 1.52363, 1.54998, 1.5303, 1.50916, 1.50697, 1.50077, 1.49825, 1.50327, 1.46747, 1.64771, 1.63956, 1.55699, 1.46288, 1.45972, 1.4689, 1.43837, 1.43043, 1.42737, 1.41646, 1.41126, 1.40748, 1.40461, 1.39261, 1.39344, 1.38989, 1.38485, 1.37806, 1.37467, 1.37037, 1.36151, 1.35805, 1.35282, 1.36502, 1.48568, 1.49402, 1.54677, 1.33568, 1.33679, 1.3238, 1.31993, 1.31591, 1.31341, 
1.66568, 1.65396, 1.64619, 1.63713, 1.6281, 1.62974, 1.70348, 1.73752, 1.88659, 1.63109, 1.59611, 1.58518, 1.57798, 1.56683, 1.56198, 1.55856, 1.54992, 1.5394, 1.53027, 1.53024, 1.53, 1.51597, 1.51187, 1.50706, 1.49878, 1.50568, 1.51578, 1.60154, 1.61646, 1.46762, 1.4729, 1.47174, 1.47745, 1.4704, 1.44059, 1.42947, 1.42146, 1.41331, 1.41157, 1.40542, 1.40187, 1.39625, 1.3958, 1.38954, 1.37956, 1.37252, 1.3699, 1.36588, 1.36047, 1.35753, 1.37968, 1.45888, 1.52298, 1.52172, 1.37059, 1.34002, 1.32339, 1.31998, 1.3166, 1.31492, 
1.65945, 1.6502, 1.64265, 1.63543, 1.63416, 1.63403, 1.5955, 1.84, 1.90117, 1.57184, 1.60713, 1.59716, 1.57487, 1.56591, 1.55396, 1.55546, 1.54944, 1.54325, 1.53419, 1.53357, 1.53638, 1.53106, 1.51117, 1.5081, 1.50024, 1.49938, 1.47087, 1.59664, 1.59656, 1.60973, 1.46809, 1.46167, 1.45545, 1.45151, 1.4446, 1.43116, 1.4265, 1.41949, 1.41524, 1.41187, 1.40873, 1.40483, 1.39742, 1.3928, 1.38639, 1.37871, 1.37604, 1.37074, 1.37457, 1.37561, 1.38479, 1.44348, 1.5328, 1.53845, 1.46877, 1.34275, 1.32796, 1.32293, 1.32204, 1.31511, 
1.65934, 1.6541, 1.6366, 1.63286, 1.63362, 1.63272, 1.60662, 1.86496, 1.88383, 1.58286, 1.59721, 1.58136, 1.58211, 1.56272, 1.55797, 1.55684, 1.54776, 1.53987, 1.5323, 1.53369, 1.53509, 1.51356, 1.51771, 1.49966, 1.49582, 1.50025, 1.47921, 1.60054, 1.61179, 1.55705, 1.47435, 1.46158, 1.4446, 1.47082, 1.43307, 1.4375, 1.42591, 1.42188, 1.41164, 1.40939, 1.40661, 1.40355, 1.39812, 1.38863, 1.38318, 1.37566, 1.37236, 1.38249, 1.37652, 1.36911, 1.36099, 1.47407, 1.52466, 1.55837, 1.46797, 1.34174, 1.33929, 1.32308, 1.32285, 1.3168, 
1.66524, 1.65993, 1.65441, 1.64088, 1.63451, 1.63446, 1.59475, 1.86605, 1.88212, 1.7378, 1.60721, 1.58302, 1.57467, 1.56784, 1.56094, 1.55739, 1.5492, 1.54073, 1.53638, 1.52908, 1.54368, 1.51637, 1.5216, 1.50715, 1.4933, 1.50132, 1.46052, 1.54987, 1.61029, 1.55787, 1.45872, 1.4543, 1.4469, 1.45885, 1.43202, 1.43697, 1.4244, 1.41917, 1.41231, 1.40812, 1.40241, 1.4013, 1.39163, 1.38632, 1.37926, 1.37361, 1.3711, 1.36778, 1.36504, 1.36404, 1.3762, 1.46765, 1.53335, 1.5472, 1.42963, 1.34085, 1.32715, 1.32685, 1.32241, 1.32317, 
1.67221, 1.66321, 1.66068, 1.64806, 1.64376, 1.63241, 1.62307, 1.71274, 1.86657, 1.6308, 1.59989, 1.5971, 1.57571, 1.57136, 1.56475, 1.55921, 1.55405, 1.5442, 1.53352, 1.52847, 1.53482, 1.51249, 1.50723, 1.49953, 1.49353, 1.50424, 1.46476, 1.5655, 1.60569, 1.57522, 1.46332, 1.46198, 1.46778, 1.45986, 1.45006, 1.43323, 1.4248, 1.42037, 1.41391, 1.40835, 1.40383, 1.39605, 1.39209, 1.38527, 1.38108, 1.37595, 1.37282, 1.38174, 1.36699, 1.36385, 1.37625, 1.44169, 1.46793, 1.56881, 1.49663, 1.35142, 1.34283, 1.33044, 1.33503, 1.32034, 
1.67502, 1.65916, 1.65656, 1.64422, 1.63506, 1.64342, 1.60306, 1.73817, 1.85698, 1.56919, 1.59568, 1.5858, 1.58625, 1.56494, 1.56197, 1.55658, 1.55053, 1.53805, 1.53408, 1.52699, 1.53515, 1.52685, 1.50398, 1.50152, 1.49391, 1.49369, 1.46259, 1.60306, 1.60264, 1.51614, 1.46479, 1.46237, 1.45753, 1.4556, 1.44076, 1.42657, 1.42243, 1.41584, 1.41229, 1.4091, 1.40484, 1.39583, 1.39323, 1.38426, 1.3796, 1.37756, 1.3716, 1.36966, 1.36129, 1.35735, 1.36439, 1.43424, 1.51592, 1.56535, 1.47823, 1.34439, 1.33672, 1.33218, 1.32565, 1.32054, 
1.66512, 1.66051, 1.65445, 1.64229, 1.63704, 1.64131, 1.60626, 1.72483, 1.97715, 1.57285, 1.6026, 1.59752, 1.57527, 1.5724, 1.56383, 1.55745, 1.55036, 1.54767, 1.53583, 1.52968, 1.53144, 1.53755, 1.50912, 1.50364, 1.4989, 1.51058, 1.46728, 1.59303, 1.59918, 1.53672, 1.47516, 1.46056, 1.44697, 1.45004, 1.44667, 1.43357, 1.42155, 1.41846, 1.41311, 1.40888, 1.4059, 1.39834, 1.39491, 1.38455, 1.37982, 1.37569, 1.3712, 1.36818, 1.36512, 1.35708, 1.36677, 1.33794, 1.54809, 1.52334, 1.33629, 1.34745, 1.34515, 1.33168, 1.32715, 1.32166, 
1.66486, 1.65534, 1.64761, 1.64178, 1.63688, 1.64716, 1.60726, 1.79152, 1.90641, 1.57691, 1.6, 1.58946, 1.5958, 1.58951, 1.57805, 1.55842, 1.5515, 1.5454, 1.5366, 1.52718, 1.53747, 1.54395, 1.51713, 1.52691, 1.49992, 1.50143, 1.46944, 1.58579, 1.60669, 1.5351, 1.47211, 1.47207, 1.44907, 1.44684, 1.45762, 1.42988, 1.42486, 1.42103, 1.41663, 1.41235, 1.40479, 1.39876, 1.39145, 1.38747, 1.38184, 1.37661, 1.379, 1.36746, 1.37739, 1.36354, 1.36794, 1.43034, 1.47197, 1.59768, 1.49254, 1.35335, 1.34823, 1.33071, 1.3293, 1.32285, 
1.66773, 1.65399, 1.65122, 1.64232, 1.63386, 1.63846, 1.61482, 1.80748, 1.91749, 1.57748, 1.59425, 1.5919, 1.57642, 1.56957, 1.55963, 1.55405, 1.55384, 1.54948, 1.53688, 1.52851, 1.53049, 1.52067, 1.51018, 1.50657, 1.49627, 1.51089, 1.48244, 1.54081, 1.59031, 1.55072, 1.47552, 1.4739, 1.44694, 1.44469, 1.44234, 1.44018, 1.42294, 1.4185, 1.41678, 1.41047, 1.4058, 1.40226, 1.39458, 1.38912, 1.38215, 1.37552, 1.36835, 1.36631, 1.36167, 1.36851, 1.37604, 1.42141, 1.51713, 1.59573, 1.33856, 1.34393, 1.3266, 1.32743, 1.32286, 1.31997, 
1.66531, 1.65877, 1.64749, 1.64374, 1.65155, 1.63185, 1.6046, 1.75187, 2.06178, 1.57547, 1.60198, 1.58557, 1.57841, 1.56866, 1.55988, 1.55526, 1.54952, 1.54635, 1.53501, 1.52544, 1.52115, 1.53771, 1.51302, 1.50939, 1.50077, 1.50715, 1.48376, 1.56602, 1.57181, 1.51322, 1.45948, 1.46504, 1.44779, 1.44515, 1.45531, 1.42939, 1.42168, 1.42009, 1.41674, 1.41022, 1.40765, 1.40182, 1.39521, 1.38911, 1.37676, 1.37038, 1.36496, 1.36561, 1.36582, 1.36385, 1.36634, 1.37677, 1.51598, 1.57307, 1.4998, 1.33887, 1.3288, 1.33708, 1.32556, 1.32016, 
1.66585, 1.65269, 1.64851, 1.64017, 1.64077, 1.63803, 1.64157, 1.81101, 1.85098, 1.57856, 1.59846, 1.58163, 1.57618, 1.56982, 1.56223, 1.55421, 1.54731, 1.54401, 1.5329, 1.5273, 1.51999, 1.52699, 1.52384, 1.50482, 1.49662, 1.50765, 1.46553, 1.5852, 1.58703, 1.56104, 1.46407, 1.47214, 1.44429, 1.43937, 1.46735, 1.42426, 1.42188, 1.41815, 1.41651, 1.41017, 1.40807, 1.40231, 1.39575, 1.39169, 1.38601, 1.37496, 1.36694, 1.36502, 1.37256, 1.36517, 1.37261, 1.43013, 1.55682, 1.61744, 1.41061, 1.34653, 1.35752, 1.32969, 1.32672, 1.32254, 
1.66507, 1.65834, 1.64735, 1.64011, 1.63462, 1.63403, 1.63689, 1.79965, 1.96414, 1.5809, 1.59279, 1.58616, 1.57798, 1.56969, 1.56163, 1.55269, 1.5453, 1.54003, 1.52808, 1.51994, 1.51736, 1.51677, 1.53558, 1.50302, 1.4974, 1.49555, 1.48937, 1.58256, 1.55986, 1.56827, 1.4691, 1.46802, 1.44498, 1.44767, 1.43436, 1.43434, 1.42028, 1.41823, 1.41405, 1.4129, 1.4042, 1.40035, 1.39565, 1.39312, 1.38807, 1.37839, 1.37146, 1.36599, 1.36503, 1.36143, 1.36264, 1.37555, 1.52275, 1.5827, 1.54253, 1.35096, 1.33034, 1.32842, 1.32403, 1.32246, 
1.6655, 1.65753, 1.6466, 1.63566, 1.63415, 1.63113, 1.63367, 1.71451, 2.00157, 1.55915, 1.60366, 1.58995, 1.57586, 1.57043, 1.56009, 1.55683, 1.5464, 1.5376, 1.534, 1.52342, 1.51479, 1.51066, 1.52673, 1.50422, 1.4978, 1.50247, 1.49043, 1.57852, 1.57286, 1.53712, 1.4542, 1.46165, 1.44434, 1.44134, 1.43581, 1.42014, 1.41732, 1.41438, 1.41078, 1.408, 1.40266, 1.39965, 1.39531, 1.38931, 1.38695, 1.38089, 1.3751, 1.37022, 1.3643, 1.36381, 1.36814, 1.40699, 1.50238, 1.6023, 1.47735, 1.34269, 1.35743, 1.32821, 1.32127, 1.31645, 
1.66431, 1.65605, 1.64502, 1.63757, 1.63473, 1.63097, 1.61309, 1.73836, 1.96496, 1.57637, 1.5969, 1.58569, 1.57485, 1.5695, 1.56518, 1.55516, 1.54769, 1.54342, 1.53179, 1.52514, 1.51745, 1.51942, 1.54351, 1.50498, 1.50005, 1.50208, 1.52424, 1.54179, 1.55164, 1.52738, 1.4751, 1.46038, 1.4489, 1.45073, 1.45449, 1.44406, 1.41621, 1.41558, 1.41243, 1.40505, 1.39935, 1.39575, 1.39226, 1.38863, 1.38334, 1.38099, 1.3778, 1.37401, 1.36796, 1.36233, 1.37747, 1.32916, 1.53491, 1.58766, 1.31394, 1.34359, 1.34355, 1.33015, 1.32262, 1.31806, 
1.66061, 1.64919, 1.6432, 1.63878, 1.63522, 1.63057, 1.6261, 1.70835, 1.93842, 1.79285, 1.58905, 1.58873, 1.56945, 1.56615, 1.56042, 1.55181, 1.54653, 1.54106, 1.536, 1.5266, 1.5168, 1.51136, 1.53155, 1.53685, 1.49888, 1.49243, 1.46876, 1.58555, 1.54138, 1.54775, 1.45031, 1.46582, 1.45199, 1.44407, 1.45882, 1.43934, 1.42077, 1.41632, 1.41261, 1.40382, 1.40005, 1.39783, 1.39144, 1.38781, 1.38213, 1.37798, 1.37544, 1.36902, 1.36808, 1.35989, 1.35822, 1.34133, 1.45303, 1.63719, 1.56743, 1.35365, 1.32919, 1.32631, 1.3221, 1.31663, 
1.66429, 1.65456, 1.64432, 1.64033, 1.63444, 1.63162, 1.62659, 1.71944, 1.90141, 1.69478, 1.59829, 1.5855, 1.57431, 1.58284, 1.5612, 1.55075, 1.53884, 1.53318, 1.53171, 1.52191, 1.51715, 1.51255, 1.50913, 1.52613, 1.5117, 1.49319, 1.49814, 1.56896, 1.56831, 1.53894, 1.4508, 1.47514, 1.45488, 1.46135, 1.45138, 1.4277, 1.42708, 1.41559, 1.409, 1.40649, 1.4023, 1.39654, 1.39482, 1.38364, 1.37937, 1.37548, 1.37377, 1.37065, 1.36778, 1.35905, 1.37125, 1.37814, 1.50412, 1.6245, 1.51822, 1.35199, 1.33649, 1.32948, 1.32353, 1.31839, 
1.66602, 1.65725, 1.64999, 1.66213, 1.63748, 1.62769, 1.63036, 1.72235, 1.90184, 1.57545, 1.59683, 1.59182, 1.57576, 1.569, 1.56352, 1.5539, 1.53855, 1.53232, 1.52916, 1.52192, 1.52105, 1.51642, 1.51666, 1.53464, 1.50445, 1.50079, 1.46867, 1.56428, 1.56415, 1.54798, 1.43935, 1.45738, 1.47324, 1.48247, 1.48184, 1.43746, 1.42429, 1.43646, 1.4096, 1.40301, 1.39873, 1.39589, 1.38978, 1.38483, 1.38146, 1.37757, 1.37526, 1.36948, 1.36476, 1.35943, 1.38181, 1.36049, 1.47966, 1.61476, 1.55416, 1.34101, 1.33529, 1.32923, 1.32701, 1.31949, 
1.66579, 1.65967, 1.65083, 1.64155, 1.63364, 1.62659, 1.63492, 1.6989, 1.85063, 1.56915, 1.59617, 1.5931, 1.57874, 1.56827, 1.55785, 1.55217, 1.54419, 1.52855, 1.52363, 1.51944, 1.51671, 1.51313, 1.51612, 1.55493, 1.5279, 1.49125, 1.48983, 1.5606, 1.54451, 1.54133, 1.48784, 1.49194, 1.50675, 1.47457, 1.45771, 1.4468, 1.4244, 1.44457, 1.41298, 1.40521, 1.3994, 1.39184, 1.3859, 1.38092, 1.37971, 1.37432, 1.37109, 1.36852, 1.35916, 1.35551, 1.35463, 1.34457, 1.54147, 1.63286, 1.45323, 1.3399, 1.33036, 1.32629, 1.31983, 1.31528, 
1.66473, 1.65976, 1.64851, 1.64267, 1.63101, 1.62453, 1.6238, 1.74181, 1.86488, 1.58088, 1.59311, 1.59611, 1.57554, 1.57022, 1.55587, 1.551, 1.54216, 1.53375, 1.52427, 1.52008, 1.51636, 1.51298, 1.5077, 1.53986, 1.54025, 1.50906, 1.48638, 1.55811, 1.53984, 1.53623, 1.47256, 1.49344, 1.45355, 1.46055, 1.44373, 1.44821, 1.42307, 1.41923, 1.41179, 1.40774, 1.39966, 1.39561, 1.39209, 1.38674, 1.38301, 1.37849, 1.37195, 1.36569, 1.36231, 1.35502, 1.35365, 1.39491, 1.47959, 1.63603, 1.59139, 1.33752, 1.3435, 1.32672, 1.32129, 1.31681, 
1.65699, 1.66099, 1.65157, 1.64745, 1.63508, 1.62865, 1.63102, 1.72521, 1.87644, 1.56492, 1.61262, 1.59977, 1.59516, 1.59251, 1.5656, 1.55505, 1.55072, 1.54024, 1.52734, 1.52346, 1.51865, 1.52369, 1.51191, 1.51325, 1.56123, 1.5179, 1.4699, 1.54937, 1.51935, 1.53035, 1.46561, 1.48263, 1.46011, 1.4442, 1.44024, 1.43087, 1.4242, 1.41567, 1.41265, 1.40544, 1.40206, 1.39629, 1.39143, 1.395, 1.38625, 1.37911, 1.37584, 1.37032, 1.36404, 1.35725, 1.37089, 1.35579, 1.5438, 1.6303, 1.56923, 1.34718, 1.3334, 1.32796, 1.32429, 1.32089, 
1.65735, 1.65138, 1.65129, 1.64774, 1.64374, 1.62641, 1.62092, 1.67702, 1.98568, 1.57005, 1.60411, 1.59711, 1.59817, 1.57506, 1.56463, 1.55895, 1.54354, 1.53403, 1.52312, 1.52178, 1.51618, 1.5123, 1.50705, 1.5026, 1.51851, 1.51745, 1.49542, 1.55408, 1.52333, 1.52964, 1.46477, 1.46991, 1.44869, 1.44067, 1.43241, 1.42422, 1.42333, 1.4158, 1.41141, 1.40819, 1.407, 1.39691, 1.39049, 1.38627, 1.38251, 1.38046, 1.37446, 1.36835, 1.36765, 1.35625, 1.35848, 1.35934, 1.53529, 1.60881, 1.41448, 1.34809, 1.33498, 1.32583, 1.32301, 1.32092, 
1.6583, 1.65442, 1.64967, 1.6451, 1.63382, 1.62803, 1.62252, 1.71169, 1.99945, 1.57733, 1.5861, 1.60301, 1.60275, 1.56525, 1.55827, 1.55378, 1.54241, 1.53402, 1.52931, 1.51848, 1.51354, 1.51001, 1.50554, 1.49712, 1.49508, 1.48266, 1.48878, 1.54531, 1.5268, 1.55524, 1.48897, 1.47175, 1.45348, 1.44905, 1.43529, 1.42803, 1.4235, 1.4162, 1.41235, 1.40681, 1.40255, 1.39517, 1.39152, 1.38462, 1.38073, 1.37723, 1.37175, 1.36721, 1.36172, 1.35817, 1.36232, 1.34007, 1.47945, 1.65286, 1.48759, 1.36201, 1.32952, 1.32456, 1.32436, 1.32201, 
1.66253, 1.65295, 1.64712, 1.64102, 1.63382, 1.62269, 1.63056, 1.63858, 1.82298, 1.561, 1.57185, 1.58473, 1.59446, 1.58093, 1.55943, 1.54814, 1.54255, 1.53545, 1.52842, 1.52248, 1.51532, 1.50598, 1.50313, 1.49502, 1.48998, 1.49522, 1.4996, 1.55684, 1.52911, 1.53735, 1.46181, 1.47525, 1.44928, 1.46243, 1.43697, 1.4278, 1.42379, 1.42394, 1.41577, 1.40941, 1.40172, 1.39807, 1.39326, 1.38838, 1.381, 1.37658, 1.37065, 1.36864, 1.36138, 1.3578, 1.35702, 1.3431, 1.54776, 1.64093, 1.5958, 1.34323, 1.33792, 1.32643, 1.32355, 1.34338, 
1.65528, 1.64887, 1.64302, 1.63668, 1.63314, 1.62339, 1.61901, 1.58571, 1.85021, 1.58738, 1.55253, 1.58281, 1.61569, 1.58973, 1.55402, 1.54861, 1.54056, 1.53531, 1.52797, 1.52236, 1.51337, 1.50726, 1.49816, 1.49206, 1.48755, 1.48932, 1.4913, 1.54383, 1.52529, 1.5103, 1.49062, 1.4777, 1.45128, 1.43821, 1.43221, 1.42404, 1.42108, 1.4198, 1.41232, 1.40464, 1.39958, 1.39466, 1.39108, 1.38437, 1.37777, 1.3742, 1.36542, 1.36331, 1.35981, 1.35414, 1.35457, 1.36707, 1.47377, 1.68952, 1.36939, 1.34535, 1.33387, 1.32321, 1.31836, 1.31486, 
1.65564, 1.64623, 1.64332, 1.63711, 1.62789, 1.61762, 1.61814, 1.62934, 1.83856, 1.55008, 1.55827, 1.80284, 1.61329, 1.58973, 1.5748, 1.55735, 1.54028, 1.53439, 1.52572, 1.51964, 1.51263, 1.5086, 1.50076, 1.49562, 1.48904, 1.48705, 1.49322, 1.53873, 1.49374, 1.5061, 1.45042, 1.47164, 1.44202, 1.43277, 1.42857, 1.42173, 1.42237, 1.41883, 1.41266, 1.40327, 1.39896, 1.39275, 1.38738, 1.38152, 1.37758, 1.37313, 1.36531, 1.37015, 1.3624, 1.35731, 1.35523, 1.37932, 1.54121, 1.67928, 1.56966, 1.34166, 1.33521, 1.32861, 1.31976, 1.31582, 
1.65168, 1.64756, 1.64018, 1.63448, 1.63352, 1.61916, 1.61821, 1.59461, 1.98345, 1.78173, 1.56953, 1.68259, 1.60948, 1.57937, 1.55722, 1.54447, 1.53711, 1.53163, 1.52529, 1.5188, 1.51087, 1.50511, 1.49814, 1.49094, 1.50627, 1.49292, 1.49341, 1.54573, 1.47967, 1.49379, 1.49293, 1.45646, 1.43502, 1.43097, 1.42604, 1.42323, 1.42608, 1.41363, 1.406, 1.39892, 1.39457, 1.38899, 1.38835, 1.38091, 1.37696, 1.37192, 1.36839, 1.36657, 1.36116, 1.36443, 1.3705, 1.36989, 1.45764, 1.66455, 1.59541, 1.34899, 1.33038, 1.32387, 1.33258, 1.31413, 
1.64751, 1.63835, 1.63163, 1.62694, 1.61816, 1.61377, 1.60972, 1.59334, 1.90704, 1.58881, 1.58205, 1.58733, 1.59285, 1.57048, 1.56129, 1.54133, 1.53413, 1.53322, 1.51912, 1.5137, 1.51217, 1.49681, 1.4909, 1.48556, 1.47949, 1.47829, 1.49656, 1.52616, 1.55012, 1.49848, 1.49295, 1.45222, 1.44667, 1.43171, 1.42335, 1.41945, 1.41581, 1.40926, 1.40311, 1.39409, 1.3894, 1.38857, 1.38912, 1.37839, 1.37627, 1.3663, 1.36478, 1.36351, 1.35797, 1.35385, 1.34762, 1.35526, 1.4324, 1.60941, 1.34293, 1.33459, 1.32367, 1.31562, 1.31425, 1.30952, 
1.64352, 1.63731, 1.6317, 1.62656, 1.62041, 1.61201, 1.60809, 1.62082, 1.84794, 1.59738, 1.57692, 1.57882, 1.58411, 1.56228, 1.54742, 1.53782, 1.53228, 1.52415, 1.5192, 1.51203, 1.50933, 1.49845, 1.49025, 1.48363, 1.47839, 1.47612, 1.48, 1.53443, 1.48098, 1.48249, 1.49942, 1.45761, 1.44028, 1.43071, 1.42413, 1.4184, 1.41352, 1.4056, 1.39565, 1.39046, 1.38863, 1.38826, 1.38673, 1.38392, 1.36962, 1.3641, 1.36219, 1.37793, 1.35538, 1.35033, 1.34582, 1.36425, 1.49909, 1.69746, 1.44487, 1.33, 1.32532, 1.31807, 1.3156, 1.30881, 
1.64044, 1.63429, 1.63218, 1.62655, 1.62088, 1.61031, 1.6088, 1.6633, 1.80158, 1.58889, 1.5728, 1.58042, 1.57278, 1.56216, 1.55167, 1.53953, 1.52802, 1.52691, 1.51739, 1.51027, 1.50224, 1.49647, 1.48532, 1.48257, 1.47766, 1.4811, 1.49022, 1.52036, 1.51011, 1.50265, 1.49077, 1.45502, 1.45451, 1.43392, 1.42257, 1.41748, 1.41167, 1.40914, 1.39659, 1.39209, 1.38846, 1.38686, 1.38548, 1.37905, 1.37108, 1.36604, 1.36034, 1.35517, 1.35392, 1.34708, 1.34259, 1.3515, 1.42546, 1.54868, 1.49518, 1.33662, 1.32177, 1.31654, 1.31208, 1.31623, 
1.64117, 1.63466, 1.63122, 1.62337, 1.61949, 1.61269, 1.60914, 1.61294, 1.80613, 1.75073, 1.57903, 1.56876, 1.56452, 1.5554, 1.55707, 1.54391, 1.53468, 1.51771, 1.51454, 1.51105, 1.50334, 1.49645, 1.48932, 1.48258, 1.47634, 1.47499, 1.51796, 1.51912, 1.5072, 1.51209, 1.50275, 1.46208, 1.43747, 1.42722, 1.42497, 1.41619, 1.41213, 1.40428, 1.40048, 1.392, 1.38777, 1.38518, 1.38154, 1.37596, 1.36628, 1.36174, 1.35887, 1.35625, 1.36504, 1.34773, 1.34478, 1.34385, 1.4607, 1.53037, 1.43202, 1.32543, 1.31802, 1.31735, 1.31275, 1.31059, 
1.63645, 1.63454, 1.63154, 1.62949, 1.62699, 1.61334, 1.60676, 1.6597, 1.90091, 1.75105, 1.58445, 1.57472, 1.57123, 1.56499, 1.55052, 1.54116, 1.53578, 1.52418, 1.51742, 1.50972, 1.50533, 1.49626, 1.48753, 1.48454, 1.47916, 1.47829, 1.49003, 1.5137, 1.51914, 1.4877, 1.4989, 1.46171, 1.43642, 1.42701, 1.42059, 1.41539, 1.41162, 1.40501, 1.40268, 1.39304, 1.39497, 1.38461, 1.38057, 1.37082, 1.36445, 1.36034, 1.36042, 1.35242, 1.34649, 1.34517, 1.34309, 1.36034, 1.50391, 1.61815, 1.52017, 1.32376, 1.31793, 1.31758, 1.31546, 1.31029, 
1.63925, 1.63484, 1.62911, 1.62611, 1.61887, 1.6237, 1.60681, 1.57648, 1.7576, 1.7748, 1.57961, 1.58305, 1.57161, 1.5748, 1.54437, 1.53946, 1.53324, 1.52754, 1.519, 1.51299, 1.50217, 1.52378, 1.48887, 1.48638, 1.48089, 1.47924, 1.48921, 1.51479, 1.4687, 1.50915, 1.48797, 1.44882, 1.42815, 1.42561, 1.42072, 1.42203, 1.41137, 1.40404, 1.39927, 1.39569, 1.38701, 1.38013, 1.37462, 1.36531, 1.36023, 1.35776, 1.35731, 1.39317, 1.35192, 1.3444, 1.34694, 1.34332, 1.44493, 1.67979, 1.68381, 1.33102, 1.31607, 1.31451, 1.3144, 1.30709, 
1.63853, 1.63108, 1.62585, 1.62262, 1.621, 1.6041, 1.59739, 1.60598, 1.8803, 2.10072, 1.59277, 1.58202, 1.56343, 1.56774, 1.54872, 1.53206, 1.52888, 1.52047, 1.51081, 1.50605, 1.49748, 1.49525, 1.48723, 1.47961, 1.47716, 1.47692, 1.4918, 1.53392, 1.49932, 1.4832, 1.49543, 1.43699, 1.43046, 1.41953, 1.41616, 1.41248, 1.40961, 1.39781, 1.39509, 1.38896, 1.3839, 1.37787, 1.36816, 1.36069, 1.35695, 1.35257, 1.35275, 1.35159, 1.34739, 1.34019, 1.33725, 1.33739, 1.32466, 1.59254, 1.70838, 1.32946, 1.30986, 1.3121, 1.30789, 1.29908, 
1.63249, 1.62478, 1.62128, 1.61192, 1.60646, 1.60206, 1.58927, 1.58954, 1.80619, 1.86261, 1.58364, 1.5602, 1.55307, 1.53761, 1.53109, 1.52364, 1.52281, 1.51747, 1.51061, 1.50402, 1.49384, 1.48676, 1.4786, 1.47264, 1.46849, 1.47507, 1.47226, 1.50399, 1.4877, 1.51426, 1.47249, 1.45398, 1.42798, 1.4143, 1.41663, 1.40732, 1.40534, 1.38984, 1.38784, 1.38471, 1.37751, 1.37408, 1.36533, 1.35721, 1.35451, 1.34794, 1.35077, 1.34683, 1.34525, 1.33689, 1.33341, 1.33565, 1.46432, 1.7157, 1.53002, 1.28454, 1.30579, 1.30733, 1.2991, 1.29583, 
1.63369, 1.62988, 1.61789, 1.60998, 1.6046, 1.60311, 1.59636, 1.59908, 1.88342, 1.94279, 1.57829, 1.56187, 1.54892, 1.54132, 1.5501, 1.52133, 1.51808, 1.51381, 1.50896, 1.49992, 1.49313, 1.4854, 1.47671, 1.47421, 1.46509, 1.4674, 1.46803, 1.47896, 1.49219, 1.49144, 1.47908, 1.45327, 1.41635, 1.41182, 1.40949, 1.40539, 1.40141, 1.39277, 1.38728, 1.38145, 1.37783, 1.37398, 1.36816, 1.35808, 1.35018, 1.34729, 1.34888, 1.34828, 1.33962, 1.33394, 1.3297, 1.33499, 1.43238, 1.73665, 1.71725, 1.3153, 1.33111, 1.30526, 1.31415, 1.29492, 
1.6319, 1.62689, 1.61932, 1.61101, 1.60351, 1.60019, 1.59401, 1.59413, 1.64364, 1.59587, 1.56798, 1.56199, 1.54824, 1.54456, 1.55772, 1.52466, 1.51667, 1.50965, 1.50345, 1.4966, 1.48838, 1.48713, 1.47677, 1.47177, 1.46755, 1.47991, 1.46797, 1.49623, 1.49056, 1.48666, 1.46868, 1.44777, 1.42992, 1.41154, 1.40979, 1.40273, 1.39573, 1.39031, 1.38607, 1.3796, 1.3735, 1.37082, 1.36736, 1.36042, 1.37148, 1.34931, 1.34724, 1.34634, 1.3484, 1.34788, 1.35076, 1.33824, 1.32022, 1.48313, 1.39395, 1.3179, 1.31055, 1.30856, 1.30457, 1.29718, 
1.63264, 1.62341, 1.61846, 1.6062, 1.60965, 1.60547, 1.59889, 1.5965, 1.89725, 1.86766, 1.57607, 1.55336, 1.54529, 1.54121, 1.53329, 1.5261, 1.51648, 1.50963, 1.50383, 1.4975, 1.49359, 1.48592, 1.47729, 1.47152, 1.46454, 1.46301, 1.47227, 1.47891, 1.50235, 1.47216, 1.48332, 1.43986, 1.4431, 1.41357, 1.41021, 1.40751, 1.40036, 1.39158, 1.38548, 1.3779, 1.37146, 1.36688, 1.36567, 1.35926, 1.35358, 1.34972, 1.34882, 1.34495, 1.34083, 1.33673, 1.33372, 1.33444, 1.40325, 1.50944, 1.43146, 1.31446, 1.31262, 1.30422, 1.3148, 1.2991, 
1.63679, 1.62407, 1.61654, 1.60628, 1.60129, 1.61295, 1.60156, 1.60436, 1.79995, 1.83452, 1.57199, 1.55493, 1.5491, 1.55023, 1.53625, 1.52043, 1.51564, 1.51084, 1.50538, 1.49665, 1.49099, 1.48278, 1.48567, 1.46752, 1.46237, 1.46112, 1.4894, 1.48129, 1.49095, 1.46239, 1.47045, 1.43824, 1.4263, 1.41066, 1.40243, 1.40189, 1.40176, 1.39134, 1.38205, 1.3774, 1.37432, 1.36803, 1.36447, 1.37253, 1.35821, 1.35288, 1.34723, 1.34391, 1.34354, 1.34003, 1.35414, 1.34791, 1.38298, 1.63485, 1.48905, 1.3171, 1.32027, 1.30407, 1.30509, 1.305, 
1.62566, 1.64773, 1.6102, 1.6006, 1.59597, 1.59999, 1.58796, 1.58587, 1.82668, 1.60541, 1.56236, 1.5492, 1.54061, 1.53693, 1.5268, 1.52742, 1.51206, 1.50847, 1.5033, 1.49574, 1.48246, 1.47509, 1.47158, 1.472, 1.46207, 1.46462, 1.47429, 1.47218, 1.47482, 1.45819, 1.46512, 1.43459, 1.42412, 1.40559, 1.40153, 1.40611, 1.39376, 1.38504, 1.37979, 1.37902, 1.38881, 1.36787, 1.36487, 1.35398, 1.35339, 1.3458, 1.34003, 1.33858, 1.36514, 1.33342, 1.34658, 1.34011, 1.31886, 1.68847, 1.41954, 1.30633, 1.30573, 1.29842, 1.29788, 1.2877, 
1.61348, 1.60645, 1.59644, 1.59148, 1.58681, 1.5926, 1.58178, 1.57522, 1.74105, 1.89278, 1.55423, 1.55123, 1.52787, 1.51979, 1.51402, 1.50918, 1.50091, 1.49064, 1.48188, 1.47505, 1.4685, 1.46637, 1.46434, 1.45634, 1.44665, 1.45005, 1.45223, 1.45661, 1.46183, 1.45637, 1.4571, 1.4246, 1.41028, 1.40049, 1.39561, 1.39028, 1.38655, 1.3727, 1.36666, 1.36151, 1.3552, 1.34793, 1.34458, 1.33619, 1.33987, 1.33694, 1.3246, 1.32059, 1.34502, 1.31618, 1.30677, 1.31951, 1.29162, 1.50447, 1.42881, 1.27569, 1.29368, 1.28589, 1.3069, 1.2693, 
1.60058, 1.5985, 1.5893, 1.57816, 1.57153, 1.5656, 1.56445, 1.59651, 1.75697, 1.67426, 1.53166, 1.52738, 1.51297, 1.51391, 1.50643, 1.5033, 1.49711, 1.48691, 1.4776, 1.47929, 1.47167, 1.46119, 1.45266, 1.44463, 1.43979, 1.43397, 1.44677, 1.45433, 1.448, 1.4422, 1.43703, 1.41594, 1.40228, 1.40614, 1.37904, 1.38302, 1.36358, 1.36123, 1.35587, 1.354, 1.35032, 1.34529, 1.33698, 1.3328, 1.32356, 1.32369, 1.31884, 1.31244, 1.31738, 1.31657, 1.30005, 1.29923, 1.3052, 1.48635, 1.56164, 1.28707, 1.28821, 1.28095, 1.27435, 1.28192, 
1.60904, 1.60986, 1.61258, 1.59499, 1.5846, 1.59152, 1.58261, 1.58808, 1.63413, 1.74176, 1.55017, 1.54355, 1.5251, 1.52766, 1.51602, 1.51127, 1.50631, 1.50372, 1.48573, 1.48529, 1.48519, 1.47078, 1.45963, 1.45502, 1.45423, 1.44425, 1.45001, 1.45835, 1.47047, 1.45662, 1.47922, 1.44177, 1.41478, 1.40584, 1.38979, 1.38904, 1.38168, 1.3763, 1.37176, 1.36531, 1.36323, 1.35891, 1.34678, 1.34832, 1.33696, 1.33357, 1.33385, 1.32497, 1.32718, 1.33966, 1.31557, 1.32919, 1.31086, 1.55426, 1.48308, 1.32376, 1.29394, 1.296, 1.28454, 1.285, 
1.61856, 1.614, 1.61337, 1.6033, 1.60325, 1.58623, 1.58354, 1.58884, 1.68026, 1.75161, 1.55213, 1.55237, 1.53465, 1.52853, 1.52699, 1.52659, 1.50847, 1.49955, 1.49757, 1.4884, 1.48559, 1.47236, 1.46792, 1.45849, 1.45496, 1.45188, 1.4673, 1.45678, 1.46736, 1.45736, 1.45352, 1.43122, 1.42166, 1.42585, 1.41027, 1.3959, 1.40822, 1.38359, 1.37599, 1.37316, 1.36765, 1.36134, 1.36347, 1.35176, 1.34384, 1.34441, 1.33673, 1.32971, 1.32975, 1.34333, 1.31876, 1.33362, 1.33053, 1.54515, 1.5232, 1.30982, 1.31203, 1.29855, 1.29307, 1.29136, 
1.61779, 1.6109, 1.60693, 1.5993, 1.58808, 1.58451, 1.59228, 1.5871, 1.64157, 1.80947, 1.55197, 1.54295, 1.53028, 1.5293, 1.52108, 1.50241, 1.50098, 1.49944, 1.49677, 1.49034, 1.47638, 1.46979, 1.46206, 1.45559, 1.46065, 1.4509, 1.45711, 1.47507, 1.4681, 1.45391, 1.46472, 1.44018, 1.42938, 1.4021, 1.39893, 1.39132, 1.38803, 1.38101, 1.37399, 1.37065, 1.36559, 1.35808, 1.3557, 1.34855, 1.34496, 1.34007, 1.33455, 1.3301, 1.33263, 1.32418, 1.35367, 1.31906, 1.29125, 1.5167, 1.63369, 1.41439, 1.30624, 1.2986, 1.29912, 1.30629, 
1.61625, 1.61015, 1.60429, 1.59297, 1.59264, 1.58088, 1.57952, 1.57712, 1.58562, 2.15669, 1.53624, 1.54506, 1.53081, 1.52308, 1.51923, 1.4931, 1.49611, 1.49959, 1.49405, 1.485, 1.4811, 1.46499, 1.46403, 1.45781, 1.45316, 1.45267, 1.45738, 1.45463, 1.45368, 1.45702, 1.46207, 1.43331, 1.41693, 1.40178, 1.39641, 1.38768, 1.38472, 1.38059, 1.37837, 1.37121, 1.3649, 1.35989, 1.3535, 1.35102, 1.35343, 1.34366, 1.33356, 1.33526, 1.32716, 1.33262, 1.31944, 1.32514, 1.32392, 1.48463, 1.53745, 1.52767, 1.30581, 1.29003, 1.29916, 1.2897, 
1.61242, 1.60933, 1.60802, 1.59672, 1.58497, 1.58347, 1.57426, 1.57676, 1.5548, 2.01822, 1.55008, 1.5471, 1.53286, 1.52156, 1.51443, 1.50645, 1.49954, 1.49641, 1.48834, 1.48565, 1.46842, 1.46611, 1.46399, 1.45302, 1.4514, 1.4508, 1.45353, 1.47135, 1.46055, 1.46493, 1.44434, 1.43456, 1.41904, 1.40289, 1.38971, 1.39176, 1.38111, 1.37756, 1.37469, 1.36835, 1.3649, 1.3599, 1.35272, 1.35172, 1.34846, 1.33922, 1.33481, 1.33027, 1.33072, 1.32517, 1.31484, 1.31689, 1.31425, 1.38097, 1.67524, 1.50918, 1.30635, 1.28767, 1.28656, 1.27968, 
1.60832, 1.601, 1.60179, 1.59312, 1.58388, 1.58282, 1.57223, 1.57894, 1.72165, 2.19805, 1.54693, 1.52979, 1.52699, 1.52895, 1.51265, 1.50548, 1.49913, 1.49146, 1.4853, 1.48497, 1.47082, 1.46264, 1.45885, 1.45721, 1.44734, 1.45187, 1.46826, 1.45595, 1.46778, 1.43807, 1.45627, 1.44088, 1.41696, 1.39577, 1.38973, 1.39223, 1.37988, 1.37191, 1.36914, 1.36375, 1.35775, 1.35568, 1.34428, 1.34793, 1.34546, 1.33959, 1.32911, 1.32191, 1.32489, 1.31624, 1.30574, 1.30251, 1.32614, 1.3791, 1.59929, 1.41995, 1.32713, 1.28138, 1.27901, 1.28139, 
1.60687, 1.5935, 1.59657, 1.60381, 1.57601, 1.5894, 1.58235, 1.563, 1.65637, 1.80628, 1.53682, 1.53124, 1.53093, 1.51671, 1.51898, 1.49905, 1.49402, 1.48866, 1.47763, 1.4704, 1.46516, 1.45818, 1.4558, 1.4493, 1.45167, 1.44336, 1.45011, 1.46133, 1.44655, 1.44018, 1.45509, 1.41552, 1.40051, 1.39124, 1.38086, 1.37801, 1.37547, 1.36926, 1.3687, 1.36375, 1.35531, 1.34965, 1.34427, 1.34036, 1.33459, 1.32713, 1.32006, 1.31667, 1.31523, 1.30661, 1.30014, 1.29654, 1.298, 1.38392, 1.64706, 1.32713, 1.30679, 1.28355, 1.27758, 1.27376, 
1.59849, 1.59597, 1.59194, 1.58176, 1.57253, 1.56802, 1.56322, 1.56302, 1.59778, 1.67162, 1.5272, 1.53753, 1.51966, 1.51535, 1.51221, 1.50498, 1.49328, 1.48241, 1.47268, 1.46607, 1.46472, 1.46121, 1.45334, 1.45013, 1.44362, 1.45162, 1.45818, 1.46162, 1.45422, 1.43285, 1.44799, 1.42266, 1.40329, 1.38468, 1.37499, 1.37401, 1.37159, 1.36692, 1.36655, 1.36058, 1.35251, 1.34115, 1.33623, 1.33924, 1.33937, 1.33085, 1.32568, 1.32121, 1.31634, 1.31041, 1.30532, 1.29908, 1.31602, 1.57564, 1.53397, 1.29271, 1.28363, 1.28119, 1.27703, 1.2675, 
1.601, 1.59552, 1.59344, 1.58523, 1.58156, 1.57024, 1.57591, 1.56763, 1.66522, 1.73924, 1.55174, 1.52809, 1.52311, 1.52249, 1.50752, 1.50388, 1.4961, 1.49022, 1.47933, 1.47207, 1.47057, 1.46282, 1.45776, 1.45073, 1.44667, 1.44185, 1.44453, 1.45085, 1.44623, 1.44318, 1.43269, 1.41903, 1.40864, 1.38392, 1.38128, 1.37852, 1.37529, 1.37085, 1.36841, 1.35908, 1.35764, 1.34084, 1.33677, 1.33703, 1.33445, 1.3317, 1.32988, 1.32385, 1.32124, 1.31679, 1.31242, 1.30851, 1.30517, 1.54264, 1.58622, 1.28895, 1.28972, 1.28407, 1.28731, 1.27768, 
1.60368, 1.59602, 1.58871, 1.58396, 1.5896, 1.57042, 1.57951, 1.56101, 1.56468, 1.69292, 1.53545, 1.53809, 1.52099, 1.51408, 1.50718, 1.50043, 1.50575, 1.48737, 1.4774, 1.47307, 1.47501, 1.46466, 1.45488, 1.44786, 1.44178, 1.44563, 1.44158, 1.45082, 1.45075, 1.44123, 1.43859, 1.43695, 1.41269, 1.39939, 1.38252, 1.37743, 1.3846, 1.37205, 1.36553, 1.35986, 1.35358, 1.3472, 1.34275, 1.33692, 1.33098, 1.32887, 1.32495, 1.32204, 1.32072, 1.31508, 1.31212, 1.31719, 1.31617, 1.46303, 1.62022, 1.27925, 1.28941, 1.29307, 1.28836, 1.26511, 
1.60118, 1.59615, 1.58058, 1.57604, 1.5792, 1.58491, 1.56864, 1.5589, 1.60729, 1.69586, 1.52641, 1.52715, 1.52939, 1.5146, 1.51057, 1.50369, 1.48119, 1.47337, 1.48139, 1.45576, 1.45186, 1.45164, 1.44247, 1.43857, 1.42688, 1.4337, 1.43793, 1.45069, 1.45584, 1.44347, 1.42432, 1.40645, 1.41346, 1.38255, 1.37496, 1.38832, 1.35931, 1.35718, 1.35035, 1.34606, 1.34196, 1.33618, 1.3297, 1.32125, 1.31714, 1.3164, 1.31596, 1.31002, 1.3054, 1.29814, 1.2987, 1.30021, 1.29585, 1.33086, 1.48201, 1.30306, 1.2666, 1.26097, 1.26509, 1.26087, 
1.59545, 1.59329, 1.5785, 1.56723, 1.55394, 1.56462, 1.54258, 1.54139, 1.65755, 1.762, 1.48231, 1.51657, 1.51588, 1.51216, 1.49638, 1.47504, 1.47123, 1.46609, 1.45784, 1.44827, 1.4417, 1.43487, 1.43614, 1.43735, 1.42428, 1.41983, 1.43729, 1.43625, 1.45093, 1.43439, 1.42963, 1.41674, 1.39939, 1.38694, 1.371, 1.35533, 1.35367, 1.34906, 1.34378, 1.33513, 1.32994, 1.32653, 1.31892, 1.31352, 1.30962, 1.31238, 1.30401, 1.30005, 1.29297, 1.28854, 1.29511, 1.28286, 1.30147, 1.51632, 1.78952, 1.34787, 1.25684, 1.25102, 1.25689, 1.25422, 
