1.64143, 1.62777, 1.62142, 1.62424, 1.61709, 1.61323, 1.64083, 1.60659, 1.61622, 1.60922, 1.6104, 1.60826, 1.57808, 1.64852, 1.61578, 1.64688, 1.62476, 1.63526, 1.66016, 1.69195, 1.69604, 1.68143, 1.65916, 1.54382, 1.54228, 1.57515, 1.56381, 1.55469, 1.55769, 1.56022, 1.559, 1.55559, 1.5516, 1.5509, 1.53195, 1.53726, 1.52672, 1.52619, 1.52336, 1.52059, 1.51944, 1.51589, 1.51458, 1.51358, 1.51071, 1.50637, 1.50448, 1.49947, 1.49658, 1.49539, 1.49262, 1.49555, 1.48726, 1.48653, 1.50026, 1.47857, 1.4775, 1.47102, 1.47027, 1.46867, 1.46622, 1.46808, 1.47301, 1.48108, 1.47244, 1.44027, 1.47593, 1.56166, 1.61957, 1.75206, 1.75885, 1.75502, 1.6212, 1.44637, 1.42714, 1.43889, 1.43344, 1.4365, 1.42974, 1.4292, 1.42768, 1.42806, 1.42703, 1.41835, 1.41621, 1.41195, 1.40738, 1.40647, 1.40461, 1.40192, 1.39858, 1.39679, 1.39332, 1.38858, 1.38485, 1.38575, 1.38533, 1.38338, 1.37893, 1.37676, 1.37489, 1.37256, 1.37896, 1.36994, 1.37846, 1.36604, 1.36503, 1.36992, 1.36216, 1.36161, 1.35776, 1.35201, 1.35313, 1.34886, 1.3485, 1.34868, 1.34359, 1.34113, 1.34059, 1.34727, 1.33318, 1.33233, 1.33253, 1.33201, 1.33165, 1.33624, 1.33917, 1.34645, 1.34955, 1.35344, 1.35195, 1.3646, 1.38122, 1.36445, 1.36054, 1.36442, 1.37673, 1.34629, 1.3183, 1.34714, 1.32317, 1.31706, 1.30533, 1.29846, 1.29841, 1.29193, 1.2948, 1.29156, 1.29126, 1.29815, 1.29172, 1.29289, 1.30868, 
1.64724, 1.6314, 1.62224, 1.62282, 1.62073, 1.61786, 1.61359, 1.61103, 1.60946, 1.60878, 1.61081, 1.62062, 1.60575, 1.60953, 1.62404, 1.6571, 1.64068, 1.66041, 1.67318, 1.68695, 1.69701, 1.69512, 1.65152, 1.54483, 1.55853, 1.5701, 1.56088, 1.56924, 1.55462, 1.55137, 1.57234, 1.56381, 1.55726, 1.54485, 1.53318, 1.53348, 1.5307, 1.53074, 1.52626, 1.52331, 1.51991, 1.51597, 1.51375, 1.51549, 1.50877, 1.5077, 1.50633, 1.50236, 1.50025, 1.49609, 1.49328, 1.49217, 1.49002, 1.488, 1.48835, 1.48464, 1.48102, 1.47491, 1.47423, 1.4763, 1.46933, 1.46498, 1.46382, 1.46908, 1.47144, 1.48802, 1.47532, 1.52649, 1.63593, 1.82022, 1.77255, 1.62439, 1.57219, 1.41418, 1.4345, 1.43576, 1.44051, 1.4308, 1.42813, 1.42684, 1.42296, 1.4211, 1.41869, 1.41283, 1.41023, 1.40721, 1.40356, 1.40119, 1.40257, 1.39986, 1.39732, 1.39604, 1.39259, 1.3892, 1.38989, 1.38839, 1.38552, 1.38519, 1.38123, 1.3781, 1.37591, 1.37395, 1.3715, 1.3687, 1.36895, 1.36566, 1.36486, 1.36479, 1.3648, 1.36146, 1.35957, 1.35643, 1.35408, 1.3519, 1.34921, 1.34871, 1.35032, 1.35354, 1.34632, 1.34396, 1.34299, 1.34317, 1.33771, 1.33542, 1.33759, 1.34356, 1.34288, 1.35216, 1.34708, 1.36043, 1.37957, 1.35789, 1.35841, 1.39183, 1.37395, 1.40972, 1.38341, 1.33083, 1.32635, 1.31828, 1.31011, 1.32347, 1.30206, 1.30249, 1.29797, 1.29037, 1.29091, 1.29301, 1.29341, 1.29257, 1.29526, 1.28872, 1.31731, 
1.66285, 1.64734, 1.63395, 1.63109, 1.62611, 1.62612, 1.62634, 1.61608, 1.62066, 1.61763, 1.62012, 1.62407, 1.60667, 1.59601, 1.62399, 1.62674, 1.64567, 1.66942, 1.67493, 1.71013, 1.71876, 1.68309, 1.61806, 1.56132, 1.57763, 1.58835, 1.57772, 1.5625, 1.55794, 1.55572, 1.55651, 1.56065, 1.57486, 1.56535, 1.54411, 1.54718, 1.53425, 1.53216, 1.531, 1.52696, 1.52388, 1.52273, 1.52166, 1.51659, 1.51318, 1.50998, 1.50951, 1.50552, 1.50514, 1.50456, 1.50133, 1.50038, 1.49755, 1.50251, 1.49202, 1.48544, 1.4926, 1.47672, 1.47619, 1.47493, 1.47943, 1.47076, 1.47167, 1.48213, 1.46832, 1.45501, 1.48098, 1.541, 1.66171, 1.752, 1.75829, 1.71324, 1.63674, 1.47082, 1.43972, 1.45432, 1.44429, 1.43745, 1.43447, 1.4299, 1.42657, 1.43332, 1.41941, 1.41666, 1.41444, 1.41227, 1.40651, 1.40532, 1.40661, 1.40639, 1.40566, 1.4055, 1.40281, 1.40027, 1.39588, 1.39783, 1.39272, 1.39127, 1.39146, 1.38822, 1.38264, 1.38057, 1.37951, 1.38319, 1.37768, 1.37354, 1.36751, 1.36581, 1.36533, 1.36797, 1.36306, 1.35864, 1.35892, 1.35861, 1.35879, 1.35705, 1.35486, 1.35321, 1.35222, 1.35473, 1.35065, 1.34592, 1.34576, 1.34461, 1.34712, 1.35087, 1.34979, 1.35031, 1.35413, 1.35546, 1.35683, 1.36107, 1.36405, 1.38597, 1.3867, 1.36781, 1.36438, 1.3502, 1.33726, 1.32508, 1.31864, 1.31553, 1.31278, 1.30579, 1.30025, 1.31008, 1.30317, 1.29482, 1.29532, 1.29567, 1.29554, 1.29576, 1.29892, 
1.67876, 1.67328, 1.66287, 1.63406, 1.63042, 1.62794, 1.63778, 1.61943, 1.6237, 1.6291, 1.62734, 1.62358, 1.60168, 1.62943, 1.63773, 1.64918, 1.65656, 1.6879, 1.68944, 1.72205, 1.75244, 1.69471, 1.60361, 1.59362, 1.57711, 1.59484, 1.59327, 1.56431, 1.56868, 1.55902, 1.55631, 1.55429, 1.56996, 1.54984, 1.55178, 1.5533, 1.53809, 1.54194, 1.53018, 1.53697, 1.52695, 1.52017, 1.52355, 1.51619, 1.51382, 1.51207, 1.51126, 1.5083, 1.50736, 1.50474, 1.5054, 1.5026, 1.50012, 1.50289, 1.49323, 1.49035, 1.48588, 1.48456, 1.4817, 1.4801, 1.47943, 1.47946, 1.47806, 1.4792, 1.47549, 1.44791, 1.48231, 1.513, 1.61086, 1.69664, 1.74958, 1.74831, 1.69786, 1.53686, 1.41356, 1.45407, 1.46197, 1.46346, 1.44373, 1.44071, 1.43268, 1.43126, 1.43741, 1.42628, 1.41992, 1.41804, 1.41707, 1.41425, 1.41272, 1.41087, 1.4063, 1.4054, 1.40508, 1.40163, 1.40103, 1.39727, 1.39838, 1.3927, 1.39318, 1.39097, 1.38944, 1.38711, 1.38524, 1.38205, 1.37795, 1.37462, 1.37548, 1.36998, 1.36679, 1.36475, 1.36361, 1.36505, 1.36328, 1.36086, 1.36465, 1.36541, 1.36435, 1.36229, 1.37142, 1.37555, 1.35655, 1.36142, 1.35172, 1.34951, 1.35116, 1.35057, 1.35503, 1.364, 1.35368, 1.35334, 1.36312, 1.40174, 1.36267, 1.36737, 1.40647, 1.38837, 1.38552, 1.34575, 1.33603, 1.32419, 1.33001, 1.31944, 1.31211, 1.316, 1.32649, 1.30747, 1.3201, 1.30899, 1.30311, 1.3029, 1.30484, 1.30338, 1.29778, 
1.6894, 1.69063, 1.69169, 1.64309, 1.63696, 1.63487, 1.63817, 1.64002, 1.62174, 1.6204, 1.6405, 1.63469, 1.63611, 1.59238, 1.64358, 1.66123, 1.66643, 1.67982, 1.6991, 1.71435, 1.65485, 1.65165, 1.61278, 1.59658, 1.58847, 1.57897, 1.58682, 1.57225, 1.56631, 1.56174, 1.55941, 1.55728, 1.56829, 1.57425, 1.57128, 1.56466, 1.55803, 1.54679, 1.56037, 1.53497, 1.53439, 1.53063, 1.52748, 1.52597, 1.52314, 1.52123, 1.52002, 1.51617, 1.51322, 1.51213, 1.50899, 1.51251, 1.5053, 1.50363, 1.50521, 1.49713, 1.49532, 1.49568, 1.49904, 1.48947, 1.49103, 1.48558, 1.48925, 1.4883, 1.48462, 1.45169, 1.49173, 1.55404, 1.62841, 1.734, 1.7572, 1.74488, 1.67255, 1.55871, 1.438, 1.46774, 1.46246, 1.45608, 1.45209, 1.44671, 1.45358, 1.43796, 1.44733, 1.44675, 1.42743, 1.42778, 1.42847, 1.42426, 1.42041, 1.42037, 1.41827, 1.41451, 1.41186, 1.40833, 1.40575, 1.4047, 1.40523, 1.4007, 1.39902, 1.39781, 1.39641, 1.39472, 1.39359, 1.39, 1.38839, 1.38556, 1.37934, 1.37651, 1.37208, 1.36901, 1.37024, 1.36513, 1.36473, 1.36244, 1.36521, 1.36798, 1.36834, 1.36714, 1.36583, 1.36483, 1.36178, 1.3599, 1.35906, 1.35704, 1.35666, 1.3578, 1.36389, 1.37303, 1.3572, 1.3688, 1.37504, 1.38137, 1.3934, 1.43833, 1.44119, 1.40251, 1.3924, 1.35119, 1.34657, 1.33073, 1.33379, 1.33326, 1.32439, 1.32772, 1.31579, 1.31301, 1.30936, 1.31308, 1.31518, 1.31154, 1.31983, 1.31159, 1.30946, 
1.64677, 1.6625, 1.67164, 1.65165, 1.64823, 1.65001, 1.64758, 1.62856, 1.62609, 1.62396, 1.6257, 1.62474, 1.61691, 1.61287, 1.65597, 1.65771, 1.6892, 1.70684, 1.70676, 1.7658, 1.74139, 1.67472, 1.65398, 1.59158, 1.58483, 1.59371, 1.58654, 1.5759, 1.57538, 1.5659, 1.56127, 1.568, 1.55916, 1.57789, 1.5775, 1.56962, 1.55487, 1.5436, 1.54416, 1.54249, 1.54187, 1.54067, 1.533, 1.52989, 1.52755, 1.52575, 1.52361, 1.51782, 1.52618, 1.51277, 1.51058, 1.50912, 1.50632, 1.50599, 1.50568, 1.50389, 1.50253, 1.50081, 1.4979, 1.49712, 1.49017, 1.49203, 1.48635, 1.49885, 1.49148, 1.46076, 1.49307, 1.55794, 1.62965, 1.72399, 1.72653, 1.72474, 1.63552, 1.5463, 1.43343, 1.46785, 1.47493, 1.46354, 1.45342, 1.47056, 1.4511, 1.45189, 1.4419, 1.4399, 1.43165, 1.42986, 1.42743, 1.42675, 1.42384, 1.42117, 1.4199, 1.41872, 1.41693, 1.41146, 1.41063, 1.40784, 1.4075, 1.4049, 1.40477, 1.40545, 1.40249, 1.40064, 1.39903, 1.39655, 1.39083, 1.38562, 1.38381, 1.37771, 1.37719, 1.37385, 1.37301, 1.37162, 1.36742, 1.36748, 1.36389, 1.36463, 1.36403, 1.36243, 1.35938, 1.35687, 1.35629, 1.37165, 1.35811, 1.35717, 1.35742, 1.35975, 1.36115, 1.35725, 1.36792, 1.36075, 1.40636, 1.38183, 1.40829, 1.42686, 1.40384, 1.42434, 1.38999, 1.37017, 1.35033, 1.34429, 1.33488, 1.33129, 1.32968, 1.32359, 1.33331, 1.31858, 1.31973, 1.32249, 1.31167, 1.31423, 1.31312, 1.31743, 1.3225, 
1.64988, 1.65085, 1.64613, 1.64606, 1.64731, 1.6509, 1.64292, 1.64113, 1.64477, 1.63896, 1.63372, 1.6361, 1.64067, 1.60374, 1.62193, 1.64619, 1.67586, 1.6824, 1.77909, 1.80208, 1.75966, 1.73429, 1.72073, 1.60207, 1.5941, 1.60961, 1.59893, 1.59315, 1.57823, 1.57125, 1.56603, 1.56438, 1.56088, 1.56542, 1.58576, 1.57123, 1.56776, 1.55449, 1.55093, 1.54876, 1.54701, 1.54593, 1.5641, 1.53485, 1.53276, 1.53052, 1.52692, 1.52506, 1.52091, 1.51681, 1.51342, 1.5114, 1.50918, 1.50694, 1.50373, 1.50629, 1.50092, 1.50039, 1.51663, 1.49596, 1.49606, 1.50546, 1.49236, 1.49556, 1.4831, 1.46165, 1.4783, 1.55713, 1.65129, 1.7206, 1.73682, 1.73322, 1.70065, 1.54469, 1.44008, 1.45889, 1.47797, 1.45878, 1.46792, 1.44702, 1.4446, 1.45672, 1.43949, 1.4385, 1.43339, 1.43376, 1.43243, 1.43133, 1.42764, 1.4293, 1.42679, 1.42372, 1.42129, 1.41711, 1.41548, 1.41264, 1.41035, 1.41045, 1.41018, 1.40978, 1.40689, 1.40692, 1.40538, 1.40415, 1.40253, 1.39583, 1.39302, 1.38696, 1.38835, 1.38051, 1.37876, 1.37729, 1.37401, 1.37486, 1.37106, 1.3678, 1.3677, 1.36669, 1.36481, 1.36412, 1.37385, 1.36167, 1.37538, 1.3573, 1.3644, 1.36911, 1.37147, 1.3653, 1.35746, 1.37356, 1.39921, 1.39615, 1.39967, 1.40483, 1.40651, 1.44122, 1.41332, 1.36933, 1.32767, 1.33984, 1.34035, 1.3372, 1.33858, 1.34161, 1.32555, 1.33132, 1.31943, 1.32668, 1.31644, 1.31283, 1.31859, 1.3155, 1.32024, 
1.65643, 1.65505, 1.65215, 1.63542, 1.66291, 1.66547, 1.65871, 1.6516, 1.63588, 1.62892, 1.62961, 1.64887, 1.62591, 1.61101, 1.63523, 1.66584, 1.68227, 1.71309, 1.75595, 1.75665, 1.75905, 1.72408, 1.64456, 1.59612, 1.5958, 1.59709, 1.59938, 1.58582, 1.57321, 1.57436, 1.56656, 1.56253, 1.56211, 1.55551, 1.56526, 1.56735, 1.56632, 1.55897, 1.55249, 1.55077, 1.5463, 1.54187, 1.53996, 1.53805, 1.53665, 1.53505, 1.52652, 1.52498, 1.52068, 1.51799, 1.51325, 1.51265, 1.51151, 1.50886, 1.50613, 1.50599, 1.50104, 1.50018, 1.49859, 1.50644, 1.49406, 1.49154, 1.48926, 1.49641, 1.48754, 1.46817, 1.48964, 1.51913, 1.62466, 1.67273, 1.70725, 1.70357, 1.61869, 1.44969, 1.43494, 1.43287, 1.46389, 1.46136, 1.45871, 1.44915, 1.44177, 1.44117, 1.44598, 1.43654, 1.43427, 1.43316, 1.43346, 1.42956, 1.42649, 1.42823, 1.42672, 1.42351, 1.42234, 1.41836, 1.41407, 1.40997, 1.40773, 1.40781, 1.40569, 1.40612, 1.40646, 1.40776, 1.40756, 1.40663, 1.40609, 1.39948, 1.3968, 1.39462, 1.39182, 1.38704, 1.38662, 1.38369, 1.37905, 1.37559, 1.37475, 1.3755, 1.37382, 1.37385, 1.37437, 1.37153, 1.38586, 1.36623, 1.36493, 1.35779, 1.35514, 1.35843, 1.35837, 1.37227, 1.36771, 1.3669, 1.40899, 1.3947, 1.39715, 1.39931, 1.44365, 1.41975, 1.40815, 1.39317, 1.34803, 1.32, 1.34683, 1.3459, 1.33289, 1.32841, 1.32601, 1.33988, 1.32002, 1.31765, 1.31669, 1.3135, 1.3116, 1.31906, 1.31025, 
1.66725, 1.66512, 1.66354, 1.66601, 1.66448, 1.66619, 1.66299, 1.6443, 1.64008, 1.64799, 1.63391, 1.63796, 1.62568, 1.62082, 1.62325, 1.68989, 1.7066, 1.72334, 1.75568, 1.78188, 1.78587, 1.74345, 1.704, 1.63089, 1.57592, 1.5992, 1.60229, 1.58595, 1.58228, 1.57746, 1.57402, 1.57466, 1.57505, 1.55863, 1.55554, 1.5647, 1.56211, 1.56853, 1.55719, 1.55015, 1.54836, 1.54526, 1.54463, 1.54432, 1.53941, 1.5368, 1.54854, 1.53094, 1.52664, 1.52455, 1.52256, 1.51911, 1.51925, 1.5168, 1.51255, 1.50996, 1.50729, 1.51322, 1.51507, 1.51236, 1.49498, 1.4923, 1.49122, 1.49013, 1.4929, 1.47625, 1.49902, 1.56572, 1.61738, 1.69315, 1.7004, 1.70277, 1.65385, 1.5391, 1.4613, 1.434, 1.4753, 1.46076, 1.4493, 1.44723, 1.44709, 1.4437, 1.46161, 1.43713, 1.43388, 1.43318, 1.43069, 1.42881, 1.42664, 1.42636, 1.4258, 1.42138, 1.42048, 1.42212, 1.41454, 1.41629, 1.4147, 1.41092, 1.40717, 1.40613, 1.40568, 1.40436, 1.40564, 1.40458, 1.40308, 1.40004, 1.39914, 1.39729, 1.39595, 1.39557, 1.389, 1.38314, 1.38335, 1.38101, 1.3814, 1.3815, 1.38139, 1.38074, 1.38035, 1.37635, 1.37622, 1.37223, 1.36748, 1.36884, 1.36115, 1.36063, 1.36105, 1.37549, 1.35115, 1.41267, 1.40236, 1.40134, 1.40848, 1.40984, 1.44632, 1.43111, 1.42223, 1.42309, 1.33423, 1.35029, 1.35355, 1.34198, 1.33423, 1.32926, 1.32976, 1.3342, 1.32617, 1.33098, 1.32053, 1.32057, 1.32629, 1.31478, 1.31931, 
1.66628, 1.66464, 1.66061, 1.66067, 1.65745, 1.66302, 1.67586, 1.66668, 1.64086, 1.63515, 1.63784, 1.63136, 1.63427, 1.59913, 1.64211, 1.68923, 1.70631, 1.71463, 1.7436, 1.74963, 1.74758, 1.69645, 1.6759, 1.60704, 1.56864, 1.6062, 1.59662, 1.58801, 1.58533, 1.58238, 1.58141, 1.57638, 1.5712, 1.5668, 1.57146, 1.558, 1.56861, 1.56536, 1.57577, 1.56933, 1.54881, 1.54914, 1.54443, 1.54076, 1.54038, 1.53652, 1.53543, 1.53356, 1.53127, 1.52727, 1.52686, 1.52317, 1.51973, 1.5191, 1.51596, 1.51228, 1.51014, 1.50666, 1.51122, 1.49899, 1.51029, 1.49464, 1.49483, 1.49506, 1.49402, 1.48397, 1.47776, 1.53592, 1.59257, 1.66833, 1.70495, 1.70039, 1.67539, 1.60998, 1.45033, 1.44347, 1.45813, 1.46054, 1.44823, 1.44547, 1.46487, 1.44371, 1.44306, 1.44093, 1.43822, 1.43612, 1.43393, 1.42976, 1.42988, 1.42963, 1.42655, 1.42572, 1.42333, 1.42036, 1.41629, 1.41671, 1.4128, 1.41068, 1.40977, 1.40762, 1.40628, 1.40597, 1.40539, 1.40441, 1.40488, 1.40387, 1.40232, 1.40019, 1.39892, 1.39264, 1.38853, 1.38553, 1.38486, 1.38233, 1.38424, 1.38201, 1.3809, 1.3816, 1.37597, 1.38227, 1.37453, 1.37227, 1.37219, 1.37103, 1.36839, 1.36782, 1.37152, 1.37246, 1.3498, 1.37532, 1.42815, 1.46419, 1.44217, 1.47859, 1.442, 1.46307, 1.44155, 1.42072, 1.36131, 1.33801, 1.35375, 1.35041, 1.33422, 1.33431, 1.32688, 1.32381, 1.32347, 1.3229, 1.31903, 1.3214, 1.31843, 1.32001, 1.31569, 
1.67107, 1.65995, 1.65592, 1.65627, 1.66611, 1.67212, 1.67901, 1.66198, 1.66036, 1.65515, 1.64543, 1.64098, 1.64249, 1.61747, 1.65428, 1.68599, 1.76195, 1.74534, 1.77618, 1.7876, 1.78787, 1.77773, 1.70888, 1.59678, 1.56935, 1.60553, 1.60776, 1.59751, 1.59674, 1.59015, 1.58852, 1.58855, 1.57957, 1.57554, 1.57219, 1.56925, 1.56614, 1.57333, 1.583, 1.57818, 1.56195, 1.55332, 1.54999, 1.54748, 1.55357, 1.53999, 1.53954, 1.53657, 1.53602, 1.53252, 1.5268, 1.52823, 1.52566, 1.52106, 1.52705, 1.51482, 1.51393, 1.51022, 1.50799, 1.50697, 1.50515, 1.50357, 1.50256, 1.51306, 1.50585, 1.48611, 1.51617, 1.52031, 1.60248, 1.70705, 1.71617, 1.70722, 1.68589, 1.58684, 1.51965, 1.44042, 1.46476, 1.48234, 1.45896, 1.45803, 1.45419, 1.45033, 1.44803, 1.44577, 1.44275, 1.44186, 1.44036, 1.43651, 1.43728, 1.43476, 1.43394, 1.43256, 1.43285, 1.42808, 1.42714, 1.42438, 1.42064, 1.46065, 1.41887, 1.41609, 1.41355, 1.41238, 1.41067, 1.40733, 1.40638, 1.40424, 1.40265, 1.40159, 1.39889, 1.39368, 1.39213, 1.38978, 1.38805, 1.38728, 1.38577, 1.38455, 1.3846, 1.38172, 1.39127, 1.38147, 1.38879, 1.37658, 1.37457, 1.37581, 1.37398, 1.37159, 1.3894, 1.38262, 1.35893, 1.39077, 1.43239, 1.41515, 1.43793, 1.46848, 1.464, 1.45791, 1.46463, 1.42551, 1.38808, 1.34484, 1.35487, 1.35572, 1.34289, 1.33971, 1.34741, 1.32647, 1.32577, 1.32763, 1.32119, 1.32149, 1.32164, 1.31693, 1.32018, 
1.67045, 1.66648, 1.66475, 1.66088, 1.65761, 1.65869, 1.66508, 1.65194, 1.65887, 1.65346, 1.65124, 1.65122, 1.65527, 1.63347, 1.64158, 1.7131, 1.7295, 1.68037, 1.69931, 1.77458, 1.71619, 1.76149, 1.694, 1.63247, 1.58604, 1.6095, 1.6055, 1.61337, 1.5939, 1.58966, 1.58555, 1.59882, 1.5825, 1.58189, 1.57775, 1.57438, 1.57199, 1.57089, 1.57551, 1.58512, 1.57433, 1.56964, 1.55057, 1.55088, 1.54411, 1.54237, 1.53786, 1.53756, 1.53257, 1.52872, 1.52985, 1.52813, 1.52457, 1.52097, 1.5171, 1.51684, 1.52272, 1.51243, 1.51087, 1.50648, 1.50619, 1.50461, 1.50921, 1.50407, 1.50339, 1.50456, 1.45414, 1.56495, 1.62926, 1.55578, 1.7022, 1.70721, 1.69867, 1.62597, 1.54442, 1.4787, 1.47694, 1.47598, 1.46911, 1.4835, 1.46236, 1.46029, 1.45596, 1.45156, 1.44722, 1.44674, 1.4434, 1.48134, 1.43945, 1.43601, 1.43515, 1.43378, 1.43344, 1.4326, 1.43, 1.42884, 1.42631, 1.42376, 1.42188, 1.41992, 1.41931, 1.41663, 1.41589, 1.41393, 1.41262, 1.4063, 1.40484, 1.40232, 1.40036, 1.3992, 1.39449, 1.39135, 1.38962, 1.38845, 1.38838, 1.38525, 1.3824, 1.3794, 1.37872, 1.3778, 1.37679, 1.37547, 1.37619, 1.37398, 1.3723, 1.37532, 1.37422, 1.38278, 1.4021, 1.36618, 1.4056, 1.41411, 1.44334, 1.44381, 1.44314, 1.46464, 1.45413, 1.45784, 1.37921, 1.32918, 1.36077, 1.36466, 1.34982, 1.33981, 1.33673, 1.3433, 1.33248, 1.33286, 1.34738, 1.3271, 1.33274, 1.33042, 1.32416, 
1.67386, 1.67314, 1.66992, 1.67087, 1.6641, 1.6623, 1.66809, 1.68307, 1.66942, 1.66202, 1.66512, 1.66317, 1.65485, 1.65067, 1.63805, 1.65558, 1.67857, 1.72644, 1.76321, 1.78224, 1.77299, 1.75867, 1.718, 1.6931, 1.58573, 1.62645, 1.61987, 1.6085, 1.6067, 1.59083, 1.58499, 1.58579, 1.58223, 1.5805, 1.57713, 1.57592, 1.58186, 1.57126, 1.57668, 1.60591, 1.58876, 1.56808, 1.56071, 1.55224, 1.55235, 1.54532, 1.55113, 1.53822, 1.53895, 1.53603, 1.53479, 1.5342, 1.52955, 1.52758, 1.52356, 1.52287, 1.51811, 1.51789, 1.51381, 1.51323, 1.51021, 1.50683, 1.50966, 1.5058, 1.50576, 1.50348, 1.46898, 1.55804, 1.59009, 1.56754, 1.67365, 1.68293, 1.65254, 1.61329, 1.55534, 1.4623, 1.47428, 1.48029, 1.4793, 1.47835, 1.48235, 1.46427, 1.45902, 1.45558, 1.45199, 1.44899, 1.44599, 1.4435, 1.44107, 1.43887, 1.43621, 1.43648, 1.43525, 1.44201, 1.43972, 1.42967, 1.42844, 1.4268, 1.4259, 1.42444, 1.4232, 1.42094, 1.41993, 1.41619, 1.41122, 1.40791, 1.40529, 1.40314, 1.39999, 1.39666, 1.39534, 1.39327, 1.38902, 1.38584, 1.38526, 1.38178, 1.37909, 1.37951, 1.37745, 1.37402, 1.37496, 1.37379, 1.3723, 1.37222, 1.37127, 1.37462, 1.38503, 1.38635, 1.35382, 1.36345, 1.39527, 1.40652, 1.45735, 1.4548, 1.46772, 1.4688, 1.47536, 1.42979, 1.39611, 1.34602, 1.36379, 1.3542, 1.34178, 1.34036, 1.3348, 1.33493, 1.34985, 1.33695, 1.32937, 1.32813, 1.32965, 1.32782, 1.32802, 
1.67866, 1.67559, 1.67513, 1.66945, 1.67853, 1.68448, 1.66243, 1.66766, 1.6797, 1.67149, 1.67544, 1.66132, 1.66603, 1.64052, 1.64345, 1.67909, 1.74942, 1.76514, 1.78987, 1.83749, 1.81327, 1.7963, 1.75137, 1.66807, 1.58498, 1.61211, 1.60904, 1.60565, 1.59405, 1.6032, 1.58966, 1.58524, 1.58527, 1.5832, 1.58486, 1.57642, 1.57406, 1.57798, 1.60686, 1.5992, 1.59632, 1.6046, 1.57156, 1.56861, 1.56071, 1.56054, 1.54718, 1.55125, 1.54477, 1.54038, 1.53808, 1.53511, 1.53264, 1.5365, 1.52575, 1.52389, 1.52051, 1.52076, 1.51717, 1.51262, 1.50974, 1.50711, 1.50675, 1.5128, 1.51668, 1.51529, 1.47633, 1.55705, 1.5988, 1.5729, 1.69622, 1.70325, 1.70713, 1.66413, 1.54322, 1.46486, 1.47089, 1.4964, 1.48415, 1.48203, 1.48292, 1.46842, 1.46488, 1.46346, 1.45777, 1.45682, 1.4521, 1.45012, 1.44567, 1.44595, 1.44111, 1.44037, 1.43744, 1.43804, 1.43438, 1.43261, 1.43011, 1.42817, 1.42661, 1.42629, 1.42387, 1.4225, 1.41991, 1.41905, 1.41475, 1.41334, 1.41101, 1.4081, 1.40583, 1.40568, 1.40152, 1.39838, 1.39516, 1.3932, 1.3906, 1.3865, 1.3855, 1.38303, 1.38073, 1.38114, 1.37847, 1.37922, 1.38432, 1.38531, 1.39563, 1.39186, 1.38507, 1.39645, 1.38327, 1.38282, 1.43651, 1.49814, 1.4532, 1.48432, 1.47262, 1.47357, 1.44193, 1.42699, 1.41781, 1.35617, 1.34378, 1.35319, 1.35781, 1.349, 1.34034, 1.33734, 1.35207, 1.33609, 1.33058, 1.33256, 1.34002, 1.33323, 1.3305, 
1.68457, 1.67812, 1.68637, 1.67855, 1.67165, 1.66415, 1.66723, 1.67194, 1.68416, 1.68492, 1.67107, 1.65414, 1.65517, 1.6416, 1.65912, 1.66098, 1.68621, 1.73261, 1.76369, 1.8384, 1.83388, 1.80714, 1.70681, 1.63882, 1.60967, 1.61521, 1.6125, 1.62105, 1.59901, 1.59791, 1.60427, 1.59165, 1.58903, 1.59708, 1.59111, 1.58218, 1.57997, 1.57888, 1.57611, 1.58503, 1.58626, 1.58848, 1.58577, 1.56132, 1.55679, 1.55437, 1.5542, 1.55156, 1.54897, 1.54806, 1.5436, 1.54276, 1.53923, 1.5345, 1.58354, 1.52868, 1.52485, 1.52491, 1.52277, 1.52052, 1.52739, 1.52614, 1.51638, 1.52106, 1.52346, 1.5195, 1.49202, 1.51782, 1.58126, 1.65736, 1.69744, 1.67267, 1.67965, 1.58805, 1.55537, 1.46404, 1.49576, 1.48788, 1.48921, 1.48316, 1.47659, 1.47224, 1.4742, 1.46879, 1.46858, 1.46306, 1.46034, 1.45825, 1.45355, 1.45152, 1.44988, 1.44873, 1.44649, 1.44478, 1.44137, 1.43755, 1.43639, 1.43595, 1.43702, 1.42945, 1.42372, 1.42565, 1.42437, 1.42101, 1.33927, 1.41957, 1.41469, 1.41228, 1.41099, 1.40812, 1.40464, 1.40228, 1.39821, 1.39524, 1.39478, 1.39031, 1.39025, 1.3882, 1.38877, 1.38746, 1.3847, 1.38419, 1.38533, 1.38438, 1.38518, 1.38605, 1.38669, 1.39927, 1.40142, 1.40296, 1.43117, 1.48323, 1.4766, 1.47526, 1.47573, 1.47305, 1.47272, 1.44177, 1.41983, 1.37391, 1.35206, 1.36133, 1.3476, 1.35356, 1.34118, 1.34642, 1.34248, 1.33874, 1.33561, 1.33615, 1.33674, 1.33495, 1.33215, 
1.68142, 1.67706, 1.67363, 1.66922, 1.6679, 1.66318, 1.66955, 1.65931, 1.67097, 1.6709, 1.69353, 1.67458, 1.65536, 1.63557, 1.64747, 1.71383, 1.75373, 1.75362, 1.81396, 1.80961, 1.81064, 1.78451, 1.73732, 1.66158, 1.61199, 1.62691, 1.61228, 1.60996, 1.60249, 1.59911, 1.59723, 1.5934, 1.5891, 1.58584, 1.58558, 1.58143, 1.57937, 1.57785, 1.57586, 1.57447, 1.57565, 1.56797, 1.58658, 1.57102, 1.55645, 1.55385, 1.55099, 1.55095, 1.54755, 1.54597, 1.54438, 1.54214, 1.53996, 1.53441, 1.53045, 1.53786, 1.52528, 1.52319, 1.5207, 1.51816, 1.51409, 1.51266, 1.51256, 1.51322, 1.5157, 1.51779, 1.49487, 1.55951, 1.57172, 1.64866, 1.66227, 1.69592, 1.68927, 1.63744, 1.51638, 1.44802, 1.46853, 1.47966, 1.48506, 1.47339, 1.47155, 1.46735, 1.46373, 1.46142, 1.45973, 1.45702, 1.45473, 1.4569, 1.45163, 1.4514, 1.44822, 1.44749, 1.44739, 1.44465, 1.44422, 1.44113, 1.4382, 1.43631, 1.43528, 1.43135, 1.43066, 1.42832, 1.42687, 1.42503, 1.42326, 1.42112, 1.41743, 1.41622, 1.4123, 1.40986, 1.41195, 1.40513, 1.40258, 1.39936, 1.39848, 1.39597, 1.39658, 1.39407, 1.39506, 1.3885, 1.38783, 1.3878, 1.38603, 1.38491, 1.38935, 1.3855, 1.40546, 1.39201, 1.39097, 1.3713, 1.43816, 1.46934, 1.48102, 1.47233, 1.48807, 1.49831, 1.49769, 1.45043, 1.41376, 1.3572, 1.3481, 1.35852, 1.34991, 1.35187, 1.36408, 1.34372, 1.34666, 1.34399, 1.34282, 1.34226, 1.34498, 1.33747, 1.33612, 
1.68028, 1.67934, 1.67575, 1.68003, 1.66798, 1.67138, 1.65904, 1.6621, 1.67373, 1.66294, 1.6892, 1.68554, 1.64577, 1.64771, 1.6332, 1.65546, 1.70516, 1.79386, 1.79976, 1.8274, 1.84884, 1.81948, 1.76198, 1.69222, 1.58654, 1.61594, 1.62742, 1.60341, 1.60184, 1.596, 1.60225, 1.58944, 1.59419, 1.58472, 1.58264, 1.58108, 1.58168, 1.57622, 1.58608, 1.57217, 1.5825, 1.57508, 1.56422, 1.58288, 1.57185, 1.56418, 1.55119, 1.545, 1.553, 1.54376, 1.5455, 1.53786, 1.54009, 1.53074, 1.53455, 1.5325, 1.52066, 1.51743, 1.51366, 1.51212, 1.5101, 1.51576, 1.50787, 1.52091, 1.51677, 1.51987, 1.46371, 1.52099, 1.60918, 1.63557, 1.68731, 1.70669, 1.70252, 1.62872, 1.54773, 1.50354, 1.46534, 1.48113, 1.48506, 1.48241, 1.47335, 1.46727, 1.4559, 1.46139, 1.45478, 1.45748, 1.44743, 1.44788, 1.45895, 1.44507, 1.44434, 1.4419, 1.4371, 1.43483, 1.43532, 1.43374, 1.44106, 1.43383, 1.43176, 1.43128, 1.4278, 1.4263, 1.42681, 1.42391, 1.42212, 1.42148, 1.4198, 1.41709, 1.41713, 1.41389, 1.42029, 1.41015, 1.40734, 1.40338, 1.40715, 1.3979, 1.39807, 1.39487, 1.39274, 1.38941, 1.38959, 1.39849, 1.38556, 1.38695, 1.38271, 1.38106, 1.3962, 1.39464, 1.3874, 1.39501, 1.44432, 1.45441, 1.46662, 1.50291, 1.50074, 1.49479, 1.49314, 1.47612, 1.45008, 1.37058, 1.34146, 1.35393, 1.35752, 1.35366, 1.35233, 1.35715, 1.35037, 1.34451, 1.3437, 1.3686, 1.34303, 1.33621, 1.33256, 
1.68172, 1.6792, 1.67604, 1.67382, 1.66961, 1.66615, 1.67252, 1.65809, 1.65873, 1.65441, 1.6673, 1.67578, 1.65177, 1.65835, 1.62524, 1.63566, 1.66515, 1.77306, 1.77569, 1.82398, 1.83061, 1.82636, 1.75447, 1.68907, 1.5944, 1.6004, 1.61428, 1.58976, 1.57943, 1.59325, 1.59209, 1.59088, 1.58992, 1.58386, 1.5819, 1.57846, 1.57655, 1.57431, 1.57225, 1.56632, 1.5632, 1.55895, 1.56934, 1.56409, 1.57857, 1.55476, 1.54361, 1.54183, 1.54461, 1.54404, 1.56071, 1.53981, 1.53377, 1.52954, 1.52511, 1.51816, 1.51568, 1.50979, 1.5029, 1.50007, 1.50617, 1.50367, 1.50244, 1.5044, 1.50966, 1.51089, 1.49493, 1.55469, 1.6282, 1.65871, 1.67977, 1.62733, 1.62836, 1.63117, 1.5837, 1.47586, 1.46313, 1.48428, 1.47536, 1.47773, 1.46387, 1.47715, 1.46443, 1.45459, 1.45184, 1.45035, 1.44784, 1.44634, 1.44451, 1.44393, 1.44073, 1.43746, 1.43615, 1.43493, 1.43058, 1.43076, 1.43269, 1.43384, 1.43228, 1.42712, 1.42459, 1.42357, 1.42127, 1.42029, 1.41885, 1.41727, 1.41669, 1.41357, 1.41201, 1.40792, 1.40695, 1.40501, 1.40189, 1.39719, 1.39521, 1.39485, 1.39075, 1.38938, 1.38908, 1.38682, 1.3848, 1.39248, 1.38226, 1.39283, 1.38075, 1.3828, 1.3796, 1.38688, 1.37573, 1.40998, 1.42555, 1.46753, 1.49758, 1.49264, 1.51691, 1.52285, 1.52321, 1.47734, 1.46601, 1.40554, 1.34355, 1.3605, 1.35968, 1.36015, 1.35076, 1.34659, 1.34705, 1.34274, 1.34329, 1.33998, 1.34016, 1.33361, 1.33178, 
1.69603, 1.69227, 1.6909, 1.68665, 1.68552, 1.68144, 1.68008, 1.67817, 1.67577, 1.67179, 1.67856, 1.67495, 1.68987, 1.67687, 1.62303, 1.63197, 1.6521, 1.747, 1.80018, 1.85874, 1.86224, 1.85079, 1.81718, 1.65846, 1.62066, 1.62352, 1.61848, 1.61636, 1.61166, 1.61035, 1.60723, 1.60092, 1.59892, 1.59566, 1.59343, 1.59201, 1.59328, 1.58921, 1.58576, 1.57652, 1.57316, 1.56858, 1.56927, 1.57912, 1.5781, 1.5728, 1.56669, 1.56107, 1.56602, 1.55309, 1.54748, 1.54715, 1.5465, 1.5434, 1.53872, 1.53286, 1.55046, 1.5287, 1.53092, 1.52632, 1.51975, 1.52038, 1.51964, 1.52141, 1.53113, 1.52824, 1.50533, 1.55212, 1.58575, 1.60985, 1.63446, 1.65298, 1.63715, 1.61221, 1.63767, 1.49622, 1.47099, 1.49186, 1.49552, 1.51586, 1.49298, 1.48542, 1.47248, 1.46852, 1.47234, 1.46823, 1.46236, 1.45957, 1.4573, 1.45417, 1.4517, 1.44473, 1.44124, 1.44023, 1.43996, 1.4415, 1.44524, 1.4466, 1.44386, 1.43979, 1.43208, 1.4299, 1.43008, 1.4312, 1.43219, 1.428, 1.42693, 1.42232, 1.41646, 1.41244, 1.41202, 1.40885, 1.41222, 1.4119, 1.4109, 1.40525, 1.39896, 1.39893, 1.40059, 1.39803, 1.39309, 1.38959, 1.38947, 1.39069, 1.38958, 1.38822, 1.39975, 1.39769, 1.37845, 1.36135, 1.38853, 1.4143, 1.4791, 1.52202, 1.52246, 1.52261, 1.51799, 1.50338, 1.48325, 1.40621, 1.34802, 1.36407, 1.36566, 1.37104, 1.36387, 1.34987, 1.3577, 1.35396, 1.35271, 1.35141, 1.3477, 1.3416, 1.33983, 
1.68634, 1.68655, 1.67152, 1.66569, 1.6685, 1.66348, 1.66671, 1.66883, 1.67155, 1.67241, 1.66143, 1.65901, 1.65559, 1.66788, 1.63848, 1.68429, 1.72696, 1.73432, 1.80793, 1.83919, 1.85886, 1.85488, 1.8104, 1.72836, 1.60632, 1.61406, 1.61682, 1.60697, 1.60685, 1.60475, 1.60627, 1.60257, 1.59236, 1.5745, 1.58197, 1.58593, 1.58489, 1.57769, 1.56519, 1.56462, 1.56536, 1.56912, 1.56841, 1.57178, 1.57254, 1.58089, 1.56961, 1.56312, 1.56477, 1.55079, 1.54315, 1.54348, 1.542, 1.54032, 1.53822, 1.53183, 1.52433, 1.52301, 1.52404, 1.52526, 1.52806, 1.51929, 1.51746, 1.52214, 1.52373, 1.52089, 1.48281, 1.50038, 1.56194, 1.61334, 1.66207, 1.66504, 1.67051, 1.61988, 1.5924, 1.51959, 1.45922, 1.47181, 1.48998, 1.48615, 1.49821, 1.47219, 1.47989, 1.48191, 1.46661, 1.4697, 1.46829, 1.46517, 1.46223, 1.45883, 1.45482, 1.44667, 1.43747, 1.43693, 1.44015, 1.44588, 1.44711, 1.44267, 1.43697, 1.43104, 1.42754, 1.42336, 1.42363, 1.42748, 1.42619, 1.42295, 1.41909, 1.41776, 1.41715, 1.41546, 1.41267, 1.40496, 1.40581, 1.41269, 1.40159, 1.40176, 1.39897, 1.40272, 1.39264, 1.39201, 1.38833, 1.38577, 1.3879, 1.38862, 1.38666, 1.39269, 1.39827, 1.39171, 1.40149, 1.36077, 1.4303, 1.46883, 1.52318, 1.54481, 1.52779, 1.49196, 1.5337, 1.52359, 1.46536, 1.36929, 1.35754, 1.3706, 1.36763, 1.36147, 1.37172, 1.35503, 1.3535, 1.36514, 1.34493, 1.34842, 1.34865, 1.35382, 1.33401, 
1.70185, 1.68557, 1.67969, 1.68265, 1.69668, 1.69223, 1.68563, 1.67521, 1.68333, 1.68937, 1.67293, 1.66196, 1.65107, 1.64729, 1.65317, 1.64808, 1.69915, 1.70486, 1.82205, 1.86829, 1.91004, 1.89312, 1.88257, 1.73489, 1.62098, 1.62774, 1.62741, 1.62383, 1.61858, 1.6146, 1.60705, 1.60318, 1.59931, 1.58853, 1.60262, 1.61091, 1.58841, 1.61613, 1.57594, 1.57491, 1.56712, 1.57891, 1.57518, 1.56453, 1.56763, 1.56491, 1.57773, 1.56793, 1.55871, 1.56418, 1.55385, 1.54947, 1.54695, 1.54517, 1.54121, 1.54858, 1.55289, 1.52789, 1.54802, 1.53149, 1.53938, 1.53089, 1.52257, 1.53393, 1.53038, 1.52947, 1.49237, 1.50647, 1.57241, 1.63618, 1.65244, 1.67249, 1.67265, 1.66113, 1.60625, 1.50266, 1.46539, 1.47946, 1.4796, 1.48459, 1.50313, 1.50325, 1.4889, 1.4776, 1.48533, 1.47173, 1.46671, 1.46032, 1.45321, 1.44905, 1.44416, 1.44002, 1.43679, 1.43592, 1.43996, 1.44839, 1.44982, 1.44671, 1.43835, 1.43022, 1.42103, 1.41722, 1.41592, 1.41118, 1.41026, 1.40766, 1.40699, 1.40326, 1.40239, 1.40276, 1.39665, 1.39256, 1.39245, 1.39453, 1.39596, 1.40007, 1.40057, 1.40406, 1.40469, 1.40994, 1.40269, 1.38438, 1.37794, 1.37753, 1.40198, 1.37845, 1.37921, 1.39934, 1.3924, 1.36551, 1.40337, 1.4478, 1.47589, 1.48802, 1.52768, 1.53728, 1.52996, 1.50329, 1.42488, 1.36663, 1.37948, 1.37503, 1.37193, 1.36676, 1.35669, 1.36474, 1.34813, 1.34316, 1.33657, 1.33783, 1.33352, 1.32886, 1.33269, 
1.68672, 1.68435, 1.67999, 1.67665, 1.67565, 1.67266, 1.6701, 1.669, 1.66353, 1.66133, 1.66888, 1.66515, 1.65568, 1.66154, 1.67008, 1.64764, 1.71524, 1.74133, 1.79388, 1.83207, 1.85692, 1.88566, 1.82138, 1.65675, 1.61739, 1.62834, 1.62726, 1.61872, 1.62, 1.60777, 1.60529, 1.6174, 1.59291, 1.59298, 1.61256, 1.58686, 1.5862, 1.58521, 1.58398, 1.57894, 1.57487, 1.57074, 1.56888, 1.57146, 1.56609, 1.56276, 1.57591, 1.58627, 1.56864, 1.56551, 1.5503, 1.54465, 1.56, 1.53827, 1.54381, 1.53514, 1.53395, 1.53105, 1.54104, 1.53202, 1.52624, 1.52014, 1.52341, 1.52458, 1.52018, 1.51958, 1.5061, 1.5586, 1.58009, 1.62555, 1.65787, 1.65941, 1.6443, 1.63714, 1.58202, 1.57837, 1.45886, 1.47559, 1.48586, 1.48953, 1.50908, 1.51441, 1.4903, 1.47882, 1.47675, 1.46582, 1.46384, 1.48163, 1.45699, 1.48215, 1.46197, 1.45006, 1.44744, 1.44585, 1.44671, 1.44655, 1.44721, 1.44048, 1.43595, 1.43488, 1.43501, 1.43462, 1.43259, 1.44051, 1.42926, 1.427, 1.42543, 1.4231, 1.42089, 1.41752, 1.41459, 1.4125, 1.4171, 1.40913, 1.40612, 1.4055, 1.40359, 1.40172, 1.40066, 1.40156, 1.4015, 1.40282, 1.41007, 1.39322, 1.40663, 1.40061, 1.39968, 1.3964, 1.40525, 1.37814, 1.39663, 1.4303, 1.46829, 1.48864, 1.52946, 1.54373, 1.5483, 1.49507, 1.46222, 1.41536, 1.35096, 1.37502, 1.37105, 1.3781, 1.36238, 1.35529, 1.35231, 1.35142, 1.3468, 1.36284, 1.36818, 1.36876, 1.35058, 
1.67635, 1.67271, 1.67012, 1.66774, 1.66609, 1.66505, 1.66259, 1.66494, 1.65462, 1.65966, 1.66283, 1.64811, 1.64964, 1.65042, 1.64605, 1.64701, 1.68716, 1.7364, 1.75786, 1.8352, 1.85861, 1.86781, 1.80528, 1.69594, 1.64647, 1.61752, 1.61042, 1.61791, 1.60394, 1.60698, 1.59009, 1.59828, 1.58369, 1.57889, 1.57298, 1.56975, 1.56804, 1.5646, 1.56717, 1.56624, 1.56305, 1.55862, 1.56161, 1.56003, 1.5597, 1.5562, 1.55135, 1.56562, 1.56989, 1.54168, 1.53818, 1.53371, 1.53064, 1.53021, 1.5288, 1.52632, 1.55178, 1.53257, 1.51771, 1.52558, 1.50982, 1.50936, 1.51333, 1.50586, 1.51652, 1.51829, 1.47535, 1.50166, 1.57407, 1.59633, 1.61312, 1.63879, 1.63118, 1.6273, 1.58234, 1.55235, 1.49278, 1.46698, 1.48431, 1.47936, 1.47498, 1.5035, 1.48502, 1.47976, 1.46158, 1.45742, 1.45227, 1.44856, 1.44987, 1.44101, 1.4411, 1.44332, 1.44553, 1.4443, 1.44445, 1.43927, 1.43235, 1.43117, 1.43109, 1.42946, 1.42163, 1.41977, 1.41821, 1.42021, 1.42248, 1.41193, 1.4071, 1.40598, 1.40301, 1.39979, 1.40104, 1.40108, 1.39643, 1.39267, 1.38859, 1.39011, 1.3887, 1.38798, 1.3842, 1.38583, 1.38828, 1.39566, 1.38204, 1.38147, 1.38543, 1.37498, 1.38787, 1.38507, 1.38352, 1.36902, 1.39794, 1.42717, 1.4644, 1.50532, 1.51765, 1.53645, 1.55311, 1.53292, 1.52996, 1.44951, 1.35508, 1.36329, 1.35393, 1.34595, 1.34861, 1.34422, 1.341, 1.33664, 1.33617, 1.33612, 1.33513, 1.33797, 1.33671, 
1.68729, 1.68328, 1.70337, 1.68302, 1.67642, 1.67013, 1.67299, 1.6629, 1.66559, 1.65546, 1.66792, 1.65116, 1.65093, 1.66144, 1.64706, 1.63233, 1.67219, 1.70236, 1.77393, 1.84058, 1.87359, 1.90931, 1.81799, 1.68922, 1.59419, 1.60779, 1.63359, 1.62608, 1.61694, 1.59992, 1.60003, 1.60268, 1.60099, 1.58977, 1.59273, 1.58214, 1.57761, 1.57558, 1.57109, 1.56926, 1.56608, 1.56554, 1.56101, 1.56627, 1.56543, 1.55314, 1.55351, 1.55372, 1.56483, 1.56348, 1.54661, 1.54375, 1.54579, 1.5475, 1.53293, 1.5303, 1.53417, 1.52335, 1.51968, 1.51484, 1.5154, 1.5164, 1.51002, 1.51774, 1.50992, 1.51598, 1.47635, 1.48355, 1.5583, 1.60032, 1.64256, 1.65055, 1.64252, 1.61702, 1.58205, 1.54068, 1.48539, 1.48528, 1.48554, 1.48643, 1.47412, 1.47991, 1.47815, 1.47542, 1.46437, 1.45172, 1.45028, 1.45078, 1.46078, 1.44908, 1.44727, 1.44643, 1.44531, 1.44174, 1.44, 1.43769, 1.43592, 1.43674, 1.43326, 1.43059, 1.42797, 1.42691, 1.4465, 1.42379, 1.4228, 1.41873, 1.41443, 1.41084, 1.41253, 1.41336, 1.40386, 1.4013, 1.39802, 1.39648, 1.39287, 1.40339, 1.39279, 1.39225, 1.38897, 1.39022, 1.42388, 1.38674, 1.38224, 1.3814, 1.37886, 1.3786, 1.39096, 1.38174, 1.38867, 1.34798, 1.40098, 1.42267, 1.45707, 1.48903, 1.5579, 1.56428, 1.56187, 1.55853, 1.49516, 1.39789, 1.36431, 1.36491, 1.36783, 1.36286, 1.35436, 1.35085, 1.36396, 1.34788, 1.34755, 1.34126, 1.33705, 1.33727, 1.35997, 
1.67421, 1.67026, 1.66833, 1.66855, 1.66041, 1.65794, 1.65466, 1.65139, 1.64807, 1.64176, 1.63738, 1.63667, 1.63105, 1.62762, 1.6193, 1.59142, 1.65592, 1.71387, 1.79316, 1.9247, 1.90376, 1.89866, 1.87667, 1.63849, 1.58614, 1.57297, 1.59446, 1.59526, 1.59064, 1.58564, 1.58971, 1.58086, 1.5786, 1.57587, 1.57228, 1.57102, 1.56934, 1.56788, 1.56532, 1.56152, 1.55794, 1.55479, 1.55452, 1.54774, 1.54316, 1.5399, 1.53634, 1.54157, 1.54322, 1.56082, 1.5479, 1.54422, 1.52225, 1.52052, 1.51901, 1.51355, 1.5108, 1.50861, 1.5058, 1.50373, 1.50681, 1.51076, 1.49963, 1.50254, 1.50199, 1.51099, 1.46998, 1.47889, 1.5291, 1.62969, 1.64012, 1.63895, 1.63659, 1.6301, 1.58491, 1.56085, 1.49162, 1.4406, 1.46809, 1.47377, 1.46198, 1.47369, 1.47115, 1.48036, 1.47143, 1.4513, 1.44186, 1.43922, 1.43804, 1.43627, 1.43431, 1.43007, 1.42892, 1.4269, 1.42387, 1.41975, 1.41784, 1.41694, 1.41278, 1.41255, 1.41016, 1.40834, 1.40474, 1.40346, 1.40027, 1.39847, 1.39645, 1.39524, 1.39238, 1.39326, 1.39168, 1.3881, 1.38487, 1.38528, 1.38513, 1.37909, 1.37762, 1.37775, 1.37519, 1.37184, 1.36978, 1.36897, 1.36803, 1.36418, 1.3629, 1.3626, 1.36165, 1.37315, 1.37188, 1.33242, 1.33227, 1.40332, 1.43024, 1.47075, 1.50691, 1.52173, 1.55777, 1.52694, 1.46227, 1.39751, 1.33679, 1.34273, 1.34305, 1.3382, 1.33525, 1.33128, 1.32945, 1.32586, 1.32307, 1.32291, 1.32068, 1.32014, 1.32268, 
1.66864, 1.66303, 1.66205, 1.65778, 1.65544, 1.6507, 1.64892, 1.66978, 1.64144, 1.63986, 1.64363, 1.63151, 1.62748, 1.63247, 1.63353, 1.60613, 1.6965, 1.74269, 1.75124, 1.82146, 1.88398, 1.88806, 1.79805, 1.74918, 1.6537, 1.59719, 1.59786, 1.59613, 1.59082, 1.58639, 1.58312, 1.57826, 1.57519, 1.57403, 1.57046, 1.56684, 1.56474, 1.56567, 1.56309, 1.56075, 1.55644, 1.55304, 1.54872, 1.54557, 1.54179, 1.53728, 1.53521, 1.5331, 1.54073, 1.5473, 1.53137, 1.5427, 1.52468, 1.52102, 1.51949, 1.51694, 1.5158, 1.51473, 1.51243, 1.51007, 1.50554, 1.50461, 1.50165, 1.49975, 1.51273, 1.51896, 1.49261, 1.50689, 1.49971, 1.54757, 1.63408, 1.63512, 1.6107, 1.6128, 1.58958, 1.56201, 1.47975, 1.44787, 1.48121, 1.47997, 1.47317, 1.45902, 1.46341, 1.47173, 1.47468, 1.45529, 1.44556, 1.44563, 1.45384, 1.45864, 1.45072, 1.4273, 1.42576, 1.42278, 1.4224, 1.41837, 1.41534, 1.41357, 1.41192, 1.40888, 1.40779, 1.40567, 1.40369, 1.40252, 1.40022, 1.39843, 1.3951, 1.39458, 1.39393, 1.39224, 1.38944, 1.38806, 1.38597, 1.38219, 1.37932, 1.37543, 1.37483, 1.37242, 1.37118, 1.36979, 1.37109, 1.36818, 1.36353, 1.36148, 1.36018, 1.35907, 1.3615, 1.35778, 1.35807, 1.36401, 1.3439, 1.42374, 1.50658, 1.50612, 1.55084, 1.56064, 1.57033, 1.53959, 1.48651, 1.34342, 1.29652, 1.34064, 1.33731, 1.33064, 1.32893, 1.32665, 1.32515, 1.32209, 1.32079, 1.31701, 1.31644, 1.31998, 1.31761, 
1.66306, 1.65935, 1.65382, 1.65169, 1.64996, 1.64546, 1.64181, 1.64032, 1.63586, 1.63788, 1.63791, 1.63787, 1.64365, 1.63866, 1.63493, 1.61986, 1.65734, 1.69408, 1.782, 1.82975, 1.88628, 1.89271, 1.86463, 1.64554, 1.60164, 1.59253, 1.5973, 1.60374, 1.60269, 1.59022, 1.58332, 1.57934, 1.58275, 1.56969, 1.56607, 1.56131, 1.55814, 1.55336, 1.55675, 1.55752, 1.55647, 1.55208, 1.54757, 1.54423, 1.54107, 1.53839, 1.53504, 1.53753, 1.53228, 1.53689, 1.54088, 1.54113, 1.54432, 1.52041, 1.51773, 1.52, 1.52971, 1.52266, 1.53078, 1.51237, 1.51019, 1.50365, 1.51511, 1.50578, 1.51736, 1.5194, 1.48821, 1.47467, 1.49892, 1.53508, 1.59818, 1.61424, 1.62155, 1.61062, 1.60024, 1.54774, 1.49311, 1.45514, 1.47206, 1.47181, 1.45922, 1.4553, 1.46261, 1.46878, 1.47808, 1.45732, 1.44655, 1.45423, 1.45367, 1.45733, 1.4338, 1.43373, 1.42978, 1.43035, 1.42988, 1.42526, 1.42266, 1.41965, 1.41918, 1.41893, 1.41573, 1.41563, 1.41234, 1.41124, 1.41018, 1.40902, 1.41584, 1.41251, 1.40177, 1.40012, 1.39805, 1.39545, 1.39266, 1.38897, 1.3927, 1.38423, 1.3826, 1.38182, 1.38092, 1.37781, 1.39963, 1.37449, 1.37942, 1.38887, 1.381, 1.36707, 1.36741, 1.37625, 1.38907, 1.37706, 1.35894, 1.41751, 1.4549, 1.46786, 1.50628, 1.53388, 1.5466, 1.5257, 1.46156, 1.36191, 1.31521, 1.33843, 1.3515, 1.33319, 1.32949, 1.32829, 1.33009, 1.33685, 1.32589, 1.32348, 1.32438, 1.32201, 1.31975, 
1.67049, 1.66698, 1.66215, 1.66112, 1.66466, 1.65616, 1.65252, 1.64706, 1.64586, 1.64215, 1.63837, 1.63543, 1.63737, 1.63362, 1.63772, 1.60337, 1.64755, 1.72822, 1.79467, 1.83753, 1.88397, 1.91542, 1.90619, 1.66508, 1.60966, 1.58921, 1.60057, 1.59985, 1.59162, 1.58562, 1.58291, 1.58137, 1.57649, 1.57247, 1.56774, 1.56446, 1.55768, 1.56082, 1.55732, 1.55889, 1.55832, 1.55358, 1.55079, 1.54787, 1.54452, 1.55102, 1.54003, 1.53668, 1.53297, 1.53366, 1.52816, 1.53814, 1.53992, 1.54708, 1.51962, 1.51622, 1.51653, 1.50853, 1.50643, 1.50558, 1.50311, 1.50095, 1.49912, 1.49605, 1.4968, 1.50279, 1.49563, 1.50883, 1.53363, 1.52452, 1.55438, 1.59387, 1.57512, 1.58918, 1.58362, 1.55745, 1.52586, 1.43728, 1.46905, 1.46151, 1.45321, 1.44758, 1.44745, 1.45484, 1.46743, 1.46017, 1.45452, 1.43779, 1.43646, 1.43336, 1.43947, 1.43055, 1.42949, 1.42752, 1.42495, 1.42338, 1.42039, 1.41697, 1.41592, 1.41406, 1.4121, 1.4106, 1.41025, 1.40782, 1.40393, 1.40214, 1.40152, 1.39913, 1.39781, 1.39586, 1.39197, 1.39082, 1.38739, 1.38527, 1.38253, 1.37896, 1.37785, 1.37637, 1.37463, 1.37369, 1.37202, 1.39462, 1.36895, 1.36794, 1.36823, 1.36568, 1.36671, 1.37116, 1.37195, 1.36806, 1.37153, 1.38894, 1.47523, 1.49658, 1.5476, 1.56068, 1.55888, 1.53792, 1.47149, 1.34695, 1.31778, 1.3403, 1.34308, 1.33734, 1.33022, 1.3294, 1.3279, 1.32747, 1.32563, 1.32586, 1.32166, 1.32219, 1.3195, 
1.67141, 1.67028, 1.66867, 1.66575, 1.67138, 1.65879, 1.65643, 1.65351, 1.65183, 1.64405, 1.64231, 1.63746, 1.63391, 1.63501, 1.64497, 1.61609, 1.63371, 1.72057, 1.75092, 1.81828, 1.87326, 1.87983, 1.87204, 1.75436, 1.607, 1.58964, 1.60364, 1.60089, 1.61134, 1.5997, 1.5886, 1.58582, 1.59273, 1.57065, 1.56785, 1.56664, 1.564, 1.56123, 1.5592, 1.55924, 1.55586, 1.55473, 1.55209, 1.55065, 1.54478, 1.54105, 1.53884, 1.53711, 1.53395, 1.52973, 1.52786, 1.53427, 1.55438, 1.54132, 1.52151, 1.52318, 1.51509, 1.51007, 1.50786, 1.50405, 1.50931, 1.50909, 1.50595, 1.50952, 1.50508, 1.50676, 1.48952, 1.47537, 1.48494, 1.53008, 1.57154, 1.60274, 1.61981, 1.63465, 1.58626, 1.55151, 1.49901, 1.44332, 1.47552, 1.46428, 1.46037, 1.4526, 1.44884, 1.44896, 1.46093, 1.47065, 1.46809, 1.44873, 1.44672, 1.43675, 1.43244, 1.43142, 1.42911, 1.42761, 1.42566, 1.42398, 1.41916, 1.41711, 1.41733, 1.41324, 1.41317, 1.41196, 1.40893, 1.40605, 1.40955, 1.40304, 1.40006, 1.39842, 1.39527, 1.39784, 1.39152, 1.38978, 1.3866, 1.38572, 1.38322, 1.38198, 1.38037, 1.3782, 1.37807, 1.3762, 1.37633, 1.37332, 1.37308, 1.37141, 1.37095, 1.3688, 1.36863, 1.36901, 1.3694, 1.37133, 1.37423, 1.40652, 1.43063, 1.47189, 1.53434, 1.57106, 1.57847, 1.55855, 1.49968, 1.42403, 1.35089, 1.35139, 1.35667, 1.3409, 1.35489, 1.33713, 1.33455, 1.33218, 1.33033, 1.32958, 1.32769, 1.32683, 1.32336, 
1.66886, 1.66659, 1.66477, 1.66212, 1.65834, 1.65658, 1.65689, 1.65776, 1.64717, 1.6436, 1.6411, 1.63824, 1.63594, 1.63398, 1.6479, 1.59967, 1.64485, 1.67212, 1.70926, 1.77121, 1.87216, 1.92148, 1.90279, 1.69286, 1.5882, 1.57929, 1.60966, 1.59524, 1.58953, 1.58323, 1.59143, 1.57836, 1.5749, 1.57257, 1.56987, 1.57808, 1.56755, 1.56185, 1.56221, 1.55723, 1.55809, 1.55324, 1.55205, 1.54832, 1.54576, 1.54203, 1.54012, 1.53561, 1.53321, 1.53001, 1.52767, 1.53432, 1.52393, 1.5401, 1.5331, 1.52808, 1.51736, 1.51591, 1.50793, 1.50715, 1.50408, 1.50188, 1.49903, 1.49939, 1.49817, 1.51387, 1.50957, 1.46173, 1.48635, 1.57562, 1.58307, 1.57703, 1.57144, 1.59446, 1.58169, 1.57513, 1.50697, 1.43434, 1.47451, 1.48129, 1.46543, 1.45269, 1.44868, 1.45791, 1.4521, 1.45527, 1.47079, 1.45488, 1.45174, 1.43758, 1.431, 1.42852, 1.42713, 1.4258, 1.42324, 1.41935, 1.41912, 1.42012, 1.41771, 1.41632, 1.41391, 1.41244, 1.41162, 1.40766, 1.40511, 1.40214, 1.39965, 1.39846, 1.39642, 1.39441, 1.39267, 1.38616, 1.38502, 1.38397, 1.38183, 1.38098, 1.37895, 1.3781, 1.37532, 1.37757, 1.37578, 1.37461, 1.37316, 1.36936, 1.36793, 1.36391, 1.36061, 1.37112, 1.36257, 1.36055, 1.35948, 1.37539, 1.43219, 1.46598, 1.53321, 1.58479, 1.56427, 1.54751, 1.47854, 1.40716, 1.30912, 1.35754, 1.34898, 1.35058, 1.34374, 1.34755, 1.33608, 1.35127, 1.33025, 1.32841, 1.32769, 1.32404, 1.32366, 
1.67201, 1.68236, 1.66801, 1.66152, 1.6616, 1.65534, 1.65097, 1.64719, 1.64483, 1.64527, 1.64011, 1.65379, 1.63693, 1.6413, 1.63686, 1.63001, 1.62717, 1.70242, 1.75234, 1.78365, 1.86856, 1.90936, 1.90134, 1.81411, 1.58742, 1.59236, 1.60693, 1.62117, 1.59414, 1.60837, 1.5882, 1.58923, 1.58063, 1.57748, 1.5728, 1.57786, 1.56996, 1.56338, 1.56256, 1.56051, 1.55825, 1.5572, 1.55412, 1.55218, 1.55053, 1.5468, 1.54159, 1.54029, 1.54047, 1.53163, 1.53094, 1.52723, 1.52585, 1.52636, 1.52933, 1.54842, 1.52892, 1.52006, 1.51659, 1.5136, 1.51459, 1.52041, 1.50471, 1.50636, 1.51059, 1.51996, 1.49246, 1.49495, 1.52639, 1.57227, 1.58977, 1.62301, 1.60344, 1.59104, 1.57306, 1.54693, 1.47793, 1.46479, 1.46759, 1.47346, 1.47341, 1.45753, 1.45429, 1.45755, 1.45141, 1.454, 1.4476, 1.47311, 1.44767, 1.43659, 1.45069, 1.43427, 1.42996, 1.42638, 1.42561, 1.42334, 1.42201, 1.4222, 1.42077, 1.42068, 1.41448, 1.41282, 1.41167, 1.40934, 1.40571, 1.40274, 1.40049, 1.39922, 1.39694, 1.39435, 1.39203, 1.38877, 1.3877, 1.38595, 1.3817, 1.38061, 1.37826, 1.375, 1.37887, 1.37529, 1.37336, 1.3685, 1.36835, 1.38253, 1.36655, 1.36478, 1.3637, 1.36525, 1.36466, 1.37193, 1.33528, 1.39059, 1.43442, 1.47264, 1.5214, 1.58998, 1.60047, 1.56179, 1.43955, 1.40268, 1.3293, 1.36369, 1.36683, 1.34406, 1.3445, 1.35599, 1.33506, 1.33316, 1.33368, 1.34015, 1.33096, 1.32693, 1.32598, 
1.66846, 1.66742, 1.66514, 1.66013, 1.65559, 1.65363, 1.65057, 1.64602, 1.64442, 1.63891, 1.64821, 1.63858, 1.63697, 1.6355, 1.64084, 1.6309, 1.61245, 1.63826, 1.72417, 1.77297, 1.89192, 1.94104, 1.97585, 1.74794, 1.57596, 1.60245, 1.60219, 1.60529, 1.58988, 1.58885, 1.59315, 1.58159, 1.57821, 1.57556, 1.5699, 1.56672, 1.56333, 1.56316, 1.55824, 1.55699, 1.55531, 1.55424, 1.55218, 1.5471, 1.54767, 1.54555, 1.5375, 1.53514, 1.53318, 1.53034, 1.52925, 1.52475, 1.52759, 1.52176, 1.54109, 1.53354, 1.54118, 1.51617, 1.51231, 1.5207, 1.51002, 1.51638, 1.50327, 1.49888, 1.49874, 1.49992, 1.49367, 1.47833, 1.47518, 1.52756, 1.58124, 1.59622, 1.5736, 1.58707, 1.56722, 1.51573, 1.47065, 1.43753, 1.45884, 1.47128, 1.46358, 1.46126, 1.45389, 1.45171, 1.44862, 1.44714, 1.4455, 1.45679, 1.46401, 1.45263, 1.44577, 1.43363, 1.42673, 1.42575, 1.42574, 1.42587, 1.4233, 1.42182, 1.41958, 1.4164, 1.41457, 1.41393, 1.41146, 1.40974, 1.40604, 1.40388, 1.4028, 1.40145, 1.39843, 1.39565, 1.39895, 1.39094, 1.38647, 1.38472, 1.37997, 1.3765, 1.37426, 1.37096, 1.36922, 1.36782, 1.36837, 1.36972, 1.3694, 1.36419, 1.36287, 1.36472, 1.36184, 1.36233, 1.36679, 1.36601, 1.3643, 1.39642, 1.45561, 1.48406, 1.56756, 1.63103, 1.62604, 1.65676, 1.52436, 1.40663, 1.32055, 1.34289, 1.34144, 1.33512, 1.33308, 1.33117, 1.32862, 1.33067, 1.33132, 1.32629, 1.32934, 1.32873, 1.32634, 
1.66896, 1.66376, 1.66632, 1.6588, 1.65614, 1.6505, 1.64714, 1.64374, 1.6433, 1.641, 1.63846, 1.64434, 1.64091, 1.63283, 1.64767, 1.63771, 1.60341, 1.6888, 1.72499, 1.78511, 1.90417, 1.91346, 2.00664, 1.88544, 1.57671, 1.57765, 1.59844, 1.60566, 1.59302, 1.58823, 1.58909, 1.57822, 1.57601, 1.57366, 1.57215, 1.56859, 1.56506, 1.56485, 1.55714, 1.55395, 1.55544, 1.56254, 1.54682, 1.54405, 1.54864, 1.53938, 1.53516, 1.53369, 1.53114, 1.52883, 1.52673, 1.52045, 1.52001, 1.52126, 1.52019, 1.5259, 1.54505, 1.52689, 1.51594, 1.5103, 1.50874, 1.5023, 1.50135, 1.49954, 1.49837, 1.50573, 1.4931, 1.48208, 1.51303, 1.57913, 1.59843, 1.5926, 1.58411, 1.56563, 1.56469, 1.54873, 1.55708, 1.44835, 1.47553, 1.47443, 1.47478, 1.45563, 1.45318, 1.44762, 1.44439, 1.44267, 1.44005, 1.46798, 1.48216, 1.46904, 1.45118, 1.45748, 1.43298, 1.42433, 1.43044, 1.42131, 1.42006, 1.41935, 1.41899, 1.41879, 1.41421, 1.41374, 1.41244, 1.41165, 1.40889, 1.4089, 1.40481, 1.40208, 1.40003, 1.39716, 1.39631, 1.39416, 1.39248, 1.38777, 1.38615, 1.38191, 1.37833, 1.37746, 1.37162, 1.36954, 1.38247, 1.37062, 1.36969, 1.36893, 1.36814, 1.3679, 1.36863, 1.36853, 1.37673, 1.3759, 1.35478, 1.38505, 1.43377, 1.50689, 1.5554, 1.60316, 1.628, 1.61687, 1.56501, 1.3949, 1.334, 1.34468, 1.35062, 1.35208, 1.33797, 1.33992, 1.34888, 1.3357, 1.332, 1.3302, 1.32858, 1.32706, 1.32277, 
1.66889, 1.66593, 1.66402, 1.65865, 1.65533, 1.66107, 1.6479, 1.64345, 1.63895, 1.63911, 1.6389, 1.63593, 1.63464, 1.63328, 1.63159, 1.63723, 1.60335, 1.61767, 1.6967, 1.75243, 1.83446, 1.75506, 2.03932, 1.7695, 1.58611, 1.58367, 1.59607, 1.5926, 1.58853, 1.58578, 1.58293, 1.57852, 1.5753, 1.57348, 1.57111, 1.56649, 1.56321, 1.56099, 1.55809, 1.55621, 1.55404, 1.5526, 1.54877, 1.54675, 1.54256, 1.53957, 1.53647, 1.5306, 1.52931, 1.52719, 1.52288, 1.52051, 1.51694, 1.517, 1.52316, 1.51749, 1.51948, 1.54076, 1.51259, 1.50977, 1.5079, 1.50397, 1.50074, 1.50812, 1.50352, 1.50515, 1.5042, 1.48206, 1.51469, 1.56466, 1.62663, 1.59374, 1.57398, 1.5618, 1.56409, 1.55416, 1.48282, 1.46948, 1.45785, 1.48151, 1.47455, 1.46428, 1.45207, 1.4474, 1.44459, 1.44135, 1.44102, 1.44019, 1.4426, 1.45165, 1.44513, 1.41862, 1.42606, 1.42169, 1.41936, 1.41884, 1.41794, 1.41659, 1.41583, 1.41195, 1.40991, 1.40822, 1.40563, 1.40483, 1.40455, 1.40285, 1.40171, 1.40059, 1.39862, 1.39822, 1.39606, 1.39486, 1.39288, 1.39064, 1.38771, 1.388, 1.38298, 1.3805, 1.37885, 1.38155, 1.37244, 1.37013, 1.36937, 1.37889, 1.36806, 1.36412, 1.36354, 1.36363, 1.36507, 1.36726, 1.34147, 1.34424, 1.41661, 1.50563, 1.54392, 1.59391, 1.65434, 1.62062, 1.46439, 1.41448, 1.32889, 1.34787, 1.35368, 1.34034, 1.33452, 1.3365, 1.33093, 1.32775, 1.33104, 1.32731, 1.32577, 1.32151, 1.32233, 
1.67121, 1.66302, 1.65983, 1.65463, 1.65116, 1.6475, 1.65263, 1.64475, 1.64388, 1.64062, 1.64072, 1.63769, 1.63512, 1.63188, 1.63844, 1.63256, 1.60001, 1.64781, 1.68874, 1.78988, 1.84781, 1.94959, 1.93072, 1.88381, 1.58883, 1.5965, 1.60315, 1.60866, 1.5866, 1.58303, 1.5796, 1.57705, 1.57524, 1.57173, 1.56828, 1.56621, 1.57169, 1.56271, 1.55974, 1.55836, 1.55481, 1.55342, 1.54936, 1.54726, 1.54516, 1.54386, 1.53838, 1.53676, 1.53386, 1.52996, 1.52513, 1.52086, 1.51818, 1.5162, 1.51653, 1.51328, 1.5225, 1.53758, 1.54409, 1.51336, 1.50824, 1.5157, 1.50609, 1.49952, 1.50509, 1.49685, 1.50257, 1.48899, 1.54699, 1.5864, 1.57108, 1.56033, 1.55204, 1.54963, 1.54812, 1.53068, 1.51241, 1.44283, 1.4507, 1.46625, 1.46518, 1.45634, 1.45257, 1.46165, 1.46451, 1.45094, 1.46273, 1.44053, 1.45908, 1.44776, 1.43936, 1.43293, 1.43351, 1.4209, 1.4194, 1.41878, 1.41929, 1.41598, 1.41364, 1.41259, 1.40824, 1.40616, 1.40382, 1.40246, 1.40124, 1.40268, 1.40061, 1.39856, 1.3957, 1.3925, 1.39129, 1.38848, 1.38737, 1.38532, 1.38277, 1.3823, 1.38264, 1.38148, 1.38113, 1.3788, 1.37802, 1.37648, 1.37584, 1.37212, 1.36968, 1.36772, 1.36492, 1.36703, 1.36832, 1.36747, 1.36819, 1.33403, 1.44647, 1.47588, 1.53627, 1.57797, 1.59317, 1.58906, 1.53161, 1.42923, 1.31661, 1.34906, 1.35114, 1.34256, 1.33363, 1.33468, 1.33225, 1.33102, 1.33622, 1.32615, 1.32595, 1.32231, 1.32063, 
1.66772, 1.66508, 1.65958, 1.65292, 1.65038, 1.64561, 1.64678, 1.64485, 1.64224, 1.63891, 1.63601, 1.63679, 1.63462, 1.63079, 1.64581, 1.62874, 1.62151, 1.63407, 1.72281, 1.78351, 1.86242, 1.91413, 2.1801, 1.89559, 1.58242, 1.57276, 1.6102, 1.59219, 1.58392, 1.58873, 1.57847, 1.58215, 1.57217, 1.56901, 1.56776, 1.56551, 1.56349, 1.55929, 1.5656, 1.55447, 1.55143, 1.54813, 1.54741, 1.54028, 1.53704, 1.53503, 1.53325, 1.53048, 1.52846, 1.52729, 1.52343, 1.52159, 1.51953, 1.51628, 1.52477, 1.51194, 1.5109, 1.52988, 1.54569, 1.52638, 1.51674, 1.50178, 1.50728, 1.49257, 1.49663, 1.49471, 1.49579, 1.47459, 1.50089, 1.53793, 1.57095, 1.57135, 1.56063, 1.54361, 1.53874, 1.53403, 1.5271, 1.47539, 1.45473, 1.46847, 1.46496, 1.46131, 1.45641, 1.45786, 1.4561, 1.45807, 1.4704, 1.48381, 1.48526, 1.44142, 1.43578, 1.43117, 1.42682, 1.42359, 1.42287, 1.41959, 1.41801, 1.41598, 1.41293, 1.4125, 1.40887, 1.40647, 1.40541, 1.40358, 1.40255, 1.40116, 1.3983, 1.39607, 1.39427, 1.3927, 1.38905, 1.38816, 1.38466, 1.38274, 1.38258, 1.37865, 1.37848, 1.37734, 1.37691, 1.37808, 1.37638, 1.37426, 1.37212, 1.36956, 1.3648, 1.36408, 1.36098, 1.35885, 1.35973, 1.37604, 1.36483, 1.35093, 1.42694, 1.45663, 1.56369, 1.59132, 1.632, 1.63311, 1.51193, 1.39029, 1.32699, 1.34391, 1.34103, 1.33614, 1.33596, 1.33486, 1.33019, 1.32804, 1.3272, 1.32568, 1.32339, 1.32081, 1.32247, 
1.67226, 1.6694, 1.66596, 1.66377, 1.66239, 1.65486, 1.65286, 1.6823, 1.65825, 1.64218, 1.64179, 1.63763, 1.63379, 1.63219, 1.63757, 1.63068, 1.62824, 1.61023, 1.68801, 1.76344, 1.79686, 1.8718, 1.91301, 1.86516, 1.5905, 1.59579, 1.60162, 1.60368, 1.59776, 1.602, 1.5935, 1.579, 1.5752, 1.57257, 1.56882, 1.56729, 1.56429, 1.56769, 1.56389, 1.55279, 1.55113, 1.54589, 1.54346, 1.54174, 1.5367, 1.53317, 1.53152, 1.52832, 1.52599, 1.52383, 1.52301, 1.52324, 1.52587, 1.52019, 1.51935, 1.51713, 1.52565, 1.51336, 1.50645, 1.5453, 1.54109, 1.53004, 1.51131, 1.51373, 1.50906, 1.50011, 1.4858, 1.47223, 1.48834, 1.53076, 1.56131, 1.57161, 1.56741, 1.55133, 1.5447, 1.55715, 1.50666, 1.47391, 1.44257, 1.4501, 1.4851, 1.47399, 1.479, 1.48339, 1.5, 1.49921, 1.49122, 1.48606, 1.46036, 1.4532, 1.44522, 1.44779, 1.43765, 1.42698, 1.4268, 1.42431, 1.42109, 1.41744, 1.41435, 1.41073, 1.40737, 1.40577, 1.40344, 1.40225, 1.4003, 1.40002, 1.39811, 1.3962, 1.3918, 1.3907, 1.39035, 1.38635, 1.3859, 1.3846, 1.38279, 1.38366, 1.38153, 1.37944, 1.37842, 1.40515, 1.4019, 1.37271, 1.37077, 1.37405, 1.36635, 1.37263, 1.382, 1.3605, 1.36224, 1.37411, 1.35881, 1.36231, 1.39749, 1.47944, 1.51173, 1.60284, 1.6201, 1.61792, 1.55698, 1.44704, 1.32404, 1.35164, 1.35519, 1.34566, 1.33674, 1.34097, 1.34147, 1.33113, 1.33035, 1.32716, 1.32263, 1.32326, 1.32185, 
1.66666, 1.66432, 1.66162, 1.65926, 1.65629, 1.65398, 1.65005, 1.64756, 1.64427, 1.64038, 1.63591, 1.63306, 1.62898, 1.62658, 1.63172, 1.62712, 1.62448, 1.62717, 1.67195, 1.74576, 1.82388, 1.87702, 1.86591, 1.71456, 1.61964, 1.58298, 1.59907, 1.60272, 1.59554, 1.59713, 1.58291, 1.5809, 1.57667, 1.57876, 1.56922, 1.57191, 1.55853, 1.55869, 1.55396, 1.55051, 1.54818, 1.54457, 1.54079, 1.54393, 1.53328, 1.5444, 1.52577, 1.52673, 1.52385, 1.52255, 1.52034, 1.51786, 1.5172, 1.51583, 1.5148, 1.51362, 1.51054, 1.50831, 1.50656, 1.51707, 1.55367, 1.55532, 1.54343, 1.52786, 1.49815, 1.50931, 1.49227, 1.47267, 1.4784, 1.52524, 1.56422, 1.55732, 1.54751, 1.51786, 1.52022, 1.55382, 1.52746, 1.48858, 1.47276, 1.47993, 1.50295, 1.4788, 1.48553, 1.48227, 1.46772, 1.46168, 1.4537, 1.44729, 1.44737, 1.44771, 1.43374, 1.43086, 1.4284, 1.42547, 1.42287, 1.42004, 1.41851, 1.41606, 1.41325, 1.41231, 1.41385, 1.40316, 1.40171, 1.39858, 1.39748, 1.39815, 1.39617, 1.39542, 1.3916, 1.39118, 1.39188, 1.3892, 1.38502, 1.38498, 1.3843, 1.37925, 1.37846, 1.37562, 1.37433, 1.37303, 1.37072, 1.36952, 1.36812, 1.36473, 1.36251, 1.36038, 1.35853, 1.35686, 1.35829, 1.36102, 1.36867, 1.36485, 1.43469, 1.46919, 1.52356, 1.6049, 1.6375, 1.63445, 1.51036, 1.40461, 1.31258, 1.34312, 1.34007, 1.35356, 1.33296, 1.33034, 1.32912, 1.32891, 1.32616, 1.32296, 1.32088, 1.32059, 1.31863, 
1.65904, 1.65693, 1.65519, 1.65216, 1.65293, 1.65451, 1.65297, 1.65768, 1.64805, 1.658, 1.63818, 1.63533, 1.63157, 1.63611, 1.62542, 1.63088, 1.61815, 1.59318, 1.63717, 1.77081, 1.80991, 1.92901, 2.00734, 1.89313, 1.56276, 1.58674, 1.60353, 1.59889, 1.60292, 1.59538, 1.59956, 1.59703, 1.58655, 1.58174, 1.57963, 1.59018, 1.58668, 1.5759, 1.56076, 1.56162, 1.55287, 1.55048, 1.54751, 1.54357, 1.5413, 1.53671, 1.53424, 1.52914, 1.52644, 1.52465, 1.52271, 1.52075, 1.51966, 1.51865, 1.51261, 1.50705, 1.5188, 1.52653, 1.51712, 1.51717, 1.50674, 1.54385, 1.54774, 1.54147, 1.52159, 1.52365, 1.50243, 1.48204, 1.48889, 1.51679, 1.53032, 1.53925, 1.52649, 1.50983, 1.55782, 1.54996, 1.52254, 1.50923, 1.46347, 1.46848, 1.46642, 1.45758, 1.45679, 1.464, 1.45221, 1.4458, 1.44152, 1.44071, 1.43866, 1.4361, 1.43162, 1.42956, 1.42686, 1.42469, 1.42274, 1.42057, 1.41689, 1.41509, 1.41287, 1.40968, 1.40958, 1.40826, 1.4064, 1.40525, 1.40495, 1.40019, 1.39689, 1.39646, 1.39562, 1.40219, 1.39795, 1.3925, 1.39196, 1.3904, 1.38628, 1.39044, 1.38347, 1.38133, 1.37934, 1.37581, 1.37278, 1.38941, 1.36776, 1.36829, 1.37333, 1.36151, 1.36103, 1.35878, 1.36024, 1.36946, 1.36843, 1.35227, 1.36312, 1.47776, 1.53209, 1.59661, 1.63578, 1.65078, 1.57541, 1.46559, 1.32291, 1.34574, 1.36002, 1.35091, 1.33741, 1.33619, 1.33086, 1.33047, 1.32792, 1.32823, 1.32594, 1.32649, 1.32273, 
1.66102, 1.65862, 1.65737, 1.65667, 1.65679, 1.66272, 1.65735, 1.65063, 1.6453, 1.64908, 1.63724, 1.63587, 1.63131, 1.6282, 1.62683, 1.62402, 1.62441, 1.61769, 1.66815, 1.71319, 1.87381, 1.91485, 1.98856, 1.87531, 1.58514, 1.58707, 1.59002, 1.6029, 1.59626, 1.60538, 1.60998, 1.59025, 1.5991, 1.58269, 1.56834, 1.56604, 1.56176, 1.5587, 1.55533, 1.57154, 1.55027, 1.54574, 1.54251, 1.53948, 1.53734, 1.5362, 1.53221, 1.52909, 1.52482, 1.5214, 1.51769, 1.51668, 1.51643, 1.51447, 1.51336, 1.51088, 1.51226, 1.50631, 1.50324, 1.50002, 1.49903, 1.49847, 1.49831, 1.4956, 1.49245, 1.48788, 1.49848, 1.48528, 1.49668, 1.54675, 1.59526, 1.56723, 1.53095, 1.49867, 1.53853, 1.5266, 1.55704, 1.51043, 1.468, 1.4678, 1.47073, 1.47851, 1.45586, 1.45055, 1.4478, 1.44692, 1.44511, 1.43886, 1.43469, 1.43174, 1.42905, 1.42741, 1.42668, 1.42278, 1.41944, 1.41898, 1.41698, 1.41525, 1.41356, 1.4137, 1.41204, 1.40898, 1.40624, 1.40517, 1.40304, 1.39871, 1.39616, 1.39244, 1.39138, 1.39154, 1.38959, 1.387, 1.38548, 1.38535, 1.38423, 1.3838, 1.38099, 1.37861, 1.37755, 1.37459, 1.37156, 1.37106, 1.36757, 1.36386, 1.36289, 1.36088, 1.36018, 1.35805, 1.35995, 1.36154, 1.36979, 1.33666, 1.38143, 1.45963, 1.53262, 1.60953, 1.64155, 1.66559, 1.5434, 1.51276, 1.31019, 1.34658, 1.34872, 1.33792, 1.33564, 1.33272, 1.3295, 1.32813, 1.32431, 1.32572, 1.3244, 1.32472, 1.32413, 
1.66169, 1.65814, 1.65438, 1.65054, 1.65151, 1.64813, 1.64363, 1.63987, 1.63867, 1.63789, 1.63541, 1.63761, 1.6273, 1.62437, 1.62325, 1.62457, 1.62039, 1.62326, 1.68569, 1.70421, 1.85694, 1.93631, 2.20776, 1.9162, 1.56636, 1.56086, 1.56436, 1.58102, 1.59497, 1.59282, 1.57852, 1.59768, 1.59607, 1.59615, 1.5766, 1.58212, 1.56547, 1.56481, 1.54861, 1.5436, 1.54712, 1.54414, 1.54223, 1.53993, 1.53843, 1.53678, 1.53005, 1.52861, 1.52686, 1.521, 1.51688, 1.5156, 1.5149, 1.51199, 1.51008, 1.51032, 1.50724, 1.5032, 1.49984, 1.49888, 1.49462, 1.4924, 1.49164, 1.49182, 1.49191, 1.50366, 1.50913, 1.50008, 1.50951, 1.54642, 1.55263, 1.54151, 1.57894, 1.49347, 1.50971, 1.53708, 1.52698, 1.50297, 1.47395, 1.47465, 1.46524, 1.45871, 1.45387, 1.45191, 1.44685, 1.44329, 1.43906, 1.43805, 1.43643, 1.43313, 1.42829, 1.42615, 1.42455, 1.42599, 1.42437, 1.42287, 1.42007, 1.41692, 1.41506, 1.41256, 1.41124, 1.40834, 1.40822, 1.40296, 1.40138, 1.39888, 1.39649, 1.39609, 1.39405, 1.39305, 1.38971, 1.38989, 1.38606, 1.38395, 1.38271, 1.38056, 1.37827, 1.37585, 1.37457, 1.37179, 1.37153, 1.37248, 1.3688, 1.36606, 1.36417, 1.36125, 1.36543, 1.35992, 1.36032, 1.35834, 1.38844, 1.35065, 1.38357, 1.46154, 1.50332, 1.55571, 1.64742, 1.64022, 1.59005, 1.39459, 1.33692, 1.34396, 1.3438, 1.34291, 1.33379, 1.33154, 1.32962, 1.32873, 1.32457, 1.32692, 1.32579, 1.33379, 1.32516, 
1.65771, 1.65559, 1.65285, 1.65042, 1.64716, 1.64394, 1.64203, 1.63913, 1.63678, 1.63291, 1.63064, 1.62622, 1.62321, 1.62037, 1.63667, 1.62037, 1.61973, 1.59964, 1.62742, 1.71755, 1.80741, 1.84783, 2.01073, 1.8399, 1.56902, 1.55436, 1.56217, 1.71387, 1.82731, 1.82529, 1.6024, 1.61532, 1.61006, 1.60089, 1.6015, 1.57816, 1.5615, 1.56455, 1.57148, 1.56242, 1.55491, 1.54404, 1.54123, 1.53904, 1.53697, 1.5339, 1.53078, 1.52703, 1.52447, 1.52212, 1.51854, 1.51665, 1.5128, 1.51669, 1.50838, 1.50639, 1.50411, 1.50259, 1.49989, 1.49623, 1.49311, 1.49236, 1.49016, 1.48852, 1.48811, 1.49148, 1.50214, 1.4869, 1.54052, 1.5178, 1.53426, 1.53528, 1.52568, 1.4902, 1.49193, 1.51038, 1.52008, 1.49292, 1.46492, 1.46099, 1.47552, 1.46579, 1.45075, 1.44256, 1.43865, 1.43811, 1.43809, 1.43035, 1.42838, 1.42756, 1.42469, 1.4226, 1.42274, 1.42622, 1.42078, 1.42208, 1.42006, 1.41475, 1.40989, 1.40857, 1.40659, 1.40849, 1.40218, 1.40015, 1.39857, 1.39618, 1.39559, 1.39302, 1.38898, 1.38711, 1.38633, 1.38647, 1.38308, 1.38172, 1.37927, 1.37678, 1.3736, 1.37016, 1.36755, 1.36732, 1.36783, 1.36858, 1.37425, 1.36327, 1.36137, 1.36057, 1.35886, 1.3569, 1.35728, 1.35732, 1.3765, 1.3539, 1.327, 1.47183, 1.50579, 1.60454, 1.66101, 1.66998, 1.61475, 1.49651, 1.35006, 1.344, 1.34621, 1.33588, 1.3447, 1.33029, 1.34169, 1.33294, 1.32469, 1.33659, 1.32026, 1.32253, 1.31647, 
1.65287, 1.65107, 1.64592, 1.64487, 1.64156, 1.6433, 1.63999, 1.65779, 1.64019, 1.62729, 1.62655, 1.62978, 1.61684, 1.6161, 1.6143, 1.62351, 1.6119, 1.61093, 1.66381, 1.67267, 1.84309, 1.94831, 2.03408, 2.00386, 1.57837, 1.58234, 1.58885, 1.56808, 1.56857, 1.59179, 1.58972, 1.59875, 1.60357, 1.58805, 1.58924, 1.57308, 1.56727, 1.56255, 1.5477, 1.54522, 1.54625, 1.53908, 1.53797, 1.53405, 1.53094, 1.52951, 1.52653, 1.52257, 1.52369, 1.51831, 1.51625, 1.51254, 1.51064, 1.51052, 1.50564, 1.50186, 1.49883, 1.49679, 1.49536, 1.49256, 1.49828, 1.48777, 1.48229, 1.48488, 1.49347, 1.50248, 1.50305, 1.48979, 1.50271, 1.54766, 1.56939, 1.56471, 1.51014, 1.50598, 1.50694, 1.50433, 1.51157, 1.48919, 1.47807, 1.4554, 1.46303, 1.45212, 1.45516, 1.43946, 1.43623, 1.43309, 1.43056, 1.42891, 1.4277, 1.42724, 1.42453, 1.42398, 1.42207, 1.42054, 1.42372, 1.41478, 1.41251, 1.41406, 1.40643, 1.40499, 1.41248, 1.39916, 1.39886, 1.39694, 1.3954, 1.39556, 1.39224, 1.39002, 1.39015, 1.38833, 1.38596, 1.38246, 1.38165, 1.38041, 1.37686, 1.38002, 1.37469, 1.37185, 1.37179, 1.37178, 1.36784, 1.36569, 1.3667, 1.36143, 1.35986, 1.36084, 1.35469, 1.35477, 1.36054, 1.35393, 1.36386, 1.34701, 1.33331, 1.38894, 1.4617, 1.55768, 1.66003, 1.66687, 1.59612, 1.45673, 1.33546, 1.34091, 1.3411, 1.35331, 1.33777, 1.33316, 1.32461, 1.32999, 1.33372, 1.32291, 1.32165, 1.31767, 1.31655, 
1.64407, 1.64358, 1.64334, 1.63988, 1.63669, 1.6337, 1.63348, 1.63218, 1.62821, 1.62839, 1.62422, 1.62405, 1.61682, 1.61382, 1.61147, 1.61014, 1.6103, 1.61203, 1.63048, 1.67892, 1.79223, 1.9042, 2.00086, 1.88091, 1.66812, 1.55661, 1.5761, 1.57866, 1.5886, 1.58512, 1.58547, 1.5784, 1.57949, 1.5686, 1.56498, 1.55572, 1.5514, 1.54513, 1.54093, 1.53831, 1.53631, 1.53422, 1.53126, 1.52858, 1.52589, 1.52314, 1.52079, 1.52017, 1.51894, 1.51585, 1.51296, 1.51118, 1.50716, 1.50369, 1.49961, 1.4997, 1.49321, 1.48918, 1.48865, 1.48725, 1.48487, 1.48278, 1.47939, 1.47866, 1.47646, 1.47968, 1.48296, 1.4792, 1.51059, 1.5235, 1.53385, 1.53588, 1.58155, 1.52728, 1.50214, 1.51981, 1.51266, 1.51809, 1.47439, 1.46997, 1.47067, 1.46493, 1.44824, 1.44098, 1.43822, 1.43324, 1.43108, 1.42948, 1.42589, 1.42274, 1.41982, 1.41873, 1.41592, 1.41503, 1.4115, 1.4092, 1.4072, 1.40216, 1.39926, 1.39805, 1.39657, 1.39413, 1.39155, 1.38958, 1.39076, 1.39182, 1.39181, 1.39079, 1.39042, 1.38855, 1.38619, 1.38096, 1.38012, 1.37438, 1.36973, 1.36717, 1.36423, 1.36774, 1.36761, 1.36616, 1.36568, 1.36163, 1.36, 1.35901, 1.35951, 1.3568, 1.35425, 1.35219, 1.34896, 1.37568, 1.37144, 1.36622, 1.37819, 1.41388, 1.48553, 1.57232, 1.62722, 1.72271, 1.70114, 1.42312, 1.3138, 1.32697, 1.3327, 1.32734, 1.3223, 1.31951, 1.31777, 1.31708, 1.31927, 1.31597, 1.31591, 1.31064, 1.30988, 
1.64525, 1.64368, 1.64025, 1.63882, 1.63787, 1.63667, 1.63456, 1.63292, 1.63015, 1.63352, 1.62351, 1.62044, 1.61844, 1.6139, 1.61328, 1.61017, 1.611, 1.61756, 1.58964, 1.70309, 1.79872, 1.80133, 1.77877, 1.77987, 1.6227, 1.55003, 1.56526, 1.58306, 1.57477, 1.582, 1.57246, 1.57119, 1.56555, 1.57144, 1.55755, 1.5564, 1.55197, 1.54872, 1.59692, 1.54222, 1.53969, 1.53706, 1.53049, 1.52726, 1.52571, 1.52338, 1.52018, 1.51757, 1.51645, 1.51318, 1.51126, 1.50868, 1.50616, 1.50501, 1.4995, 1.4968, 1.49213, 1.4898, 1.48738, 1.48597, 1.48334, 1.48158, 1.47951, 1.47816, 1.47776, 1.48137, 1.48316, 1.47539, 1.49935, 1.50465, 1.52276, 1.52971, 1.53383, 1.48462, 1.48803, 1.50839, 1.49757, 1.5227, 1.48402, 1.47228, 1.47177, 1.45254, 1.45042, 1.43955, 1.43763, 1.43395, 1.43001, 1.4269, 1.42546, 1.42317, 1.42063, 1.4189, 1.41743, 1.41467, 1.41243, 1.4079, 1.40595, 1.40355, 1.39981, 1.39873, 1.39564, 1.39349, 1.39293, 1.39003, 1.38838, 1.38991, 1.39001, 1.38834, 1.38788, 1.38494, 1.38242, 1.37786, 1.37648, 1.37039, 1.36737, 1.36574, 1.36482, 1.36586, 1.36386, 1.36247, 1.36046, 1.35915, 1.35762, 1.35692, 1.35402, 1.35202, 1.34963, 1.34738, 1.34579, 1.34675, 1.35122, 1.34873, 1.32627, 1.39248, 1.43069, 1.54085, 1.56441, 1.69315, 1.67973, 1.44007, 1.31226, 1.326, 1.32908, 1.33368, 1.32428, 1.31977, 1.31965, 1.31909, 1.31788, 1.31538, 1.31492, 1.31383, 1.31199, 
1.64499, 1.63761, 1.63575, 1.63767, 1.63524, 1.63479, 1.63233, 1.6311, 1.62739, 1.62342, 1.6203, 1.61933, 1.61659, 1.60979, 1.61033, 1.61205, 1.60862, 1.60614, 1.57362, 1.68573, 1.75852, 1.91226, 1.86563, 1.75151, 1.74138, 1.56968, 1.57466, 1.59189, 1.57603, 1.57507, 1.59329, 1.57549, 1.5789, 1.56812, 1.5673, 1.5588, 1.57901, 1.54842, 1.55131, 1.54263, 1.54009, 1.53692, 1.53209, 1.52864, 1.52554, 1.52035, 1.51957, 1.51883, 1.51598, 1.51238, 1.50987, 1.50649, 1.50453, 1.50038, 1.49857, 1.49546, 1.49237, 1.48945, 1.48722, 1.48578, 1.48475, 1.48532, 1.48085, 1.47916, 1.47923, 1.48003, 1.48285, 1.47827, 1.49819, 1.50052, 1.51581, 1.55446, 1.50232, 1.50996, 1.48602, 1.49666, 1.50988, 1.51924, 1.47052, 1.45341, 1.45482, 1.44705, 1.44063, 1.43405, 1.42939, 1.42625, 1.42476, 1.4237, 1.42102, 1.41894, 1.41891, 1.41696, 1.41438, 1.41322, 1.40916, 1.40913, 1.40764, 1.40577, 1.402, 1.39821, 1.39638, 1.39275, 1.39391, 1.39541, 1.38803, 1.38758, 1.38521, 1.38325, 1.38547, 1.37581, 1.37396, 1.37127, 1.36885, 1.36617, 1.36395, 1.36337, 1.36089, 1.36118, 1.36015, 1.35846, 1.35842, 1.35844, 1.35409, 1.35354, 1.35056, 1.34958, 1.34952, 1.36109, 1.34425, 1.34339, 1.34454, 1.35136, 1.31365, 1.40604, 1.50873, 1.55861, 1.58388, 1.73494, 1.68124, 1.48938, 1.29515, 1.30291, 1.32874, 1.33327, 1.32257, 1.3208, 1.32623, 1.32083, 1.31833, 1.31621, 1.31516, 1.3164, 1.30902, 
1.64378, 1.64047, 1.63735, 1.63418, 1.63186, 1.63065, 1.62841, 1.62571, 1.62385, 1.62077, 1.61902, 1.61447, 1.61127, 1.62001, 1.60945, 1.60943, 1.60139, 1.60273, 1.605, 1.65925, 1.73615, 1.81498, 1.7376, 1.73697, 1.6837, 1.56952, 1.57731, 1.5894, 1.57614, 1.57905, 1.56937, 1.57544, 1.56144, 1.55707, 1.55413, 1.55047, 1.54601, 1.54097, 1.54785, 1.53694, 1.53698, 1.53361, 1.53178, 1.53077, 1.5275, 1.52526, 1.52215, 1.51888, 1.51617, 1.51392, 1.51298, 1.50682, 1.50506, 1.50027, 1.49869, 1.49454, 1.49249, 1.48994, 1.4876, 1.48536, 1.48421, 1.48344, 1.48041, 1.4784, 1.48455, 1.4896, 1.49269, 1.48985, 1.48958, 1.49009, 1.50613, 1.50368, 1.50555, 1.48513, 1.47677, 1.50189, 1.48636, 1.47866, 1.48387, 1.46075, 1.45551, 1.44785, 1.44462, 1.42799, 1.42556, 1.42492, 1.42354, 1.42372, 1.4226, 1.42095, 1.41962, 1.41545, 1.41236, 1.40996, 1.40815, 1.40433, 1.40135, 1.40173, 1.39941, 1.39815, 1.39591, 1.39309, 1.39254, 1.38972, 1.3849, 1.38139, 1.38024, 1.37922, 1.37505, 1.3744, 1.36766, 1.36554, 1.36411, 1.36264, 1.3605, 1.36522, 1.35931, 1.35899, 1.35924, 1.35987, 1.35807, 1.35721, 1.37679, 1.36134, 1.35152, 1.34877, 1.35409, 1.34714, 1.3439, 1.34724, 1.34317, 1.35143, 1.32311, 1.39358, 1.45907, 1.5345, 1.61031, 1.72538, 1.66143, 1.49212, 1.28179, 1.3155, 1.32972, 1.33372, 1.31907, 1.31696, 1.31638, 1.327, 1.31562, 1.31303, 1.31711, 1.30926, 1.30687, 
1.63593, 1.63489, 1.63248, 1.63021, 1.62981, 1.62246, 1.61958, 1.61698, 1.6134, 1.61146, 1.61031, 1.60756, 1.60247, 1.59935, 1.60138, 1.60705, 1.60262, 1.59244, 1.5623, 1.65541, 1.73763, 1.79634, 2.1357, 1.86481, 1.74097, 1.54335, 1.57582, 1.57756, 1.56556, 1.56093, 1.55581, 1.5541, 1.55025, 1.55526, 1.5477, 1.53802, 1.53202, 1.52996, 1.52631, 1.525, 1.52496, 1.52422, 1.53162, 1.52124, 1.51934, 1.51652, 1.51323, 1.51202, 1.50718, 1.50617, 1.50255, 1.4994, 1.49525, 1.49222, 1.48975, 1.48572, 1.48394, 1.47942, 1.47849, 1.47603, 1.49643, 1.4725, 1.47892, 1.46874, 1.4823, 1.47098, 1.4785, 1.48191, 1.476, 1.49611, 1.50733, 1.5079, 1.50617, 1.46754, 1.47315, 1.47862, 1.52667, 1.47963, 1.47936, 1.44619, 1.44128, 1.43845, 1.42787, 1.42216, 1.41857, 1.41625, 1.41664, 1.41392, 1.41358, 1.41331, 1.41255, 1.40863, 1.40647, 1.40322, 1.39876, 1.39679, 1.39231, 1.39203, 1.39055, 1.38929, 1.39024, 1.38441, 1.38439, 1.38065, 1.3783, 1.37707, 1.37439, 1.36985, 1.36718, 1.36401, 1.36489, 1.35937, 1.35719, 1.35749, 1.35609, 1.35775, 1.34992, 1.35238, 1.35308, 1.35344, 1.35085, 1.34984, 1.34804, 1.34652, 1.34421, 1.3472, 1.33719, 1.33699, 1.33621, 1.33748, 1.33634, 1.33763, 1.30549, 1.34724, 1.40926, 1.49121, 1.6084, 1.72036, 1.59208, 1.44701, 1.32047, 1.30731, 1.31258, 1.31086, 1.31012, 1.30916, 1.30914, 1.30924, 1.30568, 1.30262, 1.299, 1.29814, 1.29609, 
1.64099, 1.63482, 1.63157, 1.62995, 1.63018, 1.62185, 1.62822, 1.61719, 1.63905, 1.6106, 1.63388, 1.61613, 1.60593, 1.60067, 1.59722, 1.59842, 1.60011, 1.60531, 1.59645, 1.64137, 1.71666, 1.92464, 1.99945, 2.00326, 1.74411, 1.57893, 1.56925, 1.59054, 1.56859, 1.55745, 1.55701, 1.55246, 1.54975, 1.54203, 1.56174, 1.54139, 1.53398, 1.52986, 1.52726, 1.52419, 1.52109, 1.51995, 1.51954, 1.51833, 1.5142, 1.512, 1.51989, 1.50736, 1.50521, 1.50354, 1.49888, 1.49398, 1.49154, 1.48949, 1.49293, 1.4844, 1.48156, 1.48043, 1.47706, 1.47674, 1.47192, 1.46922, 1.46711, 1.47542, 1.46402, 1.46548, 1.46899, 1.47839, 1.48154, 1.46363, 1.49692, 1.51583, 1.492, 1.48752, 1.46954, 1.48376, 1.48577, 1.48322, 1.49945, 1.44157, 1.44165, 1.4374, 1.42474, 1.42232, 1.41496, 1.41236, 1.41257, 1.40985, 1.41045, 1.41058, 1.4075, 1.41584, 1.40499, 1.39973, 1.39763, 1.39561, 1.39152, 1.38982, 1.39164, 1.39258, 1.38393, 1.38133, 1.38081, 1.37836, 1.37799, 1.37538, 1.37568, 1.37228, 1.36771, 1.36443, 1.36225, 1.35818, 1.35584, 1.35254, 1.35103, 1.3527, 1.34867, 1.35095, 1.35306, 1.35248, 1.35053, 1.34882, 1.35294, 1.34528, 1.34453, 1.33927, 1.33748, 1.35122, 1.34433, 1.33203, 1.33333, 1.33358, 1.33644, 1.31418, 1.41336, 1.49657, 1.57039, 1.71678, 1.67244, 1.51084, 1.27897, 1.31295, 1.31594, 1.33357, 1.30981, 1.30929, 1.31016, 1.30589, 1.30229, 1.31746, 1.30131, 1.29835, 1.30121, 
1.63418, 1.63185, 1.62814, 1.62425, 1.62627, 1.62276, 1.61666, 1.6139, 1.60883, 1.6095, 1.60432, 1.60567, 1.60008, 1.59786, 1.59912, 1.61316, 1.61222, 1.59757, 1.58357, 1.61443, 1.69216, 1.79691, 1.91016, 1.97681, 1.78525, 1.54288, 1.56527, 1.56175, 1.55936, 1.55513, 1.55021, 1.54792, 1.54553, 1.5436, 1.54131, 1.53768, 1.53498, 1.54122, 1.52747, 1.52784, 1.52031, 1.5169, 1.51319, 1.51136, 1.51105, 1.50981, 1.50769, 1.50531, 1.50301, 1.49728, 1.49574, 1.4932, 1.4935, 1.48871, 1.48478, 1.48382, 1.48221, 1.47875, 1.47527, 1.47293, 1.47035, 1.46787, 1.46525, 1.46419, 1.46268, 1.46444, 1.46703, 1.46574, 1.47161, 1.48005, 1.49315, 1.4842, 1.48499, 1.47091, 1.47593, 1.49689, 1.47422, 1.48523, 1.46739, 1.45073, 1.43892, 1.43943, 1.42902, 1.4205, 1.41595, 1.41543, 1.42003, 1.41013, 1.40908, 1.4101, 1.40618, 1.40429, 1.40374, 1.40219, 1.39576, 1.39334, 1.38949, 1.38644, 1.38526, 1.385, 1.37892, 1.37793, 1.37412, 1.37162, 1.37077, 1.36881, 1.36785, 1.36917, 1.36581, 1.36564, 1.36316, 1.36208, 1.35856, 1.35511, 1.35437, 1.35242, 1.35035, 1.35076, 1.34931, 1.34602, 1.34643, 1.34677, 1.34519, 1.34366, 1.341, 1.34095, 1.339, 1.35739, 1.34387, 1.33367, 1.34733, 1.35329, 1.33752, 1.35085, 1.41694, 1.44135, 1.57184, 1.729, 1.58678, 1.48852, 1.30624, 1.32796, 1.32998, 1.32957, 1.31216, 1.31204, 1.31694, 1.3081, 1.3068, 1.31198, 1.3017, 1.29774, 1.30036, 
1.63317, 1.6284, 1.62491, 1.62097, 1.61784, 1.61476, 1.61318, 1.61114, 1.60839, 1.6016, 1.59979, 1.61349, 1.59735, 1.61181, 1.59279, 1.59145, 1.59204, 1.60413, 1.58925, 1.62066, 1.75199, 1.75442, 1.94788, 1.98357, 1.72071, 1.52874, 1.56333, 1.56107, 1.57046, 1.56522, 1.54754, 1.54694, 1.5441, 1.54814, 1.538, 1.53533, 1.53124, 1.53321, 1.52485, 1.53364, 1.5163, 1.51548, 1.51367, 1.512, 1.5173, 1.50871, 1.50616, 1.50371, 1.51258, 1.49743, 1.49317, 1.49069, 1.48716, 1.4852, 1.53813, 1.47969, 1.47745, 1.47649, 1.47566, 1.47788, 1.47002, 1.46767, 1.46437, 1.46188, 1.46053, 1.46847, 1.47523, 1.4754, 1.46925, 1.46695, 1.47117, 1.47235, 1.48598, 1.48831, 1.47205, 1.46461, 1.46993, 1.47883, 1.47826, 1.44887, 1.44699, 1.43427, 1.43131, 1.41668, 1.41894, 1.40698, 1.41225, 1.40568, 1.41225, 1.4038, 1.40346, 1.40221, 1.39923, 1.40724, 1.39476, 1.39499, 1.38996, 1.38643, 1.38337, 1.38123, 1.38131, 1.37905, 1.37547, 1.37475, 1.37795, 1.37166, 1.37096, 1.36885, 1.38796, 1.36646, 1.37064, 1.36182, 1.36148, 1.36056, 1.35578, 1.35512, 1.35228, 1.3502, 1.35367, 1.35092, 1.34655, 1.34401, 1.34438, 1.3434, 1.34112, 1.33822, 1.3384, 1.34638, 1.34794, 1.34371, 1.34823, 1.33668, 1.33406, 1.33246, 1.34152, 1.413, 1.53013, 1.60278, 1.63423, 1.41785, 1.29849, 1.32014, 1.33231, 1.31941, 1.30976, 1.30581, 1.30832, 1.30543, 1.32104, 1.3049, 1.30233, 1.3128, 1.29943, 
1.6126, 1.60578, 1.60419, 1.6024, 1.60265, 1.59548, 1.59304, 1.59703, 1.60745, 1.59138, 1.57901, 1.58164, 1.58903, 1.57233, 1.5828, 1.57266, 1.57115, 1.58515, 1.56241, 1.57495, 1.69527, 1.76814, 1.95259, 1.94681, 1.71041, 1.5243, 1.54123, 1.54857, 1.5368, 1.54143, 1.53112, 1.52699, 1.54479, 1.53489, 1.52437, 1.51758, 1.51669, 1.51325, 1.51196, 1.5089, 1.51609, 1.50079, 1.49727, 1.4963, 1.49169, 1.49647, 1.48352, 1.48169, 1.4818, 1.47699, 1.47604, 1.47011, 1.47019, 1.46926, 1.46766, 1.46691, 1.4645, 1.46294, 1.46102, 1.45833, 1.45153, 1.44919, 1.44808, 1.4478, 1.45462, 1.452, 1.46097, 1.45681, 1.45582, 1.45662, 1.46179, 1.46486, 1.48483, 1.47266, 1.45568, 1.46755, 1.48183, 1.46147, 1.44268, 1.43093, 1.42336, 1.42001, 1.40669, 1.40601, 1.41076, 1.39875, 1.407, 1.39028, 1.3927, 1.40259, 1.39476, 1.39364, 1.39207, 1.38703, 1.38184, 1.38172, 1.37808, 1.37223, 1.37111, 1.37086, 1.36842, 1.36836, 1.3655, 1.36413, 1.36103, 1.35631, 1.35501, 1.35105, 1.34431, 1.34505, 1.34346, 1.34105, 1.35077, 1.34265, 1.34257, 1.34255, 1.33681, 1.33092, 1.32895, 1.32948, 1.32673, 1.32733, 1.32905, 1.33914, 1.3261, 1.3273, 1.33281, 1.32377, 1.32575, 1.32492, 1.32675, 1.34677, 1.32401, 1.29722, 1.38224, 1.45314, 1.55824, 1.63899, 1.45754, 1.46226, 1.28584, 1.29961, 1.31233, 1.30223, 1.30201, 1.30095, 1.30703, 1.29942, 1.28913, 1.29862, 1.29154, 1.28435, 1.2796, 
1.60589, 1.60023, 1.59989, 1.60332, 1.61239, 1.60027, 1.59955, 1.59019, 1.58784, 1.583, 1.57945, 1.58032, 1.60604, 1.57406, 1.5727, 1.57232, 1.57754, 1.58006, 1.57602, 1.57578, 1.64531, 1.71184, 2.00351, 2.09734, 1.84845, 1.507, 1.54169, 1.54175, 1.54449, 1.55664, 1.5317, 1.51795, 1.5158, 1.51646, 1.51928, 1.53388, 1.51138, 1.51269, 1.5069, 1.50511, 1.50379, 1.50384, 1.50345, 1.49863, 1.49007, 1.48833, 1.48279, 1.48132, 1.47634, 1.47958, 1.48164, 1.47982, 1.481, 1.47473, 1.46802, 1.46233, 1.45808, 1.45773, 1.45604, 1.45345, 1.45302, 1.45754, 1.44424, 1.4403, 1.43725, 1.45115, 1.4501, 1.46096, 1.47108, 1.45207, 1.45039, 1.45787, 1.46696, 1.45157, 1.45773, 1.44643, 1.46378, 1.44481, 1.43436, 1.42041, 1.41449, 1.40948, 1.4073, 1.40498, 1.40001, 1.39595, 1.39149, 1.38399, 1.38316, 1.3803, 1.38354, 1.38409, 1.38347, 1.37532, 1.36567, 1.3645, 1.36762, 1.36613, 1.35756, 1.35853, 1.35672, 1.35441, 1.35457, 1.3558, 1.35466, 1.35093, 1.35, 1.34068, 1.33836, 1.33809, 1.34686, 1.33966, 1.32799, 1.33278, 1.33212, 1.33148, 1.3266, 1.32462, 1.32821, 1.32579, 1.32279, 1.31474, 1.3189, 1.32213, 1.32206, 1.31606, 1.30948, 1.30682, 1.30504, 1.30538, 1.30479, 1.31241, 1.33625, 1.28321, 1.35773, 1.43339, 1.43829, 1.48727, 1.57142, 1.49335, 1.28563, 1.2748, 1.28846, 1.29127, 1.29165, 1.2921, 1.28087, 1.27192, 1.27162, 1.27807, 1.27602, 1.27544, 1.26574, 
1.6182, 1.61729, 1.62041, 1.61566, 1.61501, 1.61006, 1.60775, 1.61057, 1.60717, 1.6066, 1.59524, 1.59832, 1.59485, 1.58638, 1.59585, 1.59406, 1.58313, 1.58294, 1.58262, 1.55473, 1.62207, 1.73043, 1.81008, 1.75517, 1.73368, 1.5517, 1.55456, 1.56584, 1.55485, 1.54671, 1.55048, 1.54771, 1.53357, 1.55104, 1.53082, 1.52756, 1.52407, 1.52182, 1.51794, 1.51336, 1.50964, 1.51641, 1.50674, 1.50622, 1.501, 1.49875, 1.49796, 1.49352, 1.49345, 1.49221, 1.48729, 1.48478, 1.48835, 1.47798, 1.47591, 1.47216, 1.49206, 1.46659, 1.4627, 1.46205, 1.46031, 1.45752, 1.45644, 1.47229, 1.45505, 1.45534, 1.46437, 1.45569, 1.47217, 1.47248, 1.46891, 1.46395, 1.46571, 1.47307, 1.46665, 1.46034, 1.45485, 1.46228, 1.45866, 1.43875, 1.43095, 1.42764, 1.42125, 1.41665, 1.41334, 1.41282, 1.40641, 1.40283, 1.40597, 1.40642, 1.39673, 1.39194, 1.39095, 1.38852, 1.3882, 1.38528, 1.38496, 1.3795, 1.37618, 1.37265, 1.37199, 1.37208, 1.37138, 1.36881, 1.36558, 1.36361, 1.36313, 1.35851, 1.35862, 1.35862, 1.35482, 1.35339, 1.35556, 1.34796, 1.34633, 1.34339, 1.34045, 1.33976, 1.33794, 1.33956, 1.33512, 1.3302, 1.33151, 1.33325, 1.33032, 1.33076, 1.33586, 1.32533, 1.32373, 1.33276, 1.33064, 1.33134, 1.32647, 1.31128, 1.34647, 1.46944, 1.5243, 1.49612, 1.47245, 1.49706, 1.36938, 1.30237, 1.31544, 1.3093, 1.30298, 1.3021, 1.30774, 1.29339, 1.3019, 1.29158, 1.29034, 1.29216, 1.28298, 
1.62678, 1.6178, 1.61247, 1.61007, 1.60874, 1.60587, 1.60201, 1.59597, 1.59195, 1.58814, 1.58535, 1.58621, 1.58201, 1.59246, 1.58895, 1.58861, 1.58261, 1.58723, 1.58025, 1.56439, 1.65972, 1.69517, 2.09641, 2.12878, 1.5718, 1.5226, 1.54338, 1.55826, 1.54073, 1.52455, 1.52526, 1.52841, 1.53737, 1.528, 1.52595, 1.52282, 1.51903, 1.51406, 1.50506, 1.4923, 1.49456, 1.49851, 1.49989, 1.50567, 1.50078, 1.50461, 1.49751, 1.49308, 1.48868, 1.48578, 1.48187, 1.47839, 1.47455, 1.47007, 1.46843, 1.46649, 1.46495, 1.46155, 1.45917, 1.4562, 1.45537, 1.45504, 1.45458, 1.45086, 1.4522, 1.45497, 1.45434, 1.4686, 1.46209, 1.45854, 1.47504, 1.47399, 1.46042, 1.45414, 1.48339, 1.45114, 1.47231, 1.45822, 1.45079, 1.44692, 1.42964, 1.42651, 1.42094, 1.40934, 1.40443, 1.40324, 1.39989, 1.39843, 1.39577, 1.39464, 1.39144, 1.38898, 1.39348, 1.38239, 1.38331, 1.38169, 1.3797, 1.37791, 1.37448, 1.37252, 1.3722, 1.37021, 1.37031, 1.36577, 1.36476, 1.36067, 1.35769, 1.35486, 1.35354, 1.35276, 1.35048, 1.34831, 1.34843, 1.34403, 1.34363, 1.34015, 1.33817, 1.33474, 1.33711, 1.33467, 1.3359, 1.32959, 1.32936, 1.33015, 1.33037, 1.3535, 1.33995, 1.32289, 1.32253, 1.31959, 1.33195, 1.33355, 1.33031, 1.32221, 1.37829, 1.48513, 1.61532, 1.60983, 1.61008, 1.53988, 1.54713, 1.52982, 1.48837, 1.31991, 1.30892, 1.3103, 1.29604, 1.30963, 1.30548, 1.317, 1.29422, 1.28604, 1.29127, 
1.61287, 1.60932, 1.60583, 1.60775, 1.61042, 1.60902, 1.60469, 1.59822, 1.59408, 1.58981, 1.58711, 1.58651, 1.58515, 1.58364, 1.5799, 1.57573, 1.58862, 1.57943, 1.57751, 1.55704, 1.55572, 1.79213, 2.03854, 2.05756, 1.63792, 1.52703, 1.56878, 1.5483, 1.54845, 1.53679, 1.53334, 1.54363, 1.53991, 1.52307, 1.52248, 1.51954, 1.52345, 1.51251, 1.50906, 1.50652, 1.50368, 1.50043, 1.4995, 1.49904, 1.49595, 1.49393, 1.49275, 1.48995, 1.48595, 1.48608, 1.48877, 1.48926, 1.47066, 1.46773, 1.46719, 1.46696, 1.46512, 1.46369, 1.45849, 1.45557, 1.45378, 1.45233, 1.45183, 1.45044, 1.45092, 1.45171, 1.46403, 1.45545, 1.46605, 1.45225, 1.47444, 1.45749, 1.4557, 1.47387, 1.44787, 1.44567, 1.45819, 1.44461, 1.44609, 1.43942, 1.43076, 1.43518, 1.41216, 1.40917, 1.40394, 1.40352, 1.39942, 1.39652, 1.39077, 1.38967, 1.38632, 1.3855, 1.38609, 1.38141, 1.38011, 1.37893, 1.37715, 1.3757, 1.37541, 1.37106, 1.37031, 1.36994, 1.36843, 1.367, 1.36399, 1.36082, 1.3591, 1.3712, 1.3571, 1.35235, 1.35343, 1.35197, 1.35171, 1.34805, 1.3452, 1.34442, 1.34049, 1.33812, 1.33696, 1.33406, 1.3321, 1.33198, 1.33107, 1.32962, 1.32943, 1.32741, 1.32384, 1.32302, 1.3193, 1.31606, 1.31455, 1.31281, 1.31487, 1.31784, 1.31134, 1.36388, 1.58555, 1.70939, 1.7296, 1.51501, 1.51756, 1.5036, 1.48572, 1.37258, 1.34787, 1.29142, 1.29018, 1.29088, 1.29154, 1.28921, 1.28852, 1.2817, 1.28077, 
1.60363, 1.60225, 1.59651, 1.59452, 1.59658, 1.59606, 1.59023, 1.58618, 1.59699, 1.60711, 1.57894, 1.5786, 1.58653, 1.58298, 1.58144, 1.57056, 1.57777, 1.57467, 1.56642, 1.53353, 1.6377, 1.7797, 1.84149, 1.84286, 1.86625, 1.55473, 1.53761, 1.53341, 1.54391, 1.52489, 1.5242, 1.52306, 1.52234, 1.51812, 1.51969, 1.53358, 1.53355, 1.51084, 1.51128, 1.50066, 1.49742, 1.49539, 1.493, 1.49091, 1.48937, 1.48754, 1.48263, 1.47934, 1.47777, 1.47615, 1.47787, 1.46818, 1.46556, 1.46378, 1.46238, 1.46111, 1.45844, 1.45846, 1.45721, 1.45331, 1.45009, 1.44873, 1.45665, 1.44569, 1.44571, 1.45517, 1.45846, 1.46795, 1.45232, 1.46578, 1.45397, 1.4485, 1.45833, 1.47817, 1.44438, 1.43679, 1.42783, 1.43254, 1.46378, 1.42725, 1.42342, 1.41325, 1.40975, 1.4002, 1.40185, 1.39342, 1.3894, 1.38818, 1.38476, 1.38387, 1.38261, 1.38104, 1.37994, 1.37769, 1.37839, 1.37506, 1.37242, 1.37181, 1.37041, 1.36625, 1.36433, 1.36339, 1.35857, 1.3572, 1.35777, 1.3538, 1.35229, 1.34953, 1.34764, 1.34407, 1.34622, 1.34631, 1.344, 1.33962, 1.33829, 1.33443, 1.33013, 1.33481, 1.32482, 1.32267, 1.32119, 1.3202, 1.32016, 1.32049, 1.31675, 1.31868, 1.31133, 1.30983, 1.30562, 1.30649, 1.30138, 1.30847, 1.30922, 1.29553, 1.27277, 1.39717, 1.53874, 1.62632, 1.8283, 1.58886, 1.47001, 1.42741, 1.40331, 1.38857, 1.31238, 1.28463, 1.28251, 1.29535, 1.27954, 1.2788, 1.2789, 1.28182, 1.27746, 
1.60346, 1.60059, 1.5981, 1.59784, 1.59549, 1.59256, 1.58899, 1.58366, 1.58243, 1.57669, 1.57452, 1.58434, 1.56929, 1.56822, 1.58037, 1.56876, 1.56233, 1.56217, 1.57541, 1.54595, 1.64124, 1.67819, 1.61211, 1.69579, 1.74121, 1.50726, 1.52785, 1.53965, 1.52256, 1.5211, 1.51827, 1.51684, 1.51553, 1.51433, 1.51403, 1.51254, 1.51084, 1.50847, 1.50598, 1.50248, 1.49881, 1.49516, 1.49059, 1.48821, 1.48371, 1.48077, 1.47678, 1.47356, 1.46913, 1.4661, 1.46658, 1.46603, 1.46394, 1.46112, 1.46054, 1.45764, 1.45717, 1.45398, 1.45443, 1.45105, 1.44634, 1.45016, 1.44315, 1.44154, 1.45659, 1.46199, 1.44792, 1.45368, 1.45988, 1.46447, 1.45082, 1.45028, 1.44594, 1.4481, 1.45685, 1.4428, 1.43721, 1.4468, 1.44788, 1.41988, 1.41014, 1.40708, 1.40292, 1.39219, 1.3882, 1.38326, 1.38128, 1.37825, 1.37713, 1.37545, 1.37482, 1.37452, 1.37285, 1.37189, 1.37155, 1.36871, 1.36811, 1.36785, 1.37546, 1.36253, 1.35878, 1.35705, 1.35446, 1.35134, 1.3463, 1.34329, 1.34151, 1.34092, 1.33857, 1.33787, 1.33434, 1.34078, 1.33739, 1.33577, 1.33638, 1.33257, 1.32707, 1.32704, 1.32432, 1.32249, 1.32014, 1.32024, 1.31944, 1.32003, 1.31428, 1.31326, 1.31224, 1.30502, 1.30694, 1.31232, 1.30071, 1.30072, 1.3058, 1.3044, 1.29637, 1.39623, 1.442, 1.5432, 1.54642, 1.53702, 1.41067, 1.33784, 1.29201, 1.28519, 1.29241, 1.2787, 1.28925, 1.28613, 1.27722, 1.27759, 1.27664, 1.27072, 1.26758, 
1.601, 1.60027, 1.59935, 1.59545, 1.59464, 1.59189, 1.59537, 1.58894, 1.59948, 1.58508, 1.57809, 1.58315, 1.58915, 1.58634, 1.58215, 1.5655, 1.57229, 1.57485, 1.56631, 1.54772, 1.56383, 1.72795, 1.81244, 1.72599, 1.76781, 1.50522, 1.52742, 1.53033, 1.53683, 1.52412, 1.52988, 1.52169, 1.52756, 1.53212, 1.51467, 1.51337, 1.51084, 1.50702, 1.50615, 1.50416, 1.49975, 1.49828, 1.49947, 1.49343, 1.49153, 1.48644, 1.48529, 1.47939, 1.47676, 1.47501, 1.47408, 1.47287, 1.46972, 1.4681, 1.46566, 1.46074, 1.4605, 1.4579, 1.45655, 1.45709, 1.45109, 1.45412, 1.44496, 1.45631, 1.44255, 1.44171, 1.44325, 1.45531, 1.44664, 1.45369, 1.4519, 1.45889, 1.45942, 1.46429, 1.44096, 1.45565, 1.44632, 1.42858, 1.43425, 1.43966, 1.41371, 1.40511, 1.3989, 1.41756, 1.38999, 1.38575, 1.38229, 1.38618, 1.39102, 1.37956, 1.38456, 1.3777, 1.37508, 1.37445, 1.37286, 1.37222, 1.37222, 1.37403, 1.36759, 1.36348, 1.36403, 1.36001, 1.35775, 1.35399, 1.34916, 1.34624, 1.34284, 1.34201, 1.34002, 1.34182, 1.33988, 1.33918, 1.33595, 1.33532, 1.3344, 1.33703, 1.33222, 1.3312, 1.32909, 1.32725, 1.32785, 1.32305, 1.32268, 1.35133, 1.32168, 1.35257, 1.32532, 1.32364, 1.33024, 1.32362, 1.31993, 1.31577, 1.30849, 1.32156, 1.30259, 1.31914, 1.46036, 1.55479, 1.63429, 1.59277, 1.37067, 1.2532, 1.29832, 1.28927, 1.30203, 1.2854, 1.28632, 1.28444, 1.278, 1.27585, 1.27136, 1.26869, 1.2668, 
1.60031, 1.6036, 1.59301, 1.58928, 1.58676, 1.58336, 1.58054, 1.57313, 1.56922, 1.55839, 1.56202, 1.56144, 1.56101, 1.555, 1.56092, 1.55174, 1.54668, 1.55512, 1.55682, 1.53189, 1.52843, 1.78988, 1.69805, 1.68747, 1.70971, 1.50964, 1.5088, 1.51458, 1.52375, 1.52606, 1.53052, 1.52359, 1.5162, 1.513, 1.51224, 1.50734, 1.50582, 1.51738, 1.48676, 1.48237, 1.51566, 1.47929, 1.47555, 1.47474, 1.4691, 1.46796, 1.46431, 1.4615, 1.45705, 1.45351, 1.45412, 1.45183, 1.45104, 1.45408, 1.44117, 1.4408, 1.43941, 1.44188, 1.44357, 1.44376, 1.44, 1.42991, 1.42843, 1.44055, 1.43167, 1.43863, 1.4411, 1.43727, 1.44389, 1.45056, 1.44936, 1.46515, 1.44878, 1.46147, 1.43379, 1.42709, 1.42284, 1.41998, 1.42647, 1.42945, 1.4098, 1.41636, 1.40561, 1.39614, 1.40288, 1.38382, 1.40597, 1.37736, 1.36939, 1.37542, 1.38061, 1.37098, 1.36114, 1.36137, 1.35797, 1.36018, 1.35691, 1.37966, 1.3578, 1.35328, 1.3491, 1.34679, 1.34444, 1.34308, 1.33867, 1.34044, 1.33777, 1.33653, 1.33273, 1.32882, 1.32653, 1.32379, 1.32139, 1.31975, 1.32278, 1.31964, 1.33044, 1.31394, 1.31446, 1.31515, 1.31259, 1.3156, 1.31265, 1.31368, 1.31743, 1.30676, 1.32199, 1.31393, 1.30269, 1.29801, 1.31047, 1.30414, 1.30521, 1.30191, 1.29831, 1.36772, 1.43756, 1.72071, 1.83024, 1.47316, 1.39515, 1.33488, 1.2785, 1.28549, 1.28642, 1.28377, 1.27829, 1.28453, 1.26103, 1.2578, 1.27104, 1.26524, 1.25855, 
