1.66752, 1.66658, 1.66411, 1.66075, 1.66032, 1.65728, 1.65576, 1.65421, 1.65625, 1.65461, 1.66208, 1.66048, 1.65091, 1.66818, 1.68535, 1.66871, 1.65098, 1.64793, 1.64742, 1.64712, 1.648, 1.64828, 1.63653, 1.62399, 1.64267, 1.68223, 1.69349, 1.72562, 1.72118, 1.72344, 1.7014, 1.68707, 1.73233, 1.77271, 1.77931, 1.75503, 1.75474, 1.73545, 1.66104, 1.66373, 1.59745, 1.60018, 1.60654, 1.61537, 1.60721, 1.59943, 1.59571, 1.59234, 1.59017, 1.59444, 1.58599, 1.58353, 1.60032, 1.57972, 1.58002, 1.57855, 1.57889, 1.57865, 1.57424, 1.57244, 1.5718, 1.56951, 1.56865, 1.56893, 1.5811, 1.56945, 1.59331, 1.57928, 1.56776, 1.55727, 1.56745, 1.55061, 1.55558, 1.54406, 1.54185, 1.54399, 1.53828, 1.53721, 1.55063, 1.53476, 1.53221, 1.53024, 1.52771, 1.52607, 1.52715, 1.52783, 1.52472, 1.52277, 1.52134, 1.51788, 1.51663, 1.5261, 1.51496, 1.51484, 1.5124, 1.51004, 1.50918, 1.50773, 1.50712, 1.50552, 1.50475, 1.50314, 1.50288, 1.50107, 1.49967, 1.49831, 1.49828, 1.49948, 1.5, 1.50373, 1.47005, 1.46071, 1.45943, 1.53021, 1.62006, 1.6303, 1.5638, 1.68166, 1.68693, 1.69619, 1.69513, 1.68385, 1.66277, 1.63392, 1.56896, 1.49465, 1.43252, 1.46983, 1.47363, 1.47344, 1.48879, 1.46586, 1.4741, 1.47905, 1.47767, 1.4578, 1.45514, 1.4534, 1.45176, 1.44988, 1.4486, 1.44682, 1.44411, 1.44247, 1.44022, 1.44012, 1.43648, 1.44125, 1.43088, 1.43431, 1.43348, 1.4333, 1.43202, 1.43112, 1.43327, 1.43078, 1.42942, 1.4276, 1.42715, 1.42639, 1.42336, 1.42238, 1.42207, 1.42337, 1.41976, 1.41899, 1.41878, 1.41649, 1.41948, 1.41643, 1.4246, 1.41341, 1.41183, 1.41186, 1.40962, 1.40812, 1.40512, 1.40414, 1.40235, 1.40614, 1.40027, 1.39873, 1.39566, 1.39313, 1.39292, 1.39336, 1.39206, 1.38879, 1.38902, 1.38617, 1.38494, 1.38576, 1.38325, 1.38217, 1.3825, 1.3819, 1.37805, 1.37875, 1.37839, 1.37764, 1.37763, 1.37564, 1.37744, 1.37502, 1.37397, 1.37326, 1.37442, 1.3713, 1.37061, 1.37048, 1.37063, 1.37431, 1.37285, 1.39075, 1.36058, 1.37121, 1.36273, 1.37642, 1.40494, 1.4064, 1.41011, 1.43728, 1.4415, 1.4403, 1.44293, 1.42205, 1.42305, 1.45376, 1.46443, 1.45176, 1.39321, 1.37177, 1.34363, 1.32675, 1.33728, 1.36362, 1.34918, 1.35385, 1.35099, 1.34384, 1.3371, 1.33547, 1.33097, 1.33064, 1.32973, 1.33111, 1.3266, 1.32698, 1.32651, 1.32492, 1.32321, 1.3261, 1.32116, 1.32456, 1.3221, 1.32308
1.68954, 1.67429, 1.67215, 1.66874, 1.66865, 1.66724, 1.66606, 1.66353, 1.66173, 1.66129, 1.66432, 1.65807, 1.67595, 1.66537, 1.67824, 1.67725, 1.6588, 1.66164, 1.65015, 1.66856, 1.65088, 1.64284, 1.64247, 1.61854, 1.62823, 1.6493, 1.66104, 1.65998, 1.67486, 1.68646, 1.74749, 1.75899, 1.77291, 1.79945, 1.76826, 1.75832, 1.76832, 1.73754, 1.68916, 1.65531, 1.62942, 1.58345, 1.59865, 1.61743, 1.60785, 1.61229, 1.60708, 1.59261, 1.59137, 1.58639, 1.5862, 1.5824, 1.58872, 1.59022, 1.57911, 1.57826, 1.5766, 1.57552, 1.57312, 1.59574, 1.58559, 1.57278, 1.57098, 1.5692, 1.56744, 1.56847, 1.58185, 1.57307, 1.58084, 1.5568, 1.57041, 1.56719, 1.55151, 1.54882, 1.54985, 1.54313, 1.54376, 1.54472, 1.54063, 1.53944, 1.53736, 1.53644, 1.53437, 1.53365, 1.53313, 1.53145, 1.5316, 1.5289, 1.52664, 1.52464, 1.52297, 1.52096, 1.51972, 1.5185, 1.51528, 1.51571, 1.51401, 1.51955, 1.51457, 1.51055, 1.51009, 1.50881, 1.50553, 1.50517, 1.50215, 1.51116, 1.50953, 1.50362, 1.50289, 1.48667, 1.48275, 1.47163, 1.52239, 1.5549, 1.57477, 1.61548, 1.63866, 1.66476, 1.66945, 1.68092, 1.68108, 1.66159, 1.63805, 1.58804, 1.56394, 1.51361, 1.47688, 1.46751, 1.49266, 1.48522, 1.47959, 1.47716, 1.48141, 1.48122, 1.479, 1.46584, 1.47927, 1.47186, 1.45598, 1.47517, 1.48616, 1.44996, 1.44822, 1.4484, 1.44449, 1.44344, 1.44083, 1.44039, 1.43871, 1.43775, 1.43735, 1.43535, 1.43403, 1.43241, 1.43195, 1.43339, 1.43192, 1.43087, 1.43344, 1.42826, 1.42716, 1.42483, 1.42642, 1.43006, 1.42446, 1.43401, 1.42295, 1.42232, 1.42121, 1.42147, 1.41876, 1.46115, 1.41626, 1.41266, 1.4139, 1.40961, 1.40823, 1.40303, 1.40243, 1.40077, 1.40064, 1.40157, 1.39802, 1.40137, 1.39255, 1.3922, 1.39187, 1.38898, 1.38631, 1.38499, 1.38377, 1.38746, 1.38102, 1.38025, 1.38129, 1.37768, 1.37737, 1.37576, 1.37471, 1.38168, 1.37376, 1.37232, 1.3768, 1.37003, 1.37248, 1.36898, 1.37031, 1.37115, 1.37013, 1.37958, 1.37454, 1.3744, 1.3754, 1.399, 1.36264, 1.35199, 1.36, 1.36202, 1.40644, 1.40312, 1.47446, 1.46856, 1.44589, 1.45175, 1.45597, 1.46689, 1.46777, 1.50035, 1.46506, 1.42841, 1.42668, 1.39602, 1.34963, 1.32189, 1.35738, 1.34561, 1.35493, 1.3518, 1.34079, 1.33952, 1.33521, 1.33952, 1.335, 1.33272, 1.33098, 1.33044, 1.33719, 1.34428, 1.334, 1.32893, 1.34256, 1.3318, 1.32866, 1.33332, 1.33355, 1.33262
1.67845, 1.67647, 1.67461, 1.67408, 1.66952, 1.66773, 1.66543, 1.66948, 1.66162, 1.66458, 1.66571, 1.65878, 1.6755, 1.67126, 1.67178, 1.68699, 1.68481, 1.6613, 1.65957, 1.65863, 1.6497, 1.65065, 1.64363, 1.63034, 1.62961, 1.64681, 1.65369, 1.66607, 1.71297, 1.73049, 1.75671, 1.77685, 1.79692, 1.80077, 1.80045, 1.802, 1.79585, 1.7425, 1.72089, 1.67791, 1.59883, 1.60589, 1.60159, 1.61629, 1.60983, 1.60215, 1.59549, 1.59353, 1.59, 1.58763, 1.58686, 1.58746, 1.585, 1.58453, 1.58387, 1.58312, 1.58103, 1.57867, 1.57802, 1.57659, 1.57454, 1.57252, 1.57207, 1.57903, 1.59664, 1.61603, 1.6102, 1.60335, 1.60017, 1.59601, 1.57626, 1.56017, 1.55552, 1.55339, 1.55184, 1.54944, 1.54867, 1.54707, 1.54605, 1.54432, 1.54366, 1.54328, 1.54321, 1.53748, 1.53687, 1.5382, 1.53496, 1.53186, 1.53282, 1.53055, 1.52678, 1.52594, 1.52581, 1.52588, 1.53718, 1.52049, 1.53802, 1.5168, 1.51265, 1.51114, 1.51015, 1.51036, 1.54369, 1.50902, 1.5095, 1.50738, 1.50816, 1.53058, 1.50893, 1.50771, 1.47933, 1.48155, 1.49541, 1.53816, 1.5656, 1.58129, 1.57529, 1.67665, 1.67553, 1.70303, 1.69724, 1.69785, 1.62457, 1.59581, 1.55874, 1.49938, 1.4616, 1.47102, 1.47427, 1.49226, 1.48735, 1.47799, 1.47527, 1.47385, 1.47354, 1.47126, 1.4679, 1.46515, 1.46519, 1.46313, 1.46141, 1.45938, 1.45922, 1.45531, 1.45702, 1.45052, 1.44799, 1.44559, 1.44423, 1.44313, 1.44128, 1.44018, 1.44033, 1.43956, 1.43847, 1.4386, 1.43642, 1.43524, 1.43164, 1.43152, 1.42965, 1.43032, 1.428, 1.42535, 1.4257, 1.42422, 1.42522, 1.42461, 1.42287, 1.42358, 1.42047, 1.41915, 1.41791, 1.41574, 1.41496, 1.4108, 1.41101, 1.40978, 1.40895, 1.40909, 1.40606, 1.40427, 1.40238, 1.40091, 1.43118, 1.39807, 1.39593, 1.39513, 1.39299, 1.39039, 1.38972, 1.38808, 1.38767, 1.38828, 1.38624, 1.38625, 1.38446, 1.38372, 1.38493, 1.37948, 1.37865, 1.37707, 1.37842, 1.37628, 1.37609, 1.37672, 1.37764, 1.37855, 1.37827, 1.38196, 1.38018, 1.38419, 1.38469, 1.39883, 1.3918, 1.35532, 1.37443, 1.41064, 1.41704, 1.46226, 1.43896, 1.44674, 1.46475, 1.46524, 1.48155, 1.47132, 1.48067, 1.4611, 1.45129, 1.39813, 1.41602, 1.39424, 1.37087, 1.35077, 1.33403, 1.34994, 1.34724, 1.34626, 1.35385, 1.34775, 1.33821, 1.33978, 1.33811, 1.33489, 1.34537, 1.34624, 1.33726, 1.34546, 1.32853, 1.33262, 1.32984, 1.35109, 1.328, 1.32982, 1.32824, 1.33331
1.67918, 1.67692, 1.67625, 1.67264, 1.67109, 1.67031, 1.66753, 1.67102, 1.66332, 1.66393, 1.66177, 1.68256, 1.66175, 1.67018, 1.67284, 1.67528, 1.683, 1.67373, 1.66797, 1.67177, 1.66611, 1.65844, 1.63791, 1.61921, 1.6553, 1.68491, 1.71707, 1.70787, 1.7229, 1.72711, 1.76216, 1.78671, 1.89658, 1.821, 1.82643, 1.79801, 1.78394, 1.717, 1.69608, 1.69583, 1.64722, 1.59294, 1.62795, 1.62122, 1.61718, 1.62034, 1.61038, 1.60068, 1.5986, 1.59573, 1.59606, 1.59332, 1.59192, 1.59093, 1.58821, 1.58704, 1.5855, 1.58472, 1.58328, 1.58118, 1.58044, 1.57958, 1.57763, 1.57716, 1.57487, 1.57296, 1.57185, 1.58526, 1.57794, 1.58177, 1.60323, 1.57478, 1.56961, 1.55603, 1.55295, 1.56032, 1.55835, 1.55006, 1.54981, 1.54835, 1.54711, 1.54495, 1.54439, 1.54749, 1.54334, 1.54098, 1.54013, 1.53692, 1.5349, 1.53425, 1.53451, 1.54768, 1.5279, 1.52705, 1.52475, 1.52326, 1.52174, 1.52095, 1.52044, 1.51895, 1.51639, 1.52269, 1.51468, 1.52578, 1.51316, 1.51184, 1.52531, 1.5147, 1.52407, 1.5133, 1.48508, 1.48358, 1.49672, 1.57971, 1.5837, 1.61371, 1.63322, 1.7067, 1.70033, 1.69634, 1.69006, 1.68743, 1.6479, 1.63805, 1.55521, 1.53204, 1.46174, 1.47172, 1.50373, 1.48213, 1.48482, 1.48872, 1.48001, 1.47516, 1.47424, 1.4862, 1.48079, 1.46406, 1.47131, 1.47088, 1.46567, 1.46111, 1.46022, 1.49265, 1.45718, 1.45613, 1.45489, 1.45405, 1.45242, 1.45135, 1.45221, 1.44904, 1.4486, 1.4465, 1.4464, 1.44326, 1.44239, 1.44125, 1.43833, 1.43742, 1.43635, 1.43332, 1.43688, 1.43153, 1.43135, 1.42968, 1.42871, 1.42775, 1.42587, 1.42719, 1.42402, 1.42359, 1.42242, 1.42154, 1.41971, 1.41884, 1.41714, 1.41547, 1.4156, 1.4122, 1.41149, 1.40738, 1.41374, 1.40357, 1.40272, 1.40371, 1.39825, 1.39899, 1.39717, 1.39669, 1.39437, 1.39446, 1.3991, 1.38997, 1.39424, 1.39036, 1.38985, 1.38817, 1.3896, 1.39329, 1.38562, 1.38554, 1.38219, 1.38471, 1.38436, 1.38615, 1.38539, 1.3846, 1.3847, 1.39103, 1.39705, 1.39874, 1.40273, 1.38963, 1.37956, 1.37424, 1.37491, 1.42814, 1.42321, 1.45209, 1.45722, 1.46756, 1.46397, 1.46037, 1.47225, 1.4862, 1.48347, 1.48282, 1.46503, 1.46172, 1.42433, 1.4323, 1.39259, 1.34307, 1.34399, 1.35427, 1.3617, 1.36083, 1.3461, 1.34659, 1.34071, 1.34019, 1.34145, 1.34031, 1.34288, 1.34731, 1.34104, 1.36469, 1.34582, 1.33623, 1.33645, 1.33629, 1.33776, 1.33645, 1.3348, 1.33669
1.67803, 1.67578, 1.67328, 1.67622, 1.66661, 1.66696, 1.66667, 1.66863, 1.66069, 1.65868, 1.6553, 1.6529, 1.65276, 1.65442, 1.65923, 1.65302, 1.67615, 1.68258, 1.66864, 1.65509, 1.66614, 1.65837, 1.64018, 1.61766, 1.60868, 1.66451, 1.68297, 1.70185, 1.75881, 1.74813, 1.73747, 1.80115, 1.81471, 1.82059, 1.84178, 1.95197, 1.8105, 1.78008, 1.75286, 1.72182, 1.6391, 1.5868, 1.62239, 1.62658, 1.61739, 1.60321, 1.60919, 1.607, 1.60713, 1.60331, 1.61692, 1.59207, 1.58903, 1.58882, 1.59282, 1.59645, 1.58171, 1.57973, 1.59996, 1.57658, 1.58193, 1.57678, 1.57671, 1.57119, 1.57239, 1.57518, 1.57009, 1.56628, 1.57269, 1.5649, 1.56506, 1.56098, 1.57228, 1.5752, 1.56722, 1.56756, 1.54819, 1.5467, 1.558, 1.55589, 1.54582, 1.54276, 1.54146, 1.54015, 1.53807, 1.53659, 1.5366, 1.53364, 1.53103, 1.53011, 1.52722, 1.52481, 1.52462, 1.5207, 1.51914, 1.51573, 1.51464, 1.53415, 1.51263, 1.52332, 1.526, 1.50889, 1.5058, 1.50504, 1.52167, 1.51472, 1.50551, 1.51784, 1.52277, 1.50321, 1.4935, 1.47784, 1.50715, 1.48055, 1.59184, 1.61999, 1.63804, 1.65722, 1.68195, 1.68845, 1.69503, 1.69875, 1.67749, 1.62745, 1.58227, 1.52639, 1.48512, 1.45157, 1.43994, 1.50925, 1.48882, 1.47379, 1.4692, 1.47139, 1.47194, 1.46258, 1.46705, 1.4658, 1.46525, 1.45451, 1.45596, 1.46326, 1.45106, 1.44823, 1.44881, 1.44673, 1.44635, 1.44569, 1.44411, 1.44302, 1.44374, 1.44143, 1.43958, 1.4421, 1.43912, 1.43714, 1.43482, 1.43516, 1.43602, 1.4401, 1.43142, 1.43332, 1.42945, 1.42844, 1.43043, 1.43042, 1.42972, 1.42741, 1.42741, 1.42627, 1.42405, 1.42347, 1.42326, 1.42138, 1.42019, 1.42004, 1.42204, 1.42, 1.42664, 1.41462, 1.41506, 1.41105, 1.41033, 1.43632, 1.40787, 1.40966, 1.40254, 1.40654, 1.4039, 1.4029, 1.40132, 1.39869, 1.39822, 1.39648, 1.39997, 1.39157, 1.39109, 1.38956, 1.38956, 1.38803, 1.38711, 1.38662, 1.3973, 1.38812, 1.39535, 1.39322, 1.39903, 1.38405, 1.38905, 1.39128, 1.39641, 1.39218, 1.38552, 1.39121, 1.38678, 1.37517, 1.3646, 1.38468, 1.42243, 1.43623, 1.4481, 1.45362, 1.44624, 1.48482, 1.47524, 1.4824, 1.48618, 1.49142, 1.49861, 1.48121, 1.47551, 1.41207, 1.38757, 1.34262, 1.33327, 1.33731, 1.36427, 1.35251, 1.35076, 1.34953, 1.34797, 1.34661, 1.34534, 1.34767, 1.34686, 1.35331, 1.34085, 1.34269, 1.35025, 1.34183, 1.33808, 1.33857, 1.33605, 1.36198, 1.33469, 1.33349
1.68007, 1.67848, 1.67568, 1.67456, 1.67241, 1.67119, 1.66883, 1.66662, 1.66552, 1.67133, 1.65905, 1.65619, 1.66229, 1.65316, 1.66899, 1.65248, 1.65289, 1.67216, 1.66866, 1.66957, 1.67509, 1.66208, 1.63588, 1.62599, 1.61942, 1.63269, 1.64486, 1.67659, 1.71801, 1.74127, 1.76692, 1.84812, 1.83192, 1.8413, 1.83496, 1.83264, 1.8109, 1.78244, 1.7139, 1.69622, 1.64773, 1.59062, 1.59359, 1.61344, 1.61663, 1.60003, 1.59693, 1.59178, 1.59278, 1.59849, 1.58938, 1.58802, 1.58715, 1.58584, 1.58526, 1.58415, 1.58529, 1.57882, 1.57777, 1.57615, 1.57304, 1.57243, 1.57218, 1.56912, 1.56768, 1.5661, 1.56444, 1.56105, 1.5584, 1.556, 1.56226, 1.56081, 1.56289, 1.56166, 1.56469, 1.56503, 1.55479, 1.54693, 1.54008, 1.53968, 1.54359, 1.54785, 1.54193, 1.54172, 1.54167, 1.53914, 1.54319, 1.53048, 1.53061, 1.52543, 1.52323, 1.52221, 1.52, 1.55475, 1.51217, 1.50788, 1.50556, 1.50148, 1.50064, 1.49894, 1.49921, 1.49967, 1.50111, 1.51634, 1.5004, 1.50024, 1.50208, 1.5026, 1.51473, 1.51624, 1.49015, 1.47981, 1.49259, 1.54565, 1.57206, 1.63694, 1.63379, 1.66129, 1.67335, 1.67756, 1.63415, 1.62612, 1.67166, 1.60662, 1.59494, 1.5363, 1.49236, 1.45845, 1.48628, 1.46806, 1.48887, 1.46942, 1.47279, 1.46987, 1.47037, 1.4604, 1.4651, 1.46149, 1.45136, 1.45494, 1.45101, 1.44891, 1.44795, 1.44657, 1.44585, 1.44464, 1.44444, 1.44369, 1.44329, 1.44116, 1.44058, 1.43796, 1.4375, 1.43522, 1.43382, 1.43133, 1.42986, 1.42896, 1.42893, 1.42816, 1.42958, 1.43087, 1.43106, 1.43002, 1.42848, 1.42773, 1.42647, 1.42605, 1.42297, 1.42151, 1.42098, 1.42019, 1.41882, 1.41757, 1.41591, 1.41574, 1.4151, 1.41664, 1.41545, 1.41379, 1.41086, 1.4092, 1.41028, 1.40909, 1.40885, 1.40481, 1.40503, 1.40253, 1.40142, 1.39837, 1.39585, 1.39352, 1.39363, 1.39218, 1.38957, 1.3925, 1.38898, 1.38808, 1.38737, 1.38804, 1.38717, 1.3829, 1.38302, 1.38191, 1.38125, 1.38129, 1.38635, 1.4068, 1.37717, 1.37662, 1.37551, 1.39246, 1.39839, 1.37983, 1.40053, 1.37145, 1.38602, 1.39217, 1.42042, 1.44334, 1.48038, 1.48503, 1.48569, 1.48999, 1.51757, 1.52707, 1.52072, 1.52286, 1.51997, 1.47778, 1.47187, 1.49643, 1.4335, 1.34729, 1.32932, 1.33357, 1.37128, 1.36251, 1.35386, 1.35044, 1.34942, 1.34945, 1.3467, 1.34501, 1.36189, 1.35724, 1.34169, 1.34036, 1.33731, 1.33836, 1.33672, 1.33433, 1.33418, 1.33197, 1.3324, 1.33244
1.69538, 1.69352, 1.6902, 1.68858, 1.68773, 1.68538, 1.68274, 1.68266, 1.68142, 1.67989, 1.68146, 1.67244, 1.67644, 1.67519, 1.67275, 1.67191, 1.67671, 1.66946, 1.66905, 1.66876, 1.67077, 1.68204, 1.67837, 1.67091, 1.61735, 1.63807, 1.63712, 1.64428, 1.69594, 1.73163, 1.76629, 1.81022, 1.86093, 1.85574, 1.85529, 1.87493, 1.85185, 1.7827, 1.77104, 1.67096, 1.63234, 1.60342, 1.62471, 1.62, 1.62788, 1.60948, 1.60993, 1.60947, 1.61625, 1.6094, 1.60633, 1.60417, 1.6013, 1.59901, 1.59752, 1.59562, 1.59386, 1.5919, 1.59955, 1.59004, 1.5906, 1.59042, 1.58827, 1.58473, 1.59197, 1.57809, 1.58607, 1.57919, 1.56996, 1.56883, 1.56765, 1.56783, 1.58875, 1.57203, 1.58143, 1.58571, 1.56964, 1.57829, 1.56158, 1.56026, 1.5574, 1.56271, 1.55, 1.54957, 1.55538, 1.54432, 1.54407, 1.54433, 1.5436, 1.5417, 1.5371, 1.53619, 1.53451, 1.53665, 1.55184, 1.5479, 1.52701, 1.52637, 1.52452, 1.52369, 1.52134, 1.51929, 1.51935, 1.51687, 1.53029, 1.52339, 1.51969, 1.52359, 1.54159, 1.53489, 1.5175, 1.49867, 1.5227, 1.55048, 1.56154, 1.59207, 1.60887, 1.64145, 1.6693, 1.66617, 1.65297, 1.63334, 1.6265, 1.64431, 1.61087, 1.5386, 1.50659, 1.47431, 1.46813, 1.48632, 1.48316, 1.48703, 1.51048, 1.49813, 1.49373, 1.48885, 1.47592, 1.47247, 1.47395, 1.46817, 1.47571, 1.46586, 1.46801, 1.46393, 1.46336, 1.46282, 1.46094, 1.47269, 1.45673, 1.46122, 1.4519, 1.44572, 1.44771, 1.4418, 1.44025, 1.43974, 1.43926, 1.43857, 1.44052, 1.44013, 1.44344, 1.44459, 1.4458, 1.44477, 1.4443, 1.43883, 1.43667, 1.43316, 1.43367, 1.45833, 1.42988, 1.42756, 1.42971, 1.42991, 1.43006, 1.4296, 1.42652, 1.42671, 1.42405, 1.42141, 1.4192, 1.41471, 1.41488, 1.41232, 1.41114, 1.41065, 1.40878, 1.40884, 1.41021, 1.41164, 1.41143, 1.40867, 1.40614, 1.40923, 1.39645, 1.39927, 1.3964, 1.40025, 1.39939, 1.39572, 1.39467, 1.39033, 1.39308, 1.40114, 1.38786, 1.39079, 1.38717, 1.38913, 1.38889, 1.38833, 1.38572, 1.38843, 1.38704, 1.3826, 1.38231, 1.37537, 1.37153, 1.39831, 1.39492, 1.41109, 1.43702, 1.47084, 1.49836, 1.51672, 1.51975, 1.51725, 1.52026, 1.52151, 1.52272, 1.51706, 1.46272, 1.46726, 1.41145, 1.36882, 1.35202, 1.35694, 1.36678, 1.36572, 1.37191, 1.37009, 1.3533, 1.35111, 1.34813, 1.34829, 1.35079, 1.35212, 1.35178, 1.35245, 1.35038, 1.35129, 1.34937, 1.34646, 1.34468, 1.37767, 1.34124, 1.33985
1.68669, 1.68184, 1.67389, 1.66839, 1.66166, 1.65987, 1.65863, 1.65871, 1.65755, 1.65562, 1.6569, 1.65748, 1.66312, 1.67115, 1.6672, 1.67998, 1.66352, 1.67141, 1.6652, 1.64732, 1.64276, 1.66182, 1.65645, 1.66089, 1.61826, 1.61698, 1.66569, 1.68503, 1.72334, 1.75442, 1.77914, 1.80374, 1.83029, 1.8593, 1.85651, 1.86797, 1.84396, 1.83082, 1.7573, 1.68437, 1.63457, 1.59671, 1.59597, 1.61768, 1.62729, 1.62075, 1.61286, 1.60432, 1.60248, 1.60134, 1.60586, 1.59291, 1.58886, 1.57709, 1.57876, 1.56849, 1.56745, 1.57418, 1.57696, 1.58243, 1.58239, 1.58099, 1.57525, 1.57466, 1.56287, 1.57842, 1.55568, 1.56243, 1.55753, 1.56226, 1.56169, 1.56203, 1.5596, 1.56087, 1.55721, 1.56998, 1.58215, 1.56704, 1.57216, 1.56499, 1.55185, 1.54798, 1.54178, 1.54069, 1.54115, 1.54194, 1.54127, 1.54115, 1.54107, 1.54102, 1.53762, 1.53489, 1.5611, 1.52586, 1.52326, 1.51361, 1.51302, 1.51404, 1.51809, 1.53329, 1.51986, 1.53215, 1.51221, 1.50947, 1.50918, 1.50838, 1.5155, 1.51184, 1.53642, 1.51641, 1.52204, 1.49702, 1.49206, 1.52402, 1.54822, 1.58552, 1.59612, 1.63579, 1.62849, 1.64419, 1.6459, 1.651, 1.63158, 1.62932, 1.62013, 1.58917, 1.49214, 1.49781, 1.44871, 1.4768, 1.49569, 1.49838, 1.47343, 1.49645, 1.49314, 1.48953, 1.48655, 1.47139, 1.46871, 1.47066, 1.4626, 1.47439, 1.4645, 1.46572, 1.46854, 1.46282, 1.46376, 1.45504, 1.4647, 1.45333, 1.45192, 1.44818, 1.44812, 1.43497, 1.43001, 1.42875, 1.42697, 1.42896, 1.44732, 1.43912, 1.44622, 1.44344, 1.44238, 1.43668, 1.45009, 1.42678, 1.42362, 1.41845, 1.41631, 1.41181, 1.41026, 1.41407, 1.4163, 1.41765, 1.41899, 1.41651, 1.42598, 1.41502, 1.41383, 1.41108, 1.41027, 1.40913, 1.40865, 1.40719, 1.40354, 1.39847, 1.39469, 1.39245, 1.39581, 1.40582, 1.3917, 1.39108, 1.39093, 1.39179, 1.39305, 1.39231, 1.38989, 1.39105, 1.39359, 1.38798, 1.38581, 1.38129, 1.38, 1.40281, 1.37444, 1.37283, 1.3744, 1.3774, 1.37936, 1.3795, 1.37947, 1.38072, 1.39343, 1.39686, 1.38516, 1.39569, 1.3662, 1.38115, 1.42082, 1.42051, 1.46435, 1.50996, 1.51904, 1.51814, 1.50081, 1.50342, 1.47871, 1.51885, 1.5314, 1.48222, 1.47179, 1.45135, 1.44565, 1.40933, 1.34084, 1.33817, 1.37238, 1.35894, 1.35434, 1.34984, 1.35016, 1.36875, 1.35101, 1.36143, 1.35019, 1.35418, 1.34697, 1.3565, 1.33702, 1.33074, 1.33326, 1.34248, 1.32325, 1.32428, 1.32346, 1.32375
1.69162, 1.68955, 1.68674, 1.68549, 1.68264, 1.6827, 1.67958, 1.69007, 1.67854, 1.67853, 1.67638, 1.69361, 1.67605, 1.68615, 1.68251, 1.67215, 1.66635, 1.67637, 1.65828, 1.66496, 1.65386, 1.64551, 1.65427, 1.64716, 1.67328, 1.62635, 1.63893, 1.6797, 1.72172, 1.8108, 1.78884, 1.81428, 1.87713, 1.90093, 1.89816, 1.89155, 1.90482, 1.84693, 1.7764, 1.73758, 1.65943, 1.64381, 1.60765, 1.62871, 1.63639, 1.62722, 1.62935, 1.62044, 1.62138, 1.61408, 1.61141, 1.61311, 1.61319, 1.60596, 1.59614, 1.59427, 1.60698, 1.59245, 1.59185, 1.59989, 1.59054, 1.59197, 1.58947, 1.58592, 1.58763, 1.58218, 1.57851, 1.57832, 1.57664, 1.57538, 1.58396, 1.57308, 1.57282, 1.57044, 1.57969, 1.57043, 1.5841, 1.5743, 1.59208, 1.58627, 1.56258, 1.56132, 1.56921, 1.55735, 1.55434, 1.55385, 1.54826, 1.54763, 1.54898, 1.54499, 1.54421, 1.54114, 1.54003, 1.54001, 1.53966, 1.55803, 1.53667, 1.53381, 1.5338, 1.53249, 1.53407, 1.52756, 1.53683, 1.52789, 1.5228, 1.52184, 1.53271, 1.53432, 1.53415, 1.5256, 1.53406, 1.51169, 1.4972, 1.52361, 1.5402, 1.60575, 1.63729, 1.64476, 1.68276, 1.676, 1.67903, 1.67428, 1.6607, 1.65697, 1.63001, 1.57827, 1.55157, 1.52439, 1.47046, 1.46626, 1.48937, 1.5016, 1.50041, 1.48808, 1.49597, 1.5065, 1.51238, 1.5049, 1.48482, 1.47886, 1.47653, 1.48943, 1.48327, 1.48277, 1.48146, 1.46621, 1.46383, 1.46064, 1.45911, 1.45977, 1.45384, 1.45059, 1.45009, 1.44831, 1.44746, 1.44654, 1.44818, 1.44818, 1.4486, 1.45, 1.45027, 1.45009, 1.44808, 1.44671, 1.44611, 1.44176, 1.43892, 1.43774, 1.43528, 1.43072, 1.44165, 1.43629, 1.42673, 1.4751, 1.42296, 1.42321, 1.42057, 1.42066, 1.42081, 1.41899, 1.419, 1.41583, 1.41784, 1.4148, 1.41277, 1.41208, 1.414, 1.4087, 1.40871, 1.4091, 1.40646, 1.4067, 1.44013, 1.41119, 1.40631, 1.40722, 1.40773, 1.40717, 1.40835, 1.40601, 1.40609, 1.4012, 1.39749, 1.39638, 1.40452, 1.40972, 1.39187, 1.39231, 1.39154, 1.38938, 1.38832, 1.3955, 1.39615, 1.39022, 1.39665, 1.3887, 1.37398, 1.37415, 1.40477, 1.41333, 1.45143, 1.46802, 1.46546, 1.53734, 1.56958, 1.51983, 1.55558, 1.55682, 1.56444, 1.53418, 1.48833, 1.45786, 1.4294, 1.37499, 1.343, 1.36824, 1.36739, 1.3839, 1.36871, 1.3687, 1.38068, 1.36233, 1.35741, 1.37153, 1.35235, 1.35248, 1.35294, 1.35885, 1.35463, 1.34518, 1.34633, 1.34787, 1.34793, 1.34751, 1.34061, 1.34522
1.67957, 1.67791, 1.67647, 1.67214, 1.67196, 1.67008, 1.6715, 1.67124, 1.67011, 1.6662, 1.67173, 1.66566, 1.67616, 1.65816, 1.65847, 1.65538, 1.65108, 1.64891, 1.64584, 1.64708, 1.64596, 1.64767, 1.64872, 1.66129, 1.64323, 1.61186, 1.64911, 1.66226, 1.68898, 1.73887, 1.75103, 1.78205, 1.8076, 1.83556, 1.85254, 1.84797, 1.85126, 1.81764, 1.73168, 1.70821, 1.61296, 1.61832, 1.5917, 1.61157, 1.61373, 1.61214, 1.60791, 1.60675, 1.60942, 1.59848, 1.59629, 1.58915, 1.59966, 1.58542, 1.58886, 1.5804, 1.58874, 1.57631, 1.57428, 1.57139, 1.56824, 1.56798, 1.56994, 1.56959, 1.57136, 1.57108, 1.56965, 1.56696, 1.56557, 1.56136, 1.56235, 1.55714, 1.55808, 1.56142, 1.55969, 1.55897, 1.55514, 1.55504, 1.56116, 1.57187, 1.56534, 1.56336, 1.55136, 1.55806, 1.5521, 1.54911, 1.54006, 1.53219, 1.52971, 1.53089, 1.52728, 1.52796, 1.52697, 1.54899, 1.52479, 1.5229, 1.53116, 1.52595, 1.52148, 1.5227, 1.51832, 1.5183, 1.51869, 1.52714, 1.50844, 1.50649, 1.51255, 1.52021, 1.51652, 1.5113, 1.51366, 1.49545, 1.48949, 1.52304, 1.56021, 1.59933, 1.5987, 1.62386, 1.62431, 1.63936, 1.63842, 1.63695, 1.63141, 1.61352, 1.58709, 1.60084, 1.53431, 1.50687, 1.46142, 1.4558, 1.47479, 1.485, 1.47372, 1.48081, 1.4789, 1.48138, 1.48886, 1.49265, 1.47644, 1.48218, 1.47024, 1.46322, 1.45213, 1.45364, 1.45361, 1.44867, 1.46522, 1.44243, 1.44, 1.43977, 1.43968, 1.44049, 1.44074, 1.44217, 1.44333, 1.44327, 1.44232, 1.44064, 1.4407, 1.43838, 1.43559, 1.43448, 1.43307, 1.43249, 1.43221, 1.43276, 1.43122, 1.42895, 1.42495, 1.42298, 1.42106, 1.41924, 1.41961, 1.42046, 1.41879, 1.41816, 1.4163, 1.41209, 1.41305, 1.40835, 1.40631, 1.40583, 1.40303, 1.40025, 1.40066, 1.40058, 1.40235, 1.4016, 1.39762, 1.3952, 1.39262, 1.39206, 1.38992, 1.39214, 1.39208, 1.39168, 1.38959, 1.3876, 1.38804, 1.3851, 1.38669, 1.38841, 1.38796, 1.38594, 1.38518, 1.38391, 1.38318, 1.38231, 1.38538, 1.39189, 1.37915, 1.38197, 1.38184, 1.39601, 1.39601, 1.38125, 1.36771, 1.36317, 1.39962, 1.43253, 1.45096, 1.45174, 1.47189, 1.49849, 1.50566, 1.52085, 1.53367, 1.53059, 1.52194, 1.50587, 1.52892, 1.49595, 1.44372, 1.35719, 1.34115, 1.33751, 1.36618, 1.36475, 1.36685, 1.35875, 1.36739, 1.35411, 1.34333, 1.34414, 1.34252, 1.34015, 1.33787, 1.33612, 1.33508, 1.34347, 1.35796, 1.33769, 1.33708, 1.33631, 1.33365, 1.3356
1.68283, 1.68268, 1.68111, 1.68098, 1.68201, 1.68069, 1.70208, 1.6746, 1.6768, 1.67711, 1.66398, 1.67207, 1.65938, 1.66545, 1.66885, 1.65522, 1.65314, 1.65278, 1.65319, 1.65749, 1.65276, 1.65203, 1.66207, 1.66278, 1.63663, 1.61458, 1.64074, 1.64776, 1.67789, 1.68583, 1.73544, 1.76345, 1.79833, 1.84557, 1.86723, 1.88591, 1.8902, 1.85947, 1.76967, 1.72796, 1.65769, 1.59272, 1.59284, 1.61065, 1.6134, 1.62183, 1.61313, 1.62717, 1.60997, 1.59657, 1.59511, 1.59426, 1.59321, 1.59587, 1.60697, 1.59324, 1.60345, 1.58396, 1.58229, 1.59021, 1.58912, 1.57542, 1.57723, 1.56968, 1.56806, 1.56625, 1.56536, 1.61893, 1.56143, 1.56097, 1.57161, 1.55879, 1.55719, 1.57148, 1.57118, 1.5597, 1.56126, 1.55481, 1.55607, 1.559, 1.55787, 1.54238, 1.55453, 1.54813, 1.54867, 1.55065, 1.5378, 1.54235, 1.53548, 1.54344, 1.5337, 1.53082, 1.52925, 1.52777, 1.53314, 1.53761, 1.52274, 1.51797, 1.52752, 1.51279, 1.51133, 1.50918, 1.5075, 1.52675, 1.51934, 1.5065, 1.51935, 1.53004, 1.51643, 1.51708, 1.49981, 1.48575, 1.47442, 1.47563, 1.53398, 1.55848, 1.60171, 1.6078, 1.65058, 1.63642, 1.64025, 1.63449, 1.61348, 1.60012, 1.58177, 1.56578, 1.5381, 1.49132, 1.46472, 1.4403, 1.47468, 1.47875, 1.48348, 1.47323, 1.47089, 1.46648, 1.47628, 1.48534, 1.47581, 1.48012, 1.45159, 1.45114, 1.44987, 1.4503, 1.45346, 1.45447, 1.46898, 1.44588, 1.45314, 1.44554, 1.44464, 1.44305, 1.4428, 1.4439, 1.44077, 1.43997, 1.43969, 1.46057, 1.43852, 1.43599, 1.4346, 1.44017, 1.43274, 1.432, 1.42987, 1.42974, 1.4266, 1.42635, 1.42591, 1.42276, 1.43762, 1.42946, 1.42114, 1.4234, 1.42248, 1.42048, 1.43198, 1.4133, 1.41241, 1.40987, 1.4137, 1.40921, 1.41726, 1.40412, 1.40574, 1.39932, 1.40021, 1.39821, 1.39604, 1.39307, 1.39302, 1.38931, 1.40328, 1.3899, 1.38796, 1.38983, 1.38936, 1.38904, 1.38908, 1.3927, 1.38587, 1.38622, 1.39491, 1.38282, 1.37839, 1.39546, 1.38566, 1.39236, 1.38924, 1.37482, 1.37433, 1.37551, 1.38347, 1.38357, 1.39181, 1.38171, 1.3653, 1.36086, 1.41165, 1.41786, 1.4931, 1.43972, 1.47867, 1.49719, 1.49713, 1.56761, 1.57832, 1.54994, 1.64585, 1.5369, 1.51728, 1.4876, 1.42596, 1.39502, 1.35518, 1.34802, 1.36185, 1.36538, 1.36438, 1.37236, 1.36316, 1.37537, 1.34502, 1.34445, 1.35258, 1.33844, 1.33985, 1.33677, 1.33601, 1.36677, 1.34285, 1.3563, 1.33358, 1.33323, 1.33221, 1.33308
1.66997, 1.66913, 1.6676, 1.66569, 1.66397, 1.66178, 1.66149, 1.65977, 1.65787, 1.65498, 1.65368, 1.65247, 1.65415, 1.65083, 1.64115, 1.63929, 1.63501, 1.63304, 1.63116, 1.64224, 1.64104, 1.62351, 1.62417, 1.62539, 1.61804, 1.60213, 1.60099, 1.64782, 1.66893, 1.70702, 1.73112, 1.77697, 1.7969, 1.83804, 1.88909, 1.8861, 1.8831, 1.84514, 1.76776, 1.72051, 1.69979, 1.59698, 1.57785, 1.58712, 1.59988, 1.59546, 1.58728, 1.59999, 1.60225, 1.58527, 1.58291, 1.57959, 1.57975, 1.57899, 1.58199, 1.594, 1.57372, 1.57083, 1.57137, 1.56951, 1.56778, 1.56731, 1.56875, 1.56587, 1.56401, 1.56285, 1.56054, 1.56504, 1.5564, 1.55427, 1.55197, 1.55521, 1.55218, 1.54372, 1.55327, 1.54161, 1.53719, 1.54209, 1.53392, 1.54801, 1.53225, 1.53416, 1.53706, 1.54783, 1.53639, 1.53619, 1.52359, 1.52334, 1.52101, 1.51923, 1.51879, 1.5146, 1.51303, 1.51145, 1.50946, 1.50737, 1.50622, 1.50589, 1.50439, 1.50227, 1.50054, 1.49865, 1.51395, 1.50132, 1.49519, 1.49263, 1.4942, 1.50039, 1.50784, 1.50775, 1.49226, 1.48225, 1.46541, 1.51027, 1.5297, 1.58624, 1.57953, 1.63334, 1.63674, 1.63909, 1.6436, 1.63392, 1.62983, 1.62869, 1.60004, 1.55027, 1.51865, 1.51584, 1.46476, 1.43506, 1.45041, 1.47243, 1.47905, 1.47705, 1.46701, 1.47508, 1.47543, 1.46346, 1.48268, 1.46422, 1.46941, 1.46348, 1.44615, 1.45135, 1.44184, 1.44038, 1.44197, 1.44348, 1.44753, 1.43623, 1.43216, 1.43073, 1.42931, 1.4282, 1.42784, 1.42566, 1.45231, 1.42296, 1.42051, 1.41815, 1.41682, 1.41738, 1.41428, 1.41427, 1.41234, 1.41057, 1.41126, 1.41088, 1.40592, 1.4049, 1.4038, 1.40342, 1.40185, 1.39787, 1.39809, 1.39685, 1.39542, 1.42253, 1.39218, 1.39168, 1.3916, 1.39166, 1.39026, 1.38957, 1.38905, 1.38834, 1.38738, 1.38507, 1.38223, 1.38408, 1.3808, 1.37961, 1.37967, 1.37709, 1.37563, 1.37446, 1.37372, 1.37278, 1.37123, 1.37141, 1.3694, 1.36751, 1.36734, 1.36472, 1.36537, 1.36732, 1.36088, 1.36072, 1.3608, 1.35971, 1.35945, 1.35865, 1.35952, 1.37173, 1.36004, 1.35298, 1.32151, 1.33703, 1.34339, 1.38928, 1.40581, 1.41423, 1.45218, 1.46167, 1.49385, 1.5152, 1.51366, 1.52014, 1.54571, 1.51208, 1.49696, 1.42958, 1.42613, 1.37978, 1.32532, 1.36472, 1.34123, 1.34047, 1.35425, 1.33407, 1.34761, 1.33108, 1.33373, 1.32611, 1.32517, 1.33394, 1.32525, 1.32184, 1.31693, 1.3197, 1.32075, 1.31667, 1.31825, 1.31719, 1.31604, 1.31657
1.66757, 1.66202, 1.6616, 1.65803, 1.65631, 1.65548, 1.65181, 1.65079, 1.6492, 1.64603, 1.64556, 1.64343, 1.64224, 1.64029, 1.63779, 1.63868, 1.63699, 1.63391, 1.63426, 1.63007, 1.62989, 1.62944, 1.62827, 1.63773, 1.61981, 1.61391, 1.59907, 1.62824, 1.67567, 1.71835, 1.7477, 1.7787, 1.80075, 1.84912, 1.88626, 1.89298, 1.90019, 1.88078, 1.78919, 1.7571, 1.65432, 1.61335, 1.57949, 1.60631, 1.59702, 1.60965, 1.59164, 1.59167, 1.58621, 1.58453, 1.58428, 1.58045, 1.57866, 1.57694, 1.57495, 1.57245, 1.56907, 1.56843, 1.5665, 1.5651, 1.56531, 1.56202, 1.56024, 1.55991, 1.55941, 1.55893, 1.55848, 1.55729, 1.55503, 1.55322, 1.55277, 1.55422, 1.54439, 1.5435, 1.55, 1.53746, 1.55194, 1.53467, 1.53682, 1.53153, 1.53029, 1.52954, 1.53293, 1.53599, 1.54738, 1.5545, 1.53827, 1.53511, 1.52926, 1.53362, 1.52407, 1.51913, 1.51991, 1.51706, 1.515, 1.51505, 1.51283, 1.52932, 1.51099, 1.51013, 1.51028, 1.50867, 1.50691, 1.51473, 1.50629, 1.49847, 1.49771, 1.49852, 1.51346, 1.51214, 1.50999, 1.48638, 1.47803, 1.49469, 1.51593, 1.53415, 1.55816, 1.58224, 1.61103, 1.6062, 1.6151, 1.62759, 1.62702, 1.61882, 1.61354, 1.57924, 1.54047, 1.50381, 1.47966, 1.46529, 1.44351, 1.47161, 1.47109, 1.47823, 1.47373, 1.45931, 1.4561, 1.45598, 1.45528, 1.4621, 1.47559, 1.48223, 1.46534, 1.45586, 1.44462, 1.44388, 1.44096, 1.43989, 1.43755, 1.43506, 1.43286, 1.4309, 1.4291, 1.42696, 1.42599, 1.42405, 1.42239, 1.42255, 1.4199, 1.41852, 1.41674, 1.4151, 1.41354, 1.41244, 1.41239, 1.41132, 1.4101, 1.40894, 1.40685, 1.40714, 1.40523, 1.40469, 1.40501, 1.40528, 1.40168, 1.4006, 1.40081, 1.39974, 1.39827, 1.39653, 1.39675, 1.3962, 1.3954, 1.39636, 1.39299, 1.39318, 1.39023, 1.38932, 1.38826, 1.38578, 1.38269, 1.37932, 1.37798, 1.37657, 1.37401, 1.37353, 1.37133, 1.37078, 1.37143, 1.37012, 1.36934, 1.36965, 1.36737, 1.36774, 1.36475, 1.36773, 1.36396, 1.36071, 1.36142, 1.36126, 1.35901, 1.37837, 1.35921, 1.37746, 1.36363, 1.36038, 1.33155, 1.33247, 1.38785, 1.4169, 1.43672, 1.45073, 1.47837, 1.48792, 1.49585, 1.51832, 1.53007, 1.53401, 1.52983, 1.5241, 1.50485, 1.45529, 1.41937, 1.38094, 1.3302, 1.32674, 1.33424, 1.33814, 1.33934, 1.33723, 1.33138, 1.33005, 1.32821, 1.32641, 1.32294, 1.32357, 1.32107, 1.31984, 1.31887, 1.31873, 1.3175, 1.31569, 1.31743, 1.32243, 1.31588, 1.31604
1.66223, 1.66153, 1.65877, 1.65724, 1.65506, 1.65252, 1.6546, 1.66533, 1.65351, 1.64974, 1.64239, 1.64415, 1.63827, 1.64095, 1.6407, 1.63587, 1.63276, 1.63319, 1.63346, 1.63438, 1.63434, 1.63394, 1.64034, 1.64065, 1.63018, 1.61353, 1.61648, 1.61316, 1.65118, 1.68352, 1.71469, 1.77933, 1.7835, 1.85608, 1.87747, 1.88681, 1.88516, 1.87276, 1.8098, 1.73717, 1.6553, 1.60355, 1.58341, 1.60179, 1.59819, 1.59571, 1.59571, 1.59519, 1.58514, 1.58221, 1.57998, 1.57694, 1.57599, 1.57248, 1.57341, 1.5857, 1.56824, 1.56465, 1.57859, 1.57586, 1.57624, 1.55823, 1.55633, 1.55313, 1.57201, 1.55695, 1.55769, 1.55757, 1.55556, 1.55313, 1.55153, 1.54545, 1.54309, 1.54152, 1.54016, 1.53887, 1.53728, 1.53555, 1.53236, 1.53173, 1.5328, 1.53055, 1.5293, 1.53518, 1.52251, 1.53263, 1.53145, 1.53479, 1.53406, 1.53421, 1.517, 1.52268, 1.51336, 1.51144, 1.51212, 1.51109, 1.5106, 1.51108, 1.50362, 1.50229, 1.50041, 1.50741, 1.4995, 1.49764, 1.49628, 1.49429, 1.49691, 1.49939, 1.50901, 1.49731, 1.51017, 1.48902, 1.46858, 1.47187, 1.49008, 1.53727, 1.57345, 1.5818, 1.60194, 1.61, 1.61334, 1.61281, 1.60961, 1.59839, 1.59366, 1.55742, 1.54171, 1.54304, 1.482, 1.42917, 1.45088, 1.45789, 1.46225, 1.4585, 1.4613, 1.45415, 1.44655, 1.4462, 1.44547, 1.4447, 1.46757, 1.46458, 1.46656, 1.46491, 1.4567, 1.44517, 1.43931, 1.43435, 1.43365, 1.4321, 1.43175, 1.43068, 1.42595, 1.42637, 1.42639, 1.42671, 1.42747, 1.42774, 1.43839, 1.4232, 1.42274, 1.42155, 1.41911, 1.413, 1.41155, 1.41374, 1.41331, 1.41223, 1.41287, 1.40943, 1.40752, 1.40862, 1.40852, 1.40849, 1.4082, 1.40712, 1.40572, 1.40518, 1.40432, 1.40971, 1.40142, 1.40134, 1.39561, 1.3925, 1.39211, 1.39196, 1.39188, 1.39013, 1.38862, 1.38643, 1.3846, 1.38413, 1.38117, 1.37968, 1.3793, 1.3778, 1.37674, 1.37438, 1.37273, 1.37286, 1.37298, 1.37094, 1.37055, 1.36755, 1.36796, 1.37515, 1.36709, 1.36744, 1.36893, 1.36732, 1.36148, 1.3606, 1.36187, 1.36234, 1.36493, 1.36598, 1.36414, 1.34129, 1.39916, 1.36782, 1.44171, 1.4638, 1.4787, 1.48273, 1.54344, 1.52771, 1.54482, 1.56454, 1.54941, 1.54753, 1.5466, 1.45942, 1.4136, 1.37143, 1.33966, 1.31533, 1.32687, 1.33605, 1.34681, 1.33689, 1.32964, 1.3267, 1.32441, 1.32638, 1.32576, 1.32465, 1.32368, 1.32265, 1.322, 1.33188, 1.32553, 1.32219, 1.32175, 1.31811, 1.31716, 1.31842
1.67465, 1.67033, 1.66985, 1.67164, 1.67149, 1.66579, 1.6633, 1.66317, 1.66041, 1.65845, 1.68226, 1.66144, 1.66821, 1.64965, 1.64671, 1.64729, 1.65478, 1.64245, 1.63952, 1.63806, 1.64397, 1.6344, 1.64056, 1.64005, 1.63063, 1.63188, 1.60724, 1.63417, 1.64066, 1.67487, 1.69587, 1.73406, 1.80001, 1.81693, 1.86103, 1.88211, 1.88273, 1.87247, 1.84134, 1.80929, 1.74367, 1.60628, 1.58099, 1.59772, 1.60649, 1.60713, 1.59913, 1.59557, 1.59356, 1.58655, 1.58363, 1.5817, 1.57834, 1.5761, 1.57406, 1.57284, 1.5856, 1.56934, 1.5988, 1.5685, 1.56678, 1.56432, 1.56223, 1.56227, 1.55931, 1.55874, 1.55828, 1.55642, 1.56329, 1.55276, 1.55005, 1.54979, 1.54735, 1.54733, 1.54481, 1.54247, 1.53982, 1.54, 1.53656, 1.53457, 1.53388, 1.5318, 1.53351, 1.52692, 1.53135, 1.52803, 1.52325, 1.53333, 1.53007, 1.52657, 1.54272, 1.52954, 1.52142, 1.51208, 1.51068, 1.50907, 1.50603, 1.50654, 1.50861, 1.50356, 1.50081, 1.5005, 1.49802, 1.49766, 1.4989, 1.49508, 1.49454, 1.49602, 1.5031, 1.50679, 1.49392, 1.4991, 1.46446, 1.46649, 1.47355, 1.51106, 1.5233, 1.56475, 1.57454, 1.60705, 1.65964, 1.61884, 1.60235, 1.60211, 1.58555, 1.59919, 1.57054, 1.52366, 1.46088, 1.46498, 1.44697, 1.46729, 1.46153, 1.471, 1.46527, 1.45114, 1.44853, 1.44691, 1.46814, 1.446, 1.44982, 1.4521, 1.45525, 1.46617, 1.46221, 1.45432, 1.45062, 1.45387, 1.43501, 1.43154, 1.43877, 1.43039, 1.42796, 1.42744, 1.42623, 1.42457, 1.42323, 1.42312, 1.43036, 1.42102, 1.41922, 1.41722, 1.41712, 1.41489, 1.41422, 1.41294, 1.41328, 1.40955, 1.40847, 1.40687, 1.40656, 1.40518, 1.404, 1.4035, 1.40267, 1.40207, 1.41675, 1.3986, 1.39868, 1.39587, 1.39541, 1.39354, 1.39199, 1.39077, 1.38911, 1.38904, 1.38521, 1.38445, 1.38268, 1.3833, 1.38219, 1.38014, 1.37787, 1.37779, 1.37636, 1.37561, 1.37538, 1.37313, 1.37141, 1.37172, 1.37164, 1.3723, 1.37194, 1.36978, 1.36913, 1.36844, 1.39113, 1.36593, 1.366, 1.36452, 1.3642, 1.37123, 1.37133, 1.36453, 1.37908, 1.38145, 1.35586, 1.35118, 1.35854, 1.39122, 1.42785, 1.45458, 1.46594, 1.53141, 1.52084, 1.54167, 1.57514, 1.57353, 1.57205, 1.56086, 1.55268, 1.43153, 1.41647, 1.37409, 1.32275, 1.31701, 1.34396, 1.35476, 1.34662, 1.34064, 1.33634, 1.33545, 1.34034, 1.33052, 1.35155, 1.33041, 1.32781, 1.32722, 1.32713, 1.32447, 1.33615, 1.32367, 1.32257, 1.32241, 1.32045, 1.31879
1.66817, 1.66759, 1.66513, 1.66414, 1.66282, 1.66649, 1.6598, 1.65568, 1.6544, 1.65314, 1.66191, 1.64957, 1.64705, 1.6461, 1.64539, 1.64259, 1.63929, 1.64358, 1.63734, 1.63628, 1.63391, 1.63229, 1.63272, 1.64377, 1.64079, 1.62266, 1.60007, 1.60286, 1.64343, 1.68892, 1.67895, 1.69659, 1.73228, 1.79525, 1.81677, 1.85186, 1.94359, 1.97492, 1.79958, 1.75298, 1.66575, 1.58277, 1.57146, 1.58944, 1.60052, 1.59577, 1.60222, 1.58854, 1.58205, 1.58085, 1.58153, 1.57844, 1.58855, 1.57319, 1.57202, 1.58546, 1.56639, 1.56441, 1.56441, 1.56655, 1.5664, 1.56156, 1.55971, 1.55866, 1.5581, 1.55685, 1.55553, 1.55753, 1.55419, 1.54929, 1.55123, 1.56781, 1.55472, 1.54586, 1.54207, 1.54075, 1.54032, 1.53865, 1.53619, 1.53486, 1.53443, 1.52992, 1.53004, 1.52748, 1.52662, 1.52604, 1.52084, 1.52017, 1.51674, 1.53306, 1.54292, 1.52857, 1.53062, 1.52143, 1.50639, 1.50843, 1.50656, 1.50642, 1.50447, 1.50395, 1.50272, 1.50024, 1.50686, 1.51004, 1.49708, 1.50251, 1.49475, 1.49247, 1.49349, 1.5064, 1.49936, 1.47586, 1.45729, 1.45845, 1.48836, 1.54943, 1.56404, 1.56915, 1.5743, 1.58423, 1.57521, 1.58121, 1.58811, 1.58912, 1.57681, 1.56892, 1.55534, 1.56575, 1.51286, 1.47237, 1.42786, 1.45024, 1.46684, 1.46689, 1.46765, 1.45804, 1.46165, 1.44799, 1.4475, 1.44677, 1.45247, 1.44426, 1.45126, 1.45101, 1.4499, 1.45725, 1.4499, 1.45748, 1.43864, 1.43544, 1.43632, 1.42728, 1.42613, 1.42593, 1.42426, 1.42348, 1.4227, 1.42216, 1.41951, 1.41944, 1.41858, 1.41784, 1.41869, 1.41735, 1.41914, 1.41451, 1.4133, 1.41199, 1.41122, 1.41187, 1.40916, 1.40759, 1.40752, 1.40432, 1.40339, 1.40248, 1.40018, 1.39867, 1.39732, 1.39813, 1.39733, 1.41997, 1.39397, 1.39191, 1.39876, 1.39483, 1.38448, 1.38451, 1.3827, 1.38339, 1.38083, 1.38058, 1.3806, 1.37807, 1.37721, 1.37763, 1.37522, 1.38478, 1.37423, 1.37478, 1.37317, 1.37506, 1.37324, 1.37256, 1.38946, 1.3698, 1.37694, 1.37508, 1.36521, 1.36583, 1.36141, 1.35932, 1.35919, 1.36426, 1.36039, 1.36071, 1.35946, 1.35122, 1.36789, 1.37392, 1.40712, 1.44167, 1.47207, 1.47659, 1.50662, 1.53047, 1.56454, 1.56187, 1.54502, 1.55163, 1.5335, 1.48217, 1.4297, 1.39481, 1.35494, 1.32888, 1.35379, 1.35723, 1.36571, 1.35096, 1.34396, 1.35457, 1.34763, 1.33685, 1.3349, 1.3521, 1.33493, 1.32675, 1.32964, 1.32896, 1.32819, 1.32634, 1.3238, 1.32392, 1.32064, 1.3205
1.67512, 1.66713, 1.66488, 1.66423, 1.66174, 1.66146, 1.65881, 1.65516, 1.65105, 1.65034, 1.64816, 1.65817, 1.64397, 1.64526, 1.64208, 1.63989, 1.65683, 1.64281, 1.63535, 1.65106, 1.63411, 1.63475, 1.64539, 1.64347, 1.65536, 1.64468, 1.61056, 1.5948, 1.63077, 1.7205, 1.71396, 1.75124, 1.76828, 1.80235, 1.85514, 1.88649, 1.90421, 1.90867, 1.89491, 1.81056, 1.73752, 1.6156, 1.57888, 1.58571, 1.60957, 1.60616, 1.60003, 1.59938, 1.6041, 1.58915, 1.59962, 1.59264, 1.6004, 1.58683, 1.57839, 1.58185, 1.58272, 1.58233, 1.56861, 1.58971, 1.56492, 1.56148, 1.56096, 1.55994, 1.55972, 1.55844, 1.55756, 1.55543, 1.55435, 1.55593, 1.55268, 1.55246, 1.55128, 1.55087, 1.54732, 1.5557, 1.54303, 1.54171, 1.54104, 1.53871, 1.53462, 1.53393, 1.53249, 1.5301, 1.53, 1.52623, 1.52595, 1.52331, 1.52372, 1.5406, 1.53001, 1.52488, 1.53726, 1.53276, 1.52217, 1.51914, 1.53086, 1.51663, 1.51471, 1.52, 1.5135, 1.50569, 1.50385, 1.50133, 1.50022, 1.49884, 1.49858, 1.49902, 1.50579, 1.50083, 1.50237, 1.50576, 1.46792, 1.47427, 1.51982, 1.55019, 1.56437, 1.57144, 1.59426, 1.65793, 1.61441, 1.59585, 1.59084, 1.58724, 1.56779, 1.54396, 1.54467, 1.5246, 1.4719, 1.44508, 1.44862, 1.46592, 1.4776, 1.46986, 1.48497, 1.46586, 1.46325, 1.466, 1.45317, 1.45275, 1.44909, 1.44679, 1.44597, 1.44402, 1.45029, 1.45017, 1.45524, 1.45408, 1.44039, 1.45389, 1.43464, 1.43279, 1.43114, 1.42977, 1.43981, 1.42661, 1.43478, 1.4232, 1.42264, 1.42116, 1.42071, 1.41968, 1.4198, 1.41904, 1.42343, 1.41752, 1.41687, 1.41342, 1.42678, 1.41072, 1.40913, 1.40827, 1.40629, 1.4047, 1.40389, 1.40886, 1.39954, 1.39968, 1.39729, 1.39637, 1.39497, 1.39462, 1.39345, 1.39494, 1.39279, 1.38957, 1.38617, 1.38556, 1.38585, 1.38409, 1.38133, 1.3824, 1.38119, 1.37747, 1.37553, 1.37511, 1.37313, 1.37376, 1.37249, 1.37325, 1.37166, 1.36994, 1.36813, 1.36742, 1.36664, 1.36695, 1.36722, 1.36578, 1.36466, 1.36391, 1.36216, 1.3611, 1.36673, 1.36059, 1.36297, 1.3632, 1.36169, 1.37237, 1.33667, 1.37087, 1.38878, 1.41557, 1.45083, 1.50743, 1.50958, 1.53804, 1.56197, 1.58207, 1.57303, 1.5618, 1.51058, 1.47319, 1.44345, 1.41221, 1.32721, 1.32893, 1.35057, 1.34925, 1.3538, 1.34491, 1.33988, 1.34727, 1.33778, 1.36163, 1.3326, 1.33212, 1.33117, 1.3303, 1.32845, 1.32675, 1.33682, 1.32656, 1.32714, 1.32265, 1.32195, 1.32265
1.66925, 1.66714, 1.6646, 1.66296, 1.66159, 1.65829, 1.65546, 1.65414, 1.65151, 1.64943, 1.64851, 1.64811, 1.64426, 1.64128, 1.6415, 1.64004, 1.64173, 1.63866, 1.63475, 1.6366, 1.65837, 1.64466, 1.63141, 1.64147, 1.64355, 1.64076, 1.61342, 1.60757, 1.66442, 1.67113, 1.71237, 1.73848, 1.82465, 1.81785, 1.98336, 1.9825, 1.97721, 1.96217, 1.937, 1.78655, 1.71674, 1.59342, 1.58067, 1.5787, 1.60766, 1.59626, 1.58922, 1.58841, 1.58806, 1.58504, 1.58244, 1.58058, 1.57886, 1.57531, 1.57517, 1.57303, 1.5717, 1.56925, 1.5684, 1.56519, 1.56447, 1.56196, 1.56057, 1.55823, 1.55764, 1.55645, 1.55552, 1.55367, 1.55403, 1.55156, 1.54869, 1.54746, 1.5467, 1.54476, 1.54545, 1.54118, 1.54075, 1.53866, 1.5364, 1.53458, 1.53087, 1.52825, 1.52675, 1.52882, 1.52685, 1.52361, 1.5259, 1.52132, 1.52036, 1.51854, 1.51822, 1.51776, 1.52963, 1.54423, 1.52242, 1.54447, 1.53115, 1.51254, 1.51072, 1.50927, 1.50882, 1.50546, 1.50402, 1.50104, 1.49887, 1.49679, 1.49532, 1.49543, 1.49604, 1.49554, 1.49325, 1.49001, 1.46857, 1.4738, 1.48894, 1.54636, 1.53814, 1.54135, 1.54796, 1.57546, 1.57114, 1.56182, 1.56708, 1.57242, 1.57746, 1.56062, 1.51971, 1.5074, 1.49584, 1.50052, 1.45808, 1.46637, 1.46594, 1.46856, 1.47074, 1.46516, 1.45696, 1.45353, 1.45621, 1.44904, 1.44808, 1.44714, 1.44504, 1.44438, 1.44007, 1.43963, 1.44339, 1.46151, 1.43996, 1.44841, 1.43921, 1.42968, 1.42857, 1.42592, 1.42374, 1.42927, 1.4326, 1.42122, 1.42127, 1.42053, 1.42025, 1.41992, 1.41955, 1.41883, 1.41808, 1.41742, 1.41629, 1.41431, 1.41272, 1.41154, 1.41082, 1.4108, 1.40743, 1.4074, 1.40551, 1.40453, 1.40397, 1.40337, 1.40169, 1.39999, 1.39851, 1.39717, 1.39307, 1.39322, 1.39238, 1.39134, 1.38903, 1.388, 1.38767, 1.38442, 1.38093, 1.37801, 1.37657, 1.37267, 1.37157, 1.37075, 1.36937, 1.3682, 1.36739, 1.36598, 1.3655, 1.3674, 1.36683, 1.36474, 1.3747, 1.36562, 1.36626, 1.36697, 1.36837, 1.3667, 1.3672, 1.37879, 1.36493, 1.36582, 1.36588, 1.36775, 1.36709, 1.34714, 1.33536, 1.38549, 1.37485, 1.40019, 1.44108, 1.47876, 1.52382, 1.54864, 1.56887, 1.57541, 1.61623, 1.59271, 1.57286, 1.47665, 1.42613, 1.39409, 1.326, 1.32664, 1.35483, 1.34625, 1.35888, 1.35394, 1.34289, 1.34001, 1.32996, 1.32942, 1.33357, 1.32987, 1.32838, 1.32873, 1.32856, 1.32779, 1.32685, 1.32566, 1.32577, 1.32582, 1.32611, 1.32302
1.66558, 1.66237, 1.66223, 1.66786, 1.65753, 1.65553, 1.65579, 1.65406, 1.64894, 1.64607, 1.6444, 1.64164, 1.64231, 1.64476, 1.63837, 1.63535, 1.6344, 1.63357, 1.63477, 1.63293, 1.63335, 1.63236, 1.63007, 1.63071, 1.63691, 1.63899, 1.63062, 1.58173, 1.6109, 1.64262, 1.67954, 1.71911, 1.79178, 1.75166, 1.89136, 1.92505, 1.94727, 1.9622, 1.92385, 1.78932, 1.65367, 1.58868, 1.58206, 1.58313, 1.59677, 1.6051, 1.59033, 1.60198, 1.58713, 1.58328, 1.58244, 1.5876, 1.58319, 1.58263, 1.57659, 1.5729, 1.57159, 1.58575, 1.56842, 1.56657, 1.56376, 1.56127, 1.55978, 1.56, 1.55428, 1.55346, 1.55113, 1.55203, 1.55086, 1.5499, 1.56683, 1.54477, 1.54313, 1.55231, 1.54087, 1.53825, 1.5373, 1.53345, 1.5311, 1.52963, 1.52719, 1.52557, 1.52622, 1.53115, 1.51936, 1.51729, 1.51682, 1.51542, 1.51436, 1.51284, 1.51165, 1.51119, 1.5139, 1.5239, 1.53415, 1.54215, 1.5299, 1.51353, 1.5158, 1.50649, 1.50462, 1.5199, 1.50226, 1.49897, 1.50665, 1.48958, 1.50055, 1.49487, 1.49647, 1.497, 1.49232, 1.48978, 1.46549, 1.47169, 1.49196, 1.51271, 1.54851, 1.5843, 1.65988, 1.60746, 1.58171, 1.60618, 1.57014, 1.55878, 1.56075, 1.56056, 1.56515, 1.56216, 1.5257, 1.50105, 1.47142, 1.4504, 1.47797, 1.4761, 1.46663, 1.467, 1.45377, 1.46124, 1.45347, 1.44654, 1.44345, 1.45082, 1.4409, 1.44015, 1.43866, 1.43643, 1.43675, 1.43524, 1.45087, 1.4339, 1.44008, 1.41902, 1.45096, 1.43043, 1.42234, 1.42204, 1.41957, 1.42899, 1.41761, 1.41715, 1.41961, 1.41742, 1.41719, 1.42682, 1.41553, 1.41335, 1.41132, 1.41039, 1.40824, 1.40831, 1.40705, 1.40697, 1.40532, 1.40398, 1.40359, 1.40283, 1.40269, 1.40172, 1.39886, 1.39803, 1.39723, 1.3962, 1.39724, 1.39651, 1.39431, 1.39491, 1.39217, 1.39054, 1.38785, 1.38739, 1.38559, 1.38446, 1.38141, 1.38046, 1.3786, 1.37727, 1.39918, 1.37414, 1.37202, 1.37157, 1.3713, 1.3685, 1.36725, 1.36722, 1.36555, 1.36791, 1.36707, 1.38411, 1.37585, 1.36742, 1.36434, 1.37493, 1.36229, 1.36494, 1.36583, 1.37117, 1.37428, 1.37424, 1.33341, 1.36766, 1.40384, 1.42156, 1.46113, 1.5014, 1.52871, 1.54369, 1.57646, 1.58304, 1.59149, 1.57716, 1.55899, 1.49138, 1.43837, 1.38591, 1.33755, 1.32967, 1.33935, 1.34351, 1.34283, 1.33532, 1.33367, 1.33621, 1.33149, 1.33244, 1.32765, 1.32956, 1.32972, 1.32921, 1.32993, 1.32818, 1.32902, 1.32422, 1.32292, 1.32285, 1.34273, 1.31951
1.6668, 1.66269, 1.6615, 1.65945, 1.65835, 1.65404, 1.6531, 1.66086, 1.65867, 1.65156, 1.64532, 1.66185, 1.64281, 1.64141, 1.65035, 1.6361, 1.63539, 1.63456, 1.63451, 1.63441, 1.63338, 1.63226, 1.63124, 1.62983, 1.63009, 1.6477, 1.6309, 1.61236, 1.60391, 1.64747, 1.67269, 1.73482, 1.731, 1.77893, 1.83713, 1.93092, 1.94252, 1.75987, 1.92451, 1.89625, 1.78179, 1.64903, 1.54882, 1.58593, 1.61288, 1.59315, 1.59696, 1.59299, 1.59559, 1.6, 1.60245, 1.58015, 1.57696, 1.57532, 1.5751, 1.57154, 1.56986, 1.56841, 1.56587, 1.56485, 1.56358, 1.56189, 1.56107, 1.55821, 1.55726, 1.5559, 1.55615, 1.55677, 1.55225, 1.55033, 1.54946, 1.5479, 1.54634, 1.54331, 1.54429, 1.54191, 1.53956, 1.53805, 1.53486, 1.53358, 1.53147, 1.52997, 1.52735, 1.52651, 1.52333, 1.52113, 1.5182, 1.51749, 1.51614, 1.51365, 1.51231, 1.5145, 1.51154, 1.51952, 1.52951, 1.52447, 1.53733, 1.53415, 1.52958, 1.53437, 1.50738, 1.50268, 1.50277, 1.50603, 1.49974, 1.506, 1.49604, 1.49246, 1.4939, 1.49673, 1.50682, 1.50935, 1.48387, 1.48699, 1.5076, 1.5092, 1.53972, 1.53734, 1.57134, 1.6482, 1.56139, 1.55118, 1.55266, 1.55267, 1.54949, 1.53363, 1.53338, 1.51579, 1.49208, 1.49197, 1.44666, 1.45553, 1.46517, 1.46797, 1.46319, 1.47194, 1.46166, 1.4512, 1.45835, 1.45652, 1.44723, 1.44511, 1.44685, 1.45865, 1.46317, 1.45563, 1.45048, 1.43511, 1.44171, 1.44022, 1.45333, 1.45168, 1.44764, 1.42831, 1.43918, 1.42967, 1.4177, 1.41742, 1.41606, 1.41503, 1.41624, 1.4151, 1.41416, 1.41276, 1.41633, 1.40973, 1.40878, 1.40744, 1.40984, 1.40383, 1.4034, 1.40172, 1.40098, 1.40044, 1.39996, 1.39927, 1.39803, 1.40234, 1.39811, 1.39606, 1.3954, 1.39546, 1.39277, 1.39101, 1.38983, 1.3882, 1.38822, 1.38681, 1.38628, 1.38454, 1.38328, 1.38156, 1.38114, 1.381, 1.37996, 1.3805, 1.37888, 1.3774, 1.37678, 1.37692, 1.37715, 1.37778, 1.376, 1.37402, 1.37441, 1.37175, 1.36777, 1.36677, 1.36596, 1.36672, 1.36498, 1.36432, 1.36178, 1.37475, 1.36145, 1.38224, 1.3671, 1.36077, 1.3497, 1.36147, 1.37595, 1.37111, 1.42722, 1.47447, 1.49549, 1.52098, 1.55484, 1.56816, 1.57058, 1.57823, 1.55381, 1.52353, 1.43127, 1.33756, 1.32105, 1.32895, 1.36122, 1.34505, 1.34231, 1.33927, 1.34096, 1.33403, 1.33305, 1.33156, 1.32811, 1.32816, 1.33049, 1.32614, 1.32559, 1.3256, 1.32534, 1.32078, 1.32064, 1.32316, 1.31863, 1.31945
1.66595, 1.66278, 1.6614, 1.65691, 1.65464, 1.65159, 1.65061, 1.64633, 1.64472, 1.64422, 1.64186, 1.64644, 1.64207, 1.641, 1.64067, 1.63702, 1.635, 1.63396, 1.63395, 1.63349, 1.63306, 1.63094, 1.62807, 1.62744, 1.62734, 1.62802, 1.62831, 1.62084, 1.59944, 1.62263, 1.65341, 1.71071, 1.71577, 1.7957, 1.83042, 1.91535, 1.90289, 1.9767, 2.1775, 1.80604, 1.70634, 1.63816, 1.559, 1.57794, 1.59369, 1.59854, 1.58921, 1.58929, 1.5829, 1.57922, 1.58148, 1.5748, 1.57397, 1.57137, 1.57151, 1.57602, 1.5681, 1.56532, 1.56166, 1.56443, 1.56166, 1.56015, 1.55615, 1.55643, 1.5553, 1.55343, 1.55209, 1.5485, 1.54545, 1.54498, 1.543, 1.54101, 1.53962, 1.53872, 1.53956, 1.53436, 1.53217, 1.53149, 1.5331, 1.52919, 1.52633, 1.52511, 1.52392, 1.52281, 1.52231, 1.52042, 1.52676, 1.51762, 1.51683, 1.51346, 1.51275, 1.51119, 1.51273, 1.50856, 1.50591, 1.51248, 1.51399, 1.53011, 1.53349, 1.54073, 1.53743, 1.53105, 1.50819, 1.50198, 1.49719, 1.49618, 1.50874, 1.4891, 1.50074, 1.49123, 1.49161, 1.49922, 1.48255, 1.47725, 1.49257, 1.49712, 1.5509, 1.56796, 1.60632, 1.57465, 1.57389, 1.57878, 1.53771, 1.53691, 1.53485, 1.5295, 1.53618, 1.52747, 1.50736, 1.46629, 1.45619, 1.43714, 1.44127, 1.47149, 1.47047, 1.45835, 1.45297, 1.45439, 1.45386, 1.46193, 1.46177, 1.45253, 1.44844, 1.44878, 1.47201, 1.46933, 1.47111, 1.47757, 1.46968, 1.46416, 1.43459, 1.43118, 1.4205, 1.42663, 1.42456, 1.43005, 1.42139, 1.42267, 1.41837, 1.41749, 1.41659, 1.41534, 1.41511, 1.41385, 1.41261, 1.41026, 1.40949, 1.40688, 1.40646, 1.40527, 1.40444, 1.40224, 1.40052, 1.40078, 1.40003, 1.4002, 1.39887, 1.39716, 1.39633, 1.3957, 1.3935, 1.3919, 1.39155, 1.39052, 1.38783, 1.38758, 1.38474, 1.38356, 1.38309, 1.38084, 1.3812, 1.37883, 1.37793, 1.37673, 1.37604, 1.37502, 1.37428, 1.37455, 1.37428, 1.37407, 1.37453, 1.37399, 1.37232, 1.37251, 1.37095, 1.36958, 1.36774, 1.36389, 1.36262, 1.36179, 1.36031, 1.3602, 1.35698, 1.35692, 1.35654, 1.36453, 1.36625, 1.36497, 1.35755, 1.38194, 1.38836, 1.40952, 1.43995, 1.48949, 1.5727, 1.56878, 1.58382, 1.60646, 1.63768, 1.635, 1.59213, 1.50657, 1.48837, 1.37537, 1.32089, 1.32677, 1.33582, 1.35342, 1.33751, 1.34063, 1.33984, 1.33203, 1.32953, 1.32948, 1.32938, 1.32851, 1.32783, 1.32598, 1.32613, 1.32289, 1.32337, 1.32017, 1.31978, 1.31703, 1.31776, 1.31816
1.66991, 1.66859, 1.66725, 1.66503, 1.66415, 1.66012, 1.65974, 1.65693, 1.65546, 1.65362, 1.65139, 1.6474, 1.64733, 1.64461, 1.64413, 1.65808, 1.63897, 1.63862, 1.65868, 1.63297, 1.63429, 1.63093, 1.64151, 1.64078, 1.62793, 1.62727, 1.62858, 1.62446, 1.59224, 1.63459, 1.68951, 1.67608, 1.72388, 1.77568, 1.81311, 1.8584, 1.8784, 1.94234, 2.05709, 1.97687, 1.72455, 1.64439, 1.56932, 1.58585, 1.60344, 1.60265, 1.59952, 1.59739, 1.59023, 1.59614, 1.58344, 1.58973, 1.58217, 1.5794, 1.57444, 1.57, 1.56819, 1.57275, 1.56553, 1.56912, 1.56398, 1.5616, 1.55814, 1.55687, 1.55521, 1.55241, 1.54856, 1.54781, 1.55093, 1.54335, 1.54081, 1.53955, 1.54322, 1.53497, 1.58873, 1.53359, 1.53194, 1.52982, 1.52742, 1.5341, 1.52461, 1.52262, 1.52188, 1.52055, 1.52133, 1.52003, 1.55115, 1.51942, 1.51877, 1.51755, 1.5329, 1.51621, 1.54348, 1.52071, 1.52006, 1.52394, 1.50979, 1.52019, 1.51389, 1.53078, 1.5302, 1.55185, 1.53674, 1.53112, 1.50092, 1.50998, 1.51637, 1.49932, 1.53758, 1.50343, 1.51078, 1.4971, 1.47158, 1.47042, 1.4886, 1.50059, 1.49876, 1.54445, 1.55441, 1.56666, 1.5621, 1.54355, 1.52904, 1.53657, 1.53826, 1.54708, 1.55207, 1.52509, 1.50907, 1.45708, 1.44568, 1.45074, 1.46607, 1.48377, 1.46807, 1.47823, 1.47644, 1.4991, 1.50971, 1.49188, 1.49247, 1.50508, 1.4978, 1.50025, 1.48942, 1.47909, 1.47402, 1.45257, 1.45154, 1.44002, 1.45408, 1.43829, 1.44246, 1.441, 1.44371, 1.42836, 1.44746, 1.42243, 1.42189, 1.4218, 1.42008, 1.41792, 1.44296, 1.4137, 1.41181, 1.41048, 1.4079, 1.40654, 1.40619, 1.40387, 1.40203, 1.40222, 1.40207, 1.40011, 1.40007, 1.39861, 1.39772, 1.39734, 1.39573, 1.39324, 1.39096, 1.3904, 1.38977, 1.38928, 1.38781, 1.38678, 1.38557, 1.38423, 1.38291, 1.38305, 1.38468, 1.38162, 1.38116, 1.38081, 1.37806, 1.37916, 1.37648, 1.37579, 1.37441, 1.37526, 1.40423, 1.3727, 1.37145, 1.37181, 1.37007, 1.36875, 1.36747, 1.36474, 1.3644, 1.36304, 1.36371, 1.36181, 1.36113, 1.35842, 1.36794, 1.37079, 1.36831, 1.36529, 1.34738, 1.34182, 1.35092, 1.40866, 1.39293, 1.4463, 1.50189, 1.55285, 1.55647, 1.59579, 1.61008, 1.62808, 1.61743, 1.53133, 1.46377, 1.44449, 1.31409, 1.30799, 1.35464, 1.35852, 1.3408, 1.34751, 1.34102, 1.35344, 1.3337, 1.33283, 1.33643, 1.33117, 1.33874, 1.33551, 1.32906, 1.32677, 1.32596, 1.32576, 1.32318, 1.32109, 1.32021, 1.31911
1.66241, 1.6627, 1.65844, 1.65711, 1.65462, 1.65255, 1.65247, 1.65378, 1.65151, 1.6498, 1.64946, 1.64947, 1.64793, 1.64671, 1.64416, 1.64128, 1.63824, 1.6383, 1.6352, 1.6317, 1.63077, 1.62855, 1.63792, 1.62283, 1.62475, 1.62675, 1.63479, 1.6206, 1.6074, 1.59819, 1.65804, 1.66172, 1.74807, 1.73837, 1.76059, 1.80921, 1.89009, 1.94937, 1.95568, 1.92856, 1.71594, 1.60024, 1.56839, 1.58878, 1.61888, 1.603, 1.59284, 1.59649, 1.593, 1.59093, 1.59678, 1.58635, 1.58957, 1.58917, 1.59936, 1.58463, 1.57607, 1.57359, 1.56939, 1.56873, 1.57186, 1.56176, 1.56023, 1.55745, 1.55563, 1.55311, 1.55121, 1.54973, 1.54698, 1.545, 1.54344, 1.5419, 1.53946, 1.53702, 1.53529, 1.53285, 1.53205, 1.53094, 1.52908, 1.527, 1.52465, 1.52396, 1.52289, 1.52178, 1.52092, 1.51914, 1.51763, 1.5174, 1.51578, 1.51506, 1.51458, 1.51247, 1.51081, 1.51037, 1.50935, 1.50864, 1.53457, 1.51377, 1.50528, 1.50601, 1.52705, 1.52439, 1.52478, 1.5346, 1.53774, 1.54353, 1.50994, 1.50084, 1.49992, 1.48942, 1.49263, 1.49957, 1.48164, 1.46801, 1.48319, 1.46925, 1.54311, 1.54183, 1.54964, 1.5585, 1.54536, 1.5347, 1.53021, 1.5163, 1.50703, 1.53753, 1.54673, 1.57529, 1.51337, 1.52298, 1.51268, 1.47409, 1.4781, 1.46737, 1.46168, 1.4613, 1.46222, 1.46204, 1.45874, 1.44416, 1.44433, 1.44842, 1.44786, 1.44764, 1.45284, 1.45791, 1.44378, 1.44021, 1.45228, 1.43654, 1.43378, 1.43133, 1.42975, 1.42737, 1.42617, 1.42476, 1.4232, 1.42224, 1.42168, 1.42077, 1.41904, 1.4188, 1.4158, 1.41473, 1.41313, 1.41179, 1.41206, 1.41027, 1.40837, 1.4056, 1.405, 1.40312, 1.40163, 1.4011, 1.39844, 1.39863, 1.39711, 1.39627, 1.39589, 1.39402, 1.39152, 1.39122, 1.39118, 1.39012, 1.39088, 1.39009, 1.38807, 1.38694, 1.38533, 1.38521, 1.38293, 1.38283, 1.38106, 1.38, 1.37991, 1.38588, 1.37637, 1.37266, 1.37471, 1.37194, 1.37064, 1.36972, 1.36856, 1.3674, 1.3656, 1.3653, 1.36278, 1.3615, 1.36198, 1.35952, 1.3652, 1.35747, 1.3557, 1.35536, 1.35327, 1.35464, 1.35806, 1.35857, 1.36085, 1.33032, 1.35977, 1.39336, 1.43746, 1.47134, 1.51025, 1.55468, 1.56893, 1.62537, 1.63445, 1.64089, 1.59029, 1.59071, 1.42987, 1.39107, 1.32919, 1.30312, 1.33775, 1.33825, 1.34146, 1.34355, 1.33256, 1.34501, 1.32952, 1.32847, 1.32637, 1.32655, 1.32629, 1.32508, 1.32321, 1.32232, 1.32262, 1.32336, 1.32239, 1.31953, 1.31703, 1.31582
1.65911, 1.65809, 1.65578, 1.65585, 1.65224, 1.65169, 1.65162, 1.65188, 1.65256, 1.65374, 1.65212, 1.65014, 1.64873, 1.64836, 1.64455, 1.64266, 1.65141, 1.64449, 1.63664, 1.63209, 1.63036, 1.62753, 1.62681, 1.62315, 1.62415, 1.62027, 1.62089, 1.62132, 1.61663, 1.58642, 1.62681, 1.67087, 1.71416, 1.76526, 1.82701, 1.86112, 1.96164, 2.00388, 1.97417, 1.89005, 1.68828, 1.66113, 1.58311, 1.59016, 1.60037, 1.59141, 1.59901, 1.61638, 1.60752, 1.61282, 1.604, 1.60181, 1.60105, 1.58684, 1.5823, 1.58332, 1.59254, 1.58581, 1.57068, 1.56882, 1.56525, 1.56332, 1.56101, 1.5599, 1.55735, 1.56063, 1.55153, 1.54851, 1.54674, 1.54556, 1.54351, 1.5417, 1.53904, 1.53759, 1.53496, 1.53466, 1.53295, 1.53039, 1.52838, 1.52436, 1.5245, 1.52344, 1.52311, 1.52102, 1.51879, 1.51851, 1.51708, 1.5161, 1.51431, 1.51302, 1.51327, 1.51226, 1.50967, 1.50667, 1.50589, 1.51305, 1.50733, 1.50554, 1.50624, 1.50324, 1.50977, 1.5023, 1.50098, 1.50073, 1.50886, 1.50647, 1.52401, 1.5202, 1.51457, 1.51799, 1.51697, 1.51082, 1.5046, 1.48524, 1.48492, 1.49026, 1.53457, 1.56317, 1.55543, 1.55795, 1.54436, 1.53139, 1.49506, 1.50507, 1.50363, 1.5109, 1.56626, 1.52862, 1.51385, 1.49481, 1.49171, 1.46456, 1.46481, 1.47111, 1.46508, 1.47546, 1.46399, 1.46332, 1.45038, 1.44824, 1.45573, 1.44429, 1.44126, 1.44075, 1.43941, 1.43691, 1.43463, 1.43315, 1.43097, 1.4288, 1.42917, 1.42556, 1.42335, 1.42268, 1.42375, 1.42339, 1.42345, 1.42202, 1.42073, 1.4179, 1.41552, 1.41332, 1.4107, 1.41266, 1.41138, 1.41055, 1.40893, 1.40919, 1.40808, 1.40764, 1.40689, 1.40682, 1.40663, 1.40402, 1.4168, 1.40028, 1.39712, 1.39582, 1.39489, 1.39222, 1.39174, 1.39165, 1.39073, 1.38987, 1.39861, 1.38868, 1.38656, 1.38485, 1.38291, 1.38318, 1.38317, 1.38278, 1.38181, 1.381, 1.37899, 1.37856, 1.37638, 1.37432, 1.3732, 1.37129, 1.37092, 1.36816, 1.367, 1.36875, 1.36705, 1.36394, 1.36252, 1.36379, 1.36119, 1.36013, 1.35874, 1.35744, 1.36432, 1.37463, 1.36487, 1.36119, 1.37051, 1.36118, 1.3595, 1.35765, 1.34142, 1.38336, 1.43682, 1.48474, 1.54193, 1.54411, 1.59828, 1.64789, 1.61933, 1.64248, 1.65491, 1.58688, 1.51724, 1.40215, 1.37683, 1.31962, 1.34984, 1.3558, 1.3481, 1.33988, 1.3359, 1.33615, 1.32999, 1.32506, 1.32845, 1.32548, 1.32587, 1.32454, 1.32377, 1.32341, 1.32502, 1.34054, 1.32207, 1.33064, 1.32213, 1.32203
1.66043, 1.65855, 1.65438, 1.65228, 1.651, 1.65098, 1.65226, 1.65074, 1.64918, 1.64739, 1.64529, 1.64395, 1.64164, 1.6397, 1.64457, 1.63803, 1.63501, 1.63338, 1.63131, 1.62889, 1.62813, 1.62501, 1.62322, 1.6215, 1.6218, 1.62089, 1.61953, 1.61916, 1.59913, 1.59616, 1.617, 1.68005, 1.69272, 1.78394, 1.82482, 1.86535, 1.9036, 2.04717, 2.13579, 1.94955, 1.70697, 1.59194, 1.576, 1.57091, 1.57681, 1.56713, 1.56499, 1.57076, 1.57806, 1.56755, 1.57882, 1.59338, 1.59759, 1.60452, 1.60679, 1.59899, 1.59057, 1.57554, 1.57555, 1.5706, 1.56236, 1.5575, 1.56519, 1.55082, 1.54768, 1.54683, 1.54791, 1.54805, 1.54602, 1.54225, 1.54088, 1.53964, 1.53762, 1.53639, 1.53678, 1.53599, 1.53357, 1.53052, 1.52852, 1.52713, 1.52726, 1.52454, 1.52184, 1.52057, 1.51698, 1.51464, 1.5149, 1.51513, 1.51293, 1.5097, 1.50912, 1.50831, 1.50627, 1.50527, 1.50266, 1.50181, 1.50024, 1.49937, 1.49874, 1.49735, 1.4954, 1.49428, 1.49223, 1.49051, 1.48946, 1.4895, 1.48969, 1.49577, 1.48935, 1.49035, 1.49261, 1.49985, 1.49606, 1.48514, 1.49881, 1.54077, 1.51832, 1.55201, 1.54292, 1.54868, 1.53232, 1.54686, 1.51492, 1.50488, 1.50278, 1.52539, 1.54141, 1.53937, 1.51485, 1.50921, 1.48856, 1.46509, 1.47923, 1.47994, 1.46713, 1.46348, 1.45818, 1.45181, 1.45083, 1.45039, 1.44829, 1.4446, 1.44415, 1.44161, 1.44039, 1.43754, 1.43739, 1.43565, 1.43326, 1.43231, 1.43063, 1.42808, 1.42773, 1.42652, 1.42508, 1.42565, 1.42348, 1.42149, 1.42155, 1.41935, 1.41722, 1.41576, 1.41497, 1.41362, 1.41219, 1.41104, 1.40857, 1.41085, 1.41001, 1.40718, 1.40586, 1.40461, 1.40256, 1.40171, 1.40049, 1.39945, 1.39865, 1.3973, 1.3951, 1.39392, 1.39281, 1.39157, 1.38995, 1.3878, 1.38804, 1.38641, 1.385, 1.38456, 1.38259, 1.38122, 1.37952, 1.37968, 1.37859, 1.37647, 1.37607, 1.37756, 1.37493, 1.38051, 1.371, 1.37003, 1.36906, 1.37093, 1.36948, 1.36782, 1.36582, 1.37215, 1.3637, 1.36192, 1.36099, 1.36065, 1.36039, 1.35909, 1.35795, 1.35716, 1.35681, 1.35829, 1.36516, 1.3615, 1.36093, 1.36194, 1.34695, 1.35058, 1.39924, 1.4471, 1.47066, 1.53768, 1.58263, 1.62433, 1.64462, 1.66033, 1.6478, 1.63145, 1.50733, 1.3958, 1.33731, 1.33026, 1.32081, 1.34293, 1.3433, 1.33406, 1.33343, 1.34685, 1.33016, 1.32996, 1.32753, 1.33742, 1.34102, 1.32596, 1.32735, 1.32498, 1.32357, 1.3297, 1.32443, 1.32371, 1.32476, 1.32246
1.65776, 1.65458, 1.65378, 1.65167, 1.64897, 1.64748, 1.64602, 1.64576, 1.64247, 1.64286, 1.64082, 1.63953, 1.63727, 1.6355, 1.63426, 1.63152, 1.6298, 1.62862, 1.62679, 1.62319, 1.61992, 1.6337, 1.62012, 1.6166, 1.61703, 1.61731, 1.61826, 1.61678, 1.62126, 1.61202, 1.5962, 1.65366, 1.69432, 1.71389, 1.77357, 1.80914, 1.88106, 2.00077, 2.03923, 2.02372, 1.836, 1.61708, 1.55562, 1.56138, 1.56163, 1.65089, 1.68941, 1.75729, 1.83105, 1.77557, 1.74078, 1.60706, 1.58481, 1.58664, 1.60708, 1.60233, 1.59256, 1.60948, 1.58196, 1.58205, 1.56914, 1.56259, 1.55867, 1.5545, 1.55273, 1.55127, 1.55809, 1.56327, 1.54452, 1.54415, 1.5421, 1.54038, 1.53759, 1.53633, 1.53491, 1.53297, 1.53327, 1.52927, 1.52826, 1.52747, 1.525, 1.53009, 1.52091, 1.51994, 1.51699, 1.51609, 1.51366, 1.51262, 1.51143, 1.50887, 1.50658, 1.50761, 1.50607, 1.5043, 1.50322, 1.50221, 1.50063, 1.49897, 1.49762, 1.49542, 1.49352, 1.49055, 1.48955, 1.4887, 1.48781, 1.48595, 1.48574, 1.49209, 1.48651, 1.49028, 1.49181, 1.49257, 1.5018, 1.48387, 1.50721, 1.52407, 1.52123, 1.54124, 1.552, 1.55012, 1.52977, 1.50766, 1.50024, 1.49247, 1.48528, 1.54201, 1.50152, 1.51275, 1.52308, 1.51994, 1.5026, 1.45993, 1.44764, 1.47465, 1.46164, 1.46524, 1.45749, 1.44925, 1.44415, 1.44138, 1.44053, 1.43757, 1.43725, 1.43313, 1.45073, 1.42996, 1.42859, 1.42756, 1.42582, 1.42541, 1.4234, 1.4228, 1.42136, 1.42355, 1.42024, 1.41995, 1.42057, 1.41888, 1.42018, 1.42121, 1.41882, 1.4173, 1.41447, 1.4127, 1.40894, 1.40854, 1.40633, 1.4051, 1.40361, 1.40177, 1.40101, 1.40106, 1.398, 1.39732, 1.39564, 1.3961, 1.39324, 1.39228, 1.3921, 1.39028, 1.38992, 1.38843, 1.38651, 1.38503, 1.38439, 1.38436, 1.38307, 1.38382, 1.38005, 1.37949, 1.37897, 1.37748, 1.37512, 1.37501, 1.37313, 1.37167, 1.36891, 1.36714, 1.36525, 1.36411, 1.36377, 1.36463, 1.36583, 1.36601, 1.36427, 1.36217, 1.37385, 1.36058, 1.36014, 1.35785, 1.35682, 1.36452, 1.35575, 1.35425, 1.3575, 1.35457, 1.35388, 1.36085, 1.36206, 1.36375, 1.33298, 1.33985, 1.40633, 1.4358, 1.49808, 1.4996, 1.58933, 1.60984, 1.63668, 1.66626, 1.66448, 1.63664, 1.45428, 1.4508, 1.32376, 1.31291, 1.34339, 1.34722, 1.36046, 1.33734, 1.33278, 1.33386, 1.33757, 1.33667, 1.32914, 1.32973, 1.32237, 1.32334, 1.32084, 1.32222, 1.31778, 1.31898, 1.31969, 1.31357, 1.31386, 1.31294
1.64901, 1.64894, 1.64703, 1.64193, 1.64033, 1.64021, 1.63837, 1.63714, 1.63495, 1.63535, 1.6367, 1.62989, 1.62895, 1.62693, 1.62619, 1.62483, 1.62203, 1.62245, 1.62069, 1.61765, 1.61607, 1.61361, 1.61303, 1.61235, 1.61127, 1.61066, 1.60873, 1.61308, 1.60788, 1.62069, 1.60447, 1.65257, 1.68851, 1.71693, 1.87665, 1.88253, 1.92285, 2.00079, 2.05274, 1.99305, 1.7058, 1.63328, 1.54525, 1.56556, 1.56761, 1.58178, 1.5654, 1.57725, 1.55909, 1.56751, 1.57621, 1.60615, 1.58538, 1.60101, 1.58499, 1.58186, 1.58778, 1.58105, 1.57645, 1.56266, 1.56059, 1.55754, 1.54706, 1.54533, 1.544, 1.54432, 1.53899, 1.53663, 1.53424, 1.53442, 1.53452, 1.5498, 1.54159, 1.53069, 1.52726, 1.52488, 1.52379, 1.52244, 1.52011, 1.51851, 1.51881, 1.51884, 1.51726, 1.51577, 1.51398, 1.51136, 1.51001, 1.50916, 1.50609, 1.50634, 1.50023, 1.49822, 1.49302, 1.49581, 1.49553, 1.4948, 1.51684, 1.49186, 1.49114, 1.48547, 1.48587, 1.48495, 1.48447, 1.48315, 1.4813, 1.4802, 1.4814, 1.48954, 1.49897, 1.4849, 1.48743, 1.48732, 1.48627, 1.49327, 1.4877, 1.52374, 1.54743, 1.53132, 1.54327, 1.52584, 1.57914, 1.50995, 1.49954, 1.49912, 1.48258, 1.48473, 1.52131, 1.52054, 1.50587, 1.51731, 1.47864, 1.45884, 1.45089, 1.46085, 1.45364, 1.4529, 1.44919, 1.45334, 1.44185, 1.43737, 1.43294, 1.43256, 1.43142, 1.43036, 1.42883, 1.42759, 1.43302, 1.43862, 1.42254, 1.42264, 1.42155, 1.41812, 1.41836, 1.41854, 1.41935, 1.42779, 1.41366, 1.41356, 1.41255, 1.41277, 1.41061, 1.40939, 1.40698, 1.40591, 1.40174, 1.40245, 1.40227, 1.40006, 1.39639, 1.39694, 1.39787, 1.39523, 1.39547, 1.39352, 1.39404, 1.39127, 1.39129, 1.39121, 1.39046, 1.38844, 1.38766, 1.38752, 1.38664, 1.38688, 1.38467, 1.38266, 1.37954, 1.37968, 1.3787, 1.37821, 1.37729, 1.37483, 1.3733, 1.37332, 1.37159, 1.37101, 1.36853, 1.36912, 1.36905, 1.36582, 1.36584, 1.36378, 1.36253, 1.36368, 1.36542, 1.36088, 1.35759, 1.35714, 1.35582, 1.35725, 1.36529, 1.35102, 1.35342, 1.34872, 1.35028, 1.35205, 1.36551, 1.36416, 1.35881, 1.35267, 1.33488, 1.33022, 1.37751, 1.37415, 1.44908, 1.51409, 1.5459, 1.5816, 1.62926, 1.64111, 1.65401, 1.5774, 1.50664, 1.42129, 1.32473, 1.32422, 1.33252, 1.34926, 1.33817, 1.34017, 1.32863, 1.32722, 1.32612, 1.32652, 1.32264, 1.33655, 1.33036, 1.32221, 1.33722, 1.31907, 1.31882, 1.31977, 1.31718, 1.31561, 1.31332, 1.3134
1.64198, 1.64224, 1.64051, 1.63839, 1.64723, 1.63736, 1.63548, 1.63462, 1.63286, 1.63179, 1.63233, 1.63073, 1.62857, 1.62682, 1.6258, 1.62614, 1.62073, 1.61965, 1.62417, 1.61722, 1.61472, 1.61174, 1.61062, 1.60922, 1.60837, 1.60687, 1.60694, 1.61481, 1.60479, 1.60627, 1.58899, 1.62498, 1.67618, 1.67562, 1.82901, 1.81445, 1.87271, 1.92124, 2.12698, 1.87553, 1.71621, 1.60356, 1.54535, 1.53788, 1.57108, 1.57804, 1.58475, 1.58189, 1.57899, 1.58272, 1.58005, 1.59928, 1.58577, 1.57618, 1.56537, 1.5632, 1.56307, 1.55829, 1.55403, 1.55085, 1.54926, 1.54721, 1.54473, 1.54194, 1.53916, 1.53848, 1.53766, 1.53565, 1.53566, 1.53253, 1.53034, 1.52761, 1.52599, 1.5245, 1.52348, 1.52127, 1.51954, 1.51959, 1.5173, 1.51575, 1.51327, 1.51342, 1.51234, 1.51094, 1.50995, 1.50921, 1.50708, 1.50548, 1.50379, 1.50016, 1.49879, 1.49635, 1.49332, 1.48952, 1.48842, 1.48649, 1.48268, 1.48446, 1.4831, 1.48355, 1.48138, 1.48028, 1.48002, 1.47945, 1.47935, 1.47779, 1.47664, 1.47547, 1.47572, 1.47819, 1.4803, 1.48052, 1.48767, 1.48681, 1.48893, 1.49675, 1.49647, 1.54514, 1.57142, 1.54024, 1.51693, 1.5154, 1.47916, 1.47991, 1.49214, 1.50058, 1.49504, 1.4993, 1.49539, 1.4988, 1.50443, 1.47147, 1.45066, 1.46024, 1.45716, 1.46214, 1.44853, 1.4439, 1.44317, 1.43869, 1.43745, 1.43542, 1.43494, 1.4308, 1.42946, 1.42792, 1.42583, 1.42429, 1.42222, 1.42108, 1.4203, 1.4173, 1.41581, 1.41912, 1.41413, 1.41298, 1.4108, 1.40921, 1.40832, 1.40595, 1.40506, 1.403, 1.40136, 1.40045, 1.39877, 1.39576, 1.39492, 1.39205, 1.39169, 1.39158, 1.39006, 1.38913, 1.3877, 1.38539, 1.38496, 1.38616, 1.38755, 1.38832, 1.38797, 1.38763, 1.38647, 1.38591, 1.38587, 1.38488, 1.38486, 1.38197, 1.38081, 1.37828, 1.37485, 1.37284, 1.36968, 1.36847, 1.36552, 1.36427, 1.36158, 1.3624, 1.36063, 1.35985, 1.36013, 1.36048, 1.36044, 1.36004, 1.36, 1.35803, 1.35671, 1.36343, 1.35752, 1.35644, 1.35837, 1.35332, 1.35385, 1.35176, 1.3498, 1.34851, 1.34663, 1.34683, 1.34534, 1.34624, 1.34732, 1.35764, 1.35444, 1.33309, 1.3757, 1.40731, 1.43985, 1.50739, 1.51992, 1.58772, 1.61701, 1.75416, 1.72286, 1.64773, 1.48398, 1.47452, 1.37809, 1.3154, 1.3318, 1.3308, 1.33242, 1.34426, 1.32656, 1.32126, 1.31751, 1.31775, 1.31793, 1.31611, 1.31593, 1.31451, 1.31582, 1.31459, 1.31294, 1.31372, 1.31215, 1.30995, 1.30876, 1.30969
1.64046, 1.64128, 1.63689, 1.63673, 1.63633, 1.63478, 1.6336, 1.6313, 1.62999, 1.63062, 1.62874, 1.62824, 1.62646, 1.62591, 1.6249, 1.63087, 1.62024, 1.61977, 1.61861, 1.61654, 1.61341, 1.6113, 1.61026, 1.60743, 1.60758, 1.60521, 1.60467, 1.60586, 1.60587, 1.60121, 1.57956, 1.58969, 1.64822, 1.67845, 1.74229, 1.80045, 1.8487, 1.80261, 1.75298, 1.65441, 1.6632, 1.62848, 1.5386, 1.53623, 1.56085, 1.56902, 1.58162, 1.5883, 1.5693, 1.57004, 1.56897, 1.56567, 1.56532, 1.56741, 1.56115, 1.58919, 1.55853, 1.55954, 1.5618, 1.55225, 1.55028, 1.54935, 1.54695, 1.54352, 1.54132, 1.54006, 1.53806, 1.53534, 1.53303, 1.53241, 1.53209, 1.52964, 1.52573, 1.52266, 1.51772, 1.51533, 1.5152, 1.51482, 1.51636, 1.5149, 1.5125, 1.5104, 1.50938, 1.50724, 1.5056, 1.50513, 1.50476, 1.50254, 1.50246, 1.50075, 1.49855, 1.49644, 1.4952, 1.49296, 1.4918, 1.48969, 1.48763, 1.48608, 1.48445, 1.48481, 1.48226, 1.48144, 1.47942, 1.47657, 1.47607, 1.4746, 1.4741, 1.47417, 1.47458, 1.47442, 1.47465, 1.48558, 1.47742, 1.48686, 1.48285, 1.49993, 1.51014, 1.55104, 1.5681, 1.56579, 1.55768, 1.52601, 1.52925, 1.47467, 1.50067, 1.49155, 1.49141, 1.48772, 1.49552, 1.49947, 1.48351, 1.4741, 1.4526, 1.46805, 1.45095, 1.45004, 1.448, 1.44093, 1.43762, 1.44292, 1.4315, 1.4293, 1.42649, 1.42613, 1.42342, 1.42078, 1.4261, 1.42166, 1.42031, 1.41858, 1.41855, 1.41525, 1.41442, 1.41374, 1.41374, 1.4123, 1.41065, 1.4114, 1.40536, 1.40516, 1.40684, 1.40257, 1.40225, 1.40147, 1.4007, 1.39808, 1.39609, 1.40141, 1.39517, 1.3933, 1.39103, 1.39136, 1.38895, 1.38807, 1.38894, 1.38688, 1.38729, 1.38434, 1.38449, 1.3842, 1.38302, 1.38138, 1.37937, 1.37864, 1.37752, 1.37709, 1.37439, 1.3695, 1.3698, 1.37497, 1.36526, 1.36349, 1.36157, 1.36061, 1.36078, 1.36039, 1.36069, 1.36054, 1.35853, 1.36046, 1.36057, 1.36023, 1.35655, 1.35688, 1.35422, 1.35564, 1.35378, 1.36153, 1.365, 1.34975, 1.34774, 1.34717, 1.34637, 1.35316, 1.35651, 1.34017, 1.33792, 1.3443, 1.34247, 1.36081, 1.32237, 1.31515, 1.323, 1.3829, 1.45428, 1.45104, 1.49217, 1.56589, 1.60023, 1.63707, 1.72729, 1.70532, 1.57591, 1.42776, 1.36946, 1.30596, 1.32669, 1.32739, 1.32398, 1.3197, 1.31961, 1.31857, 1.324, 1.31898, 1.31863, 1.33066, 1.32317, 1.33074, 1.31988, 1.3276, 1.316, 1.31213, 1.31226, 1.31046, 1.31215, 1.31267
1.64301, 1.64152, 1.64018, 1.63484, 1.63438, 1.63173, 1.63057, 1.63028, 1.6286, 1.62943, 1.65049, 1.62723, 1.62453, 1.63814, 1.62331, 1.62117, 1.61993, 1.61638, 1.61623, 1.61402, 1.61084, 1.60899, 1.6342, 1.60558, 1.6041, 1.60389, 1.59612, 1.59575, 1.60921, 1.60616, 1.59619, 1.57413, 1.6167, 1.67059, 1.72766, 1.74165, 1.80893, 1.76469, 1.7738, 1.77527, 1.97913, 1.63311, 1.58288, 1.54345, 1.57491, 1.58201, 1.57912, 1.58106, 1.57929, 1.58221, 1.57394, 1.58585, 1.56505, 1.57124, 1.56378, 1.55892, 1.5715, 1.55177, 1.56626, 1.54864, 1.54671, 1.55181, 1.54216, 1.58232, 1.53944, 1.5384, 1.53809, 1.53557, 1.5363, 1.53217, 1.53112, 1.52976, 1.52858, 1.52772, 1.52613, 1.52394, 1.52344, 1.52106, 1.51875, 1.51807, 1.51636, 1.51428, 1.5122, 1.50959, 1.50838, 1.50632, 1.50554, 1.50383, 1.4997, 1.50004, 1.5063, 1.49839, 1.49617, 1.49402, 1.49062, 1.48965, 1.49026, 1.48809, 1.48551, 1.48548, 1.48585, 1.48292, 1.48328, 1.48168, 1.47966, 1.47844, 1.47844, 1.47792, 1.47827, 1.47771, 1.48519, 1.48326, 1.48894, 1.49953, 1.48606, 1.48129, 1.49057, 1.53393, 1.50539, 1.50615, 1.50082, 1.52227, 1.49271, 1.47158, 1.48212, 1.51328, 1.48992, 1.50963, 1.49007, 1.52777, 1.48234, 1.48248, 1.45436, 1.44918, 1.44835, 1.44141, 1.44279, 1.44881, 1.43624, 1.42828, 1.42661, 1.42503, 1.42616, 1.42447, 1.42503, 1.4213, 1.42262, 1.42126, 1.42016, 1.41908, 1.4184, 1.41658, 1.41515, 1.41451, 1.41335, 1.40959, 1.41014, 1.40742, 1.40639, 1.40492, 1.40237, 1.40155, 1.40116, 1.39955, 1.39748, 1.39864, 1.39851, 1.39436, 1.3941, 1.42771, 1.39399, 1.38947, 1.38964, 1.38761, 1.38648, 1.38575, 1.38399, 1.37933, 1.38108, 1.37715, 1.37662, 1.37527, 1.37411, 1.37475, 1.36878, 1.36837, 1.36812, 1.36563, 1.36467, 1.36243, 1.35837, 1.35854, 1.35908, 1.35839, 1.35647, 1.35702, 1.35671, 1.35669, 1.35685, 1.35677, 1.35795, 1.37151, 1.35493, 1.35587, 1.35371, 1.35176, 1.36756, 1.35094, 1.35047, 1.35002, 1.34712, 1.34513, 1.34468, 1.3435, 1.34645, 1.34381, 1.34338, 1.34427, 1.34836, 1.34515, 1.35105, 1.33013, 1.29428, 1.41078, 1.41359, 1.49588, 1.51285, 1.52812, 1.63067, 1.71107, 1.72481, 1.63837, 1.49339, 1.38147, 1.32934, 1.28101, 1.31595, 1.32691, 1.33272, 1.32571, 1.33075, 1.34329, 1.31811, 1.31689, 1.31974, 1.31736, 1.31613, 1.32384, 1.31598, 1.31329, 1.31679, 1.33759, 1.34128, 1.32355, 1.30745, 1.30828
1.63452, 1.63389, 1.63341, 1.62986, 1.6312, 1.63033, 1.62606, 1.62397, 1.62131, 1.621, 1.61847, 1.61696, 1.61465, 1.61793, 1.60976, 1.60828, 1.60943, 1.60583, 1.60562, 1.60334, 1.60074, 1.59887, 1.59659, 1.5968, 1.59241, 1.60063, 1.58806, 1.58829, 1.59014, 1.59073, 1.58963, 1.56065, 1.63342, 1.65318, 1.68418, 1.80707, 1.80572, 1.89564, 2.12436, 2.25919, 1.86301, 1.67657, 1.5347, 1.54039, 1.56435, 1.57284, 1.57737, 1.56416, 1.5626, 1.55969, 1.55582, 1.55277, 1.55233, 1.55716, 1.54882, 1.55094, 1.55143, 1.53977, 1.53582, 1.54038, 1.53232, 1.5298, 1.52855, 1.52751, 1.5244, 1.52307, 1.52215, 1.5233, 1.52217, 1.52686, 1.52182, 1.55479, 1.52031, 1.51911, 1.518, 1.51654, 1.51422, 1.51052, 1.51133, 1.50993, 1.5068, 1.50547, 1.5032, 1.50305, 1.5015, 1.4993, 1.49774, 1.49406, 1.49198, 1.48961, 1.48987, 1.48688, 1.48436, 1.48378, 1.48089, 1.48163, 1.47907, 1.47749, 1.47529, 1.47462, 1.47428, 1.47212, 1.47133, 1.47541, 1.46918, 1.4762, 1.47939, 1.46613, 1.4779, 1.46945, 1.46883, 1.47072, 1.47038, 1.47625, 1.47378, 1.47759, 1.4843, 1.50891, 1.5245, 1.50512, 1.49508, 1.48787, 1.47484, 1.46536, 1.47432, 1.4702, 1.4825, 1.5245, 1.52002, 1.47508, 1.46988, 1.45736, 1.45933, 1.44813, 1.44103, 1.43903, 1.43343, 1.43258, 1.42648, 1.42472, 1.42086, 1.41627, 1.41465, 1.41427, 1.41337, 1.41221, 1.41123, 1.41061, 1.41077, 1.41101, 1.41102, 1.40895, 1.40769, 1.40569, 1.40554, 1.40555, 1.40083, 1.3984, 1.39603, 1.39625, 1.39224, 1.39062, 1.38909, 1.3883, 1.38841, 1.38783, 1.38855, 1.38591, 1.38685, 1.38331, 1.38137, 1.38014, 1.38048, 1.37793, 1.37701, 1.37545, 1.37419, 1.37395, 1.37259, 1.36812, 1.36746, 1.3652, 1.36389, 1.36213, 1.36202, 1.35722, 1.3568, 1.35603, 1.35624, 1.35388, 1.35364, 1.35334, 1.35331, 1.34881, 1.34928, 1.34824, 1.35005, 1.35157, 1.35398, 1.35105, 1.35082, 1.34934, 1.34889, 1.3501, 1.34651, 1.34601, 1.34536, 1.34352, 1.34178, 1.34103, 1.34702, 1.33929, 1.33526, 1.33592, 1.33333, 1.335, 1.33442, 1.33423, 1.33324, 1.33498, 1.33998, 1.34718, 1.31525, 1.33792, 1.40252, 1.42431, 1.47818, 1.53017, 1.61018, 1.70254, 1.73022, 1.58354, 1.55386, 1.4431, 1.32063, 1.27983, 1.30235, 1.31154, 1.31072, 1.32317, 1.31704, 1.30841, 1.30826, 1.30609, 1.30631, 1.30617, 1.30759, 1.30448, 1.30183, 1.3028, 1.3, 1.2991, 1.29748, 1.29475, 1.29584, 1.29319
1.6312, 1.6312, 1.62986, 1.62708, 1.62765, 1.6241, 1.62332, 1.62158, 1.61997, 1.6171, 1.61653, 1.61439, 1.61375, 1.61075, 1.60814, 1.60705, 1.60572, 1.60607, 1.60447, 1.60754, 1.60262, 1.59952, 1.59904, 1.59709, 1.59659, 1.59295, 1.59119, 1.59567, 1.59123, 1.58821, 1.59594, 1.56482, 1.59017, 1.63468, 1.74461, 1.77634, 1.88188, 1.94472, 2.00072, 2.02076, 1.73396, 1.66873, 1.59617, 1.5547, 1.57165, 1.57888, 1.57245, 1.57275, 1.55934, 1.55525, 1.55462, 1.55087, 1.5503, 1.54786, 1.54511, 1.54166, 1.53791, 1.53625, 1.55129, 1.5327, 1.5316, 1.54408, 1.56604, 1.52686, 1.52617, 1.52364, 1.52274, 1.51964, 1.52053, 1.51708, 1.51748, 1.5148, 1.5175, 1.51448, 1.51094, 1.51021, 1.50898, 1.50716, 1.5069, 1.5043, 1.50245, 1.50111, 1.49945, 1.49703, 1.49422, 1.49541, 1.49091, 1.48888, 1.48796, 1.48734, 1.50672, 1.48346, 1.48283, 1.48078, 1.47981, 1.47921, 1.47795, 1.47513, 1.47406, 1.47185, 1.47162, 1.48021, 1.47582, 1.4662, 1.46397, 1.46386, 1.4637, 1.46263, 1.4694, 1.47835, 1.47557, 1.48516, 1.46542, 1.48118, 1.46559, 1.47512, 1.46311, 1.48393, 1.48855, 1.4826, 1.47665, 1.47539, 1.46943, 1.4743, 1.4669, 1.47422, 1.48906, 1.46785, 1.4898, 1.48201, 1.4662, 1.46829, 1.4502, 1.44433, 1.45191, 1.45164, 1.44128, 1.4266, 1.43379, 1.41755, 1.41563, 1.41192, 1.41184, 1.41117, 1.40909, 1.41098, 1.40673, 1.41068, 1.40913, 1.40691, 1.40599, 1.40293, 1.40218, 1.40023, 1.40068, 1.40061, 1.39834, 1.40391, 1.39373, 1.39321, 1.39128, 1.39045, 1.38746, 1.38812, 1.38672, 1.38508, 1.38418, 1.38392, 1.38156, 1.37911, 1.37861, 1.42669, 1.37599, 1.37414, 1.37408, 1.38136, 1.37174, 1.37294, 1.37331, 1.37117, 1.37038, 1.36674, 1.36286, 1.3613, 1.35999, 1.3582, 1.35809, 1.35316, 1.35139, 1.34995, 1.34856, 1.34888, 1.34791, 1.34965, 1.34941, 1.35035, 1.34857, 1.34766, 1.34728, 1.3488, 1.34755, 1.34837, 1.34684, 1.34794, 1.34356, 1.34638, 1.34351, 1.34439, 1.34673, 1.34356, 1.33908, 1.33674, 1.33616, 1.34284, 1.33369, 1.33188, 1.329, 1.33101, 1.33205, 1.3327, 1.34307, 1.3157, 1.29086, 1.30347, 1.39338, 1.45416, 1.50214, 1.50246, 1.57824, 1.60803, 1.67237, 1.63348, 1.49137, 1.42398, 1.31979, 1.28636, 1.30959, 1.31371, 1.32055, 1.31193, 1.3126, 1.30695, 1.3085, 1.30743, 1.31933, 1.30497, 1.30298, 1.30191, 1.29819, 1.30094, 1.29815, 1.29619, 1.29325, 1.29548, 1.29798, 1.29778
1.63307, 1.63055, 1.62881, 1.63318, 1.62677, 1.62372, 1.62027, 1.62043, 1.6181, 1.61707, 1.61652, 1.61961, 1.61109, 1.60943, 1.60614, 1.60233, 1.60092, 1.59947, 1.59861, 1.59854, 1.59831, 1.59788, 1.59586, 1.5966, 1.60472, 1.59529, 1.59249, 1.59763, 1.60158, 1.60399, 1.59424, 1.59014, 1.59537, 1.60651, 1.74176, 1.78159, 1.85903, 2.01157, 2.02777, 2.03458, 2.01075, 1.71796, 1.5548, 1.53054, 1.56097, 1.56457, 1.56176, 1.56566, 1.55624, 1.55237, 1.55095, 1.55037, 1.54812, 1.54663, 1.55478, 1.54436, 1.54484, 1.55411, 1.53901, 1.5463, 1.53454, 1.53656, 1.52984, 1.52747, 1.52435, 1.52418, 1.52164, 1.51945, 1.51792, 1.51642, 1.51364, 1.5137, 1.51536, 1.51063, 1.51036, 1.50941, 1.50898, 1.50986, 1.50587, 1.50532, 1.50338, 1.50063, 1.50045, 1.49829, 1.49627, 1.49491, 1.49289, 1.48982, 1.48987, 1.48732, 1.48525, 1.48366, 1.48163, 1.48025, 1.47845, 1.47691, 1.4742, 1.47285, 1.47166, 1.46923, 1.46873, 1.46769, 1.46762, 1.46559, 1.46302, 1.46139, 1.46169, 1.46085, 1.46017, 1.46085, 1.4622, 1.46686, 1.46613, 1.46457, 1.46467, 1.47619, 1.47679, 1.48243, 1.47814, 1.47827, 1.48853, 1.51024, 1.49018, 1.47385, 1.47051, 1.47461, 1.47817, 1.4753, 1.47654, 1.48903, 1.47104, 1.47114, 1.48766, 1.44243, 1.44803, 1.43798, 1.44253, 1.43131, 1.42677, 1.41954, 1.41468, 1.41123, 1.41003, 1.40924, 1.40868, 1.40846, 1.40872, 1.40614, 1.40613, 1.40363, 1.40396, 1.40252, 1.40947, 1.40148, 1.3986, 1.39895, 1.39731, 1.39814, 1.39311, 1.39098, 1.38989, 1.38935, 1.38544, 1.38425, 1.38748, 1.38123, 1.37899, 1.37773, 1.3765, 1.37516, 1.37327, 1.37247, 1.37218, 1.37174, 1.37099, 1.37088, 1.36929, 1.36662, 1.36839, 1.36574, 1.36447, 1.36382, 1.36328, 1.36238, 1.36139, 1.35953, 1.35722, 1.35819, 1.35815, 1.3571, 1.3566, 1.3545, 1.3525, 1.35371, 1.35155, 1.36552, 1.34763, 1.34664, 1.34864, 1.3445, 1.34512, 1.3442, 1.34251, 1.34354, 1.34164, 1.34086, 1.34059, 1.3392, 1.33742, 1.33684, 1.33498, 1.33493, 1.33472, 1.3342, 1.36032, 1.33691, 1.34118, 1.33802, 1.35487, 1.3504, 1.34141, 1.3425, 1.32494, 1.2982, 1.37505, 1.42784, 1.50404, 1.50937, 1.57299, 1.7834, 1.77485, 1.793, 1.61381, 1.56292, 1.40525, 1.28536, 1.28925, 1.31716, 1.33062, 1.31536, 1.30839, 1.30938, 1.32888, 1.30751, 1.30457, 1.30378, 1.30549, 1.3123, 1.30305, 1.30177, 1.30147, 1.30006, 1.30011, 1.30192, 1.29614, 1.29833
1.61915, 1.6183, 1.61754, 1.61403, 1.61439, 1.61166, 1.61418, 1.61208, 1.60879, 1.60389, 1.60376, 1.60181, 1.60243, 1.59932, 1.60693, 1.59334, 1.5927, 1.59162, 1.58948, 1.58839, 1.5899, 1.59006, 1.60716, 1.58686, 1.59513, 1.59186, 1.59513, 1.59872, 1.59063, 1.58561, 1.58686, 1.58534, 1.58599, 1.61568, 1.6423, 1.6964, 1.75734, 1.80478, 1.88225, 1.90712, 1.77768, 1.67682, 1.55783, 1.51257, 1.54035, 1.56546, 1.55774, 1.54939, 1.51397, 1.54205, 1.54025, 1.537, 1.53431, 1.53366, 1.53081, 1.54722, 1.52864, 1.52686, 1.52631, 1.52434, 1.52332, 1.52302, 1.52039, 1.52021, 1.51917, 1.51683, 1.51523, 1.51256, 1.51186, 1.50765, 1.51648, 1.50532, 1.50501, 1.50203, 1.50097, 1.49982, 1.49675, 1.49342, 1.49281, 1.49213, 1.49037, 1.48975, 1.49979, 1.48405, 1.48377, 1.4832, 1.48304, 1.48525, 1.47629, 1.47566, 1.47409, 1.47303, 1.47226, 1.47, 1.46965, 1.46945, 1.47026, 1.46728, 1.46657, 1.46497, 1.46334, 1.46113, 1.47768, 1.45925, 1.47552, 1.45971, 1.46097, 1.45431, 1.45457, 1.45399, 1.45457, 1.4679, 1.45839, 1.46148, 1.46126, 1.47951, 1.46906, 1.46363, 1.46722, 1.4749, 1.46534, 1.4642, 1.4782, 1.45807, 1.45797, 1.46048, 1.45464, 1.45557, 1.49435, 1.53415, 1.49268, 1.47474, 1.44735, 1.45998, 1.43241, 1.43986, 1.43972, 1.42974, 1.42623, 1.41261, 1.41228, 1.40268, 1.40906, 1.41373, 1.43364, 1.40254, 1.39837, 1.39889, 1.39826, 1.39933, 1.40352, 1.39665, 1.39822, 1.39735, 1.3954, 1.39481, 1.39532, 1.38934, 1.38537, 1.38521, 1.38438, 1.38184, 1.38007, 1.38061, 1.3797, 1.37905, 1.37633, 1.37552, 1.37574, 1.37335, 1.37292, 1.37323, 1.37186, 1.37545, 1.36922, 1.36845, 1.36526, 1.36524, 1.36327, 1.36293, 1.39185, 1.35911, 1.35852, 1.35677, 1.35612, 1.35066, 1.35054, 1.35112, 1.35081, 1.35081, 1.3502, 1.34742, 1.34542, 1.34605, 1.34583, 1.34159, 1.33824, 1.33906, 1.33647, 1.33703, 1.33987, 1.34234, 1.33657, 1.33739, 1.33669, 1.33459, 1.33367, 1.33484, 1.33378, 1.33265, 1.33775, 1.34006, 1.32861, 1.32677, 1.32445, 1.32722, 1.32762, 1.3276, 1.32456, 1.33446, 1.33752, 1.34391, 1.31631, 1.31252, 1.36415, 1.40316, 1.45326, 1.49545, 1.58055, 1.67998, 1.74482, 1.73441, 1.65301, 1.41949, 1.4206, 1.27211, 1.29842, 1.31292, 1.31391, 1.30543, 1.31258, 1.30802, 1.29934, 1.29881, 1.2989, 1.29604, 1.29806, 1.29972, 1.29772, 1.29475, 1.29537, 1.29183, 1.29251, 1.29167, 1.29075, 1.28682
1.60297, 1.60204, 1.59957, 1.59731, 1.59564, 1.59599, 1.59647, 1.60735, 1.59699, 1.58927, 1.5862, 1.58557, 1.58141, 1.58014, 1.57589, 1.57633, 1.5718, 1.57184, 1.57439, 1.57739, 1.57542, 1.56874, 1.56679, 1.56587, 1.57556, 1.56428, 1.56235, 1.58716, 1.57321, 1.58137, 1.57849, 1.54578, 1.55445, 1.59033, 1.62759, 1.72039, 1.69289, 1.83577, 2.07584, 2.13185, 1.8628, 1.77243, 1.56349, 1.50585, 1.52356, 1.5349, 1.53961, 1.53634, 1.54001, 1.52935, 1.53629, 1.51402, 1.51192, 1.50933, 1.50937, 1.51604, 1.5173, 1.51122, 1.51282, 1.51129, 1.50758, 1.50793, 1.50536, 1.50383, 1.50193, 1.50256, 1.50111, 1.50259, 1.49856, 1.49656, 1.49795, 1.49758, 1.49552, 1.48914, 1.48754, 1.49096, 1.48212, 1.47989, 1.47644, 1.47294, 1.47486, 1.47125, 1.4713, 1.48569, 1.47345, 1.47262, 1.4747, 1.47016, 1.46825, 1.46407, 1.46488, 1.46115, 1.46236, 1.45719, 1.45428, 1.45031, 1.45151, 1.45155, 1.44962, 1.44543, 1.4425, 1.44111, 1.45292, 1.44433, 1.44155, 1.44828, 1.43334, 1.43105, 1.43209, 1.43327, 1.44711, 1.45125, 1.44368, 1.44676, 1.44936, 1.44982, 1.45916, 1.45189, 1.44647, 1.45277, 1.4883, 1.46148, 1.45018, 1.44364, 1.47228, 1.44063, 1.44755, 1.43033, 1.43301, 1.44011, 1.45045, 1.42964, 1.41737, 1.41251, 1.40806, 1.41595, 1.40322, 1.4173, 1.41709, 1.40996, 1.39832, 1.39594, 1.39149, 1.39041, 1.38792, 1.403, 1.38017, 1.37667, 1.3748, 1.38293, 1.40642, 1.37866, 1.38182, 1.38251, 1.38253, 1.37832, 1.37161, 1.36183, 1.36072, 1.36106, 1.36046, 1.36131, 1.36191, 1.36429, 1.35671, 1.35551, 1.35399, 1.35348, 1.35212, 1.35333, 1.34993, 1.3495, 1.34995, 1.35031, 1.34768, 1.34459, 1.34411, 1.34359, 1.3434, 1.33795, 1.34104, 1.33577, 1.33445, 1.33251, 1.33301, 1.33293, 1.33289, 1.32462, 1.32313, 1.32457, 1.32761, 1.33033, 1.33249, 1.33102, 1.32508, 1.3187, 1.31556, 1.31806, 1.31838, 1.31907, 1.33054, 1.31036, 1.31117, 1.3125, 1.31374, 1.31574, 1.31632, 1.31601, 1.3158, 1.31226, 1.31209, 1.30683, 1.32613, 1.30335, 1.30165, 1.30026, 1.3019, 1.29742, 1.29647, 1.30204, 1.30553, 1.30581, 1.30556, 1.28589, 1.29254, 1.43966, 1.46526, 1.50332, 1.53893, 1.56572, 1.56855, 1.93488, 1.74788, 1.51048, 1.33105, 1.26654, 1.26655, 1.29047, 1.29859, 1.28848, 1.28822, 1.28855, 1.28889, 1.28435, 1.28174, 1.27148, 1.27839, 1.26988, 1.26865, 1.27322, 1.27087, 1.27726, 1.2679, 1.26531, 1.2613, 1.26176
1.61674, 1.61568, 1.61608, 1.61379, 1.61609, 1.61349, 1.6127, 1.6135, 1.61244, 1.60774, 1.60714, 1.60481, 1.60236, 1.60654, 1.5977, 1.60352, 1.60428, 1.59319, 1.59288, 1.60995, 1.59407, 1.59175, 1.583, 1.58881, 1.58301, 1.5909, 1.58201, 1.58116, 1.5807, 1.59257, 1.57963, 1.58017, 1.54553, 1.5545, 1.62201, 1.62068, 1.73481, 1.77341, 1.81429, 1.75245, 1.74952, 1.71616, 1.54674, 1.53833, 1.55218, 1.55268, 1.55181, 1.55088, 1.54689, 1.5441, 1.55062, 1.5339, 1.5454, 1.53214, 1.53157, 1.53015, 1.53089, 1.52797, 1.52734, 1.52646, 1.52983, 1.52058, 1.52009, 1.51914, 1.52377, 1.51421, 1.51098, 1.51018, 1.508, 1.50861, 1.50531, 1.50447, 1.50385, 1.5007, 1.49905, 1.49641, 1.49572, 1.49585, 1.49564, 1.49548, 1.49134, 1.4911, 1.48943, 1.48954, 1.48471, 1.48334, 1.48203, 1.47983, 1.48826, 1.47672, 1.47558, 1.47889, 1.47504, 1.46974, 1.4673, 1.48015, 1.46572, 1.46182, 1.46099, 1.46089, 1.45795, 1.46078, 1.45804, 1.45462, 1.45464, 1.45363, 1.47452, 1.44779, 1.44765, 1.45288, 1.4486, 1.46527, 1.46865, 1.46546, 1.47054, 1.45464, 1.47084, 1.47245, 1.46708, 1.46119, 1.46849, 1.46595, 1.47178, 1.46913, 1.46303, 1.45736, 1.46494, 1.46685, 1.45357, 1.46063, 1.46046, 1.44995, 1.43501, 1.43335, 1.42998, 1.4283, 1.43727, 1.43023, 1.4191, 1.42039, 1.41231, 1.41105, 1.40776, 1.40552, 1.4091, 1.40552, 1.39954, 1.39825, 1.40053, 1.40306, 1.39516, 1.39321, 1.39211, 1.39562, 1.38834, 1.39169, 1.3967, 1.38622, 1.38532, 1.40628, 1.38221, 1.38296, 1.38067, 1.37764, 1.37515, 1.3712, 1.37061, 1.37088, 1.37071, 1.3696, 1.37042, 1.3689, 1.36773, 1.36697, 1.36651, 1.3619, 1.36134, 1.36266, 1.35962, 1.35745, 1.35561, 1.35492, 1.35408, 1.35372, 1.35329, 1.35339, 1.35134, 1.35039, 1.35157, 1.34636, 1.36232, 1.34424, 1.3429, 1.34413, 1.33904, 1.34105, 1.33722, 1.33719, 1.33487, 1.33434, 1.34322, 1.3334, 1.33202, 1.32914, 1.33014, 1.32849, 1.3292, 1.32908, 1.32735, 1.32973, 1.33342, 1.33629, 1.32484, 1.32213, 1.32242, 1.34413, 1.33007, 1.33651, 1.32337, 1.3195, 1.3307, 1.3239, 1.32478, 1.30782, 1.30878, 1.36208, 1.43664, 1.50808, 1.5463, 1.48875, 1.50623, 1.47069, 1.47004, 1.4929, 1.37008, 1.26797, 1.29665, 1.3017, 1.31288, 1.30884, 1.30567, 1.30071, 1.29926, 1.2972, 1.30893, 1.29514, 1.30278, 1.29449, 1.28963, 1.28973, 1.29101, 1.28847, 1.28894, 1.28598, 1.29177, 1.2808
1.61495, 1.61391, 1.61439, 1.6112, 1.60944, 1.6103, 1.60801, 1.60804, 1.60722, 1.60781, 1.60243, 1.59947, 1.59516, 1.59069, 1.58911, 1.5857, 1.58313, 1.5822, 1.59515, 1.58071, 1.58279, 1.58585, 1.58681, 1.57918, 1.57841, 1.57536, 1.57542, 1.57334, 1.58236, 1.58356, 1.58265, 1.57623, 1.56578, 1.55866, 1.62823, 1.66732, 1.714, 1.77613, 2.06522, 2.0252, 2.14997, 1.80789, 1.59606, 1.51625, 1.54458, 1.55084, 1.54418, 1.54493, 1.53055, 1.5248, 1.51999, 1.5204, 1.52308, 1.53055, 1.52704, 1.52455, 1.52541, 1.52417, 1.52134, 1.51995, 1.51798, 1.53057, 1.51268, 1.50923, 1.50579, 1.49997, 1.49009, 1.48876, 1.49205, 1.50226, 1.49625, 1.49698, 1.50191, 1.49843, 1.49795, 1.49896, 1.49559, 1.49472, 1.49279, 1.4886, 1.48747, 1.4873, 1.48457, 1.48497, 1.48144, 1.47869, 1.47874, 1.47513, 1.47082, 1.51601, 1.46496, 1.46696, 1.46578, 1.463, 1.46762, 1.47774, 1.4603, 1.45832, 1.45681, 1.45472, 1.45373, 1.45361, 1.45302, 1.45256, 1.4589, 1.45375, 1.44833, 1.4489, 1.46042, 1.4475, 1.45493, 1.46182, 1.45272, 1.45392, 1.45823, 1.45514, 1.45509, 1.45661, 1.45155, 1.47497, 1.47292, 1.45024, 1.45629, 1.45808, 1.44345, 1.45724, 1.44439, 1.44593, 1.44797, 1.45111, 1.45521, 1.44064, 1.4579, 1.45366, 1.427, 1.42207, 1.41785, 1.41517, 1.41238, 1.40818, 1.40407, 1.40175, 1.4016, 1.39902, 1.39626, 1.39598, 1.39455, 1.3928, 1.39008, 1.39208, 1.38672, 1.39006, 1.38758, 1.38547, 1.38553, 1.38311, 1.38255, 1.38036, 1.37971, 1.37928, 1.3788, 1.37923, 1.37747, 1.37576, 1.37418, 1.37158, 1.37151, 1.37129, 1.3712, 1.36966, 1.36837, 1.36794, 1.36635, 1.36289, 1.36315, 1.36336, 1.36009, 1.35882, 1.35575, 1.35432, 1.35206, 1.35261, 1.34996, 1.34901, 1.34984, 1.34568, 1.34469, 1.34435, 1.3414, 1.34315, 1.34228, 1.33953, 1.34066, 1.33503, 1.33779, 1.33405, 1.33458, 1.33414, 1.33351, 1.33397, 1.33031, 1.33027, 1.33023, 1.32992, 1.32897, 1.32737, 1.32763, 1.32573, 1.3303, 1.32715, 1.32441, 1.32224, 1.32218, 1.32263, 1.32022, 1.32162, 1.31923, 1.31699, 1.31451, 1.31654, 1.31803, 1.32337, 1.32083, 1.32768, 1.31215, 1.35679, 1.4339, 1.50716, 1.61093, 1.60931, 1.61432, 1.5892, 1.65211, 1.53053, 1.52643, 1.53169, 1.53116, 1.50462, 1.49212, 1.48508, 1.31654, 1.30074, 1.29472, 1.29771, 1.29192, 1.30334, 1.30067, 1.28939, 1.29326, 1.29137, 1.29176, 1.3037, 1.28716, 1.28538, 1.29153, 1.28242
1.60626, 1.60428, 1.61021, 1.59601, 1.59529, 1.59906, 1.60192, 1.60245, 1.60344, 1.60327, 1.60009, 1.60581, 1.59345, 1.58942, 1.5881, 1.58528, 1.58471, 1.58036, 1.58296, 1.58297, 1.58204, 1.58116, 1.57896, 1.57664, 1.57647, 1.58578, 1.57906, 1.56958, 1.56954, 1.56843, 1.58114, 1.57629, 1.56289, 1.54165, 1.62379, 1.64802, 1.74725, 1.77613, 1.83798, 2.34343, 1.98296, 1.72661, 1.54044, 1.52813, 1.55128, 1.54709, 1.56861, 1.5458, 1.53503, 1.53152, 1.52985, 1.52987, 1.52749, 1.52538, 1.52408, 1.54312, 1.51959, 1.51971, 1.51718, 1.51519, 1.51296, 1.51187, 1.51036, 1.52794, 1.50689, 1.50528, 1.50333, 1.50092, 1.50046, 1.49791, 1.49743, 1.49604, 1.49487, 1.49609, 1.48949, 1.49081, 1.48864, 1.48655, 1.48711, 1.48631, 1.48354, 1.4823, 1.48218, 1.48113, 1.47857, 1.47579, 1.47309, 1.47445, 1.46657, 1.46683, 1.46424, 1.46275, 1.46284, 1.46124, 1.46015, 1.45969, 1.45879, 1.45664, 1.45532, 1.4544, 1.45089, 1.45055, 1.44917, 1.44904, 1.4477, 1.44849, 1.4494, 1.44704, 1.44664, 1.4556, 1.4487, 1.45406, 1.46712, 1.45134, 1.45136, 1.44987, 1.45803, 1.45486, 1.47556, 1.45717, 1.45969, 1.45731, 1.45183, 1.47551, 1.45048, 1.44401, 1.45117, 1.44144, 1.45527, 1.46589, 1.44675, 1.45107, 1.43995, 1.42309, 1.42376, 1.42983, 1.42909, 1.41945, 1.4125, 1.42285, 1.40302, 1.41697, 1.40112, 1.39906, 1.39741, 1.39485, 1.39208, 1.38983, 1.38701, 1.3848, 1.39945, 1.39318, 1.38515, 1.39885, 1.37917, 1.37758, 1.37724, 1.38441, 1.37693, 1.37488, 1.37278, 1.37168, 1.37347, 1.36948, 1.36961, 1.36884, 1.36624, 1.36475, 1.36485, 1.3642, 1.3631, 1.36247, 1.36205, 1.36149, 1.36045, 1.3601, 1.35714, 1.35514, 1.3548, 1.3549, 1.35319, 1.34964, 1.34987, 1.34991, 1.35026, 1.3526, 1.35142, 1.35002, 1.34902, 1.34646, 1.34603, 1.344, 1.34208, 1.33853, 1.33597, 1.33652, 1.34037, 1.33374, 1.33025, 1.32779, 1.33081, 1.32809, 1.32685, 1.32616, 1.32443, 1.32433, 1.32469, 1.32396, 1.32543, 1.32563, 1.3226, 1.32791, 1.31665, 1.31598, 1.32325, 1.31306, 1.31074, 1.31621, 1.31537, 1.308, 1.30886, 1.30713, 1.313, 1.32639, 1.2822, 1.34042, 1.41026, 1.44766, 1.47975, 1.57954, 1.65055, 1.95276, 1.92374, 1.51075, 1.5126, 1.48262, 1.47297, 1.48592, 1.46014, 1.42022, 1.36394, 1.32089, 1.30791, 1.28545, 1.28666, 1.28938, 1.28596, 1.28813, 1.28406, 1.28858, 1.28465, 1.28601, 1.28374, 1.28429, 1.27821, 1.278
1.59755, 1.59679, 1.59774, 1.60276, 1.59629, 1.5931, 1.59209, 1.58882, 1.59092, 1.58886, 1.58936, 1.58311, 1.59151, 1.57768, 1.57664, 1.57524, 1.57385, 1.57212, 1.57063, 1.5688, 1.56834, 1.56894, 1.56865, 1.56775, 1.57865, 1.58446, 1.56401, 1.56444, 1.58271, 1.56501, 1.5711, 1.57223, 1.54782, 1.52845, 1.54823, 1.61453, 1.76396, 1.63262, 1.6217, 1.72124, 2.08857, 1.68946, 1.5381, 1.50375, 1.50234, 1.54046, 1.53531, 1.52181, 1.5176, 1.51705, 1.51694, 1.51755, 1.51591, 1.51621, 1.51593, 1.51495, 1.52636, 1.51263, 1.51225, 1.534, 1.51032, 1.5093, 1.53366, 1.50894, 1.49983, 1.49942, 1.49645, 1.50286, 1.49315, 1.49109, 1.48824, 1.49708, 1.48641, 1.48503, 1.48928, 1.48118, 1.47755, 1.47526, 1.47484, 1.47202, 1.46985, 1.46854, 1.46815, 1.46756, 1.46551, 1.46504, 1.47117, 1.46192, 1.46071, 1.45765, 1.45691, 1.45508, 1.45673, 1.45517, 1.45257, 1.45176, 1.45209, 1.45037, 1.45873, 1.4479, 1.44701, 1.46097, 1.44698, 1.44366, 1.44501, 1.44301, 1.44075, 1.44098, 1.44489, 1.45269, 1.45781, 1.45524, 1.4573, 1.45509, 1.46717, 1.45454, 1.46159, 1.48598, 1.44916, 1.45701, 1.44789, 1.44698, 1.45104, 1.44261, 1.43434, 1.44125, 1.44755, 1.43594, 1.45093, 1.44883, 1.42985, 1.43259, 1.4228, 1.43623, 1.41763, 1.41698, 1.41376, 1.41005, 1.39924, 1.39646, 1.39174, 1.38587, 1.38373, 1.38159, 1.38982, 1.37718, 1.37659, 1.37639, 1.37451, 1.37485, 1.38171, 1.37515, 1.37572, 1.37551, 1.37352, 1.3757, 1.37154, 1.36956, 1.36977, 1.36806, 1.36668, 1.36716, 1.36477, 1.36514, 1.36414, 1.36376, 1.36208, 1.36479, 1.3587, 1.35552, 1.3557, 1.35409, 1.35386, 1.35331, 1.34891, 1.34875, 1.34455, 1.34508, 1.34339, 1.34633, 1.34612, 1.34103, 1.34242, 1.34478, 1.33815, 1.33795, 1.3372, 1.33848, 1.33674, 1.33747, 1.33269, 1.33429, 1.33333, 1.33107, 1.32617, 1.32513, 1.3217, 1.32038, 1.31926, 1.32045, 1.31839, 1.31861, 1.31692, 1.31677, 1.31513, 1.33501, 1.31217, 1.313, 1.3117, 1.30901, 1.3061, 1.30275, 1.31459, 1.29928, 1.30046, 1.30969, 1.29936, 1.29791, 1.29533, 1.31509, 1.29524, 1.29498, 1.29477, 1.30653, 1.26894, 1.28721, 1.35162, 1.43631, 1.59221, 1.5993, 1.63851, 1.65169, 1.56527, 1.53058, 1.55325, 1.42973, 1.36092, 1.30793, 1.32758, 1.28981, 1.29502, 1.292, 1.27822, 1.28157, 1.27465, 1.2805, 1.27175, 1.2692, 1.26885, 1.26964, 1.27231, 1.2718, 1.28958, 1.26836, 1.26924, 1.26706
1.60304, 1.60201, 1.5988, 1.59629, 1.59595, 1.59439, 1.59493, 1.5948, 1.59036, 1.59028, 1.58862, 1.5871, 1.60562, 1.60575, 1.58011, 1.61153, 1.58558, 1.5749, 1.57469, 1.57529, 1.57522, 1.57929, 1.57156, 1.57822, 1.57907, 1.57791, 1.57001, 1.56542, 1.56075, 1.56331, 1.56165, 1.56755, 1.54946, 1.53108, 1.54917, 1.61202, 1.88756, 1.74872, 1.72258, 1.72788, 1.76146, 1.83104, 1.73324, 1.53107, 1.51687, 1.53395, 1.5274, 1.52656, 1.52345, 1.5215, 1.51707, 1.53059, 1.51599, 1.52128, 1.51613, 1.5131, 1.51613, 1.51244, 1.51312, 1.51229, 1.51369, 1.50674, 1.50574, 1.50641, 1.50382, 1.50257, 1.50062, 1.50018, 1.49857, 1.49579, 1.49477, 1.49319, 1.48938, 1.48911, 1.48652, 1.48317, 1.48163, 1.48322, 1.48289, 1.47852, 1.48123, 1.4741, 1.4724, 1.47216, 1.47264, 1.47086, 1.46936, 1.4686, 1.46716, 1.46648, 1.46609, 1.46149, 1.46051, 1.47625, 1.4584, 1.45964, 1.47228, 1.45512, 1.45388, 1.45293, 1.45879, 1.45644, 1.44463, 1.44502, 1.44505, 1.44162, 1.43989, 1.44066, 1.44936, 1.44802, 1.4488, 1.44093, 1.44471, 1.44339, 1.45074, 1.45202, 1.45509, 1.4534, 1.46435, 1.45871, 1.44699, 1.44736, 1.44592, 1.44188, 1.43938, 1.4418, 1.43902, 1.43785, 1.43841, 1.44419, 1.42738, 1.42709, 1.42306, 1.42978, 1.41013, 1.40673, 1.42072, 1.40484, 1.39552, 1.39484, 1.40138, 1.39175, 1.3833, 1.38211, 1.37844, 1.37924, 1.37813, 1.39139, 1.3906, 1.38542, 1.37677, 1.37525, 1.37589, 1.37401, 1.37223, 1.37295, 1.37231, 1.37922, 1.37235, 1.36841, 1.36825, 1.36964, 1.36844, 1.36722, 1.37714, 1.36332, 1.36361, 1.362, 1.35887, 1.35733, 1.35704, 1.35451, 1.35211, 1.35056, 1.34949, 1.3472, 1.35149, 1.33995, 1.33828, 1.33622, 1.33639, 1.33435, 1.33573, 1.33542, 1.33652, 1.33584, 1.33689, 1.33575, 1.33435, 1.33271, 1.33339, 1.33276, 1.33069, 1.33028, 1.32919, 1.32764, 1.32854, 1.33099, 1.32721, 1.32543, 1.32438, 1.32557, 1.32287, 1.32149, 1.32106, 1.32198, 1.31953, 1.32144, 1.31738, 1.32283, 1.3167, 1.32731, 1.31246, 1.3116, 1.31299, 1.3256, 1.3064, 1.31306, 1.30378, 1.309, 1.31513, 1.30524, 1.31608, 1.29566, 1.29269, 1.27896, 1.30247, 1.40173, 1.53037, 1.56732, 1.5764, 1.60821, 1.54722, 1.48512, 1.40502, 1.28711, 1.255, 1.30252, 1.28621, 1.28684, 1.28666, 1.28525, 1.28449, 1.28454, 1.29944, 1.28438, 1.28139, 1.27919, 1.28853, 1.28512, 1.27915, 1.28746, 1.26954, 1.26589, 1.26807, 1.26254
1.5972, 1.59736, 1.59372, 1.60365, 1.59195, 1.58896, 1.586, 1.58439, 1.59962, 1.58163, 1.58046, 1.57538, 1.60842, 1.56944, 1.56631, 1.58948, 1.56509, 1.56056, 1.55974, 1.56051, 1.55919, 1.5569, 1.56207, 1.56491, 1.55391, 1.55505, 1.54905, 1.54426, 1.55206, 1.55249, 1.55384, 1.55579, 1.55023, 1.53146, 1.52703, 1.6214, 1.63674, 1.74269, 1.6936, 1.67191, 1.69055, 1.71422, 1.57247, 1.50292, 1.50356, 1.51524, 1.51247, 1.514, 1.52266, 1.52012, 1.5197, 1.5156, 1.51559, 1.52069, 1.52827, 1.51354, 1.51034, 1.51027, 1.50744, 1.50547, 1.50221, 1.49983, 1.49436, 1.49152, 1.48784, 1.48381, 1.48934, 1.48693, 1.47903, 1.47802, 1.47793, 1.47659, 1.4745, 1.47159, 1.47109, 1.46601, 1.46504, 1.46447, 1.46841, 1.46243, 1.45724, 1.4557, 1.45328, 1.45268, 1.45131, 1.4508, 1.4581, 1.45827, 1.44778, 1.44965, 1.4507, 1.4502, 1.44905, 1.43892, 1.43922, 1.43981, 1.44057, 1.44713, 1.46707, 1.4396, 1.43819, 1.43321, 1.43219, 1.42695, 1.42632, 1.425, 1.42331, 1.43146, 1.42654, 1.42626, 1.43762, 1.44618, 1.43849, 1.43546, 1.4371, 1.4506, 1.44697, 1.44012, 1.45387, 1.45069, 1.44645, 1.4598, 1.456, 1.44785, 1.43948, 1.42789, 1.43346, 1.42482, 1.42207, 1.42276, 1.42326, 1.42762, 1.42623, 1.42021, 1.41067, 1.41465, 1.40635, 1.4021, 1.40631, 1.39303, 1.39176, 1.39947, 1.38339, 1.38082, 1.37798, 1.39529, 1.37523, 1.36938, 1.3887, 1.36585, 1.37364, 1.37642, 1.38153, 1.36179, 1.38848, 1.35841, 1.35966, 1.3663, 1.35667, 1.35762, 1.3583, 1.35626, 1.35487, 1.36348, 1.35456, 1.37005, 1.35166, 1.35791, 1.34653, 1.34697, 1.34562, 1.35444, 1.34368, 1.33971, 1.33682, 1.33893, 1.33745, 1.35012, 1.33724, 1.33392, 1.33288, 1.33069, 1.33039, 1.32698, 1.32539, 1.3277, 1.32299, 1.32132, 1.31757, 1.31894, 1.31899, 1.31912, 1.31984, 1.32647, 1.31872, 1.31687, 1.31548, 1.31418, 1.3155, 1.3129, 1.31305, 1.31015, 1.31168, 1.31812, 1.30959, 1.32643, 1.32406, 1.31985, 1.31672, 1.30578, 1.31916, 1.32331, 1.31323, 1.31511, 1.30307, 1.2987, 1.31222, 1.29834, 1.30756, 1.31229, 1.31085, 1.31616, 1.29667, 1.30996, 1.31577, 1.27565, 1.32879, 1.42054, 1.47936, 1.6823, 1.72069, 1.84175, 1.47043, 1.47194, 1.47058, 1.36351, 1.33011, 1.30197, 1.27864, 1.29484, 1.2756, 1.27703, 1.28172, 1.27885, 1.27563, 1.26862, 1.28131, 1.26014, 1.26134, 1.25793, 1.25494, 1.26153, 1.26072, 1.25527, 1.26005, 1.25638
