1.67808, 1.67597, 1.66144, 1.67482, 1.65477, 1.65386, 1.66303, 1.72676, 1.84944, 1.58901, 1.60684, 1.59775, 1.59222, 1.59208, 1.59174, 1.5821, 1.58825, 1.55678, 1.55133, 1.54663, 1.53929, 1.53008, 1.52419, 1.52421, 1.51787, 1.52583, 1.4812, 1.6889, 1.70376, 1.4619, 1.48315, 1.48537, 1.46696, 1.46034, 1.45186, 1.44817, 1.44653, 1.43566, 1.42905, 1.42598, 1.42028, 1.41334, 1.407, 1.39864, 1.39463, 1.39556, 1.38897, 1.382, 1.38167, 1.389, 1.39605, 1.45728, 1.46761, 1.48101, 1.4287, 1.36341, 1.33841, 1.33714, 1.33449, 1.3316
1.67675, 1.66928, 1.65986, 1.66531, 1.66605, 1.64845, 1.65062, 1.83126, 1.83482, 1.59105, 1.62449, 1.6002, 1.59248, 1.58291, 1.5783, 1.58208, 1.57908, 1.5526, 1.54922, 1.54171, 1.53992, 1.53266, 1.52195, 1.51836, 1.51194, 1.51188, 1.48167, 1.70011, 1.68894, 1.54444, 1.48622, 1.48346, 1.46405, 1.46202, 1.45166, 1.44976, 1.44088, 1.43577, 1.43053, 1.42508, 1.42026, 1.41631, 1.40721, 1.40141, 1.39614, 1.38931, 1.38588, 1.38578, 1.38079, 1.38588, 1.38108, 1.41746, 1.47226, 1.48323, 1.37837, 1.35669, 1.34891, 1.34013, 1.33448, 1.33659
1.67757, 1.66663, 1.66256, 1.66722, 1.68272, 1.65251, 1.66913, 1.8103, 1.78922, 1.59195, 1.60639, 1.60176, 1.58987, 1.58508, 1.57855, 1.57117, 1.57054, 1.55427, 1.54715, 1.54522, 1.53602, 1.52946, 1.52111, 1.515, 1.52022, 1.52646, 1.57648, 1.67798, 1.68873, 1.4445, 1.46869, 1.47915, 1.46519, 1.45756, 1.45064, 1.44697, 1.44273, 1.43615, 1.432, 1.42663, 1.41964, 1.41649, 1.40972, 1.40071, 1.39568, 1.39663, 1.38615, 1.38347, 1.38125, 1.38608, 1.39101, 1.47361, 1.47546, 1.49015, 1.37151, 1.35739, 1.3484, 1.34056, 1.33686, 1.33336
1.67654, 1.66469, 1.66814, 1.65745, 1.67733, 1.65561, 1.70682, 1.79397, 1.8206, 1.60484, 1.60586, 1.59769, 1.59105, 1.58272, 1.57564, 1.57144, 1.5804, 1.55431, 1.54921, 1.54171, 1.53784, 1.53052, 1.52142, 1.51628, 1.50982, 1.5107, 1.55641, 1.66117, 1.42986, 1.44328, 1.47307, 1.46886, 1.45905, 1.45491, 1.45334, 1.44359, 1.44126, 1.43487, 1.43075, 1.42667, 1.42205, 1.41634, 1.40789, 1.40249, 1.39842, 1.39262, 1.39639, 1.38207, 1.38075, 1.38559, 1.37497, 1.46189, 1.47946, 1.52624, 1.44427, 1.36111, 1.35695, 1.3417, 1.33846, 1.33352
1.67735, 1.67377, 1.66194, 1.6596, 1.68574, 1.61701, 1.70108, 1.80968, 1.81329, 1.59186, 1.6204, 1.59707, 1.59244, 1.58252, 1.57577, 1.572, 1.57833, 1.55392, 1.54788, 1.54056, 1.53983, 1.52714, 1.51918, 1.51269, 1.50769, 1.5183, 1.50561, 1.67586, 1.69303, 1.43864, 1.48651, 1.47508, 1.45623, 1.45441, 1.44802, 1.44148, 1.44054, 1.43448, 1.42979, 1.42556, 1.42224, 1.416, 1.40957, 1.40466, 1.40052, 1.39415, 1.38709, 1.3862, 1.38211, 1.39185, 1.37263, 1.4444, 1.48131, 1.48854, 1.46015, 1.35281, 1.34312, 1.34298, 1.33784, 1.33414
1.67598, 1.67648, 1.65883, 1.6532, 1.6752, 1.64075, 1.71309, 1.72911, 1.82769, 1.59149, 1.60396, 1.60397, 1.59099, 1.58489, 1.57413, 1.5852, 1.582, 1.56894, 1.54649, 1.54258, 1.53642, 1.52652, 1.5172, 1.50912, 1.52088, 1.50761, 1.51337, 1.64539, 1.68284, 1.51622, 1.48694, 1.46355, 1.46198, 1.44766, 1.44612, 1.44053, 1.43834, 1.43197, 1.43098, 1.42548, 1.42202, 1.41893, 1.40995, 1.40689, 1.40069, 1.39415, 1.38666, 1.39262, 1.38121, 1.37959, 1.38998, 1.44786, 1.46798, 1.49133, 1.34063, 1.36163, 1.34668, 1.34441, 1.3351, 1.34075
1.68471, 1.66832, 1.67921, 1.6608, 1.66902, 1.63845, 1.70602, 1.73033, 1.84378, 1.58563, 1.61389, 1.60449, 1.58961, 1.59627, 1.57769, 1.57117, 1.56145, 1.56263, 1.55173, 1.53819, 1.53164, 1.52363, 1.51523, 1.50952, 1.50473, 1.51008, 1.47184, 1.68321, 1.70023, 1.50564, 1.47627, 1.47169, 1.45624, 1.45465, 1.44387, 1.4402, 1.43557, 1.43141, 1.42862, 1.42293, 1.41963, 1.41582, 1.41047, 1.40542, 1.39881, 1.39186, 1.3882, 1.38499, 1.38873, 1.39151, 1.36972, 1.45143, 1.45394, 1.49641, 1.45813, 1.35616, 1.3462, 1.34686, 1.3414, 1.33256
1.67851, 1.67127, 1.66924, 1.66382, 1.67136, 1.64796, 1.67091, 1.80223, 1.8281, 1.73674, 1.60914, 1.59637, 1.5901, 1.58309, 1.60344, 1.57045, 1.57521, 1.55945, 1.55028, 1.54015, 1.54509, 1.53614, 1.52041, 1.50875, 1.50263, 1.51961, 1.47463, 1.69823, 1.70026, 1.45565, 1.48916, 1.47498, 1.45994, 1.44793, 1.44289, 1.44094, 1.43175, 1.43102, 1.42964, 1.42349, 1.41961, 1.4196, 1.41231, 1.40711, 1.4018, 1.39447, 1.38928, 1.38462, 1.3826, 1.38405, 1.38846, 1.39307, 1.47765, 1.49264, 1.44855, 1.35727, 1.34707, 1.36555, 1.34242, 1.3312
1.69381, 1.67229, 1.66012, 1.6614, 1.68628, 1.64058, 1.70598, 1.76936, 1.84046, 1.58495, 1.61505, 1.60606, 1.59283, 1.58103, 1.58746, 1.56672, 1.57018, 1.56372, 1.55743, 1.55058, 1.53374, 1.52154, 1.51208, 1.50649, 1.5101, 1.5035, 1.55076, 1.67015, 1.70079, 1.47845, 1.47844, 1.46157, 1.46168, 1.45065, 1.44344, 1.44114, 1.43196, 1.43161, 1.43216, 1.42592, 1.42257, 1.41743, 1.41136, 1.40536, 1.40477, 1.39388, 1.38881, 1.38551, 1.3801, 1.38978, 1.38351, 1.39803, 1.49455, 1.50308, 1.46459, 1.3519, 1.35414, 1.34155, 1.33936, 1.3304
1.67695, 1.67214, 1.66103, 1.65674, 1.65838, 1.64211, 1.72131, 1.81474, 1.81471, 1.6173, 1.6076, 1.61149, 1.60313, 1.58126, 1.57373, 1.57478, 1.56309, 1.56596, 1.54456, 1.5413, 1.56536, 1.53991, 1.5092, 1.5194, 1.51864, 1.51725, 1.48747, 1.67866, 1.63831, 1.45498, 1.46449, 1.46511, 1.4505, 1.44437, 1.44402, 1.44053, 1.43298, 1.43009, 1.42927, 1.42295, 1.41941, 1.41602, 1.41056, 1.40487, 1.40167, 1.39252, 1.38713, 1.38275, 1.37879, 1.37476, 1.38458, 1.43296, 1.4879, 1.50628, 1.46611, 1.35212, 1.34533, 1.34373, 1.33577, 1.331
1.6812, 1.67099, 1.65791, 1.6533, 1.67202, 1.63486, 1.65801, 1.78891, 1.83828, 1.61413, 1.60735, 1.59576, 1.58698, 1.57578, 1.57028, 1.56485, 1.56427, 1.56511, 1.54075, 1.54422, 1.52981, 1.54449, 1.51161, 1.50006, 1.50078, 1.51285, 1.55466, 1.67183, 1.62745, 1.54821, 1.47016, 1.46627, 1.45823, 1.44553, 1.44268, 1.43961, 1.43069, 1.42794, 1.42937, 1.42293, 1.41852, 1.4131, 1.40918, 1.40525, 1.40186, 1.38953, 1.38598, 1.38132, 1.37877, 1.37662, 1.37785, 1.44124, 1.48791, 1.51677, 1.47034, 1.364, 1.34524, 1.33933, 1.33518, 1.32965
1.67854, 1.6705, 1.65782, 1.65591, 1.67503, 1.65415, 1.6412, 1.82847, 1.83445, 1.61698, 1.59964, 1.59437, 1.58682, 1.57929, 1.57271, 1.56715, 1.5574, 1.57329, 1.53972, 1.54149, 1.53693, 1.52302, 1.50731, 1.49794, 1.49979, 1.51687, 1.54755, 1.6563, 1.6231, 1.57934, 1.47505, 1.4748, 1.46499, 1.44649, 1.44248, 1.43812, 1.4328, 1.42885, 1.4292, 1.4215, 1.41871, 1.41332, 1.40645, 1.40351, 1.39599, 1.38914, 1.38424, 1.38147, 1.37914, 1.37465, 1.38872, 1.49324, 1.48893, 1.50818, 1.47256, 1.35744, 1.34515, 1.34381, 1.33355, 1.32861
1.68178, 1.67475, 1.66438, 1.65507, 1.6698, 1.64984, 1.63185, 1.77282, 1.8288, 1.58772, 1.60933, 1.59238, 1.58938, 1.59918, 1.57574, 1.56538, 1.56331, 1.5623, 1.54801, 1.54306, 1.53953, 1.5237, 1.51272, 1.51043, 1.51024, 1.5158, 1.51991, 1.6869, 1.63321, 1.49154, 1.4797, 1.48375, 1.45797, 1.45044, 1.44687, 1.43833, 1.43173, 1.43043, 1.43148, 1.42574, 1.41954, 1.41288, 1.40826, 1.40296, 1.39606, 1.3933, 1.38656, 1.38392, 1.38963, 1.37556, 1.38629, 1.45764, 1.49693, 1.50565, 1.46935, 1.35326, 1.35553, 1.34094, 1.33651, 1.36347
1.6785, 1.676, 1.66799, 1.66808, 1.66505, 1.66999, 1.64781, 1.79039, 1.83139, 1.66468, 1.61482, 1.58744, 1.58922, 1.6175, 1.58234, 1.57435, 1.56248, 1.55801, 1.56894, 1.54565, 1.54087, 1.52811, 1.516, 1.51037, 1.50421, 1.53368, 1.497, 1.6576, 1.65794, 1.46417, 1.47169, 1.4791, 1.46588, 1.45351, 1.44789, 1.44045, 1.43486, 1.43191, 1.43325, 1.42643, 1.42192, 1.41889, 1.40928, 1.40355, 1.39988, 1.39241, 1.39082, 1.38397, 1.38469, 1.40209, 1.38188, 1.44774, 1.50412, 1.49598, 1.46597, 1.36153, 1.35786, 1.34467, 1.34024, 1.33431
1.68929, 1.6812, 1.67242, 1.67107, 1.66609, 1.6704, 1.63984, 1.81968, 1.82589, 1.63976, 1.61615, 1.60527, 1.59234, 1.58554, 1.58524, 1.58589, 1.56885, 1.57523, 1.55288, 1.54574, 1.54519, 1.52924, 1.5211, 1.51372, 1.52208, 1.52057, 1.50046, 1.65235, 1.6202, 1.5761, 1.476, 1.47776, 1.47798, 1.45605, 1.44994, 1.44374, 1.43397, 1.437, 1.4382, 1.42578, 1.42365, 1.42454, 1.41602, 1.4049, 1.4045, 1.39382, 1.39191, 1.38575, 1.38355, 1.3792, 1.38119, 1.44949, 1.52252, 1.51378, 1.46191, 1.3721, 1.35811, 1.3443, 1.34532, 1.34071
1.69104, 1.68482, 1.67827, 1.6699, 1.66785, 1.67535, 1.63281, 1.85565, 1.82942, 1.59608, 1.61821, 1.61278, 1.59787, 1.58962, 1.58945, 1.58018, 1.56565, 1.56954, 1.55807, 1.55479, 1.54349, 1.53275, 1.52442, 1.52149, 1.51983, 1.52434, 1.55116, 1.6414, 1.64053, 1.4957, 1.46754, 1.48861, 1.47796, 1.4593, 1.45359, 1.45084, 1.43826, 1.44327, 1.44206, 1.43479, 1.42827, 1.4262, 1.41262, 1.40667, 1.40838, 1.40703, 1.39564, 1.40637, 1.38516, 1.38341, 1.384, 1.44023, 1.52016, 1.5198, 1.36435, 1.36337, 1.37098, 1.35748, 1.35041, 1.34956
1.69296, 1.68339, 1.67969, 1.67319, 1.67544, 1.68091, 1.63982, 1.76688, 1.85453, 1.60402, 1.61595, 1.61962, 1.60188, 1.59333, 1.58988, 1.57856, 1.5749, 1.5807, 1.55974, 1.55137, 1.54421, 1.53959, 1.52807, 1.52425, 1.52037, 1.52385, 1.51225, 1.632, 1.65204, 1.6177, 1.47359, 1.49518, 1.48668, 1.47068, 1.45965, 1.44905, 1.44098, 1.44365, 1.44604, 1.43338, 1.42941, 1.42543, 1.42234, 1.41106, 1.40977, 1.40608, 1.39774, 1.38917, 1.39149, 1.39114, 1.38653, 1.46223, 1.50246, 1.52778, 1.47033, 1.36816, 1.35161, 1.35041, 1.34933, 1.34925
1.69439, 1.68261, 1.68327, 1.68434, 1.66883, 1.65807, 1.63119, 1.7885, 1.8459, 1.67215, 1.6134, 1.61448, 1.60753, 1.59084, 1.58909, 1.58411, 1.57008, 1.5826, 1.56094, 1.55039, 1.54076, 1.54081, 1.52986, 1.5261, 1.54372, 1.52198, 1.49989, 1.65856, 1.66426, 1.59929, 1.48184, 1.49563, 1.47583, 1.46638, 1.46316, 1.45665, 1.44232, 1.44438, 1.44684, 1.43337, 1.42901, 1.42584, 1.41593, 1.41237, 1.41319, 1.40385, 1.39648, 1.39443, 1.38572, 1.38601, 1.40427, 1.47259, 1.51368, 1.52091, 1.4654, 1.37178, 1.35752, 1.35076, 1.3599, 1.33693
1.72336, 1.69257, 1.6822, 1.67485, 1.67038, 1.66527, 1.66348, 1.82213, 1.83768, 1.62232, 1.61485, 1.60803, 1.59918, 1.59861, 1.5855, 1.57104, 1.57044, 1.57257, 1.57176, 1.54889, 1.54224, 1.53518, 1.53604, 1.52406, 1.54214, 1.53654, 1.50195, 1.67254, 1.6639, 1.61119, 1.48171, 1.50216, 1.47767, 1.47023, 1.46163, 1.45716, 1.44117, 1.44502, 1.44996, 1.42826, 1.43218, 1.42095, 1.4167, 1.41411, 1.40384, 1.39941, 1.397, 1.39384, 1.38996, 1.39346, 1.38883, 1.46575, 1.52987, 1.49735, 1.49262, 1.35689, 1.34853, 1.35231, 1.34331, 1.33356
1.68811, 1.66938, 1.66952, 1.66938, 1.67241, 1.65181, 1.70624, 1.72309, 1.85291, 1.67012, 1.62748, 1.60909, 1.59563, 1.58531, 1.58274, 1.57071, 1.56877, 1.56736, 1.58775, 1.5475, 1.53986, 1.53463, 1.53037, 1.52146, 1.52277, 1.5231, 1.48293, 1.64058, 1.66866, 1.47703, 1.46047, 1.48193, 1.47153, 1.46548, 1.4646, 1.45463, 1.43655, 1.44319, 1.44366, 1.42645, 1.42424, 1.41645, 1.41327, 1.40721, 1.3979, 1.3936, 1.39094, 1.40625, 1.38634, 1.3817, 1.38304, 1.37502, 1.52366, 1.51677, 1.48919, 1.36793, 1.34911, 1.34791, 1.33718, 1.32634
1.68993, 1.66179, 1.65968, 1.66892, 1.66487, 1.66372, 1.67786, 1.85199, 1.83913, 1.66087, 1.61395, 1.62345, 1.57583, 1.57006, 1.58286, 1.56206, 1.57042, 1.56644, 1.56629, 1.5405, 1.54076, 1.53971, 1.52715, 1.52254, 1.5255, 1.51371, 1.47466, 1.62809, 1.65034, 1.58963, 1.47989, 1.48967, 1.46861, 1.46535, 1.46433, 1.44892, 1.43321, 1.44003, 1.44878, 1.411, 1.41742, 1.41371, 1.40857, 1.39881, 1.38921, 1.38851, 1.3908, 1.38532, 1.37239, 1.38203, 1.37957, 1.43984, 1.49972, 1.50044, 1.46131, 1.36692, 1.34716, 1.35111, 1.34378, 1.31771
1.68421, 1.66137, 1.65653, 1.6675, 1.66543, 1.65955, 1.71645, 1.81673, 1.85544, 1.64668, 1.6166, 1.6113, 1.59587, 1.57544, 1.58319, 1.55451, 1.558, 1.56009, 1.55388, 1.54336, 1.54206, 1.5409, 1.51283, 1.51904, 1.51223, 1.50995, 1.49674, 1.63697, 1.65132, 1.5836, 1.48583, 1.48282, 1.4718, 1.46559, 1.44889, 1.44734, 1.42581, 1.44186, 1.44046, 1.41299, 1.40854, 1.40732, 1.40353, 1.38489, 1.38333, 1.38613, 1.39465, 1.37833, 1.36742, 1.38175, 1.38108, 1.41635, 1.53716, 1.55452, 1.45907, 1.37454, 1.35425, 1.34699, 1.31775, 1.31766
1.6854, 1.66346, 1.65941, 1.67189, 1.66812, 1.64423, 1.61041, 1.74851, 1.85645, 1.60619, 1.62806, 1.62005, 1.58341, 1.57486, 1.58438, 1.56529, 1.55661, 1.55442, 1.55748, 1.55253, 1.54227, 1.54014, 1.52653, 1.52285, 1.52599, 1.51776, 1.48616, 1.62132, 1.64896, 1.61737, 1.44976, 1.48929, 1.4813, 1.47423, 1.44672, 1.44706, 1.4299, 1.44109, 1.44325, 1.41205, 1.40509, 1.40297, 1.39849, 1.39373, 1.38285, 1.38915, 1.39668, 1.37885, 1.36832, 1.36896, 1.38025, 1.41394, 1.50914, 1.53675, 1.42838, 1.36209, 1.36863, 1.3473, 1.33002, 1.31992
1.68996, 1.6714, 1.66594, 1.67874, 1.66516, 1.64751, 1.61258, 1.75721, 1.86596, 1.61821, 1.63076, 1.61716, 1.60926, 1.5784, 1.58337, 1.56295, 1.55911, 1.55603, 1.56206, 1.54801, 1.54399, 1.54374, 1.52419, 1.52571, 1.52703, 1.5197, 1.48535, 1.64558, 1.65565, 1.55578, 1.47734, 1.47839, 1.48197, 1.48223, 1.45179, 1.44522, 1.43125, 1.44503, 1.44165, 1.42578, 1.41322, 1.40514, 1.39944, 1.39175, 1.38963, 1.39751, 1.40139, 1.37906, 1.37431, 1.37488, 1.39354, 1.43994, 1.48522, 1.53353, 1.43969, 1.36616, 1.35911, 1.35007, 1.33162, 1.33034
1.69816, 1.68265, 1.67453, 1.67522, 1.66559, 1.64787, 1.69422, 1.72844, 1.95234, 1.82474, 1.64012, 1.63083, 1.59717, 1.58835, 1.58741, 1.57102, 1.56629, 1.57132, 1.57649, 1.5721, 1.54741, 1.53771, 1.54476, 1.52802, 1.52763, 1.51964, 1.51985, 1.64043, 1.68984, 1.62367, 1.47563, 1.49203, 1.48789, 1.47925, 1.47485, 1.44222, 1.44189, 1.45362, 1.44703, 1.43328, 1.43023, 1.41185, 1.4084, 1.4011, 1.39977, 1.40307, 1.4054, 1.40017, 1.40199, 1.39078, 1.3864, 1.41774, 1.5059, 1.49922, 1.39553, 1.3682, 1.36901, 1.35159, 1.36069, 1.34768
1.68763, 1.69521, 1.67981, 1.68391, 1.67212, 1.65406, 1.67328, 1.86233, 1.89748, 1.70032, 1.63026, 1.6312, 1.60211, 1.60651, 1.59178, 1.58466, 1.57964, 1.57568, 1.59663, 1.57775, 1.54502, 1.53996, 1.53774, 1.53151, 1.52172, 1.5313, 1.52518, 1.64589, 1.67419, 1.56905, 1.48874, 1.49999, 1.5, 1.48163, 1.46306, 1.44999, 1.44573, 1.44745, 1.44459, 1.43605, 1.42624, 1.42141, 1.41633, 1.4115, 1.40605, 1.40578, 1.40367, 1.39594, 1.39181, 1.3955, 1.40277, 1.38181, 1.48688, 1.52928, 1.4629, 1.36752, 1.36775, 1.34802, 1.34747, 1.34368
1.69161, 1.68454, 1.67827, 1.6696, 1.66945, 1.65455, 1.63817, 1.82155, 1.89606, 1.64584, 1.63058, 1.62103, 1.61426, 1.60519, 1.58946, 1.58355, 1.58293, 1.56991, 1.58431, 1.55801, 1.56262, 1.5403, 1.53631, 1.54759, 1.52027, 1.52191, 1.51582, 1.67165, 1.68047, 1.59375, 1.47079, 1.50325, 1.4942, 1.47218, 1.46144, 1.45438, 1.44996, 1.44687, 1.44386, 1.43359, 1.43029, 1.42774, 1.42019, 1.4152, 1.40988, 1.4028, 1.40249, 1.40248, 1.39108, 1.39537, 1.39125, 1.3991, 1.47321, 1.54763, 1.4859, 1.38065, 1.36497, 1.36774, 1.34433, 1.34727
1.69283, 1.68212, 1.69473, 1.67548, 1.65808, 1.65823, 1.61523, 1.78592, 1.8515, 1.62893, 1.62971, 1.61503, 1.61666, 1.59317, 1.58736, 1.58453, 1.57333, 1.56472, 1.57404, 1.55822, 1.54846, 1.54782, 1.53424, 1.52398, 1.52771, 1.52716, 1.52527, 1.65053, 1.64012, 1.61307, 1.46408, 1.50313, 1.50553, 1.48287, 1.45495, 1.44809, 1.44315, 1.44296, 1.43732, 1.43, 1.42823, 1.4269, 1.41679, 1.41122, 1.40452, 1.40103, 1.39683, 1.42326, 1.40345, 1.39629, 1.40384, 1.39722, 1.48597, 1.52438, 1.47284, 1.37128, 1.35793, 1.34762, 1.34108, 1.34002
1.68353, 1.67544, 1.67011, 1.66644, 1.67108, 1.64848, 1.70585, 1.82839, 1.85155, 1.62961, 1.6143, 1.62059, 1.59846, 1.58478, 1.58221, 1.57719, 1.57137, 1.56478, 1.57486, 1.5545, 1.55019, 1.53158, 1.5295, 1.53059, 1.51452, 1.51977, 1.49638, 1.65087, 1.66593, 1.59806, 1.47712, 1.47942, 1.48004, 1.46637, 1.45152, 1.44374, 1.44189, 1.43892, 1.43208, 1.42955, 1.42949, 1.42285, 1.41328, 1.4097, 1.39741, 1.3944, 1.39161, 1.3896, 1.38469, 1.39174, 1.39652, 1.42657, 1.45747, 1.5205, 1.4825, 1.3814, 1.36891, 1.34072, 1.33754, 1.33714
1.67888, 1.67514, 1.6691, 1.66605, 1.65177, 1.6567, 1.62729, 1.76878, 1.85796, 1.70688, 1.61686, 1.60758, 1.60357, 1.58888, 1.57659, 1.57525, 1.56654, 1.5633, 1.56378, 1.55833, 1.5366, 1.53064, 1.5278, 1.52334, 1.52064, 1.51517, 1.49502, 1.6381, 1.62881, 1.55819, 1.47621, 1.47646, 1.49243, 1.45261, 1.44194, 1.44029, 1.44156, 1.43711, 1.43288, 1.42843, 1.42245, 1.41351, 1.41355, 1.40179, 1.39905, 1.39118, 1.38924, 1.38881, 1.39356, 1.37853, 1.39196, 1.3838, 1.51082, 1.52186, 1.50342, 1.35376, 1.35649, 1.33831, 1.33461, 1.33394
1.68206, 1.67209, 1.67043, 1.65975, 1.65845, 1.65174, 1.64045, 1.78734, 1.8683, 1.75995, 1.61378, 1.61197, 1.59208, 1.58794, 1.56935, 1.57156, 1.56522, 1.56015, 1.56525, 1.54428, 1.53141, 1.52762, 1.54453, 1.52124, 1.51702, 1.51058, 1.49324, 1.62286, 1.64496, 1.59955, 1.46889, 1.48204, 1.47991, 1.4508, 1.44116, 1.43918, 1.44125, 1.43986, 1.43153, 1.42488, 1.41812, 1.40993, 1.40149, 1.39887, 1.39426, 1.38951, 1.38375, 1.3854, 1.39138, 1.38161, 1.38475, 1.37712, 1.50306, 1.5244, 1.42479, 1.36793, 1.34622, 1.33763, 1.33268, 1.33334
1.67984, 1.67003, 1.66671, 1.65402, 1.65198, 1.64775, 1.644, 1.79942, 1.849, 1.77969, 1.62222, 1.61721, 1.593, 1.59277, 1.5662, 1.56641, 1.55645, 1.5646, 1.55196, 1.54788, 1.54768, 1.52599, 1.53812, 1.525, 1.51343, 1.51044, 1.49565, 1.59139, 1.63537, 1.61641, 1.47081, 1.48139, 1.47898, 1.46796, 1.43948, 1.43746, 1.44222, 1.43793, 1.42775, 1.4265, 1.41636, 1.41574, 1.3996, 1.39577, 1.39274, 1.3853, 1.38193, 1.38294, 1.37565, 1.37215, 1.38508, 1.45576, 1.51214, 1.54432, 1.49362, 1.36356, 1.36018, 1.33458, 1.33071, 1.3304
1.67603, 1.66607, 1.6611, 1.66543, 1.67221, 1.64747, 1.61434, 1.80031, 1.84185, 1.64518, 1.61353, 1.59881, 1.58873, 1.59293, 1.56817, 1.56175, 1.55447, 1.55688, 1.57465, 1.55073, 1.52835, 1.52402, 1.51627, 1.51584, 1.50548, 1.50734, 1.50699, 1.59182, 1.63525, 1.58918, 1.47827, 1.48163, 1.48962, 1.44886, 1.44033, 1.4373, 1.4388, 1.43753, 1.42584, 1.41704, 1.41973, 1.40825, 1.39958, 1.3945, 1.38689, 1.38439, 1.38, 1.38142, 1.37223, 1.37406, 1.38349, 1.39228, 1.50524, 1.54101, 1.50969, 1.37264, 1.3547, 1.33364, 1.33019, 1.32872
1.67334, 1.66551, 1.663, 1.64995, 1.64604, 1.64841, 1.64681, 1.76608, 1.87622, 1.60303, 1.61267, 1.59226, 1.58626, 1.578, 1.56562, 1.55839, 1.55421, 1.55444, 1.54934, 1.55154, 1.53525, 1.5241, 1.51902, 1.50583, 1.5008, 1.50773, 1.47882, 1.58589, 1.63286, 1.54048, 1.47224, 1.47055, 1.47908, 1.45076, 1.43888, 1.43639, 1.43705, 1.43262, 1.42576, 1.42079, 1.42214, 1.41926, 1.40239, 1.39283, 1.38605, 1.3816, 1.38069, 1.37951, 1.37393, 1.38479, 1.37819, 1.43977, 1.43971, 1.54963, 1.49941, 1.37496, 1.36138, 1.33063, 1.3475, 1.32753
1.67611, 1.6689, 1.66474, 1.66797, 1.64964, 1.64704, 1.63223, 1.72112, 1.86922, 1.75135, 1.62515, 1.60247, 1.59928, 1.58605, 1.58474, 1.56255, 1.55814, 1.55701, 1.5546, 1.53917, 1.53832, 1.52935, 1.53103, 1.51253, 1.50901, 1.51451, 1.50043, 1.62697, 1.63702, 1.59388, 1.48054, 1.47109, 1.49039, 1.44619, 1.44085, 1.44179, 1.43701, 1.43449, 1.43492, 1.42458, 1.42163, 1.41589, 1.40893, 1.39605, 1.38857, 1.38595, 1.38462, 1.38268, 1.3785, 1.38813, 1.38591, 1.43634, 1.43489, 1.56833, 1.51045, 1.36022, 1.37099, 1.34963, 1.33742, 1.33984
1.68171, 1.67503, 1.67991, 1.67487, 1.66331, 1.64905, 1.63732, 1.79221, 1.86631, 1.80552, 1.61058, 1.62196, 1.5999, 1.5876, 1.60593, 1.56744, 1.56385, 1.56265, 1.55365, 1.55789, 1.547, 1.53154, 1.53016, 1.51018, 1.52005, 1.51708, 1.47398, 1.65049, 1.63829, 1.5516, 1.48978, 1.47122, 1.4914, 1.45183, 1.45038, 1.44323, 1.44099, 1.43409, 1.43408, 1.42354, 1.41966, 1.41312, 1.40621, 1.40964, 1.39266, 1.38852, 1.39966, 1.39259, 1.37881, 1.37973, 1.3778, 1.40229, 1.48994, 1.54152, 1.51064, 1.36508, 1.36596, 1.34696, 1.33658, 1.33198
1.68523, 1.6815, 1.67859, 1.6651, 1.66585, 1.65504, 1.62818, 1.73383, 1.83786, 1.70642, 1.62311, 1.60667, 1.59658, 1.60261, 1.59896, 1.5653, 1.56196, 1.55413, 1.55716, 1.55122, 1.55455, 1.53092, 1.52534, 1.51026, 1.52378, 1.51561, 1.47904, 1.64725, 1.66113, 1.58809, 1.47847, 1.47455, 1.48616, 1.44811, 1.45693, 1.44392, 1.43865, 1.43211, 1.43049, 1.42463, 1.41814, 1.41329, 1.40927, 1.39846, 1.39318, 1.40039, 1.39177, 1.40229, 1.38449, 1.37275, 1.38829, 1.38283, 1.49192, 1.56118, 1.492, 1.37822, 1.37095, 1.34318, 1.35199, 1.3586
1.68057, 1.67483, 1.68219, 1.65453, 1.64803, 1.6426, 1.64512, 1.7898, 1.87571, 1.60773, 1.62749, 1.6039, 1.6, 1.60009, 1.57293, 1.56054, 1.55535, 1.55902, 1.55909, 1.54679, 1.5397, 1.53197, 1.52472, 1.51718, 1.50599, 1.51362, 1.49777, 1.62419, 1.65306, 1.58395, 1.47646, 1.48553, 1.48258, 1.44796, 1.44321, 1.44063, 1.43723, 1.4274, 1.42746, 1.42339, 1.4152, 1.41561, 1.41965, 1.39914, 1.39071, 1.38515, 1.38642, 1.38798, 1.38211, 1.37035, 1.38174, 1.39819, 1.45476, 1.5683, 1.5208, 1.36409, 1.35397, 1.34695, 1.33024, 1.33325
1.67571, 1.66853, 1.66862, 1.64821, 1.63834, 1.64419, 1.60418, 1.73097, 1.85879, 1.61674, 1.61295, 1.59603, 1.58093, 1.59976, 1.56524, 1.55419, 1.55158, 1.54315, 1.53585, 1.54166, 1.5264, 1.52725, 1.50556, 1.50293, 1.50652, 1.49961, 1.47562, 1.60502, 1.63681, 1.60661, 1.48147, 1.46181, 1.49099, 1.45086, 1.43881, 1.44045, 1.42709, 1.42213, 1.42251, 1.41504, 1.40755, 1.40349, 1.39541, 1.38817, 1.38232, 1.38486, 1.37671, 1.36954, 1.36469, 1.37013, 1.36875, 1.33472, 1.44254, 1.52376, 1.52349, 1.35061, 1.33935, 1.32976, 1.31197, 1.36222
1.67727, 1.66432, 1.65551, 1.64911, 1.63859, 1.63354, 1.59799, 1.72851, 1.88004, 1.71312, 1.59593, 1.58643, 1.57767, 1.57167, 1.56624, 1.55898, 1.55468, 1.55748, 1.53439, 1.55455, 1.53979, 1.52783, 1.50729, 1.50336, 1.49571, 1.49931, 1.48799, 1.62107, 1.6329, 1.58703, 1.48241, 1.46195, 1.48671, 1.45536, 1.43687, 1.43076, 1.42475, 1.42281, 1.41246, 1.40722, 1.40112, 1.3965, 1.39058, 1.38603, 1.38172, 1.37497, 1.37419, 1.36551, 1.36356, 1.35843, 1.35806, 1.39166, 1.46506, 1.51772, 1.55829, 1.34781, 1.35522, 1.32349, 1.32626, 1.3139
1.67411, 1.66421, 1.65652, 1.64761, 1.64041, 1.64382, 1.58994, 1.68719, 1.88698, 1.72411, 1.5915, 1.59488, 1.58094, 1.57293, 1.56752, 1.56432, 1.55737, 1.5419, 1.53314, 1.55533, 1.52266, 1.51307, 1.50869, 1.50049, 1.50482, 1.49701, 1.49682, 1.63866, 1.64823, 1.55004, 1.46239, 1.47173, 1.47189, 1.44019, 1.44479, 1.43091, 1.4266, 1.41749, 1.41244, 1.40614, 1.39983, 1.39217, 1.39064, 1.38637, 1.38417, 1.37622, 1.37089, 1.36694, 1.36032, 1.3655, 1.36486, 1.40287, 1.48161, 1.52473, 1.52067, 1.34715, 1.33508, 1.32217, 1.33427, 1.31535
1.66925, 1.6644, 1.65148, 1.65441, 1.63086, 1.62515, 1.5907, 1.7154, 1.87641, 1.69255, 1.5956, 1.58879, 1.57794, 1.57205, 1.56899, 1.56144, 1.5565, 1.54544, 1.5306, 1.53772, 1.52312, 1.523, 1.50768, 1.50351, 1.49663, 1.505, 1.46639, 1.63392, 1.64308, 1.57782, 1.47129, 1.46383, 1.46972, 1.43803, 1.43581, 1.42719, 1.41822, 1.41845, 1.41041, 1.40582, 1.39301, 1.39174, 1.39044, 1.38888, 1.38411, 1.3764, 1.39248, 1.36659, 1.35909, 1.3691, 1.365, 1.44196, 1.48806, 1.54024, 1.50242, 1.34106, 1.33325, 1.32105, 1.31613, 1.3135
1.67589, 1.66288, 1.6549, 1.64729, 1.63117, 1.6346, 1.61309, 1.69133, 1.87473, 1.62723, 1.59825, 1.58959, 1.58181, 1.57153, 1.56414, 1.55877, 1.55142, 1.54027, 1.54751, 1.52389, 1.53786, 1.53112, 1.50951, 1.50607, 1.49905, 1.49766, 1.49253, 1.64804, 1.65507, 1.54371, 1.4624, 1.46372, 1.45782, 1.43763, 1.43376, 1.43062, 1.42535, 1.4137, 1.40898, 1.40304, 1.39637, 1.39147, 1.39253, 1.38509, 1.37926, 1.37504, 1.37035, 1.36569, 1.35919, 1.3541, 1.35557, 1.41274, 1.53375, 1.54753, 1.50843, 1.33869, 1.34369, 1.32073, 1.31658, 1.31478
1.67249, 1.66276, 1.66202, 1.64362, 1.64084, 1.63407, 1.60444, 1.64465, 1.86467, 1.73177, 1.59574, 1.60907, 1.5772, 1.57319, 1.56462, 1.55781, 1.55197, 1.53991, 1.53393, 1.53052, 1.52739, 1.51436, 1.51584, 1.5023, 1.49914, 1.51518, 1.49225, 1.62087, 1.64395, 1.58694, 1.48118, 1.46917, 1.46401, 1.45055, 1.43948, 1.43413, 1.41966, 1.41421, 1.41017, 1.40517, 1.40044, 1.39596, 1.39113, 1.3864, 1.38059, 1.37444, 1.36859, 1.36437, 1.3579, 1.35566, 1.35381, 1.36121, 1.5449, 1.54519, 1.50638, 1.33299, 1.33291, 1.32178, 1.31537, 1.31365
1.67554, 1.65857, 1.6539, 1.63974, 1.63396, 1.6283, 1.60347, 1.76646, 1.8892, 1.74743, 1.59597, 1.58601, 1.57635, 1.57016, 1.56309, 1.55937, 1.5542, 1.54037, 1.53031, 1.54389, 1.53001, 1.51721, 1.51214, 1.50896, 1.49989, 1.49924, 1.50317, 1.60313, 1.60765, 1.59935, 1.46239, 1.46959, 1.45465, 1.45432, 1.44113, 1.43352, 1.42328, 1.41862, 1.41008, 1.40691, 1.40144, 1.39693, 1.39444, 1.38932, 1.38649, 1.3727, 1.36906, 1.36511, 1.36101, 1.35675, 1.37475, 1.43464, 1.50697, 1.5332, 1.50601, 1.33555, 1.33005, 1.32174, 1.31682, 1.31586
1.66435, 1.65781, 1.65059, 1.64254, 1.63182, 1.62937, 1.6057, 1.73134, 1.91183, 1.75782, 1.61032, 1.58791, 1.57808, 1.56898, 1.56209, 1.55931, 1.55218, 1.54433, 1.5376, 1.52981, 1.53335, 1.51805, 1.51468, 1.5094, 1.50548, 1.50028, 1.49859, 1.60975, 1.62352, 1.60638, 1.45418, 1.47453, 1.46834, 1.45992, 1.44762, 1.43915, 1.42528, 1.41768, 1.41489, 1.40885, 1.40532, 1.40042, 1.39628, 1.39283, 1.38633, 1.37326, 1.37379, 1.3683, 1.36407, 1.36, 1.36145, 1.3898, 1.49622, 1.52677, 1.50026, 1.35702, 1.33009, 1.32532, 1.32267, 1.31561
1.66907, 1.65329, 1.64705, 1.64278, 1.63643, 1.63025, 1.6156, 1.71924, 1.90783, 1.84813, 1.60121, 1.58729, 1.57897, 1.57169, 1.56164, 1.55754, 1.55343, 1.54496, 1.53713, 1.543, 1.53364, 1.51907, 1.51442, 1.51086, 1.50275, 1.50891, 1.50597, 1.61497, 1.62452, 1.57225, 1.49138, 1.48118, 1.45705, 1.47161, 1.44091, 1.43235, 1.42832, 1.41938, 1.41624, 1.40977, 1.40718, 1.40252, 1.39894, 1.39457, 1.38904, 1.37811, 1.37383, 1.37069, 1.36458, 1.3681, 1.36168, 1.38929, 1.49194, 1.53882, 1.4983, 1.33652, 1.3433, 1.3238, 1.32429, 1.31923
1.66729, 1.6501, 1.64481, 1.63785, 1.63448, 1.64036, 1.63325, 1.712, 1.90151, 1.83171, 1.61946, 1.60734, 1.57899, 1.57211, 1.56193, 1.55482, 1.55409, 1.5438, 1.53551, 1.53366, 1.54993, 1.53133, 1.51403, 1.50982, 1.50472, 1.4994, 1.47129, 1.59607, 1.62946, 1.60956, 1.47013, 1.46282, 1.4627, 1.46246, 1.44832, 1.43091, 1.42654, 1.42689, 1.41747, 1.41439, 1.42277, 1.40491, 1.39938, 1.3927, 1.38689, 1.37951, 1.37754, 1.37219, 1.36887, 1.3776, 1.37483, 1.3605, 1.44698, 1.53152, 1.50654, 1.3435, 1.32939, 1.32361, 1.33202, 1.32293
1.66221, 1.65374, 1.66906, 1.63802, 1.63688, 1.63453, 1.63172, 1.75215, 1.89093, 1.71077, 1.61043, 1.59725, 1.58501, 1.56625, 1.56002, 1.55411, 1.54937, 1.54147, 1.5346, 1.52942, 1.53988, 1.51545, 1.52441, 1.50913, 1.49686, 1.50688, 1.47913, 1.59266, 1.61411, 1.60084, 1.4689, 1.46266, 1.45717, 1.46196, 1.4335, 1.42534, 1.42524, 1.42422, 1.41261, 1.41321, 1.40805, 1.40379, 1.4017, 1.39663, 1.39179, 1.3795, 1.37712, 1.38104, 1.36724, 1.36237, 1.36815, 1.39944, 1.46483, 1.54459, 1.49506, 1.34851, 1.34932, 1.32295, 1.32316, 1.3184
1.66306, 1.65053, 1.64842, 1.63685, 1.6337, 1.63528, 1.62052, 1.73755, 1.87928, 1.63131, 1.60411, 1.59746, 1.57606, 1.56772, 1.5606, 1.5564, 1.54948, 1.54088, 1.5338, 1.5316, 1.53925, 1.51326, 1.51318, 1.50184, 1.49814, 1.49817, 1.46938, 1.54781, 1.6089, 1.5631, 1.45763, 1.45099, 1.44794, 1.46837, 1.43356, 1.42864, 1.42571, 1.42625, 1.41283, 1.41114, 1.40687, 1.40425, 1.4015, 1.39095, 1.38491, 1.37831, 1.37409, 1.3705, 1.36615, 1.36075, 1.37145, 1.36402, 1.48339, 1.5479, 1.50869, 1.3342, 1.33097, 1.32446, 1.32227, 1.31616
1.65878, 1.65392, 1.65341, 1.6385, 1.63328, 1.64027, 1.63845, 1.68462, 1.88326, 1.73624, 1.59759, 1.58901, 1.57862, 1.56623, 1.55731, 1.55714, 1.55912, 1.54217, 1.53472, 1.52833, 1.53307, 1.5181, 1.50989, 1.50173, 1.49744, 1.50082, 1.46972, 1.56759, 1.61501, 1.57379, 1.43711, 1.45813, 1.44436, 1.46821, 1.44062, 1.44785, 1.42938, 1.4253, 1.41127, 1.41009, 1.40559, 1.40386, 1.39823, 1.38846, 1.38231, 1.37985, 1.37449, 1.36921, 1.36508, 1.36471, 1.36199, 1.38937, 1.47428, 1.55833, 1.55556, 1.33467, 1.34422, 1.32392, 1.32276, 1.31691
1.66445, 1.65795, 1.65485, 1.64052, 1.63358, 1.64754, 1.6334, 1.7018, 1.89469, 1.67023, 1.59562, 1.58845, 1.57374, 1.57585, 1.58293, 1.55513, 1.55153, 1.54445, 1.5363, 1.52929, 1.53795, 1.5161, 1.51149, 1.50328, 1.4939, 1.49415, 1.48887, 1.50491, 1.59773, 1.56197, 1.45551, 1.45763, 1.44495, 1.46538, 1.43507, 1.43369, 1.42609, 1.41815, 1.41364, 1.40945, 1.4059, 1.39871, 1.39512, 1.38912, 1.38326, 1.37604, 1.37174, 1.36928, 1.3643, 1.36371, 1.36751, 1.38459, 1.51876, 1.5568, 1.52773, 1.33709, 1.32635, 1.32288, 1.32146, 1.31844
1.66585, 1.65867, 1.65542, 1.64211, 1.63529, 1.6322, 1.63283, 1.7561, 1.91307, 1.6583, 1.60529, 1.5959, 1.58074, 1.56956, 1.56102, 1.55556, 1.55355, 1.54167, 1.53803, 1.53053, 1.53649, 1.517, 1.52009, 1.5034, 1.49822, 1.51663, 1.48692, 1.55479, 1.58185, 1.58772, 1.45958, 1.46693, 1.44372, 1.45925, 1.4572, 1.43016, 1.42483, 1.41804, 1.41268, 1.40891, 1.40581, 1.40101, 1.39361, 1.39126, 1.38248, 1.37529, 1.37207, 1.3675, 1.37965, 1.3629, 1.37128, 1.41373, 1.51621, 1.55159, 1.44123, 1.33806, 1.32941, 1.32644, 1.32328, 1.31888
1.6683, 1.66288, 1.67173, 1.64709, 1.63819, 1.63349, 1.64131, 1.77994, 1.88628, 1.66849, 1.60289, 1.60308, 1.57693, 1.58307, 1.56132, 1.55997, 1.56216, 1.54529, 1.53537, 1.53015, 1.54025, 1.53473, 1.51893, 1.50269, 1.49547, 1.49907, 1.49448, 1.55438, 1.68573, 1.60013, 1.47243, 1.47787, 1.44807, 1.45768, 1.43428, 1.42946, 1.42431, 1.42054, 1.41307, 1.40874, 1.40276, 1.39941, 1.39365, 1.38832, 1.38211, 1.37474, 1.37266, 1.37115, 1.36633, 1.36366, 1.37782, 1.41049, 1.50017, 1.56245, 1.42709, 1.34189, 1.3444, 1.32706, 1.32454, 1.31951
1.6754, 1.6679, 1.6683, 1.65081, 1.63816, 1.63161, 1.6228, 1.66469, 1.83762, 1.64164, 1.59902, 1.59834, 1.58238, 1.57114, 1.56594, 1.55822, 1.55344, 1.5432, 1.53743, 1.52872, 1.52546, 1.53327, 1.50968, 1.51101, 1.49523, 1.49757, 1.4716, 1.57094, 1.62953, 1.59817, 1.4686, 1.45795, 1.44613, 1.46271, 1.45086, 1.43412, 1.42416, 1.41989, 1.41463, 1.40646, 1.40266, 1.40214, 1.39302, 1.38799, 1.38282, 1.37593, 1.3716, 1.37047, 1.36732, 1.36431, 1.37925, 1.36853, 1.50464, 1.5713, 1.55142, 1.34331, 1.33314, 1.32739, 1.32463, 1.35353
1.67437, 1.66589, 1.66048, 1.64911, 1.64408, 1.63379, 1.60923, 1.71303, 1.86525, 1.63061, 1.60691, 1.59748, 1.5967, 1.5717, 1.56562, 1.55929, 1.5529, 1.54723, 1.54094, 1.5303, 1.53517, 1.52323, 1.51038, 1.50596, 1.4956, 1.50541, 1.50356, 1.55383, 1.60338, 1.59641, 1.46486, 1.46359, 1.45883, 1.46076, 1.44794, 1.43107, 1.43384, 1.42094, 1.41464, 1.41153, 1.4052, 1.4011, 1.39231, 1.38918, 1.38262, 1.37903, 1.37494, 1.37142, 1.37591, 1.36431, 1.36411, 1.42966, 1.46812, 1.57486, 1.49565, 1.35582, 1.34153, 1.32968, 1.33352, 1.32278
1.67149, 1.66592, 1.65793, 1.65163, 1.64032, 1.63768, 1.6381, 1.69824, 1.87652, 1.66185, 1.61192, 1.59715, 1.58614, 1.56666, 1.56207, 1.55725, 1.55246, 1.55093, 1.53518, 1.52761, 1.5274, 1.52045, 1.51133, 1.50225, 1.50638, 1.5032, 1.50054, 1.51557, 1.67129, 1.561, 1.4922, 1.47583, 1.46137, 1.44972, 1.45493, 1.42993, 1.45038, 1.42526, 1.4155, 1.40887, 1.40597, 1.40124, 1.3945, 1.3893, 1.38161, 1.37891, 1.37572, 1.3849, 1.36839, 1.36545, 1.36209, 1.39116, 1.48457, 1.56311, 1.5311, 1.34727, 1.34433, 1.33956, 1.33342, 1.32376
1.6698, 1.6644, 1.65752, 1.64738, 1.64026, 1.63349, 1.62686, 1.75304, 1.88212, 1.7507, 1.59912, 1.59331, 1.57924, 1.56559, 1.56131, 1.55765, 1.55237, 1.54569, 1.53823, 1.52974, 1.53151, 1.53462, 1.50995, 1.52706, 1.49328, 1.50573, 1.4924, 1.54125, 1.60762, 1.5827, 1.46656, 1.47399, 1.45446, 1.45937, 1.44159, 1.42482, 1.42176, 1.41903, 1.41551, 1.40696, 1.40672, 1.39881, 1.39252, 1.38847, 1.38319, 1.37904, 1.37192, 1.36969, 1.36809, 1.35906, 1.36079, 1.43055, 1.47431, 1.56731, 1.52764, 1.34549, 1.34345, 1.33394, 1.32622, 1.32324
1.67126, 1.6646, 1.65307, 1.64863, 1.64414, 1.63435, 1.60056, 1.73723, 1.87353, 1.74552, 1.60275, 1.59246, 1.57754, 1.5658, 1.56263, 1.55763, 1.55328, 1.54248, 1.53597, 1.52724, 1.53056, 1.5374, 1.50866, 1.51647, 1.49809, 1.49528, 1.49589, 1.54405, 1.60282, 1.57247, 1.48267, 1.46514, 1.44862, 1.44627, 1.4509, 1.4266, 1.42276, 1.41726, 1.41551, 1.41092, 1.40534, 1.39664, 1.39271, 1.38837, 1.38191, 1.37968, 1.37287, 1.37072, 1.39217, 1.36126, 1.35823, 1.39214, 1.5049, 1.5638, 1.5051, 1.34298, 1.34336, 1.33356, 1.32677, 1.323
1.67044, 1.66492, 1.65731, 1.64802, 1.63955, 1.63382, 1.6047, 1.70585, 1.86356, 1.59716, 1.60214, 1.58911, 1.57616, 1.56748, 1.56317, 1.55642, 1.55054, 1.54495, 1.5395, 1.54765, 1.5209, 1.53409, 1.52382, 1.50172, 1.50263, 1.49459, 1.46059, 1.60634, 1.58968, 1.57734, 1.47227, 1.46801, 1.44908, 1.45048, 1.45749, 1.43255, 1.42477, 1.4195, 1.41734, 1.41181, 1.40626, 1.39875, 1.3966, 1.39795, 1.38281, 1.37661, 1.37312, 1.37159, 1.36636, 1.35848, 1.36818, 1.35098, 1.5037, 1.57112, 1.54373, 1.35828, 1.34419, 1.33359, 1.32598, 1.32364
1.66802, 1.66437, 1.65321, 1.64558, 1.6386, 1.63488, 1.64129, 1.69471, 1.91878, 1.65404, 1.59143, 1.59684, 1.58237, 1.56789, 1.56478, 1.55723, 1.55014, 1.54406, 1.53739, 1.52881, 1.5318, 1.53818, 1.50961, 1.50324, 1.49656, 1.49733, 1.49823, 1.59232, 1.58844, 1.58002, 1.45263, 1.46906, 1.44911, 1.45084, 1.44962, 1.43929, 1.42376, 1.41974, 1.41484, 1.41013, 1.40858, 1.39969, 1.39184, 1.38816, 1.37967, 1.37654, 1.3738, 1.37082, 1.36435, 1.35834, 1.35899, 1.33919, 1.50309, 1.57453, 1.47624, 1.34697, 1.34038, 1.33546, 1.32903, 1.32575
1.66849, 1.66107, 1.65538, 1.64617, 1.64019, 1.63312, 1.64493, 1.68235, 1.85169, 1.9473, 1.58577, 1.59127, 1.57994, 1.5713, 1.5677, 1.56077, 1.55075, 1.54663, 1.54067, 1.53129, 1.5298, 1.54204, 1.51029, 1.51693, 1.50047, 1.51032, 1.4707, 1.53264, 1.58354, 1.57001, 1.50231, 1.47099, 1.45462, 1.45492, 1.46083, 1.428, 1.42553, 1.41724, 1.4182, 1.41314, 1.4074, 1.39951, 1.39391, 1.38898, 1.38089, 1.37704, 1.37306, 1.3706, 1.36537, 1.35906, 1.35817, 1.36061, 1.45592, 1.45122, 1.53072, 1.3536, 1.34175, 1.33626, 1.32952, 1.32379
1.67505, 1.66379, 1.65311, 1.64458, 1.63808, 1.64823, 1.63705, 1.7478, 1.90544, 1.67534, 1.58899, 1.59202, 1.58075, 1.57295, 1.56775, 1.56255, 1.55579, 1.54861, 1.54058, 1.53289, 1.52468, 1.53373, 1.52297, 1.50781, 1.50884, 1.49991, 1.49678, 1.54502, 1.60652, 1.58181, 1.4753, 1.46586, 1.46044, 1.44543, 1.45422, 1.4337, 1.42356, 1.41917, 1.41866, 1.41263, 1.40749, 1.40039, 1.3932, 1.38834, 1.38093, 1.3765, 1.37346, 1.36915, 1.36607, 1.36089, 1.36179, 1.36773, 1.49625, 1.61257, 1.51555, 1.35173, 1.35072, 1.34608, 1.32951, 1.32372
1.67186, 1.66002, 1.65487, 1.64284, 1.63775, 1.63758, 1.64078, 1.73888, 1.85675, 1.82628, 1.60987, 1.6001, 1.58551, 1.57427, 1.57179, 1.561, 1.5548, 1.54751, 1.54008, 1.53364, 1.52931, 1.53387, 1.53592, 1.51944, 1.50482, 1.50118, 1.48733, 1.59504, 1.60247, 1.57491, 1.46793, 1.4786, 1.45404, 1.44657, 1.45845, 1.43317, 1.42734, 1.42155, 1.41759, 1.41349, 1.40817, 1.40411, 1.39272, 1.38986, 1.38322, 1.37804, 1.37518, 1.37113, 1.36563, 1.36055, 1.3639, 1.37955, 1.42929, 1.59143, 1.46547, 1.35069, 1.35411, 1.33202, 1.32926, 1.32419
1.66868, 1.66063, 1.65236, 1.64404, 1.65262, 1.63881, 1.65223, 1.76835, 1.86908, 1.68537, 1.59665, 1.5996, 1.58475, 1.58637, 1.56731, 1.55954, 1.55477, 1.54842, 1.54217, 1.53331, 1.52531, 1.53675, 1.52583, 1.51353, 1.50989, 1.50248, 1.49991, 1.57289, 1.61662, 1.57986, 1.4917, 1.47689, 1.4646, 1.44604, 1.45388, 1.43443, 1.42725, 1.42194, 1.41871, 1.41357, 1.40641, 1.39921, 1.39478, 1.38991, 1.38444, 1.37604, 1.37155, 1.36736, 1.36506, 1.36102, 1.37209, 1.36765, 1.46699, 1.56855, 1.53142, 1.35832, 1.34461, 1.32889, 1.33, 1.32106
1.66521, 1.6617, 1.64875, 1.64436, 1.64516, 1.63677, 1.62408, 1.72599, 1.8012, 1.64355, 1.60058, 1.59755, 1.58099, 1.57514, 1.56353, 1.55726, 1.5525, 1.54724, 1.54039, 1.53352, 1.53054, 1.53283, 1.53749, 1.51041, 1.50837, 1.51266, 1.49252, 1.55298, 1.59965, 1.56027, 1.45906, 1.46263, 1.4615, 1.44533, 1.46074, 1.43233, 1.42308, 1.4197, 1.4185, 1.41665, 1.4071, 1.39993, 1.3966, 1.3947, 1.38294, 1.37777, 1.37239, 1.36751, 1.36701, 1.35909, 1.36205, 1.34024, 1.45123, 1.5747, 1.52263, 1.35045, 1.34078, 1.32675, 1.3232, 1.32109
1.67276, 1.66138, 1.65251, 1.64429, 1.64034, 1.6424, 1.63376, 1.69443, 1.86483, 1.78939, 1.57673, 1.59202, 1.57984, 1.57809, 1.56034, 1.55504, 1.55392, 1.54781, 1.5377, 1.53071, 1.52448, 1.52044, 1.53845, 1.50887, 1.51205, 1.49676, 1.4968, 1.54158, 1.58897, 1.56204, 1.47756, 1.46881, 1.45775, 1.44542, 1.44116, 1.44146, 1.42393, 1.41922, 1.4188, 1.41503, 1.40818, 1.40337, 1.39612, 1.39112, 1.38812, 1.37607, 1.36991, 1.36596, 1.3674, 1.36461, 1.37535, 1.37694, 1.45008, 1.61159, 1.56403, 1.34699, 1.33784, 1.32727, 1.32274, 1.31928
1.66974, 1.66941, 1.65396, 1.64368, 1.6369, 1.6335, 1.65012, 1.65891, 1.78765, 1.67151, 1.59223, 1.58897, 1.5794, 1.57117, 1.56527, 1.55506, 1.55054, 1.54605, 1.53814, 1.52945, 1.52349, 1.52532, 1.53535, 1.5082, 1.50199, 1.49637, 1.48496, 1.51587, 1.56951, 1.60527, 1.45251, 1.47538, 1.45467, 1.44613, 1.45706, 1.4338, 1.43134, 1.42102, 1.41594, 1.41444, 1.40728, 1.4008, 1.3961, 1.3927, 1.38445, 1.37814, 1.36762, 1.364, 1.36089, 1.36063, 1.36221, 1.36766, 1.45466, 1.62106, 1.65134, 1.33938, 1.33937, 1.32587, 1.32465, 1.32458
1.67051, 1.65907, 1.65105, 1.64126, 1.63915, 1.63636, 1.63224, 1.75171, 1.83099, 1.84216, 1.59639, 1.58897, 1.57837, 1.56958, 1.56401, 1.55425, 1.55148, 1.54422, 1.53739, 1.52907, 1.52405, 1.52007, 1.52367, 1.50915, 1.50216, 1.49635, 1.49258, 1.55701, 1.57327, 1.54206, 1.43297, 1.46762, 1.46045, 1.44634, 1.44142, 1.43622, 1.43118, 1.41986, 1.41764, 1.41333, 1.40766, 1.40111, 1.39802, 1.39258, 1.38307, 1.37371, 1.36538, 1.36422, 1.36506, 1.36275, 1.36837, 1.37868, 1.53485, 1.5874, 1.48618, 1.33925, 1.34111, 1.32807, 1.32615, 1.3239
1.66788, 1.66143, 1.64955, 1.64585, 1.6468, 1.6355, 1.64132, 1.70295, 1.88099, 1.63542, 1.57863, 1.5957, 1.59538, 1.56993, 1.56142, 1.55763, 1.5532, 1.54534, 1.54029, 1.52893, 1.52339, 1.53455, 1.51745, 1.51274, 1.49969, 1.4958, 1.48879, 1.536, 1.57446, 1.51896, 1.49906, 1.46573, 1.45557, 1.4448, 1.44007, 1.4368, 1.42411, 1.41999, 1.41759, 1.41532, 1.40872, 1.40236, 1.39722, 1.39176, 1.38665, 1.37541, 1.36737, 1.36572, 1.36506, 1.36433, 1.36856, 1.36444, 1.47741, 1.59262, 1.562, 1.34504, 1.34381, 1.33354, 1.32513, 1.32352
1.66622, 1.66088, 1.64869, 1.64339, 1.64224, 1.63958, 1.62018, 1.73194, 1.93772, 1.57877, 1.58441, 1.58702, 1.57989, 1.57149, 1.56241, 1.55654, 1.55121, 1.54172, 1.53541, 1.52803, 1.51972, 1.54429, 1.53303, 1.51683, 1.49699, 1.49269, 1.49881, 1.55149, 1.59184, 1.5564, 1.46851, 1.46624, 1.44846, 1.44183, 1.44718, 1.45365, 1.42527, 1.42105, 1.41878, 1.41506, 1.41049, 1.40392, 1.39717, 1.3917, 1.38412, 1.37498, 1.37447, 1.36523, 1.36488, 1.36252, 1.37147, 1.36438, 1.44405, 1.60345, 1.54627, 1.33713, 1.34612, 1.32963, 1.3256, 1.32176
1.67143, 1.66262, 1.65088, 1.64242, 1.63932, 1.63398, 1.63296, 1.75099, 1.86344, 1.92341, 1.59795, 1.59281, 1.57994, 1.57459, 1.5626, 1.55581, 1.54955, 1.54257, 1.53476, 1.52927, 1.51987, 1.51912, 1.52763, 1.50739, 1.5028, 1.4956, 1.46515, 1.54076, 1.57988, 1.5685, 1.50776, 1.4658, 1.44702, 1.44215, 1.43635, 1.4815, 1.42348, 1.41997, 1.41738, 1.41486, 1.40935, 1.4061, 1.40156, 1.39196, 1.38824, 1.37672, 1.37338, 1.36846, 1.36595, 1.36479, 1.36483, 1.38164, 1.48533, 1.61064, 1.59767, 1.34936, 1.34461, 1.34132, 1.33247, 1.3255
1.67454, 1.65936, 1.64839, 1.64362, 1.63782, 1.63206, 1.63369, 1.69888, 1.79717, 1.7021, 1.59528, 1.59801, 1.57613, 1.57274, 1.57482, 1.55469, 1.54934, 1.5416, 1.53492, 1.52709, 1.52641, 1.51933, 1.52942, 1.50707, 1.49935, 1.49573, 1.49597, 1.57585, 1.59009, 1.5587, 1.51606, 1.46701, 1.45535, 1.44029, 1.45359, 1.45886, 1.42257, 1.41904, 1.41707, 1.41137, 1.40892, 1.40425, 1.39871, 1.39583, 1.38527, 1.37491, 1.37195, 1.36714, 1.36577, 1.36571, 1.38572, 1.36755, 1.48597, 1.62569, 1.50942, 1.34424, 1.35128, 1.33195, 1.32622, 1.32116
1.66246, 1.65825, 1.64929, 1.64185, 1.63612, 1.63368, 1.63379, 1.69735, 1.82359, 1.66938, 1.5964, 1.59303, 1.58378, 1.57235, 1.56432, 1.55479, 1.54989, 1.5606, 1.53282, 1.526, 1.51708, 1.51556, 1.5328, 1.50767, 1.49912, 1.49543, 1.49983, 1.61445, 1.58553, 1.55994, 1.49283, 1.47554, 1.45845, 1.44406, 1.44398, 1.46507, 1.42093, 1.41941, 1.41603, 1.41134, 1.40589, 1.40298, 1.39753, 1.39574, 1.38647, 1.37856, 1.37441, 1.36987, 1.36626, 1.36487, 1.37388, 1.37804, 1.51313, 1.5947, 1.57486, 1.3411, 1.33234, 1.3293, 1.32617, 1.3338
1.66755, 1.65746, 1.64787, 1.64136, 1.63427, 1.63422, 1.63468, 1.63148, 1.7997, 1.65672, 1.59378, 1.60169, 1.57784, 1.57278, 1.56226, 1.55264, 1.54862, 1.54238, 1.53004, 1.52612, 1.52616, 1.51244, 1.54107, 1.50632, 1.50095, 1.49639, 1.49183, 1.50796, 1.58186, 1.55981, 1.50682, 1.46787, 1.44478, 1.4407, 1.43441, 1.43711, 1.42038, 1.41892, 1.41604, 1.41064, 1.40536, 1.40381, 1.3984, 1.39409, 1.38786, 1.37909, 1.3877, 1.36797, 1.36466, 1.36218, 1.36226, 1.37588, 1.52718, 1.59124, 1.5678, 1.35112, 1.3331, 1.32925, 1.32696, 1.32104
1.66579, 1.65635, 1.64468, 1.64315, 1.63567, 1.63152, 1.64014, 1.68959, 1.83829, 1.65742, 1.59982, 1.59992, 1.582, 1.5732, 1.56422, 1.55475, 1.54971, 1.53915, 1.53074, 1.52511, 1.51496, 1.51234, 1.52705, 1.51303, 1.51266, 1.50784, 1.47221, 1.60516, 1.58982, 1.56083, 1.52231, 1.46744, 1.44572, 1.4436, 1.43901, 1.42953, 1.41888, 1.41792, 1.41395, 1.40911, 1.40543, 1.40196, 1.39716, 1.39328, 1.38979, 1.38045, 1.37621, 1.36898, 1.36607, 1.36128, 1.36483, 1.37836, 1.51793, 1.61045, 1.58544, 1.33774, 1.34603, 1.32897, 1.34519, 1.32168
1.66496, 1.65586, 1.65154, 1.64148, 1.63364, 1.63066, 1.63402, 1.717, 1.76579, 2.03644, 1.59597, 1.59422, 1.57675, 1.5694, 1.56152, 1.55635, 1.54856, 1.54187, 1.53416, 1.52505, 1.51703, 1.51358, 1.50711, 1.50735, 1.50289, 1.50608, 1.47944, 1.53674, 1.58911, 1.55612, 1.43443, 1.46461, 1.44723, 1.44222, 1.43709, 1.42768, 1.42733, 1.41718, 1.4156, 1.40867, 1.40255, 1.40201, 1.39633, 1.39291, 1.3892, 1.38141, 1.38023, 1.37204, 1.37057, 1.35914, 1.36636, 1.36711, 1.52492, 1.61299, 1.59312, 1.34204, 1.34097, 1.32937, 1.32817, 1.32213
1.66693, 1.659, 1.65394, 1.63761, 1.6367, 1.63235, 1.62902, 1.63679, 2.0029, 1.82408, 1.60045, 1.58813, 1.58103, 1.56989, 1.55909, 1.55693, 1.55121, 1.54216, 1.53442, 1.52678, 1.52028, 1.51338, 1.54076, 1.53717, 1.50008, 1.49598, 1.50086, 1.57559, 1.58324, 1.55928, 1.48924, 1.46029, 1.44794, 1.44309, 1.44111, 1.45208, 1.42046, 1.41573, 1.41225, 1.40781, 1.40234, 1.40117, 1.39627, 1.39122, 1.38699, 1.38201, 1.37811, 1.37355, 1.36962, 1.36297, 1.36211, 1.37201, 1.51255, 1.59965, 1.5299, 1.3434, 1.34575, 1.32793, 1.32481, 1.31956
1.66868, 1.66081, 1.65028, 1.64281, 1.63405, 1.63234, 1.63646, 1.66528, 1.86711, 1.79759, 1.59324, 1.58895, 1.57861, 1.57894, 1.56391, 1.55759, 1.5516, 1.54069, 1.53639, 1.5303, 1.51797, 1.52044, 1.52608, 1.51781, 1.50397, 1.50873, 1.49286, 1.54879, 1.59146, 1.54812, 1.43967, 1.4676, 1.4549, 1.44568, 1.45342, 1.43333, 1.42881, 1.41628, 1.41208, 1.40809, 1.40125, 1.39906, 1.3957, 1.38954, 1.3844, 1.3805, 1.37772, 1.37439, 1.36851, 1.36351, 1.36034, 1.36115, 1.49467, 1.5794, 1.54165, 1.34426, 1.3351, 1.32751, 1.32531, 1.31968
1.67001, 1.66136, 1.64534, 1.65879, 1.64393, 1.63232, 1.63148, 1.62346, 1.79176, 1.73744, 1.6024, 1.6002, 1.58982, 1.56969, 1.56523, 1.55697, 1.5519, 1.54461, 1.53689, 1.52734, 1.51798, 1.51308, 1.52686, 1.5146, 1.50382, 1.4965, 1.48672, 1.53814, 1.55414, 1.54901, 1.44231, 1.46382, 1.45444, 1.45436, 1.45097, 1.44404, 1.43043, 1.41572, 1.41375, 1.40747, 1.40151, 1.39759, 1.39562, 1.38969, 1.38433, 1.38044, 1.37793, 1.37563, 1.36785, 1.36431, 1.37871, 1.35126, 1.46186, 1.56854, 1.51305, 1.3499, 1.35405, 1.32695, 1.32369, 1.32026
1.66621, 1.65889, 1.6479, 1.64197, 1.6438, 1.63216, 1.63698, 1.68308, 1.94205, 1.9569, 1.60128, 1.60049, 1.5809, 1.57141, 1.56776, 1.55692, 1.5503, 1.5431, 1.53556, 1.53111, 1.51789, 1.53499, 1.52247, 1.52616, 1.50343, 1.49414, 1.49492, 1.56864, 1.5498, 1.54546, 1.45899, 1.46282, 1.45216, 1.4613, 1.44889, 1.44095, 1.43115, 1.41712, 1.41304, 1.40837, 1.40097, 1.3984, 1.3949, 1.38857, 1.38807, 1.37895, 1.37749, 1.37472, 1.36966, 1.3648, 1.3636, 1.36174, 1.46707, 1.59356, 1.54691, 1.34855, 1.34436, 1.33026, 1.32323, 1.32094
1.66747, 1.65647, 1.64412, 1.64161, 1.63747, 1.63079, 1.62855, 1.65626, 1.78219, 1.65596, 1.59909, 1.59618, 1.5761, 1.56805, 1.5641, 1.55527, 1.54921, 1.54414, 1.53538, 1.52972, 1.51967, 1.51335, 1.51734, 1.525, 1.50673, 1.49175, 1.49663, 1.51724, 1.58151, 1.54713, 1.46438, 1.47066, 1.45787, 1.45032, 1.43765, 1.46654, 1.42727, 1.41904, 1.41517, 1.40634, 1.40011, 1.39869, 1.39341, 1.39115, 1.38383, 1.37973, 1.37548, 1.37229, 1.36843, 1.36344, 1.35905, 1.36, 1.45708, 1.61765, 1.48656, 1.33963, 1.35141, 1.32634, 1.32317, 1.31994
1.66206, 1.65677, 1.64388, 1.64169, 1.6357, 1.63165, 1.62734, 1.70841, 1.89399, 1.79304, 1.59595, 1.58632, 1.57672, 1.56723, 1.56183, 1.55651, 1.54883, 1.54377, 1.53671, 1.52953, 1.52638, 1.51268, 1.50994, 1.5373, 1.49851, 1.49206, 1.49239, 1.58824, 1.58427, 1.54196, 1.45124, 1.46617, 1.45281, 1.45082, 1.46617, 1.47058, 1.42795, 1.41726, 1.41514, 1.40641, 1.40233, 1.39869, 1.39259, 1.38883, 1.38482, 1.37864, 1.3754, 1.37436, 1.36879, 1.36113, 1.35809, 1.37045, 1.45306, 1.62075, 1.63747, 1.35327, 1.34884, 1.32938, 1.3233, 1.35096
1.66598, 1.64986, 1.64506, 1.64321, 1.63746, 1.62954, 1.62839, 1.72373, 1.86154, 1.78122, 1.59243, 1.58598, 1.57221, 1.56552, 1.56091, 1.55117, 1.54762, 1.54203, 1.53419, 1.52756, 1.51641, 1.51407, 1.50757, 1.52731, 1.49754, 1.50182, 1.47511, 1.5028, 1.60244, 1.51331, 1.45237, 1.46255, 1.45222, 1.45489, 1.46912, 1.43746, 1.43483, 1.41769, 1.41513, 1.40604, 1.40033, 1.39933, 1.39285, 1.39041, 1.38225, 1.37824, 1.37393, 1.37302, 1.36854, 1.35956, 1.35733, 1.37122, 1.44772, 1.58949, 1.50556, 1.35373, 1.33398, 1.32713, 1.32262, 1.31693
1.66855, 1.6517, 1.64381, 1.64225, 1.63647, 1.63023, 1.62814, 1.65044, 1.84173, 1.85866, 1.59183, 1.59857, 1.57466, 1.57574, 1.5576, 1.55532, 1.54665, 1.54062, 1.53114, 1.52569, 1.51898, 1.51336, 1.50906, 1.5327, 1.51057, 1.499, 1.49511, 1.49695, 1.58606, 1.53966, 1.47066, 1.46455, 1.45409, 1.45589, 1.467, 1.43422, 1.42717, 1.41601, 1.41267, 1.40734, 1.40169, 1.39781, 1.39319, 1.38477, 1.38161, 1.3775, 1.37389, 1.37242, 1.36946, 1.36083, 1.35817, 1.36414, 1.44455, 1.60691, 1.57792, 1.33708, 1.33986, 1.32866, 1.325, 1.3187
1.66606, 1.65768, 1.64504, 1.64447, 1.6352, 1.63325, 1.62764, 1.74173, 1.90661, 1.91795, 1.59474, 1.58314, 1.5749, 1.5684, 1.56298, 1.56401, 1.54774, 1.53863, 1.53135, 1.52338, 1.52106, 1.51752, 1.50945, 1.52984, 1.51723, 1.49893, 1.49508, 1.52862, 1.54365, 1.55244, 1.53965, 1.45923, 1.45425, 1.44104, 1.47093, 1.46186, 1.42184, 1.41707, 1.41227, 1.40763, 1.40244, 1.3969, 1.3923, 1.38611, 1.38065, 1.3761, 1.37411, 1.37147, 1.37026, 1.3612, 1.36865, 1.36758, 1.49185, 1.60992, 1.59108, 1.34421, 1.33132, 1.32975, 1.32508, 1.31998
1.66878, 1.65733, 1.64927, 1.64434, 1.63483, 1.62928, 1.62779, 1.74837, 1.76938, 1.93658, 1.59912, 1.59143, 1.57736, 1.57482, 1.56445, 1.55372, 1.54659, 1.54065, 1.53042, 1.52307, 1.51991, 1.51888, 1.51257, 1.52981, 1.50017, 1.49679, 1.47436, 1.53045, 1.56246, 1.54917, 1.4921, 1.47819, 1.46748, 1.47287, 1.49589, 1.44801, 1.4224, 1.41913, 1.41335, 1.40258, 1.40312, 1.3965, 1.38984, 1.3878, 1.38077, 1.37683, 1.37474, 1.37145, 1.36547, 1.36112, 1.3584, 1.36921, 1.48621, 1.59257, 1.40948, 1.37527, 1.34977, 1.32814, 1.32399, 1.32083
1.67056, 1.65828, 1.64868, 1.64624, 1.64385, 1.63078, 1.6292, 1.60136, 1.85454, 1.67879, 1.5816, 1.59329, 1.57712, 1.59222, 1.56647, 1.55672, 1.54697, 1.53448, 1.52903, 1.52305, 1.51903, 1.51749, 1.51295, 1.53033, 1.505, 1.51265, 1.46983, 1.55051, 1.56403, 1.54696, 1.43568, 1.45749, 1.46497, 1.48877, 1.47379, 1.44683, 1.42325, 1.41951, 1.41311, 1.40314, 1.39832, 1.39674, 1.39197, 1.38526, 1.38131, 1.37851, 1.37523, 1.37175, 1.36589, 1.36151, 1.37753, 1.35837, 1.49495, 1.61369, 1.63492, 1.34193, 1.33474, 1.33281, 1.32614, 1.32099
1.66969, 1.66177, 1.65325, 1.64415, 1.63798, 1.64426, 1.62806, 1.69581, 1.84538, 1.6423, 1.60009, 1.59564, 1.58584, 1.57225, 1.56473, 1.55458, 1.54483, 1.53573, 1.53003, 1.52396, 1.52269, 1.51799, 1.51384, 1.54104, 1.51993, 1.50836, 1.47895, 1.55115, 1.55273, 1.54817, 1.5064, 1.48289, 1.51034, 1.49877, 1.47951, 1.45137, 1.4273, 1.42647, 1.41557, 1.40521, 1.4006, 1.398, 1.39339, 1.38668, 1.38266, 1.37924, 1.37508, 1.37211, 1.37034, 1.36144, 1.37158, 1.34723, 1.47329, 1.60792, 1.62722, 1.36134, 1.35424, 1.35418, 1.32669, 1.32068
1.67041, 1.6634, 1.65185, 1.65944, 1.64887, 1.63988, 1.62923, 1.6344, 1.81271, 1.72498, 1.61118, 1.59861, 1.58198, 1.56936, 1.56123, 1.55528, 1.54779, 1.54019, 1.53003, 1.52157, 1.5203, 1.52444, 1.5116, 1.53474, 1.52922, 1.52411, 1.4889, 1.495, 1.56988, 1.54269, 1.4558, 1.4806, 1.49127, 1.50606, 1.47993, 1.44659, 1.44033, 1.42229, 1.41241, 1.40697, 1.40015, 1.39732, 1.3914, 1.38644, 1.37977, 1.37809, 1.37665, 1.36936, 1.36444, 1.35738, 1.37803, 1.3335, 1.48627, 1.63957, 1.53146, 1.37087, 1.35178, 1.33006, 1.32831, 1.32037
1.667, 1.66367, 1.65168, 1.64502, 1.63577, 1.6329, 1.62646, 1.66252, 1.85045, 1.73459, 1.56895, 1.59419, 1.5787, 1.5694, 1.55921, 1.55347, 1.54427, 1.52865, 1.52387, 1.51947, 1.51742, 1.51466, 1.51103, 1.5371, 1.52888, 1.49196, 1.48995, 1.49483, 1.56103, 1.54164, 1.51279, 1.4903, 1.50677, 1.47604, 1.47397, 1.44832, 1.42609, 1.42442, 1.41348, 1.40678, 1.40016, 1.3935, 1.38937, 1.38449, 1.38012, 1.37554, 1.37358, 1.36891, 1.36047, 1.35686, 1.35382, 1.36844, 1.4338, 1.58603, 1.45331, 1.33976, 1.33149, 1.32712, 1.32353, 1.31826
1.66688, 1.65989, 1.65449, 1.64389, 1.63296, 1.62723, 1.62416, 1.61139, 1.87942, 1.71122, 1.5915, 1.59448, 1.58194, 1.56921, 1.56336, 1.55285, 1.54041, 1.52876, 1.52416, 1.51944, 1.51583, 1.51207, 1.50807, 1.52251, 1.50148, 1.50245, 1.48624, 1.51886, 1.5547, 1.54664, 1.45999, 1.49584, 1.50288, 1.48978, 1.45136, 1.43286, 1.42485, 1.42217, 1.412, 1.40799, 1.39866, 1.39495, 1.38971, 1.3845, 1.38092, 1.37595, 1.37259, 1.36709, 1.3626, 1.35795, 1.35443, 1.37268, 1.42037, 1.52631, 1.61982, 1.35274, 1.32711, 1.32664, 1.3229, 1.31676
1.66661, 1.65832, 1.64948, 1.6471, 1.6338, 1.62649, 1.62418, 1.65395, 1.88222, 1.65381, 1.60184, 1.58971, 1.57821, 1.56947, 1.55693, 1.55395, 1.54148, 1.52774, 1.52325, 1.51947, 1.51566, 1.5119, 1.50922, 1.52419, 1.52656, 1.48677, 1.48, 1.5202, 1.55383, 1.51639, 1.51836, 1.4771, 1.48227, 1.46881, 1.44409, 1.43382, 1.42773, 1.42027, 1.41267, 1.40932, 1.397, 1.39543, 1.39103, 1.3876, 1.38194, 1.37926, 1.37393, 1.3677, 1.36345, 1.3571, 1.35528, 1.3554, 1.42617, 1.63976, 1.62526, 1.33686, 1.33646, 1.32463, 1.32274, 1.31604
1.66538, 1.65815, 1.65583, 1.64411, 1.63741, 1.62613, 1.62304, 1.63304, 1.7326, 1.87043, 1.60927, 1.59138, 1.59933, 1.5747, 1.55923, 1.55232, 1.54595, 1.53825, 1.52898, 1.52094, 1.51642, 1.51297, 1.51016, 1.50591, 1.54911, 1.50941, 1.49924, 1.54864, 1.5565, 1.53397, 1.51296, 1.48946, 1.47265, 1.44632, 1.44389, 1.43625, 1.42644, 1.42033, 1.41336, 1.41109, 1.40438, 1.39678, 1.392, 1.38894, 1.38509, 1.37918, 1.37572, 1.36914, 1.36179, 1.35821, 1.35447, 1.35823, 1.52669, 1.64476, 1.53965, 1.33609, 1.33151, 1.32775, 1.32608, 1.31968
1.66275, 1.65572, 1.65226, 1.64758, 1.63957, 1.64438, 1.63382, 1.59562, 1.88992, 1.95856, 1.60059, 1.61022, 1.59406, 1.58098, 1.56546, 1.55361, 1.54572, 1.53695, 1.53161, 1.5234, 1.5187, 1.51329, 1.52409, 1.50454, 1.54225, 1.49916, 1.47575, 1.54729, 1.54887, 1.54157, 1.52031, 1.47377, 1.45241, 1.46207, 1.44665, 1.43099, 1.42469, 1.42081, 1.41366, 1.40802, 1.40097, 1.39814, 1.39265, 1.38944, 1.38624, 1.38146, 1.37549, 1.36791, 1.36419, 1.35771, 1.35505, 1.36201, 1.44387, 1.60976, 1.62883, 1.33791, 1.33959, 1.32858, 1.32332, 1.31966
1.65875, 1.6532, 1.6517, 1.64722, 1.63874, 1.62562, 1.63115, 1.58281, 1.86599, 1.67988, 1.60414, 1.5997, 1.59936, 1.58241, 1.57275, 1.56833, 1.54559, 1.55066, 1.53434, 1.52319, 1.51738, 1.51506, 1.50716, 1.51597, 1.54903, 1.53545, 1.46743, 1.54076, 1.54662, 1.53208, 1.50668, 1.46521, 1.46514, 1.44899, 1.44267, 1.43364, 1.42529, 1.42, 1.41289, 1.40898, 1.40306, 1.39877, 1.39311, 1.39067, 1.38573, 1.38118, 1.37472, 1.37491, 1.37083, 1.35827, 1.36677, 1.36832, 1.48876, 1.61361, 1.56229, 1.33645, 1.35688, 1.32993, 1.32516, 1.32136
1.66398, 1.65043, 1.65222, 1.64903, 1.63854, 1.64069, 1.63057, 1.63009, 1.73237, 2.02688, 1.60717, 1.59172, 1.59348, 1.59636, 1.57013, 1.5622, 1.54639, 1.53959, 1.5299, 1.52504, 1.51948, 1.51375, 1.50574, 1.50721, 1.5711, 1.53454, 1.48448, 1.51346, 1.51667, 1.55147, 1.51761, 1.46501, 1.46853, 1.45712, 1.43818, 1.43112, 1.4256, 1.41808, 1.41312, 1.40698, 1.40254, 1.39836, 1.39197, 1.38965, 1.38593, 1.38206, 1.37714, 1.36831, 1.36503, 1.3635, 1.36991, 1.37028, 1.47942, 1.53717, 1.45004, 1.34614, 1.35248, 1.32945, 1.32487, 1.32148
1.65618, 1.65089, 1.65101, 1.64632, 1.63609, 1.62925, 1.62179, 1.62246, 1.76632, 2.00409, 1.6094, 1.59934, 1.59272, 1.58119, 1.5725, 1.56241, 1.55125, 1.54032, 1.52644, 1.52034, 1.51631, 1.5129, 1.50669, 1.51633, 1.51786, 1.52297, 1.48491, 1.53871, 1.53565, 1.5297, 1.52355, 1.46483, 1.45707, 1.44484, 1.43712, 1.43006, 1.42411, 1.41768, 1.42155, 1.41044, 1.41695, 1.39881, 1.39348, 1.38952, 1.38576, 1.3843, 1.38077, 1.37071, 1.39052, 1.36422, 1.37278, 1.38116, 1.45858, 1.60042, 1.44206, 1.34883, 1.34186, 1.32884, 1.32466, 1.34506
1.65947, 1.65169, 1.65133, 1.64761, 1.64124, 1.63016, 1.62609, 1.58413, 1.98569, 1.72922, 1.60616, 1.59662, 1.59422, 1.57558, 1.56509, 1.55911, 1.54428, 1.53535, 1.53038, 1.52259, 1.5173, 1.51432, 1.50615, 1.50845, 1.50187, 1.51711, 1.52057, 1.48783, 1.52375, 1.52978, 1.54443, 1.46959, 1.45338, 1.44106, 1.43617, 1.42698, 1.42321, 1.42322, 1.4133, 1.40836, 1.40616, 1.39723, 1.39227, 1.38886, 1.38259, 1.381, 1.37591, 1.36873, 1.36382, 1.35829, 1.35773, 1.35952, 1.42956, 1.60987, 1.62738, 1.34244, 1.33651, 1.32645, 1.32377, 1.32108
1.66201, 1.65342, 1.65376, 1.65077, 1.64018, 1.63086, 1.62563, 1.58609, 1.73228, 1.98074, 1.61315, 1.59955, 1.59832, 1.59686, 1.56707, 1.55858, 1.55531, 1.53858, 1.5331, 1.52374, 1.5169, 1.51265, 1.50695, 1.50511, 1.50034, 1.51696, 1.48501, 1.55938, 1.57834, 1.49483, 1.53191, 1.47161, 1.45339, 1.44451, 1.44767, 1.42919, 1.4223, 1.41915, 1.40994, 1.40974, 1.40487, 1.398, 1.39015, 1.38851, 1.38161, 1.38022, 1.37616, 1.36888, 1.36175, 1.35805, 1.35821, 1.37249, 1.49813, 1.60914, 1.66435, 1.33681, 1.33471, 1.3298, 1.32267, 1.32065
1.66087, 1.65659, 1.65311, 1.64769, 1.64025, 1.63254, 1.63008, 1.66152, 1.7278, 1.76908, 1.60717, 1.60324, 1.59568, 1.58634, 1.56193, 1.55675, 1.54529, 1.53858, 1.53344, 1.52466, 1.51471, 1.51226, 1.50675, 1.5061, 1.49752, 1.49353, 1.48641, 1.54668, 1.56447, 1.52576, 1.53195, 1.47877, 1.45823, 1.4454, 1.43988, 1.42927, 1.42336, 1.41769, 1.41212, 1.40858, 1.4042, 1.39852, 1.38854, 1.38575, 1.38257, 1.37961, 1.37478, 1.37039, 1.36503, 1.35835, 1.35734, 1.36143, 1.49945, 1.5999, 1.66405, 1.35535, 1.33982, 1.32966, 1.32383, 1.32259
1.66002, 1.65597, 1.66077, 1.65178, 1.63517, 1.62854, 1.62422, 1.59942, 1.84483, 1.99878, 1.58285, 1.60066, 1.60287, 1.58221, 1.56105, 1.55203, 1.54362, 1.535, 1.53243, 1.5231, 1.5153, 1.51152, 1.50747, 1.49718, 1.4953, 1.50197, 1.48433, 1.49423, 1.53, 1.52226, 1.48166, 1.46866, 1.45759, 1.44782, 1.43861, 1.43001, 1.42593, 1.41766, 1.41356, 1.40946, 1.40611, 1.39882, 1.39231, 1.38729, 1.38143, 1.37975, 1.37452, 1.3687, 1.36443, 1.35936, 1.35546, 1.3589, 1.48155, 1.54488, 1.65892, 1.34467, 1.33332, 1.32951, 1.3242, 1.32386
1.66157, 1.6547, 1.65506, 1.64509, 1.63486, 1.62978, 1.62387, 1.66903, 1.92165, 1.82768, 1.58491, 1.59625, 1.61003, 1.58949, 1.55974, 1.55114, 1.54525, 1.53862, 1.53053, 1.52644, 1.51355, 1.51051, 1.50303, 1.49824, 1.49324, 1.49291, 1.50592, 1.52591, 1.52932, 1.52392, 1.52139, 1.48141, 1.45542, 1.44765, 1.438, 1.42993, 1.42503, 1.41805, 1.41359, 1.40955, 1.40585, 1.4015, 1.39381, 1.38809, 1.38209, 1.37829, 1.37626, 1.37054, 1.36395, 1.35973, 1.35668, 1.36414, 1.37699, 1.63631, 1.64911, 1.3444, 1.33038, 1.32712, 1.33291, 1.32389
1.66495, 1.65438, 1.65071, 1.64531, 1.63504, 1.62538, 1.62273, 1.62377, 1.81548, 1.61465, 1.59999, 1.58516, 1.59555, 1.58759, 1.56804, 1.54958, 1.54383, 1.53882, 1.53328, 1.52181, 1.51425, 1.5101, 1.50478, 1.4986, 1.49215, 1.49361, 1.4943, 1.53655, 1.55223, 1.50593, 1.52039, 1.46569, 1.45199, 1.44772, 1.43688, 1.43075, 1.42581, 1.41757, 1.41449, 1.40864, 1.40396, 1.39865, 1.3935, 1.38611, 1.38188, 1.3794, 1.37451, 1.36835, 1.36464, 1.36029, 1.35691, 1.35892, 1.49044, 1.61306, 1.66216, 1.34336, 1.33682, 1.32697, 1.32445, 1.32388
1.66184, 1.65278, 1.65177, 1.64173, 1.63631, 1.6265, 1.6209, 1.62979, 1.76252, 2.04884, 1.56746, 1.56898, 1.57463, 1.58828, 1.57915, 1.54847, 1.5417, 1.53776, 1.52879, 1.52257, 1.51421, 1.50871, 1.50586, 1.49704, 1.49123, 1.48966, 1.4893, 1.53158, 1.53877, 1.50649, 1.48405, 1.46401, 1.45175, 1.4464, 1.43682, 1.42861, 1.4233, 1.42003, 1.41565, 1.41138, 1.40515, 1.39777, 1.39324, 1.38865, 1.38249, 1.37762, 1.37287, 1.3682, 1.36452, 1.36403, 1.35706, 1.37742, 1.46564, 1.51942, 1.51903, 1.34411, 1.34469, 1.32876, 1.32297, 1.32107
1.66052, 1.65166, 1.64593, 1.63785, 1.63373, 1.62637, 1.62058, 1.6474, 1.8425, 1.95862, 1.54838, 1.5849, 1.59738, 1.58979, 1.55215, 1.54807, 1.54372, 1.53721, 1.5325, 1.5196, 1.51565, 1.50876, 1.50307, 1.49586, 1.49097, 1.48852, 1.49099, 1.53928, 1.54398, 1.51709, 1.48521, 1.46497, 1.45234, 1.44548, 1.43408, 1.42508, 1.42258, 1.41933, 1.41413, 1.40657, 1.40218, 1.39692, 1.39195, 1.38497, 1.37948, 1.375, 1.37197, 1.3652, 1.35809, 1.35728, 1.35342, 1.36665, 1.42052, 1.52866, 1.4894, 1.33472, 1.33893, 1.33247, 1.32395, 1.31843
1.65516, 1.65212, 1.64587, 1.63717, 1.63417, 1.62979, 1.62037, 1.61764, 1.79612, 1.99347, 1.55793, 1.61969, 1.59715, 1.6061, 1.55604, 1.54923, 1.54211, 1.53885, 1.52993, 1.52252, 1.51317, 1.5128, 1.50382, 1.4985, 1.48933, 1.49544, 1.49271, 1.54064, 1.54433, 1.51406, 1.51269, 1.47539, 1.46391, 1.44278, 1.44179, 1.42535, 1.4225, 1.41934, 1.41373, 1.40714, 1.40896, 1.39684, 1.39186, 1.38542, 1.3789, 1.37419, 1.36956, 1.36388, 1.36184, 1.35753, 1.35402, 1.36766, 1.41028, 1.56956, 1.64275, 1.3439, 1.33482, 1.33011, 1.32203, 1.31576
1.65776, 1.64781, 1.64804, 1.63795, 1.63112, 1.62687, 1.62023, 1.62929, 1.79768, 1.81209, 1.53112, 1.70986, 1.64224, 1.60233, 1.58145, 1.55027, 1.542, 1.5372, 1.52997, 1.52226, 1.51709, 1.50783, 1.50408, 1.49293, 1.48806, 1.48805, 1.4894, 1.53481, 1.5441, 1.48863, 1.50937, 1.46683, 1.45776, 1.43949, 1.42895, 1.42456, 1.42342, 1.42263, 1.41345, 1.40445, 1.40164, 1.39545, 1.3943, 1.38616, 1.38429, 1.37385, 1.36767, 1.36371, 1.36272, 1.35537, 1.35253, 1.36473, 1.45111, 1.59017, 1.67008, 1.36046, 1.33646, 1.33305, 1.32183, 1.31595
1.65577, 1.65051, 1.64337, 1.63776, 1.63389, 1.62208, 1.61984, 1.63482, 1.7056, 1.94521, 1.55155, 1.78268, 1.62029, 1.59529, 1.58003, 1.56468, 1.54192, 1.53709, 1.53019, 1.52595, 1.51463, 1.50872, 1.50236, 1.49692, 1.48835, 1.4864, 1.49988, 1.54368, 1.53396, 1.52546, 1.50668, 1.47197, 1.44954, 1.4373, 1.42981, 1.42373, 1.42085, 1.42088, 1.41689, 1.40558, 1.39768, 1.39485, 1.38826, 1.38469, 1.38114, 1.37366, 1.36768, 1.36459, 1.36455, 1.36018, 1.35535, 1.35708, 1.33016, 1.53459, 1.66396, 1.36233, 1.33279, 1.33054, 1.32354, 1.31927
1.65791, 1.6486, 1.64496, 1.63681, 1.62762, 1.62079, 1.62543, 1.62101, 1.7963, 2.03158, 1.55764, 1.80519, 1.61385, 1.60604, 1.57499, 1.55844, 1.54347, 1.5349, 1.53106, 1.5245, 1.5168, 1.50693, 1.50245, 1.49608, 1.48922, 1.49475, 1.49266, 1.53634, 1.52354, 1.51323, 1.51655, 1.46032, 1.4468, 1.43357, 1.42912, 1.42344, 1.42064, 1.41994, 1.41428, 1.40428, 1.39961, 1.39329, 1.38764, 1.38395, 1.37867, 1.37475, 1.36672, 1.37835, 1.36186, 1.35711, 1.35866, 1.35712, 1.46049, 1.65884, 1.59852, 1.3474, 1.34063, 1.3409, 1.31962, 1.31668
1.65855, 1.64909, 1.64513, 1.63746, 1.62911, 1.61983, 1.62, 1.61843, 1.69615, 1.81756, 1.56952, 1.78244, 1.63155, 1.60622, 1.58215, 1.55421, 1.54401, 1.53426, 1.52817, 1.52202, 1.51688, 1.50685, 1.502, 1.49634, 1.49099, 1.486, 1.49339, 1.56306, 1.53699, 1.48701, 1.5018, 1.47813, 1.45672, 1.43486, 1.42781, 1.4245, 1.42227, 1.42117, 1.41575, 1.4033, 1.39907, 1.3948, 1.38895, 1.38256, 1.37859, 1.37661, 1.3691, 1.37003, 1.36406, 1.35803, 1.35771, 1.35658, 1.42857, 1.55065, 1.58901, 1.33757, 1.35085, 1.32252, 1.31926, 1.31868
1.65502, 1.64959, 1.64489, 1.63638, 1.62997, 1.61965, 1.61802, 1.61375, 1.73754, 1.98154, 1.5673, 1.6781, 1.61703, 1.58872, 1.5829, 1.55848, 1.54141, 1.53256, 1.52787, 1.52617, 1.52356, 1.50977, 1.50238, 1.49413, 1.48995, 1.4857, 1.49198, 1.55581, 1.52644, 1.47561, 1.51734, 1.4581, 1.45197, 1.43362, 1.42698, 1.41883, 1.42194, 1.41871, 1.4127, 1.40581, 1.39681, 1.39927, 1.38678, 1.38416, 1.37767, 1.37224, 1.36989, 1.36804, 1.36326, 1.35859, 1.35566, 1.35818, 1.38229, 1.56101, 1.73722, 1.33381, 1.34061, 1.35849, 1.32122, 1.31712
1.65511, 1.6489, 1.64339, 1.6342, 1.62686, 1.61749, 1.6171, 1.61343, 1.76846, 2.01391, 1.56825, 1.59966, 1.59252, 1.58206, 1.57531, 1.56392, 1.54759, 1.54724, 1.52638, 1.52074, 1.51143, 1.50569, 1.49959, 1.49292, 1.48632, 1.48436, 1.49225, 1.53399, 1.54472, 1.49265, 1.49727, 1.46473, 1.45862, 1.43475, 1.42933, 1.42361, 1.42231, 1.41277, 1.40502, 1.40066, 1.39556, 1.3926, 1.38806, 1.38445, 1.37928, 1.37648, 1.37079, 1.36502, 1.36131, 1.3578, 1.35334, 1.3523, 1.38523, 1.6302, 1.65646, 1.33187, 1.33729, 1.32443, 1.3196, 1.3176
1.69862, 1.64464, 1.64013, 1.65527, 1.62638, 1.61553, 1.6127, 1.60739, 1.84543, 1.79908, 1.58831, 1.55932, 1.59151, 1.5884, 1.55924, 1.54405, 1.53652, 1.53074, 1.52016, 1.51875, 1.51169, 1.50539, 1.49672, 1.49694, 1.48251, 1.491, 1.50279, 1.5319, 1.52614, 1.52493, 1.50407, 1.45233, 1.44078, 1.4302, 1.43005, 1.42638, 1.41881, 1.41416, 1.40268, 1.39449, 1.3942, 1.39092, 1.38799, 1.38481, 1.38049, 1.37398, 1.36918, 1.36519, 1.35961, 1.35692, 1.3504, 1.36264, 1.34414, 1.51241, 1.63451, 1.33745, 1.3364, 1.3197, 1.32007, 1.31048
1.65198, 1.64055, 1.63567, 1.63124, 1.6234, 1.61527, 1.61114, 1.61259, 1.71039, 1.99684, 1.58901, 1.59333, 1.59425, 1.58497, 1.56036, 1.54378, 1.53606, 1.52717, 1.51958, 1.51923, 1.51117, 1.50529, 1.48959, 1.48573, 1.48158, 1.48011, 1.50382, 1.52748, 1.53369, 1.51991, 1.49474, 1.46103, 1.44915, 1.43257, 1.4233, 1.42115, 1.41752, 1.41083, 1.40348, 1.39847, 1.39042, 1.38753, 1.38939, 1.38049, 1.37795, 1.36562, 1.36478, 1.36495, 1.36052, 1.35595, 1.35047, 1.37363, 1.41662, 1.63053, 1.6754, 1.35872, 1.33057, 1.31987, 1.31328, 1.30989
1.64892, 1.64365, 1.63574, 1.62828, 1.62332, 1.6151, 1.61641, 1.60895, 1.6674, 1.93928, 1.57371, 1.60961, 1.60014, 1.58507, 1.56439, 1.5435, 1.53322, 1.52679, 1.52037, 1.51886, 1.50912, 1.50394, 1.49336, 1.48585, 1.48287, 1.47797, 1.48132, 1.52824, 1.52327, 1.49555, 1.50874, 1.46729, 1.4478, 1.43678, 1.42476, 1.42357, 1.41535, 1.41338, 1.40301, 1.39902, 1.39126, 1.38927, 1.3892, 1.38723, 1.37542, 1.36761, 1.36568, 1.36502, 1.36165, 1.35508, 1.34821, 1.35325, 1.43767, 1.55283, 1.68522, 1.33772, 1.32384, 1.32014, 1.3161, 1.3126
1.64568, 1.63839, 1.63629, 1.62788, 1.62445, 1.61221, 1.60787, 1.61031, 1.76908, 2.02414, 1.54801, 1.57924, 1.58966, 1.57595, 1.5559, 1.54346, 1.53318, 1.5265, 1.51909, 1.51923, 1.51285, 1.49892, 1.49126, 1.48491, 1.48043, 1.47576, 1.48204, 1.53085, 1.53848, 1.48123, 1.51031, 1.46908, 1.44338, 1.43191, 1.42995, 1.42245, 1.41544, 1.40641, 1.39989, 1.39556, 1.38974, 1.38861, 1.38813, 1.38639, 1.37771, 1.36777, 1.36261, 1.36372, 1.35674, 1.35512, 1.34749, 1.35657, 1.34737, 1.48211, 1.71939, 1.32469, 1.32311, 1.31907, 1.31398, 1.30914
1.64405, 1.63732, 1.63367, 1.62852, 1.62364, 1.61414, 1.60893, 1.61206, 1.84577, 1.66625, 1.5524, 1.57766, 1.58431, 1.56214, 1.55089, 1.53813, 1.53488, 1.52468, 1.52017, 1.51517, 1.50944, 1.49681, 1.49095, 1.48437, 1.47883, 1.47653, 1.47968, 1.52943, 1.52862, 1.48018, 1.50639, 1.47344, 1.44471, 1.43819, 1.42754, 1.42041, 1.41408, 1.41032, 1.40418, 1.39566, 1.38821, 1.38809, 1.38762, 1.38533, 1.38086, 1.36723, 1.36127, 1.36121, 1.35641, 1.35436, 1.34803, 1.35385, 1.41386, 1.49187, 1.69795, 1.32894, 1.32606, 1.31717, 1.31741, 1.31008
1.6449, 1.63902, 1.63371, 1.63132, 1.62245, 1.63498, 1.60952, 1.60129, 1.72352, 1.71586, 1.55197, 1.57593, 1.58269, 1.56817, 1.55774, 1.54065, 1.53362, 1.52473, 1.51918, 1.51533, 1.50834, 1.50044, 1.48572, 1.48422, 1.48039, 1.47657, 1.48228, 1.53876, 1.52807, 1.48768, 1.49768, 1.4607, 1.44316, 1.43821, 1.42783, 1.42001, 1.41424, 1.40675, 1.40095, 1.39289, 1.39143, 1.38656, 1.38551, 1.38221, 1.37766, 1.36253, 1.36147, 1.3596, 1.35483, 1.37095, 1.34538, 1.34617, 1.41027, 1.52703, 1.49947, 1.32959, 1.3263, 1.31676, 1.31579, 1.30988
1.64357, 1.63832, 1.63399, 1.62833, 1.62182, 1.61538, 1.61041, 1.61393, 1.6748, 1.87177, 1.5785, 1.58167, 1.58202, 1.559, 1.55186, 1.54223, 1.53217, 1.52966, 1.51848, 1.51145, 1.50917, 1.49755, 1.4878, 1.48546, 1.47852, 1.47658, 1.47878, 1.53046, 1.5213, 1.50985, 1.49406, 1.45533, 1.45062, 1.44474, 1.42537, 1.41792, 1.41404, 1.40589, 1.39985, 1.39193, 1.38996, 1.3882, 1.38772, 1.38471, 1.37176, 1.36449, 1.35968, 1.35747, 1.35466, 1.35191, 1.34601, 1.34797, 1.35447, 1.54401, 1.50481, 1.28726, 1.32743, 1.3162, 1.32187, 1.31131
1.64064, 1.63752, 1.63414, 1.62955, 1.62282, 1.61813, 1.60824, 1.61761, 1.72419, 1.75928, 1.55213, 1.57405, 1.56811, 1.57075, 1.55401, 1.54415, 1.53462, 1.52685, 1.51748, 1.51382, 1.50572, 1.5023, 1.49151, 1.48447, 1.47958, 1.47597, 1.49316, 1.50276, 1.53474, 1.48273, 1.49486, 1.45707, 1.44085, 1.43948, 1.42414, 1.42152, 1.41578, 1.40765, 1.4014, 1.39192, 1.39143, 1.38634, 1.38515, 1.38128, 1.37402, 1.36496, 1.36211, 1.35822, 1.35399, 1.35069, 1.34444, 1.34487, 1.39219, 1.61227, 1.68327, 1.31341, 1.32882, 1.31847, 1.31787, 1.31154
1.64416, 1.63999, 1.63513, 1.63042, 1.62257, 1.61698, 1.61017, 1.61122, 1.80384, 1.77805, 1.56663, 1.57997, 1.57829, 1.56776, 1.55442, 1.54687, 1.53715, 1.52541, 1.51769, 1.51093, 1.50629, 1.50149, 1.48933, 1.48731, 1.47962, 1.47742, 1.4772, 1.51493, 1.52343, 1.49859, 1.49932, 1.46893, 1.44501, 1.43915, 1.42504, 1.42217, 1.41681, 1.40974, 1.40323, 1.39713, 1.3895, 1.38761, 1.38691, 1.38223, 1.37132, 1.36403, 1.36035, 1.35902, 1.35678, 1.34838, 1.3435, 1.35531, 1.32199, 1.47085, 1.66514, 1.2841, 1.33268, 1.31989, 1.32012, 1.31209
1.64164, 1.63767, 1.63187, 1.62887, 1.62308, 1.61508, 1.60977, 1.61472, 1.82125, 1.76549, 1.55814, 1.56987, 1.58318, 1.56372, 1.5507, 1.5418, 1.53634, 1.52281, 1.5165, 1.51269, 1.50712, 1.4971, 1.48998, 1.4834, 1.47864, 1.475, 1.4784, 1.51787, 1.5276, 1.51267, 1.51352, 1.45341, 1.44374, 1.43365, 1.42298, 1.41505, 1.41372, 1.40581, 1.40178, 1.39652, 1.38895, 1.38791, 1.38486, 1.37935, 1.36671, 1.3615, 1.36001, 1.35832, 1.36016, 1.34995, 1.34686, 1.34353, 1.30702, 1.5993, 1.57511, 1.30719, 1.31998, 1.31808, 1.33366, 1.31145
1.63971, 1.63761, 1.63121, 1.62773, 1.62055, 1.61707, 1.60679, 1.60834, 1.67865, 1.79937, 1.55828, 1.57217, 1.56757, 1.56854, 1.55115, 1.54118, 1.53443, 1.52348, 1.51616, 1.5122, 1.50523, 1.50013, 1.49038, 1.49569, 1.47615, 1.4744, 1.47627, 1.54487, 1.54124, 1.47753, 1.51409, 1.46575, 1.44318, 1.43724, 1.42313, 1.41867, 1.41401, 1.40715, 1.39946, 1.39599, 1.39592, 1.38591, 1.38242, 1.37721, 1.36867, 1.36089, 1.35768, 1.35649, 1.35127, 1.34737, 1.34113, 1.34102, 1.42984, 1.56758, 1.68412, 1.30998, 1.31929, 1.31912, 1.3192, 1.31098
1.64211, 1.63486, 1.63231, 1.62787, 1.62141, 1.6122, 1.60733, 1.62371, 1.74391, 1.67504, 1.56528, 1.59276, 1.56737, 1.56449, 1.57135, 1.54226, 1.53518, 1.5282, 1.51585, 1.50966, 1.50445, 1.49857, 1.49564, 1.48245, 1.47827, 1.47461, 1.4891, 1.50254, 1.51537, 1.49614, 1.49567, 1.45687, 1.44296, 1.42642, 1.42233, 1.41821, 1.41254, 1.41973, 1.4018, 1.39522, 1.38831, 1.38639, 1.38363, 1.37339, 1.36527, 1.36062, 1.35857, 1.35535, 1.35199, 1.34749, 1.35499, 1.34758, 1.31238, 1.55649, 1.74066, 1.33499, 1.32897, 1.3162, 1.32324, 1.31234
1.63725, 1.63467, 1.6332, 1.62844, 1.62067, 1.61569, 1.60646, 1.60693, 1.68303, 1.75134, 1.5659, 1.58487, 1.57284, 1.57863, 1.55828, 1.54429, 1.53567, 1.52921, 1.51784, 1.51161, 1.50612, 1.49946, 1.48853, 1.48512, 1.48109, 1.47852, 1.48008, 1.49903, 1.51691, 1.48758, 1.51149, 1.46218, 1.43624, 1.42862, 1.42301, 1.42008, 1.41444, 1.40619, 1.4038, 1.3959, 1.39242, 1.38557, 1.3817, 1.37258, 1.36676, 1.36128, 1.35998, 1.35807, 1.35289, 1.34588, 1.34356, 1.34276, 1.32037, 1.60936, 1.51969, 1.32923, 1.32313, 1.31792, 1.31618, 1.31153
1.64343, 1.63709, 1.63348, 1.6301, 1.62285, 1.61523, 1.60955, 1.60958, 1.70189, 1.7454, 1.58642, 1.57906, 1.56951, 1.55884, 1.57228, 1.54432, 1.5342, 1.52803, 1.52024, 1.51735, 1.50658, 1.50003, 1.49034, 1.48648, 1.48287, 1.47974, 1.48308, 1.50669, 1.51922, 1.4766, 1.49662, 1.45196, 1.44419, 1.42997, 1.44051, 1.41712, 1.41295, 1.40865, 1.4012, 1.39848, 1.39129, 1.38604, 1.38044, 1.37276, 1.36536, 1.36038, 1.35998, 1.35946, 1.35164, 1.34759, 1.34322, 1.34321, 1.31732, 1.58272, 1.69552, 1.33325, 1.32074, 1.32289, 1.32965, 1.31266
1.64169, 1.63656, 1.63443, 1.63165, 1.62008, 1.62452, 1.61515, 1.61459, 1.75547, 1.73667, 1.5823, 1.58275, 1.58306, 1.57664, 1.54608, 1.54191, 1.5342, 1.52847, 1.52051, 1.5133, 1.50859, 1.50036, 1.49192, 1.48675, 1.48168, 1.489, 1.48243, 1.51849, 1.51335, 1.4741, 1.50338, 1.45365, 1.4377, 1.42866, 1.42337, 1.42206, 1.4159, 1.40688, 1.40037, 1.39843, 1.39213, 1.38261, 1.37722, 1.37222, 1.37067, 1.35836, 1.3579, 1.37224, 1.35102, 1.34671, 1.3445, 1.3477, 1.32944, 1.51982, 1.71052, 1.31707, 1.32481, 1.31597, 1.31666, 1.32054
1.64035, 1.6332, 1.63076, 1.6408, 1.62522, 1.61884, 1.61571, 1.61559, 1.64891, 1.77554, 1.58412, 1.59383, 1.57863, 1.57523, 1.5614, 1.53955, 1.53313, 1.52882, 1.52078, 1.51371, 1.50591, 1.49838, 1.49457, 1.48561, 1.47986, 1.47889, 1.48321, 1.51315, 1.50362, 1.47638, 1.48777, 1.45406, 1.44455, 1.42575, 1.42162, 1.41949, 1.41615, 1.40622, 1.39874, 1.39646, 1.39018, 1.38287, 1.37619, 1.36581, 1.36173, 1.35565, 1.35738, 1.35956, 1.35093, 1.35505, 1.34374, 1.34222, 1.38239, 1.59249, 1.65766, 1.27815, 1.32953, 1.31831, 1.31428, 1.308
1.64676, 1.63452, 1.6302, 1.62512, 1.6174, 1.61611, 1.60465, 1.60634, 1.70255, 1.74056, 1.58819, 1.58908, 1.5865, 1.57329, 1.54523, 1.53586, 1.53079, 1.52856, 1.52032, 1.51368, 1.51685, 1.49654, 1.49461, 1.48511, 1.4882, 1.47965, 1.49385, 1.53381, 1.50057, 1.47029, 1.47898, 1.44609, 1.434, 1.42408, 1.4352, 1.4173, 1.41201, 1.40435, 1.39917, 1.39395, 1.39163, 1.38295, 1.37655, 1.36768, 1.35917, 1.35919, 1.35565, 1.3584, 1.35172, 1.36421, 1.35016, 1.34031, 1.31061, 1.66921, 1.87872, 1.31151, 1.32437, 1.31286, 1.32048, 1.30932
1.64426, 1.63396, 1.62757, 1.62155, 1.61622, 1.60559, 1.61293, 1.60234, 1.67757, 1.94009, 1.54387, 1.57029, 1.56204, 1.55406, 1.54003, 1.53271, 1.52982, 1.52612, 1.51983, 1.50949, 1.50418, 1.49939, 1.48812, 1.48157, 1.48132, 1.47603, 1.47654, 1.48512, 1.49854, 1.47656, 1.49597, 1.44108, 1.43666, 1.42254, 1.41808, 1.41456, 1.40918, 1.40232, 1.39702, 1.39603, 1.38522, 1.37853, 1.37178, 1.36891, 1.36101, 1.35475, 1.35352, 1.35249, 1.34949, 1.34589, 1.33908, 1.33716, 1.32348, 1.59334, 1.6789, 1.30622, 1.31565, 1.31082, 1.30825, 1.30109
1.63784, 1.63041, 1.625, 1.62119, 1.61504, 1.60347, 1.59751, 1.59642, 1.7821, 1.87334, 1.57607, 1.57541, 1.56388, 1.55358, 1.54179, 1.53128, 1.52926, 1.52462, 1.51372, 1.50636, 1.50214, 1.49226, 1.48547, 1.47944, 1.47726, 1.47215, 1.47544, 1.51319, 1.49361, 1.47674, 1.49196, 1.45738, 1.43224, 1.42084, 1.41453, 1.4235, 1.40874, 1.40043, 1.39465, 1.38894, 1.3835, 1.37622, 1.3718, 1.3593, 1.35644, 1.35308, 1.35217, 1.35183, 1.34547, 1.34241, 1.33684, 1.33929, 1.34301, 1.49109, 1.47818, 1.29865, 1.30906, 1.3088, 1.33361, 1.30105
1.6357, 1.6284, 1.624, 1.61944, 1.60983, 1.60559, 1.59276, 1.597, 1.77908, 1.86841, 1.5757, 1.57199, 1.562, 1.55479, 1.53653, 1.52743, 1.52578, 1.52215, 1.51251, 1.50322, 1.49915, 1.48984, 1.48447, 1.47643, 1.47185, 1.468, 1.47257, 1.48197, 1.50664, 1.47591, 1.48939, 1.44547, 1.43408, 1.41893, 1.41231, 1.4117, 1.40678, 1.39857, 1.39065, 1.38673, 1.38119, 1.37627, 1.37067, 1.36411, 1.35599, 1.35038, 1.35024, 1.35133, 1.34573, 1.34, 1.33459, 1.3344, 1.34067, 1.44754, 1.73113, 1.306, 1.30963, 1.30728, 1.30271, 1.29574
1.6345, 1.63121, 1.62318, 1.6168, 1.60739, 1.60121, 1.59628, 1.5911, 1.65394, 1.8629, 1.58375, 1.57379, 1.55448, 1.55844, 1.5341, 1.5238, 1.52332, 1.52029, 1.51354, 1.50631, 1.49559, 1.49106, 1.48249, 1.47676, 1.4708, 1.46819, 1.47236, 1.48245, 1.50259, 1.46932, 1.51628, 1.46204, 1.43046, 1.41732, 1.41741, 1.41077, 1.40594, 1.39726, 1.38875, 1.3862, 1.3783, 1.37468, 1.3667, 1.35823, 1.35534, 1.34848, 1.35215, 1.3497, 1.34467, 1.33772, 1.3338, 1.33483, 1.32023, 1.46422, 1.68319, 1.28445, 1.32066, 1.3066, 1.29974, 1.29638
1.63643, 1.6308, 1.62326, 1.61548, 1.60645, 1.60154, 1.58746, 1.59565, 1.72968, 2.01121, 1.56278, 1.56206, 1.55536, 1.55652, 1.5345, 1.52336, 1.51957, 1.51763, 1.51084, 1.50497, 1.49573, 1.49125, 1.48063, 1.47418, 1.4675, 1.46639, 1.48884, 1.49851, 1.49823, 1.48461, 1.49202, 1.45613, 1.43626, 1.4179, 1.40959, 1.40893, 1.40267, 1.39477, 1.3848, 1.3803, 1.37612, 1.37451, 1.36545, 1.36065, 1.35579, 1.34638, 1.34709, 1.34708, 1.34282, 1.33754, 1.32951, 1.328, 1.29133, 1.48189, 1.67431, 1.27696, 1.3049, 1.31075, 1.30198, 1.29267
1.63676, 1.62999, 1.6223, 1.61593, 1.60721, 1.60354, 1.59016, 1.58628, 1.62719, 1.74082, 1.57064, 1.5583, 1.55159, 1.54497, 1.53418, 1.52426, 1.51841, 1.51337, 1.51557, 1.50223, 1.49629, 1.4872, 1.47749, 1.47476, 1.47071, 1.46381, 1.46825, 1.48935, 1.49907, 1.47046, 1.48619, 1.45801, 1.4276, 1.41358, 1.41237, 1.40668, 1.40508, 1.39303, 1.38504, 1.38107, 1.37819, 1.37557, 1.36569, 1.36101, 1.35304, 1.35014, 1.3476, 1.35031, 1.34624, 1.33865, 1.33093, 1.32804, 1.34864, 1.58202, 1.68025, 1.28042, 1.31305, 1.30566, 1.30046, 1.29395
1.63636, 1.63092, 1.62311, 1.61461, 1.60803, 1.59933, 1.59034, 1.59773, 1.64112, 1.8721, 1.56828, 1.57527, 1.55204, 1.53955, 1.53486, 1.52265, 1.51782, 1.51628, 1.512, 1.50435, 1.49406, 1.48927, 1.48013, 1.47721, 1.46715, 1.46382, 1.47803, 1.4817, 1.49182, 1.47535, 1.48947, 1.44799, 1.41914, 1.41378, 1.41071, 1.43378, 1.40293, 1.39839, 1.38898, 1.38948, 1.38025, 1.37517, 1.37126, 1.35872, 1.35221, 1.34906, 1.3476, 1.35023, 1.34795, 1.33763, 1.34488, 1.3305, 1.34381, 1.56961, 1.7032, 1.31575, 1.32916, 1.30768, 1.30134, 1.29629
1.63835, 1.63143, 1.62075, 1.61391, 1.63046, 1.60243, 1.59336, 1.59988, 1.71133, 2.01474, 1.5751, 1.58155, 1.55223, 1.54417, 1.53364, 1.52354, 1.5195, 1.51726, 1.51329, 1.50472, 1.49563, 1.48674, 1.48089, 1.4743, 1.46777, 1.46436, 1.46501, 1.47635, 1.49318, 1.47528, 1.48381, 1.46358, 1.43413, 1.41243, 1.41009, 1.44041, 1.4015, 1.39871, 1.38891, 1.38332, 1.37904, 1.37396, 1.3691, 1.36338, 1.35056, 1.34863, 1.34953, 1.34739, 1.34676, 1.34387, 1.33337, 1.3338, 1.32237, 1.56365, 1.66334, 1.31676, 1.31633, 1.31226, 1.30081, 1.29739
1.63199, 1.62933, 1.61994, 1.61682, 1.60698, 1.60339, 1.59794, 1.60458, 1.77853, 1.86987, 1.56898, 1.56694, 1.55015, 1.54567, 1.53135, 1.52469, 1.51918, 1.51396, 1.50879, 1.50961, 1.48964, 1.48543, 1.47816, 1.47378, 1.46802, 1.46259, 1.46733, 1.48145, 1.48894, 1.479, 1.47275, 1.44529, 1.44059, 1.4225, 1.40898, 1.40401, 1.39657, 1.39176, 1.38966, 1.38199, 1.37622, 1.37123, 1.36891, 1.3617, 1.35615, 1.34876, 1.34813, 1.34535, 1.34354, 1.33855, 1.34248, 1.34475, 1.3307, 1.48967, 1.71161, 1.31898, 1.32406, 1.30846, 1.31669, 1.29742
1.63674, 1.63027, 1.62135, 1.61281, 1.60826, 1.60688, 1.59577, 1.59613, 1.67266, 1.82774, 1.57432, 1.56601, 1.55124, 1.54036, 1.53235, 1.52793, 1.51894, 1.5115, 1.50573, 1.5299, 1.49559, 1.48452, 1.47856, 1.47267, 1.46653, 1.46096, 1.48271, 1.47562, 1.48911, 1.50307, 1.46959, 1.45986, 1.43414, 1.41199, 1.40934, 1.40556, 1.39869, 1.39582, 1.38622, 1.37961, 1.3748, 1.37107, 1.36742, 1.36232, 1.356, 1.35153, 1.34864, 1.34636, 1.34129, 1.34008, 1.34376, 1.3378, 1.323, 1.48489, 1.72983, 1.31668, 1.32264, 1.30481, 1.30983, 1.31577
1.63381, 1.62208, 1.62015, 1.61579, 1.60555, 1.59737, 1.60913, 1.59922, 1.64203, 2.03862, 1.56931, 1.55844, 1.55232, 1.54406, 1.54281, 1.52759, 1.5176, 1.51003, 1.50549, 1.49947, 1.49033, 1.48359, 1.47829, 1.47283, 1.46474, 1.46156, 1.46461, 1.47349, 1.49643, 1.46641, 1.47025, 1.45101, 1.43694, 1.41708, 1.40952, 1.40591, 1.40293, 1.39156, 1.38969, 1.38076, 1.37403, 1.36751, 1.36515, 1.36342, 1.35744, 1.35292, 1.34902, 1.34362, 1.34093, 1.33821, 1.34112, 1.34508, 1.35868, 1.57231, 1.58539, 1.30299, 1.32542, 1.31129, 1.32035, 1.29866
1.63357, 1.63824, 1.61973, 1.61213, 1.60401, 1.60271, 1.60623, 1.59753, 1.58847, 1.86648, 1.53963, 1.56223, 1.55095, 1.54301, 1.53648, 1.52708, 1.51902, 1.50985, 1.50847, 1.50223, 1.4931, 1.48656, 1.47862, 1.47219, 1.46507, 1.46177, 1.47372, 1.47795, 1.50272, 1.4706, 1.48315, 1.46825, 1.44291, 1.41659, 1.41196, 1.40892, 1.40157, 1.39817, 1.38556, 1.37906, 1.37245, 1.36744, 1.3659, 1.36427, 1.3573, 1.35153, 1.34864, 1.3453, 1.34181, 1.33762, 1.33436, 1.33429, 1.33487, 1.50947, 1.80195, 1.43141, 1.33017, 1.32037, 1.30358, 1.29986
1.63825, 1.62792, 1.62122, 1.61341, 1.60556, 1.59857, 1.60259, 1.59107, 1.76112, 1.8162, 1.56306, 1.56876, 1.54912, 1.55008, 1.53911, 1.52557, 1.51731, 1.51065, 1.50792, 1.50233, 1.49671, 1.48477, 1.47932, 1.47199, 1.46662, 1.46123, 1.46752, 1.47193, 1.48215, 1.48906, 1.47095, 1.4443, 1.43181, 1.41464, 1.40895, 1.40402, 1.39873, 1.39304, 1.38818, 1.37872, 1.37292, 1.36895, 1.36568, 1.36256, 1.35909, 1.35437, 1.35343, 1.34761, 1.34147, 1.33804, 1.33583, 1.34081, 1.34649, 1.43111, 1.77975, 1.29686, 1.31904, 1.30455, 1.30414, 1.30233
1.63386, 1.62687, 1.62138, 1.61011, 1.60298, 1.59845, 1.59698, 1.59815, 1.61294, 2.03131, 1.55835, 1.57495, 1.55256, 1.55491, 1.54058, 1.52528, 1.52257, 1.51464, 1.50971, 1.50264, 1.49285, 1.48637, 1.47543, 1.47132, 1.46669, 1.46284, 1.47244, 1.47041, 1.49268, 1.48102, 1.4702, 1.46124, 1.43311, 1.41592, 1.40742, 1.40365, 1.40051, 1.39609, 1.38648, 1.37841, 1.37469, 1.36994, 1.36755, 1.36186, 1.36167, 1.35518, 1.35171, 1.34434, 1.34305, 1.34306, 1.35009, 1.33693, 1.34177, 1.47968, 1.71778, 1.30267, 1.31615, 1.30606, 1.31232, 1.29982
1.63648, 1.62539, 1.61519, 1.61212, 1.60082, 1.60217, 1.61469, 1.59133, 1.65901, 1.80508, 1.56329, 1.57206, 1.55843, 1.54577, 1.53475, 1.52705, 1.5166, 1.51261, 1.50746, 1.49962, 1.48988, 1.48559, 1.48092, 1.47077, 1.46317, 1.4611, 1.47223, 1.46725, 1.48565, 1.46497, 1.48303, 1.4439, 1.43424, 1.42578, 1.41322, 1.40219, 1.39994, 1.39257, 1.38553, 1.37842, 1.37498, 1.37188, 1.36614, 1.36419, 1.36172, 1.35597, 1.34859, 1.34438, 1.34167, 1.33791, 1.35068, 1.34544, 1.3411, 1.52198, 1.60935, 1.31242, 1.32627, 1.30357, 1.30295, 1.29691
1.63362, 1.62422, 1.62083, 1.60902, 1.60143, 1.59615, 1.59699, 1.59414, 1.59847, 1.94207, 1.55583, 1.56375, 1.54868, 1.56155, 1.53543, 1.52621, 1.51429, 1.51154, 1.50745, 1.49838, 1.4915, 1.48334, 1.47662, 1.49081, 1.47174, 1.46004, 1.47414, 1.4645, 1.47066, 1.47523, 1.47803, 1.46152, 1.43085, 1.41067, 1.40304, 1.40412, 1.3991, 1.39414, 1.38358, 1.37781, 1.37607, 1.3715, 1.36695, 1.39202, 1.35595, 1.35029, 1.34643, 1.36512, 1.36045, 1.3533, 1.3531, 1.33757, 1.33536, 1.49962, 1.77932, 1.2936, 1.31533, 1.31593, 1.3182, 1.29645
1.62829, 1.62237, 1.6134, 1.60791, 1.59978, 1.5962, 1.59029, 1.58898, 1.61336, 1.99753, 1.52906, 1.56417, 1.54829, 1.53976, 1.52996, 1.52608, 1.52752, 1.5082, 1.49935, 1.49505, 1.48557, 1.47955, 1.47476, 1.47158, 1.46328, 1.45757, 1.47445, 1.47923, 1.47165, 1.46444, 1.48945, 1.45128, 1.43831, 1.40663, 1.40247, 1.41209, 1.39866, 1.39096, 1.38294, 1.37984, 1.37802, 1.37059, 1.36558, 1.35767, 1.35373, 1.35059, 1.34182, 1.33783, 1.3375, 1.36474, 1.32971, 1.33706, 1.34496, 1.5178, 1.73646, 1.31516, 1.3089, 1.30065, 1.29704, 1.32966
1.62503, 1.62169, 1.60745, 1.60519, 1.59939, 1.59297, 1.58842, 1.58544, 1.63764, 1.90077, 1.52708, 1.5652, 1.54193, 1.53393, 1.52738, 1.53709, 1.51731, 1.5091, 1.49626, 1.49249, 1.48315, 1.47579, 1.47262, 1.46911, 1.46732, 1.45509, 1.46096, 1.47903, 1.46624, 1.46237, 1.45821, 1.45803, 1.43001, 1.41359, 1.39987, 1.39808, 1.39502, 1.39216, 1.38051, 1.37656, 1.37283, 1.38208, 1.36352, 1.3539, 1.34867, 1.34287, 1.33738, 1.33587, 1.33465, 1.33605, 1.32711, 1.32664, 1.33075, 1.46135, 1.76288, 1.38298, 1.3089, 1.29837, 1.29275, 1.29267
1.61858, 1.61948, 1.60819, 1.62077, 1.59513, 1.59154, 1.59804, 1.59899, 1.57519, 1.90245, 1.54337, 1.55926, 1.54012, 1.52676, 1.5233, 1.52049, 1.51302, 1.50035, 1.49321, 1.48437, 1.48128, 1.47248, 1.46706, 1.4748, 1.45502, 1.45117, 1.4595, 1.46579, 1.48116, 1.46072, 1.45364, 1.4311, 1.41528, 1.39975, 1.39674, 1.39509, 1.39354, 1.383, 1.37612, 1.37114, 1.37002, 1.36092, 1.35158, 1.34361, 1.34124, 1.34166, 1.33283, 1.33539, 1.33042, 1.35431, 1.33324, 1.32956, 1.32978, 1.46241, 1.45196, 1.30319, 1.30665, 1.29373, 1.2993, 1.28451
1.61633, 1.60611, 1.59745, 1.59492, 1.58725, 1.5918, 1.57484, 1.58982, 1.72582, 1.8935, 1.54855, 1.54135, 1.53356, 1.53633, 1.51927, 1.51562, 1.50511, 1.49335, 1.48769, 1.4807, 1.47109, 1.46819, 1.464, 1.45864, 1.44738, 1.45135, 1.45192, 1.45632, 1.46543, 1.45418, 1.45758, 1.44411, 1.41099, 1.40444, 1.39665, 1.39207, 1.39071, 1.37775, 1.36959, 1.36439, 1.35925, 1.35346, 1.34628, 1.33785, 1.33489, 1.33983, 1.32935, 1.32103, 1.32332, 1.31761, 1.31077, 1.31928, 1.32286, 1.44608, 1.42703, 1.27488, 1.29586, 1.29166, 1.28489, 1.27409
1.61029, 1.59893, 1.59364, 1.58398, 1.57928, 1.57312, 1.56592, 1.57553, 1.72567, 1.91431, 1.50457, 1.53297, 1.53043, 1.51424, 1.51123, 1.50865, 1.49685, 1.48914, 1.47793, 1.47303, 1.46713, 1.46299, 1.45807, 1.4538, 1.46601, 1.45511, 1.44873, 1.44823, 1.45465, 1.44363, 1.45366, 1.43236, 1.41046, 1.38662, 1.37975, 1.3817, 1.38823, 1.37504, 1.36158, 1.35714, 1.35739, 1.34676, 1.33855, 1.3333, 1.32613, 1.33603, 1.31628, 1.31509, 1.31624, 1.31883, 1.30981, 1.30057, 1.30148, 1.51354, 1.83747, 1.2647, 1.29178, 1.29007, 1.27844, 1.2658
1.60669, 1.59741, 1.59359, 1.58314, 1.57266, 1.57808, 1.57443, 1.57994, 1.67986, 1.9492, 1.52459, 1.5314, 1.51976, 1.50964, 1.50981, 1.50592, 1.49566, 1.48725, 1.47641, 1.47195, 1.46623, 1.46033, 1.45844, 1.45291, 1.44113, 1.43292, 1.44774, 1.45763, 1.46263, 1.45119, 1.45072, 1.42392, 1.40142, 1.39282, 1.38124, 1.37473, 1.38352, 1.3622, 1.36226, 1.35557, 1.35047, 1.34539, 1.33655, 1.33356, 1.32386, 1.33156, 1.31672, 1.31235, 1.31603, 1.31203, 1.30161, 1.29854, 1.30582, 1.52561, 1.58516, 1.27271, 1.28933, 1.28776, 1.27026, 1.27257
1.605, 1.59833, 1.59946, 1.58299, 1.57307, 1.5648, 1.56373, 1.56934, 1.68293, 2.08269, 1.52062, 1.54113, 1.51338, 1.51109, 1.51114, 1.50544, 1.49933, 1.49167, 1.4824, 1.474, 1.4721, 1.46406, 1.45952, 1.44827, 1.45074, 1.43432, 1.44985, 1.45446, 1.44701, 1.44891, 1.44391, 1.41185, 1.4021, 1.40379, 1.38584, 1.37639, 1.38398, 1.3612, 1.36378, 1.35492, 1.35083, 1.34558, 1.34425, 1.33581, 1.32424, 1.33289, 1.32138, 1.31171, 1.31747, 1.31702, 1.30277, 1.30198, 1.31545, 1.45035, 1.63582, 1.28372, 1.28974, 1.28864, 1.27088, 1.27566
1.60573, 1.59924, 1.59303, 1.58463, 1.57641, 1.59619, 1.58557, 1.58517, 1.57813, 2.11601, 1.50619, 1.53964, 1.53071, 1.51315, 1.51721, 1.50672, 1.50261, 1.49894, 1.48252, 1.47559, 1.48201, 1.47446, 1.45512, 1.45438, 1.46692, 1.43628, 1.45998, 1.45011, 1.45232, 1.44485, 1.44779, 1.4405, 1.40595, 1.41055, 1.38545, 1.38146, 1.37951, 1.36732, 1.37456, 1.35706, 1.35527, 1.3525, 1.34549, 1.35123, 1.32962, 1.33226, 1.327, 1.31838, 1.32363, 1.31951, 1.3072, 1.31623, 1.28244, 1.42985, 1.5188, 1.29042, 1.29221, 1.28325, 1.27415, 1.27874
1.60704, 1.60504, 1.60758, 1.59156, 1.58204, 1.59783, 1.58241, 1.58881, 1.58098, 1.95883, 1.54929, 1.56251, 1.52193, 1.52068, 1.51958, 1.51049, 1.50697, 1.50509, 1.48594, 1.48307, 1.48416, 1.4732, 1.46331, 1.45511, 1.45826, 1.44036, 1.45228, 1.45828, 1.4649, 1.45778, 1.45185, 1.46845, 1.41561, 1.41614, 1.39839, 1.38638, 1.38744, 1.37157, 1.3713, 1.36249, 1.36117, 1.35856, 1.34582, 1.34424, 1.34006, 1.33179, 1.32986, 1.33038, 1.32754, 1.32659, 1.31282, 1.31642, 1.33621, 1.50917, 1.50051, 1.28488, 1.30324, 1.29854, 1.29743, 1.28201
1.60941, 1.60862, 1.613, 1.59993, 1.58852, 1.58599, 1.58023, 1.58177, 1.60992, 2.05979, 1.5015, 1.55264, 1.55934, 1.52236, 1.52341, 1.51569, 1.50787, 1.5064, 1.4927, 1.48949, 1.48623, 1.47903, 1.46775, 1.45849, 1.45667, 1.44772, 1.45161, 1.45797, 1.47205, 1.46099, 1.45713, 1.44814, 1.43489, 1.42246, 1.39949, 1.39028, 1.38894, 1.38091, 1.38126, 1.36921, 1.36463, 1.36433, 1.35779, 1.35079, 1.34626, 1.33671, 1.3358, 1.33057, 1.32574, 1.33614, 1.32683, 1.31774, 1.32032, 1.53463, 1.49385, 1.28236, 1.30968, 1.29685, 1.28657, 1.28618
1.61672, 1.61594, 1.61418, 1.60696, 1.5921, 1.58595, 1.5839, 1.583, 1.54404, 1.85508, 1.54776, 1.56156, 1.54373, 1.52937, 1.52346, 1.51903, 1.50921, 1.5065, 1.50173, 1.4916, 1.48564, 1.48228, 1.48078, 1.46147, 1.46055, 1.46253, 1.45752, 1.47488, 1.46402, 1.46089, 1.44729, 1.445, 1.42591, 1.41696, 1.40132, 1.39641, 1.39585, 1.38461, 1.38263, 1.37125, 1.36954, 1.36427, 1.35895, 1.3548, 1.34842, 1.34336, 1.33765, 1.33114, 1.32997, 1.33313, 1.34398, 1.32529, 1.32383, 1.44473, 1.48839, 1.30726, 1.31874, 1.29803, 1.29102, 1.29196
1.61984, 1.61647, 1.61451, 1.60645, 1.59416, 1.59307, 1.58623, 1.58946, 1.60409, 1.74115, 1.53022, 1.55445, 1.55007, 1.53102, 1.52952, 1.52117, 1.50888, 1.5011, 1.49861, 1.49318, 1.48791, 1.4805, 1.46855, 1.46036, 1.45751, 1.45414, 1.46974, 1.47154, 1.46739, 1.45818, 1.45397, 1.45466, 1.42597, 1.41448, 1.40517, 1.40985, 1.40642, 1.38449, 1.38237, 1.37423, 1.37482, 1.36252, 1.35989, 1.353, 1.35172, 1.34228, 1.33662, 1.33682, 1.32986, 1.32961, 1.34177, 1.31976, 1.33378, 1.50248, 1.52265, 1.30993, 1.30305, 1.29836, 1.29329, 1.29144
1.61929, 1.61573, 1.61306, 1.60809, 1.59524, 1.59159, 1.59468, 1.58635, 1.5952, 1.78998, 1.54522, 1.55134, 1.54658, 1.54691, 1.53356, 1.51978, 1.50585, 1.50442, 1.49561, 1.48985, 1.48537, 1.47351, 1.46834, 1.46154, 1.45706, 1.46767, 1.47001, 1.45823, 1.47126, 1.47655, 1.45606, 1.43778, 1.42818, 1.41647, 1.4017, 1.40735, 1.38972, 1.38321, 1.37508, 1.37389, 1.36899, 1.36789, 1.35583, 1.3534, 1.34927, 1.34352, 1.33719, 1.33691, 1.32961, 1.33333, 1.33754, 1.31983, 1.33381, 1.36561, 1.49843, 1.31812, 1.30922, 1.30201, 1.30552, 1.29185
1.62087, 1.61464, 1.61012, 1.60502, 1.59685, 1.5846, 1.5823, 1.59377, 1.56971, 1.78034, 1.61981, 1.5522, 1.53625, 1.53232, 1.52705, 1.51299, 1.50518, 1.50223, 1.50506, 1.49161, 1.48246, 1.4719, 1.46907, 1.46159, 1.47323, 1.45696, 1.46204, 1.45882, 1.47112, 1.45184, 1.45852, 1.45024, 1.42808, 1.41609, 1.40317, 1.39694, 1.39135, 1.3832, 1.37567, 1.37144, 1.37103, 1.36664, 1.35405, 1.35226, 1.36142, 1.3433, 1.33804, 1.33609, 1.32907, 1.3474, 1.33205, 1.33332, 1.33133, 1.37174, 1.63049, 1.32313, 1.30585, 1.31016, 1.29488, 1.28943
1.62157, 1.61547, 1.60645, 1.60148, 1.60717, 1.58666, 1.59192, 1.57937, 1.55554, 2.02806, 1.53004, 1.55093, 1.54069, 1.52979, 1.52046, 1.52709, 1.50213, 1.50097, 1.49771, 1.49191, 1.48193, 1.46977, 1.47529, 1.45754, 1.45331, 1.45827, 1.46512, 1.45719, 1.45532, 1.46112, 1.45523, 1.45065, 1.42089, 1.40239, 1.39924, 1.39316, 1.38835, 1.38211, 1.3772, 1.37221, 1.36869, 1.36062, 1.35428, 1.34937, 1.34546, 1.34219, 1.33626, 1.33218, 1.32749, 1.32394, 1.33376, 1.34104, 1.33396, 1.4412, 1.63319, 1.52407, 1.31183, 1.30892, 1.29914, 1.30517
1.61735, 1.60993, 1.60613, 1.59658, 1.58842, 1.58562, 1.58193, 1.58434, 1.55129, 2.03118, 1.55161, 1.55061, 1.52433, 1.53334, 1.52409, 1.51364, 1.49991, 1.50161, 1.4962, 1.48716, 1.47751, 1.46915, 1.46829, 1.45775, 1.45444, 1.45032, 1.45344, 1.45876, 1.47298, 1.45151, 1.44936, 1.44424, 1.42345, 1.40629, 1.3976, 1.39397, 1.38726, 1.38269, 1.37753, 1.37118, 1.36755, 1.36315, 1.35633, 1.34814, 1.34568, 1.33837, 1.33479, 1.33213, 1.32847, 1.32754, 1.32241, 1.31747, 1.32704, 1.43609, 1.60868, 1.52056, 1.49615, 1.29558, 1.31088, 1.28597
1.61788, 1.61119, 1.61008, 1.59901, 1.5854, 1.58233, 1.57873, 1.59492, 1.66876, 2.17361, 1.53185, 1.55117, 1.52731, 1.52761, 1.52036, 1.50251, 1.49061, 1.49968, 1.49597, 1.4894, 1.48537, 1.47098, 1.46233, 1.46014, 1.4734, 1.45912, 1.46178, 1.45672, 1.45266, 1.45346, 1.45799, 1.45774, 1.41449, 1.40678, 1.39632, 1.38973, 1.38535, 1.37928, 1.37766, 1.37242, 1.36978, 1.36373, 1.35372, 1.34868, 1.34619, 1.33728, 1.33325, 1.33132, 1.33011, 1.32703, 1.32228, 1.32293, 1.31972, 1.52042, 1.58027, 1.52673, 1.47859, 1.31592, 1.29124, 1.30642
1.62074, 1.61144, 1.60637, 1.5963, 1.58538, 1.58212, 1.58095, 1.58589, 1.56191, 1.74839, 1.54153, 1.55122, 1.53342, 1.52655, 1.53254, 1.49604, 1.49764, 1.49867, 1.49615, 1.48584, 1.47986, 1.46806, 1.46436, 1.45493, 1.45396, 1.46771, 1.46261, 1.46661, 1.47558, 1.46482, 1.46, 1.44035, 1.42116, 1.41251, 1.39679, 1.39149, 1.38734, 1.37945, 1.37801, 1.37428, 1.36586, 1.36096, 1.35607, 1.3489, 1.34641, 1.34149, 1.35045, 1.3323, 1.33005, 1.32593, 1.31858, 1.31509, 1.32645, 1.48133, 1.71729, 1.51745, 1.37697, 1.28957, 1.28977, 1.28781
1.61717, 1.6129, 1.60935, 1.60247, 1.58881, 1.58318, 1.5766, 1.59586, 1.58967, 1.78971, 1.53727, 1.54799, 1.53478, 1.53774, 1.51939, 1.50824, 1.50067, 1.49867, 1.4938, 1.48613, 1.48201, 1.46943, 1.46525, 1.4557, 1.45267, 1.45017, 1.48192, 1.45633, 1.47184, 1.45555, 1.45813, 1.44879, 1.41093, 1.4021, 1.39596, 1.38867, 1.38857, 1.38044, 1.37782, 1.37379, 1.3658, 1.36083, 1.35722, 1.35285, 1.35107, 1.34404, 1.33625, 1.33326, 1.33038, 1.32428, 1.31869, 1.3145, 1.32349, 1.32497, 1.72673, 1.51584, 1.50287, 1.28866, 1.29139, 1.28689
1.61431, 1.60968, 1.60756, 1.60197, 1.58689, 1.58455, 1.57762, 1.57566, 1.55137, 2.0193, 1.53967, 1.54771, 1.53453, 1.52995, 1.51729, 1.5066, 1.50143, 1.49905, 1.49309, 1.48611, 1.48517, 1.46584, 1.46529, 1.45577, 1.452, 1.44881, 1.46684, 1.47535, 1.4583, 1.4482, 1.44442, 1.4462, 1.43307, 1.40189, 1.39791, 1.38745, 1.38121, 1.37851, 1.3764, 1.37118, 1.36535, 1.36144, 1.35333, 1.35121, 1.34916, 1.34309, 1.33614, 1.33232, 1.33283, 1.32615, 1.31851, 1.31437, 1.32317, 1.30819, 1.68203, 1.51658, 1.48528, 1.28863, 1.28892, 1.29138
1.61342, 1.6079, 1.60642, 1.59944, 1.58707, 1.58774, 1.58257, 1.58585, 1.56715, 1.98577, 1.54714, 1.54848, 1.53233, 1.53662, 1.51731, 1.50643, 1.50144, 1.49757, 1.49176, 1.48538, 1.4713, 1.46607, 1.46285, 1.45513, 1.45116, 1.44872, 1.459, 1.46519, 1.47167, 1.45944, 1.44393, 1.43338, 1.42409, 1.40252, 1.39323, 1.38723, 1.38154, 1.37769, 1.37293, 1.3664, 1.36603, 1.36086, 1.35449, 1.35237, 1.35037, 1.34008, 1.34033, 1.32898, 1.32563, 1.32473, 1.31967, 1.30956, 1.32241, 1.33405, 1.72663, 1.51093, 1.4635, 1.28631, 1.28572, 1.28443
1.61174, 1.6057, 1.60517, 1.5967, 1.58558, 1.58426, 1.57877, 1.56966, 1.53565, 1.98607, 1.53737, 1.56078, 1.53058, 1.5379, 1.51494, 1.50807, 1.50176, 1.49255, 1.48939, 1.48241, 1.47879, 1.4686, 1.46309, 1.45984, 1.45087, 1.44882, 1.45053, 1.45625, 1.47459, 1.4641, 1.44671, 1.4437, 1.41919, 1.40214, 1.39716, 1.39544, 1.37895, 1.37455, 1.37077, 1.36528, 1.36315, 1.35978, 1.35273, 1.3505, 1.34789, 1.34478, 1.32933, 1.32514, 1.3232, 1.3202, 1.31086, 1.3141, 1.30624, 1.55882, 1.94385, 1.48577, 1.43426, 1.28936, 1.28416, 1.28425
1.60681, 1.59923, 1.60147, 1.59427, 1.58357, 1.58177, 1.57852, 1.5791, 1.64412, 1.71054, 1.53629, 1.54653, 1.52826, 1.52798, 1.51287, 1.50664, 1.49917, 1.49228, 1.48646, 1.48254, 1.47605, 1.46805, 1.46039, 1.45646, 1.44918, 1.4466, 1.45206, 1.46729, 1.4682, 1.47184, 1.43662, 1.44773, 1.41824, 1.39648, 1.39121, 1.38503, 1.39551, 1.37509, 1.37045, 1.36596, 1.35975, 1.35523, 1.34529, 1.34523, 1.34667, 1.33868, 1.32703, 1.32315, 1.32008, 1.31686, 1.3077, 1.30319, 1.30192, 1.38527, 1.70448, 1.47841, 1.40839, 1.2815, 1.27798, 1.27979
1.60616, 1.59718, 1.59918, 1.5923, 1.5798, 1.58622, 1.57609, 1.5739, 1.57403, 1.84381, 1.52312, 1.54005, 1.52415, 1.52234, 1.51547, 1.5054, 1.49871, 1.49125, 1.48786, 1.47726, 1.46881, 1.4649, 1.46024, 1.47617, 1.45062, 1.44689, 1.45204, 1.45602, 1.45665, 1.44393, 1.43844, 1.44051, 1.42073, 1.39876, 1.38825, 1.38189, 1.37911, 1.37525, 1.36986, 1.37417, 1.35926, 1.35746, 1.35091, 1.34389, 1.3411, 1.33168, 1.32322, 1.31972, 1.31885, 1.31637, 1.30203, 1.3029, 1.31326, 1.47203, 1.76232, 1.40697, 1.38562, 1.28086, 1.28267, 1.27383
1.60409, 1.59628, 1.59585, 1.58241, 1.59278, 1.57681, 1.57484, 1.56936, 1.53356, 1.83422, 1.55489, 1.53067, 1.52159, 1.51956, 1.51431, 1.50399, 1.49592, 1.48978, 1.48435, 1.48097, 1.4686, 1.46012, 1.45755, 1.47952, 1.45587, 1.44411, 1.46549, 1.45388, 1.44714, 1.43761, 1.44318, 1.43934, 1.42919, 1.39256, 1.38452, 1.38066, 1.37886, 1.37154, 1.37055, 1.36583, 1.35888, 1.35051, 1.34709, 1.33997, 1.33858, 1.32913, 1.32293, 1.31805, 1.31505, 1.31225, 1.30044, 1.29652, 1.30889, 1.49482, 1.64873, 1.60303, 1.34378, 1.28035, 1.27115, 1.2817
1.60034, 1.59533, 1.59025, 1.58241, 1.57511, 1.57302, 1.59288, 1.56826, 1.5645, 1.80655, 1.50862, 1.52626, 1.51932, 1.52655, 1.51424, 1.50957, 1.4934, 1.4885, 1.48164, 1.47107, 1.46599, 1.45895, 1.45597, 1.45149, 1.44853, 1.44163, 1.45289, 1.45936, 1.46102, 1.43997, 1.45018, 1.4194, 1.40238, 1.38572, 1.38957, 1.37692, 1.38873, 1.37095, 1.36818, 1.36355, 1.3572, 1.34944, 1.3475, 1.34114, 1.34002, 1.33927, 1.32177, 1.31896, 1.316, 1.31256, 1.30154, 1.3127, 1.29929, 1.26831, 1.5914, 1.53057, 1.30103, 1.28086, 1.27282, 1.26773
1.59958, 1.59674, 1.59716, 1.5836, 1.57691, 1.57159, 1.57922, 1.5655, 1.54781, 1.62329, 1.50316, 1.52251, 1.51889, 1.5165, 1.51098, 1.49892, 1.49651, 1.4859, 1.47642, 1.4692, 1.46528, 1.45859, 1.45443, 1.4508, 1.44556, 1.44303, 1.44915, 1.45471, 1.43717, 1.43346, 1.44782, 1.43742, 1.40184, 1.38344, 1.3889, 1.37521, 1.37306, 1.37043, 1.37049, 1.36, 1.35161, 1.34662, 1.34145, 1.34315, 1.33817, 1.33175, 1.32378, 1.32106, 1.31528, 1.30949, 1.30252, 1.30904, 1.31722, 1.26626, 1.61755, 1.39956, 1.28879, 1.29922, 1.27433, 1.27255
1.59941, 1.59896, 1.59277, 1.58478, 1.57491, 1.56955, 1.56544, 1.5645, 1.57256, 1.60273, 1.50562, 1.51889, 1.51789, 1.5146, 1.51124, 1.50968, 1.49797, 1.48877, 1.48106, 1.46553, 1.46573, 1.45966, 1.45406, 1.46086, 1.44547, 1.44107, 1.44896, 1.46501, 1.44814, 1.43813, 1.43359, 1.41925, 1.40207, 1.3848, 1.37855, 1.37538, 1.37276, 1.36945, 1.36849, 1.35958, 1.35477, 1.34534, 1.33845, 1.33632, 1.33633, 1.33195, 1.32552, 1.32495, 1.31833, 1.31624, 1.3038, 1.30058, 1.29991, 1.28577, 1.54464, 1.37789, 1.28532, 1.2754, 1.29872, 1.27716
1.60272, 1.5975, 1.59346, 1.58783, 1.57681, 1.57528, 1.5899, 1.56804, 1.5856, 1.62307, 1.54833, 1.52768, 1.51797, 1.51414, 1.51121, 1.50527, 1.49792, 1.48669, 1.47931, 1.46494, 1.46604, 1.46183, 1.45643, 1.46156, 1.44503, 1.44866, 1.44564, 1.45175, 1.45496, 1.44734, 1.43396, 1.43351, 1.41419, 1.3903, 1.37855, 1.37292, 1.37197, 1.3677, 1.36723, 1.3644, 1.35152, 1.34089, 1.33817, 1.3347, 1.33648, 1.33063, 1.32689, 1.32324, 1.32035, 1.3138, 1.30749, 1.30194, 1.30039, 1.27499, 1.51143, 1.49537, 1.28259, 1.27966, 1.28271, 1.26823
1.60136, 1.59856, 1.59376, 1.58206, 1.5762, 1.57097, 1.59281, 1.55949, 1.57544, 1.7068, 1.53101, 1.53398, 1.51568, 1.51378, 1.51029, 1.50459, 1.49891, 1.48691, 1.48106, 1.47018, 1.46825, 1.4639, 1.47485, 1.45299, 1.44612, 1.44003, 1.44287, 1.45372, 1.45447, 1.44416, 1.44372, 1.42694, 1.41595, 1.38623, 1.37968, 1.37729, 1.37159, 1.36803, 1.36901, 1.36227, 1.35555, 1.35038, 1.34027, 1.33661, 1.33464, 1.33194, 1.32766, 1.32716, 1.32715, 1.323, 1.30964, 1.3062, 1.31246, 1.30318, 1.58587, 1.25253, 1.28463, 1.28468, 1.28182, 1.2705
1.60236, 1.59717, 1.59361, 1.58883, 1.58052, 1.58556, 1.5879, 1.56749, 1.53689, 1.69431, 1.73801, 1.52902, 1.52616, 1.5225, 1.51066, 1.50631, 1.49651, 1.49165, 1.48042, 1.47298, 1.47053, 1.46395, 1.47821, 1.45261, 1.44723, 1.44207, 1.45081, 1.44691, 1.44746, 1.44451, 1.43356, 1.44762, 1.40868, 1.38567, 1.38082, 1.37914, 1.3755, 1.37175, 1.36875, 1.36112, 1.35771, 1.34825, 1.33787, 1.33657, 1.33502, 1.33259, 1.33118, 1.33004, 1.32195, 1.33516, 1.31427, 1.30834, 1.30994, 1.28042, 1.5864, 1.27084, 1.28932, 1.28695, 1.28427, 1.28092
1.60382, 1.59724, 1.59326, 1.59149, 1.5843, 1.57751, 1.5786, 1.56459, 1.55229, 1.75876, 1.787, 1.53786, 1.52349, 1.51609, 1.51551, 1.50346, 1.49827, 1.49017, 1.49188, 1.47631, 1.47199, 1.46503, 1.45926, 1.4559, 1.45397, 1.45505, 1.44342, 1.44791, 1.46187, 1.4502, 1.44776, 1.43391, 1.40534, 1.38654, 1.38139, 1.38519, 1.37503, 1.37195, 1.36908, 1.36266, 1.36126, 1.34817, 1.34167, 1.34074, 1.33487, 1.33483, 1.32931, 1.33286, 1.32622, 1.32616, 1.31881, 1.30939, 1.31732, 1.31292, 1.60144, 1.24982, 1.2912, 1.30576, 1.27924, 1.27166
