1.67317, 1.67474, 1.67339, 1.6709, 1.6687, 1.66774, 1.66467, 1.66307, 1.66231, 1.65936, 1.66061, 1.65748, 1.66867, 1.65435, 1.65376, 1.65521, 1.6623, 1.66635, 1.69045, 1.67679, 1.66798, 1.66812, 1.642, 1.62036, 1.64816, 1.63684, 1.64111, 1.64609, 1.65566, 1.68435, 1.72446, 1.76894, 1.775, 1.81713, 1.81995, 1.82955, 1.82831, 1.82755, 1.80791, 1.79525, 1.78596, 1.74147, 1.66652, 1.60536, 1.5884, 1.59323, 1.61114, 1.61586, 1.61129, 1.61279, 1.59307, 1.58523, 1.56531, 1.59299, 1.59139, 1.59095, 1.60555, 1.60732, 1.58834, 1.59929, 1.58755, 1.58573, 1.58347, 1.58118, 1.57959, 1.58522, 1.5795, 1.57819, 1.57851, 1.57568, 1.57368, 1.57147, 1.57622, 1.56926, 1.56526, 1.56311, 1.5603, 1.57735, 1.56509, 1.55441, 1.55531, 1.57632, 1.57476, 1.57642, 1.56765, 1.56122, 1.54628, 1.54399, 1.54885, 1.54315, 1.54344, 1.55214, 1.54414, 1.54335, 1.54169, 1.5417, 1.54077, 1.53972, 1.53515, 1.53121, 1.52995, 1.52705, 1.52949, 1.52603, 1.51953, 1.51819, 1.51419, 1.51072, 1.51671, 1.50718, 1.5055, 1.50306, 1.50053, 1.50384, 1.52733, 1.50257, 1.50902, 1.50983, 1.50465, 1.5127, 1.50364, 1.50765, 1.52598, 1.51542, 1.51453, 1.51188, 1.48708, 1.49297, 1.55749, 1.57122, 1.59669, 1.68952, 1.65371, 1.66068, 1.66757, 1.68417, 1.62004, 1.6156, 1.66215, 1.63851, 1.60079, 1.59843, 1.54064, 1.51265, 1.47549, 1.45399, 1.45108, 1.47829, 1.47943, 1.47911, 1.49009, 1.48882, 1.48615, 1.4755, 1.4679, 1.46749, 1.46156, 1.4574, 1.45821, 1.453, 1.45323, 1.45264, 1.45223, 1.45142, 1.45013, 1.4498, 1.44794, 1.4478, 1.44633, 1.44443, 1.44383, 1.44386, 1.44093, 1.44139, 1.43813, 1.4366, 1.43547, 1.43317, 1.43206, 1.43199, 1.43104, 1.43184, 1.42949, 1.42989, 1.43215, 1.4326, 1.43257, 1.4334, 1.43223, 1.42977, 1.42835, 1.42645, 1.42579, 1.42587, 1.42432, 1.4225, 1.42217, 1.42013, 1.42152, 1.41996, 1.42143, 1.41952, 1.41604, 1.41387, 1.41368, 1.41197, 1.41016, 1.40894, 1.40781, 1.40764, 1.41376, 1.40534, 1.40451, 1.40193, 1.40169, 1.39871, 1.39811, 1.39837, 1.39868, 1.39709, 1.3943, 1.39446, 1.39117, 1.39089, 1.38915, 1.38956, 1.38863, 1.39012, 1.38947, 1.38838, 1.3877, 1.385, 1.38387, 1.38303, 1.38228, 1.38221, 1.38258, 1.38066, 1.39921, 1.3928, 1.37751, 1.38435, 1.37754, 1.39454, 1.3801, 1.38883, 1.38816, 1.36697, 1.35637, 1.36531, 1.39876, 1.44501, 1.41278, 1.45174, 1.46539, 1.46905, 1.4842, 1.48954, 1.4961, 1.51193, 1.51884, 1.51914, 1.51335, 1.50089, 1.50474, 1.47882, 1.48249, 1.46402, 1.41607, 1.39917, 1.33832, 1.34167, 1.36206, 1.35611, 1.3707, 1.3637, 1.36193, 1.35771, 1.35318, 1.34393, 1.35217, 1.34429, 1.34449, 1.34644, 1.34413, 1.34324, 1.33996, 1.34807, 1.33666, 1.33672, 1.36119, 1.35153, 1.33692, 1.33399, 1.36491, 1.33136, 1.38432, 1.33277, 1.33163, 1.33124
1.68597, 1.68452, 1.6834, 1.68192, 1.6827, 1.6788, 1.67861, 1.6765, 1.67585, 1.67348, 1.67344, 1.67313, 1.69461, 1.66913, 1.66836, 1.66764, 1.66678, 1.66923, 1.68466, 1.68527, 1.67281, 1.67336, 1.65336, 1.62722, 1.62429, 1.62624, 1.62495, 1.63247, 1.65401, 1.72611, 1.76886, 1.78725, 1.80979, 1.84002, 1.84406, 1.8495, 1.87231, 1.86979, 1.90469, 1.82388, 1.8198, 1.76167, 1.65881, 1.59718, 1.59573, 1.61748, 1.62614, 1.63369, 1.61707, 1.62032, 1.60688, 1.60949, 1.60822, 1.60912, 1.60398, 1.60952, 1.59679, 1.59587, 1.5964, 1.59566, 1.5956, 1.59373, 1.59033, 1.58936, 1.5879, 1.5888, 1.58905, 1.58901, 1.58855, 1.58526, 1.5846, 1.5805, 1.57901, 1.58264, 1.57247, 1.56665, 1.56452, 1.56376, 1.57706, 1.56952, 1.56533, 1.56853, 1.56534, 1.58208, 1.5794, 1.57968, 1.56924, 1.5616, 1.55723, 1.56151, 1.55601, 1.55405, 1.55169, 1.54777, 1.5501, 1.54447, 1.54488, 1.5442, 1.5434, 1.54214, 1.53997, 1.53761, 1.53432, 1.53042, 1.52746, 1.52661, 1.54049, 1.52591, 1.52538, 1.52422, 1.53406, 1.52325, 1.52082, 1.52679, 1.52427, 1.52039, 1.51115, 1.51352, 1.51313, 1.5159, 1.53762, 1.52437, 1.52413, 1.53336, 1.53803, 1.53054, 1.49274, 1.52494, 1.53879, 1.55164, 1.5867, 1.6056, 1.60614, 1.63691, 1.63868, 1.65225, 1.67648, 1.64303, 1.64146, 1.63481, 1.63649, 1.60533, 1.54739, 1.49647, 1.49912, 1.45631, 1.45844, 1.46825, 1.47112, 1.4876, 1.491, 1.48474, 1.48243, 1.48634, 1.49582, 1.47861, 1.47464, 1.46891, 1.46941, 1.47499, 1.46135, 1.48321, 1.46001, 1.4653, 1.45864, 1.45813, 1.45744, 1.45611, 1.45443, 1.45302, 1.45449, 1.44908, 1.4491, 1.44547, 1.44325, 1.44224, 1.43901, 1.43821, 1.43745, 1.43658, 1.43728, 1.43541, 1.4383, 1.44788, 1.44135, 1.44241, 1.44355, 1.4431, 1.44169, 1.43938, 1.43669, 1.43152, 1.42951, 1.43057, 1.4276, 1.42635, 1.42737, 1.42703, 1.42723, 1.43032, 1.42864, 1.42817, 1.4254, 1.42471, 1.42297, 1.4218, 1.41949, 1.41767, 1.41298, 1.41131, 1.40968, 1.41022, 1.40992, 1.41015, 1.40665, 1.41253, 1.41004, 1.4093, 1.40849, 1.40995, 1.40673, 1.40615, 1.40929, 1.39714, 1.39601, 1.39704, 1.39703, 1.39811, 1.39742, 1.39506, 1.39376, 1.38893, 1.38803, 1.38919, 1.38628, 1.38704, 1.40199, 1.3869, 1.38858, 1.3878, 1.38803, 1.38732, 1.38283, 1.38757, 1.38588, 1.38339, 1.3815, 1.3887, 1.36049, 1.36526, 1.37856, 1.39475, 1.40966, 1.4368, 1.45419, 1.47514, 1.4962, 1.51991, 1.51496, 1.51398, 1.51883, 1.52017, 1.52117, 1.52225, 1.53115, 1.51714, 1.46744, 1.4579, 1.44378, 1.36645, 1.36115, 1.3549, 1.36524, 1.36594, 1.36347, 1.38013, 1.38227, 1.35305, 1.35042, 1.36584, 1.36807, 1.35033, 1.3592, 1.35056, 1.35087, 1.35056, 1.35156, 1.35263, 1.34719, 1.34765, 1.34419, 1.34316, 1.35723, 1.33997, 1.34848, 1.33981, 1.34277, 1.33498, 1.33911, 1.33572
1.70289, 1.67942, 1.68049, 1.68102, 1.68099, 1.6807, 1.67615, 1.6788, 1.68227, 1.67615, 1.67498, 1.69319, 1.67582, 1.67175, 1.67464, 1.68439, 1.67111, 1.68328, 1.66871, 1.66785, 1.67604, 1.65967, 1.67277, 1.65482, 1.62277, 1.63616, 1.6509, 1.66558, 1.66818, 1.70981, 1.73005, 1.76729, 1.78583, 1.81737, 1.831, 1.84505, 1.85481, 1.84112, 1.85642, 1.7819, 1.76213, 1.71047, 1.68357, 1.6753, 1.60708, 1.60392, 1.62977, 1.61513, 1.61913, 1.6101, 1.62394, 1.62841, 1.6092, 1.60888, 1.60737, 1.60475, 1.60981, 1.61288, 1.59713, 1.59279, 1.58912, 1.59487, 1.58832, 1.58819, 1.58756, 1.58831, 1.58894, 1.58829, 1.58736, 1.58355, 1.5792, 1.58597, 1.57506, 1.58298, 1.57209, 1.57207, 1.58208, 1.57385, 1.57178, 1.57394, 1.56959, 1.57673, 1.57642, 1.57129, 1.57334, 1.5863, 1.58896, 1.57248, 1.55851, 1.56235, 1.56177, 1.56217, 1.55176, 1.54243, 1.55441, 1.55252, 1.54353, 1.54851, 1.5423, 1.54162, 1.54163, 1.5387, 1.53701, 1.53546, 1.5331, 1.53198, 1.55563, 1.52986, 1.5361, 1.52722, 1.52689, 1.52785, 1.527, 1.52384, 1.52317, 1.53474, 1.53257, 1.52654, 1.52141, 1.53454, 1.52789, 1.55174, 1.53524, 1.5244, 1.52668, 1.50267, 1.50019, 1.51679, 1.50488, 1.57055, 1.58626, 1.60994, 1.63299, 1.65248, 1.67126, 1.67444, 1.6723, 1.66874, 1.66293, 1.63737, 1.64058, 1.61681, 1.53074, 1.53987, 1.50196, 1.46724, 1.45082, 1.45848, 1.4812, 1.48535, 1.48008, 1.48582, 1.50655, 1.50246, 1.49441, 1.48847, 1.48104, 1.48542, 1.48074, 1.47546, 1.48227, 1.48115, 1.46802, 1.46818, 1.47221, 1.47861, 1.46498, 1.4673, 1.46385, 1.46282, 1.46087, 1.45868, 1.45547, 1.45413, 1.473, 1.44661, 1.44421, 1.44368, 1.4474, 1.44136, 1.4419, 1.44317, 1.44435, 1.4481, 1.44889, 1.44705, 1.4452, 1.444, 1.44003, 1.46427, 1.44044, 1.4606, 1.43232, 1.43308, 1.48252, 1.43216, 1.42999, 1.42853, 1.43996, 1.42824, 1.42688, 1.42562, 1.46226, 1.42175, 1.42284, 1.42083, 1.42119, 1.41855, 1.41646, 1.43466, 1.41625, 1.4153, 1.413, 1.41235, 1.40974, 1.40992, 1.41982, 1.40924, 1.40757, 1.40611, 1.4149, 1.40711, 1.40265, 1.40198, 1.40191, 1.42005, 1.40553, 1.39911, 1.39925, 1.39219, 1.39363, 1.3916, 1.39015, 1.39519, 1.38862, 1.39481, 1.39338, 1.39443, 1.38679, 1.4031, 1.39572, 1.39438, 1.40159, 1.40299, 1.40279, 1.39678, 1.39424, 1.39152, 1.36917, 1.36826, 1.37016, 1.39902, 1.44434, 1.48725, 1.47877, 1.56524, 1.50344, 1.53371, 1.56123, 1.49435, 1.50251, 1.50354, 1.51786, 1.50998, 1.55173, 1.54827, 1.47119, 1.4683, 1.46125, 1.39742, 1.35808, 1.37796, 1.37518, 1.36133, 1.38216, 1.36371, 1.36132, 1.35525, 1.36524, 1.37157, 1.37074, 1.35336, 1.3516, 1.35384, 1.35163, 1.35894, 1.37177, 1.34362, 1.34351, 1.3409, 1.34743, 1.33748, 1.3484, 1.33611, 1.33521, 1.33466, 1.35482, 1.34523, 1.3408, 1.36543
1.66588, 1.66384, 1.66481, 1.66215, 1.66112, 1.70649, 1.65897, 1.65962, 1.67245, 1.67063, 1.66419, 1.68648, 1.67169, 1.67278, 1.66678, 1.6659, 1.67025, 1.65888, 1.65467, 1.65525, 1.6535, 1.65155, 1.66144, 1.65385, 1.62167, 1.62645, 1.63797, 1.6849, 1.72412, 1.72849, 1.73106, 1.78644, 1.80074, 1.81852, 1.83364, 1.85511, 1.8556, 1.85459, 1.84499, 1.83077, 1.77193, 1.75531, 1.67268, 1.62588, 1.58964, 1.59972, 1.61872, 1.61648, 1.62349, 1.61147, 1.60891, 1.60408, 1.60247, 1.61073, 1.59936, 1.5951, 1.58736, 1.58254, 1.57466, 1.57161, 1.56869, 1.56882, 1.57079, 1.58619, 1.58031, 1.58237, 1.58254, 1.5821, 1.57936, 1.57795, 1.57382, 1.57539, 1.55954, 1.55683, 1.55702, 1.5731, 1.5823, 1.57198, 1.57493, 1.562, 1.56403, 1.57737, 1.56204, 1.57641, 1.57555, 1.56295, 1.57366, 1.57465, 1.56225, 1.55404, 1.55516, 1.54485, 1.55217, 1.5415, 1.54018, 1.54017, 1.54139, 1.54762, 1.54103, 1.54137, 1.53989, 1.538, 1.5374, 1.53194, 1.52794, 1.52605, 1.5197, 1.5142, 1.51279, 1.51541, 1.51628, 1.53462, 1.51952, 1.51989, 1.51848, 1.52764, 1.51103, 1.50983, 1.5085, 1.50811, 1.50998, 1.52413, 1.51896, 1.51112, 1.52305, 1.51212, 1.47601, 1.50594, 1.49801, 1.51694, 1.55682, 1.66221, 1.60744, 1.63516, 1.62902, 1.63591, 1.64539, 1.64527, 1.65173, 1.63029, 1.6293, 1.61947, 1.56267, 1.52987, 1.48974, 1.46986, 1.45467, 1.47602, 1.49547, 1.49127, 1.47554, 1.4721, 1.49497, 1.49532, 1.49009, 1.48757, 1.49138, 1.47809, 1.46729, 1.47023, 1.46194, 1.47265, 1.4641, 1.46602, 1.46537, 1.46584, 1.46157, 1.4744, 1.45445, 1.45394, 1.45313, 1.45251, 1.4489, 1.44576, 1.44845, 1.43552, 1.43331, 1.42906, 1.4264, 1.42687, 1.42761, 1.4352, 1.4384, 1.44121, 1.44335, 1.44374, 1.44128, 1.43536, 1.43311, 1.42697, 1.4233, 1.41983, 1.41443, 1.41259, 1.41102, 1.40966, 1.4163, 1.41171, 1.41465, 1.41542, 1.41911, 1.41656, 1.4144, 1.41401, 1.41122, 1.41168, 1.40904, 1.40728, 1.408, 1.4065, 1.40568, 1.40273, 1.39877, 1.39857, 1.39204, 1.38785, 1.38775, 1.39065, 1.38843, 1.38876, 1.39146, 1.38956, 1.38938, 1.39201, 1.39042, 1.39109, 1.39083, 1.38848, 1.39063, 1.38783, 1.39193, 1.38195, 1.39494, 1.37528, 1.37538, 1.37155, 1.37231, 1.37179, 1.37387, 1.37505, 1.37697, 1.37808, 1.3763, 1.38926, 1.37121, 1.38342, 1.39526, 1.38115, 1.36833, 1.35809, 1.38895, 1.39393, 1.41444, 1.43264, 1.50312, 1.48749, 1.49608, 1.51729, 1.50161, 1.56733, 1.5025, 1.51281, 1.50654, 1.50545, 1.50417, 1.47193, 1.4555, 1.4255, 1.42241, 1.36763, 1.32873, 1.35714, 1.35878, 1.36053, 1.36886, 1.36058, 1.35086, 1.34959, 1.34741, 1.34793, 1.35086, 1.35063, 1.35714, 1.34725, 1.34133, 1.35167, 1.33662, 1.33717, 1.32754, 1.32141, 1.3195, 1.31905, 1.31782, 1.31886, 1.31942, 1.31855, 1.33747, 1.31975, 1.32255, 1.32497
1.67085, 1.66825, 1.67296, 1.67066, 1.66553, 1.66484, 1.66413, 1.66762, 1.66552, 1.68256, 1.67341, 1.6736, 1.68957, 1.67044, 1.66856, 1.66585, 1.65747, 1.65145, 1.66899, 1.64892, 1.64137, 1.649, 1.66498, 1.63151, 1.61991, 1.63674, 1.63873, 1.69964, 1.68636, 1.74136, 1.76483, 1.75678, 1.77704, 1.79693, 1.8455, 1.87927, 1.88282, 1.88689, 1.90011, 1.85791, 1.84797, 1.75405, 1.71709, 1.6465, 1.60907, 1.63066, 1.61486, 1.64289, 1.62999, 1.61749, 1.62469, 1.6232, 1.62195, 1.6135, 1.60802, 1.61257, 1.60492, 1.61355, 1.58407, 1.58518, 1.57675, 1.59921, 1.59318, 1.57874, 1.58389, 1.58445, 1.58488, 1.58392, 1.58223, 1.58086, 1.57402, 1.56829, 1.56431, 1.56179, 1.55937, 1.57208, 1.55867, 1.5577, 1.55737, 1.57474, 1.55738, 1.55669, 1.55725, 1.5727, 1.56331, 1.56937, 1.55757, 1.5757, 1.58533, 1.56078, 1.56589, 1.56451, 1.56074, 1.54877, 1.54871, 1.54921, 1.54801, 1.54672, 1.54421, 1.54326, 1.54181, 1.54087, 1.53867, 1.53457, 1.54445, 1.52786, 1.547, 1.52614, 1.52298, 1.52043, 1.52149, 1.53741, 1.52665, 1.52739, 1.52494, 1.5219, 1.51763, 1.51436, 1.52841, 1.51309, 1.53174, 1.51356, 1.52312, 1.51555, 1.52064, 1.50617, 1.50531, 1.48612, 1.53701, 1.5514, 1.58793, 1.63671, 1.62183, 1.63218, 1.639, 1.64937, 1.67207, 1.66812, 1.66795, 1.65559, 1.64478, 1.63479, 1.55758, 1.53694, 1.51716, 1.46411, 1.45497, 1.47498, 1.48117, 1.4793, 1.47474, 1.46377, 1.48703, 1.50029, 1.50279, 1.48333, 1.47753, 1.48904, 1.4761, 1.47139, 1.47214, 1.47971, 1.47735, 1.48517, 1.46833, 1.46567, 1.46122, 1.45545, 1.45082, 1.44933, 1.44778, 1.44768, 1.44342, 1.44316, 1.43836, 1.43599, 1.4333, 1.43426, 1.46664, 1.43199, 1.43391, 1.43572, 1.44144, 1.44641, 1.44653, 1.44601, 1.45223, 1.44404, 1.43761, 1.43251, 1.42796, 1.42383, 1.41896, 1.41654, 1.41529, 1.41309, 1.41301, 1.41113, 1.40806, 1.40764, 1.40832, 1.40663, 1.40573, 1.4053, 1.40411, 1.40201, 1.39982, 1.40007, 1.39816, 1.4007, 1.39932, 1.39804, 1.39402, 1.39262, 1.39204, 1.38928, 1.39057, 1.38944, 1.39139, 1.39337, 1.39381, 1.39783, 1.39617, 1.398, 1.39806, 1.42294, 1.40235, 1.40202, 1.40287, 1.40605, 1.39869, 1.39848, 1.38826, 1.3825, 1.37966, 1.38345, 1.37598, 1.38556, 1.37509, 1.37503, 1.37497, 1.37459, 1.38335, 1.37576, 1.38296, 1.38659, 1.39532, 1.40574, 1.37853, 1.3612, 1.36405, 1.39623, 1.38864, 1.43955, 1.44228, 1.46551, 1.4782, 1.4848, 1.4988, 1.51962, 1.51989, 1.53524, 1.52864, 1.49831, 1.46489, 1.45908, 1.42404, 1.4086, 1.36487, 1.35689, 1.36846, 1.3427, 1.36505, 1.37109, 1.37385, 1.37149, 1.36324, 1.35961, 1.36946, 1.35707, 1.35056, 1.34406, 1.34634, 1.34495, 1.34024, 1.34053, 1.34382, 1.33053, 1.3324, 1.33268, 1.3311, 1.3505, 1.33054, 1.36348, 1.32902, 1.32903, 1.32959, 1.33022, 1.33006, 1.33341
1.68872, 1.6831, 1.68524, 1.68299, 1.68128, 1.70961, 1.69399, 1.67819, 1.69041, 1.69613, 1.68889, 1.68571, 1.68204, 1.66971, 1.67035, 1.67102, 1.67643, 1.68174, 1.6621, 1.65364, 1.65777, 1.65826, 1.65412, 1.6438, 1.65269, 1.62382, 1.64869, 1.67233, 1.69557, 1.71984, 1.77034, 1.7888, 1.82154, 1.88519, 1.90231, 1.89696, 1.89848, 1.89546, 1.90551, 1.86879, 1.77861, 1.73793, 1.67471, 1.64397, 1.60282, 1.6086, 1.62688, 1.6365, 1.62786, 1.63444, 1.62956, 1.62881, 1.62362, 1.63527, 1.62409, 1.61093, 1.61435, 1.60546, 1.61284, 1.61022, 1.59427, 1.60949, 1.59821, 1.59209, 1.59198, 1.59988, 1.59149, 1.59187, 1.58933, 1.58987, 1.58546, 1.5899, 1.58233, 1.5803, 1.57873, 1.57798, 1.57608, 1.57639, 1.58218, 1.57361, 1.59629, 1.57085, 1.57096, 1.5778, 1.58473, 1.58374, 1.57456, 1.58126, 1.5903, 1.58594, 1.5711, 1.57002, 1.56204, 1.55602, 1.55812, 1.55489, 1.55414, 1.55489, 1.54709, 1.5537, 1.54733, 1.54112, 1.55075, 1.54043, 1.54099, 1.53933, 1.54945, 1.56005, 1.56225, 1.55355, 1.55553, 1.53506, 1.53156, 1.55181, 1.53393, 1.5376, 1.53733, 1.52473, 1.53767, 1.52926, 1.53426, 1.52731, 1.53434, 1.52728, 1.53836, 1.53023, 1.52926, 1.50321, 1.51298, 1.5544, 1.58117, 1.61193, 1.62532, 1.67837, 1.6747, 1.67451, 1.67953, 1.68024, 1.6648, 1.65422, 1.65912, 1.59727, 1.58035, 1.56739, 1.54744, 1.48742, 1.46775, 1.46377, 1.48649, 1.49655, 1.50657, 1.48609, 1.49551, 1.50556, 1.50794, 1.50392, 1.50567, 1.4924, 1.49546, 1.48605, 1.47839, 1.47555, 1.47204, 1.47599, 1.47466, 1.46786, 1.46473, 1.46465, 1.47761, 1.45864, 1.45755, 1.4545, 1.45501, 1.45096, 1.45043, 1.4493, 1.44738, 1.44909, 1.44888, 1.4494, 1.4498, 1.44978, 1.45014, 1.44827, 1.44874, 1.48239, 1.44752, 1.45159, 1.44245, 1.44008, 1.43699, 1.43689, 1.43639, 1.43553, 1.43633, 1.43333, 1.4541, 1.44104, 1.42962, 1.46133, 1.42662, 1.42615, 1.42484, 1.43756, 1.42441, 1.43997, 1.42254, 1.42059, 1.41999, 1.41869, 1.41934, 1.41601, 1.41417, 1.41317, 1.41128, 1.4113, 1.40911, 1.40972, 1.40993, 1.40944, 1.40871, 1.40873, 1.40591, 1.40604, 1.41199, 1.40653, 1.40469, 1.42873, 1.4042, 1.40435, 1.40244, 1.4229, 1.39851, 1.39744, 1.40311, 1.42029, 1.39471, 1.39959, 1.39523, 1.39181, 1.39256, 1.40002, 1.3884, 1.39903, 1.3996, 1.41292, 1.39309, 1.39262, 1.40561, 1.37737, 1.37545, 1.3856, 1.43695, 1.4401, 1.49205, 1.46893, 1.47521, 1.50058, 1.52399, 1.5194, 1.54214, 1.56179, 1.55448, 1.5986, 1.52388, 1.5362, 1.4712, 1.47507, 1.44092, 1.38469, 1.33619, 1.34617, 1.37247, 1.37407, 1.3717, 1.36586, 1.37194, 1.37097, 1.36075, 1.36051, 1.36763, 1.364, 1.35469, 1.36302, 1.36559, 1.37497, 1.3546, 1.3468, 1.3481, 1.34728, 1.34683, 1.34686, 1.34719, 1.34205, 1.36112, 1.34146, 1.35782, 1.34389, 1.34239, 1.34078
1.6988, 1.67777, 1.67542, 1.67316, 1.67387, 1.67218, 1.67205, 1.66888, 1.66735, 1.66731, 1.6648, 1.66305, 1.66458, 1.67643, 1.65809, 1.65544, 1.65525, 1.6652, 1.659, 1.65901, 1.66199, 1.66459, 1.65833, 1.63544, 1.64764, 1.64069, 1.64437, 1.67724, 1.69239, 1.71476, 1.73861, 1.77633, 1.82734, 1.81985, 1.83503, 1.85166, 1.87302, 1.88894, 1.86984, 1.86766, 1.81404, 1.75707, 1.68916, 1.64163, 1.62535, 1.59829, 1.62267, 1.62139, 1.61515, 1.61168, 1.60977, 1.60768, 1.61796, 1.60214, 1.6024, 1.59977, 1.59818, 1.61503, 1.5954, 1.59617, 1.59617, 1.5877, 1.58576, 1.58586, 1.58446, 1.58243, 1.58225, 1.58091, 1.57894, 1.57959, 1.57925, 1.5796, 1.57679, 1.57515, 1.57509, 1.5716, 1.57498, 1.5666, 1.56508, 1.56816, 1.57116, 1.56421, 1.56327, 1.56084, 1.56078, 1.5595, 1.56975, 1.56881, 1.57558, 1.57435, 1.56835, 1.55486, 1.55266, 1.56015, 1.55618, 1.54176, 1.54247, 1.5371, 1.53429, 1.55166, 1.53468, 1.53331, 1.5329, 1.5626, 1.54035, 1.53165, 1.53094, 1.52805, 1.53691, 1.5263, 1.52629, 1.5245, 1.52428, 1.52325, 1.52006, 1.53088, 1.51649, 1.51624, 1.51697, 1.51929, 1.51504, 1.51744, 1.5241, 1.51678, 1.51454, 1.51078, 1.49574, 1.4997, 1.54059, 1.53925, 1.55462, 1.60117, 1.63858, 1.63435, 1.64409, 1.65518, 1.65479, 1.65216, 1.64723, 1.64073, 1.62857, 1.60844, 1.58014, 1.54457, 1.5277, 1.51611, 1.45565, 1.46105, 1.47955, 1.48147, 1.48501, 1.48543, 1.48557, 1.47604, 1.48325, 1.49175, 1.49297, 1.47986, 1.47546, 1.47642, 1.46632, 1.46621, 1.45801, 1.46346, 1.46155, 1.45392, 1.45071, 1.44977, 1.44755, 1.44461, 1.44426, 1.44311, 1.44398, 1.4444, 1.4433, 1.44294, 1.44303, 1.44166, 1.44161, 1.44143, 1.44023, 1.43947, 1.43951, 1.43806, 1.43695, 1.45119, 1.43549, 1.43502, 1.43378, 1.43252, 1.43175, 1.44036, 1.43041, 1.43131, 1.42983, 1.42852, 1.42685, 1.44727, 1.42554, 1.42608, 1.42581, 1.42109, 1.41975, 1.41921, 1.41854, 1.42656, 1.44788, 1.41924, 1.4138, 1.41669, 1.40969, 1.4076, 1.40659, 1.4047, 1.40182, 1.40138, 1.39924, 1.39906, 1.39753, 1.39945, 1.39593, 1.39562, 1.39409, 1.39426, 1.39184, 1.39213, 1.39264, 1.39146, 1.39045, 1.39243, 1.38993, 1.39002, 1.38922, 1.40844, 1.38802, 1.38763, 1.40232, 1.39569, 1.38645, 1.38513, 1.39333, 1.38346, 1.39668, 1.38926, 1.3882, 1.39197, 1.38547, 1.38731, 1.38829, 1.37454, 1.37886, 1.40499, 1.41054, 1.47168, 1.45088, 1.45966, 1.47534, 1.49409, 1.53588, 1.57813, 1.51638, 1.52138, 1.52381, 1.51641, 1.50081, 1.49571, 1.47574, 1.46956, 1.43088, 1.3658, 1.34548, 1.33602, 1.36466, 1.36171, 1.38603, 1.36275, 1.36123, 1.36389, 1.36103, 1.34748, 1.35749, 1.34292, 1.34008, 1.34098, 1.33828, 1.33857, 1.33744, 1.33636, 1.3447, 1.33735, 1.33771, 1.33672, 1.33786, 1.33842, 1.33544, 1.33754, 1.33421, 1.33529, 1.33602, 1.33609
1.67127, 1.67035, 1.67015, 1.67207, 1.67191, 1.66966, 1.67187, 1.68963, 1.67478, 1.66584, 1.66624, 1.65976, 1.65615, 1.65379, 1.66902, 1.65281, 1.64843, 1.64564, 1.64453, 1.65497, 1.64841, 1.64794, 1.65679, 1.65778, 1.6566, 1.61166, 1.6448, 1.66217, 1.6757, 1.69738, 1.73197, 1.75019, 1.77676, 1.80256, 1.82173, 1.83342, 1.84939, 1.84868, 1.84638, 1.82675, 1.77977, 1.75705, 1.69353, 1.65405, 1.61579, 1.59871, 1.60012, 1.611, 1.61168, 1.61974, 1.6135, 1.61221, 1.61794, 1.60068, 1.60297, 1.59807, 1.5899, 1.59156, 1.6069, 1.5822, 1.58275, 1.57855, 1.57697, 1.58221, 1.57289, 1.56995, 1.56885, 1.56599, 1.5659, 1.5648, 1.56642, 1.56823, 1.56875, 1.56854, 1.56804, 1.56507, 1.56351, 1.56886, 1.55745, 1.56847, 1.56345, 1.55766, 1.5594, 1.5575, 1.55731, 1.55732, 1.55871, 1.56194, 1.55959, 1.59013, 1.55391, 1.56726, 1.54829, 1.54699, 1.53774, 1.54099, 1.55369, 1.54731, 1.54088, 1.53102, 1.52857, 1.52989, 1.52652, 1.5403, 1.52487, 1.52309, 1.52457, 1.52063, 1.52755, 1.54417, 1.55152, 1.52678, 1.5269, 1.51801, 1.51976, 1.51072, 1.52005, 1.50674, 1.50579, 1.50442, 1.51064, 1.51542, 1.51442, 1.51701, 1.51169, 1.51552, 1.48244, 1.47334, 1.56516, 1.5383, 1.57457, 1.60668, 1.59231, 1.59974, 1.61342, 1.63414, 1.64012, 1.64025, 1.64001, 1.62448, 1.61595, 1.59646, 1.57263, 1.54784, 1.55849, 1.48091, 1.45681, 1.45231, 1.46365, 1.47217, 1.48876, 1.47286, 1.46971, 1.46531, 1.48743, 1.48597, 1.48944, 1.50211, 1.48469, 1.48195, 1.47279, 1.46458, 1.4513, 1.45381, 1.4511, 1.45146, 1.4543, 1.44096, 1.44106, 1.43974, 1.43875, 1.43812, 1.4398, 1.4379, 1.43872, 1.44066, 1.44199, 1.44307, 1.44347, 1.44247, 1.44192, 1.44035, 1.43814, 1.43502, 1.43268, 1.42964, 1.43024, 1.42727, 1.42697, 1.43328, 1.42841, 1.42631, 1.42221, 1.41854, 1.41705, 1.41739, 1.42025, 1.41632, 1.41756, 1.41795, 1.41849, 1.43836, 1.40993, 1.40911, 1.40843, 1.40378, 1.40928, 1.40179, 1.40112, 1.39925, 1.39804, 1.39577, 1.39759, 1.39891, 1.39748, 1.39792, 1.39386, 1.39221, 1.3897, 1.38607, 1.38466, 1.38745, 1.3876, 1.38864, 1.3874, 1.38538, 1.38485, 1.38435, 1.38208, 1.38745, 1.38273, 1.38447, 1.38542, 1.38748, 1.38025, 1.37945, 1.37798, 1.37723, 1.37514, 1.37448, 1.38323, 1.37401, 1.37399, 1.37487, 1.37907, 1.38374, 1.38259, 1.38059, 1.36907, 1.36801, 1.36116, 1.39277, 1.45975, 1.43046, 1.43071, 1.46089, 1.4578, 1.51187, 1.49513, 1.51466, 1.54536, 1.53173, 1.54992, 1.55483, 1.51978, 1.52312, 1.4952, 1.49442, 1.45213, 1.39961, 1.33322, 1.34669, 1.35733, 1.35101, 1.36191, 1.3607, 1.34825, 1.34168, 1.3471, 1.34041, 1.3414, 1.33946, 1.337, 1.33613, 1.33434, 1.3339, 1.34028, 1.35047, 1.33186, 1.33207, 1.33127, 1.33344, 1.3788, 1.36232, 1.33007, 1.33349, 1.33303, 1.32936, 1.32963, 1.32695
1.66851, 1.66808, 1.67607, 1.66459, 1.66508, 1.66518, 1.66513, 1.66121, 1.65902, 1.65657, 1.6626, 1.653, 1.65207, 1.65118, 1.65409, 1.64992, 1.64605, 1.64855, 1.64953, 1.65039, 1.64822, 1.64887, 1.647, 1.65283, 1.62601, 1.60854, 1.62275, 1.6413, 1.64928, 1.69631, 1.72057, 1.77299, 1.77769, 1.79962, 1.82831, 1.85057, 1.85227, 1.84544, 1.89674, 1.87385, 1.83919, 1.76169, 1.74339, 1.67509, 1.60066, 1.57872, 1.6004, 1.6101, 1.61984, 1.60531, 1.60031, 1.59654, 1.59555, 1.5955, 1.595, 1.59988, 1.59658, 1.58586, 1.58489, 1.58471, 1.59009, 1.59048, 1.57807, 1.57499, 1.59304, 1.57225, 1.56943, 1.56806, 1.5659, 1.56322, 1.56222, 1.56127, 1.5608, 1.5602, 1.56042, 1.56046, 1.55957, 1.55747, 1.55573, 1.55605, 1.55476, 1.55609, 1.55671, 1.55861, 1.55547, 1.55525, 1.55076, 1.56227, 1.56497, 1.55726, 1.56043, 1.55533, 1.57204, 1.5416, 1.54875, 1.53743, 1.53805, 1.55036, 1.54108, 1.53677, 1.52882, 1.529, 1.5408, 1.54642, 1.52477, 1.52416, 1.52156, 1.53534, 1.51785, 1.54544, 1.51621, 1.5105, 1.5093, 1.51459, 1.50611, 1.50372, 1.50276, 1.51333, 1.51559, 1.50043, 1.50606, 1.50289, 1.50674, 1.51046, 1.51368, 1.51521, 1.48315, 1.47439, 1.5085, 1.57849, 1.54472, 1.57805, 1.59327, 1.59865, 1.639, 1.64767, 1.64031, 1.6406, 1.62743, 1.62755, 1.60354, 1.62334, 1.59551, 1.5401, 1.51322, 1.48132, 1.46801, 1.45153, 1.47386, 1.47248, 1.47609, 1.47542, 1.48034, 1.48437, 1.47447, 1.49489, 1.48941, 1.4925, 1.49506, 1.48109, 1.45744, 1.44699, 1.45037, 1.45129, 1.4467, 1.44015, 1.44023, 1.43993, 1.44156, 1.45781, 1.43947, 1.43839, 1.43893, 1.43983, 1.44648, 1.43881, 1.44014, 1.43891, 1.43761, 1.43614, 1.43553, 1.43545, 1.43443, 1.43329, 1.43102, 1.44755, 1.43142, 1.42736, 1.42774, 1.42543, 1.42363, 1.42219, 1.42139, 1.41987, 1.41976, 1.42077, 1.42134, 1.4224, 1.4235, 1.42529, 1.42408, 1.4205, 1.41379, 1.41627, 1.40919, 1.4072, 1.44729, 1.40197, 1.41673, 1.40265, 1.39985, 1.39928, 1.39972, 1.39564, 1.39263, 1.39947, 1.40499, 1.38943, 1.38869, 1.38848, 1.38674, 1.38457, 1.38533, 1.38524, 1.38416, 1.38272, 1.38457, 1.38264, 1.38424, 1.40196, 1.38351, 1.38576, 1.38097, 1.40259, 1.3998, 1.37819, 1.39177, 1.37525, 1.39151, 1.38488, 1.37073, 1.38926, 1.38207, 1.37381, 1.38998, 1.39206, 1.38566, 1.38913, 1.38457, 1.34641, 1.34799, 1.39605, 1.40983, 1.45836, 1.43842, 1.44719, 1.45775, 1.44473, 1.48387, 1.50354, 1.56153, 1.62085, 1.56008, 1.57072, 1.54917, 1.52045, 1.50292, 1.47739, 1.45835, 1.39792, 1.33447, 1.34151, 1.36944, 1.36776, 1.36884, 1.36715, 1.35273, 1.35674, 1.35025, 1.34789, 1.34417, 1.35437, 1.33545, 1.33353, 1.35121, 1.33603, 1.33413, 1.333, 1.33278, 1.35573, 1.35995, 1.33433, 1.33077, 1.33034, 1.33097, 1.32959, 1.3296, 1.32574, 1.32537, 1.32367
1.68009, 1.67728, 1.67533, 1.67301, 1.67347, 1.67899, 1.67748, 1.66504, 1.68952, 1.66274, 1.66028, 1.67431, 1.66736, 1.656, 1.67303, 1.65276, 1.65329, 1.64786, 1.6539, 1.65366, 1.64674, 1.65404, 1.65738, 1.65885, 1.63772, 1.63485, 1.62504, 1.65953, 1.67144, 1.69706, 1.70033, 1.73128, 1.76256, 1.78431, 1.84252, 1.89661, 1.86915, 1.91026, 1.89696, 1.86683, 1.80954, 1.73179, 1.68575, 1.66204, 1.60706, 1.59025, 1.61617, 1.6097, 1.6166, 1.61743, 1.61989, 1.61922, 1.6093, 1.61718, 1.59622, 1.59773, 1.59582, 1.59165, 1.60594, 1.5881, 1.58829, 1.59367, 1.59511, 1.58436, 1.58678, 1.58352, 1.57693, 1.57681, 1.575, 1.5734, 1.58559, 1.56858, 1.57275, 1.59924, 1.56317, 1.56255, 1.56123, 1.56062, 1.5581, 1.56639, 1.55516, 1.55428, 1.55402, 1.55359, 1.55003, 1.55022, 1.54789, 1.54383, 1.55726, 1.54338, 1.5464, 1.56068, 1.54814, 1.55851, 1.55099, 1.55406, 1.54639, 1.54691, 1.53651, 1.54717, 1.54192, 1.54053, 1.53768, 1.52978, 1.52778, 1.52981, 1.52301, 1.54705, 1.55091, 1.51968, 1.5158, 1.51321, 1.5111, 1.51457, 1.51619, 1.5088, 1.50925, 1.50913, 1.50553, 1.50476, 1.51448, 1.50682, 1.51752, 1.51391, 1.51679, 1.51797, 1.50561, 1.49166, 1.4826, 1.52125, 1.54097, 1.6202, 1.60191, 1.61375, 1.61047, 1.65431, 1.65466, 1.65531, 1.64009, 1.63042, 1.60902, 1.59255, 1.56533, 1.54617, 1.52293, 1.51552, 1.4514, 1.46333, 1.47086, 1.49635, 1.49625, 1.48872, 1.47913, 1.47, 1.47501, 1.47206, 1.47985, 1.47422, 1.48213, 1.48238, 1.45759, 1.45418, 1.4613, 1.45207, 1.456, 1.44651, 1.45488, 1.45726, 1.44753, 1.44671, 1.44484, 1.445, 1.44554, 1.44852, 1.44328, 1.44228, 1.44114, 1.43685, 1.43789, 1.43635, 1.43744, 1.43475, 1.43184, 1.43099, 1.43144, 1.43223, 1.43089, 1.4302, 1.42841, 1.42694, 1.43691, 1.42573, 1.42441, 1.42423, 1.43252, 1.43028, 1.42366, 1.4271, 1.42072, 1.41791, 1.41579, 1.41647, 1.41664, 1.41156, 1.40998, 1.40917, 1.40822, 1.40625, 1.40496, 1.40191, 1.40299, 1.40026, 1.39971, 1.3973, 1.40195, 1.39578, 1.39478, 1.39962, 1.39185, 1.39252, 1.39076, 1.39021, 1.39012, 1.38949, 1.3886, 1.387, 1.38692, 1.38529, 1.39883, 1.38741, 1.38554, 1.38595, 1.40932, 1.3812, 1.38487, 1.37753, 1.37675, 1.38566, 1.37565, 1.38524, 1.40271, 1.38248, 1.38471, 1.39154, 1.37839, 1.37841, 1.39001, 1.38345, 1.38328, 1.36459, 1.33698, 1.35818, 1.38791, 1.3958, 1.41021, 1.4508, 1.44892, 1.48181, 1.38389, 1.51422, 1.51416, 1.52812, 1.55204, 1.5648, 1.56707, 1.55169, 1.53675, 1.50885, 1.42403, 1.37219, 1.37305, 1.35342, 1.36013, 1.36103, 1.3611, 1.36215, 1.37056, 1.35616, 1.35324, 1.35123, 1.34681, 1.34677, 1.36223, 1.35798, 1.33791, 1.33853, 1.33638, 1.33608, 1.33675, 1.33301, 1.33124, 1.34203, 1.33339, 1.20218, 1.35391, 1.32934, 1.34025, 1.33032, 1.3294, 1.32598
1.66538, 1.66595, 1.66572, 1.66385, 1.66343, 1.65974, 1.65561, 1.65527, 1.65278, 1.65146, 1.64927, 1.64763, 1.64515, 1.64408, 1.65096, 1.63969, 1.64361, 1.63678, 1.63392, 1.63183, 1.63127, 1.6444, 1.63386, 1.63834, 1.63788, 1.60972, 1.62091, 1.63311, 1.6611, 1.68698, 1.709, 1.72096, 1.74064, 1.77281, 1.86842, 1.86254, 1.87159, 1.90294, 1.88059, 1.83793, 1.83141, 1.75613, 1.71329, 1.66892, 1.56854, 1.54813, 1.57924, 1.59871, 1.60556, 1.59421, 1.59004, 1.58735, 1.58581, 1.59324, 1.58485, 1.58201, 1.58147, 1.57873, 1.57582, 1.57662, 1.59284, 1.57474, 1.57191, 1.57104, 1.57331, 1.56898, 1.59779, 1.56595, 1.56481, 1.56536, 1.5637, 1.56276, 1.56013, 1.55962, 1.55757, 1.55483, 1.55504, 1.55363, 1.55021, 1.54843, 1.54682, 1.56452, 1.56125, 1.56132, 1.5394, 1.53828, 1.53585, 1.53372, 1.54613, 1.53185, 1.54024, 1.52933, 1.5408, 1.55545, 1.54491, 1.55311, 1.53785, 1.53136, 1.53695, 1.53803, 1.52755, 1.52035, 1.51934, 1.51519, 1.51431, 1.51284, 1.51, 1.50934, 1.50729, 1.50685, 1.50536, 1.50489, 1.50459, 1.50252, 1.50221, 1.49716, 1.4971, 1.49571, 1.49394, 1.5068, 1.49418, 1.50051, 1.5047, 1.50299, 1.49978, 1.49364, 1.48753, 1.46988, 1.4972, 1.54702, 1.53068, 1.56397, 1.59726, 1.64491, 1.62163, 1.63437, 1.63289, 1.63707, 1.62889, 1.62706, 1.61524, 1.58847, 1.55832, 1.57529, 1.51704, 1.50208, 1.481, 1.44781, 1.45209, 1.46779, 1.47638, 1.47758, 1.47629, 1.47101, 1.4619, 1.45768, 1.47199, 1.47813, 1.47473, 1.47096, 1.47576, 1.45514, 1.45253, 1.44629, 1.44188, 1.4395, 1.44004, 1.44403, 1.43619, 1.43397, 1.43478, 1.43424, 1.43303, 1.43252, 1.43107, 1.43101, 1.42889, 1.42855, 1.4261, 1.42483, 1.42243, 1.4337, 1.42259, 1.41775, 1.41941, 1.41665, 1.41466, 1.41375, 1.41292, 1.42047, 1.40954, 1.4099, 1.40906, 1.40756, 1.40643, 1.40566, 1.40413, 1.40304, 1.40889, 1.40109, 1.39829, 1.39661, 1.39689, 1.39514, 1.39408, 1.39256, 1.39209, 1.39267, 1.3902, 1.39097, 1.391, 1.389, 1.39168, 1.38821, 1.38633, 1.38462, 1.38343, 1.38248, 1.38115, 1.38006, 1.38196, 1.3785, 1.37903, 1.37573, 1.37494, 1.37425, 1.37435, 1.37391, 1.37154, 1.37414, 1.36858, 1.36951, 1.36709, 1.36785, 1.36607, 1.36516, 1.37021, 1.36379, 1.36088, 1.36156, 1.36007, 1.35996, 1.36007, 1.35855, 1.35994, 1.35899, 1.38201, 1.37874, 1.34639, 1.33673, 1.34714, 1.3615, 1.35058, 1.38909, 1.39306, 1.42724, 1.41657, 1.46577, 1.46079, 1.51283, 1.51633, 1.51424, 1.51959, 1.55416, 1.57894, 1.56022, 1.48329, 1.46728, 1.43365, 1.37391, 1.3204, 1.31594, 1.34252, 1.34932, 1.34622, 1.33973, 1.33453, 1.34625, 1.33241, 1.32969, 1.32997, 1.32619, 1.32477, 1.33308, 1.32376, 1.32304, 1.31673, 1.3179, 1.32094, 1.31942, 1.31632, 1.31554, 1.31683, 1.31549, 1.31602, 1.31539, 1.31532, 1.31231, 1.32694, 1.31351
1.66485, 1.66478, 1.66445, 1.66305, 1.66081, 1.65735, 1.65482, 1.65359, 1.6503, 1.64785, 1.65039, 1.64489, 1.64147, 1.63995, 1.63782, 1.63392, 1.63291, 1.63003, 1.6297, 1.63424, 1.62511, 1.63989, 1.62654, 1.62583, 1.6107, 1.61022, 1.58232, 1.60226, 1.61469, 1.62298, 1.65728, 1.7077, 1.74395, 1.79051, 1.80332, 1.83147, 1.86847, 1.86576, 1.86697, 1.85704, 1.80708, 1.76957, 1.6892, 1.65637, 1.57261, 1.57258, 1.60349, 1.60696, 1.59757, 1.61252, 1.59078, 1.59224, 1.6012, 1.59692, 1.59562, 1.58441, 1.58168, 1.5786, 1.57807, 1.57539, 1.57439, 1.57287, 1.57161, 1.56895, 1.56844, 1.56656, 1.56678, 1.56452, 1.56442, 1.56259, 1.56193, 1.56166, 1.56042, 1.56022, 1.5572, 1.55635, 1.55482, 1.55497, 1.55095, 1.5486, 1.551, 1.54339, 1.5423, 1.55211, 1.53626, 1.53466, 1.54334, 1.54386, 1.52758, 1.52396, 1.52328, 1.52415, 1.53585, 1.54354, 1.54795, 1.5448, 1.54171, 1.52365, 1.54326, 1.53669, 1.53038, 1.52987, 1.52122, 1.51897, 1.51841, 1.51669, 1.50985, 1.51013, 1.51126, 1.50744, 1.50646, 1.50598, 1.50527, 1.50221, 1.50283, 1.5012, 1.49958, 1.49714, 1.49758, 1.49792, 1.5023, 1.49712, 1.49678, 1.50357, 1.50004, 1.49521, 1.4895, 1.46809, 1.48494, 1.48437, 1.56823, 1.56437, 1.5763, 1.62133, 1.6778, 1.642, 1.64811, 1.64516, 1.67163, 1.63049, 1.62019, 1.62148, 1.56429, 1.5484, 1.52749, 1.53464, 1.4798, 1.44022, 1.44177, 1.4548, 1.46525, 1.47063, 1.46385, 1.46969, 1.4618, 1.45338, 1.45411, 1.46806, 1.46268, 1.46491, 1.47083, 1.46966, 1.45121, 1.44463, 1.43981, 1.43813, 1.4366, 1.43466, 1.43306, 1.43202, 1.43123, 1.42945, 1.43012, 1.42928, 1.42857, 1.42675, 1.42595, 1.42338, 1.42075, 1.41975, 1.41745, 1.41732, 1.41468, 1.4138, 1.413, 1.41116, 1.41041, 1.4104, 1.40861, 1.40876, 1.40621, 1.4063, 1.40559, 1.40515, 1.40445, 1.40032, 1.39918, 1.39658, 1.39535, 1.39466, 1.39428, 1.39338, 1.39241, 1.39229, 1.39421, 1.39474, 1.39336, 1.39044, 1.39239, 1.39111, 1.39146, 1.39122, 1.39134, 1.38752, 1.38455, 1.38457, 1.38437, 1.38136, 1.37993, 1.37898, 1.37728, 1.37719, 1.37644, 1.38527, 1.37461, 1.37418, 1.37201, 1.37277, 1.37143, 1.371, 1.36795, 1.36659, 1.36795, 1.36316, 1.36152, 1.36232, 1.3628, 1.3613, 1.35908, 1.36868, 1.35906, 1.35636, 1.35666, 1.35688, 1.3538, 1.35472, 1.36793, 1.3626, 1.35785, 1.35189, 1.3342, 1.35639, 1.40969, 1.45732, 1.4365, 1.48462, 1.48616, 1.49104, 1.53655, 1.4972, 1.54667, 1.55394, 1.5551, 1.54784, 1.53737, 1.52476, 1.53795, 1.49126, 1.42506, 1.35106, 1.3363, 1.31975, 1.35061, 1.33648, 1.36084, 1.33702, 1.34821, 1.32865, 1.35967, 1.3245, 1.32345, 1.3223, 1.3215, 1.31999, 1.31953, 1.31989, 1.31974, 1.31883, 1.31773, 1.3187, 1.31644, 1.31633, 1.3155, 1.31669, 1.31551, 1.31558, 1.3131, 1.31405, 1.31168, 1.31176
1.65998, 1.65787, 1.65567, 1.65469, 1.65392, 1.65244, 1.65012, 1.64808, 1.6479, 1.64485, 1.64409, 1.64165, 1.6386, 1.6379, 1.63802, 1.63532, 1.63358, 1.63015, 1.62884, 1.62758, 1.62918, 1.64198, 1.62829, 1.63176, 1.62723, 1.60216, 1.59844, 1.61035, 1.6581, 1.71306, 1.70447, 1.72954, 1.74674, 1.76205, 1.86914, 1.85531, 1.87458, 1.88198, 1.89351, 1.88677, 1.85759, 1.79581, 1.73125, 1.64663, 1.59644, 1.57677, 1.57809, 1.59684, 1.59643, 1.59907, 1.59595, 1.59018, 1.58682, 1.58614, 1.5841, 1.58349, 1.57978, 1.57913, 1.57702, 1.57546, 1.57444, 1.57206, 1.5706, 1.57003, 1.56793, 1.56573, 1.56542, 1.56384, 1.56344, 1.56202, 1.56099, 1.5612, 1.56054, 1.56018, 1.55766, 1.55704, 1.55484, 1.55363, 1.55065, 1.55107, 1.54548, 1.54384, 1.54157, 1.54041, 1.53742, 1.53729, 1.53342, 1.53323, 1.53131, 1.53048, 1.52982, 1.52874, 1.53074, 1.53186, 1.54315, 1.55307, 1.54036, 1.53425, 1.52996, 1.53086, 1.51997, 1.51893, 1.5239, 1.51726, 1.5156, 1.51557, 1.51591, 1.51438, 1.51349, 1.51264, 1.51067, 1.51035, 1.50972, 1.51633, 1.50634, 1.50438, 1.50302, 1.50182, 1.50204, 1.49926, 1.49868, 1.49885, 1.50634, 1.50397, 1.50948, 1.50798, 1.49365, 1.49242, 1.477, 1.51688, 1.51572, 1.54073, 1.57655, 1.5752, 1.60152, 1.60481, 1.60435, 1.62801, 1.62273, 1.62723, 1.60695, 1.59281, 1.59623, 1.5576, 1.53844, 1.5015, 1.48823, 1.46715, 1.44806, 1.46288, 1.4714, 1.4737, 1.47428, 1.47591, 1.45831, 1.45712, 1.4616, 1.46767, 1.461, 1.47743, 1.47537, 1.47144, 1.47169, 1.46498, 1.44403, 1.44378, 1.44174, 1.44644, 1.44116, 1.44713, 1.44023, 1.43289, 1.43364, 1.43006, 1.42969, 1.42683, 1.42762, 1.42606, 1.42291, 1.42224, 1.41999, 1.41979, 1.41863, 1.41743, 1.41516, 1.41361, 1.41271, 1.41256, 1.41206, 1.41106, 1.40997, 1.40995, 1.40834, 1.40655, 1.4065, 1.40512, 1.40491, 1.40396, 1.40562, 1.4151, 1.40117, 1.40016, 1.39969, 1.39931, 1.39749, 1.39747, 1.3961, 1.39689, 1.39648, 1.39523, 1.39583, 1.39368, 1.39335, 1.39205, 1.38968, 1.38857, 1.38776, 1.38536, 1.38407, 1.38219, 1.37909, 1.37853, 1.37613, 1.37478, 1.37366, 1.37297, 1.37208, 1.37127, 1.37083, 1.37137, 1.37151, 1.36886, 1.36862, 1.36811, 1.36739, 1.36516, 1.36492, 1.36343, 1.36353, 1.36084, 1.36056, 1.36007, 1.35834, 1.36047, 1.35971, 1.36583, 1.3602, 1.38331, 1.37747, 1.34467, 1.33666, 1.37297, 1.37847, 1.44995, 1.44537, 1.46089, 1.46505, 1.47503, 1.50933, 1.50073, 1.52286, 1.52774, 1.53012, 1.52773, 1.52006, 1.50753, 1.48427, 1.46676, 1.40269, 1.37378, 1.3328, 1.32723, 1.34034, 1.34113, 1.33957, 1.3411, 1.34087, 1.33955, 1.32534, 1.32688, 1.3291, 1.32634, 1.32372, 1.32226, 1.32191, 1.32059, 1.31901, 1.31929, 1.31862, 1.31868, 1.31741, 1.31836, 1.31747, 1.3162, 1.31987, 1.31568, 1.31442, 1.3156, 1.31277, 1.31377
1.65531, 1.6542, 1.65103, 1.6518, 1.6488, 1.64876, 1.66021, 1.65058, 1.64252, 1.64253, 1.64149, 1.65522, 1.63649, 1.63455, 1.6356, 1.63498, 1.63409, 1.63536, 1.63426, 1.63424, 1.63424, 1.63282, 1.63313, 1.63703, 1.63289, 1.62417, 1.59629, 1.609, 1.66763, 1.67498, 1.71153, 1.72957, 1.78976, 1.78213, 1.83411, 1.84119, 1.9007, 1.90107, 1.91033, 1.91339, 1.86503, 1.80409, 1.72175, 1.65575, 1.59306, 1.5728, 1.6, 1.59678, 1.59972, 1.5975, 1.59654, 1.60033, 1.59135, 1.5877, 1.58537, 1.58205, 1.58065, 1.57884, 1.57693, 1.57634, 1.57394, 1.57248, 1.56902, 1.56674, 1.56461, 1.56299, 1.56811, 1.5687, 1.55405, 1.5523, 1.55004, 1.55258, 1.55519, 1.55682, 1.55601, 1.55614, 1.56449, 1.55852, 1.55025, 1.54944, 1.55426, 1.54565, 1.54331, 1.54795, 1.54078, 1.54439, 1.53805, 1.54821, 1.5371, 1.53544, 1.53196, 1.55742, 1.5405, 1.54324, 1.5349, 1.53404, 1.55726, 1.54413, 1.5494, 1.55164, 1.53527, 1.52302, 1.52143, 1.51816, 1.53103, 1.52275, 1.51622, 1.51918, 1.51345, 1.5138, 1.51257, 1.51083, 1.51101, 1.50913, 1.51003, 1.53286, 1.5053, 1.50503, 1.50108, 1.5007, 1.49852, 1.49999, 1.50084, 1.50055, 1.50024, 1.51359, 1.4889, 1.47136, 1.47164, 1.4897, 1.50833, 1.53293, 1.53387, 1.57634, 1.59689, 1.60377, 1.60908, 1.62709, 1.65485, 1.62291, 1.61458, 1.598, 1.60317, 1.55959, 1.5434, 1.48639, 1.48104, 1.46576, 1.44503, 1.46218, 1.47727, 1.46624, 1.46183, 1.46366, 1.46429, 1.45385, 1.46113, 1.455, 1.4552, 1.46006, 1.4656, 1.47929, 1.48128, 1.46605, 1.45277, 1.44322, 1.45166, 1.44201, 1.44074, 1.44346, 1.44545, 1.43468, 1.43338, 1.44494, 1.43222, 1.44027, 1.43754, 1.42825, 1.42792, 1.42625, 1.42504, 1.42763, 1.42401, 1.42283, 1.42203, 1.42022, 1.41874, 1.41829, 1.41531, 1.41593, 1.41644, 1.41524, 1.41286, 1.41286, 1.42078, 1.41064, 1.40901, 1.40994, 1.40962, 1.40823, 1.40748, 1.40606, 1.40587, 1.40398, 1.40321, 1.40131, 1.40118, 1.40126, 1.40273, 1.39957, 1.40013, 1.39753, 1.39527, 1.39455, 1.39428, 1.39117, 1.40631, 1.38964, 1.38561, 1.40941, 1.41227, 1.38398, 1.38106, 1.38145, 1.38094, 1.38043, 1.37857, 1.37782, 1.3775, 1.38453, 1.37535, 1.37524, 1.37263, 1.37152, 1.37166, 1.36978, 1.38477, 1.38608, 1.38016, 1.36535, 1.37802, 1.36401, 1.36412, 1.36266, 1.37808, 1.3728, 1.37526, 1.38171, 1.37395, 1.38531, 1.35814, 1.35763, 1.39893, 1.39193, 1.44137, 1.44734, 1.45118, 1.46306, 1.50348, 1.50155, 1.53329, 1.53083, 1.55075, 1.54489, 1.54396, 1.51612, 1.50703, 1.46753, 1.42933, 1.36576, 1.34118, 1.31748, 1.33486, 1.34448, 1.34615, 1.34691, 1.34269, 1.33184, 1.32753, 1.3267, 1.32649, 1.32632, 1.32369, 1.33315, 1.33007, 1.32625, 1.32552, 1.32263, 1.32214, 1.32295, 1.32247, 1.32062, 1.3201, 1.31674, 1.3175, 1.31624, 1.31734, 1.31574, 1.3516, 1.31713
1.65681, 1.65316, 1.65268, 1.65514, 1.65332, 1.66467, 1.65865, 1.64734, 1.64503, 1.63901, 1.63689, 1.63845, 1.64058, 1.63855, 1.64205, 1.63282, 1.63352, 1.63395, 1.63545, 1.6346, 1.63544, 1.63414, 1.63563, 1.63084, 1.63024, 1.63711, 1.61667, 1.61596, 1.64517, 1.65848, 1.69988, 1.70312, 1.75289, 1.7959, 1.84145, 1.86918, 1.88739, 1.88511, 1.88574, 1.90932, 1.83943, 1.81016, 1.74241, 1.64413, 1.59283, 1.56481, 1.58343, 1.59808, 1.59838, 1.59572, 1.59003, 1.59305, 1.59352, 1.58368, 1.5818, 1.57978, 1.5784, 1.57616, 1.57478, 1.57276, 1.56917, 1.58481, 1.58652, 1.56797, 1.56553, 1.56283, 1.56171, 1.56162, 1.55655, 1.55295, 1.55398, 1.55506, 1.55749, 1.55839, 1.55739, 1.55692, 1.55458, 1.55365, 1.55256, 1.54602, 1.54437, 1.5436, 1.54163, 1.54038, 1.5391, 1.53749, 1.53668, 1.53353, 1.53286, 1.53282, 1.53244, 1.53064, 1.52926, 1.53775, 1.5229, 1.53276, 1.53095, 1.54505, 1.54096, 1.55207, 1.53414, 1.5329, 1.51705, 1.51446, 1.52083, 1.51169, 1.51282, 1.52019, 1.51035, 1.51209, 1.50351, 1.51151, 1.50271, 1.50174, 1.49905, 1.50029, 1.4987, 1.49701, 1.49608, 1.495, 1.49782, 1.5027, 1.50013, 1.50641, 1.49704, 1.51681, 1.49947, 1.47006, 1.4697, 1.48098, 1.51585, 1.51685, 1.57584, 1.5811, 1.60256, 1.60226, 1.61348, 1.6134, 1.61215, 1.61699, 1.59951, 1.58743, 1.56809, 1.55149, 1.54064, 1.55008, 1.51262, 1.44287, 1.45335, 1.45876, 1.46672, 1.45959, 1.4592, 1.46835, 1.45016, 1.44703, 1.46265, 1.4451, 1.44459, 1.46572, 1.46412, 1.46898, 1.47928, 1.47214, 1.47161, 1.44123, 1.43963, 1.44361, 1.43462, 1.43402, 1.43333, 1.43169, 1.45177, 1.46123, 1.44084, 1.42697, 1.42663, 1.42658, 1.43413, 1.42769, 1.42664, 1.42596, 1.42345, 1.42235, 1.42168, 1.41989, 1.41826, 1.41427, 1.41075, 1.41195, 1.4135, 1.41219, 1.41259, 1.41246, 1.42782, 1.40892, 1.40933, 1.40741, 1.40839, 1.40796, 1.40778, 1.40681, 1.40631, 1.40485, 1.40303, 1.40196, 1.39957, 1.39876, 1.40657, 1.41179, 1.39525, 1.39908, 1.39123, 1.39128, 1.38931, 1.38878, 1.38946, 1.38774, 1.38461, 1.38364, 1.38271, 1.37884, 1.37756, 1.3749, 1.3765, 1.37612, 1.37559, 1.37407, 1.37561, 1.37322, 1.37319, 1.37101, 1.37319, 1.36987, 1.37043, 1.3692, 1.3696, 1.38231, 1.36802, 1.36587, 1.37738, 1.3645, 1.37037, 1.3625, 1.35872, 1.36128, 1.37684, 1.37256, 1.37332, 1.36691, 1.34766, 1.34761, 1.386, 1.44838, 1.47162, 1.478, 1.47559, 1.48534, 1.48644, 1.51896, 1.5331, 1.57365, 1.55971, 1.56512, 1.55689, 1.54995, 1.51075, 1.47167, 1.42564, 1.40189, 1.36155, 1.33771, 1.34828, 1.34113, 1.35, 1.34731, 1.33821, 1.34017, 1.32984, 1.33625, 1.32599, 1.3261, 1.32558, 1.32492, 1.32324, 1.32301, 1.32325, 1.3232, 1.32574, 1.32083, 1.34469, 1.32187, 1.31965, 1.31828, 1.31666, 1.31925, 1.31006, 1.30944, 1.30884, 1.31085
1.66371, 1.66039, 1.65895, 1.66136, 1.66119, 1.66238, 1.65616, 1.65466, 1.66898, 1.64618, 1.64455, 1.64456, 1.66469, 1.64418, 1.64073, 1.64081, 1.63634, 1.63499, 1.63496, 1.64448, 1.63307, 1.63453, 1.63313, 1.63395, 1.63123, 1.64021, 1.60474, 1.60341, 1.64086, 1.68332, 1.69531, 1.72114, 1.78444, 1.79746, 1.83375, 1.86816, 1.86304, 1.89708, 1.91625, 1.92829, 1.89501, 1.84622, 1.73819, 1.7164, 1.6096, 1.56796, 1.56834, 1.60615, 1.59863, 1.59792, 1.59958, 1.60206, 1.58717, 1.58585, 1.58445, 1.58301, 1.58225, 1.57909, 1.57763, 1.57499, 1.57542, 1.57155, 1.56946, 1.56893, 1.56564, 1.56351, 1.56315, 1.56012, 1.56068, 1.55942, 1.55818, 1.56148, 1.55844, 1.56141, 1.55741, 1.55567, 1.55479, 1.55068, 1.54913, 1.5476, 1.54689, 1.54694, 1.54465, 1.54387, 1.54139, 1.54004, 1.53895, 1.53745, 1.53591, 1.53419, 1.53257, 1.53732, 1.52988, 1.52879, 1.52734, 1.5266, 1.52626, 1.54198, 1.5474, 1.5378, 1.53632, 1.52919, 1.51962, 1.51615, 1.52325, 1.51466, 1.51035, 1.50971, 1.51968, 1.50568, 1.50631, 1.50419, 1.50964, 1.50426, 1.5106, 1.52044, 1.49912, 1.49674, 1.49483, 1.49441, 1.4937, 1.49306, 1.50261, 1.50186, 1.50293, 1.4974, 1.50343, 1.47615, 1.48436, 1.53279, 1.50072, 1.54129, 1.55151, 1.53752, 1.55124, 1.58192, 1.58991, 1.59872, 1.60953, 1.58133, 1.59705, 1.61039, 1.57879, 1.55853, 1.54578, 1.51267, 1.50004, 1.46089, 1.43956, 1.4473, 1.46496, 1.46138, 1.46862, 1.45735, 1.45542, 1.44631, 1.45002, 1.45551, 1.45415, 1.44586, 1.44682, 1.46181, 1.4635, 1.47729, 1.46148, 1.46461, 1.46047, 1.44054, 1.43701, 1.4344, 1.43285, 1.43042, 1.43826, 1.44072, 1.42641, 1.42645, 1.42628, 1.42606, 1.42688, 1.42462, 1.42378, 1.423, 1.42196, 1.42006, 1.42056, 1.41853, 1.416, 1.41457, 1.41421, 1.41237, 1.41195, 1.41179, 1.40995, 1.40916, 1.4088, 1.40726, 1.40685, 1.4052, 1.40314, 1.40332, 1.40359, 1.40495, 1.40224, 1.40023, 1.40052, 1.39911, 1.39661, 1.39521, 1.39505, 1.39348, 1.39183, 1.39092, 1.38891, 1.38855, 1.38642, 1.3861, 1.38454, 1.38352, 1.38144, 1.38088, 1.37894, 1.37733, 1.37565, 1.37461, 1.3752, 1.37639, 1.37399, 1.37207, 1.37202, 1.37119, 1.371, 1.37177, 1.36986, 1.36876, 1.37051, 1.36852, 1.36847, 1.37467, 1.36748, 1.36621, 1.36653, 1.36488, 1.36412, 1.36589, 1.37017, 1.37543, 1.37767, 1.38197, 1.37517, 1.38875, 1.37547, 1.34379, 1.37162, 1.40001, 1.44433, 1.45242, 1.45685, 1.47632, 1.49502, 1.50378, 1.52942, 1.54525, 1.54964, 1.5447, 1.53486, 1.52518, 1.50152, 1.4448, 1.41973, 1.39993, 1.3513, 1.33073, 1.34685, 1.34255, 1.35568, 1.34765, 1.3458, 1.35081, 1.35045, 1.32994, 1.32897, 1.32735, 1.32757, 1.32776, 1.32677, 1.32817, 1.33844, 1.3257, 1.32304, 1.32233, 1.33712, 1.32123, 1.32201, 1.32204, 1.31951, 1.317, 1.32374, 1.31722, 1.31477, 1.31287
1.67169, 1.66701, 1.66616, 1.6646, 1.66421, 1.66141, 1.662, 1.65953, 1.68217, 1.66153, 1.66773, 1.6507, 1.6487, 1.64685, 1.65107, 1.65803, 1.64343, 1.64037, 1.63913, 1.63788, 1.635, 1.64248, 1.6408, 1.64096, 1.64102, 1.63054, 1.62072, 1.61027, 1.62196, 1.64362, 1.67413, 1.69423, 1.72037, 1.77864, 1.79941, 1.82754, 1.86154, 1.87658, 1.87684, 1.87205, 1.84193, 1.81588, 1.81069, 1.63804, 1.61725, 1.58424, 1.5806, 1.60017, 1.60308, 1.61088, 1.60049, 1.5961, 1.60819, 1.60037, 1.5855, 1.59722, 1.58109, 1.5793, 1.58577, 1.57598, 1.58127, 1.57879, 1.57151, 1.58849, 1.57223, 1.57592, 1.56881, 1.5668, 1.56564, 1.56462, 1.56209, 1.56144, 1.56063, 1.56464, 1.55932, 1.5571, 1.55485, 1.55316, 1.5514, 1.55052, 1.54867, 1.54738, 1.5491, 1.54998, 1.54361, 1.54232, 1.54877, 1.53791, 1.53481, 1.53478, 1.53314, 1.53244, 1.53062, 1.52982, 1.52931, 1.54441, 1.53168, 1.53537, 1.53781, 1.55514, 1.54028, 1.53308, 1.53195, 1.51965, 1.54075, 1.51278, 1.51146, 1.52659, 1.51261, 1.50858, 1.51206, 1.50607, 1.50537, 1.50429, 1.50066, 1.51056, 1.50104, 1.49553, 1.49556, 1.49869, 1.50225, 1.49555, 1.50291, 1.51707, 1.50987, 1.49911, 1.49524, 1.46497, 1.46522, 1.47742, 1.47889, 1.5177, 1.52365, 1.54907, 1.56591, 1.59522, 1.62046, 1.6087, 1.63868, 1.60459, 1.60219, 1.59506, 1.57687, 1.57554, 1.53547, 1.52792, 1.52303, 1.44303, 1.46463, 1.45075, 1.46629, 1.46065, 1.45938, 1.46376, 1.46016, 1.45065, 1.45155, 1.44693, 1.4596, 1.44769, 1.46724, 1.45462, 1.44739, 1.46182, 1.46552, 1.4666, 1.45821, 1.44364, 1.43851, 1.44611, 1.44901, 1.44337, 1.44095, 1.44719, 1.43082, 1.42785, 1.43441, 1.42632, 1.42562, 1.42515, 1.42461, 1.42307, 1.42236, 1.42253, 1.42049, 1.41945, 1.41979, 1.41559, 1.4151, 1.41475, 1.41374, 1.41243, 1.41232, 1.40893, 1.40818, 1.4073, 1.40426, 1.40614, 1.40527, 1.40402, 1.4093, 1.40246, 1.40793, 1.39922, 1.3985, 1.39613, 1.39627, 1.39492, 1.394, 1.39277, 1.39487, 1.39521, 1.3899, 1.38784, 1.38666, 1.38585, 1.38522, 1.38406, 1.38352, 1.38195, 1.38125, 1.3804, 1.37895, 1.37826, 1.37692, 1.3779, 1.37566, 1.375, 1.37562, 1.37511, 1.37347, 1.37482, 1.37303, 1.37267, 1.36994, 1.37066, 1.37094, 1.36857, 1.36772, 1.36807, 1.368, 1.36623, 1.3661, 1.36279, 1.37079, 1.37784, 1.37232, 1.37458, 1.36696, 1.37521, 1.3447, 1.34797, 1.37147, 1.39305, 1.41399, 1.44877, 1.45228, 1.46994, 1.50812, 1.51975, 1.53149, 1.55456, 1.56966, 1.57671, 1.55374, 1.55921, 1.5271, 1.49755, 1.46532, 1.4462, 1.35086, 1.34493, 1.34863, 1.34543, 1.34659, 1.35194, 1.35009, 1.34156, 1.33845, 1.34836, 1.34368, 1.33738, 1.33259, 1.33361, 1.32948, 1.3303, 1.32918, 1.32697, 1.33054, 1.34092, 1.3427, 1.32449, 1.34382, 1.32281, 1.32248, 1.32047, 1.31965, 1.31946, 1.31764, 1.31397
1.66495, 1.66477, 1.66394, 1.6642, 1.67916, 1.66035, 1.65758, 1.65485, 1.65161, 1.65086, 1.65102, 1.64937, 1.6458, 1.64384, 1.6649, 1.64263, 1.64018, 1.63764, 1.63732, 1.63659, 1.63327, 1.63238, 1.63225, 1.65562, 1.63291, 1.63819, 1.60344, 1.59708, 1.62921, 1.65451, 1.67915, 1.69384, 1.71033, 1.73828, 1.77979, 1.82556, 1.85518, 1.88667, 1.85786, 1.91172, 1.9094, 1.78915, 1.73487, 1.67764, 1.62031, 1.58256, 1.57101, 1.60365, 1.60278, 1.59445, 1.59672, 1.59097, 1.5859, 1.58578, 1.58212, 1.58008, 1.57698, 1.57888, 1.58275, 1.57235, 1.56961, 1.56867, 1.56715, 1.56527, 1.56536, 1.56505, 1.56509, 1.56502, 1.56198, 1.56091, 1.55971, 1.55901, 1.55771, 1.55687, 1.55733, 1.55408, 1.55298, 1.55184, 1.55125, 1.55048, 1.5501, 1.54749, 1.54569, 1.54335, 1.54147, 1.5434, 1.53757, 1.53542, 1.53652, 1.53404, 1.53322, 1.5315, 1.5306, 1.52866, 1.52665, 1.52536, 1.52481, 1.53062, 1.52522, 1.54368, 1.53753, 1.52687, 1.52796, 1.53096, 1.5168, 1.50984, 1.50795, 1.50609, 1.50877, 1.50626, 1.50422, 1.50306, 1.50252, 1.50055, 1.5009, 1.50741, 1.4979, 1.50245, 1.4954, 1.49397, 1.49478, 1.50192, 1.49464, 1.49819, 1.50348, 1.50633, 1.49691, 1.46405, 1.46359, 1.52754, 1.5244, 1.52308, 1.5277, 1.56142, 1.59546, 1.59324, 1.60348, 1.60392, 1.6027, 1.62062, 1.58521, 1.58378, 1.5959, 1.5216, 1.51495, 1.50687, 1.48843, 1.4699, 1.44887, 1.44678, 1.45797, 1.47026, 1.46806, 1.46432, 1.45491, 1.45812, 1.45406, 1.46424, 1.44664, 1.46133, 1.46449, 1.45415, 1.45462, 1.45517, 1.45986, 1.46484, 1.45642, 1.45727, 1.44619, 1.4437, 1.44741, 1.44083, 1.4326, 1.42747, 1.42613, 1.42566, 1.42559, 1.42399, 1.42347, 1.42298, 1.42253, 1.42079, 1.42031, 1.41827, 1.41803, 1.41666, 1.41621, 1.41611, 1.41334, 1.41256, 1.41206, 1.41205, 1.40941, 1.41021, 1.41069, 1.41006, 1.40925, 1.40739, 1.40617, 1.4055, 1.40299, 1.40114, 1.39939, 1.39848, 1.39753, 1.39628, 1.39676, 1.39576, 1.39817, 1.39118, 1.38974, 1.39151, 1.3894, 1.38807, 1.38576, 1.38451, 1.38275, 1.38133, 1.3807, 1.3811, 1.38187, 1.38056, 1.37998, 1.37727, 1.37638, 1.3757, 1.37441, 1.3735, 1.37281, 1.37298, 1.37296, 1.37262, 1.37383, 1.37134, 1.37185, 1.37083, 1.38593, 1.38919, 1.36512, 1.36304, 1.36384, 1.36126, 1.3609, 1.36131, 1.35805, 1.35693, 1.35959, 1.36213, 1.36781, 1.36371, 1.34183, 1.33549, 1.36887, 1.39247, 1.40419, 1.44721, 1.462, 1.4963, 1.50419, 1.51999, 1.54287, 1.56933, 1.56716, 1.55761, 1.55224, 1.53255, 1.50487, 1.47718, 1.48827, 1.44997, 1.35, 1.31203, 1.35742, 1.35783, 1.34674, 1.34537, 1.34542, 1.35712, 1.35533, 1.3382, 1.33729, 1.33761, 1.3345, 1.33409, 1.3349, 1.3473, 1.33082, 1.33108, 1.32925, 1.32937, 1.32534, 1.32364, 1.32413, 1.3221, 1.32164, 1.32029, 1.31894, 1.31808, 1.31728, 1.3156
1.66344, 1.66138, 1.66225, 1.66092, 1.65802, 1.65604, 1.65503, 1.65439, 1.65386, 1.65862, 1.64874, 1.64734, 1.64549, 1.64382, 1.64189, 1.64169, 1.63898, 1.63842, 1.63788, 1.63587, 1.63496, 1.63351, 1.644, 1.64403, 1.64167, 1.63669, 1.6238, 1.60236, 1.60842, 1.64401, 1.65823, 1.71684, 1.70638, 1.76439, 1.7762, 1.79672, 1.83875, 1.86968, 1.92086, 2.01682, 1.97754, 1.87631, 1.69708, 1.69182, 1.58311, 1.57414, 1.59169, 1.59519, 1.59647, 1.59875, 1.59276, 1.58899, 1.58641, 1.58531, 1.58228, 1.5821, 1.57913, 1.57801, 1.57491, 1.57413, 1.57302, 1.58014, 1.58912, 1.57151, 1.57421, 1.57141, 1.5689, 1.56736, 1.56764, 1.56195, 1.55946, 1.56007, 1.56073, 1.5594, 1.55676, 1.55491, 1.55354, 1.55257, 1.55074, 1.55016, 1.54987, 1.54748, 1.54502, 1.54305, 1.54281, 1.54157, 1.54015, 1.53851, 1.53659, 1.53455, 1.53298, 1.53188, 1.53045, 1.52931, 1.5418, 1.5256, 1.52417, 1.52382, 1.5249, 1.52731, 1.52723, 1.52928, 1.53638, 1.53124, 1.53686, 1.52575, 1.51383, 1.51653, 1.51058, 1.51053, 1.50827, 1.50724, 1.5057, 1.50486, 1.50502, 1.50247, 1.50211, 1.50025, 1.49962, 1.49916, 1.49854, 1.50688, 1.49672, 1.50163, 1.49693, 1.49897, 1.48617, 1.46853, 1.49718, 1.46873, 1.50642, 1.52504, 1.52502, 1.56831, 1.57518, 1.59703, 1.59233, 1.57954, 1.58877, 1.59633, 1.59037, 1.59963, 1.58471, 1.57745, 1.53544, 1.57159, 1.53231, 1.47816, 1.46427, 1.4644, 1.46274, 1.47556, 1.46622, 1.47552, 1.45865, 1.45734, 1.45759, 1.44939, 1.44787, 1.44718, 1.44676, 1.44598, 1.44477, 1.46721, 1.45029, 1.45803, 1.45741, 1.461, 1.46431, 1.44514, 1.43635, 1.43697, 1.43264, 1.43661, 1.42815, 1.42648, 1.42587, 1.42528, 1.42468, 1.42213, 1.4221, 1.42118, 1.41959, 1.41869, 1.41878, 1.41893, 1.4189, 1.42383, 1.41475, 1.41454, 1.41286, 1.41346, 1.41268, 1.41233, 1.41063, 1.4095, 1.40892, 1.4077, 1.40634, 1.4049, 1.40453, 1.4031, 1.40288, 1.40109, 1.39899, 1.39824, 1.39639, 1.39548, 1.39501, 1.39189, 1.3922, 1.38993, 1.39001, 1.38777, 1.38496, 1.3846, 1.38377, 1.38211, 1.38187, 1.37946, 1.37991, 1.37864, 1.37751, 1.3776, 1.37743, 1.37643, 1.37531, 1.37412, 1.37223, 1.37246, 1.37352, 1.37206, 1.371, 1.37106, 1.36947, 1.37372, 1.36679, 1.36712, 1.36691, 1.36423, 1.3643, 1.36288, 1.36032, 1.35863, 1.3574, 1.35747, 1.35749, 1.37693, 1.36586, 1.36954, 1.36459, 1.33713, 1.33827, 1.38879, 1.38239, 1.43725, 1.44029, 1.46344, 1.50455, 1.54648, 1.54174, 1.56229, 1.5766, 1.47443, 1.56968, 1.53578, 1.50596, 1.50226, 1.43051, 1.40101, 1.36036, 1.3058, 1.33068, 1.35074, 1.35031, 1.34884, 1.34971, 1.34425, 1.34225, 1.34851, 1.33863, 1.33825, 1.33581, 1.33337, 1.33371, 1.33108, 1.33223, 1.33325, 1.32965, 1.32969, 1.32789, 1.32811, 1.32605, 1.32509, 1.32453, 1.32186, 1.32341, 1.32073, 1.31937, 1.31896
1.66376, 1.66122, 1.66026, 1.6581, 1.65749, 1.65448, 1.65415, 1.65259, 1.64934, 1.64692, 1.64531, 1.65202, 1.64431, 1.64177, 1.64042, 1.65197, 1.6588, 1.63798, 1.63678, 1.65228, 1.63541, 1.64896, 1.63425, 1.64607, 1.6413, 1.6404, 1.64085, 1.61296, 1.61282, 1.63678, 1.66361, 1.70348, 1.71009, 1.75114, 1.76141, 1.80654, 1.84339, 1.8574, 1.90682, 1.91827, 1.91249, 1.85621, 1.75501, 1.7137, 1.6464, 1.57595, 1.5759, 1.61147, 1.60909, 1.6011, 1.60061, 1.59993, 1.5911, 1.58944, 1.58793, 1.60051, 1.59751, 1.59031, 1.57958, 1.58535, 1.58887, 1.57635, 1.58935, 1.5727, 1.58941, 1.57974, 1.56912, 1.57838, 1.56661, 1.56556, 1.56372, 1.56284, 1.56144, 1.56133, 1.55897, 1.55787, 1.55662, 1.5552, 1.56039, 1.55381, 1.55064, 1.55038, 1.54886, 1.54765, 1.54726, 1.54489, 1.5432, 1.54191, 1.5403, 1.5382, 1.53656, 1.53507, 1.53349, 1.5303, 1.52824, 1.52891, 1.52702, 1.5342, 1.52446, 1.52413, 1.54028, 1.53091, 1.53733, 1.52306, 1.53381, 1.52321, 1.53852, 1.51664, 1.52667, 1.53739, 1.53771, 1.52046, 1.53011, 1.51141, 1.52071, 1.51287, 1.50628, 1.50414, 1.5021, 1.51367, 1.50546, 1.5095, 1.50187, 1.51193, 1.51309, 1.50508, 1.5049, 1.49161, 1.47012, 1.48437, 1.51101, 1.56891, 1.52616, 1.56236, 1.58597, 1.60483, 1.63722, 1.63016, 1.59875, 1.59649, 1.59081, 1.58395, 1.58997, 1.56018, 1.53675, 1.52578, 1.48814, 1.49154, 1.45484, 1.47099, 1.46075, 1.47529, 1.47611, 1.47588, 1.46719, 1.46755, 1.45545, 1.45182, 1.45251, 1.45071, 1.44997, 1.44775, 1.44818, 1.44655, 1.44719, 1.44576, 1.45088, 1.4612, 1.46204, 1.45908, 1.45682, 1.43789, 1.44098, 1.43245, 1.43127, 1.43024, 1.42935, 1.42897, 1.42756, 1.42565, 1.4254, 1.42303, 1.42282, 1.42179, 1.42052, 1.41942, 1.42002, 1.42063, 1.41962, 1.42219, 1.41723, 1.41625, 1.41477, 1.41377, 1.41339, 1.41119, 1.41086, 1.40868, 1.40633, 1.40532, 1.4038, 1.40313, 1.40241, 1.40076, 1.39889, 1.39887, 1.39652, 1.39555, 1.3973, 1.39169, 1.39221, 1.39285, 1.3923, 1.38849, 1.38809, 1.3866, 1.38567, 1.38445, 1.38405, 1.38271, 1.38004, 1.3797, 1.37732, 1.37724, 1.3769, 1.37497, 1.37378, 1.37285, 1.37318, 1.37443, 1.37245, 1.37296, 1.3711, 1.37077, 1.36768, 1.36537, 1.36798, 1.36757, 1.36754, 1.36397, 1.36597, 1.37815, 1.36182, 1.36184, 1.36305, 1.36514, 1.36263, 1.36321, 1.36387, 1.3748, 1.36824, 1.33587, 1.34735, 1.3759, 1.42675, 1.43082, 1.44057, 1.46958, 1.48182, 1.50325, 1.55181, 1.56417, 1.58666, 1.59752, 1.59967, 1.55151, 1.48135, 1.49269, 1.43707, 1.40196, 1.32754, 1.32658, 1.36158, 1.35343, 1.34822, 1.35118, 1.34361, 1.34672, 1.34749, 1.36598, 1.35301, 1.34194, 1.33528, 1.33265, 1.33322, 1.3306, 1.33224, 1.33209, 1.3407, 1.32954, 1.34807, 1.32622, 1.3243, 1.32344, 1.32418, 1.32615, 1.32446, 1.32885, 1.31824, 1.31811
1.66177, 1.66149, 1.66884, 1.66199, 1.6538, 1.65447, 1.65351, 1.65277, 1.65118, 1.64751, 1.64691, 1.6443, 1.64426, 1.64267, 1.64011, 1.64079, 1.64191, 1.65025, 1.6344, 1.63417, 1.63345, 1.63512, 1.6396, 1.65076, 1.63505, 1.65103, 1.62929, 1.60396, 1.60315, 1.64062, 1.66632, 1.70396, 1.73035, 1.75213, 1.79295, 1.807, 1.82895, 1.86617, 1.91776, 1.92049, 1.91647, 1.86946, 1.77185, 1.72153, 1.62787, 1.57913, 1.5899, 1.59951, 1.62272, 1.60579, 1.59858, 1.60278, 1.59659, 1.59424, 1.58429, 1.58455, 1.58062, 1.59633, 1.57797, 1.5767, 1.57512, 1.57374, 1.57177, 1.568, 1.57002, 1.57225, 1.56718, 1.56163, 1.56072, 1.55924, 1.55789, 1.55704, 1.5554, 1.55408, 1.55326, 1.5535, 1.55294, 1.5542, 1.55157, 1.54851, 1.54811, 1.54933, 1.55023, 1.54824, 1.54644, 1.54458, 1.53819, 1.53841, 1.53864, 1.53802, 1.53556, 1.53385, 1.5315, 1.53059, 1.53239, 1.52859, 1.52689, 1.52582, 1.52977, 1.53102, 1.52656, 1.51946, 1.53481, 1.53803, 1.52704, 1.52963, 1.53073, 1.53016, 1.51309, 1.51236, 1.51109, 1.50967, 1.50925, 1.51033, 1.51084, 1.50976, 1.50669, 1.51644, 1.50966, 1.49816, 1.49814, 1.49686, 1.49696, 1.49832, 1.5205, 1.50845, 1.48926, 1.47255, 1.47266, 1.47434, 1.48525, 1.53067, 1.54002, 1.5415, 1.59256, 1.59137, 1.60642, 1.59529, 1.59106, 1.58031, 1.57488, 1.56221, 1.55633, 1.55256, 1.55111, 1.52829, 1.48182, 1.47932, 1.446, 1.44824, 1.46764, 1.47151, 1.47004, 1.48187, 1.47433, 1.45876, 1.45477, 1.45343, 1.45242, 1.44816, 1.44733, 1.44649, 1.44695, 1.44684, 1.4442, 1.44186, 1.44186, 1.44678, 1.4512, 1.45118, 1.4518, 1.43733, 1.44335, 1.43007, 1.42999, 1.42799, 1.42624, 1.4241, 1.42386, 1.42479, 1.42303, 1.42244, 1.4211, 1.42016, 1.41891, 1.41897, 1.41889, 1.41961, 1.42047, 1.41956, 1.41715, 1.41635, 1.41423, 1.41186, 1.41221, 1.41096, 1.41084, 1.40892, 1.40758, 1.40698, 1.40574, 1.40842, 1.40475, 1.40313, 1.40347, 1.40267, 1.40027, 1.39804, 1.39546, 1.39583, 1.39419, 1.39252, 1.39306, 1.39144, 1.39056, 1.39008, 1.38794, 1.38681, 1.38436, 1.38254, 1.38142, 1.37868, 1.37754, 1.37527, 1.37619, 1.37447, 1.37281, 1.37128, 1.37111, 1.36909, 1.36824, 1.36736, 1.36659, 1.36686, 1.36734, 1.36764, 1.36882, 1.38942, 1.36287, 1.36277, 1.36332, 1.36156, 1.36463, 1.36109, 1.35843, 1.36788, 1.37105, 1.36386, 1.36522, 1.3709, 1.3644, 1.3507, 1.33991, 1.37211, 1.44547, 1.41312, 1.42316, 1.4656, 1.47234, 1.50299, 1.5151, 1.56595, 1.58616, 1.63309, 1.59652, 1.62041, 1.58162, 1.544, 1.45497, 1.34021, 1.32732, 1.31543, 1.33737, 1.35046, 1.34133, 1.34187, 1.3438, 1.34373, 1.33801, 1.32753, 1.33434, 1.32868, 1.32903, 1.32824, 1.35073, 1.32506, 1.32241, 1.32218, 1.32425, 1.32368, 1.32702, 1.32714, 1.3253, 1.32231, 1.32024, 1.31985, 1.32187, 1.32232, 1.31932, 1.31641
1.66406, 1.66242, 1.66033, 1.65842, 1.65606, 1.65415, 1.65265, 1.65096, 1.64915, 1.64751, 1.64531, 1.64391, 1.64355, 1.6403, 1.63772, 1.6371, 1.63698, 1.64986, 1.63846, 1.63546, 1.64487, 1.63424, 1.63312, 1.63479, 1.63821, 1.63765, 1.62951, 1.60874, 1.60453, 1.61942, 1.65924, 1.68074, 1.75464, 1.73328, 1.80382, 1.80055, 1.91762, 1.92928, 2.06599, 2.0091, 1.97364, 1.91387, 1.75894, 1.68818, 1.62625, 1.56988, 1.58256, 1.59409, 1.61187, 1.59907, 1.60351, 1.59088, 1.58939, 1.58791, 1.5853, 1.58403, 1.58154, 1.5862, 1.57908, 1.5762, 1.57641, 1.57313, 1.57781, 1.56957, 1.56806, 1.56504, 1.56475, 1.56247, 1.56075, 1.56029, 1.55965, 1.56043, 1.5574, 1.55583, 1.55522, 1.55513, 1.5547, 1.55233, 1.55106, 1.54953, 1.54801, 1.54683, 1.54665, 1.54584, 1.54383, 1.54368, 1.54164, 1.53669, 1.535, 1.53562, 1.53302, 1.5473, 1.52794, 1.52941, 1.52725, 1.52676, 1.54424, 1.52425, 1.52293, 1.5381, 1.52077, 1.52032, 1.51868, 1.52912, 1.53615, 1.53793, 1.53616, 1.52682, 1.5312, 1.52003, 1.51323, 1.51241, 1.51148, 1.51034, 1.50897, 1.50866, 1.5047, 1.5019, 1.50153, 1.49855, 1.49769, 1.4964, 1.4961, 1.49695, 1.50602, 1.52025, 1.4896, 1.48591, 1.46938, 1.47431, 1.53875, 1.53669, 1.53401, 1.55063, 1.5677, 1.56715, 1.57456, 1.57238, 1.56996, 1.5746, 1.57831, 1.56889, 1.55624, 1.5404, 1.5152, 1.5037, 1.48768, 1.49994, 1.45423, 1.45927, 1.45376, 1.48126, 1.46468, 1.46656, 1.47246, 1.46909, 1.46484, 1.45359, 1.4589, 1.45716, 1.44921, 1.44774, 1.44676, 1.44495, 1.44297, 1.45479, 1.45168, 1.45024, 1.45125, 1.45771, 1.45913, 1.45551, 1.45762, 1.43037, 1.42859, 1.42769, 1.44399, 1.42541, 1.42398, 1.44499, 1.42144, 1.42196, 1.42225, 1.42219, 1.42191, 1.42213, 1.4195, 1.41944, 1.4188, 1.41714, 1.41714, 1.41601, 1.41441, 1.41284, 1.41257, 1.41127, 1.41008, 1.40912, 1.40849, 1.40821, 1.40518, 1.4043, 1.40386, 1.4032, 1.40219, 1.40205, 1.40163, 1.39846, 1.3982, 1.39697, 1.39365, 1.39447, 1.39276, 1.39217, 1.39072, 1.38909, 1.38763, 1.38654, 1.3847, 1.38103, 1.37638, 1.37735, 1.37447, 1.37309, 1.37116, 1.37172, 1.37046, 1.36827, 1.36692, 1.36636, 1.36697, 1.36547, 1.36739, 1.36731, 1.39782, 1.38122, 1.36575, 1.36724, 1.3669, 1.36754, 1.36861, 1.36712, 1.36811, 1.38069, 1.37811, 1.36516, 1.36589, 1.36721, 1.38348, 1.36728, 1.3779, 1.34678, 1.35236, 1.38633, 1.37513, 1.40597, 1.44057, 1.46844, 1.48144, 1.52338, 1.54787, 1.56765, 1.57523, 1.5974, 1.60292, 1.5637, 1.55049, 1.50066, 1.4096, 1.41351, 1.36782, 1.30398, 1.34512, 1.34396, 1.34108, 1.34508, 1.35295, 1.35434, 1.33013, 1.3323, 1.32901, 1.32993, 1.32974, 1.32658, 1.33719, 1.33988, 1.32738, 1.3272, 1.32769, 1.32725, 1.3264, 1.32721, 1.32598, 1.32462, 1.32417, 1.32054, 1.32229, 1.31853, 1.31694, 1.31594
1.66319, 1.66206, 1.65751, 1.64254, 1.65451, 1.65389, 1.65194, 1.65007, 1.64946, 1.64881, 1.64511, 1.64312, 1.6416, 1.64361, 1.64098, 1.64005, 1.6375, 1.63938, 1.65266, 1.63739, 1.63267, 1.63252, 1.63373, 1.63875, 1.64405, 1.63408, 1.63373, 1.61669, 1.59023, 1.62533, 1.65134, 1.67846, 1.71668, 1.75036, 1.78058, 1.80973, 1.83005, 1.86733, 1.89563, 1.93136, 1.92503, 1.8612, 1.92355, 1.73125, 1.65519, 1.57938, 1.58573, 1.59998, 1.60151, 1.59648, 1.60939, 1.59205, 1.59007, 1.58472, 1.58517, 1.58208, 1.58111, 1.57997, 1.57777, 1.57534, 1.57474, 1.57388, 1.57207, 1.57233, 1.56911, 1.56778, 1.56508, 1.56378, 1.56262, 1.5701, 1.56106, 1.55892, 1.55518, 1.55446, 1.55512, 1.55407, 1.5539, 1.55117, 1.54868, 1.54687, 1.54573, 1.54338, 1.54407, 1.54191, 1.54105, 1.54403, 1.53809, 1.53547, 1.53502, 1.53344, 1.53292, 1.53025, 1.53009, 1.527, 1.52579, 1.53314, 1.53798, 1.53452, 1.52255, 1.52114, 1.52072, 1.51974, 1.51947, 1.51941, 1.52523, 1.52396, 1.53719, 1.53122, 1.5455, 1.52437, 1.52528, 1.50949, 1.50871, 1.51386, 1.50627, 1.50516, 1.50379, 1.50017, 1.49855, 1.49744, 1.49734, 1.49685, 1.49786, 1.49918, 1.49837, 1.5037, 1.50664, 1.48588, 1.47437, 1.4769, 1.4992, 1.51994, 1.55025, 1.56045, 1.56503, 1.58272, 1.58533, 1.58935, 1.58552, 1.57946, 1.56666, 1.56621, 1.57141, 1.56453, 1.5422, 1.55175, 1.5162, 1.47281, 1.48108, 1.43663, 1.46168, 1.46636, 1.46627, 1.47512, 1.46453, 1.46078, 1.45448, 1.45351, 1.44825, 1.44711, 1.44528, 1.44357, 1.44336, 1.44051, 1.4486, 1.43877, 1.44336, 1.43688, 1.45164, 1.46186, 1.47705, 1.48284, 1.46243, 1.4572, 1.43477, 1.44675, 1.42598, 1.42638, 1.4238, 1.42303, 1.42225, 1.42168, 1.42391, 1.41976, 1.41977, 1.41873, 1.41796, 1.41758, 1.41784, 1.41814, 1.41757, 1.41663, 1.41561, 1.41363, 1.41308, 1.41051, 1.41101, 1.41166, 1.40994, 1.40935, 1.40772, 1.40687, 1.40544, 1.40422, 1.40345, 1.40196, 1.40181, 1.39874, 1.39787, 1.39722, 1.39584, 1.39472, 1.39328, 1.39203, 1.39149, 1.39104, 1.38919, 1.3884, 1.38655, 1.38551, 1.38122, 1.37918, 1.3783, 1.37548, 1.37691, 1.37434, 1.37619, 1.37273, 1.37129, 1.3676, 1.36737, 1.36704, 1.36753, 1.36714, 1.37065, 1.37528, 1.36669, 1.36756, 1.36686, 1.37447, 1.36879, 1.36756, 1.36593, 1.36633, 1.36692, 1.36559, 1.36583, 1.36637, 1.37565, 1.37999, 1.3638, 1.36477, 1.35799, 1.38239, 1.44174, 1.4332, 1.45437, 1.50366, 1.50529, 1.55622, 1.56205, 1.60231, 1.60562, 1.62552, 1.62822, 1.61489, 1.58311, 1.5578, 1.4795, 1.39243, 1.39481, 1.36113, 1.33136, 1.34933, 1.34454, 1.34743, 1.34905, 1.34847, 1.33996, 1.33479, 1.33564, 1.33749, 1.34732, 1.35817, 1.33343, 1.34039, 1.3415, 1.33937, 1.3301, 1.329, 1.32678, 1.32816, 1.32564, 1.32353, 1.32254, 1.32009, 1.31908, 1.3195, 1.3174, 1.31973
1.64923, 1.65819, 1.65972, 1.65843, 1.66438, 1.65235, 1.64823, 1.64697, 1.64746, 1.6451, 1.64286, 1.64049, 1.6403, 1.63942, 1.64462, 1.63528, 1.63465, 1.63544, 1.63466, 1.63417, 1.63482, 1.63385, 1.64027, 1.63552, 1.64846, 1.63327, 1.63853, 1.59987, 1.59617, 1.61685, 1.63152, 1.69051, 1.72904, 1.79349, 1.78902, 1.77772, 1.84182, 1.86771, 1.85197, 1.98974, 1.97661, 1.9145, 1.79126, 1.65531, 1.64136, 1.57927, 1.58206, 1.59195, 1.59748, 1.61464, 1.60037, 1.59725, 1.59568, 1.60679, 1.58515, 1.58658, 1.58008, 1.57906, 1.57705, 1.57727, 1.57534, 1.57285, 1.57312, 1.57285, 1.57002, 1.58845, 1.56652, 1.5647, 1.56288, 1.56163, 1.56184, 1.55554, 1.55475, 1.55364, 1.55164, 1.55251, 1.55234, 1.55096, 1.5549, 1.54607, 1.54458, 1.54363, 1.54192, 1.54342, 1.54051, 1.54823, 1.53455, 1.53347, 1.53169, 1.52995, 1.52815, 1.52631, 1.52689, 1.52643, 1.53112, 1.51913, 1.51828, 1.51757, 1.51627, 1.51611, 1.51445, 1.5131, 1.51427, 1.51354, 1.51242, 1.53378, 1.54541, 1.53796, 1.52785, 1.53292, 1.52157, 1.52453, 1.50923, 1.50682, 1.5128, 1.50227, 1.50171, 1.50698, 1.49814, 1.50642, 1.49444, 1.49541, 1.49657, 1.49764, 1.49587, 1.49286, 1.50556, 1.47776, 1.4674, 1.47224, 1.49559, 1.51311, 1.55044, 1.57502, 1.58303, 1.60712, 1.58467, 1.58241, 1.60549, 1.5692, 1.55882, 1.55912, 1.5615, 1.56086, 1.54891, 1.54866, 1.52524, 1.50071, 1.47108, 1.43087, 1.45058, 1.47176, 1.47628, 1.47019, 1.46796, 1.45947, 1.45436, 1.46201, 1.47078, 1.44655, 1.44522, 1.44368, 1.44187, 1.4408, 1.44079, 1.43949, 1.4444, 1.43662, 1.43437, 1.44849, 1.45124, 1.43454, 1.42996, 1.44844, 1.43947, 1.43729, 1.42325, 1.42206, 1.42109, 1.41975, 1.44484, 1.41762, 1.42731, 1.4197, 1.41854, 1.41877, 1.41907, 1.41763, 1.41612, 1.41429, 1.4127, 1.41107, 1.41131, 1.41025, 1.4086, 1.41483, 1.40797, 1.40693, 1.40694, 1.40556, 1.40459, 1.40363, 1.4034, 1.4015, 1.40175, 1.39954, 1.39821, 1.39874, 1.39875, 1.39772, 1.3966, 1.39658, 1.39531, 1.39454, 1.39306, 1.39137, 1.39039, 1.38933, 1.38813, 1.38813, 1.38506, 1.38428, 1.38125, 1.38132, 1.37872, 1.37576, 1.3759, 1.37524, 1.37421, 1.39878, 1.37101, 1.37146, 1.36916, 1.36785, 1.36733, 1.36674, 1.36534, 1.36706, 1.36808, 1.36659, 1.36583, 1.36598, 1.36623, 1.36213, 1.36277, 1.36242, 1.37846, 1.36371, 1.3717, 1.36477, 1.36852, 1.36082, 1.32721, 1.35836, 1.42144, 1.44655, 1.46587, 1.49652, 1.51246, 1.52495, 1.5476, 1.62279, 1.5824, 1.58837, 1.59043, 1.57832, 1.57071, 1.54453, 1.47426, 1.41301, 1.36363, 1.3366, 1.32571, 1.33751, 1.35253, 1.3445, 1.33642, 1.33613, 1.35365, 1.33275, 1.33294, 1.33219, 1.33236, 1.32933, 1.3296, 1.32961, 1.32881, 1.32989, 1.3674, 1.32577, 1.32649, 1.32611, 1.32294, 1.32088, 1.32177, 1.32093, 1.31657, 1.32708, 1.31137, 1.31376
1.66241, 1.65923, 1.65806, 1.65672, 1.65375, 1.65278, 1.65142, 1.64855, 1.64782, 1.64505, 1.64162, 1.64121, 1.6385, 1.63729, 1.6348, 1.63933, 1.64874, 1.63416, 1.63421, 1.63418, 1.6347, 1.63277, 1.63232, 1.63002, 1.62947, 1.63006, 1.63402, 1.64475, 1.61654, 1.61603, 1.61641, 1.66285, 1.68896, 1.71433, 1.75005, 1.79039, 1.81926, 1.87656, 2.00096, 1.83143, 2.13035, 2.09137, 1.87665, 1.76843, 1.58517, 1.56113, 1.56791, 1.59628, 1.5957, 1.59351, 1.60259, 1.59847, 1.59165, 1.58552, 1.58397, 1.58259, 1.58065, 1.57791, 1.57669, 1.57556, 1.57227, 1.57106, 1.5714, 1.56866, 1.56776, 1.57141, 1.5715, 1.56201, 1.56111, 1.55946, 1.55905, 1.55741, 1.55719, 1.6039, 1.5544, 1.55393, 1.55267, 1.55105, 1.55046, 1.54799, 1.5456, 1.54566, 1.54406, 1.54307, 1.54116, 1.53943, 1.5369, 1.53553, 1.53305, 1.53268, 1.52955, 1.52741, 1.5265, 1.52604, 1.52404, 1.52243, 1.51976, 1.51927, 1.51635, 1.51559, 1.51504, 1.51373, 1.52046, 1.51559, 1.51383, 1.51672, 1.51021, 1.51731, 1.54009, 1.52787, 1.53826, 1.52854, 1.52064, 1.50754, 1.51365, 1.50532, 1.50442, 1.50261, 1.50062, 1.49793, 1.49753, 1.49709, 1.49459, 1.49689, 1.50255, 1.50323, 1.51601, 1.47145, 1.47949, 1.48262, 1.50515, 1.49689, 1.58035, 1.55324, 1.58245, 1.5957, 1.59504, 1.59189, 1.56745, 1.57443, 1.55791, 1.55708, 1.557, 1.54454, 1.53739, 1.52807, 1.49582, 1.51543, 1.48761, 1.44768, 1.44163, 1.45748, 1.46266, 1.48233, 1.47304, 1.4677, 1.45185, 1.45154, 1.46052, 1.44658, 1.44576, 1.44381, 1.44415, 1.4421, 1.44145, 1.44097, 1.44058, 1.4455, 1.43795, 1.43592, 1.42751, 1.4385, 1.44496, 1.44396, 1.43664, 1.42706, 1.42115, 1.41919, 1.41979, 1.42359, 1.41931, 1.41829, 1.41883, 1.41636, 1.41993, 1.41549, 1.41508, 1.41477, 1.41309, 1.41218, 1.4103, 1.41014, 1.40888, 1.40773, 1.4053, 1.40684, 1.40413, 1.4035, 1.40252, 1.40223, 1.40135, 1.40075, 1.40166, 1.40068, 1.40012, 1.39971, 1.40016, 1.39791, 1.39682, 1.39552, 1.39529, 1.39597, 1.39448, 1.39349, 1.39242, 1.39162, 1.39036, 1.38878, 1.38838, 1.38791, 1.38584, 1.38471, 1.3848, 1.38303, 1.38127, 1.38087, 1.3811, 1.37925, 1.37804, 1.37635, 1.37455, 1.38378, 1.37445, 1.37271, 1.37086, 1.37163, 1.36966, 1.37521, 1.37068, 1.36472, 1.36475, 1.36555, 1.36448, 1.36273, 1.36243, 1.36291, 1.36285, 1.36224, 1.37201, 1.37617, 1.369, 1.37657, 1.35709, 1.35673, 1.40892, 1.39897, 1.43516, 1.4516, 1.50178, 1.51437, 1.56037, 1.58402, 1.6239, 1.60903, 1.60493, 1.59961, 1.56516, 1.48969, 1.41908, 1.37878, 1.31593, 1.33283, 1.33396, 1.34898, 1.34965, 1.34735, 1.34732, 1.3379, 1.33493, 1.33379, 1.33381, 1.33011, 1.32979, 1.32973, 1.329, 1.3281, 1.32827, 1.32721, 1.32983, 1.32527, 1.32433, 1.32215, 1.32646, 1.32055, 1.31938, 1.31872, 1.31731, 1.31596, 1.3159, 1.31264
1.65981, 1.66414, 1.65758, 1.65569, 1.65409, 1.65185, 1.64929, 1.66574, 1.64523, 1.64499, 1.64384, 1.64271, 1.6407, 1.64003, 1.6375, 1.63712, 1.63557, 1.63557, 1.63488, 1.63484, 1.63472, 1.63448, 1.63109, 1.63102, 1.63055, 1.63087, 1.63454, 1.63143, 1.61339, 1.60981, 1.64418, 1.67214, 1.72254, 1.73253, 1.77441, 1.79117, 1.82989, 1.93263, 1.94164, 1.98007, 1.96561, 1.80094, 1.90435, 1.78341, 1.64794, 1.58205, 1.55058, 1.58714, 1.61379, 1.59571, 1.59947, 1.59972, 1.58709, 1.59839, 1.60095, 1.59234, 1.59652, 1.57944, 1.57722, 1.576, 1.57399, 1.57211, 1.57081, 1.56955, 1.56755, 1.57863, 1.56495, 1.56394, 1.56295, 1.56204, 1.55993, 1.5587, 1.55736, 1.55804, 1.55638, 1.55501, 1.55275, 1.55203, 1.55022, 1.5489, 1.54865, 1.54668, 1.54515, 1.54347, 1.54308, 1.54074, 1.54003, 1.53794, 1.53545, 1.53477, 1.53276, 1.53102, 1.52927, 1.52664, 1.52717, 1.5237, 1.52937, 1.52035, 1.51838, 1.51635, 1.51663, 1.51491, 1.51371, 1.52075, 1.51926, 1.51125, 1.52216, 1.52151, 1.53317, 1.55752, 1.53416, 1.54565, 1.53263, 1.5081, 1.50613, 1.50543, 1.50454, 1.51786, 1.5001, 1.50014, 1.50224, 1.50005, 1.49522, 1.4952, 1.5033, 1.50005, 1.49612, 1.4932, 1.47843, 1.49381, 1.50896, 1.53654, 1.52275, 1.54703, 1.54292, 1.5392, 1.55859, 1.55755, 1.55572, 1.55767, 1.55035, 1.54936, 1.54158, 1.52408, 1.52847, 1.53662, 1.50742, 1.4774, 1.48754, 1.44334, 1.46129, 1.46272, 1.48094, 1.46316, 1.47248, 1.47169, 1.45501, 1.4681, 1.4556, 1.4503, 1.44747, 1.448, 1.46457, 1.44853, 1.45413, 1.45495, 1.45221, 1.45734, 1.44875, 1.45145, 1.44784, 1.45532, 1.43702, 1.43355, 1.43554, 1.42613, 1.41951, 1.4306, 1.4325, 1.42255, 1.41802, 1.41692, 1.43704, 1.4174, 1.41588, 1.41763, 1.41399, 1.41333, 1.41225, 1.41191, 1.41224, 1.40954, 1.40848, 1.40775, 1.40584, 1.4054, 1.40261, 1.40186, 1.40066, 1.40049, 1.39997, 1.39886, 1.39908, 1.40659, 1.40313, 1.39679, 1.39678, 1.39566, 1.39355, 1.39319, 1.39234, 1.39138, 1.39046, 1.38819, 1.3879, 1.38595, 1.38616, 1.38586, 1.3849, 1.38486, 1.38196, 1.38148, 1.38087, 1.38097, 1.38051, 1.38016, 1.38119, 1.37935, 1.37834, 1.37771, 1.37762, 1.37766, 1.37619, 1.37677, 1.37579, 1.37436, 1.40547, 1.37116, 1.36842, 1.36729, 1.36724, 1.36683, 1.36653, 1.36525, 1.36287, 1.36414, 1.37844, 1.36663, 1.36587, 1.36703, 1.38099, 1.37583, 1.33122, 1.33182, 1.38347, 1.43441, 1.44452, 1.45409, 1.50665, 1.49506, 1.53623, 1.55232, 1.57691, 1.59155, 1.59043, 1.57544, 1.54532, 1.52229, 1.46834, 1.44613, 1.35752, 1.34579, 1.34633, 1.34522, 1.34676, 1.35546, 1.35758, 1.34049, 1.35426, 1.35383, 1.33185, 1.35215, 1.3298, 1.33, 1.32921, 1.32872, 1.34648, 1.33265, 1.32296, 1.32431, 1.32098, 1.32279, 1.33061, 1.31991, 1.31873, 1.31776, 1.31748, 1.31623, 1.31587, 1.31498
1.65712, 1.65448, 1.6521, 1.65142, 1.64823, 1.64666, 1.644, 1.64157, 1.6416, 1.64383, 1.64383, 1.64355, 1.64055, 1.63946, 1.63881, 1.63713, 1.63697, 1.63549, 1.63579, 1.63441, 1.63386, 1.63184, 1.63073, 1.62895, 1.64048, 1.63681, 1.63109, 1.62596, 1.61796, 1.59908, 1.62805, 1.64335, 1.69379, 1.72834, 1.76309, 1.77935, 1.82346, 1.85215, 1.90949, 1.97971, 1.95337, 1.92202, 1.79303, 1.73033, 1.64958, 1.5828, 1.559, 1.57378, 1.59249, 1.6169, 1.59258, 1.58528, 1.58329, 1.58352, 1.58735, 1.57924, 1.57773, 1.57611, 1.57123, 1.5712, 1.56926, 1.56846, 1.56761, 1.56773, 1.56565, 1.56425, 1.56317, 1.56293, 1.56185, 1.55973, 1.55811, 1.5572, 1.55409, 1.55357, 1.55121, 1.55214, 1.55173, 1.55003, 1.54741, 1.54687, 1.54648, 1.54596, 1.54397, 1.54379, 1.541, 1.53878, 1.53982, 1.53752, 1.53559, 1.53324, 1.53159, 1.52994, 1.52893, 1.52666, 1.52474, 1.53318, 1.52094, 1.51925, 1.51811, 1.51868, 1.51695, 1.51495, 1.51436, 1.51439, 1.51249, 1.51106, 1.51071, 1.50967, 1.5277, 1.53384, 1.53814, 1.53761, 1.53762, 1.53675, 1.53801, 1.50774, 1.50982, 1.50913, 1.49858, 1.50592, 1.49809, 1.50131, 1.49238, 1.51521, 1.49333, 1.49362, 1.49415, 1.48896, 1.47344, 1.48112, 1.49196, 1.54402, 1.53891, 1.62505, 1.62737, 1.58569, 1.58499, 1.57458, 1.59628, 1.57487, 1.5439, 1.54327, 1.54456, 1.53955, 1.52557, 1.54009, 1.4957, 1.47567, 1.46205, 1.43384, 1.4521, 1.44948, 1.46271, 1.46298, 1.46785, 1.45515, 1.4638, 1.45083, 1.45321, 1.45449, 1.45078, 1.45185, 1.45041, 1.47067, 1.45357, 1.44719, 1.46188, 1.45869, 1.46275, 1.46585, 1.46191, 1.47258, 1.44954, 1.46095, 1.44035, 1.43813, 1.42819, 1.43494, 1.43093, 1.42766, 1.4216, 1.42149, 1.37546, 1.41993, 1.41841, 1.41689, 1.41699, 1.4156, 1.41483, 1.4128, 1.41206, 1.41044, 1.40938, 1.40744, 1.40587, 1.40506, 1.40351, 1.40249, 1.4017, 1.40165, 1.40127, 1.40065, 1.39997, 1.39869, 1.39983, 1.40489, 1.39611, 1.39459, 1.39468, 1.39159, 1.39886, 1.39112, 1.39004, 1.38813, 1.38831, 1.3875, 1.38611, 1.38445, 1.38433, 1.38217, 1.38178, 1.38025, 1.37857, 1.37827, 1.37876, 1.37824, 1.3779, 1.37717, 1.37769, 1.37718, 1.37756, 1.37666, 1.37484, 1.39918, 1.37094, 1.37047, 1.37031, 1.36838, 1.36754, 1.36886, 1.37039, 1.37002, 1.36199, 1.36163, 1.36076, 1.35973, 1.35963, 1.3587, 1.3764, 1.37066, 1.37155, 1.3754, 1.36027, 1.33633, 1.38774, 1.41033, 1.43826, 1.45355, 1.52337, 1.54772, 1.56013, 1.57886, 1.60014, 1.6214, 1.63881, 1.64002, 1.626, 1.60003, 1.46763, 1.35078, 1.34742, 1.32299, 1.34094, 1.34648, 1.35408, 1.34131, 1.3436, 1.33639, 1.35057, 1.33154, 1.33061, 1.32961, 1.32904, 1.32738, 1.32664, 1.32665, 1.32634, 1.32533, 1.32329, 1.32344, 1.32252, 1.32015, 1.32693, 1.31894, 1.32331, 1.31643, 1.32594, 1.318, 1.31629, 1.31458
1.65739, 1.65476, 1.65422, 1.65227, 1.652, 1.64816, 1.64598, 1.64463, 1.64336, 1.64596, 1.64377, 1.64308, 1.64261, 1.64051, 1.63824, 1.63606, 1.63445, 1.63452, 1.63527, 1.63448, 1.63373, 1.62958, 1.62951, 1.63351, 1.63381, 1.6475, 1.62764, 1.62658, 1.62523, 1.58948, 1.66568, 1.63186, 1.68553, 1.72028, 1.75153, 1.78344, 1.81656, 1.85522, 1.88597, 1.95758, 1.99286, 1.80768, 1.94446, 1.72585, 1.69397, 1.57094, 1.57803, 1.56909, 1.5995, 1.59948, 1.59095, 1.60217, 1.59181, 1.58268, 1.57929, 1.57833, 1.57702, 1.57488, 1.58575, 1.57272, 1.57086, 1.56851, 1.56851, 1.56729, 1.56872, 1.56474, 1.56535, 1.56239, 1.56085, 1.56021, 1.55798, 1.55783, 1.55596, 1.55416, 1.55205, 1.55035, 1.55028, 1.54729, 1.54683, 1.5443, 1.53961, 1.53865, 1.54363, 1.53746, 1.53366, 1.53279, 1.53166, 1.53264, 1.53212, 1.53089, 1.5305, 1.52732, 1.52641, 1.52393, 1.52277, 1.5234, 1.52043, 1.51915, 1.51883, 1.51755, 1.51739, 1.51563, 1.51413, 1.51508, 1.51407, 1.51013, 1.51006, 1.50794, 1.50897, 1.51027, 1.52349, 1.5407, 1.53759, 1.53251, 1.52814, 1.51356, 1.50398, 1.51467, 1.50963, 1.49785, 1.49341, 1.4933, 1.50009, 1.49368, 1.49882, 1.51454, 1.49315, 1.47977, 1.46891, 1.46829, 1.4934, 1.49847, 1.54431, 1.5465, 1.569, 1.572, 1.56958, 1.5618, 1.56231, 1.54038, 1.5628, 1.54532, 1.54751, 1.54013, 1.53905, 1.53183, 1.53756, 1.50678, 1.4819, 1.45148, 1.46136, 1.45489, 1.46215, 1.46776, 1.45938, 1.45659, 1.45347, 1.45701, 1.45532, 1.45456, 1.46459, 1.44159, 1.43884, 1.44879, 1.45385, 1.46483, 1.47136, 1.50883, 1.47821, 1.47627, 1.48124, 1.45178, 1.44352, 1.43552, 1.443, 1.4346, 1.44025, 1.42664, 1.42253, 1.41975, 1.4203, 1.4193, 1.36794, 1.41884, 1.41598, 1.41528, 1.41424, 1.4125, 1.41144, 1.41116, 1.40942, 1.40834, 1.40894, 1.40748, 1.40705, 1.40721, 1.40355, 1.40171, 1.4017, 1.40134, 1.39995, 1.39758, 1.3977, 1.39686, 1.39707, 1.3959, 1.39539, 1.39434, 1.39378, 1.39133, 1.39048, 1.38883, 1.38699, 1.38501, 1.38499, 1.38357, 1.38152, 1.38175, 1.3795, 1.38102, 1.38034, 1.37923, 1.37741, 1.3769, 1.37622, 1.37528, 1.37495, 1.37535, 1.37495, 1.37478, 1.37392, 1.3746, 1.37232, 1.37308, 1.37191, 1.37075, 1.3713, 1.37067, 1.36842, 1.36783, 1.36416, 1.36448, 1.36169, 1.36192, 1.36054, 1.35999, 1.35971, 1.36116, 1.36063, 1.37107, 1.36267, 1.38513, 1.3655, 1.35731, 1.35806, 1.43008, 1.41949, 1.45672, 1.45736, 1.50819, 1.52697, 1.60982, 1.61579, 1.61418, 1.62799, 1.62083, 1.56797, 1.51985, 1.46324, 1.4255, 1.35151, 1.33582, 1.31757, 1.33474, 1.33937, 1.34006, 1.35116, 1.33321, 1.33651, 1.3317, 1.33216, 1.3325, 1.33145, 1.33011, 1.32936, 1.32948, 1.32744, 1.32758, 1.32675, 1.32534, 1.32474, 1.3224, 1.32222, 1.32067, 1.32064, 1.31894, 1.31923, 1.31922, 1.31978, 1.31376
1.66746, 1.66164, 1.66285, 1.65818, 1.65577, 1.65364, 1.65157, 1.65113, 1.65913, 1.663, 1.64668, 1.64661, 1.64416, 1.64405, 1.64744, 1.66407, 1.63866, 1.63589, 1.63544, 1.63232, 1.63498, 1.63176, 1.6309, 1.62958, 1.64101, 1.62914, 1.63069, 1.63122, 1.61825, 1.6028, 1.60128, 1.62588, 1.67216, 1.72042, 1.77861, 1.81305, 1.8466, 1.88979, 1.90341, 1.94089, 1.94518, 1.91048, 1.85662, 1.74043, 1.64082, 1.58119, 1.57359, 1.59145, 1.61218, 1.59956, 1.60237, 1.59651, 1.59264, 1.59375, 1.5989, 1.58137, 1.57928, 1.58253, 1.57583, 1.57524, 1.57362, 1.57851, 1.56984, 1.5759, 1.56874, 1.58241, 1.57105, 1.56573, 1.56333, 1.56251, 1.55802, 1.55684, 1.55612, 1.55249, 1.55274, 1.55003, 1.54856, 1.54704, 1.54406, 1.54391, 1.54009, 1.53816, 1.53369, 1.53476, 1.53306, 1.53132, 1.53055, 1.52994, 1.52945, 1.53674, 1.52619, 1.52597, 1.52458, 1.52281, 1.52227, 1.52671, 1.52208, 1.52118, 1.52041, 1.5198, 1.5192, 1.52732, 1.5196, 1.51876, 1.51699, 1.51543, 1.51504, 1.52317, 1.53102, 1.51742, 1.51362, 1.53075, 1.54031, 1.54722, 1.54035, 1.54356, 1.52616, 1.51239, 1.49642, 1.5043, 1.5055, 1.50355, 1.50489, 1.51015, 1.50335, 1.50258, 1.4986, 1.46969, 1.46754, 1.47371, 1.4969, 1.4973, 1.51973, 1.54166, 1.55116, 1.5582, 1.55247, 1.57067, 1.55979, 1.51622, 1.54505, 1.54054, 1.54502, 1.5442, 1.54388, 1.53949, 1.53283, 1.50038, 1.46046, 1.43915, 1.44291, 1.44182, 1.46483, 1.46146, 1.45775, 1.45316, 1.45215, 1.46895, 1.4897, 1.47565, 1.47023, 1.49302, 1.48475, 1.49508, 1.49198, 1.48509, 1.48018, 1.5053, 1.48341, 1.46252, 1.46149, 1.43091, 1.44392, 1.44713, 1.45332, 1.44333, 1.43112, 1.43045, 1.43817, 1.42417, 1.42311, 1.42164, 1.42246, 1.4195, 1.41876, 1.41801, 1.44855, 1.34665, 1.4138, 1.41206, 1.40971, 1.40898, 1.40644, 1.40507, 1.40411, 1.40277, 1.40206, 1.40142, 1.39957, 1.39978, 1.39947, 1.39824, 1.39879, 1.39819, 1.39681, 1.39552, 1.39478, 1.39222, 1.39194, 1.39053, 1.39112, 1.38833, 1.38749, 1.38661, 1.38546, 1.38375, 1.38361, 1.38617, 1.38379, 1.38179, 1.38125, 1.38109, 1.38076, 1.37937, 1.38243, 1.37849, 1.37743, 1.37699, 1.37738, 1.37573, 1.37457, 1.3749, 1.37218, 1.37244, 1.37055, 1.37098, 1.369, 1.36787, 1.36709, 1.3861, 1.36399, 1.3823, 1.36866, 1.36129, 1.37216, 1.36019, 1.36665, 1.37069, 1.36071, 1.36406, 1.37422, 1.36082, 1.35976, 1.33571, 1.34072, 1.3835, 1.42719, 1.41754, 1.47961, 1.50267, 1.56507, 1.57536, 1.59185, 1.60545, 1.61756, 1.61602, 1.60335, 1.5546, 1.4588, 1.43061, 1.4074, 1.30462, 1.32633, 1.34768, 1.35087, 1.34711, 1.34753, 1.33722, 1.34351, 1.33372, 1.33335, 1.34041, 1.33138, 1.33281, 1.33672, 1.32984, 1.32887, 1.3283, 1.34014, 1.32544, 1.32518, 1.32255, 1.3226, 1.32024, 1.31989, 1.3186, 1.3194, 1.31944, 1.31823, 1.31743
1.66505, 1.66389, 1.66231, 1.66118, 1.65943, 1.69036, 1.65522, 1.65277, 1.6518, 1.65121, 1.64535, 1.6449, 1.64379, 1.64274, 1.64064, 1.63908, 1.63719, 1.64015, 1.63331, 1.64492, 1.63301, 1.62967, 1.6239, 1.62318, 1.62376, 1.65144, 1.63687, 1.64454, 1.63348, 1.59794, 1.63422, 1.64764, 1.68185, 1.69905, 1.76884, 1.79296, 1.78956, 1.85127, 1.91755, 2.08, 1.95012, 2.09739, 1.97004, 1.73467, 1.67652, 1.58677, 1.56146, 1.56962, 1.61646, 1.58865, 1.60309, 1.59848, 1.59968, 1.59832, 1.60352, 1.59595, 1.58648, 1.57938, 1.57842, 1.57898, 1.57284, 1.58098, 1.56958, 1.56805, 1.56761, 1.56294, 1.56343, 1.58671, 1.56221, 1.5928, 1.55866, 1.55523, 1.55332, 1.55129, 1.54788, 1.54631, 1.54464, 1.54367, 1.55445, 1.54049, 1.54451, 1.53658, 1.52862, 1.52973, 1.52923, 1.52944, 1.52666, 1.52533, 1.523, 1.52397, 1.52265, 1.52013, 1.5195, 1.53704, 1.52037, 1.51926, 1.51968, 1.51839, 1.51779, 1.51733, 1.51736, 1.52429, 1.51604, 1.51408, 1.51396, 1.51211, 1.51198, 1.51046, 1.52091, 1.5162, 1.50865, 1.52731, 1.53065, 1.55444, 1.5375, 1.55009, 1.5452, 1.52713, 1.5053, 1.5086, 1.49377, 1.49519, 1.50037, 1.49318, 1.49069, 1.48775, 1.50102, 1.49269, 1.48379, 1.46717, 1.47758, 1.49155, 1.49488, 1.51477, 1.53776, 1.56094, 1.55953, 1.55074, 1.53887, 1.53455, 1.53992, 1.53076, 1.53623, 1.54141, 1.54391, 1.54233, 1.5127, 1.50278, 1.46948, 1.47248, 1.45872, 1.48938, 1.49878, 1.48287, 1.48328, 1.49796, 1.49699, 1.52748, 1.50017, 1.51956, 1.51041, 1.51068, 1.48485, 1.4661, 1.47719, 1.49515, 1.47403, 1.46535, 1.44439, 1.44471, 1.4458, 1.45168, 1.44759, 1.43478, 1.44547, 1.43083, 1.42976, 1.42722, 1.42657, 1.42393, 1.42336, 1.42274, 1.42193, 1.41997, 1.41878, 1.31739, 1.32662, 1.41436, 1.41344, 1.41213, 1.40993, 1.40917, 1.40778, 1.40565, 1.40519, 1.40008, 1.40231, 1.40188, 1.39973, 1.39941, 1.39637, 1.39685, 1.39574, 1.394, 1.39353, 1.39328, 1.39147, 1.39069, 1.39064, 1.38811, 1.38803, 1.38587, 1.38622, 1.38813, 1.38246, 1.38087, 1.38143, 1.38083, 1.38061, 1.37982, 1.37997, 1.3789, 1.37843, 1.37585, 1.37457, 1.37505, 1.37516, 1.37451, 1.37382, 1.37286, 1.37129, 1.37002, 1.36935, 1.3682, 1.36965, 1.36814, 1.36533, 1.38402, 1.36108, 1.36098, 1.36076, 1.35978, 1.35891, 1.35843, 1.3572, 1.35593, 1.35461, 1.35447, 1.35595, 1.36434, 1.36489, 1.36816, 1.349, 1.32718, 1.36295, 1.39232, 1.40699, 1.43158, 1.45396, 1.48861, 1.5234, 1.60358, 1.59567, 1.60929, 1.62823, 1.63999, 1.62957, 1.55384, 1.45379, 1.4657, 1.38106, 1.32354, 1.3409, 1.34046, 1.34093, 1.36769, 1.35032, 1.33385, 1.33113, 1.33044, 1.32947, 1.32922, 1.3299, 1.32914, 1.32877, 1.32649, 1.32643, 1.32537, 1.32361, 1.32283, 1.31933, 1.32071, 1.31777, 1.31925, 1.31868, 1.31604, 1.31545, 1.31493, 1.31542, 1.31492
1.66118, 1.65924, 1.6617, 1.6574, 1.65552, 1.65739, 1.65346, 1.65156, 1.65187, 1.64803, 1.64806, 1.64452, 1.64414, 1.64294, 1.63934, 1.638, 1.63612, 1.63376, 1.63177, 1.63068, 1.62817, 1.62712, 1.62585, 1.62488, 1.6249, 1.62437, 1.62535, 1.62493, 1.6237, 1.60163, 1.62474, 1.63788, 1.6476, 1.68694, 1.73562, 1.7727, 1.77246, 1.82237, 1.84514, 1.87577, 1.86528, 1.86882, 1.71303, 1.71023, 1.61744, 1.58237, 1.56934, 1.60317, 1.59308, 1.59861, 1.5913, 1.60094, 1.60609, 1.59582, 1.58811, 1.58505, 1.5835, 1.5815, 1.57974, 1.58764, 1.57525, 1.57406, 1.57189, 1.56962, 1.5685, 1.56673, 1.58256, 1.55884, 1.55594, 1.56066, 1.55985, 1.55516, 1.5531, 1.55213, 1.54848, 1.54847, 1.54635, 1.5444, 1.54337, 1.54035, 1.53959, 1.53799, 1.53449, 1.53257, 1.53356, 1.52824, 1.52741, 1.54417, 1.53127, 1.52482, 1.52314, 1.52282, 1.52275, 1.52168, 1.52028, 1.5193, 1.51975, 1.52402, 1.51643, 1.51624, 1.51582, 1.51484, 1.51421, 1.51261, 1.51266, 1.51356, 1.51005, 1.50959, 1.51636, 1.50639, 1.5057, 1.51667, 1.5238, 1.50753, 1.50664, 1.54936, 1.53138, 1.53082, 1.52311, 1.54621, 1.52597, 1.52552, 1.4901, 1.50762, 1.50577, 1.49973, 1.49489, 1.49058, 1.47084, 1.4798, 1.4744, 1.50958, 1.52023, 1.56078, 1.55014, 1.55716, 1.5589, 1.55803, 1.54765, 1.5304, 1.59509, 1.51284, 1.5142, 1.5448, 1.53831, 1.53456, 1.51483, 1.49321, 1.48609, 1.4825, 1.47319, 1.47343, 1.4848, 1.49699, 1.50953, 1.47282, 1.46879, 1.47823, 1.47874, 1.45861, 1.46481, 1.4532, 1.4475, 1.46122, 1.45189, 1.44667, 1.45061, 1.44443, 1.44357, 1.44212, 1.45005, 1.43801, 1.4441, 1.4331, 1.43135, 1.42935, 1.42922, 1.4269, 1.42586, 1.42447, 1.42262, 1.42241, 1.42074, 1.42051, 1.41909, 1.41913, 1.41686, 1.4157, 1.41585, 1.41339, 1.41256, 1.41183, 1.40967, 1.40934, 1.40843, 1.40504, 1.40537, 1.4024, 1.39896, 1.39906, 1.39638, 1.39831, 1.3981, 1.39792, 1.39706, 1.39651, 1.39509, 1.39368, 1.39255, 1.39279, 1.3919, 1.3908, 1.389, 1.38813, 1.38816, 1.38676, 1.38744, 1.38595, 1.3856, 1.38615, 1.38295, 1.38211, 1.38092, 1.38014, 1.37916, 1.37807, 1.41392, 1.37421, 1.37425, 1.37279, 1.37277, 1.37058, 1.36864, 1.36758, 1.36574, 1.3674, 1.36502, 1.36424, 1.36462, 1.36144, 1.36215, 1.35943, 1.35898, 1.35823, 1.35752, 1.35526, 1.3539, 1.35374, 1.35409, 1.36929, 1.359, 1.38164, 1.37094, 1.3302, 1.38562, 1.39521, 1.4234, 1.43427, 1.47977, 1.51702, 1.55853, 1.56866, 1.62703, 1.62439, 1.63871, 1.68315, 1.65566, 1.59172, 1.48775, 1.39479, 1.32491, 1.32366, 1.32284, 1.33983, 1.34201, 1.34216, 1.3365, 1.34643, 1.33288, 1.33178, 1.32957, 1.32894, 1.32691, 1.32704, 1.32646, 1.32631, 1.32558, 1.32424, 1.32334, 1.32246, 1.32429, 1.32241, 1.32281, 1.31965, 1.3228, 1.31811, 1.31563, 1.31471, 1.31564, 1.31611
1.65627, 1.65075, 1.65086, 1.65067, 1.67588, 1.65504, 1.65214, 1.65404, 1.65152, 1.67227, 1.6508, 1.65372, 1.64715, 1.64622, 1.6506, 1.6416, 1.63958, 1.63761, 1.63611, 1.63404, 1.63162, 1.62841, 1.63368, 1.63889, 1.62439, 1.62794, 1.63308, 1.61959, 1.62814, 1.61717, 1.58524, 1.61484, 1.66466, 1.72764, 1.75052, 1.76242, 1.77639, 1.84487, 1.86457, 1.87588, 2.07333, 1.98719, 1.98066, 1.84626, 1.69779, 1.56828, 1.60034, 1.61279, 1.62056, 1.62661, 1.60365, 1.59989, 1.59925, 1.59823, 1.60625, 1.60151, 1.59751, 1.59534, 1.58756, 1.59206, 1.59163, 1.59259, 1.58275, 1.58046, 1.58157, 1.575, 1.57158, 1.57878, 1.56747, 1.56611, 1.56406, 1.57862, 1.55919, 1.55605, 1.55492, 1.55252, 1.5513, 1.55059, 1.54733, 1.54628, 1.54412, 1.54224, 1.54104, 1.54079, 1.54512, 1.53499, 1.53366, 1.53295, 1.53198, 1.52938, 1.5273, 1.52661, 1.52494, 1.5245, 1.52432, 1.54451, 1.52131, 1.52036, 1.51794, 1.51781, 1.51823, 1.51644, 1.51612, 1.51349, 1.51146, 1.50788, 1.50622, 1.50701, 1.50897, 1.50904, 1.50955, 1.5137, 1.5143, 1.51712, 1.51327, 1.52811, 1.53289, 1.5466, 1.55735, 1.56116, 1.56397, 1.54466, 1.52963, 1.51979, 1.51937, 1.50925, 1.49778, 1.47402, 1.48222, 1.46987, 1.47116, 1.48511, 1.50347, 1.52731, 1.53692, 1.54734, 1.5513, 1.53711, 1.51596, 1.51913, 1.51232, 1.49971, 1.54022, 1.58076, 1.53293, 1.5282, 1.51897, 1.50232, 1.50312, 1.47483, 1.45107, 1.48608, 1.46849, 1.47915, 1.46472, 1.4622, 1.47039, 1.45663, 1.47537, 1.45532, 1.45674, 1.46493, 1.44914, 1.45427, 1.44551, 1.444, 1.4538, 1.4468, 1.439, 1.43952, 1.44419, 1.437, 1.4338, 1.43246, 1.43029, 1.42981, 1.42818, 1.427, 1.42586, 1.4246, 1.42369, 1.42254, 1.42052, 1.41881, 1.41841, 1.41767, 1.41571, 1.41422, 1.41255, 1.42312, 1.41092, 1.41094, 1.41061, 1.41261, 1.40558, 1.40554, 1.40598, 1.40473, 1.40365, 1.40344, 1.40208, 1.40102, 1.40013, 1.39793, 1.39833, 1.39575, 1.39476, 1.39435, 1.39257, 1.39189, 1.39249, 1.38989, 1.39139, 1.38987, 1.39222, 1.38653, 1.39929, 1.38854, 1.38659, 1.38568, 1.38539, 1.38412, 1.38425, 1.38905, 1.38877, 1.37966, 1.37927, 1.3774, 1.37465, 1.37587, 1.38821, 1.37275, 1.37083, 1.37059, 1.36936, 1.39399, 1.36799, 1.36629, 1.36541, 1.36423, 1.36094, 1.36129, 1.3653, 1.35782, 1.36462, 1.36385, 1.35784, 1.36778, 1.37044, 1.36478, 1.3715, 1.36589, 1.3574, 1.35015, 1.33194, 1.36772, 1.41578, 1.43409, 1.47261, 1.52222, 1.5443, 1.56058, 1.59924, 1.63075, 1.63979, 1.67916, 1.57279, 1.57057, 1.52446, 1.46369, 1.36083, 1.32583, 1.31269, 1.34501, 1.34787, 1.35473, 1.35801, 1.34188, 1.33491, 1.33293, 1.35093, 1.33111, 1.33187, 1.32948, 1.32884, 1.3368, 1.32676, 1.32524, 1.32915, 1.32991, 1.33322, 1.32396, 1.32295, 1.32452, 1.35388, 1.32252, 1.31861, 1.32083, 1.3199, 1.31964
1.65539, 1.65311, 1.6752, 1.65149, 1.65151, 1.65117, 1.65315, 1.65225, 1.65153, 1.65145, 1.64944, 1.65044, 1.64824, 1.64416, 1.64293, 1.6482, 1.64287, 1.63736, 1.63423, 1.63379, 1.6298, 1.62756, 1.62622, 1.62432, 1.62335, 1.62752, 1.62367, 1.62118, 1.63339, 1.6094, 1.58525, 1.64177, 1.65657, 1.67704, 1.73005, 1.78185, 1.84095, 1.84885, 1.9569, 1.98573, 2.01126, 1.97266, 1.84784, 1.72985, 1.62967, 1.5785, 1.56149, 1.63427, 1.61835, 1.61013, 1.62398, 1.60382, 1.59707, 1.5989, 1.59547, 1.61039, 1.58978, 1.59627, 1.58753, 1.59686, 1.58577, 1.583, 1.59909, 1.576, 1.57461, 1.57133, 1.57528, 1.57706, 1.56497, 1.56395, 1.56208, 1.55864, 1.55777, 1.55484, 1.55165, 1.55055, 1.54759, 1.54514, 1.54427, 1.54323, 1.54072, 1.53981, 1.53741, 1.53703, 1.53415, 1.5332, 1.53113, 1.52946, 1.5276, 1.52517, 1.52422, 1.52302, 1.52288, 1.52252, 1.52214, 1.52007, 1.51967, 1.51971, 1.51765, 1.51608, 1.51597, 1.51544, 1.51386, 1.51292, 1.51039, 1.50797, 1.50736, 1.50882, 1.50731, 1.50748, 1.50765, 1.50724, 1.50657, 1.51058, 1.503, 1.5021, 1.50223, 1.49886, 1.52652, 1.51991, 1.53498, 1.51659, 1.51689, 1.51646, 1.52388, 1.52052, 1.52238, 1.51078, 1.50538, 1.48834, 1.48708, 1.4957, 1.51017, 1.52646, 1.55852, 1.56524, 1.55427, 1.54831, 1.53412, 1.52086, 1.50332, 1.50567, 1.51034, 1.54142, 1.58479, 1.54086, 1.56515, 1.52734, 1.50312, 1.50055, 1.46399, 1.46868, 1.47051, 1.47, 1.4713, 1.46003, 1.4584, 1.4524, 1.45104, 1.44956, 1.44876, 1.44659, 1.44563, 1.44325, 1.43995, 1.44093, 1.43786, 1.43648, 1.43535, 1.43308, 1.43268, 1.42988, 1.4288, 1.42598, 1.42525, 1.4241, 1.42413, 1.42487, 1.42459, 1.4243, 1.4248, 1.42237, 1.42135, 1.41851, 1.41612, 1.4143, 1.41224, 1.41347, 1.41343, 1.41155, 1.4121, 1.40956, 1.41016, 1.40876, 1.40824, 1.40841, 1.40709, 1.40835, 1.40713, 1.40508, 1.40535, 1.40239, 1.40027, 1.39939, 1.3963, 1.39521, 1.39286, 1.39277, 1.39263, 1.39163, 1.39245, 1.39158, 1.39099, 1.38992, 1.38829, 1.38501, 1.38471, 1.38341, 1.38433, 1.38489, 1.38408, 1.38339, 1.38323, 1.38123, 1.37973, 1.37945, 1.37784, 1.37769, 1.37548, 1.37472, 1.37253, 1.36964, 1.36842, 1.36898, 1.36789, 1.36701, 1.36443, 1.3633, 1.36384, 1.37418, 1.36317, 1.36088, 1.36119, 1.35812, 1.35774, 1.35682, 1.3674, 1.35676, 1.36608, 1.36071, 1.36724, 1.36414, 1.378, 1.36086, 1.34127, 1.32868, 1.41402, 1.44788, 1.47543, 1.51697, 1.5364, 1.57922, 1.60739, 1.65129, 1.61087, 1.62842, 1.66129, 1.56609, 1.51519, 1.41743, 1.399, 1.33754, 1.34281, 1.32957, 1.34257, 1.34969, 1.35007, 1.33648, 1.33532, 1.33135, 1.33105, 1.32786, 1.33715, 1.32782, 1.32752, 1.32585, 1.32718, 1.32558, 1.32476, 1.32471, 1.32266, 1.32309, 1.32311, 1.32307, 1.32293, 1.3224, 1.32245, 1.32089, 1.31943, 1.31885
1.65733, 1.65624, 1.65448, 1.65514, 1.65512, 1.65555, 1.6552, 1.65298, 1.65084, 1.64928, 1.64778, 1.6507, 1.65484, 1.64394, 1.64742, 1.64684, 1.6373, 1.63655, 1.63464, 1.63234, 1.6307, 1.62996, 1.62728, 1.62639, 1.62606, 1.62452, 1.62336, 1.64515, 1.62371, 1.61809, 1.61712, 1.62662, 1.63342, 1.66183, 1.68377, 1.71231, 1.79936, 1.86145, 1.87573, 1.91104, 1.98584, 1.98571, 1.87433, 1.84301, 1.61164, 1.58501, 1.58645, 1.58363, 1.58862, 1.58994, 1.59624, 1.60215, 1.60295, 1.5973, 1.60165, 1.61342, 1.60671, 1.60659, 1.61355, 1.58771, 1.59749, 1.59158, 1.58879, 1.58332, 1.57747, 1.57221, 1.5645, 1.56146, 1.56073, 1.55854, 1.55758, 1.55536, 1.55357, 1.55223, 1.5615, 1.54878, 1.54796, 1.55275, 1.54425, 1.54231, 1.53979, 1.53868, 1.5389, 1.53667, 1.53539, 1.53495, 1.53433, 1.53188, 1.52966, 1.52813, 1.52668, 1.52542, 1.52292, 1.51996, 1.51967, 1.51725, 1.5158, 1.5154, 1.51428, 1.51488, 1.51449, 1.51265, 1.51223, 1.51131, 1.51034, 1.50981, 1.50781, 1.50689, 1.50528, 1.5133, 1.50236, 1.50207, 1.50134, 1.49877, 1.49717, 1.49708, 1.49636, 1.49627, 1.49525, 1.49539, 1.49539, 1.49582, 1.50981, 1.49004, 1.48749, 1.4926, 1.49262, 1.48184, 1.4859, 1.50507, 1.50575, 1.52716, 1.53401, 1.538, 1.57884, 1.6024, 1.54598, 1.53859, 1.52735, 1.50236, 1.49345, 1.4977, 1.50264, 1.55642, 1.52139, 1.52277, 1.5852, 1.51355, 1.50266, 1.48373, 1.46065, 1.45669, 1.46292, 1.47587, 1.47239, 1.46297, 1.45948, 1.45625, 1.46122, 1.45378, 1.44909, 1.44866, 1.44712, 1.44471, 1.44597, 1.45003, 1.44205, 1.43965, 1.43779, 1.43688, 1.436, 1.4337, 1.43292, 1.43045, 1.42878, 1.42721, 1.42658, 1.42629, 1.42567, 1.42312, 1.42307, 1.41991, 1.41945, 1.41783, 1.41597, 1.41534, 1.41565, 1.41521, 1.41408, 1.41311, 1.41266, 1.41239, 1.41146, 1.41052, 1.40872, 1.40784, 1.40678, 1.40624, 1.40569, 1.40372, 1.40214, 1.40128, 1.39937, 1.39841, 1.39571, 1.39602, 1.39675, 1.3924, 1.39204, 1.39163, 1.38992, 1.38835, 1.38806, 1.38766, 1.38595, 1.38545, 1.3829, 1.38258, 1.38235, 1.38207, 1.38111, 1.38096, 1.3807, 1.37922, 1.37765, 1.37808, 1.37642, 1.37562, 1.37456, 1.37342, 1.37163, 1.40187, 1.37021, 1.37014, 1.36826, 1.3672, 1.36628, 1.3857, 1.36453, 1.37163, 1.36705, 1.3601, 1.38475, 1.36773, 1.36099, 1.35764, 1.35771, 1.36012, 1.3683, 1.35833, 1.36031, 1.36401, 1.37238, 1.35893, 1.34213, 1.35358, 1.42244, 1.40677, 1.46837, 1.47298, 1.54815, 1.56123, 1.60997, 1.6296, 1.66593, 1.67311, 1.65361, 1.65292, 1.62367, 1.48889, 1.39518, 1.31905, 1.32292, 1.34604, 1.34774, 1.33949, 1.36062, 1.34739, 1.34394, 1.33259, 1.33085, 1.3333, 1.33004, 1.32611, 1.32692, 1.32699, 1.32647, 1.32588, 1.32567, 1.32627, 1.3257, 1.32572, 1.32184, 1.32618, 1.32492, 1.32298, 1.32282, 1.32224, 1.31996, 1.3201
1.65364, 1.6544, 1.65421, 1.65297, 1.6522, 1.6522, 1.65724, 1.64799, 1.6472, 1.64695, 1.6453, 1.64394, 1.64209, 1.64172, 1.63837, 1.63748, 1.63407, 1.63361, 1.63409, 1.64325, 1.62738, 1.62605, 1.62372, 1.62345, 1.62123, 1.62238, 1.62301, 1.62132, 1.62123, 1.6266, 1.6027, 1.61516, 1.64095, 1.68373, 1.70359, 1.75434, 1.82334, 1.82164, 1.83053, 2.04053, 2.05076, 2.15601, 1.94859, 1.80465, 1.63819, 1.57672, 1.55817, 1.57389, 1.5825, 1.58183, 1.56231, 1.56429, 1.56676, 1.58242, 1.57057, 1.57875, 1.58823, 1.6064, 1.61263, 1.6035, 1.59391, 1.5947, 1.58157, 1.57761, 1.57641, 1.5761, 1.56855, 1.57177, 1.5598, 1.55542, 1.55216, 1.55043, 1.54844, 1.5487, 1.54959, 1.54856, 1.54781, 1.54409, 1.54366, 1.54138, 1.53992, 1.5397, 1.53741, 1.53562, 1.53495, 1.5347, 1.53451, 1.53121, 1.52979, 1.52857, 1.52949, 1.52805, 1.52467, 1.52237, 1.52136, 1.51812, 1.51606, 1.51636, 1.51572, 1.51632, 1.5129, 1.5115, 1.51041, 1.50911, 1.5076, 1.50703, 1.50596, 1.50388, 1.50247, 1.50157, 1.5006, 1.50618, 1.4999, 1.49749, 1.49604, 1.49564, 1.49341, 1.49219, 1.49146, 1.49171, 1.49118, 1.49077, 1.49683, 1.49408, 1.49862, 1.49543, 1.50291, 1.49936, 1.49443, 1.4912, 1.4989, 1.51954, 1.5342, 1.53733, 1.54552, 1.54627, 1.55134, 1.53064, 1.55841, 1.51354, 1.51523, 1.50726, 1.50272, 1.50608, 1.52812, 1.53856, 1.51953, 1.5259, 1.4987, 1.51055, 1.45802, 1.46326, 1.47477, 1.47846, 1.4755, 1.46072, 1.45889, 1.45454, 1.45217, 1.45151, 1.44975, 1.44732, 1.44642, 1.44302, 1.44259, 1.44167, 1.43858, 1.4378, 1.43676, 1.43683, 1.43453, 1.43337, 1.43154, 1.42977, 1.42752, 1.42691, 1.42574, 1.42577, 1.42621, 1.42518, 1.42431, 1.4234, 1.42226, 1.42079, 1.4197, 1.41891, 1.41744, 1.41754, 1.41565, 1.414, 1.41272, 1.41302, 1.41132, 1.41027, 1.40868, 1.40839, 1.40725, 1.4058, 1.40451, 1.4021, 1.39942, 1.40077, 1.39978, 1.39936, 1.39851, 1.39606, 1.39524, 1.39489, 1.39453, 1.39436, 1.39257, 1.39188, 1.39007, 1.38888, 1.3883, 1.3863, 1.38452, 1.38293, 1.38326, 1.38248, 1.38184, 1.37968, 1.37901, 1.37815, 1.37707, 1.37519, 1.37762, 1.37448, 1.37341, 1.37178, 1.37109, 1.3695, 1.3713, 1.37379, 1.3699, 1.36757, 1.36714, 1.36568, 1.36455, 1.36483, 1.36233, 1.36145, 1.36144, 1.36177, 1.35987, 1.36029, 1.35896, 1.35813, 1.36226, 1.35719, 1.35807, 1.37071, 1.37346, 1.37519, 1.34413, 1.34412, 1.36839, 1.42347, 1.45467, 1.50208, 1.50907, 1.54695, 1.59664, 1.62753, 1.64391, 1.65411, 1.64421, 1.59831, 1.50676, 1.46563, 1.37854, 1.30633, 1.33375, 1.34482, 1.34183, 1.34321, 1.34097, 1.33629, 1.33519, 1.34982, 1.33163, 1.33162, 1.33333, 1.32924, 1.32641, 1.33007, 1.32646, 1.32459, 1.32615, 1.32903, 1.32481, 1.32561, 1.32567, 1.3252, 1.32549, 1.32431, 1.32234, 1.3244, 1.32261, 1.32026
