1.6658, 1.63741, 1.62452, 1.61541, 1.61315, 1.6166, 1.61082, 1.6046, 1.62603, 1.647, 1.67034, 1.71436, 1.7044, 1.55755, 1.57401, 1.57326, 1.55779, 1.55095, 1.56251, 1.55133, 1.5409, 1.53657, 1.52562, 1.52292, 1.52006, 1.50993, 1.5067, 1.50227, 1.50026, 1.49644, 1.49412, 1.48908, 1.48508, 1.4796, 1.4716, 1.47195, 1.46671, 1.46803, 1.45133, 1.55071, 1.71199, 1.71545, 1.63934, 1.41714, 1.44041, 1.4316, 1.42566, 1.42003, 1.41638, 1.41181, 1.40629, 1.40448, 1.40279, 1.39992, 1.39758, 1.39118, 1.38732, 1.38362, 1.38038, 1.37869, 1.37524, 1.36813, 1.36509, 1.36198, 1.35877, 1.35837, 1.35266, 1.35348, 1.35394, 1.35459, 1.34788, 1.34753, 1.34451, 1.35648, 1.34622, 1.3535, 1.35977, 1.35492, 1.37777, 1.36808, 1.35715, 1.33039, 1.3159, 1.31329, 1.31995, 1.29439, 1.29542, 1.29041, 1.29039, 1.29173
1.68168, 1.62871, 1.62866, 1.61777, 1.61519, 1.61287, 1.61429, 1.61359, 1.63466, 1.64476, 1.69445, 1.72077, 1.67282, 1.59217, 1.56595, 1.57492, 1.56525, 1.5513, 1.54887, 1.55135, 1.541, 1.54788, 1.5446, 1.52229, 1.52107, 1.51606, 1.5099, 1.50347, 1.50101, 1.49883, 1.49498, 1.4901, 1.4845, 1.47744, 1.47439, 1.4707, 1.47211, 1.46979, 1.46919, 1.5209, 1.67146, 1.72775, 1.54919, 1.41898, 1.4451, 1.44364, 1.42757, 1.42383, 1.42035, 1.41439, 1.41046, 1.40589, 1.40442, 1.40114, 1.39697, 1.3909, 1.38863, 1.38919, 1.38385, 1.38128, 1.3777, 1.37041, 1.36509, 1.36133, 1.35752, 1.35756, 1.35693, 1.3602, 1.35395, 1.35414, 1.35181, 1.34475, 1.34235, 1.37084, 1.37421, 1.35135, 1.38174, 1.36063, 1.38623, 1.37258, 1.35423, 1.31441, 1.31321, 1.31697, 1.30164, 1.30112, 1.30238, 1.29631, 1.29307, 1.29134
1.66529, 1.64486, 1.62637, 1.61881, 1.6149, 1.61425, 1.61642, 1.59894, 1.64542, 1.64813, 1.69775, 1.6998, 1.72538, 1.6016, 1.57994, 1.58412, 1.55902, 1.55494, 1.56194, 1.55562, 1.56581, 1.5522, 1.52507, 1.52539, 1.52385, 1.51229, 1.50855, 1.5056, 1.50298, 1.49879, 1.49717, 1.49189, 1.48745, 1.48094, 1.47691, 1.47672, 1.47452, 1.47481, 1.44346, 1.55979, 1.6303, 1.74666, 1.5313, 1.45356, 1.45462, 1.44178, 1.43299, 1.426, 1.42311, 1.41557, 1.41267, 1.40789, 1.40252, 1.40371, 1.39792, 1.39512, 1.39226, 1.39039, 1.38931, 1.38156, 1.38109, 1.37283, 1.36574, 1.36177, 1.3606, 1.3598, 1.35838, 1.36108, 1.36169, 1.35766, 1.35395, 1.3476, 1.34677, 1.34825, 1.36153, 1.34711, 1.35862, 1.40574, 1.39661, 1.3849, 1.34918, 1.33224, 1.32043, 1.319, 1.30278, 1.29923, 1.29895, 1.29857, 1.29738, 1.29201
1.6904, 1.66559, 1.62744, 1.63068, 1.61722, 1.61713, 1.62199, 1.63804, 1.64343, 1.64857, 1.69531, 1.70665, 1.69054, 1.6037, 1.57257, 1.57255, 1.56092, 1.5577, 1.55082, 1.56668, 1.55344, 1.54493, 1.53712, 1.5246, 1.51979, 1.51891, 1.51189, 1.50563, 1.50457, 1.4987, 1.49625, 1.49301, 1.48961, 1.48544, 1.48165, 1.48124, 1.4787, 1.47966, 1.47454, 1.55905, 1.68774, 1.73367, 1.68679, 1.42986, 1.45264, 1.45089, 1.4376, 1.43788, 1.42308, 1.41859, 1.41743, 1.4115, 1.40867, 1.40324, 1.3998, 1.39717, 1.39495, 1.39368, 1.3893, 1.38811, 1.38423, 1.37558, 1.3739, 1.36556, 1.36214, 1.35777, 1.35906, 1.36146, 1.36384, 1.35987, 1.35692, 1.35397, 1.35024, 1.35013, 1.35055, 1.34748, 1.35595, 1.3824, 1.37241, 1.4296, 1.38494, 1.32631, 1.3275, 1.32529, 1.31245, 1.30472, 1.30273, 1.3013, 1.2963, 1.29525
1.67947, 1.68719, 1.63832, 1.62575, 1.62857, 1.62567, 1.62561, 1.63381, 1.6297, 1.64611, 1.68368, 1.69789, 1.68544, 1.59569, 1.56743, 1.58224, 1.58161, 1.56204, 1.56378, 1.5692, 1.56213, 1.54023, 1.54143, 1.53771, 1.5217, 1.52014, 1.51645, 1.51187, 1.5064, 1.50187, 1.49845, 1.49328, 1.49201, 1.48961, 1.48858, 1.48266, 1.48015, 1.47804, 1.47408, 1.54708, 1.62965, 1.75488, 1.6459, 1.46371, 1.45613, 1.46134, 1.44445, 1.43419, 1.43055, 1.4237, 1.42024, 1.41603, 1.41372, 1.41263, 1.40184, 1.40022, 1.39966, 1.39496, 1.3921, 1.38901, 1.39362, 1.37864, 1.37705, 1.3724, 1.36099, 1.35773, 1.35871, 1.36344, 1.36249, 1.36118, 1.35525, 1.35373, 1.35279, 1.35231, 1.35789, 1.35399, 1.36848, 1.37826, 1.43661, 1.39811, 1.38448, 1.32484, 1.33489, 1.3398, 1.31433, 1.30725, 1.30785, 1.30701, 1.30578, 1.30147
1.67664, 1.66121, 1.64787, 1.63793, 1.62188, 1.61975, 1.63656, 1.62616, 1.63661, 1.66427, 1.68644, 1.69914, 1.66479, 1.60191, 1.58898, 1.57449, 1.56399, 1.55679, 1.56177, 1.56535, 1.55956, 1.54185, 1.53557, 1.53109, 1.52485, 1.52328, 1.51726, 1.51306, 1.51028, 1.50391, 1.5069, 1.49745, 1.49291, 1.49073, 1.48794, 1.48257, 1.4924, 1.4908, 1.44097, 1.57153, 1.71673, 1.73798, 1.60302, 1.44242, 1.46143, 1.46298, 1.45592, 1.43679, 1.43083, 1.42627, 1.42252, 1.41948, 1.41696, 1.42236, 1.40649, 1.40203, 1.39999, 1.39618, 1.39421, 1.39335, 1.38808, 1.38489, 1.37782, 1.36948, 1.36813, 1.35917, 1.35748, 1.3601, 1.36123, 1.3591, 1.35911, 1.35184, 1.35043, 1.3502, 1.36274, 1.36096, 1.39162, 1.3789, 1.38567, 1.42368, 1.39516, 1.32969, 1.33555, 1.32829, 1.33049, 1.31276, 1.307, 1.30886, 1.30852, 1.30513
1.65734, 1.67905, 1.63155, 1.63018, 1.6208, 1.61828, 1.63421, 1.59938, 1.64697, 1.67839, 1.70533, 1.70669, 1.71994, 1.5615, 1.57698, 1.58304, 1.56532, 1.56895, 1.55776, 1.55156, 1.55924, 1.53969, 1.53691, 1.53386, 1.53322, 1.52121, 1.51833, 1.51631, 1.50996, 1.50602, 1.50315, 1.49932, 1.49567, 1.49313, 1.49072, 1.48487, 1.4809, 1.48546, 1.48109, 1.5687, 1.72461, 1.73826, 1.56469, 1.43427, 1.45536, 1.45562, 1.43973, 1.43736, 1.43272, 1.42702, 1.42204, 1.42175, 1.41716, 1.42022, 1.40743, 1.40649, 1.40209, 1.39829, 1.39721, 1.39345, 1.38928, 1.3818, 1.38064, 1.36991, 1.36641, 1.36203, 1.36009, 1.35896, 1.35772, 1.35482, 1.35282, 1.3512, 1.35029, 1.35186, 1.35664, 1.34723, 1.3726, 1.40112, 1.39679, 1.43672, 1.37763, 1.34133, 1.32607, 1.32048, 1.3274, 1.3124, 1.30855, 1.30728, 1.30828, 1.30878
1.66184, 1.65489, 1.64293, 1.62993, 1.6214, 1.61912, 1.62118, 1.62022, 1.61065, 1.68181, 1.71354, 1.75499, 1.66388, 1.58258, 1.58883, 1.58978, 1.57595, 1.56383, 1.55524, 1.5653, 1.56672, 1.54244, 1.53896, 1.53819, 1.53011, 1.52464, 1.52375, 1.51888, 1.52121, 1.50638, 1.50341, 1.50156, 1.49947, 1.49675, 1.49396, 1.48958, 1.48934, 1.49545, 1.45622, 1.5038, 1.71647, 1.72353, 1.64045, 1.4203, 1.46573, 1.45164, 1.44133, 1.44436, 1.43621, 1.43054, 1.42372, 1.42255, 1.41562, 1.4142, 1.41053, 1.40527, 1.40461, 1.40191, 1.40206, 1.39749, 1.39156, 1.38589, 1.37867, 1.37179, 1.36863, 1.36424, 1.36052, 1.35891, 1.36009, 1.35377, 1.35303, 1.35091, 1.36026, 1.35773, 1.35826, 1.37339, 1.40578, 1.38821, 1.41635, 1.41529, 1.36626, 1.32402, 1.327, 1.32544, 1.31784, 1.32439, 1.3136, 1.30634, 1.3072, 1.31104
1.66306, 1.64505, 1.6481, 1.63458, 1.62691, 1.62193, 1.62383, 1.62127, 1.63168, 1.6748, 1.69312, 1.77165, 1.74403, 1.58854, 1.58396, 1.58305, 1.57135, 1.57132, 1.55748, 1.56138, 1.58336, 1.54609, 1.54414, 1.54071, 1.54749, 1.52736, 1.52192, 1.51978, 1.51619, 1.50758, 1.50541, 1.50247, 1.50316, 1.49736, 1.49486, 1.49654, 1.48277, 1.49323, 1.46889, 1.56849, 1.68862, 1.7173, 1.57861, 1.43379, 1.45536, 1.4581, 1.44623, 1.43987, 1.43453, 1.42829, 1.42723, 1.42483, 1.4197, 1.41814, 1.41457, 1.40838, 1.4059, 1.40476, 1.40321, 1.39875, 1.39899, 1.38696, 1.3894, 1.373, 1.37162, 1.37044, 1.36449, 1.361, 1.35768, 1.35678, 1.3547, 1.35451, 1.35255, 1.35301, 1.36438, 1.34597, 1.38261, 1.39011, 1.40125, 1.42519, 1.37997, 1.31001, 1.32962, 1.32639, 1.32218, 1.31597, 1.30929, 1.30658, 1.31235, 1.30866
1.6578, 1.65953, 1.64194, 1.63584, 1.65471, 1.62521, 1.6258, 1.62197, 1.63532, 1.66852, 1.66629, 1.74769, 1.73551, 1.60451, 1.5968, 1.58203, 1.58171, 1.56523, 1.56529, 1.56495, 1.57122, 1.55551, 1.54695, 1.5487, 1.53474, 1.52662, 1.52406, 1.52078, 1.51455, 1.50965, 1.50579, 1.50326, 1.50104, 1.49611, 1.49871, 1.48774, 1.48628, 1.48524, 1.45064, 1.56886, 1.66974, 1.73513, 1.69324, 1.4269, 1.46037, 1.45491, 1.44698, 1.44518, 1.43406, 1.42984, 1.4276, 1.42577, 1.42196, 1.41925, 1.41532, 1.40877, 1.40746, 1.40363, 1.40359, 1.40223, 1.39861, 1.39936, 1.38558, 1.37578, 1.37391, 1.37048, 1.36739, 1.36763, 1.36154, 1.36412, 1.35892, 1.35503, 1.35068, 1.36123, 1.35499, 1.36389, 1.38606, 1.39321, 1.39931, 1.40425, 1.37018, 1.32066, 1.33403, 1.33136, 1.31902, 1.31592, 1.31013, 1.30788, 1.31655, 1.30591
1.65308, 1.64076, 1.6466, 1.63793, 1.64418, 1.63298, 1.63428, 1.61687, 1.60968, 1.69228, 1.71888, 1.75881, 1.69935, 1.57066, 1.58788, 1.58479, 1.5856, 1.56753, 1.56184, 1.56246, 1.56801, 1.5615, 1.55207, 1.5503, 1.53779, 1.53063, 1.52728, 1.52417, 1.51588, 1.51038, 1.50517, 1.50286, 1.50004, 1.49503, 1.49316, 1.48693, 1.49641, 1.48564, 1.45395, 1.53397, 1.61235, 1.73781, 1.658, 1.44197, 1.44148, 1.45753, 1.45072, 1.43871, 1.44985, 1.43024, 1.42936, 1.42422, 1.4207, 1.41891, 1.41445, 1.40929, 1.40333, 1.4026, 1.40239, 1.40305, 1.40089, 1.395, 1.38834, 1.38365, 1.3772, 1.37404, 1.37061, 1.36551, 1.36425, 1.3643, 1.36056, 1.3555, 1.36145, 1.35248, 1.36151, 1.36087, 1.37906, 1.38904, 1.44098, 1.40646, 1.39879, 1.3231, 1.33733, 1.33953, 1.32197, 1.3181, 1.31051, 1.30629, 1.30615, 1.30381
1.64787, 1.65133, 1.65478, 1.63828, 1.63407, 1.62567, 1.62714, 1.59996, 1.6274, 1.67719, 1.69418, 1.76527, 1.75534, 1.67152, 1.59286, 1.59292, 1.57394, 1.56443, 1.55758, 1.56192, 1.56236, 1.55093, 1.56376, 1.54391, 1.53805, 1.53189, 1.52902, 1.52457, 1.51515, 1.51201, 1.50536, 1.50431, 1.49969, 1.51716, 1.49443, 1.49908, 1.48677, 1.48458, 1.47323, 1.53759, 1.59776, 1.72047, 1.56016, 1.48965, 1.45766, 1.45805, 1.44484, 1.43886, 1.4574, 1.42968, 1.42954, 1.42784, 1.4234, 1.41969, 1.41613, 1.41241, 1.40334, 1.40181, 1.40211, 1.40276, 1.40309, 1.3973, 1.39168, 1.41945, 1.38836, 1.37674, 1.37091, 1.36962, 1.3663, 1.36544, 1.36156, 1.35439, 1.35183, 1.35373, 1.36077, 1.3513, 1.39532, 1.3815, 1.39985, 1.41473, 1.38857, 1.33776, 1.33658, 1.33198, 1.3206, 1.31841, 1.31637, 1.30669, 1.33449, 1.3029
1.6506, 1.65579, 1.67595, 1.64127, 1.6358, 1.63768, 1.62802, 1.62739, 1.63702, 1.66234, 1.73835, 1.75526, 1.73638, 1.59309, 1.59191, 1.59188, 1.56891, 1.56515, 1.56122, 1.55845, 1.54896, 1.5645, 1.54737, 1.54536, 1.5358, 1.53408, 1.53093, 1.52178, 1.51608, 1.51265, 1.50758, 1.50506, 1.50447, 1.4969, 1.49325, 1.48781, 1.4859, 1.48453, 1.45828, 1.5141, 1.66802, 1.70077, 1.61409, 1.42963, 1.45804, 1.4534, 1.4447, 1.43713, 1.43278, 1.42964, 1.42804, 1.42649, 1.4198, 1.41975, 1.41391, 1.40769, 1.40313, 1.40271, 1.40208, 1.40176, 1.40323, 1.39806, 1.38994, 1.38729, 1.38369, 1.37568, 1.37363, 1.3719, 1.37042, 1.369, 1.36538, 1.35684, 1.3508, 1.35103, 1.35792, 1.34175, 1.38197, 1.38969, 1.41149, 1.42024, 1.40374, 1.33742, 1.33074, 1.32679, 1.3243, 1.32101, 1.31375, 1.31233, 1.30907, 1.30713
1.65603, 1.65461, 1.66772, 1.66481, 1.63658, 1.62666, 1.62947, 1.6165, 1.61074, 1.67529, 1.71995, 1.7356, 1.73541, 1.67568, 1.59595, 1.60265, 1.57181, 1.56686, 1.56113, 1.55436, 1.5483, 1.5577, 1.54843, 1.54151, 1.5364, 1.53375, 1.53156, 1.52274, 1.51867, 1.51189, 1.50857, 1.50673, 1.49931, 1.49933, 1.49559, 1.48834, 1.4866, 1.4854, 1.47288, 1.5109, 1.63061, 1.67484, 1.64809, 1.45038, 1.43705, 1.44865, 1.4549, 1.43677, 1.4335, 1.43042, 1.42619, 1.42368, 1.42228, 1.41916, 1.41313, 1.40948, 1.40502, 1.40215, 1.40144, 1.40172, 1.39849, 1.39709, 1.39259, 1.39256, 1.3933, 1.3806, 1.37477, 1.37541, 1.37328, 1.37345, 1.36685, 1.36471, 1.35515, 1.35304, 1.35712, 1.36143, 1.39234, 1.39718, 1.42632, 1.42138, 1.41286, 1.32344, 1.33304, 1.33669, 1.32472, 1.31876, 1.31536, 1.31079, 1.30512, 1.30551
1.66121, 1.65903, 1.65864, 1.66233, 1.63812, 1.63376, 1.63439, 1.61757, 1.65838, 1.68411, 1.70388, 1.78082, 1.78479, 1.58256, 1.60858, 1.59743, 1.58797, 1.57167, 1.57141, 1.555, 1.55102, 1.57585, 1.54447, 1.55503, 1.54384, 1.53503, 1.53173, 1.5278, 1.5225, 1.51637, 1.51152, 1.50823, 1.50554, 1.50301, 1.50346, 1.4949, 1.48766, 1.49221, 1.4688, 1.58567, 1.68261, 1.69417, 1.66201, 1.42651, 1.45718, 1.46846, 1.45693, 1.43784, 1.4328, 1.4312, 1.42658, 1.42414, 1.41981, 1.41836, 1.4135, 1.4093, 1.40608, 1.40171, 1.40146, 1.39991, 1.39907, 1.39852, 1.39374, 1.39151, 1.38806, 1.38421, 1.37401, 1.37603, 1.37432, 1.37288, 1.36887, 1.36472, 1.35745, 1.35491, 1.35748, 1.33711, 1.38813, 1.40529, 1.40514, 1.4399, 1.41789, 1.32827, 1.35002, 1.32809, 1.32408, 1.31915, 1.31521, 1.31448, 1.31966, 1.31246
1.65997, 1.66674, 1.67161, 1.65845, 1.64136, 1.63907, 1.63146, 1.62683, 1.65061, 1.70695, 1.73396, 1.7761, 1.73697, 1.58384, 1.59641, 1.59524, 1.58291, 1.57387, 1.58186, 1.56286, 1.55037, 1.55919, 1.56215, 1.55308, 1.54131, 1.53678, 1.5356, 1.52803, 1.5258, 1.51967, 1.51638, 1.51226, 1.50728, 1.50232, 1.49876, 1.50025, 1.48798, 1.48858, 1.48712, 1.50809, 1.67279, 1.69551, 1.36568, 1.47571, 1.46024, 1.46035, 1.45112, 1.44161, 1.43762, 1.42838, 1.4372, 1.42336, 1.42328, 1.41955, 1.41898, 1.41364, 1.4078, 1.40388, 1.40154, 1.39887, 1.39814, 1.39548, 1.39289, 1.39241, 1.38664, 1.37909, 1.37849, 1.37648, 1.37498, 1.37837, 1.37159, 1.36636, 1.36255, 1.37507, 1.36035, 1.35854, 1.38057, 1.39135, 1.40438, 1.42814, 1.41525, 1.31999, 1.34418, 1.33424, 1.32423, 1.32126, 1.34122, 1.31652, 1.31282, 1.31308
1.6729, 1.66127, 1.65539, 1.66798, 1.66102, 1.6361, 1.62633, 1.62755, 1.63865, 1.69875, 1.72266, 1.76233, 1.72279, 1.65211, 1.58977, 1.59145, 1.57836, 1.57266, 1.56765, 1.56776, 1.56094, 1.55423, 1.55521, 1.55899, 1.54076, 1.53769, 1.53524, 1.5292, 1.532, 1.51947, 1.51708, 1.51355, 1.50723, 1.50229, 1.49687, 1.49286, 1.48833, 1.48797, 1.47446, 1.498, 1.66657, 1.69812, 1.61919, 1.44691, 1.45756, 1.45849, 1.44118, 1.4387, 1.43694, 1.43017, 1.42873, 1.42328, 1.42426, 1.42185, 1.4165, 1.41135, 1.40882, 1.40465, 1.40262, 1.39995, 1.3985, 1.39504, 1.39278, 1.39222, 1.38748, 1.37963, 1.37723, 1.37553, 1.37286, 1.37155, 1.37148, 1.36802, 1.36718, 1.37772, 1.36118, 1.35112, 1.37138, 1.42406, 1.40513, 1.4493, 1.42863, 1.32467, 1.34086, 1.3396, 1.32427, 1.31956, 1.31453, 1.31546, 1.31246, 1.30921
1.66373, 1.67528, 1.66299, 1.65172, 1.64571, 1.64188, 1.62427, 1.63043, 1.63323, 1.72115, 1.73083, 1.7484, 1.72408, 1.65347, 1.5922, 1.60327, 1.58101, 1.57658, 1.5707, 1.56171, 1.55686, 1.57299, 1.56306, 1.54663, 1.54268, 1.53998, 1.53287, 1.5301, 1.5248, 1.52282, 1.51792, 1.51428, 1.5098, 1.50371, 1.49849, 1.4939, 1.49038, 1.48993, 1.4826, 1.53173, 1.66463, 1.6993, 1.68699, 1.54392, 1.43412, 1.45546, 1.45474, 1.43931, 1.4383, 1.43626, 1.43104, 1.42591, 1.42362, 1.42122, 1.41689, 1.41401, 1.4093, 1.40619, 1.40368, 1.40194, 1.40143, 1.4011, 1.39662, 1.39247, 1.3851, 1.38263, 1.37908, 1.37799, 1.37508, 1.37168, 1.37097, 1.36828, 1.36832, 1.36865, 1.36735, 1.36705, 1.38911, 1.40263, 1.44428, 1.46019, 1.42435, 1.39122, 1.34118, 1.34328, 1.32303, 1.31884, 1.31583, 1.31483, 1.31285, 1.31005
1.66186, 1.6571, 1.65467, 1.67227, 1.64779, 1.63737, 1.6416, 1.61503, 1.61335, 1.71832, 1.71672, 1.72964, 1.72174, 1.66549, 1.59634, 1.58988, 1.58616, 1.57941, 1.5758, 1.5685, 1.56873, 1.565, 1.56247, 1.54713, 1.54228, 1.54492, 1.53335, 1.53185, 1.52782, 1.52268, 1.51766, 1.51086, 1.50911, 1.50186, 1.50464, 1.49402, 1.49249, 1.49334, 1.48979, 1.56319, 1.66796, 1.69623, 1.64702, 1.47794, 1.45426, 1.45358, 1.44693, 1.44206, 1.43971, 1.43688, 1.43397, 1.42771, 1.42927, 1.42304, 1.41936, 1.4176, 1.41287, 1.40698, 1.40513, 1.40511, 1.40261, 1.4006, 1.39669, 1.39331, 1.38764, 1.38324, 1.38069, 1.37613, 1.37447, 1.37328, 1.36855, 1.37002, 1.36808, 1.36669, 1.38244, 1.35478, 1.42261, 1.43024, 1.45374, 1.46563, 1.41398, 1.35157, 1.36184, 1.34331, 1.32556, 1.32325, 1.31412, 1.31324, 1.30918, 1.30886
1.66057, 1.65353, 1.65466, 1.67366, 1.65883, 1.65074, 1.63348, 1.63662, 1.62773, 1.70319, 1.75836, 1.7747, 1.75559, 1.69639, 1.60337, 1.60238, 1.5971, 1.58513, 1.57669, 1.57314, 1.5784, 1.57479, 1.57806, 1.55441, 1.5475, 1.53924, 1.54128, 1.53252, 1.52761, 1.52246, 1.52286, 1.5156, 1.54306, 1.50882, 1.50106, 1.49838, 1.49755, 1.49279, 1.48215, 1.57086, 1.69506, 1.70452, 1.70792, 1.51564, 1.45745, 1.46914, 1.45016, 1.4441, 1.44152, 1.43927, 1.43499, 1.43113, 1.4293, 1.42985, 1.42733, 1.42206, 1.41319, 1.41124, 1.41021, 1.40571, 1.40228, 1.40056, 1.39884, 1.39573, 1.38966, 1.38647, 1.38241, 1.37876, 1.37797, 1.37719, 1.37287, 1.36979, 1.37022, 1.36895, 1.37882, 1.36038, 1.38808, 1.40763, 1.4485, 1.45164, 1.43618, 1.32993, 1.35832, 1.36092, 1.32797, 1.34165, 1.31966, 1.31593, 1.31512, 1.32127
1.65841, 1.65773, 1.66511, 1.67615, 1.66826, 1.64736, 1.63857, 1.63712, 1.61287, 1.73298, 1.74747, 1.79291, 1.80637, 1.66659, 1.59915, 1.60859, 1.59955, 1.58627, 1.58201, 1.58298, 1.56566, 1.56281, 1.57469, 1.55796, 1.55187, 1.54269, 1.53687, 1.53601, 1.53093, 1.52674, 1.52392, 1.51808, 1.51338, 1.51549, 1.51285, 1.50247, 1.4982, 1.51668, 1.51219, 1.50441, 1.64823, 1.70196, 1.68736, 1.57539, 1.44281, 1.47194, 1.45414, 1.44916, 1.46391, 1.44056, 1.43644, 1.43397, 1.43053, 1.4286, 1.42999, 1.42659, 1.41953, 1.4148, 1.41213, 1.40944, 1.40859, 1.40513, 1.40019, 1.39679, 1.39024, 1.38783, 1.38338, 1.38764, 1.37926, 1.37795, 1.38063, 1.37462, 1.37489, 1.36776, 1.36971, 1.35749, 1.37869, 1.40347, 1.43437, 1.44992, 1.45116, 1.36102, 1.35361, 1.34396, 1.33659, 1.33698, 1.32224, 1.32241, 1.31586, 1.31869
1.66212, 1.66528, 1.65813, 1.66472, 1.68283, 1.65882, 1.64489, 1.64593, 1.63529, 1.71536, 1.79187, 1.79366, 1.75758, 1.6746, 1.61318, 1.61631, 1.5958, 1.58714, 1.58191, 1.57516, 1.57253, 1.57517, 1.57432, 1.57892, 1.55021, 1.54455, 1.53783, 1.53545, 1.52848, 1.52663, 1.52233, 1.51476, 1.51, 1.50659, 1.50397, 1.50034, 1.49708, 1.49637, 1.49324, 1.5618, 1.56248, 1.66822, 1.69541, 1.60045, 1.43391, 1.46827, 1.4643, 1.45472, 1.4577, 1.44374, 1.43691, 1.4333, 1.43107, 1.42946, 1.42929, 1.42292, 1.42222, 1.41475, 1.41456, 1.4109, 1.40783, 1.40381, 1.40199, 1.39564, 1.39259, 1.38786, 1.38325, 1.38409, 1.37542, 1.37558, 1.37465, 1.37215, 1.36787, 1.36914, 1.36891, 1.34992, 1.3726, 1.44432, 1.44446, 1.44872, 1.45542, 1.36248, 1.36526, 1.3388, 1.33118, 1.32837, 1.32596, 1.32258, 1.31905, 1.32018
1.66447, 1.6583, 1.65429, 1.65416, 1.67602, 1.65903, 1.64714, 1.6485, 1.64314, 1.7255, 1.70087, 1.76969, 1.75469, 1.66044, 1.60683, 1.61494, 1.59333, 1.58512, 1.58063, 1.58071, 1.57264, 1.56832, 1.56792, 1.56753, 1.55429, 1.54407, 1.54128, 1.53284, 1.52825, 1.52473, 1.52283, 1.52265, 1.51491, 1.50888, 1.50382, 1.50304, 1.50001, 1.51401, 1.51352, 1.51416, 1.67525, 1.70368, 1.6949, 1.60539, 1.47439, 1.47171, 1.46318, 1.45676, 1.45288, 1.44445, 1.43937, 1.43702, 1.43156, 1.43051, 1.43009, 1.42587, 1.42042, 1.4219, 1.41747, 1.4136, 1.41179, 1.40637, 1.4006, 1.3982, 1.39092, 1.3851, 1.38666, 1.38069, 1.37849, 1.37132, 1.37149, 1.3698, 1.36808, 1.36733, 1.37459, 1.37146, 1.4165, 1.44301, 1.45313, 1.46187, 1.42967, 1.3875, 1.35863, 1.34151, 1.33724, 1.32721, 1.32664, 1.32316, 1.32071, 1.32206
1.6682, 1.66152, 1.65872, 1.66175, 1.66459, 1.64779, 1.6502, 1.6514, 1.62431, 1.69006, 1.73534, 1.78628, 1.77838, 1.7212, 1.59908, 1.60642, 1.58966, 1.58603, 1.58135, 1.57856, 1.57582, 1.57017, 1.58471, 1.57565, 1.55052, 1.54558, 1.54038, 1.53451, 1.53298, 1.52656, 1.52385, 1.51945, 1.5166, 1.51208, 1.50869, 1.50492, 1.49897, 1.50021, 1.49367, 1.50892, 1.66447, 1.70844, 1.70077, 1.56512, 1.47311, 1.47501, 1.46557, 1.46202, 1.45836, 1.44656, 1.44137, 1.43471, 1.42978, 1.42999, 1.42597, 1.42572, 1.42568, 1.41791, 1.41676, 1.41445, 1.41174, 1.40544, 1.39891, 1.3956, 1.38898, 1.38591, 1.38254, 1.38043, 1.37638, 1.37419, 1.37195, 1.37148, 1.36855, 1.38077, 1.37751, 1.36369, 1.41942, 1.46489, 1.45028, 1.46869, 1.4708, 1.39285, 1.34883, 1.3331, 1.32949, 1.32798, 1.33578, 1.33128, 1.31894, 1.32127
1.6713, 1.66839, 1.66171, 1.65785, 1.69612, 1.66183, 1.65195, 1.65914, 1.62323, 1.76326, 1.76594, 1.74335, 1.76056, 1.70692, 1.6094, 1.61092, 1.59556, 1.58572, 1.58365, 1.58185, 1.57287, 1.57854, 1.57788, 1.5792, 1.55385, 1.54773, 1.54066, 1.54032, 1.53269, 1.52834, 1.52577, 1.52076, 1.51664, 1.51785, 1.50879, 1.50566, 1.49935, 1.50061, 1.50566, 1.55766, 1.57826, 1.68642, 1.6957, 1.53132, 1.45101, 1.48235, 1.46952, 1.46433, 1.45509, 1.44999, 1.46047, 1.43696, 1.43371, 1.43093, 1.42982, 1.42602, 1.4221, 1.42001, 1.41752, 1.41521, 1.41297, 1.40478, 1.39999, 1.39577, 1.39009, 1.38508, 1.38289, 1.37756, 1.37779, 1.37238, 1.36898, 1.36947, 1.37307, 1.37121, 1.37762, 1.37645, 1.39929, 1.44412, 1.45104, 1.46792, 1.44508, 1.39248, 1.35469, 1.33635, 1.33247, 1.34012, 1.32497, 1.32452, 1.32184, 1.33771
1.67178, 1.66608, 1.66125, 1.662, 1.67917, 1.66786, 1.65576, 1.63804, 1.61825, 1.66943, 1.75935, 1.78084, 1.75739, 1.68257, 1.60734, 1.61332, 1.60148, 1.60017, 1.58217, 1.57687, 1.57228, 1.57111, 1.56694, 1.58788, 1.56628, 1.55093, 1.54318, 1.54037, 1.53491, 1.53146, 1.52785, 1.5227, 1.51759, 1.51878, 1.50992, 1.50871, 1.50715, 1.50433, 1.48498, 1.5649, 1.57403, 1.67114, 1.67823, 1.54168, 1.48903, 1.47492, 1.47477, 1.46916, 1.46236, 1.45023, 1.44484, 1.44135, 1.43424, 1.43293, 1.43372, 1.42829, 1.42459, 1.42256, 1.41908, 1.41859, 1.41277, 1.41378, 1.40254, 1.40036, 1.39379, 1.38872, 1.38273, 1.38013, 1.37662, 1.37176, 1.37098, 1.37136, 1.36878, 1.37275, 1.37851, 1.35853, 1.41526, 1.44462, 1.45157, 1.45678, 1.49675, 1.36541, 1.35645, 1.34127, 1.33475, 1.33235, 1.33317, 1.32872, 1.34131, 1.32757
1.67458, 1.67521, 1.66489, 1.65793, 1.66755, 1.66356, 1.6613, 1.65087, 1.63675, 1.68442, 1.79676, 1.79079, 1.73702, 1.72067, 1.60632, 1.6103, 1.59223, 1.5855, 1.59911, 1.5762, 1.57351, 1.57449, 1.57792, 1.5787, 1.57151, 1.55861, 1.55338, 1.54361, 1.53342, 1.53221, 1.52975, 1.52407, 1.51898, 1.51386, 1.51731, 1.50974, 1.51757, 1.50089, 1.50497, 1.52638, 1.62241, 1.68724, 1.70316, 1.6034, 1.46494, 1.48129, 1.47499, 1.46249, 1.46889, 1.4519, 1.44818, 1.44121, 1.43707, 1.43584, 1.43348, 1.42965, 1.42608, 1.4231, 1.42145, 1.41732, 1.41289, 1.40971, 1.40367, 1.40055, 1.39601, 1.39041, 1.38543, 1.38129, 1.38202, 1.37539, 1.37195, 1.37089, 1.37146, 1.37792, 1.39208, 1.36266, 1.42612, 1.45082, 1.47508, 1.46471, 1.42267, 1.37528, 1.34755, 1.34819, 1.33911, 1.34849, 1.32689, 1.3231, 1.32597, 1.32593
1.67582, 1.66831, 1.67902, 1.68282, 1.65964, 1.67214, 1.65465, 1.65731, 1.64121, 1.6514, 1.78537, 1.80838, 1.81758, 1.63434, 1.58986, 1.60488, 1.59708, 1.60003, 1.58297, 1.57797, 1.57455, 1.57085, 1.58639, 1.589, 1.55603, 1.55202, 1.54836, 1.54325, 1.53845, 1.53492, 1.53062, 1.52489, 1.51895, 1.51613, 1.52356, 1.50637, 1.51624, 1.53002, 1.50695, 1.55199, 1.57249, 1.6997, 1.70204, 1.54154, 1.45879, 1.47895, 1.47808, 1.47746, 1.45995, 1.45432, 1.4536, 1.44448, 1.44073, 1.43636, 1.43399, 1.43343, 1.42595, 1.42948, 1.42202, 1.42557, 1.41582, 1.4096, 1.40749, 1.40345, 1.39769, 1.39238, 1.38956, 1.3845, 1.38027, 1.37819, 1.37517, 1.37508, 1.37244, 1.38863, 1.38121, 1.36882, 1.42188, 1.44378, 1.48024, 1.46285, 1.44076, 1.36379, 1.35059, 1.35316, 1.33508, 1.3358, 1.34258, 1.33128, 1.32626, 1.35103
1.67693, 1.6712, 1.66763, 1.66956, 1.66447, 1.68984, 1.65915, 1.65532, 1.63366, 1.66318, 1.77177, 1.7977, 1.79929, 1.72651, 1.59984, 1.61226, 1.59227, 1.58801, 1.5838, 1.58195, 1.57885, 1.57154, 1.61591, 1.60596, 1.57488, 1.55199, 1.54763, 1.55721, 1.54729, 1.536, 1.53447, 1.52784, 1.52288, 1.51769, 1.51938, 1.51721, 1.50867, 1.51396, 1.50268, 1.50967, 1.57955, 1.67741, 1.68949, 1.52908, 1.49921, 1.48198, 1.47518, 1.46998, 1.46452, 1.45988, 1.45689, 1.44581, 1.44077, 1.44101, 1.4363, 1.43455, 1.4287, 1.4244, 1.42348, 1.41971, 1.41689, 1.40987, 1.40785, 1.40361, 1.39942, 1.39269, 1.3887, 1.38745, 1.38352, 1.38068, 1.37849, 1.37778, 1.37622, 1.37905, 1.38446, 1.38937, 1.38424, 1.46465, 1.46792, 1.47551, 1.47288, 1.42098, 1.33006, 1.35268, 1.33444, 1.33425, 1.3513, 1.32759, 1.32654, 1.32932
1.67847, 1.6722, 1.67263, 1.65992, 1.67277, 1.69913, 1.66948, 1.65239, 1.62782, 1.64158, 1.80582, 1.791, 1.81405, 1.6992, 1.61139, 1.60646, 1.59699, 1.59196, 1.58553, 1.58311, 1.57939, 1.59877, 1.5978, 1.59348, 1.58018, 1.56536, 1.55715, 1.54504, 1.54155, 1.53954, 1.53497, 1.53319, 1.52489, 1.51999, 1.51667, 1.51108, 1.51528, 1.51482, 1.50769, 1.54325, 1.62468, 1.6657, 1.66503, 1.58691, 1.47202, 1.48721, 1.47475, 1.47401, 1.46723, 1.46105, 1.45474, 1.44899, 1.44743, 1.44363, 1.44005, 1.43966, 1.43193, 1.42903, 1.42366, 1.4194, 1.35155, 1.41247, 1.41159, 1.40823, 1.40006, 1.39515, 1.39066, 1.38841, 1.3869, 1.37983, 1.37968, 1.37772, 1.37843, 1.38256, 1.3893, 1.39616, 1.41106, 1.48978, 1.47091, 1.47444, 1.43324, 1.41344, 1.32049, 1.35112, 1.33713, 1.33801, 1.3328, 1.33211, 1.32985, 1.328
1.67968, 1.67177, 1.66817, 1.66525, 1.65867, 1.6827, 1.65625, 1.65724, 1.6589, 1.69235, 1.7301, 1.83129, 1.824, 1.7022, 1.6002, 1.60991, 1.59701, 1.59488, 1.59639, 1.59531, 1.58063, 1.57576, 1.58168, 1.57317, 1.57442, 1.55791, 1.55162, 1.54788, 1.54424, 1.54398, 1.5381, 1.53271, 1.54156, 1.52743, 1.51969, 1.51653, 1.51599, 1.52417, 1.52231, 1.53213, 1.68759, 1.6854, 1.69721, 1.54847, 1.47485, 1.49158, 1.47605, 1.46924, 1.46464, 1.46068, 1.46036, 1.45259, 1.44981, 1.44728, 1.4434, 1.43671, 1.4337, 1.42802, 1.42405, 1.42094, 1.41944, 1.41423, 1.41241, 1.40756, 1.40871, 1.39593, 1.39422, 1.38955, 1.38647, 1.38544, 1.3822, 1.38114, 1.40021, 1.38297, 1.38232, 1.40299, 1.43947, 1.5373, 1.47276, 1.47763, 1.49224, 1.407, 1.35989, 1.34957, 1.33864, 1.3392, 1.33559, 1.33339, 1.33117, 1.33208
1.67764, 1.66944, 1.67201, 1.65894, 1.65964, 1.67486, 1.66759, 1.64908, 1.65146, 1.70371, 1.79594, 1.83677, 1.80374, 1.62704, 1.59189, 1.62724, 1.60008, 1.59531, 1.59295, 1.58601, 1.58227, 1.57779, 1.5731, 1.57796, 1.58472, 1.55454, 1.55913, 1.54881, 1.54493, 1.54106, 1.53835, 1.54772, 1.53444, 1.52276, 1.51788, 1.51619, 1.51322, 1.51318, 1.48405, 1.57954, 1.64785, 1.68442, 1.68785, 1.56595, 1.48893, 1.48852, 1.47434, 1.46871, 1.47636, 1.45937, 1.45729, 1.45028, 1.45337, 1.44684, 1.44145, 1.43639, 1.43511, 1.43003, 1.42464, 1.42269, 1.41989, 1.41653, 1.41044, 1.40671, 1.40161, 1.39863, 1.39816, 1.3915, 1.38956, 1.3925, 1.38863, 1.38552, 1.38089, 1.38997, 1.38883, 1.3859, 1.41586, 1.47076, 1.4736, 1.48153, 1.49283, 1.43993, 1.35185, 1.35188, 1.34815, 1.33964, 1.33919, 1.33492, 1.33669, 1.33224
1.67576, 1.67162, 1.6659, 1.66041, 1.65756, 1.66988, 1.67538, 1.64718, 1.62548, 1.74155, 1.80081, 1.79744, 1.78989, 1.68955, 1.60544, 1.60679, 1.61417, 1.59766, 1.59222, 1.5858, 1.58083, 1.57481, 1.57218, 1.56954, 1.57735, 1.557, 1.5519, 1.54762, 1.5444, 1.5413, 1.53693, 1.53048, 1.5247, 1.52232, 1.51785, 1.51191, 1.50993, 1.51051, 1.52335, 1.50567, 1.64462, 1.69191, 1.69304, 1.55857, 1.45138, 1.48154, 1.47078, 1.46752, 1.46101, 1.45606, 1.4526, 1.44802, 1.44617, 1.44355, 1.44137, 1.43888, 1.43503, 1.43182, 1.42937, 1.42486, 1.42188, 1.4176, 1.41446, 1.40944, 1.40398, 1.40165, 1.3958, 1.39374, 1.40515, 1.38746, 1.38649, 1.38164, 1.38063, 1.38821, 1.39585, 1.38558, 1.43014, 1.49502, 1.47822, 1.50495, 1.48424, 1.48848, 1.37202, 1.35531, 1.34071, 1.34104, 1.33972, 1.33975, 1.33403, 1.33161
1.67454, 1.67116, 1.66433, 1.65899, 1.65724, 1.66308, 1.67628, 1.64767, 1.63856, 1.71267, 1.7661, 1.81707, 1.80826, 1.73659, 1.59196, 1.61027, 1.59911, 1.59591, 1.59186, 1.58461, 1.58158, 1.57632, 1.57185, 1.56904, 1.56856, 1.5742, 1.55942, 1.54754, 1.54418, 1.54203, 1.53701, 1.52877, 1.52078, 1.51705, 1.51232, 1.50933, 1.50823, 1.51048, 1.50387, 1.50735, 1.49876, 1.67531, 1.69263, 1.57374, 1.46094, 1.4793, 1.47058, 1.46833, 1.45725, 1.45497, 1.45066, 1.44532, 1.45408, 1.44125, 1.43722, 1.43497, 1.43336, 1.43252, 1.42675, 1.42643, 1.42244, 1.41695, 1.41366, 1.41049, 1.40713, 1.40137, 1.39978, 1.39523, 1.38978, 1.38738, 1.38639, 1.38375, 1.38282, 1.40231, 1.38815, 1.37116, 1.37978, 1.48107, 1.47633, 1.48496, 1.47477, 1.35737, 1.35397, 1.34889, 1.34426, 1.3434, 1.34028, 1.34137, 1.33506, 1.33201
1.67488, 1.66979, 1.66209, 1.66129, 1.65729, 1.65907, 1.68215, 1.64755, 1.63423, 1.70406, 1.78041, 1.8425, 1.83055, 1.7926, 1.60498, 1.61334, 1.60411, 1.59854, 1.59556, 1.58372, 1.58471, 1.57767, 1.57152, 1.56606, 1.56132, 1.57232, 1.55573, 1.54913, 1.54137, 1.53728, 1.53139, 1.52844, 1.52366, 1.51437, 1.50974, 1.50662, 1.52123, 1.50384, 1.51271, 1.472, 1.64041, 1.69251, 1.69993, 1.52766, 1.43845, 1.4775, 1.46844, 1.46163, 1.45632, 1.46131, 1.44878, 1.45331, 1.44208, 1.44, 1.43513, 1.43143, 1.43258, 1.42987, 1.42915, 1.42243, 1.41981, 1.417, 1.41527, 1.4104, 1.40757, 1.40368, 1.40062, 1.39453, 1.39044, 1.38906, 1.38462, 1.38483, 1.37884, 1.38226, 1.39248, 1.37081, 1.37902, 1.45396, 1.45465, 1.49672, 1.49458, 1.4536, 1.35006, 1.36441, 1.35474, 1.34812, 1.34476, 1.33665, 1.33401, 1.32732
1.67663, 1.67144, 1.66554, 1.66769, 1.65576, 1.65922, 1.68985, 1.64307, 1.64563, 1.69136, 1.76283, 1.81435, 1.81674, 1.74996, 1.62611, 1.61491, 1.59983, 1.59755, 1.59318, 1.59092, 1.57865, 1.57208, 1.57483, 1.56662, 1.56748, 1.57023, 1.54851, 1.54511, 1.54699, 1.544, 1.53388, 1.52704, 1.52761, 1.52318, 1.50857, 1.50383, 1.50353, 1.50343, 1.51552, 1.52618, 1.62695, 1.72161, 1.71727, 1.6267, 1.46185, 1.47889, 1.47169, 1.4697, 1.4671, 1.4571, 1.44563, 1.44367, 1.44226, 1.44012, 1.43331, 1.43026, 1.42996, 1.429, 1.42607, 1.42278, 1.41934, 1.42249, 1.4155, 1.41341, 1.40977, 1.40699, 1.39899, 1.39702, 1.39128, 1.38819, 1.38777, 1.38154, 1.39445, 1.38591, 1.38075, 1.37662, 1.39291, 1.43757, 1.50886, 1.49633, 1.49787, 1.42686, 1.35413, 1.35054, 1.36049, 1.35542, 1.35144, 1.34006, 1.33087, 1.33093
1.67803, 1.67932, 1.66752, 1.65964, 1.65585, 1.66059, 1.67861, 1.64583, 1.63457, 1.69288, 1.74498, 1.83345, 1.81727, 1.75725, 1.61805, 1.6078, 1.60446, 1.59661, 1.5899, 1.5889, 1.57628, 1.57154, 1.56857, 1.56738, 1.55964, 1.57626, 1.54476, 1.55099, 1.559, 1.54169, 1.53014, 1.52744, 1.51977, 1.51045, 1.50367, 1.51924, 1.51977, 1.51606, 1.49619, 1.48548, 1.63686, 1.68684, 1.62319, 1.63751, 1.43712, 1.47806, 1.47877, 1.4614, 1.46487, 1.44837, 1.44405, 1.45086, 1.44168, 1.43691, 1.43393, 1.42949, 1.43137, 1.42892, 1.4263, 1.42593, 1.41802, 1.41525, 1.41483, 1.41581, 1.41107, 1.40356, 1.40116, 1.39277, 1.38905, 1.38783, 1.38857, 1.40211, 1.3801, 1.3747, 1.38782, 1.37786, 1.38218, 1.45447, 1.47547, 1.50886, 1.46717, 1.46352, 1.35116, 1.37113, 1.34636, 1.34294, 1.35409, 1.33609, 1.3327, 1.33087
1.68205, 1.67275, 1.66643, 1.658, 1.65886, 1.64958, 1.66284, 1.6681, 1.64007, 1.70361, 1.80701, 1.83428, 1.83562, 1.74962, 1.60258, 1.6105, 1.5945, 1.58915, 1.58524, 1.58464, 1.57524, 1.57186, 1.56661, 1.56113, 1.55576, 1.58197, 1.55462, 1.53953, 1.54404, 1.54123, 1.53426, 1.5241, 1.51977, 1.50833, 1.4996, 1.49947, 1.49896, 1.51253, 1.50262, 1.48661, 1.65392, 1.66029, 1.61684, 1.60219, 1.47057, 1.48904, 1.46885, 1.46341, 1.45384, 1.44991, 1.44507, 1.44107, 1.43979, 1.43545, 1.43161, 1.42912, 1.42867, 1.42961, 1.42422, 1.41989, 1.41706, 1.41546, 1.41252, 1.40907, 1.40313, 1.39871, 1.39532, 1.38993, 1.38637, 1.38503, 1.38126, 1.38271, 1.37949, 1.37561, 1.38377, 1.378, 1.44808, 1.47999, 1.4913, 1.5116, 1.46229, 1.45603, 1.32274, 1.35194, 1.34694, 1.34027, 1.3383, 1.33368, 1.32859, 1.32907
1.67788, 1.67508, 1.67304, 1.66511, 1.66071, 1.65506, 1.67813, 1.67192, 1.64747, 1.66177, 1.74746, 1.81993, 1.82775, 1.78702, 1.62328, 1.61277, 1.59415, 1.59888, 1.59075, 1.59128, 1.58088, 1.57914, 1.57425, 1.56861, 1.56086, 1.57572, 1.5581, 1.54499, 1.54417, 1.54396, 1.54045, 1.52834, 1.52015, 1.51186, 1.50617, 1.49968, 1.51207, 1.51994, 1.52122, 1.54636, 1.6531, 1.66907, 1.67365, 1.57679, 1.48247, 1.48452, 1.4783, 1.45918, 1.45994, 1.45222, 1.45077, 1.44782, 1.44249, 1.43685, 1.43346, 1.43, 1.43428, 1.433, 1.42736, 1.42244, 1.41982, 1.41719, 1.41336, 1.40742, 1.40449, 1.39917, 1.39822, 1.39383, 1.38839, 1.38944, 1.38566, 1.38178, 1.38006, 1.3753, 1.38119, 1.39162, 1.39222, 1.447, 1.49626, 1.5199, 1.49331, 1.46139, 1.35491, 1.35601, 1.34698, 1.35109, 1.34182, 1.33777, 1.33339, 1.33412
1.68837, 1.68044, 1.67677, 1.67146, 1.67469, 1.66516, 1.67818, 1.66831, 1.63735, 1.62819, 1.79284, 1.82464, 1.82566, 1.78397, 1.61907, 1.624, 1.60543, 1.60382, 1.59191, 1.59176, 1.58535, 1.58559, 1.57946, 1.56898, 1.5606, 1.56641, 1.57164, 1.56113, 1.55125, 1.54591, 1.5432, 1.53496, 1.52341, 1.52153, 1.51731, 1.51262, 1.52119, 1.52308, 1.49992, 1.49611, 1.6167, 1.66252, 1.62293, 1.5764, 1.45691, 1.46897, 1.49938, 1.46783, 1.47239, 1.45791, 1.45496, 1.45116, 1.44535, 1.44132, 1.43606, 1.43376, 1.43686, 1.43741, 1.42631, 1.42502, 1.42437, 1.42305, 1.41915, 1.40899, 1.40549, 1.40338, 1.4043, 1.40222, 1.39249, 1.39394, 1.38996, 1.38468, 1.38282, 1.38505, 1.37926, 1.38581, 1.35965, 1.4776, 1.53447, 1.51443, 1.5092, 1.44963, 1.37621, 1.36048, 1.3636, 1.345, 1.34989, 1.34443, 1.3394, 1.33345
1.69242, 1.68775, 1.68529, 1.6787, 1.67578, 1.68189, 1.67637, 1.67134, 1.61967, 1.63018, 1.77737, 1.8563, 1.85613, 1.65445, 1.64136, 1.61502, 1.60919, 1.60841, 1.59715, 1.5933, 1.58938, 1.59125, 1.58534, 1.57438, 1.56671, 1.56645, 1.5694, 1.55963, 1.56076, 1.54359, 1.54341, 1.54369, 1.53436, 1.52667, 1.52472, 1.51931, 1.5274, 1.52945, 1.53618, 1.54983, 1.60879, 1.66155, 1.65321, 1.61323, 1.50765, 1.47214, 1.50186, 1.48212, 1.47917, 1.47789, 1.46262, 1.46134, 1.45126, 1.44357, 1.44104, 1.44135, 1.44684, 1.44459, 1.4345, 1.43065, 1.42942, 1.42951, 1.42425, 1.42001, 1.41298, 1.41051, 1.40891, 1.41207, 1.40272, 1.39804, 1.39315, 1.4161, 1.38855, 1.38739, 1.39434, 1.38079, 1.43718, 1.4674, 1.4982, 1.52075, 1.52925, 1.46788, 1.37076, 1.36194, 1.36058, 1.3487, 1.35077, 1.34867, 1.34395, 1.33869
1.692, 1.68293, 1.68153, 1.67822, 1.69218, 1.67564, 1.66838, 1.66253, 1.62973, 1.68506, 1.76833, 1.85152, 1.83827, 1.7797, 1.61127, 1.62706, 1.60651, 1.61225, 1.60715, 1.59029, 1.58856, 1.58572, 1.58199, 1.58436, 1.57012, 1.57044, 1.59508, 1.56785, 1.56816, 1.54701, 1.54105, 1.54172, 1.5327, 1.52871, 1.52574, 1.52939, 1.533, 1.53346, 1.53106, 1.57504, 1.63513, 1.64034, 1.63765, 1.61326, 1.47103, 1.47854, 1.48229, 1.47922, 1.4748, 1.4751, 1.46816, 1.4637, 1.46032, 1.45212, 1.44178, 1.44426, 1.44656, 1.4406, 1.43377, 1.43084, 1.42992, 1.42616, 1.42234, 1.41676, 1.41492, 1.43264, 1.40687, 1.40498, 1.40209, 1.39565, 1.39167, 1.38928, 1.38583, 1.38806, 1.39544, 1.39516, 1.44546, 1.47714, 1.52257, 1.52036, 1.55129, 1.47922, 1.35727, 1.38004, 1.37443, 1.34961, 1.35776, 1.34384, 1.36473, 1.33812
1.68265, 1.67235, 1.66949, 1.6698, 1.66993, 1.67073, 1.66409, 1.67168, 1.64827, 1.7068, 1.72132, 1.84041, 1.85534, 1.76831, 1.59848, 1.62305, 1.61433, 1.60318, 1.59895, 1.58939, 1.58283, 1.58153, 1.57459, 1.56605, 1.56941, 1.57523, 1.57227, 1.56639, 1.5579, 1.5396, 1.54073, 1.53981, 1.53302, 1.52482, 1.53871, 1.52081, 1.51625, 1.52342, 1.53374, 1.48113, 1.60273, 1.66822, 1.66445, 1.62414, 1.52573, 1.48365, 1.48719, 1.48269, 1.47916, 1.47164, 1.46603, 1.46792, 1.45708, 1.44844, 1.44299, 1.43874, 1.44291, 1.446, 1.42887, 1.42076, 1.4243, 1.42087, 1.41581, 1.41303, 1.41178, 1.40377, 1.40219, 1.39741, 1.39543, 1.38853, 1.38765, 1.38847, 1.37816, 1.38136, 1.38455, 1.35563, 1.37519, 1.49528, 1.52568, 1.52235, 1.50632, 1.42946, 1.34825, 1.37643, 1.35488, 1.35686, 1.35711, 1.36086, 1.32867, 1.3315
1.72055, 1.662, 1.66176, 1.65789, 1.66751, 1.66833, 1.65541, 1.66162, 1.6604, 1.69938, 1.78776, 1.84878, 1.8415, 1.75864, 1.62762, 1.61624, 1.61704, 1.60028, 1.58854, 1.56811, 1.58174, 1.58315, 1.57201, 1.55621, 1.56259, 1.56187, 1.57616, 1.56503, 1.55531, 1.54053, 1.54139, 1.5403, 1.53354, 1.51248, 1.51741, 1.51928, 1.50853, 1.51929, 1.50852, 1.52377, 1.56868, 1.637, 1.65091, 1.61737, 1.48886, 1.4825, 1.4826, 1.4869, 1.46384, 1.46373, 1.465, 1.454, 1.4531, 1.43714, 1.42672, 1.42654, 1.44054, 1.43693, 1.4198, 1.41173, 1.41197, 1.41417, 1.41195, 1.40404, 1.40594, 1.38809, 1.38844, 1.38678, 1.38856, 1.38791, 1.38404, 1.37228, 1.37221, 1.37273, 1.37919, 1.38621, 1.41949, 1.48568, 1.51417, 1.49535, 1.50279, 1.44804, 1.35812, 1.37091, 1.35122, 1.34887, 1.34729, 1.33544, 1.3177, 1.31695
1.68136, 1.66402, 1.66173, 1.65846, 1.67255, 1.66809, 1.66802, 1.65464, 1.61025, 1.63715, 1.74859, 1.85121, 1.86235, 1.75435, 1.60661, 1.62705, 1.61691, 1.6098, 1.58538, 1.5714, 1.58357, 1.58028, 1.57084, 1.55545, 1.55654, 1.55479, 1.5648, 1.5554, 1.55479, 1.55257, 1.54382, 1.53996, 1.52762, 1.516, 1.5269, 1.5256, 1.50936, 1.51727, 1.50263, 1.48645, 1.585, 1.62348, 1.65028, 1.61792, 1.47512, 1.47266, 1.47968, 1.49999, 1.47669, 1.46547, 1.46834, 1.44778, 1.4464, 1.44276, 1.42755, 1.4335, 1.44354, 1.43827, 1.42421, 1.40989, 1.40499, 1.40366, 1.40118, 1.39813, 1.39574, 1.39171, 1.38418, 1.38774, 1.39163, 1.39694, 1.39266, 1.37511, 1.36837, 1.36867, 1.39308, 1.38779, 1.38213, 1.49308, 1.50988, 1.53328, 1.53755, 1.4281, 1.3088, 1.36095, 1.35618, 1.34862, 1.34115, 1.33031, 1.32305, 1.31855
1.68688, 1.6759, 1.67051, 1.69417, 1.67289, 1.68337, 1.66458, 1.65892, 1.67165, 1.68187, 1.72726, 1.8764, 1.89192, 1.88876, 1.61577, 1.62412, 1.62265, 1.61191, 1.61669, 1.59695, 1.587, 1.58488, 1.57913, 1.5645, 1.5829, 1.56135, 1.57139, 1.57441, 1.55998, 1.56257, 1.54458, 1.54126, 1.53607, 1.52849, 1.52858, 1.53883, 1.52676, 1.51764, 1.52664, 1.49447, 1.64023, 1.65737, 1.669, 1.67785, 1.5116, 1.48123, 1.47805, 1.49931, 1.4913, 1.48454, 1.47519, 1.45445, 1.45144, 1.44179, 1.43682, 1.45374, 1.44664, 1.4422, 1.43137, 1.42544, 1.41687, 1.41005, 1.40839, 1.40881, 1.40385, 1.40172, 1.39909, 1.39942, 1.40157, 1.4043, 1.4057, 1.40273, 1.38885, 1.3913, 1.39205, 1.40245, 1.4032, 1.3948, 1.4713, 1.50738, 1.48165, 1.38707, 1.34094, 1.36861, 1.3821, 1.36465, 1.36467, 1.33349, 1.33648, 1.33414
1.69042, 1.68306, 1.69154, 1.68009, 1.70215, 1.68188, 1.67709, 1.65565, 1.64439, 1.69402, 1.77192, 1.90224, 1.89729, 1.76305, 1.64022, 1.6475, 1.62175, 1.6165, 1.60659, 1.59919, 1.59163, 1.59082, 1.58329, 1.57738, 1.58538, 1.57656, 1.57532, 1.58004, 1.55923, 1.56034, 1.5472, 1.54742, 1.5388, 1.53912, 1.53245, 1.53348, 1.52348, 1.53145, 1.52597, 1.50918, 1.64169, 1.67688, 1.67663, 1.65603, 1.49219, 1.46726, 1.49931, 1.5095, 1.48876, 1.47873, 1.48656, 1.46425, 1.45757, 1.44874, 1.44622, 1.44795, 1.44808, 1.44426, 1.43709, 1.44085, 1.42686, 1.42242, 1.41977, 1.41727, 1.41897, 1.43867, 1.41086, 1.41068, 1.40685, 1.40522, 1.40206, 1.39433, 1.39049, 1.40572, 1.39794, 1.39171, 1.4096, 1.46792, 1.47874, 1.51806, 1.52714, 1.47604, 1.33384, 1.37703, 1.36108, 1.37209, 1.34607, 1.3499, 1.34503, 1.34209
1.68672, 1.72091, 1.67907, 1.67197, 1.6839, 1.66192, 1.68103, 1.65824, 1.63863, 1.68708, 1.75756, 1.84797, 1.87304, 1.69984, 1.60962, 1.62911, 1.61598, 1.61336, 1.60316, 1.59075, 1.59662, 1.58813, 1.58164, 1.5784, 1.57268, 1.57122, 1.56734, 1.57412, 1.5724, 1.5676, 1.55431, 1.53971, 1.53542, 1.53154, 1.52686, 1.52398, 1.51696, 1.5246, 1.5281, 1.5202, 1.60297, 1.65068, 1.63903, 1.6205, 1.56886, 1.46177, 1.48552, 1.50296, 1.48292, 1.48229, 1.4714, 1.45513, 1.45052, 1.44969, 1.44453, 1.44353, 1.44438, 1.43855, 1.4318, 1.43258, 1.42918, 1.42572, 1.42295, 1.41743, 1.41447, 1.40949, 1.40498, 1.4026, 1.40072, 1.39669, 1.39613, 1.40925, 1.40351, 1.39944, 1.38685, 1.40341, 1.39454, 1.42639, 1.48979, 1.53801, 1.52355, 1.48253, 1.36469, 1.36746, 1.37057, 1.35292, 1.36223, 1.34114, 1.36607, 1.33748
1.68056, 1.67778, 1.67309, 1.66927, 1.66341, 1.65808, 1.65431, 1.65809, 1.63128, 1.67594, 1.7165, 1.83843, 1.86555, 1.82768, 1.59986, 1.62069, 1.60972, 1.60111, 1.59533, 1.58708, 1.58297, 1.57895, 1.57891, 1.57472, 1.5661, 1.56389, 1.55947, 1.56922, 1.56528, 1.56037, 1.54762, 1.53243, 1.5321, 1.52608, 1.52454, 1.5203, 1.51585, 1.5138, 1.5267, 1.51376, 1.57349, 1.65413, 1.65314, 1.66172, 1.50641, 1.45528, 1.47962, 1.48007, 1.47823, 1.46616, 1.454, 1.44631, 1.44223, 1.4431, 1.44284, 1.43964, 1.43579, 1.43407, 1.43069, 1.42814, 1.42376, 1.41927, 1.41628, 1.41267, 1.41835, 1.40068, 1.39895, 1.39373, 1.39203, 1.39088, 1.38932, 1.38642, 1.38508, 1.39037, 1.38167, 1.38954, 1.39378, 1.45646, 1.51341, 1.52163, 1.51157, 1.46752, 1.34484, 1.36188, 1.35389, 1.34436, 1.33741, 1.33528, 1.33611, 1.33644
1.68138, 1.67608, 1.67187, 1.67038, 1.66504, 1.65778, 1.65059, 1.64943, 1.65285, 1.6402, 1.78609, 1.84509, 1.86853, 1.76067, 1.59586, 1.61621, 1.61119, 1.60125, 1.5899, 1.58175, 1.57491, 1.56931, 1.57139, 1.57078, 1.55841, 1.56052, 1.55643, 1.56567, 1.55369, 1.54362, 1.5365, 1.52814, 1.5271, 1.53104, 1.52099, 1.51827, 1.51765, 1.51702, 1.51047, 1.49429, 1.59966, 1.63998, 1.6374, 1.59994, 1.5568, 1.4688, 1.48273, 1.49047, 1.49143, 1.45839, 1.45568, 1.44192, 1.4383, 1.44011, 1.44162, 1.43926, 1.43319, 1.43075, 1.42827, 1.4226, 1.41776, 1.42652, 1.40938, 1.40265, 1.39871, 1.39933, 1.39192, 1.38894, 1.38976, 1.38411, 1.38536, 1.38404, 1.39845, 1.37634, 1.38203, 1.38343, 1.37648, 1.40075, 1.49985, 1.53445, 1.54751, 1.45501, 1.36715, 1.36782, 1.36183, 1.34229, 1.33433, 1.33252, 1.33391, 1.3327
1.67393, 1.66907, 1.66604, 1.66437, 1.67016, 1.66212, 1.64472, 1.6464, 1.64711, 1.64867, 1.75889, 1.82507, 1.86973, 1.69057, 1.62385, 1.60968, 1.61353, 1.59642, 1.6048, 1.57621, 1.56922, 1.56471, 1.56387, 1.56225, 1.56085, 1.56144, 1.55854, 1.54891, 1.56856, 1.53884, 1.53012, 1.52692, 1.52352, 1.53705, 1.51303, 1.508, 1.50439, 1.50685, 1.51931, 1.50745, 1.58884, 1.63455, 1.63818, 1.57204, 1.53622, 1.45295, 1.48211, 1.48825, 1.49403, 1.45275, 1.4483, 1.44014, 1.43896, 1.43802, 1.44465, 1.46127, 1.42982, 1.42539, 1.42472, 1.41738, 1.415, 1.41772, 1.40588, 1.39995, 1.39543, 1.39445, 1.38674, 1.38403, 1.3845, 1.38766, 1.38325, 1.37672, 1.37257, 1.37211, 1.39202, 1.38647, 1.38449, 1.44367, 1.48524, 1.53238, 1.53992, 1.49546, 1.35699, 1.36136, 1.34676, 1.33675, 1.33603, 1.33002, 1.32922, 1.34485
1.6716, 1.66636, 1.66339, 1.65969, 1.65734, 1.64847, 1.64597, 1.64805, 1.66143, 1.64672, 1.72166, 1.8171, 1.87911, 1.81709, 1.57794, 1.60712, 1.59374, 1.59688, 1.58357, 1.57822, 1.57116, 1.5632, 1.56039, 1.55784, 1.55652, 1.55383, 1.556, 1.54941, 1.55651, 1.53773, 1.53097, 1.52664, 1.52334, 1.52066, 1.51395, 1.50438, 1.49961, 1.50282, 1.50274, 1.48269, 1.58563, 1.62755, 1.63128, 1.58795, 1.53793, 1.46068, 1.47979, 1.47241, 1.47221, 1.44868, 1.44788, 1.43809, 1.43733, 1.43753, 1.43835, 1.43734, 1.42813, 1.42477, 1.42091, 1.41643, 1.42225, 1.42158, 1.41028, 1.3998, 1.39452, 1.39015, 1.38634, 1.38291, 1.382, 1.37949, 1.38228, 1.37677, 1.37153, 1.36775, 1.38849, 1.38951, 1.34103, 1.43767, 1.45977, 1.56061, 1.54105, 1.49919, 1.35459, 1.36366, 1.35474, 1.33259, 1.33146, 1.3298, 1.33214, 1.33755
1.67931, 1.67666, 1.68669, 1.66453, 1.67499, 1.65368, 1.66439, 1.64794, 1.65866, 1.63107, 1.72457, 1.78485, 1.8982, 1.74185, 1.59633, 1.61812, 1.60676, 1.59571, 1.59808, 1.58887, 1.57858, 1.57571, 1.57356, 1.56324, 1.56566, 1.55582, 1.55348, 1.56127, 1.55841, 1.54937, 1.54711, 1.54408, 1.52864, 1.52989, 1.5123, 1.51923, 1.5066, 1.52366, 1.51779, 1.47321, 1.56246, 1.63558, 1.63887, 1.59413, 1.46555, 1.47861, 1.47984, 1.47704, 1.48199, 1.45672, 1.45115, 1.44665, 1.44582, 1.4446, 1.43905, 1.43662, 1.43428, 1.43179, 1.42634, 1.42229, 1.42154, 1.421, 1.42381, 1.40417, 1.40321, 1.39938, 1.39298, 1.40211, 1.38929, 1.39199, 1.39463, 1.38887, 1.37804, 1.37585, 1.37809, 1.38833, 1.39668, 1.44094, 1.47545, 1.54245, 1.55901, 1.50335, 1.37139, 1.36499, 1.35534, 1.34348, 1.35182, 1.35755, 1.33275, 1.33115
1.69414, 1.68029, 1.68898, 1.66547, 1.66073, 1.65554, 1.65268, 1.65376, 1.64153, 1.65916, 1.678, 1.83562, 1.89057, 1.77374, 1.58805, 1.61688, 1.60723, 1.61019, 1.59546, 1.59306, 1.58289, 1.57524, 1.56789, 1.5628, 1.56817, 1.5561, 1.55027, 1.54501, 1.54953, 1.56188, 1.54769, 1.53179, 1.52364, 1.52302, 1.51183, 1.50948, 1.50549, 1.51277, 1.51709, 1.48127, 1.54191, 1.65415, 1.65787, 1.58544, 1.52236, 1.46254, 1.49559, 1.47915, 1.48215, 1.4569, 1.45435, 1.44831, 1.4441, 1.44654, 1.44103, 1.43201, 1.43056, 1.42719, 1.42465, 1.43051, 1.41806, 1.41464, 1.41226, 1.40912, 1.40016, 1.39626, 1.40052, 1.38973, 1.38584, 1.38525, 1.38276, 1.37625, 1.37648, 1.3925, 1.37847, 1.37371, 1.36774, 1.41329, 1.50379, 1.51367, 1.57967, 1.53297, 1.36066, 1.37517, 1.35692, 1.3414, 1.34701, 1.33278, 1.33093, 1.32983
1.68848, 1.66911, 1.66265, 1.65231, 1.64813, 1.64782, 1.63819, 1.64522, 1.64684, 1.61387, 1.70643, 1.76222, 1.85856, 1.77174, 1.59239, 1.61289, 1.60686, 1.59306, 1.5888, 1.58181, 1.59734, 1.56589, 1.56015, 1.55437, 1.55064, 1.54737, 1.54035, 1.53642, 1.54211, 1.5443, 1.52721, 1.53533, 1.51852, 1.5065, 1.50408, 1.50022, 1.52294, 1.50255, 1.50596, 1.488, 1.55148, 1.60975, 1.63558, 1.60705, 1.53429, 1.45482, 1.47124, 1.4576, 1.49111, 1.4658, 1.44033, 1.43874, 1.43704, 1.43359, 1.42803, 1.42532, 1.42078, 1.42304, 1.41798, 1.41301, 1.40836, 1.40589, 1.39989, 1.39642, 1.38866, 1.38592, 1.38122, 1.38241, 1.37793, 1.37522, 1.37129, 1.36764, 1.389, 1.3785, 1.37869, 1.37294, 1.3298, 1.42384, 1.55934, 1.52451, 1.54996, 1.50533, 1.31395, 1.35288, 1.34326, 1.33121, 1.32876, 1.29956, 1.3201, 1.31761
1.67156, 1.66617, 1.65966, 1.66893, 1.66788, 1.63806, 1.63474, 1.63066, 1.62517, 1.5873, 1.72351, 1.81329, 1.88786, 1.77947, 1.57573, 1.59371, 1.59357, 1.58329, 1.58906, 1.5735, 1.56903, 1.56681, 1.5637, 1.55747, 1.55996, 1.55063, 1.53755, 1.53358, 1.5313, 1.54463, 1.52031, 1.51818, 1.51144, 1.50719, 1.50351, 1.502, 1.51606, 1.49514, 1.51674, 1.46558, 1.52775, 1.63842, 1.63759, 1.63188, 1.51374, 1.45413, 1.47651, 1.47651, 1.4634, 1.46296, 1.44056, 1.44136, 1.43389, 1.43441, 1.42568, 1.42022, 1.41617, 1.41164, 1.40898, 1.40409, 1.4009, 1.39579, 1.39178, 1.39144, 1.38852, 1.38658, 1.38104, 1.37667, 1.37337, 1.37041, 1.36623, 1.36454, 1.36093, 1.35806, 1.35741, 1.37084, 1.3364, 1.38855, 1.47402, 1.51444, 1.51348, 1.41779, 1.31234, 1.36776, 1.3307, 1.32375, 1.3234, 1.31723, 1.31667, 1.31313
1.67162, 1.66802, 1.65882, 1.65255, 1.68043, 1.63768, 1.63297, 1.62378, 1.62751, 1.61344, 1.67679, 1.79685, 1.8693, 1.71992, 1.5921, 1.59947, 1.60579, 1.58957, 1.57659, 1.57148, 1.56896, 1.56603, 1.56231, 1.55858, 1.55058, 1.54394, 1.53501, 1.53321, 1.52366, 1.55495, 1.52935, 1.52852, 1.53492, 1.50859, 1.50578, 1.49958, 1.49517, 1.49674, 1.49675, 1.46837, 1.56998, 1.62145, 1.64126, 1.61345, 1.53766, 1.44189, 1.46269, 1.46602, 1.45768, 1.463, 1.43959, 1.44407, 1.43034, 1.42823, 1.4205, 1.41654, 1.41226, 1.40971, 1.40634, 1.40143, 1.39474, 1.39254, 1.39167, 1.39058, 1.38858, 1.38515, 1.38113, 1.37653, 1.37522, 1.37053, 1.3681, 1.36222, 1.3608, 1.35807, 1.35689, 1.35998, 1.35532, 1.43852, 1.50027, 1.51687, 1.54388, 1.48887, 1.35185, 1.3419, 1.32983, 1.32044, 1.32031, 1.3186, 1.3151, 1.31539
1.66963, 1.66316, 1.66, 1.65207, 1.64536, 1.64452, 1.63208, 1.6255, 1.62471, 1.58907, 1.69932, 1.81987, 1.86451, 1.82979, 1.58877, 1.5954, 1.59054, 1.58278, 1.57854, 1.57279, 1.57, 1.56501, 1.55825, 1.55461, 1.54808, 1.54355, 1.57022, 1.53054, 1.52412, 1.54733, 1.53384, 1.52686, 1.51419, 1.52402, 1.50723, 1.49932, 1.50064, 1.49801, 1.50532, 1.48625, 1.56808, 1.62724, 1.62789, 1.60696, 1.55862, 1.47101, 1.46486, 1.4614, 1.47877, 1.46654, 1.44569, 1.44025, 1.43053, 1.42632, 1.42033, 1.41397, 1.41309, 1.40966, 1.40516, 1.40206, 1.40047, 1.39673, 1.39206, 1.39122, 1.38845, 1.38358, 1.37991, 1.37498, 1.36976, 1.36819, 1.3651, 1.36196, 1.35755, 1.35672, 1.35395, 1.37211, 1.38242, 1.49485, 1.53306, 1.5492, 1.54039, 1.48216, 1.31336, 1.33623, 1.32607, 1.34418, 1.31986, 1.31621, 1.31211, 1.31311
1.66286, 1.65795, 1.65252, 1.64893, 1.64362, 1.63726, 1.63269, 1.62873, 1.63821, 1.59799, 1.73762, 1.76183, 1.89191, 1.795, 1.61085, 1.59643, 1.59172, 1.5848, 1.57696, 1.57348, 1.56599, 1.56325, 1.56043, 1.55733, 1.55231, 1.54384, 1.5381, 1.53123, 1.53004, 1.54163, 1.53127, 1.51785, 1.51561, 1.51351, 1.51039, 1.50392, 1.50019, 1.49843, 1.50995, 1.4843, 1.56063, 1.60156, 1.63164, 1.62246, 1.56506, 1.44547, 1.47266, 1.45766, 1.46092, 1.4742, 1.45077, 1.44069, 1.43255, 1.42969, 1.42331, 1.41962, 1.41483, 1.41189, 1.41003, 1.40582, 1.40442, 1.40051, 1.39789, 1.39537, 1.39442, 1.38951, 1.38492, 1.37866, 1.37251, 1.37038, 1.36867, 1.36873, 1.36309, 1.35865, 1.35902, 1.36016, 1.33095, 1.44677, 1.50871, 1.52523, 1.52703, 1.42618, 1.3366, 1.33913, 1.32931, 1.32512, 1.31954, 1.31883, 1.31655, 1.31514
1.66273, 1.65565, 1.65028, 1.64487, 1.64154, 1.63768, 1.63427, 1.63025, 1.64081, 1.61337, 1.75162, 1.81457, 1.92416, 1.75042, 1.59578, 1.59981, 1.60327, 1.58636, 1.57757, 1.57873, 1.56514, 1.56021, 1.55851, 1.55752, 1.55305, 1.5436, 1.53928, 1.53719, 1.53119, 1.54699, 1.53595, 1.52055, 1.51711, 1.51451, 1.51208, 1.51062, 1.50222, 1.50683, 1.50239, 1.47121, 1.54034, 1.61724, 1.63168, 1.62366, 1.56615, 1.45994, 1.47022, 1.46535, 1.45615, 1.47197, 1.44403, 1.44096, 1.43556, 1.43011, 1.42696, 1.42395, 1.41881, 1.41608, 1.41159, 1.41009, 1.40692, 1.40562, 1.40115, 1.39981, 1.39716, 1.39171, 1.38795, 1.37911, 1.378, 1.375, 1.37158, 1.36886, 1.3644, 1.36403, 1.36212, 1.37136, 1.3886, 1.38818, 1.48121, 1.53749, 1.50006, 1.43798, 1.3425, 1.33676, 1.33168, 1.32419, 1.32408, 1.32263, 1.32064, 1.31689
1.66157, 1.65372, 1.6496, 1.64367, 1.64804, 1.63622, 1.63537, 1.6349, 1.63335, 1.62454, 1.74093, 1.83348, 1.89403, 1.88218, 1.58417, 1.60304, 1.5893, 1.58584, 1.59547, 1.56905, 1.56173, 1.5566, 1.55397, 1.55475, 1.55364, 1.54136, 1.54026, 1.53316, 1.53793, 1.53515, 1.53642, 1.5159, 1.5147, 1.51468, 1.51616, 1.50682, 1.51396, 1.5001, 1.49901, 1.47172, 1.53127, 1.59271, 1.61366, 1.61264, 1.55247, 1.46373, 1.46715, 1.45809, 1.45786, 1.48577, 1.46062, 1.44842, 1.43041, 1.42673, 1.42481, 1.42413, 1.41971, 1.41246, 1.41518, 1.41071, 1.40673, 1.40492, 1.40335, 1.39858, 1.39749, 1.39314, 1.39004, 1.38632, 1.37921, 1.37618, 1.37397, 1.37129, 1.37266, 1.36376, 1.36827, 1.36896, 1.34917, 1.42864, 1.47257, 1.55101, 1.53888, 1.4925, 1.32665, 1.3444, 1.32692, 1.32319, 1.32189, 1.32332, 1.31751, 1.31535
1.66031, 1.65152, 1.64933, 1.64442, 1.63853, 1.63661, 1.65151, 1.63587, 1.64927, 1.61987, 1.69705, 1.84534, 1.88259, 1.77605, 1.63269, 1.59672, 1.59921, 1.59349, 1.57325, 1.57025, 1.56267, 1.56352, 1.55299, 1.55819, 1.54689, 1.54313, 1.53856, 1.53312, 1.53088, 1.52312, 1.54536, 1.52538, 1.51274, 1.52767, 1.50263, 1.50032, 1.49645, 1.49312, 1.49688, 1.47348, 1.53538, 1.59633, 1.6099, 1.62083, 1.54861, 1.42756, 1.46907, 1.46478, 1.44723, 1.45761, 1.45468, 1.43411, 1.4313, 1.42546, 1.42594, 1.4257, 1.42014, 1.41319, 1.41254, 1.40827, 1.40813, 1.40686, 1.40389, 1.3997, 1.39182, 1.3897, 1.38338, 1.38473, 1.37598, 1.37215, 1.3712, 1.36752, 1.3655, 1.36466, 1.36091, 1.37753, 1.34752, 1.47516, 1.48266, 1.5528, 1.5762, 1.50012, 1.33081, 1.33337, 1.33325, 1.32532, 1.32233, 1.31904, 1.3221, 1.31613
1.66246, 1.65667, 1.65521, 1.65579, 1.64014, 1.64044, 1.63343, 1.64759, 1.63089, 1.61233, 1.70235, 1.85495, 1.89066, 1.75583, 1.57496, 1.59567, 1.59177, 1.58425, 1.59948, 1.56929, 1.56277, 1.56234, 1.55427, 1.55755, 1.54995, 1.54871, 1.54126, 1.53938, 1.52956, 1.52767, 1.53026, 1.51546, 1.51329, 1.50761, 1.50621, 1.49689, 1.49286, 1.49358, 1.49539, 1.48208, 1.50536, 1.58562, 1.60308, 1.58486, 1.55431, 1.44448, 1.46223, 1.44968, 1.4444, 1.46299, 1.45638, 1.43461, 1.4515, 1.44295, 1.42583, 1.42556, 1.41784, 1.41345, 1.41081, 1.40972, 1.40644, 1.40224, 1.39884, 1.39523, 1.39142, 1.38718, 1.38313, 1.37863, 1.37464, 1.37272, 1.37112, 1.36738, 1.36348, 1.36423, 1.3628, 1.36541, 1.35843, 1.45903, 1.49223, 1.55786, 1.55575, 1.47711, 1.31361, 1.33978, 1.32975, 1.32531, 1.32497, 1.32149, 1.32298, 1.31592
1.66635, 1.6616, 1.66154, 1.65603, 1.64681, 1.641, 1.63476, 1.63346, 1.63239, 1.6055, 1.69445, 1.86855, 1.89714, 1.73841, 1.56745, 1.59792, 1.60272, 1.58353, 1.57657, 1.57257, 1.56528, 1.56294, 1.5582, 1.55576, 1.55063, 1.54554, 1.54085, 1.53652, 1.53195, 1.52951, 1.54347, 1.52816, 1.52332, 1.51381, 1.50557, 1.51228, 1.49522, 1.49319, 1.49763, 1.47988, 1.54007, 1.53694, 1.60121, 1.59387, 1.54569, 1.46001, 1.45782, 1.45881, 1.45476, 1.4561, 1.46693, 1.4365, 1.43061, 1.42661, 1.42531, 1.4233, 1.4192, 1.41291, 1.41103, 1.40801, 1.40348, 1.40182, 1.39962, 1.39506, 1.39062, 1.38553, 1.38225, 1.37674, 1.37428, 1.37073, 1.3708, 1.36818, 1.36874, 1.3644, 1.36461, 1.37436, 1.36172, 1.44367, 1.49121, 1.54846, 1.54678, 1.41924, 1.3273, 1.34727, 1.34286, 1.3257, 1.32653, 1.32148, 1.32166, 1.31801
1.66938, 1.66834, 1.66712, 1.6577, 1.65102, 1.65142, 1.6382, 1.63435, 1.64427, 1.62013, 1.68897, 1.83741, 1.88365, 1.82001, 1.59011, 1.59923, 1.60216, 1.58566, 1.57631, 1.57189, 1.5668, 1.56581, 1.56101, 1.55615, 1.55236, 1.54668, 1.54137, 1.5364, 1.53303, 1.53309, 1.52361, 1.53372, 1.52959, 1.50943, 1.50383, 1.50247, 1.4959, 1.49721, 1.52049, 1.47214, 1.55705, 1.55802, 1.62943, 1.59689, 1.55897, 1.46165, 1.47046, 1.4585, 1.44722, 1.44504, 1.45951, 1.45809, 1.43246, 1.4329, 1.42306, 1.42158, 1.41787, 1.41715, 1.41947, 1.40636, 1.40357, 1.40153, 1.39864, 1.39354, 1.38956, 1.38445, 1.38232, 1.37725, 1.37608, 1.37288, 1.37102, 1.37596, 1.36565, 1.3623, 1.36224, 1.36578, 1.35816, 1.43118, 1.50427, 1.57618, 1.57145, 1.41485, 1.33676, 1.34944, 1.33699, 1.32974, 1.3252, 1.32414, 1.32331, 1.31707
1.6687, 1.6653, 1.66246, 1.65567, 1.65075, 1.64574, 1.6407, 1.63484, 1.64695, 1.62034, 1.67249, 1.8286, 1.87726, 1.86676, 1.57387, 1.60094, 1.60655, 1.60561, 1.58932, 1.5828, 1.59915, 1.56229, 1.55871, 1.55547, 1.55119, 1.5458, 1.54377, 1.53581, 1.53255, 1.52666, 1.53851, 1.54673, 1.51995, 1.51339, 1.50607, 1.50003, 1.49636, 1.49925, 1.49644, 1.49621, 1.52111, 1.5745, 1.59979, 1.60049, 1.52712, 1.44399, 1.47806, 1.46545, 1.44745, 1.45481, 1.46152, 1.45697, 1.44329, 1.42905, 1.42514, 1.4238, 1.41923, 1.41496, 1.41271, 1.40896, 1.40541, 1.40206, 1.39817, 1.39364, 1.38927, 1.38771, 1.38825, 1.38042, 1.37652, 1.37579, 1.37777, 1.36946, 1.3682, 1.36534, 1.36158, 1.36264, 1.36309, 1.44072, 1.4867, 1.56569, 1.56781, 1.51185, 1.35204, 1.35703, 1.33774, 1.36459, 1.33142, 1.3281, 1.32625, 1.31992
1.66894, 1.66604, 1.6593, 1.65575, 1.65104, 1.64496, 1.63763, 1.6331, 1.63196, 1.61089, 1.70023, 1.731, 1.86824, 1.81283, 1.70277, 1.59764, 1.5918, 1.5802, 1.58288, 1.56641, 1.56432, 1.56221, 1.55914, 1.55443, 1.55151, 1.55053, 1.54028, 1.53372, 1.55501, 1.52828, 1.52939, 1.54024, 1.51019, 1.50389, 1.50261, 1.51314, 1.4952, 1.49316, 1.50892, 1.48508, 1.52664, 1.59425, 1.6399, 1.60002, 1.50917, 1.47119, 1.45916, 1.46122, 1.44545, 1.44703, 1.45437, 1.45375, 1.44393, 1.42551, 1.42278, 1.41962, 1.41882, 1.4154, 1.41043, 1.40774, 1.40601, 1.40166, 1.39715, 1.39457, 1.393, 1.38463, 1.38084, 1.3785, 1.37798, 1.37313, 1.37299, 1.37119, 1.36805, 1.36142, 1.35846, 1.36353, 1.35428, 1.45007, 1.47486, 1.5507, 1.56685, 1.46378, 1.33025, 1.34753, 1.34183, 1.3343, 1.33365, 1.32761, 1.32568, 1.31922
1.66896, 1.66623, 1.6619, 1.65644, 1.65058, 1.66452, 1.63858, 1.63568, 1.64707, 1.6052, 1.67864, 1.79705, 1.87939, 1.73012, 1.58881, 1.59651, 1.58762, 1.58092, 1.57361, 1.5697, 1.56436, 1.56162, 1.55747, 1.55462, 1.55012, 1.55501, 1.54171, 1.54164, 1.53258, 1.528, 1.5206, 1.52962, 1.50977, 1.52384, 1.50287, 1.50604, 1.49537, 1.4927, 1.49892, 1.46205, 1.53111, 1.6029, 1.58846, 1.58006, 1.50362, 1.46411, 1.46718, 1.4503, 1.44554, 1.45435, 1.45644, 1.44748, 1.44288, 1.42576, 1.42392, 1.41968, 1.41812, 1.41759, 1.41252, 1.41058, 1.40604, 1.40058, 1.40295, 1.39797, 1.38983, 1.3832, 1.3811, 1.37873, 1.3764, 1.37374, 1.37322, 1.37183, 1.37459, 1.36868, 1.35877, 1.36193, 1.34363, 1.41306, 1.48919, 1.56327, 1.55442, 1.54618, 1.38462, 1.35489, 1.34056, 1.34108, 1.3328, 1.32652, 1.32341, 1.31951
1.66604, 1.66214, 1.65912, 1.65417, 1.64817, 1.64169, 1.63836, 1.63437, 1.64216, 1.62695, 1.72375, 1.70661, 1.86996, 2.02446, 1.57337, 1.60294, 1.59406, 1.58346, 1.57646, 1.57239, 1.58282, 1.56664, 1.55978, 1.55762, 1.55088, 1.54753, 1.54101, 1.53762, 1.53139, 1.52821, 1.52366, 1.52941, 1.52323, 1.51082, 1.50925, 1.50236, 1.49882, 1.49625, 1.50979, 1.47692, 1.53673, 1.59698, 1.59441, 1.59835, 1.57677, 1.46535, 1.4761, 1.459, 1.4478, 1.44623, 1.45406, 1.45626, 1.43197, 1.42742, 1.42463, 1.41991, 1.41826, 1.41772, 1.41288, 1.40998, 1.40575, 1.40927, 1.3988, 1.39377, 1.39052, 1.38479, 1.38207, 1.37831, 1.3754, 1.37155, 1.37077, 1.3697, 1.36491, 1.36312, 1.35691, 1.3572, 1.33709, 1.41699, 1.44881, 1.57576, 1.4814, 1.50584, 1.32749, 1.3483, 1.34631, 1.33604, 1.33205, 1.33041, 1.32584, 1.32237
1.66867, 1.66362, 1.65826, 1.65216, 1.64434, 1.64211, 1.63727, 1.63546, 1.63997, 1.61334, 1.66886, 1.72419, 1.89652, 1.88408, 1.57713, 1.60136, 1.59253, 1.58899, 1.57964, 1.57441, 1.56964, 1.56735, 1.56337, 1.55758, 1.55421, 1.54832, 1.54566, 1.54087, 1.53436, 1.53424, 1.52462, 1.52642, 1.53112, 1.51346, 1.50943, 1.50965, 1.5016, 1.50021, 1.50864, 1.49568, 1.4811, 1.5687, 1.60735, 1.59294, 1.55841, 1.4573, 1.47126, 1.45446, 1.45134, 1.44758, 1.45285, 1.4792, 1.4404, 1.43086, 1.42404, 1.42316, 1.41933, 1.41735, 1.41509, 1.41255, 1.40589, 1.40226, 1.39829, 1.39468, 1.39183, 1.38688, 1.38126, 1.37867, 1.37621, 1.37349, 1.37167, 1.3683, 1.36596, 1.36259, 1.36035, 1.36742, 1.37426, 1.39288, 1.49619, 1.54432, 1.61347, 1.45954, 1.32776, 1.35458, 1.35337, 1.34843, 1.3311, 1.33333, 1.32628, 1.3252
1.67015, 1.66374, 1.65625, 1.65109, 1.64575, 1.64222, 1.65134, 1.65276, 1.64774, 1.64072, 1.69945, 1.76157, 1.88215, 1.91074, 1.57831, 1.59999, 1.60663, 1.59292, 1.59264, 1.57675, 1.5832, 1.56568, 1.56155, 1.55801, 1.55388, 1.55052, 1.54563, 1.54009, 1.53718, 1.52837, 1.52492, 1.52649, 1.54526, 1.52547, 1.52947, 1.51399, 1.51222, 1.50313, 1.50333, 1.4932, 1.52774, 1.65777, 1.62034, 1.58532, 1.56413, 1.47392, 1.4711, 1.47574, 1.4658, 1.44822, 1.44997, 1.47168, 1.43369, 1.43145, 1.42486, 1.42317, 1.42012, 1.41822, 1.41565, 1.412, 1.40633, 1.40271, 1.39859, 1.39483, 1.39332, 1.38516, 1.38481, 1.37879, 1.37676, 1.37161, 1.37094, 1.3668, 1.36644, 1.36382, 1.36049, 1.36113, 1.36158, 1.41306, 1.49176, 1.5623, 1.5452, 1.44715, 1.31313, 1.35417, 1.35358, 1.33408, 1.32886, 1.32634, 1.32614, 1.32219
1.6686, 1.66147, 1.65468, 1.65127, 1.64436, 1.64188, 1.64096, 1.6343, 1.64278, 1.60326, 1.63801, 1.76865, 1.92722, 1.90978, 1.58287, 1.58524, 1.60484, 1.58463, 1.57817, 1.57354, 1.57064, 1.56134, 1.55701, 1.5552, 1.55106, 1.55293, 1.54568, 1.53899, 1.53416, 1.53048, 1.52402, 1.52763, 1.5307, 1.51072, 1.52383, 1.51736, 1.49876, 1.50312, 1.50264, 1.46784, 1.54347, 1.57323, 1.59468, 1.57687, 1.53629, 1.46411, 1.47239, 1.46098, 1.45138, 1.44832, 1.45075, 1.46354, 1.43156, 1.42824, 1.42352, 1.42226, 1.41892, 1.41753, 1.41593, 1.41238, 1.40832, 1.40246, 1.40009, 1.39756, 1.39308, 1.38935, 1.38563, 1.38077, 1.37316, 1.37276, 1.36928, 1.36872, 1.36881, 1.37443, 1.36086, 1.36796, 1.35439, 1.40517, 1.50007, 1.53345, 1.57813, 1.53154, 1.36197, 1.35612, 1.33656, 1.32745, 1.32785, 1.32263, 1.3245, 1.3218
1.67275, 1.66313, 1.65864, 1.65373, 1.64428, 1.63741, 1.63751, 1.63373, 1.64737, 1.60995, 1.66569, 1.78837, 1.82933, 1.95161, 1.57663, 1.6005, 1.5906, 1.59324, 1.58192, 1.5728, 1.56669, 1.60409, 1.55549, 1.55165, 1.55707, 1.54648, 1.54704, 1.53731, 1.53286, 1.52858, 1.53354, 1.5221, 1.53474, 1.52097, 1.50904, 1.50609, 1.50001, 1.496, 1.49682, 1.48485, 1.53412, 1.50958, 1.62697, 1.57126, 1.51005, 1.45127, 1.45928, 1.46007, 1.45421, 1.44743, 1.44426, 1.45626, 1.43368, 1.42625, 1.42925, 1.4202, 1.41859, 1.41869, 1.41434, 1.41211, 1.40858, 1.40233, 1.3994, 1.39671, 1.39341, 1.38937, 1.38392, 1.3778, 1.37261, 1.36845, 1.36472, 1.36627, 1.36128, 1.36032, 1.35789, 1.37426, 1.36139, 1.44397, 1.46693, 1.59879, 1.62069, 1.5607, 1.32698, 1.33817, 1.33118, 1.32727, 1.33217, 1.32285, 1.32456, 1.31946
1.66679, 1.66316, 1.65631, 1.6496, 1.64431, 1.64364, 1.64551, 1.63426, 1.63717, 1.60552, 1.68912, 1.80364, 1.98737, 1.97447, 1.58986, 1.60589, 1.59654, 1.58599, 1.58024, 1.57179, 1.56872, 1.56212, 1.55898, 1.55483, 1.55461, 1.54721, 1.54342, 1.53747, 1.53268, 1.52658, 1.52329, 1.52006, 1.53652, 1.52017, 1.51264, 1.50991, 1.50117, 1.49641, 1.4977, 1.50139, 1.53434, 1.56647, 1.57203, 1.57639, 1.53889, 1.45448, 1.47109, 1.46489, 1.45841, 1.44789, 1.44401, 1.45176, 1.45765, 1.4276, 1.44645, 1.42037, 1.42145, 1.41846, 1.41683, 1.4105, 1.40822, 1.40374, 1.40199, 1.39848, 1.39282, 1.39143, 1.38673, 1.37588, 1.37139, 1.37016, 1.36473, 1.36586, 1.36576, 1.36741, 1.37632, 1.36616, 1.37626, 1.38572, 1.47913, 1.566, 1.59468, 1.40837, 1.35771, 1.33597, 1.3542, 1.3296, 1.33476, 1.32565, 1.32389, 1.32225
1.67534, 1.66363, 1.65491, 1.64924, 1.64377, 1.64134, 1.64012, 1.64874, 1.6489, 1.63291, 1.70686, 1.78247, 1.97913, 1.93557, 1.57641, 1.59512, 1.59342, 1.58613, 1.57881, 1.5737, 1.57032, 1.56308, 1.55749, 1.55515, 1.54997, 1.54679, 1.5412, 1.53538, 1.52943, 1.52481, 1.53083, 1.5201, 1.54038, 1.53369, 1.5177, 1.50754, 1.49731, 1.49499, 1.49916, 1.46589, 1.5257, 1.57828, 1.59476, 1.57067, 1.55719, 1.48381, 1.47433, 1.46138, 1.44977, 1.44337, 1.4396, 1.43727, 1.44825, 1.42619, 1.42377, 1.42094, 1.42024, 1.41864, 1.41431, 1.41246, 1.41042, 1.40666, 1.40237, 1.39788, 1.39192, 1.3883, 1.3855, 1.37543, 1.37409, 1.36818, 1.36513, 1.36476, 1.36511, 1.3713, 1.36349, 1.36439, 1.36167, 1.41259, 1.48198, 1.57521, 1.60606, 1.57133, 1.34583, 1.33699, 1.35138, 1.33051, 1.32881, 1.32641, 1.32365, 1.32126
1.66845, 1.66182, 1.65444, 1.64884, 1.64402, 1.64117, 1.63769, 1.63348, 1.64382, 1.62875, 1.69288, 1.81272, 1.89972, 1.87319, 1.66552, 1.59803, 1.59715, 1.58269, 1.57643, 1.57319, 1.5718, 1.56309, 1.56054, 1.55245, 1.54868, 1.54331, 1.53749, 1.53505, 1.52948, 1.52628, 1.52163, 1.51902, 1.511, 1.52645, 1.50929, 1.50726, 1.49915, 1.4965, 1.51053, 1.48873, 1.52165, 1.5855, 1.57973, 1.56178, 1.5526, 1.49037, 1.46574, 1.4716, 1.44733, 1.44312, 1.43787, 1.46917, 1.47975, 1.45424, 1.43657, 1.42055, 1.41834, 1.41599, 1.4143, 1.41013, 1.40873, 1.40625, 1.40359, 1.39774, 1.39426, 1.3915, 1.38803, 1.37966, 1.37372, 1.37175, 1.36662, 1.37402, 1.36698, 1.37945, 1.36487, 1.36586, 1.36616, 1.40297, 1.51005, 1.5261, 1.6164, 1.49253, 1.34144, 1.35298, 1.33508, 1.33408, 1.32907, 1.32871, 1.32341, 1.32025
1.66395, 1.65938, 1.65575, 1.64814, 1.6426, 1.6378, 1.63486, 1.6343, 1.6471, 1.62772, 1.69484, 1.76673, 1.86531, 1.987, 1.5828, 1.59654, 1.59213, 1.58261, 1.58383, 1.5721, 1.58259, 1.57092, 1.5549, 1.55182, 1.54562, 1.54335, 1.54151, 1.53314, 1.52735, 1.5203, 1.5173, 1.51703, 1.52108, 1.5261, 1.50692, 1.51491, 1.49876, 1.49505, 1.51535, 1.48782, 1.53487, 1.62704, 1.57536, 1.57889, 1.56232, 1.51618, 1.47928, 1.48261, 1.4473, 1.44369, 1.44072, 1.43746, 1.46549, 1.45832, 1.42704, 1.43458, 1.41755, 1.41756, 1.41304, 1.4087, 1.40594, 1.40207, 1.40034, 1.39658, 1.3953, 1.39014, 1.38762, 1.38139, 1.37809, 1.37361, 1.36948, 1.36764, 1.36706, 1.37488, 1.37404, 1.36492, 1.36392, 1.43718, 1.50072, 1.57807, 1.59211, 1.55737, 1.32948, 1.34855, 1.3339, 1.33046, 1.32696, 1.32678, 1.32383, 1.31905
1.66549, 1.65615, 1.65481, 1.64575, 1.64297, 1.63794, 1.63426, 1.65152, 1.6306, 1.63085, 1.67358, 1.73837, 1.84553, 1.88524, 1.59131, 1.59685, 1.59272, 1.58287, 1.57914, 1.57313, 1.58226, 1.5615, 1.55452, 1.55229, 1.5492, 1.54703, 1.53816, 1.53076, 1.52645, 1.52209, 1.51493, 1.51172, 1.51635, 1.52747, 1.5174, 1.50629, 1.50271, 1.50529, 1.4969, 1.46897, 1.54143, 1.60255, 1.58903, 1.56069, 1.57145, 1.46245, 1.46519, 1.46781, 1.45064, 1.44242, 1.44178, 1.43913, 1.43699, 1.42916, 1.43072, 1.41977, 1.41956, 1.4151, 1.41037, 1.40868, 1.405, 1.40352, 1.39892, 1.39666, 1.39525, 1.39306, 1.38772, 1.38523, 1.38018, 1.37476, 1.37054, 1.36713, 1.3655, 1.36298, 1.36061, 1.36896, 1.37787, 1.3641, 1.5169, 1.58541, 1.59929, 1.41649, 1.29932, 1.34851, 1.3308, 1.32973, 1.32635, 1.32397, 1.32053, 1.31912
1.66645, 1.66205, 1.65526, 1.64766, 1.64254, 1.63483, 1.63281, 1.63304, 1.63013, 1.63367, 1.63383, 1.76247, 1.81997, 1.83748, 1.55976, 1.59674, 1.59044, 1.58354, 1.57698, 1.57136, 1.56577, 1.56131, 1.59641, 1.55254, 1.54908, 1.54485, 1.53877, 1.53356, 1.52707, 1.52407, 1.51769, 1.51367, 1.52682, 1.50956, 1.52652, 1.50482, 1.50034, 1.50183, 1.4957, 1.48912, 1.49639, 1.57542, 1.60608, 1.55691, 1.53765, 1.48945, 1.45457, 1.46672, 1.44718, 1.44353, 1.44116, 1.43753, 1.42745, 1.42542, 1.42075, 1.42261, 1.4151, 1.41216, 1.4087, 1.40553, 1.40219, 1.40025, 1.39963, 1.39802, 1.39395, 1.39185, 1.38818, 1.38616, 1.38041, 1.37863, 1.37555, 1.37089, 1.36916, 1.36391, 1.3614, 1.36406, 1.36885, 1.40594, 1.51702, 1.58816, 1.60078, 1.44637, 1.31563, 1.3493, 1.34188, 1.33091, 1.32797, 1.325, 1.32047, 1.31944
1.66521, 1.66088, 1.65465, 1.65028, 1.64544, 1.63718, 1.63414, 1.63391, 1.63163, 1.64677, 1.66347, 1.76707, 1.86864, 2.09316, 1.56571, 1.59571, 1.60259, 1.58164, 1.57686, 1.57126, 1.56627, 1.56494, 1.55858, 1.55412, 1.54942, 1.54663, 1.54055, 1.5341, 1.53031, 1.52723, 1.51685, 1.51501, 1.53355, 1.53311, 1.5386, 1.5043, 1.50185, 1.49579, 1.50898, 1.48999, 1.52836, 1.583, 1.58924, 1.55908, 1.5328, 1.48796, 1.46222, 1.46186, 1.45272, 1.4517, 1.44787, 1.44445, 1.44017, 1.45128, 1.42014, 1.43801, 1.41524, 1.41272, 1.40895, 1.40445, 1.40124, 1.39959, 1.3984, 1.39526, 1.39338, 1.39025, 1.38523, 1.38354, 1.38538, 1.37643, 1.37486, 1.37407, 1.36838, 1.36392, 1.36255, 1.36007, 1.36332, 1.3705, 1.48061, 1.54747, 1.56814, 1.50193, 1.3244, 1.342, 1.34063, 1.34005, 1.32627, 1.32381, 1.32083, 1.31691
1.66511, 1.65883, 1.65202, 1.64983, 1.65303, 1.63795, 1.63604, 1.63424, 1.63798, 1.63761, 1.66369, 1.74104, 1.94266, 1.8979, 1.57795, 1.60294, 1.59908, 1.58117, 1.57643, 1.56988, 1.56708, 1.56267, 1.55964, 1.55522, 1.55074, 1.54748, 1.54124, 1.53619, 1.53138, 1.52373, 1.52346, 1.52997, 1.52214, 1.52257, 1.52859, 1.50384, 1.50197, 1.49878, 1.5, 1.48998, 1.49818, 1.55441, 1.55745, 1.54611, 1.52317, 1.49628, 1.46285, 1.46396, 1.46175, 1.44878, 1.45597, 1.4592, 1.44478, 1.43778, 1.42415, 1.41644, 1.41488, 1.41347, 1.40902, 1.40515, 1.4009, 1.3989, 1.39754, 1.39489, 1.39099, 1.38564, 1.38404, 1.37985, 1.37874, 1.37791, 1.37642, 1.37388, 1.36802, 1.36573, 1.36365, 1.36467, 1.38104, 1.3876, 1.48788, 1.59344, 1.59665, 1.52946, 1.31012, 1.34645, 1.34391, 1.35364, 1.32719, 1.32329, 1.31989, 1.31938
1.66668, 1.66, 1.6509, 1.64384, 1.64356, 1.63908, 1.63812, 1.63391, 1.64488, 1.62889, 1.6247, 1.69638, 1.86101, 1.77375, 1.58573, 1.59548, 1.59534, 1.5902, 1.57571, 1.5697, 1.56552, 1.56277, 1.55775, 1.55356, 1.54931, 1.54533, 1.54064, 1.53659, 1.53145, 1.52436, 1.51812, 1.51473, 1.51037, 1.50917, 1.52173, 1.52749, 1.504, 1.51095, 1.49136, 1.48028, 1.48814, 1.58266, 1.58593, 1.62108, 1.51367, 1.45743, 1.46392, 1.46075, 1.45333, 1.45201, 1.44807, 1.45053, 1.46261, 1.44104, 1.42417, 1.42055, 1.41663, 1.41411, 1.40867, 1.40574, 1.39995, 1.3989, 1.39752, 1.39293, 1.39031, 1.38785, 1.3835, 1.37984, 1.37826, 1.40567, 1.37666, 1.37077, 1.37085, 1.36429, 1.35978, 1.36574, 1.3639, 1.40198, 1.4399, 1.54024, 1.63683, 1.43786, 1.30502, 1.34048, 1.34428, 1.32958, 1.32939, 1.32282, 1.33644, 1.31889
1.66552, 1.65522, 1.64803, 1.64208, 1.64371, 1.63935, 1.63478, 1.63068, 1.62862, 1.62749, 1.62444, 1.72464, 1.87666, 1.78098, 1.57949, 1.59284, 1.59827, 1.57864, 1.57186, 1.57133, 1.56478, 1.56089, 1.55766, 1.55026, 1.54758, 1.54315, 1.53715, 1.53306, 1.52779, 1.52406, 1.51736, 1.51458, 1.51202, 1.51331, 1.53074, 1.5127, 1.4988, 1.49515, 1.49965, 1.47572, 1.52353, 1.60231, 1.58186, 1.53957, 1.51303, 1.51954, 1.44415, 1.46788, 1.45239, 1.45469, 1.45832, 1.46915, 1.47113, 1.43478, 1.43074, 1.42082, 1.41709, 1.41375, 1.40919, 1.4052, 1.4021, 1.40005, 1.39735, 1.39364, 1.38922, 1.38556, 1.38211, 1.3792, 1.37596, 1.37443, 1.37444, 1.37162, 1.36871, 1.36164, 1.36007, 1.35753, 1.37277, 1.40681, 1.50228, 1.58341, 1.65262, 1.50552, 1.37473, 1.34733, 1.3311, 1.32909, 1.32746, 1.32282, 1.31927, 1.31658
1.66457, 1.6557, 1.6522, 1.64416, 1.64321, 1.63778, 1.63448, 1.6334, 1.62935, 1.62674, 1.62613, 1.73853, 1.88292, 1.95985, 1.56862, 1.59895, 1.59021, 1.57876, 1.57572, 1.56966, 1.57925, 1.56211, 1.55621, 1.55093, 1.54684, 1.53937, 1.53407, 1.53123, 1.52716, 1.52309, 1.51888, 1.51586, 1.51041, 1.50754, 1.52217, 1.53425, 1.5023, 1.49249, 1.50221, 1.48925, 1.49776, 1.57052, 1.56791, 1.54753, 1.53955, 1.49137, 1.45696, 1.45731, 1.45381, 1.46224, 1.4636, 1.48164, 1.45204, 1.43399, 1.42344, 1.41896, 1.41565, 1.41118, 1.40891, 1.40637, 1.40202, 1.39702, 1.39536, 1.39166, 1.39109, 1.38313, 1.37915, 1.37761, 1.37502, 1.3743, 1.37282, 1.36979, 1.36879, 1.36255, 1.35995, 1.37805, 1.36697, 1.34806, 1.49151, 1.52565, 1.62712, 1.45701, 1.31851, 1.34976, 1.33291, 1.32999, 1.32701, 1.32445, 1.32269, 1.31915
1.66785, 1.66108, 1.65207, 1.64979, 1.64699, 1.63743, 1.6344, 1.63432, 1.62783, 1.6286, 1.59761, 1.77055, 1.91133, 1.94152, 1.62762, 1.60977, 1.59016, 1.57965, 1.58784, 1.57095, 1.57368, 1.56454, 1.55806, 1.55151, 1.54551, 1.54005, 1.53352, 1.53013, 1.52768, 1.52296, 1.51949, 1.51958, 1.5201, 1.51244, 1.52583, 1.537, 1.51701, 1.50722, 1.49319, 1.46773, 1.46921, 1.56221, 1.54073, 1.55037, 1.53338, 1.48584, 1.46651, 1.46501, 1.46013, 1.46467, 1.47445, 1.48684, 1.43777, 1.43412, 1.42603, 1.42065, 1.41722, 1.41437, 1.40839, 1.40521, 1.40269, 1.39725, 1.39578, 1.39196, 1.38811, 1.38351, 1.38117, 1.37812, 1.37607, 1.37515, 1.37394, 1.37087, 1.36739, 1.36313, 1.3853, 1.37301, 1.37846, 1.33509, 1.47039, 1.57323, 1.60327, 1.56192, 1.33129, 1.34849, 1.33469, 1.33754, 1.33359, 1.32552, 1.32204, 1.31941
1.67095, 1.66336, 1.66689, 1.65167, 1.64803, 1.64151, 1.63748, 1.6338, 1.6413, 1.63111, 1.60424, 1.67534, 1.88171, 1.93141, 1.71748, 1.58908, 1.59833, 1.58929, 1.58591, 1.57127, 1.56848, 1.56961, 1.55993, 1.54978, 1.54702, 1.54025, 1.53461, 1.52849, 1.52467, 1.52149, 1.52146, 1.53277, 1.51702, 1.51031, 1.52742, 1.53306, 1.51662, 1.51713, 1.49799, 1.47552, 1.48516, 1.55211, 1.55103, 1.5371, 1.54776, 1.47178, 1.44843, 1.45051, 1.47445, 1.47835, 1.50526, 1.48821, 1.46217, 1.44626, 1.43641, 1.42382, 1.41999, 1.41363, 1.40788, 1.40384, 1.40016, 1.39921, 1.39569, 1.39221, 1.38949, 1.38514, 1.38179, 1.38157, 1.37905, 1.37717, 1.37444, 1.36934, 1.37398, 1.3635, 1.36541, 1.35839, 1.36522, 1.35829, 1.47847, 1.61323, 1.6319, 1.5472, 1.32574, 1.35696, 1.33325, 1.33407, 1.3371, 1.32882, 1.32568, 1.31972
1.67077, 1.66477, 1.6582, 1.65386, 1.6481, 1.64123, 1.63953, 1.63397, 1.62848, 1.63575, 1.59434, 1.75744, 1.7899, 2.11036, 1.59096, 1.59471, 1.5885, 1.59261, 1.58696, 1.58708, 1.56687, 1.56185, 1.55841, 1.54914, 1.54418, 1.53736, 1.53203, 1.52654, 1.52205, 1.52127, 1.52001, 1.52965, 1.51934, 1.51306, 1.52705, 1.55068, 1.53326, 1.50245, 1.49924, 1.47642, 1.4982, 1.52462, 1.52576, 1.54729, 1.51615, 1.50294, 1.49629, 1.49183, 1.49542, 1.50394, 1.48801, 1.46195, 1.44696, 1.43691, 1.43374, 1.4259, 1.41741, 1.41232, 1.40844, 1.40369, 1.40121, 1.39796, 1.39626, 1.3914, 1.38804, 1.38244, 1.37875, 1.37876, 1.37754, 1.37392, 1.36981, 1.36822, 1.36353, 1.35783, 1.35594, 1.35417, 1.35889, 1.33459, 1.46258, 1.59887, 1.61959, 1.60299, 1.32393, 1.34986, 1.34544, 1.33275, 1.32809, 1.3249, 1.32359, 1.3224
1.66647, 1.66288, 1.65873, 1.65216, 1.64788, 1.64004, 1.63356, 1.62951, 1.623, 1.6268, 1.60316, 1.77876, 1.87125, 1.88901, 1.57973, 1.5899, 1.59955, 1.58895, 1.5764, 1.57474, 1.56561, 1.57193, 1.5528, 1.54689, 1.54069, 1.53645, 1.52926, 1.5236, 1.52008, 1.51804, 1.51687, 1.51309, 1.51145, 1.50866, 1.51036, 1.54999, 1.54038, 1.5033, 1.49034, 1.48447, 1.49559, 1.51822, 1.55413, 1.54664, 1.5359, 1.52673, 1.48443, 1.49565, 1.49243, 1.50229, 1.46834, 1.44981, 1.45756, 1.43075, 1.42459, 1.42056, 1.41943, 1.41181, 1.40795, 1.40339, 1.39875, 1.3963, 1.39404, 1.39008, 1.38482, 1.38389, 1.38039, 1.37658, 1.37484, 1.37197, 1.37002, 1.36492, 1.36206, 1.36131, 1.35612, 1.35474, 1.37269, 1.32996, 1.45752, 1.52618, 1.62699, 1.65354, 1.32699, 1.33945, 1.33478, 1.3272, 1.32796, 1.32321, 1.3176, 1.31591
1.66571, 1.66144, 1.65536, 1.65148, 1.64672, 1.64212, 1.63535, 1.62768, 1.62532, 1.62402, 1.6243, 1.74182, 1.85198, 1.8693, 1.56927, 1.61155, 1.60618, 1.59639, 1.58141, 1.57501, 1.56825, 1.55778, 1.56739, 1.548, 1.54232, 1.53613, 1.53466, 1.52418, 1.52194, 1.51903, 1.51588, 1.51458, 1.51283, 1.50915, 1.5093, 1.5366, 1.52254, 1.51377, 1.50693, 1.46796, 1.47428, 1.55583, 1.55724, 1.52758, 1.54369, 1.51973, 1.47299, 1.48208, 1.49204, 1.46176, 1.46104, 1.44159, 1.43699, 1.42913, 1.42501, 1.42108, 1.41854, 1.41412, 1.41105, 1.40913, 1.39956, 1.39676, 1.39698, 1.39189, 1.39245, 1.38789, 1.38507, 1.38114, 1.37671, 1.3731, 1.36889, 1.36618, 1.36364, 1.36032, 1.3555, 1.3538, 1.37488, 1.38558, 1.4794, 1.56807, 1.63885, 1.56175, 1.32622, 1.33716, 1.33361, 1.3273, 1.32568, 1.32122, 1.32249, 1.31594
1.66269, 1.65629, 1.65403, 1.65118, 1.649, 1.64445, 1.63722, 1.63128, 1.62453, 1.62772, 1.60364, 1.74835, 1.79881, 1.9586, 1.58197, 1.59867, 1.602, 1.60301, 1.58512, 1.59282, 1.57258, 1.57169, 1.55792, 1.55209, 1.5466, 1.54161, 1.53673, 1.53011, 1.52484, 1.52211, 1.51923, 1.51619, 1.51378, 1.51015, 1.5203, 1.53405, 1.56705, 1.53359, 1.47832, 1.48113, 1.49407, 1.54883, 1.54955, 1.50425, 1.5309, 1.52336, 1.46843, 1.46743, 1.46533, 1.45756, 1.45444, 1.44043, 1.43605, 1.43382, 1.42417, 1.42264, 1.41961, 1.41249, 1.40999, 1.40619, 1.40222, 1.39953, 1.39661, 1.39316, 1.39123, 1.38885, 1.38666, 1.38421, 1.37982, 1.37547, 1.3709, 1.36773, 1.36415, 1.35885, 1.35782, 1.35566, 1.3775, 1.36145, 1.47621, 1.57441, 1.62891, 1.59303, 1.32646, 1.35105, 1.34406, 1.3292, 1.32665, 1.3245, 1.32168, 1.32003
1.66046, 1.65242, 1.6505, 1.65317, 1.64857, 1.646, 1.63726, 1.63096, 1.62985, 1.62689, 1.58891, 1.70166, 1.77653, 2.00777, 1.65896, 1.6269, 1.59951, 1.59339, 1.59593, 1.58246, 1.57765, 1.56803, 1.55896, 1.5558, 1.54985, 1.54337, 1.5381, 1.53067, 1.53061, 1.52256, 1.51871, 1.51554, 1.50796, 1.51296, 1.51561, 1.50856, 1.55088, 1.55074, 1.50464, 1.4803, 1.49993, 1.53738, 1.53964, 1.53362, 1.55759, 1.5167, 1.47152, 1.47526, 1.45471, 1.46429, 1.45127, 1.43985, 1.43996, 1.42726, 1.42484, 1.42141, 1.41876, 1.41595, 1.40706, 1.40593, 1.40431, 1.4015, 1.39733, 1.39417, 1.392, 1.38912, 1.39543, 1.38494, 1.3811, 1.37866, 1.37228, 1.38763, 1.37814, 1.35919, 1.35765, 1.36745, 1.37133, 1.35729, 1.44774, 1.53913, 1.64108, 1.55189, 1.33152, 1.36103, 1.34726, 1.3541, 1.34394, 1.32352, 1.32241, 1.32031
1.65737, 1.65308, 1.65022, 1.65084, 1.64929, 1.64517, 1.63656, 1.62991, 1.62625, 1.62674, 1.61952, 1.74939, 1.97255, 1.9735, 1.56546, 1.6101, 1.60347, 1.59254, 1.59524, 1.59741, 1.57781, 1.57482, 1.55855, 1.55099, 1.54496, 1.54032, 1.53436, 1.52941, 1.5232, 1.52006, 1.5164, 1.51449, 1.50686, 1.50742, 1.50638, 1.50305, 1.5229, 1.54164, 1.52126, 1.50699, 1.49466, 1.53903, 1.52927, 1.49684, 1.52885, 1.4956, 1.46734, 1.45696, 1.45156, 1.45196, 1.44055, 1.43663, 1.45194, 1.44365, 1.42357, 1.42262, 1.41601, 1.41406, 1.4104, 1.40886, 1.40744, 1.4001, 1.39528, 1.39231, 1.39117, 1.38972, 1.38597, 1.38507, 1.37879, 1.37473, 1.37474, 1.3686, 1.37611, 1.3654, 1.35891, 1.35802, 1.3664, 1.37157, 1.43314, 1.52984, 1.6543, 1.6561, 1.37789, 1.34604, 1.35201, 1.35042, 1.32468, 1.32485, 1.32251, 1.3228
1.65901, 1.65442, 1.65297, 1.65367, 1.65014, 1.64373, 1.63818, 1.63385, 1.62474, 1.6215, 1.60186, 1.73168, 1.90356, 1.97904, 1.57186, 1.60358, 1.6056, 1.59701, 1.59908, 1.59001, 1.5861, 1.56453, 1.55876, 1.55128, 1.54799, 1.5401, 1.5349, 1.52743, 1.52467, 1.52003, 1.51626, 1.51331, 1.50779, 1.50738, 1.50524, 1.50123, 1.50152, 1.50114, 1.51745, 1.50063, 1.49938, 1.56046, 1.55193, 1.4949, 1.54405, 1.53128, 1.46696, 1.46543, 1.45356, 1.44571, 1.44048, 1.43799, 1.4294, 1.42564, 1.42252, 1.42077, 1.41667, 1.41085, 1.40969, 1.40614, 1.40381, 1.40132, 1.39613, 1.39188, 1.38827, 1.38673, 1.38138, 1.38084, 1.37938, 1.37619, 1.37071, 1.36637, 1.36136, 1.35952, 1.3572, 1.35761, 1.37279, 1.34382, 1.46907, 1.50095, 1.67565, 1.64168, 1.33404, 1.33885, 1.33519, 1.3305, 1.32816, 1.32332, 1.32344, 1.32226
1.66064, 1.65633, 1.65539, 1.65313, 1.64781, 1.64382, 1.63709, 1.63185, 1.62625, 1.62407, 1.60367, 1.71294, 1.86949, 1.98592, 1.58421, 1.5951, 1.60186, 1.60221, 1.58946, 1.59722, 1.56504, 1.56181, 1.55623, 1.5577, 1.54459, 1.53999, 1.53493, 1.53075, 1.52467, 1.51825, 1.5148, 1.51222, 1.50985, 1.50601, 1.50136, 1.49659, 1.49574, 1.50337, 1.48339, 1.4925, 1.52652, 1.57301, 1.52753, 1.49327, 1.54014, 1.49891, 1.45965, 1.46778, 1.45387, 1.44846, 1.44364, 1.43919, 1.43591, 1.42778, 1.42553, 1.42173, 1.41591, 1.41497, 1.41144, 1.40745, 1.40551, 1.40045, 1.39536, 1.39228, 1.38859, 1.38639, 1.38201, 1.38065, 1.37787, 1.3742, 1.3699, 1.36771, 1.37189, 1.35957, 1.35832, 1.35522, 1.35799, 1.3623, 1.47493, 1.55067, 1.66963, 1.66088, 1.3153, 1.34482, 1.33586, 1.3376, 1.32493, 1.32485, 1.32472, 1.32351
1.65882, 1.65602, 1.66071, 1.65375, 1.64643, 1.64213, 1.63361, 1.62816, 1.62399, 1.62305, 1.62007, 1.72451, 1.86563, 1.94247, 1.56776, 1.58335, 1.59419, 1.59915, 1.60229, 1.58484, 1.57821, 1.5605, 1.55415, 1.54793, 1.54436, 1.53787, 1.53445, 1.53134, 1.52635, 1.52077, 1.51301, 1.51237, 1.50832, 1.50319, 1.50007, 1.49695, 1.49206, 1.49278, 1.49245, 1.49563, 1.51763, 1.5552, 1.52915, 1.52965, 1.52137, 1.52045, 1.46436, 1.46527, 1.45423, 1.44766, 1.44441, 1.44701, 1.43355, 1.42749, 1.42584, 1.41949, 1.41997, 1.41538, 1.41241, 1.40774, 1.40393, 1.40949, 1.39678, 1.39385, 1.39021, 1.38607, 1.38243, 1.37841, 1.37733, 1.37342, 1.37057, 1.3685, 1.36399, 1.36177, 1.35893, 1.3578, 1.35888, 1.36007, 1.45028, 1.58073, 1.63551, 1.6544, 1.33693, 1.34434, 1.34486, 1.32861, 1.32695, 1.32648, 1.32618, 1.32313
1.6598, 1.65243, 1.652, 1.6497, 1.6685, 1.63895, 1.63326, 1.62715, 1.62281, 1.62073, 1.59768, 1.76235, 1.90348, 2.10856, 1.56288, 1.57315, 1.56886, 1.56792, 1.5727, 1.59512, 1.57499, 1.57685, 1.5497, 1.54832, 1.54559, 1.53851, 1.53636, 1.52978, 1.52608, 1.51909, 1.51453, 1.51054, 1.50711, 1.51026, 1.49857, 1.49507, 1.49156, 1.48847, 1.5024, 1.50148, 1.53552, 1.53277, 1.54071, 1.50557, 1.53045, 1.51692, 1.4608, 1.46961, 1.45242, 1.44779, 1.44191, 1.43687, 1.4327, 1.42503, 1.42359, 1.42293, 1.4196, 1.41531, 1.40978, 1.4079, 1.40536, 1.39823, 1.39562, 1.3935, 1.39158, 1.38559, 1.38238, 1.38072, 1.37537, 1.37238, 1.36947, 1.36956, 1.37058, 1.36131, 1.35772, 1.35669, 1.35688, 1.36179, 1.40871, 1.49102, 1.62645, 1.46289, 1.32726, 1.36186, 1.35101, 1.33071, 1.32611, 1.32376, 1.32221, 1.32229
1.6595, 1.65212, 1.64843, 1.65038, 1.6376, 1.63669, 1.63382, 1.62719, 1.62099, 1.61997, 1.61678, 1.66101, 1.82736, 1.95878, 1.58956, 1.55535, 1.58344, 1.59236, 1.59546, 1.59708, 1.58851, 1.56972, 1.54851, 1.5473, 1.54254, 1.53888, 1.5361, 1.52898, 1.52591, 1.51863, 1.51403, 1.51021, 1.50686, 1.50417, 1.49713, 1.49346, 1.4887, 1.48846, 1.49404, 1.49872, 1.50047, 1.53989, 1.5353, 1.49637, 1.54439, 1.51226, 1.46601, 1.46247, 1.45037, 1.44395, 1.43915, 1.43359, 1.43094, 1.43021, 1.42198, 1.42092, 1.41963, 1.41322, 1.40995, 1.4063, 1.40255, 1.39799, 1.39578, 1.3929, 1.38837, 1.38297, 1.37815, 1.37503, 1.37385, 1.37123, 1.36447, 1.3647, 1.36134, 1.35717, 1.3572, 1.35352, 1.36143, 1.35746, 1.40968, 1.52319, 1.62707, 1.55481, 1.35419, 1.35453, 1.33239, 1.32911, 1.3252, 1.32289, 1.31973, 1.31727
1.65612, 1.64906, 1.64678, 1.6448, 1.63856, 1.63794, 1.63126, 1.62461, 1.62398, 1.62699, 1.60569, 1.70354, 1.75401, 1.99776, 1.81261, 1.54513, 1.68323, 1.74357, 1.63751, 1.60269, 1.58369, 1.56176, 1.55189, 1.54733, 1.54187, 1.53711, 1.5359, 1.52934, 1.52487, 1.5207, 1.51439, 1.50966, 1.50755, 1.50363, 1.49894, 1.49261, 1.48887, 1.49324, 1.48983, 1.4866, 1.50522, 1.54324, 1.51163, 1.48961, 1.52312, 1.51696, 1.46639, 1.47798, 1.44784, 1.44077, 1.43786, 1.42989, 1.4267, 1.42341, 1.42357, 1.42047, 1.41725, 1.41554, 1.40856, 1.4034, 1.40189, 1.39689, 1.3944, 1.39044, 1.38709, 1.3848, 1.38371, 1.37624, 1.37099, 1.36908, 1.36397, 1.36397, 1.38969, 1.3605, 1.3562, 1.35226, 1.36254, 1.36124, 1.39787, 1.45528, 1.67544, 1.66629, 1.32926, 1.35277, 1.33742, 1.33437, 1.32946, 1.33502, 1.31893, 1.31271
1.65783, 1.65436, 1.64686, 1.64147, 1.63973, 1.63503, 1.62922, 1.62415, 1.61951, 1.62765, 1.62373, 1.70183, 1.79089, 2.03932, 1.55128, 1.55222, 1.77645, 1.82471, 1.61069, 1.60123, 1.58991, 1.56813, 1.55507, 1.56486, 1.54156, 1.53801, 1.53603, 1.5294, 1.52423, 1.51994, 1.51406, 1.50746, 1.50556, 1.50222, 1.50142, 1.49415, 1.49042, 1.48683, 1.48843, 1.48667, 1.51501, 1.54117, 1.5487, 1.49168, 1.50106, 1.51025, 1.46089, 1.46904, 1.45021, 1.44147, 1.43344, 1.42727, 1.42521, 1.42182, 1.42007, 1.42052, 1.42036, 1.41348, 1.40571, 1.40246, 1.40011, 1.39657, 1.39264, 1.38856, 1.38546, 1.38309, 1.37955, 1.37635, 1.37258, 1.36756, 1.36575, 1.36496, 1.37069, 1.36328, 1.35753, 1.35628, 1.3651, 1.36465, 1.39751, 1.53178, 1.66075, 1.57071, 1.31779, 1.35101, 1.3402, 1.33392, 1.33377, 1.32004, 1.3192, 1.33369
1.65569, 1.65076, 1.64702, 1.64418, 1.6391, 1.63278, 1.63056, 1.62678, 1.62029, 1.62127, 1.62296, 1.69975, 1.77635, 2.02422, 1.56811, 1.55842, 1.72187, 1.78026, 1.66863, 1.61116, 1.59587, 1.57153, 1.55764, 1.54652, 1.54065, 1.53613, 1.53309, 1.53058, 1.52468, 1.52022, 1.51552, 1.5102, 1.51066, 1.5009, 1.49758, 1.49345, 1.48925, 1.48622, 1.49216, 1.49161, 1.55704, 1.53733, 1.53765, 1.48849, 1.52588, 1.51373, 1.46735, 1.45536, 1.4473, 1.43822, 1.43394, 1.43755, 1.42477, 1.42158, 1.42189, 1.4222, 1.41731, 1.41304, 1.40813, 1.4015, 1.3966, 1.39483, 1.39497, 1.38961, 1.38587, 1.38126, 1.38029, 1.37794, 1.37391, 1.37063, 1.36798, 1.36611, 1.36385, 1.35894, 1.35802, 1.35556, 1.36255, 1.35387, 1.39173, 1.54328, 1.66501, 1.58215, 1.30206, 1.34402, 1.34774, 1.33754, 1.32195, 1.32148, 1.31715, 1.31676
1.65469, 1.65106, 1.64723, 1.64191, 1.63958, 1.62991, 1.62784, 1.61943, 1.62342, 1.62924, 1.61928, 1.64465, 1.90345, 1.99261, 1.58635, 1.57527, 1.5922, 1.62463, 1.59286, 1.60092, 1.59617, 1.56629, 1.55104, 1.55038, 1.54643, 1.53349, 1.53175, 1.52899, 1.52354, 1.51738, 1.51235, 1.51071, 1.50244, 1.49863, 1.49665, 1.5048, 1.48834, 1.4854, 1.49538, 1.49593, 1.55683, 1.54461, 1.53708, 1.48299, 1.51365, 1.48706, 1.47898, 1.45485, 1.462, 1.43456, 1.42977, 1.42677, 1.42544, 1.42328, 1.42156, 1.41763, 1.41413, 1.41088, 1.40363, 1.41115, 1.39737, 1.39319, 1.38985, 1.38913, 1.3853, 1.38259, 1.37909, 1.37553, 1.37197, 1.36929, 1.37176, 1.36502, 1.36113, 1.35794, 1.35455, 1.3522, 1.37555, 1.36142, 1.3864, 1.55468, 1.65778, 1.64083, 1.33452, 1.35744, 1.33304, 1.33272, 1.33368, 1.31939, 1.31788, 1.34694
1.6509, 1.6437, 1.63865, 1.63807, 1.63031, 1.62685, 1.62364, 1.61706, 1.61346, 1.61038, 1.60869, 1.65527, 1.92359, 1.98766, 1.67848, 1.54651, 1.56712, 1.57604, 1.59411, 1.58586, 1.58522, 1.56574, 1.54537, 1.53745, 1.5351, 1.52951, 1.526, 1.52063, 1.51917, 1.51635, 1.51202, 1.50767, 1.49744, 1.5097, 1.48647, 1.48441, 1.48231, 1.48088, 1.49498, 1.48626, 1.51578, 1.52939, 1.56237, 1.52549, 1.52027, 1.48534, 1.47006, 1.45108, 1.43968, 1.43357, 1.43137, 1.42379, 1.42036, 1.41929, 1.41952, 1.41311, 1.41022, 1.40533, 1.39679, 1.39429, 1.3964, 1.38842, 1.39166, 1.38921, 1.39247, 1.37977, 1.37768, 1.3707, 1.37033, 1.36589, 1.36468, 1.36376, 1.36077, 1.35662, 1.35456, 1.34958, 1.35176, 1.36133, 1.34321, 1.47356, 1.63735, 1.65571, 1.28844, 1.33982, 1.33717, 1.32104, 1.33913, 1.31398, 1.3102, 1.31012
1.64883, 1.64203, 1.63802, 1.63404, 1.6326, 1.62626, 1.62319, 1.6152, 1.6117, 1.61047, 1.62355, 1.66719, 1.83902, 1.92869, 1.5924, 1.57212, 1.59651, 1.60149, 1.60034, 1.58463, 1.56738, 1.56815, 1.5413, 1.53533, 1.53343, 1.52814, 1.52427, 1.51989, 1.52004, 1.51427, 1.51125, 1.50326, 1.49625, 1.49198, 1.48838, 1.48435, 1.48149, 1.4767, 1.48004, 1.48177, 1.49361, 1.53552, 1.51005, 1.49247, 1.50853, 1.49664, 1.46585, 1.46817, 1.4458, 1.43511, 1.43727, 1.42479, 1.42334, 1.42497, 1.41586, 1.41436, 1.40679, 1.40233, 1.40108, 1.39482, 1.39106, 1.38895, 1.39201, 1.39012, 1.38836, 1.38199, 1.37767, 1.37149, 1.36486, 1.36704, 1.36544, 1.36344, 1.35912, 1.35646, 1.35381, 1.35033, 1.35153, 1.35462, 1.40917, 1.55261, 1.6228, 1.70729, 1.37833, 1.34022, 1.32824, 1.32032, 1.31437, 1.31679, 1.31474, 1.30751
1.64383, 1.64122, 1.63575, 1.63187, 1.63003, 1.62567, 1.62376, 1.62718, 1.61099, 1.607, 1.61673, 1.73766, 1.79646, 2.15332, 1.57835, 1.56189, 1.57814, 1.5887, 1.59631, 1.56903, 1.5755, 1.54826, 1.54131, 1.53752, 1.53182, 1.52773, 1.524, 1.51975, 1.51778, 1.51237, 1.50967, 1.5024, 1.49612, 1.51309, 1.48614, 1.4848, 1.48121, 1.47635, 1.47663, 1.47995, 1.50494, 1.53086, 1.53401, 1.49825, 1.51653, 1.51592, 1.45802, 1.47101, 1.4508, 1.43613, 1.43678, 1.4279, 1.42423, 1.41777, 1.41353, 1.41113, 1.40847, 1.39878, 1.3964, 1.39119, 1.38952, 1.38882, 1.38906, 1.38828, 1.38672, 1.38244, 1.37769, 1.36565, 1.36486, 1.36119, 1.36189, 1.35912, 1.35673, 1.3554, 1.35045, 1.34793, 1.3537, 1.34744, 1.41274, 1.47928, 1.65009, 1.70977, 1.39972, 1.34112, 1.32372, 1.31901, 1.31769, 1.31563, 1.31182, 1.30873
1.64466, 1.64061, 1.63715, 1.63398, 1.63183, 1.62469, 1.62382, 1.61531, 1.61042, 1.60845, 1.61403, 1.67714, 1.72535, 1.94453, 1.56234, 1.56187, 1.58528, 1.58097, 1.57626, 1.56729, 1.56565, 1.55042, 1.54737, 1.5384, 1.53375, 1.52708, 1.52311, 1.52076, 1.51389, 1.51135, 1.50754, 1.50307, 1.49631, 1.48841, 1.48378, 1.48177, 1.47954, 1.47856, 1.47695, 1.48153, 1.50336, 1.52491, 1.52195, 1.49491, 1.49779, 1.52091, 1.4587, 1.45773, 1.44698, 1.43921, 1.4324, 1.42627, 1.42104, 1.41765, 1.41418, 1.41011, 1.40671, 1.39962, 1.39527, 1.39146, 1.38779, 1.38606, 1.38692, 1.38605, 1.38332, 1.3803, 1.37441, 1.36812, 1.36147, 1.36056, 1.35908, 1.35829, 1.35727, 1.35235, 1.37151, 1.34526, 1.346, 1.34621, 1.39711, 1.45466, 1.58891, 1.56715, 1.42238, 1.3295, 1.32676, 1.31771, 1.31794, 1.31565, 1.31227, 1.30774
1.64047, 1.63831, 1.63375, 1.63346, 1.6311, 1.62541, 1.62184, 1.61586, 1.60971, 1.60798, 1.61382, 1.63776, 1.7383, 1.86481, 1.59209, 1.55563, 1.58149, 1.57219, 1.5689, 1.57241, 1.55592, 1.55427, 1.54336, 1.53722, 1.53342, 1.52731, 1.52115, 1.51894, 1.5156, 1.51073, 1.50762, 1.50289, 1.49561, 1.49173, 1.48531, 1.48364, 1.47829, 1.47704, 1.47637, 1.4766, 1.48905, 1.52132, 1.53811, 1.49608, 1.49107, 1.48963, 1.47146, 1.45709, 1.4446, 1.43948, 1.43031, 1.42405, 1.41972, 1.41717, 1.41369, 1.40878, 1.40538, 1.40015, 1.39596, 1.39195, 1.39154, 1.38732, 1.38827, 1.38535, 1.38415, 1.38124, 1.36985, 1.3658, 1.36255, 1.36099, 1.36014, 1.3574, 1.35456, 1.35131, 1.34759, 1.34435, 1.34505, 1.34715, 1.39129, 1.53768, 1.61326, 1.68965, 1.34146, 1.32568, 1.32564, 1.31818, 1.31753, 1.31581, 1.31325, 1.3111
1.64162, 1.6439, 1.63755, 1.63363, 1.63215, 1.62791, 1.62284, 1.61651, 1.61665, 1.61079, 1.60984, 1.60151, 1.74591, 1.7567, 1.68498, 1.54543, 1.57366, 1.57958, 1.5715, 1.56283, 1.57312, 1.55321, 1.54711, 1.54307, 1.53524, 1.52973, 1.52426, 1.51823, 1.51452, 1.51051, 1.50605, 1.50236, 1.49684, 1.48803, 1.48521, 1.48319, 1.4798, 1.47711, 1.48095, 1.47841, 1.49914, 1.53173, 1.51897, 1.48489, 1.50618, 1.51644, 1.46458, 1.4615, 1.44659, 1.43384, 1.42747, 1.42571, 1.42181, 1.41545, 1.41523, 1.41403, 1.40564, 1.40199, 1.39842, 1.39477, 1.39059, 1.38806, 1.38759, 1.38886, 1.38295, 1.37608, 1.37351, 1.36537, 1.36043, 1.35878, 1.36017, 1.35806, 1.35645, 1.35232, 1.34816, 1.34374, 1.34446, 1.34607, 1.33743, 1.49893, 1.60095, 1.67256, 1.28348, 1.33413, 1.32228, 1.32078, 1.32004, 1.32613, 1.3126, 1.3114
1.63872, 1.63842, 1.63743, 1.63118, 1.62924, 1.62623, 1.62026, 1.61485, 1.60987, 1.60653, 1.61743, 1.59531, 1.77817, 1.79693, 1.6717, 1.56642, 1.57855, 1.58243, 1.56636, 1.56104, 1.55736, 1.55144, 1.54387, 1.54019, 1.53363, 1.52977, 1.51612, 1.51618, 1.51195, 1.50779, 1.50456, 1.5017, 1.49755, 1.49226, 1.48703, 1.48282, 1.47871, 1.47531, 1.47524, 1.49157, 1.47858, 1.55681, 1.53359, 1.47593, 1.49917, 1.48973, 1.45053, 1.45553, 1.44255, 1.43518, 1.42734, 1.42253, 1.41947, 1.4167, 1.41373, 1.41098, 1.40612, 1.40048, 1.39804, 1.39471, 1.39515, 1.3877, 1.38576, 1.38595, 1.37808, 1.3715, 1.36897, 1.36176, 1.3579, 1.35836, 1.35675, 1.35533, 1.35318, 1.34861, 1.34749, 1.34095, 1.34145, 1.34372, 1.42926, 1.44599, 1.61323, 1.85812, 1.44853, 1.32553, 1.31957, 1.33032, 1.33613, 1.3178, 1.32062, 1.31556
1.64679, 1.63496, 1.63457, 1.63285, 1.62945, 1.62431, 1.61924, 1.61552, 1.60798, 1.60721, 1.60902, 1.6604, 1.81835, 1.73158, 1.70747, 1.56874, 1.58272, 1.57483, 1.57511, 1.56211, 1.55768, 1.56862, 1.55103, 1.54028, 1.53528, 1.52942, 1.52399, 1.51863, 1.51658, 1.50984, 1.50534, 1.50018, 1.49579, 1.48861, 1.48572, 1.48364, 1.48194, 1.47803, 1.47762, 1.48603, 1.49518, 1.54464, 1.55329, 1.50965, 1.49444, 1.51653, 1.47077, 1.45132, 1.4441, 1.43125, 1.42478, 1.42316, 1.41859, 1.41601, 1.41361, 1.41132, 1.40713, 1.40571, 1.39925, 1.39435, 1.39007, 1.39432, 1.38477, 1.37941, 1.37641, 1.36975, 1.36693, 1.3616, 1.3616, 1.3604, 1.35734, 1.354, 1.35061, 1.34795, 1.35754, 1.35132, 1.35091, 1.3536, 1.32542, 1.48573, 1.69886, 1.69941, 1.48791, 1.32605, 1.33417, 1.31772, 1.32017, 1.31652, 1.31598, 1.31178
1.64119, 1.63742, 1.63618, 1.63385, 1.62992, 1.62656, 1.62033, 1.61618, 1.60992, 1.60715, 1.61898, 1.68526, 1.71741, 1.75343, 1.7897, 1.58522, 1.58229, 1.57701, 1.57951, 1.56749, 1.55777, 1.54981, 1.54469, 1.54285, 1.53788, 1.53052, 1.52355, 1.52264, 1.51671, 1.51202, 1.50616, 1.50084, 1.50077, 1.49962, 1.4887, 1.48537, 1.48314, 1.47976, 1.47977, 1.48193, 1.52099, 1.50731, 1.51288, 1.48452, 1.50963, 1.49681, 1.46964, 1.45792, 1.43671, 1.43167, 1.42631, 1.42575, 1.4204, 1.41652, 1.41292, 1.41022, 1.40564, 1.40476, 1.39931, 1.39507, 1.39479, 1.38664, 1.38312, 1.38115, 1.37622, 1.37383, 1.36642, 1.36166, 1.35842, 1.35845, 1.35984, 1.35474, 1.35229, 1.34898, 1.34704, 1.34476, 1.34416, 1.34692, 1.3175, 1.51116, 1.54757, 1.70301, 1.30925, 1.32259, 1.33323, 1.32042, 1.31631, 1.31561, 1.3117, 1.31088
1.64123, 1.63735, 1.63389, 1.63102, 1.62907, 1.62311, 1.61891, 1.6111, 1.616, 1.60536, 1.60278, 1.57563, 1.75105, 1.78962, 1.62133, 1.58322, 1.59054, 1.58576, 1.56979, 1.56389, 1.55351, 1.54817, 1.54152, 1.53981, 1.53313, 1.53048, 1.52763, 1.52054, 1.51972, 1.50993, 1.50702, 1.50198, 1.49569, 1.49587, 1.4932, 1.48461, 1.48255, 1.47857, 1.47838, 1.48212, 1.49948, 1.50813, 1.51813, 1.47099, 1.47574, 1.50273, 1.45913, 1.46309, 1.44673, 1.42664, 1.4242, 1.42229, 1.4199, 1.41712, 1.41269, 1.40741, 1.40436, 1.39888, 1.39636, 1.39309, 1.39181, 1.3851, 1.38099, 1.37629, 1.37206, 1.36596, 1.36396, 1.35715, 1.35561, 1.35981, 1.35726, 1.36223, 1.35121, 1.375, 1.36537, 1.34107, 1.34755, 1.34754, 1.391, 1.50224, 1.53263, 1.72376, 1.30527, 1.32541, 1.32522, 1.3152, 1.31708, 1.31298, 1.31368, 1.30813
1.64437, 1.6367, 1.63272, 1.6298, 1.63377, 1.62061, 1.61616, 1.61527, 1.61059, 1.59945, 1.60065, 1.62395, 1.69095, 1.74217, 1.83104, 1.56497, 1.57682, 1.58677, 1.56623, 1.5609, 1.56831, 1.54674, 1.53985, 1.53505, 1.53193, 1.52864, 1.52642, 1.51771, 1.51341, 1.50876, 1.51538, 1.49749, 1.50693, 1.49151, 1.48477, 1.48198, 1.47951, 1.47664, 1.47774, 1.4891, 1.49969, 1.50486, 1.49983, 1.50391, 1.47156, 1.48838, 1.45436, 1.44028, 1.43588, 1.42373, 1.42261, 1.42274, 1.41812, 1.41531, 1.41983, 1.40683, 1.40081, 1.39759, 1.39593, 1.39134, 1.38808, 1.3823, 1.38014, 1.37134, 1.36855, 1.36213, 1.35808, 1.35667, 1.35545, 1.3547, 1.35447, 1.35828, 1.34882, 1.3459, 1.36687, 1.34844, 1.34892, 1.34096, 1.34072, 1.51937, 1.60572, 1.79574, 1.42774, 1.3141, 1.32924, 1.31399, 1.31979, 1.33347, 1.30646, 1.30268
1.63736, 1.63359, 1.62763, 1.62346, 1.62006, 1.61529, 1.61267, 1.60641, 1.60214, 1.60356, 1.59302, 1.62482, 1.68817, 1.87307, 1.66526, 1.57388, 1.57639, 1.56627, 1.56169, 1.55396, 1.54245, 1.53448, 1.53254, 1.53004, 1.53011, 1.52437, 1.52242, 1.51357, 1.50799, 1.50358, 1.49997, 1.49632, 1.48793, 1.48557, 1.4818, 1.4777, 1.47589, 1.47248, 1.47227, 1.48579, 1.49567, 1.5088, 1.49292, 1.48489, 1.48257, 1.49977, 1.45208, 1.43809, 1.4336, 1.42143, 1.42252, 1.41442, 1.41391, 1.41273, 1.40857, 1.40194, 1.39665, 1.39317, 1.39144, 1.38799, 1.38272, 1.38073, 1.37404, 1.36924, 1.36357, 1.35933, 1.35649, 1.35383, 1.35281, 1.35773, 1.35283, 1.35142, 1.34671, 1.34309, 1.33806, 1.3362, 1.34017, 1.3551, 1.34492, 1.49091, 1.61674, 1.4779, 1.48567, 1.32966, 1.30956, 1.30623, 1.30869, 1.3059, 1.30153, 1.29605
1.63749, 1.63106, 1.62615, 1.62202, 1.61796, 1.61239, 1.60922, 1.60301, 1.59747, 1.59091, 1.59364, 1.5626, 1.75485, 1.8509, 1.66836, 1.56828, 1.5926, 1.5609, 1.55384, 1.55187, 1.54023, 1.53186, 1.52782, 1.52449, 1.52315, 1.52247, 1.51847, 1.51136, 1.50726, 1.50379, 1.49588, 1.49189, 1.48616, 1.48224, 1.47758, 1.47458, 1.47128, 1.47953, 1.47006, 1.47121, 1.47628, 1.50631, 1.50808, 1.47378, 1.47087, 1.50262, 1.46892, 1.44341, 1.43333, 1.41922, 1.41514, 1.41228, 1.41126, 1.4092, 1.40541, 1.40146, 1.39163, 1.3884, 1.38743, 1.38591, 1.37876, 1.37771, 1.37346, 1.36635, 1.36325, 1.35763, 1.35585, 1.35391, 1.34816, 1.34883, 1.35246, 1.34555, 1.34474, 1.34584, 1.33624, 1.33463, 1.33306, 1.34132, 1.33689, 1.42644, 1.53718, 1.73475, 1.3965, 1.31622, 1.31194, 1.30713, 1.30371, 1.30632, 1.29847, 1.29394
1.63471, 1.63269, 1.62461, 1.61903, 1.61644, 1.61021, 1.60743, 1.6003, 1.59556, 1.58675, 1.588, 1.61448, 1.73449, 1.87576, 1.66869, 1.56276, 1.57258, 1.55851, 1.54889, 1.55061, 1.53694, 1.52885, 1.52527, 1.52217, 1.51977, 1.51735, 1.51455, 1.51139, 1.5055, 1.49752, 1.49616, 1.49203, 1.48545, 1.48011, 1.47563, 1.47422, 1.46995, 1.4643, 1.46503, 1.47315, 1.48256, 1.48441, 1.48461, 1.48412, 1.475, 1.48843, 1.4583, 1.43626, 1.42737, 1.41821, 1.41478, 1.40969, 1.40801, 1.40594, 1.40239, 1.399, 1.3881, 1.38499, 1.38152, 1.38097, 1.37783, 1.37526, 1.37283, 1.36569, 1.3684, 1.35776, 1.35335, 1.35094, 1.34689, 1.34801, 1.35127, 1.34706, 1.34228, 1.33775, 1.33656, 1.32801, 1.32642, 1.32644, 1.309, 1.45675, 1.6387, 1.8332, 1.44317, 1.2976, 1.30696, 1.30342, 1.30391, 1.30165, 1.29622, 1.29259
1.63656, 1.63232, 1.62995, 1.62396, 1.61445, 1.61042, 1.60771, 1.623, 1.59445, 1.59003, 1.59454, 1.61437, 1.71803, 1.87928, 1.87037, 1.56745, 1.57011, 1.55923, 1.55258, 1.54461, 1.53864, 1.53286, 1.52507, 1.52072, 1.51731, 1.51804, 1.51402, 1.51192, 1.50887, 1.49984, 1.49554, 1.49142, 1.48783, 1.48011, 1.47524, 1.47223, 1.46599, 1.4673, 1.4647, 1.46819, 1.47868, 1.48824, 1.49234, 1.49467, 1.47622, 1.49149, 1.45556, 1.4411, 1.43047, 1.41561, 1.41267, 1.41055, 1.40914, 1.40838, 1.40226, 1.40222, 1.39205, 1.38731, 1.3821, 1.38108, 1.38199, 1.37795, 1.37503, 1.3692, 1.36248, 1.35787, 1.35375, 1.35109, 1.34802, 1.34807, 1.35116, 1.34893, 1.34419, 1.33969, 1.35834, 1.33242, 1.32976, 1.33108, 1.31327, 1.38422, 1.66645, 1.73563, 1.30329, 1.31431, 1.32318, 1.30659, 1.30806, 1.30179, 1.29908, 1.296
1.6339, 1.63073, 1.62776, 1.62059, 1.6162, 1.61027, 1.60769, 1.60417, 1.59975, 1.59285, 1.59676, 1.5894, 1.73343, 2.00375, 1.95952, 1.57851, 1.58176, 1.55724, 1.5526, 1.54623, 1.53747, 1.53631, 1.52818, 1.52456, 1.51814, 1.51919, 1.51148, 1.50953, 1.50515, 1.50342, 1.49172, 1.48907, 1.48413, 1.47998, 1.47651, 1.47209, 1.46488, 1.4639, 1.47487, 1.46828, 1.48229, 1.48041, 1.47712, 1.47925, 1.49709, 1.48705, 1.47808, 1.44455, 1.43146, 1.43305, 1.41314, 1.4089, 1.40887, 1.40223, 1.39926, 1.39621, 1.39217, 1.38959, 1.386, 1.38053, 1.37719, 1.3728, 1.37113, 1.37244, 1.36427, 1.35834, 1.35188, 1.34897, 1.35091, 1.35034, 1.3487, 1.34477, 1.34463, 1.3415, 1.33673, 1.33341, 1.34554, 1.3351, 1.32621, 1.47798, 1.51995, 1.68225, 1.45828, 1.31617, 1.31171, 1.31243, 1.31431, 1.30312, 1.31244, 1.29822
1.63118, 1.64123, 1.62644, 1.61812, 1.61356, 1.60969, 1.63289, 1.59975, 1.59638, 1.59235, 1.59648, 1.59158, 1.67464, 1.83018, 1.71944, 1.57537, 1.5659, 1.56021, 1.5498, 1.54119, 1.54057, 1.53423, 1.52969, 1.52575, 1.51782, 1.5115, 1.51105, 1.50643, 1.49977, 1.49582, 1.4893, 1.48836, 1.48428, 1.47738, 1.47471, 1.47844, 1.46899, 1.48123, 1.46817, 1.4649, 1.46776, 1.48515, 1.48172, 1.49102, 1.47939, 1.4675, 1.46237, 1.44455, 1.43427, 1.42115, 1.412, 1.40981, 1.40879, 1.40291, 1.39871, 1.39803, 1.39153, 1.38586, 1.38248, 1.38003, 1.37429, 1.37156, 1.36724, 1.36835, 1.36387, 1.36319, 1.35487, 1.35295, 1.34866, 1.34923, 1.34561, 1.34478, 1.34124, 1.35362, 1.34363, 1.33424, 1.33448, 1.34445, 1.31531, 1.44425, 1.57569, 1.73296, 1.43, 1.32438, 1.33613, 1.31366, 1.31635, 1.30144, 1.33593, 1.29586
1.6337, 1.62468, 1.62418, 1.61855, 1.61489, 1.60736, 1.60335, 1.59943, 1.59947, 1.61085, 1.60585, 1.60303, 1.71637, 2.00405, 1.93305, 1.56387, 1.56241, 1.56423, 1.54722, 1.54416, 1.53998, 1.55126, 1.52675, 1.52677, 1.51716, 1.51001, 1.51007, 1.50703, 1.50176, 1.49516, 1.49166, 1.48806, 1.48502, 1.48249, 1.47488, 1.46915, 1.468, 1.46404, 1.46888, 1.46511, 1.48232, 1.48326, 1.48196, 1.48489, 1.46457, 1.47272, 1.46484, 1.44804, 1.42694, 1.41695, 1.41368, 1.41084, 1.43006, 1.41242, 1.40187, 1.40161, 1.39041, 1.38274, 1.38128, 1.37805, 1.37772, 1.3698, 1.36719, 1.36699, 1.36327, 1.36063, 1.35555, 1.35307, 1.35018, 1.34765, 1.3465, 1.34317, 1.34182, 1.33972, 1.348, 1.33454, 1.33404, 1.34058, 1.31541, 1.41928, 1.64048, 1.64801, 1.53303, 1.33048, 1.3273, 1.3061, 1.30738, 1.3023, 1.30253, 1.30167
