1.64523, 1.62813, 1.6331, 1.61717, 1.62081, 1.6124, 1.61591, 1.57875, 1.61738, 1.63135, 1.67579, 1.69784, 1.65881, 1.54226, 1.56494, 1.55677, 1.56245, 1.54242, 1.531, 1.52612, 1.52277, 1.51683, 1.51458, 1.51348, 1.5023, 1.49772, 1.52118, 1.48811, 1.47951, 1.47339, 1.48279, 1.46896, 1.47052, 1.48133, 1.56133, 1.75314, 1.75814, 1.43303, 1.43916, 1.43833, 1.45422, 1.43345, 1.42026, 1.41103, 1.40595, 1.40324, 1.39579, 1.38887, 1.3849, 1.38385, 1.37697, 1.37836, 1.37093, 1.3679, 1.36433, 1.36906, 1.35716, 1.34845, 1.34543, 1.34678, 1.33438, 1.33245, 1.33242, 1.3368, 1.35168, 1.35671, 1.35115, 1.3927, 1.38491, 1.34702, 1.33551, 1.30611, 1.29826, 1.29257, 1.29547, 1.29026, 
1.63455, 1.63805, 1.62461, 1.62084, 1.61439, 1.60984, 1.62015, 1.60659, 1.62475, 1.66285, 1.68331, 1.67191, 1.64561, 1.56721, 1.56233, 1.55162, 1.56418, 1.54742, 1.53063, 1.52795, 1.52497, 1.52138, 1.51411, 1.50722, 1.50156, 1.49668, 1.49443, 1.48941, 1.48369, 1.47702, 1.47131, 1.46496, 1.46441, 1.4521, 1.48166, 1.72299, 1.7309, 1.41155, 1.43743, 1.43252, 1.42603, 1.42099, 1.41585, 1.40866, 1.40239, 1.40012, 1.39839, 1.389, 1.38654, 1.38469, 1.37952, 1.37217, 1.37068, 1.36538, 1.36372, 1.36128, 1.35672, 1.35109, 1.34784, 1.348, 1.34105, 1.33714, 1.33613, 1.34388, 1.34299, 1.35508, 1.35484, 1.37765, 1.36291, 1.36302, 1.31973, 1.31595, 1.29791, 1.28953, 1.28952, 1.29023, 
1.68919, 1.67645, 1.63029, 1.62409, 1.61549, 1.61012, 1.61106, 1.59104, 1.64107, 1.65247, 1.66219, 1.69565, 1.65715, 1.56914, 1.57862, 1.55427, 1.5572, 1.56193, 1.53856, 1.54066, 1.5218, 1.52023, 1.51672, 1.51085, 1.50594, 1.4991, 1.50261, 1.48988, 1.48831, 1.48145, 1.47294, 1.46727, 1.46562, 1.45545, 1.54742, 1.6312, 1.73439, 1.42044, 1.44094, 1.43465, 1.42671, 1.42347, 1.41391, 1.40611, 1.4, 1.39931, 1.39873, 1.39405, 1.38889, 1.38797, 1.38073, 1.37605, 1.3704, 1.36821, 1.36536, 1.36177, 1.35719, 1.35667, 1.35429, 1.35192, 1.35108, 1.34492, 1.34378, 1.34352, 1.36119, 1.36999, 1.38343, 1.36591, 1.36883, 1.3473, 1.31988, 1.30971, 1.29614, 1.29133, 1.29543, 1.29221, 
1.66544, 1.66829, 1.64763, 1.6338, 1.61924, 1.61716, 1.61654, 1.61431, 1.60635, 1.67219, 1.7074, 1.72079, 1.64376, 1.59353, 1.56619, 1.56098, 1.55466, 1.56706, 1.54773, 1.53564, 1.52746, 1.52477, 1.51813, 1.51343, 1.5076, 1.50331, 1.50225, 1.49565, 1.49006, 1.48573, 1.47644, 1.47216, 1.47061, 1.48333, 1.52712, 1.71437, 1.71985, 1.41321, 1.45523, 1.44495, 1.43147, 1.43011, 1.42351, 1.41638, 1.40883, 1.40983, 1.40895, 1.40053, 1.39609, 1.39063, 1.38509, 1.38222, 1.38024, 1.37235, 1.36672, 1.36264, 1.3615, 1.35821, 1.3584, 1.3558, 1.35794, 1.34746, 1.34728, 1.3637, 1.35313, 1.37079, 1.3575, 1.39204, 1.36886, 1.35664, 1.3261, 1.32033, 1.30255, 1.30018, 1.30294, 1.29659, 
1.6516, 1.67891, 1.67197, 1.63079, 1.63764, 1.6231, 1.62797, 1.60103, 1.64772, 1.65805, 1.70971, 1.72736, 1.60328, 1.5754, 1.59284, 1.56241, 1.56501, 1.54973, 1.55227, 1.55696, 1.53044, 1.52832, 1.51894, 1.51266, 1.50899, 1.50651, 1.5032, 1.5022, 1.49108, 1.48451, 1.48844, 1.47894, 1.47888, 1.47484, 1.49465, 1.61138, 1.74863, 1.53546, 1.45401, 1.46381, 1.4414, 1.43096, 1.42533, 1.41838, 1.41399, 1.41513, 1.40611, 1.40181, 1.39757, 1.39439, 1.39157, 1.38685, 1.38247, 1.37497, 1.36848, 1.36544, 1.36464, 1.36074, 1.36427, 1.36237, 1.36049, 1.3618, 1.34932, 1.35174, 1.35431, 1.35451, 1.4057, 1.37607, 1.38653, 1.33654, 1.32264, 1.31968, 1.30659, 1.30191, 1.30255, 1.3025, 
1.64903, 1.66537, 1.68264, 1.64771, 1.64092, 1.62444, 1.63056, 1.62326, 1.63221, 1.65383, 1.70255, 1.6662, 1.65157, 1.58251, 1.57124, 1.5679, 1.56639, 1.57067, 1.55819, 1.55553, 1.53614, 1.54134, 1.5235, 1.52099, 1.51676, 1.51195, 1.50326, 1.4996, 1.52462, 1.49152, 1.48871, 1.48571, 1.48289, 1.48618, 1.55468, 1.59225, 1.74862, 1.53774, 1.46916, 1.46086, 1.44323, 1.43664, 1.42844, 1.42524, 1.42067, 1.41619, 1.4121, 1.40608, 1.40199, 1.39923, 1.39677, 1.39312, 1.39008, 1.38163, 1.37788, 1.37111, 1.36332, 1.36476, 1.36789, 1.36947, 1.36266, 1.36064, 1.35672, 1.35515, 1.37423, 1.36319, 1.3777, 1.38471, 1.403, 1.38164, 1.33112, 1.32651, 1.31407, 1.3095, 1.31009, 1.30959, 
1.65521, 1.66037, 1.68129, 1.65088, 1.63105, 1.62455, 1.62441, 1.63115, 1.64952, 1.67672, 1.70972, 1.71652, 1.58998, 1.58609, 1.58281, 1.57187, 1.55947, 1.57781, 1.56281, 1.54166, 1.53969, 1.54331, 1.52689, 1.52351, 1.51628, 1.5132, 1.50919, 1.50405, 1.50165, 1.49982, 1.49245, 1.48519, 1.49363, 1.46417, 1.55398, 1.7305, 1.74861, 1.46881, 1.47186, 1.46116, 1.44456, 1.45156, 1.43864, 1.42711, 1.43041, 1.42066, 1.41676, 1.41011, 1.40643, 1.40254, 1.4022, 1.4021, 1.39336, 1.38356, 1.37518, 1.3851, 1.36628, 1.36617, 1.36553, 1.37163, 1.35881, 1.36053, 1.35536, 1.35603, 1.38513, 1.3647, 1.39125, 1.40497, 1.40461, 1.392, 1.34473, 1.32807, 1.32006, 1.32729, 1.31485, 1.31332, 
1.65755, 1.65037, 1.67165, 1.6582, 1.63422, 1.62705, 1.62953, 1.62091, 1.66591, 1.67752, 1.68569, 1.73281, 1.59077, 1.59695, 1.58512, 1.57739, 1.56255, 1.55831, 1.56499, 1.54815, 1.54532, 1.55082, 1.53064, 1.52875, 1.52407, 1.51605, 1.51073, 1.50572, 1.50682, 1.50333, 1.49959, 1.49266, 1.48654, 1.4807, 1.55194, 1.68014, 1.71296, 1.63824, 1.46401, 1.45421, 1.46453, 1.44295, 1.43837, 1.4333, 1.42744, 1.42524, 1.41951, 1.41422, 1.40906, 1.40722, 1.40422, 1.40306, 1.39903, 1.38795, 1.37841, 1.37308, 1.37009, 1.36622, 1.36464, 1.36508, 1.35818, 1.36132, 1.35889, 1.35914, 1.3707, 1.38539, 1.40446, 1.41297, 1.42807, 1.35222, 1.33279, 1.33105, 1.32601, 1.32063, 1.31344, 1.32306, 
1.66916, 1.65134, 1.64784, 1.65781, 1.63996, 1.64054, 1.6371, 1.6367, 1.64707, 1.67588, 1.73687, 1.75897, 1.62651, 1.59938, 1.59846, 1.5772, 1.5658, 1.56282, 1.58526, 1.55369, 1.55442, 1.54538, 1.53405, 1.53122, 1.52655, 1.5165, 1.51432, 1.50864, 1.50565, 1.50214, 1.49651, 1.49067, 1.49699, 1.46269, 1.55734, 1.72736, 1.73532, 1.51234, 1.45777, 1.46146, 1.46991, 1.44131, 1.43838, 1.43373, 1.43023, 1.42647, 1.42241, 1.42023, 1.41176, 1.41017, 1.40873, 1.40585, 1.40411, 1.39935, 1.38877, 1.38031, 1.37657, 1.37284, 1.3687, 1.36468, 1.36393, 1.3636, 1.36476, 1.37466, 1.37819, 1.37087, 1.39758, 1.40826, 1.40678, 1.37385, 1.32696, 1.33881, 1.32791, 1.32043, 1.31506, 1.31276, 
1.6644, 1.6655, 1.64938, 1.67315, 1.64909, 1.63802, 1.63391, 1.62656, 1.63149, 1.6739, 1.74908, 1.75965, 1.6171, 1.60677, 1.60382, 1.57814, 1.56488, 1.55763, 1.56736, 1.57845, 1.55774, 1.54558, 1.53782, 1.53551, 1.52851, 1.52242, 1.51382, 1.51097, 1.50454, 1.50099, 1.49714, 1.49173, 1.48985, 1.48889, 1.5205, 1.66151, 1.7232, 1.49426, 1.45501, 1.46186, 1.46154, 1.44276, 1.43703, 1.43372, 1.43266, 1.42606, 1.42334, 1.42047, 1.4161, 1.40704, 1.40687, 1.40795, 1.40428, 1.40378, 1.39198, 1.39133, 1.38242, 1.37553, 1.37301, 1.37021, 1.36787, 1.36488, 1.35948, 1.36154, 1.37463, 1.37531, 1.38166, 1.41179, 1.41787, 1.41816, 1.34609, 1.34231, 1.32614, 1.34679, 1.3173, 1.31298, 
1.66312, 1.66052, 1.66761, 1.67871, 1.66017, 1.64617, 1.6292, 1.64805, 1.64694, 1.71602, 1.72317, 1.77279, 1.6719, 1.5928, 1.5871, 1.57778, 1.56556, 1.56345, 1.56243, 1.56608, 1.55217, 1.5515, 1.53867, 1.53184, 1.52962, 1.52339, 1.51486, 1.512, 1.50733, 1.50189, 1.49747, 1.51021, 1.50505, 1.49895, 1.51763, 1.66157, 1.68628, 1.56533, 1.4437, 1.4671, 1.45138, 1.44309, 1.46608, 1.43361, 1.42898, 1.42698, 1.42334, 1.41873, 1.41085, 1.40754, 1.40645, 1.40408, 1.40252, 1.40087, 1.3965, 1.39355, 1.38449, 1.37928, 1.37946, 1.3773, 1.37509, 1.37195, 1.36505, 1.36746, 1.36153, 1.39769, 1.40193, 1.41446, 1.42156, 1.41445, 1.34448, 1.33674, 1.3297, 1.32613, 1.32102, 1.32406, 
1.67565, 1.66972, 1.66213, 1.66668, 1.66167, 1.63983, 1.6366, 1.63441, 1.6346, 1.68254, 1.75961, 1.76998, 1.73785, 1.59869, 1.58994, 1.57818, 1.57528, 1.56692, 1.55266, 1.56605, 1.55138, 1.55286, 1.54196, 1.54025, 1.5312, 1.52724, 1.52088, 1.51589, 1.5107, 1.50387, 1.52294, 1.49346, 1.49141, 1.51011, 1.52516, 1.65812, 1.70111, 1.63759, 1.4228, 1.46434, 1.45283, 1.4447, 1.43623, 1.44098, 1.43043, 1.42952, 1.42419, 1.4229, 1.41507, 1.40933, 1.40606, 1.40409, 1.40281, 1.39837, 1.39689, 1.39263, 1.38728, 1.38114, 1.37992, 1.37859, 1.38068, 1.37252, 1.36759, 1.36295, 1.36316, 1.38047, 1.39688, 1.42342, 1.45135, 1.39709, 1.3446, 1.34505, 1.33245, 1.32879, 1.32819, 1.32082, 
1.67011, 1.66513, 1.66075, 1.66864, 1.6795, 1.64372, 1.63269, 1.62821, 1.6848, 1.71455, 1.73905, 1.7489, 1.69638, 1.58071, 1.59637, 1.58401, 1.57525, 1.57565, 1.57094, 1.56812, 1.55221, 1.55154, 1.5406, 1.53823, 1.53434, 1.52923, 1.52674, 1.51781, 1.51644, 1.50777, 1.50219, 1.49568, 1.49526, 1.49378, 1.50031, 1.66993, 1.71277, 1.65079, 1.45447, 1.45813, 1.44786, 1.44369, 1.44341, 1.43648, 1.42852, 1.42863, 1.42575, 1.42178, 1.41566, 1.41088, 1.40746, 1.40454, 1.40587, 1.40317, 1.40225, 1.39439, 1.38665, 1.38296, 1.38139, 1.37724, 1.37483, 1.37296, 1.37206, 1.36756, 1.36882, 1.37515, 1.44058, 1.44178, 1.44992, 1.42315, 1.34658, 1.35079, 1.33568, 1.32569, 1.32183, 1.31749, 
1.6747, 1.66346, 1.68211, 1.65399, 1.67086, 1.67163, 1.64737, 1.64123, 1.63245, 1.74559, 1.7589, 1.8001, 1.75969, 1.59965, 1.60685, 1.59011, 1.58622, 1.57818, 1.56812, 1.5735, 1.58523, 1.55151, 1.55361, 1.53709, 1.53618, 1.5306, 1.52594, 1.53098, 1.51624, 1.51033, 1.50442, 1.5007, 1.4993, 1.50263, 1.56202, 1.65577, 1.70839, 1.53487, 1.44077, 1.46277, 1.46032, 1.44758, 1.44508, 1.4477, 1.43638, 1.43402, 1.43025, 1.42453, 1.42084, 1.4161, 1.41196, 1.4112, 1.40867, 1.40283, 1.40199, 1.39788, 1.38784, 1.38651, 1.38153, 1.37978, 1.37761, 1.37802, 1.37367, 1.37143, 1.37458, 1.37425, 1.40383, 1.45782, 1.45598, 1.44746, 1.35641, 1.35405, 1.33277, 1.32496, 1.32056, 1.31972, 
1.66958, 1.66588, 1.66541, 1.65476, 1.66667, 1.66794, 1.66232, 1.65169, 1.62074, 1.72455, 1.79561, 1.8148, 1.75897, 1.62642, 1.61616, 1.59663, 1.58593, 1.58091, 1.57242, 1.57612, 1.59015, 1.56497, 1.55227, 1.54262, 1.53816, 1.53227, 1.52699, 1.52413, 1.51639, 1.51026, 1.50791, 1.50415, 1.50978, 1.50102, 1.49277, 1.62367, 1.68682, 1.64846, 1.44069, 1.47112, 1.464, 1.45441, 1.4508, 1.44513, 1.43813, 1.43739, 1.43399, 1.4311, 1.42465, 1.42581, 1.41667, 1.41462, 1.41313, 1.40725, 1.40272, 1.39913, 1.39114, 1.38947, 1.39004, 1.38686, 1.3813, 1.37869, 1.3732, 1.37514, 1.38256, 1.37874, 1.40707, 1.43951, 1.45415, 1.42788, 1.35817, 1.35444, 1.35756, 1.33798, 1.32842, 1.32655, 
1.68024, 1.6737, 1.66479, 1.66256, 1.65813, 1.68644, 1.65249, 1.65509, 1.65148, 1.66921, 1.74686, 1.79652, 1.67088, 1.58154, 1.61329, 1.59199, 1.5862, 1.58287, 1.57765, 1.5733, 1.57057, 1.57202, 1.56233, 1.55395, 1.53838, 1.53442, 1.52903, 1.52432, 1.5183, 1.51601, 1.51213, 1.50536, 1.50248, 1.50317, 1.54402, 1.54429, 1.71185, 1.57259, 1.4679, 1.493, 1.46803, 1.46401, 1.45189, 1.4466, 1.43997, 1.43645, 1.43413, 1.43172, 1.4284, 1.42477, 1.42257, 1.41582, 1.4155, 1.40611, 1.40233, 1.39623, 1.39215, 1.38859, 1.38316, 1.37884, 1.3771, 1.37481, 1.37363, 1.3721, 1.37485, 1.40674, 1.41743, 1.44327, 1.46905, 1.40419, 1.34263, 1.35572, 1.33689, 1.33417, 1.33021, 1.32759, 
1.68475, 1.68026, 1.67267, 1.67207, 1.66974, 1.66971, 1.6632, 1.65567, 1.65719, 1.6786, 1.7623, 1.78542, 1.77194, 1.60865, 1.6106, 1.6026, 1.59171, 1.58295, 1.57835, 1.57553, 1.5869, 1.58089, 1.55619, 1.55547, 1.54124, 1.5352, 1.53364, 1.52907, 1.52271, 1.54486, 1.5122, 1.50919, 1.5036, 1.50268, 1.5053, 1.59275, 1.69673, 1.61502, 1.53258, 1.48071, 1.47241, 1.46567, 1.46442, 1.45118, 1.44124, 1.44086, 1.43564, 1.43302, 1.42972, 1.42645, 1.42363, 1.42058, 1.41661, 1.40712, 1.4031, 1.39676, 1.39198, 1.388, 1.38142, 1.40489, 1.37734, 1.37406, 1.37098, 1.37789, 1.38132, 1.3876, 1.40556, 1.45357, 1.47135, 1.39638, 1.35074, 1.35801, 1.33468, 1.33559, 1.33053, 1.3271, 
1.69289, 1.67703, 1.67511, 1.66919, 1.66994, 1.67539, 1.67668, 1.65114, 1.62549, 1.69513, 1.79365, 1.81481, 1.70408, 1.60829, 1.60001, 1.59273, 1.58693, 1.58247, 1.58464, 1.57219, 1.57176, 1.59304, 1.56616, 1.55777, 1.54411, 1.53952, 1.53566, 1.53007, 1.52352, 1.52015, 1.52332, 1.53049, 1.50686, 1.50644, 1.54986, 1.66353, 1.69791, 1.68275, 1.4648, 1.48996, 1.48224, 1.46774, 1.4606, 1.45458, 1.45079, 1.44257, 1.4373, 1.43579, 1.43303, 1.42628, 1.42571, 1.42203, 1.41709, 1.4194, 1.40708, 1.40257, 1.39407, 1.38862, 1.38352, 1.38183, 1.37816, 1.39378, 1.37458, 1.38188, 1.39582, 1.36887, 1.44839, 1.48197, 1.46936, 1.43257, 1.3574, 1.36066, 1.34333, 1.3359, 1.33096, 1.33043, 
1.68847, 1.68129, 1.6894, 1.66738, 1.66267, 1.68213, 1.67194, 1.65873, 1.6313, 1.69341, 1.79793, 1.81519, 1.78626, 1.61132, 1.61072, 1.60114, 1.58784, 1.58621, 1.5816, 1.57371, 1.60964, 1.58302, 1.5662, 1.55192, 1.54893, 1.54476, 1.53908, 1.53197, 1.52797, 1.52334, 1.51851, 1.53059, 1.51663, 1.51302, 1.53393, 1.55851, 1.69253, 1.57354, 1.48045, 1.50551, 1.48113, 1.47097, 1.46737, 1.46207, 1.45565, 1.44597, 1.44433, 1.43981, 1.43685, 1.42901, 1.42656, 1.42346, 1.42033, 1.41402, 1.40975, 1.40543, 1.402, 1.39214, 1.38871, 1.38663, 1.38356, 1.38, 1.38357, 1.38867, 1.39781, 1.35609, 1.43707, 1.47403, 1.47921, 1.4589, 1.34406, 1.34434, 1.35165, 1.33828, 1.35515, 1.33226, 
1.68799, 1.68447, 1.67577, 1.67152, 1.68105, 1.6691, 1.67477, 1.65535, 1.63064, 1.71495, 1.73139, 1.83691, 1.74119, 1.61257, 1.62407, 1.60471, 1.5955, 1.59461, 1.58543, 1.5856, 1.57514, 1.58955, 1.57761, 1.55811, 1.55565, 1.55018, 1.54462, 1.53904, 1.52532, 1.52273, 1.52388, 1.52983, 1.5259, 1.52403, 1.48444, 1.66282, 1.68726, 1.60721, 1.54057, 1.48911, 1.48376, 1.47486, 1.46812, 1.46322, 1.45561, 1.45341, 1.44917, 1.44535, 1.44011, 1.43561, 1.43062, 1.42623, 1.4238, 1.41787, 1.41155, 1.40626, 1.40052, 1.39367, 1.39259, 1.38993, 1.38764, 1.3854, 1.38563, 1.39813, 1.4069, 1.36218, 1.46828, 1.47418, 1.45811, 1.46354, 1.37104, 1.35099, 1.34478, 1.34411, 1.34282, 1.33671, 
1.68947, 1.67951, 1.67304, 1.66661, 1.66207, 1.65912, 1.68253, 1.64901, 1.62699, 1.75376, 1.8382, 1.80809, 1.68571, 1.62147, 1.62004, 1.60029, 1.59535, 1.58956, 1.58436, 1.57901, 1.57571, 1.57504, 1.57198, 1.55677, 1.55181, 1.54769, 1.54368, 1.53619, 1.52806, 1.52454, 1.51744, 1.51415, 1.51284, 1.51529, 1.50303, 1.58498, 1.69708, 1.68135, 1.51046, 1.48797, 1.47316, 1.46861, 1.46454, 1.45893, 1.45449, 1.45189, 1.44837, 1.4436, 1.44093, 1.43787, 1.43268, 1.42885, 1.42397, 1.42199, 1.41747, 1.40985, 1.40398, 1.39928, 1.39504, 1.39203, 1.39, 1.38605, 1.38499, 1.38635, 1.38924, 1.41351, 1.47886, 1.47868, 1.49623, 1.4933, 1.34137, 1.35525, 1.35126, 1.34521, 1.3444, 1.34344, 
1.68859, 1.67975, 1.67287, 1.66767, 1.67254, 1.65625, 1.67291, 1.67197, 1.61253, 1.7507, 1.81586, 1.84356, 1.78285, 1.62468, 1.62058, 1.60901, 1.59993, 1.58928, 1.58043, 1.57766, 1.57472, 1.56774, 1.56502, 1.57138, 1.54718, 1.54385, 1.53984, 1.53388, 1.52398, 1.52004, 1.51943, 1.50933, 1.5066, 1.51663, 1.48264, 1.6475, 1.69734, 1.71031, 1.49524, 1.48694, 1.47186, 1.48278, 1.45722, 1.45129, 1.44877, 1.44558, 1.4437, 1.43845, 1.43463, 1.43134, 1.43196, 1.42871, 1.42312, 1.42246, 1.41598, 1.411, 1.40538, 1.40594, 1.40013, 1.3927, 1.39166, 1.39221, 1.39356, 1.39953, 1.39265, 1.36102, 1.44143, 1.47795, 1.49549, 1.48494, 1.33276, 1.35533, 1.3517, 1.35028, 1.34315, 1.33868, 
1.68678, 1.68643, 1.67583, 1.67083, 1.65952, 1.65518, 1.68046, 1.67831, 1.6396, 1.71013, 1.78559, 1.79623, 1.7248, 1.617, 1.63047, 1.59899, 1.59179, 1.5841, 1.57976, 1.57635, 1.57175, 1.5683, 1.57293, 1.56292, 1.55183, 1.54428, 1.54767, 1.54356, 1.52792, 1.51288, 1.51339, 1.50534, 1.50498, 1.50991, 1.4642, 1.6248, 1.64169, 1.60953, 1.48598, 1.47511, 1.47896, 1.45935, 1.45523, 1.45123, 1.44975, 1.45157, 1.44144, 1.43554, 1.43375, 1.43353, 1.42943, 1.43396, 1.42303, 1.4201, 1.42734, 1.42001, 1.41162, 1.40036, 1.39825, 1.39209, 1.39964, 1.38633, 1.39233, 1.38431, 1.38464, 1.37607, 1.42978, 1.49822, 1.50863, 1.49926, 1.333, 1.35794, 1.36458, 1.34821, 1.34579, 1.33945, 
1.68913, 1.68614, 1.68103, 1.67238, 1.66768, 1.65882, 1.65862, 1.67703, 1.64798, 1.6556, 1.7511, 1.83066, 1.79823, 1.59087, 1.61468, 1.61619, 1.59306, 1.5878, 1.58308, 1.58018, 1.5691, 1.56567, 1.57858, 1.55441, 1.54549, 1.54605, 1.54367, 1.53659, 1.54493, 1.52378, 1.50409, 1.51437, 1.51997, 1.51715, 1.51595, 1.66013, 1.62866, 1.66824, 1.48536, 1.49351, 1.47303, 1.46137, 1.46162, 1.45259, 1.4506, 1.44708, 1.44063, 1.43421, 1.43093, 1.43419, 1.43216, 1.42424, 1.42095, 1.41652, 1.41584, 1.41056, 1.40326, 1.39924, 1.39328, 1.38913, 1.38941, 1.386, 1.38134, 1.37847, 1.37937, 1.39203, 1.48538, 1.49947, 1.50565, 1.47597, 1.37961, 1.36811, 1.35039, 1.35147, 1.34129, 1.33584, 
1.70048, 1.69519, 1.68987, 1.68495, 1.68093, 1.67578, 1.70025, 1.67868, 1.62185, 1.67189, 1.81457, 1.85455, 1.837, 1.62308, 1.61991, 1.61194, 1.60159, 1.5993, 1.59225, 1.59256, 1.58409, 1.57563, 1.56971, 1.59123, 1.57856, 1.55491, 1.54702, 1.54556, 1.53405, 1.52774, 1.5253, 1.52227, 1.52798, 1.53526, 1.49611, 1.59985, 1.6553, 1.63758, 1.49929, 1.47196, 1.4868, 1.48683, 1.47686, 1.46114, 1.4586, 1.45431, 1.44349, 1.43866, 1.44331, 1.4466, 1.44033, 1.42965, 1.4287, 1.42783, 1.42696, 1.4111, 1.40949, 1.41019, 1.42985, 1.39923, 1.39834, 1.38752, 1.38952, 1.38835, 1.3929, 1.37925, 1.45174, 1.5478, 1.51877, 1.51675, 1.44963, 1.36557, 1.35491, 1.34791, 1.35127, 1.34725, 
1.69747, 1.68912, 1.68445, 1.67557, 1.68136, 1.68217, 1.67471, 1.66198, 1.65388, 1.69489, 1.72091, 1.84729, 1.81108, 1.61625, 1.62377, 1.62709, 1.62487, 1.58652, 1.58747, 1.59129, 1.57435, 1.57911, 1.57528, 1.57273, 1.56829, 1.5532, 1.54442, 1.54306, 1.53627, 1.53068, 1.54042, 1.53783, 1.53549, 1.5369, 1.53105, 1.61364, 1.6752, 1.6648, 1.52767, 1.46173, 1.5033, 1.49285, 1.47739, 1.47759, 1.47481, 1.46546, 1.44998, 1.44346, 1.44766, 1.45043, 1.43659, 1.43685, 1.43014, 1.42797, 1.42258, 1.41825, 1.41372, 1.40998, 1.40541, 1.40194, 1.39611, 1.3922, 1.39174, 1.39173, 1.39599, 1.36863, 1.47714, 1.52635, 1.52567, 1.49197, 1.36375, 1.38375, 1.36148, 1.3688, 1.36463, 1.34624, 
1.68885, 1.68956, 1.6715, 1.66152, 1.66258, 1.66999, 1.67062, 1.65197, 1.61603, 1.70238, 1.79477, 1.84773, 1.81746, 1.61894, 1.63047, 1.60789, 1.58954, 1.57319, 1.5836, 1.58437, 1.57638, 1.55871, 1.55914, 1.56542, 1.55901, 1.5509, 1.54511, 1.54843, 1.54443, 1.51501, 1.52241, 1.52006, 1.5116, 1.52748, 1.49766, 1.61329, 1.65602, 1.6441, 1.56568, 1.46501, 1.49492, 1.49872, 1.4658, 1.46858, 1.4658, 1.45296, 1.43304, 1.42959, 1.44132, 1.44452, 1.42919, 1.41113, 1.41561, 1.41437, 1.40958, 1.40724, 1.39275, 1.38925, 1.39177, 1.39184, 1.38969, 1.37635, 1.37578, 1.37884, 1.38639, 1.39192, 1.43329, 1.50573, 1.51577, 1.5029, 1.41968, 1.36335, 1.35117, 1.3544, 1.34982, 1.33189, 
1.70018, 1.68965, 1.68529, 1.69324, 1.67978, 1.68956, 1.68916, 1.66529, 1.64846, 1.68515, 1.75501, 1.89312, 1.86891, 1.63054, 1.63152, 1.63444, 1.60815, 1.60507, 1.61471, 1.59294, 1.58171, 1.57156, 1.56805, 1.57662, 1.57919, 1.56337, 1.57028, 1.5442, 1.53977, 1.53481, 1.53303, 1.52905, 1.5204, 1.54643, 1.52715, 1.64273, 1.6746, 1.67157, 1.55495, 1.49923, 1.48548, 1.50002, 1.47979, 1.48588, 1.46405, 1.45532, 1.44231, 1.43978, 1.44857, 1.45006, 1.44267, 1.43118, 1.41887, 1.41253, 1.40604, 1.41277, 1.40601, 1.40152, 1.40265, 1.40616, 1.40453, 1.40834, 1.38125, 1.38546, 1.39832, 1.37718, 1.44238, 1.50691, 1.50944, 1.47851, 1.35085, 1.37831, 1.36775, 1.36198, 1.34418, 1.34449, 
1.69768, 1.68796, 1.68613, 1.67596, 1.67013, 1.66423, 1.65974, 1.66497, 1.63723, 1.64758, 1.80043, 1.87248, 1.79347, 1.63232, 1.63025, 1.61842, 1.61322, 1.60093, 1.59015, 1.58715, 1.58231, 1.57455, 1.56927, 1.56779, 1.5819, 1.5756, 1.56632, 1.53957, 1.53897, 1.54917, 1.53351, 1.5232, 1.5311, 1.52083, 1.51647, 1.62804, 1.65123, 1.63844, 1.55405, 1.46593, 1.48859, 1.50521, 1.48795, 1.47471, 1.47531, 1.48091, 1.45183, 1.44752, 1.44617, 1.45005, 1.44489, 1.44115, 1.43211, 1.42796, 1.42487, 1.47222, 1.4134, 1.41074, 1.40691, 1.404, 1.4012, 1.41299, 1.39622, 1.39392, 1.4084, 1.38889, 1.40629, 1.48905, 1.54331, 1.52259, 1.41746, 1.37684, 1.37372, 1.36449, 1.34852, 1.34821, 
1.68559, 1.68492, 1.67437, 1.6743, 1.67851, 1.65983, 1.65831, 1.65097, 1.61533, 1.65467, 1.78477, 1.86235, 1.82339, 1.61615, 1.62686, 1.60748, 1.59672, 1.59206, 1.57695, 1.57118, 1.57443, 1.56796, 1.56179, 1.56238, 1.55778, 1.56222, 1.54395, 1.54166, 1.53205, 1.52649, 1.52429, 1.51798, 1.50986, 1.51333, 1.51949, 1.60592, 1.64203, 1.6349, 1.60337, 1.45784, 1.47807, 1.48916, 1.47211, 1.45579, 1.44933, 1.44259, 1.4444, 1.44459, 1.43857, 1.43718, 1.44006, 1.42459, 1.42205, 1.41845, 1.40999, 1.40409, 1.40388, 1.39686, 1.39396, 1.3915, 1.38974, 1.38855, 1.38465, 1.38431, 1.38996, 1.37897, 1.45593, 1.5084, 1.53074, 1.53005, 1.3687, 1.37817, 1.36866, 1.34385, 1.33892, 1.3471, 
1.68267, 1.6783, 1.67289, 1.66705, 1.66173, 1.65411, 1.65094, 1.65095, 1.61081, 1.65144, 1.8015, 1.88939, 1.83399, 1.58518, 1.61011, 1.59529, 1.58805, 1.5993, 1.57454, 1.56618, 1.5629, 1.56016, 1.55605, 1.55874, 1.55152, 1.55539, 1.53372, 1.53015, 1.52624, 1.52384, 1.51058, 1.50686, 1.50306, 1.50597, 1.54213, 1.58564, 1.64233, 1.63538, 1.57439, 1.46042, 1.47122, 1.47024, 1.48166, 1.45349, 1.44196, 1.44052, 1.44093, 1.43914, 1.43315, 1.42928, 1.42445, 1.41769, 1.42437, 1.41819, 1.40262, 1.39823, 1.39391, 1.38963, 1.38632, 1.38451, 1.3825, 1.37881, 1.37308, 1.37204, 1.3822, 1.38691, 1.3969, 1.49067, 1.55895, 1.5582, 1.32956, 1.35809, 1.35612, 1.33784, 1.33365, 1.33392, 
1.69437, 1.69313, 1.68156, 1.67305, 1.66918, 1.65921, 1.65015, 1.64763, 1.6463, 1.68152, 1.74925, 1.89314, 1.77559, 1.59199, 1.62442, 1.61024, 1.59682, 1.58958, 1.58554, 1.57811, 1.57223, 1.56606, 1.55587, 1.55146, 1.5587, 1.55196, 1.54772, 1.54836, 1.53373, 1.54821, 1.525, 1.51114, 1.52009, 1.51882, 1.48204, 1.65002, 1.66617, 1.59096, 1.56567, 1.48278, 1.4882, 1.47847, 1.47933, 1.45694, 1.44847, 1.44866, 1.4481, 1.4404, 1.44026, 1.44085, 1.43035, 1.42638, 1.42337, 1.41943, 1.40996, 1.40438, 1.40213, 1.39936, 1.39371, 1.39281, 1.3885, 1.38481, 1.38465, 1.387, 1.39246, 1.3363, 1.42375, 1.49946, 1.54499, 1.56253, 1.37544, 1.36136, 1.36833, 1.3618, 1.35815, 1.33743, 
1.68139, 1.6739, 1.66879, 1.66312, 1.65546, 1.65951, 1.63968, 1.63244, 1.62775, 1.702, 1.71383, 1.94048, 1.81338, 1.57925, 1.59715, 1.58715, 1.58337, 1.57626, 1.57154, 1.56984, 1.5734, 1.55625, 1.55423, 1.54801, 1.53499, 1.54384, 1.54035, 1.52286, 1.51626, 1.50989, 1.50634, 1.5064, 1.50246, 1.50988, 1.48311, 1.53137, 1.6488, 1.63112, 1.5778, 1.45273, 1.48141, 1.46804, 1.47241, 1.44717, 1.44146, 1.4405, 1.43168, 1.42654, 1.42168, 1.41853, 1.42006, 1.4198, 1.4081, 1.40313, 1.39616, 1.39212, 1.38886, 1.38455, 1.37931, 1.37732, 1.37236, 1.36789, 1.36488, 1.36357, 1.38092, 1.33052, 1.37658, 1.52157, 1.53328, 1.54839, 1.44102, 1.3466, 1.33936, 1.3494, 1.32726, 1.32293, 
1.67722, 1.67527, 1.66539, 1.66555, 1.65303, 1.64823, 1.63405, 1.63697, 1.64008, 1.60887, 1.73837, 1.86528, 1.72571, 1.59296, 1.59907, 1.59301, 1.58025, 1.57573, 1.57155, 1.56449, 1.56105, 1.55604, 1.55024, 1.54809, 1.53456, 1.54022, 1.53751, 1.52598, 1.52368, 1.51198, 1.51021, 1.50195, 1.52287, 1.51275, 1.47306, 1.61825, 1.65137, 1.63115, 1.54621, 1.46735, 1.4672, 1.45676, 1.48224, 1.43992, 1.44719, 1.43437, 1.43297, 1.42219, 1.41584, 1.41299, 1.40917, 1.40234, 1.39706, 1.39547, 1.39465, 1.39269, 1.39237, 1.38194, 1.38135, 1.37508, 1.37027, 1.36505, 1.36938, 1.35907, 1.35717, 1.35557, 1.44332, 1.49918, 1.54276, 1.53921, 1.43675, 1.34313, 1.3387, 1.3248, 1.33321, 1.32009, 
1.67699, 1.67106, 1.65537, 1.6518, 1.64644, 1.6412, 1.63677, 1.63365, 1.61301, 1.63079, 1.74733, 1.89702, 1.89417, 1.59264, 1.60673, 1.58769, 1.58385, 1.57474, 1.5699, 1.56331, 1.56131, 1.55807, 1.54665, 1.54112, 1.53637, 1.53502, 1.55264, 1.52251, 1.52021, 1.5166, 1.51304, 1.50753, 1.50116, 1.51975, 1.46886, 1.52366, 1.62683, 1.62914, 1.55424, 1.44407, 1.47307, 1.46151, 1.4714, 1.46213, 1.44367, 1.43672, 1.43002, 1.42722, 1.42095, 1.41704, 1.41316, 1.40886, 1.40763, 1.40579, 1.40071, 1.39797, 1.39268, 1.3856, 1.37706, 1.3751, 1.37392, 1.37066, 1.36544, 1.36286, 1.36205, 1.33413, 1.44063, 1.50337, 1.53032, 1.52334, 1.40391, 1.34248, 1.34434, 1.32831, 1.32292, 1.31999, 
1.67549, 1.66264, 1.65218, 1.65528, 1.6414, 1.64196, 1.64439, 1.63911, 1.64464, 1.64384, 1.71082, 1.88774, 1.82306, 1.57815, 1.60776, 1.59829, 1.58202, 1.57126, 1.56382, 1.56135, 1.55527, 1.5558, 1.55033, 1.53936, 1.53571, 1.533, 1.55141, 1.5312, 1.51671, 1.51275, 1.50436, 1.50249, 1.507, 1.50453, 1.48191, 1.5263, 1.61314, 1.60251, 1.55746, 1.47815, 1.47475, 1.45586, 1.45243, 1.47042, 1.43994, 1.4447, 1.42797, 1.43296, 1.42827, 1.42052, 1.41433, 1.41251, 1.41009, 1.40671, 1.4021, 1.40028, 1.3958, 1.38935, 1.38315, 1.38079, 1.37547, 1.37397, 1.36825, 1.37766, 1.36821, 1.37177, 1.40334, 1.47596, 1.55448, 1.56774, 1.3579, 1.34169, 1.3339, 1.3272, 1.32388, 1.32568, 
1.67683, 1.66906, 1.66147, 1.66046, 1.64614, 1.64425, 1.6362, 1.6364, 1.63371, 1.60046, 1.83091, 1.85329, 1.90712, 1.57495, 1.5977, 1.59159, 1.58252, 1.5726, 1.56679, 1.5617, 1.55728, 1.55592, 1.54764, 1.54112, 1.53767, 1.53155, 1.52783, 1.52971, 1.51657, 1.51254, 1.50566, 1.49681, 1.49599, 1.49798, 1.48666, 1.54888, 1.60722, 1.58812, 1.57594, 1.45458, 1.46141, 1.45461, 1.44792, 1.46471, 1.43689, 1.44647, 1.4309, 1.42862, 1.42251, 1.41634, 1.41381, 1.41223, 1.40946, 1.40445, 1.39903, 1.39645, 1.3874, 1.38531, 1.37962, 1.37658, 1.37516, 1.36921, 1.36813, 1.36713, 1.36644, 1.37137, 1.4457, 1.48252, 1.57107, 1.55403, 1.42349, 1.34348, 1.34777, 1.32705, 1.32562, 1.32568, 
1.68885, 1.67667, 1.67004, 1.66528, 1.66086, 1.64787, 1.64233, 1.64356, 1.64071, 1.63152, 1.74441, 1.89677, 1.87971, 1.58185, 1.62051, 1.59409, 1.58502, 1.5766, 1.56837, 1.56516, 1.56098, 1.56116, 1.54932, 1.55686, 1.53865, 1.53287, 1.52824, 1.54436, 1.51601, 1.51033, 1.51692, 1.49965, 1.49666, 1.5241, 1.46701, 1.50942, 1.63796, 1.60045, 1.57515, 1.46336, 1.46149, 1.4583, 1.46142, 1.46193, 1.45324, 1.4365, 1.42961, 1.42647, 1.4214, 1.41764, 1.41324, 1.41006, 1.40646, 1.4029, 1.39893, 1.39371, 1.38959, 1.38464, 1.3793, 1.37589, 1.3739, 1.37147, 1.36835, 1.36894, 1.37902, 1.37647, 1.45568, 1.49128, 1.56764, 1.58607, 1.37795, 1.35829, 1.33481, 1.33038, 1.32895, 1.32579, 
1.67679, 1.67373, 1.66604, 1.66011, 1.65893, 1.64544, 1.64126, 1.63533, 1.65036, 1.62972, 1.74094, 1.8599, 1.91397, 1.57253, 1.59958, 1.60647, 1.57956, 1.57274, 1.56725, 1.56322, 1.55966, 1.55528, 1.56379, 1.54217, 1.53656, 1.52984, 1.53125, 1.54077, 1.5212, 1.51183, 1.51057, 1.52054, 1.49563, 1.51266, 1.46512, 1.50906, 1.60949, 1.60538, 1.55022, 1.47476, 1.46385, 1.46411, 1.44884, 1.4528, 1.45557, 1.44571, 1.42778, 1.42433, 1.422, 1.41897, 1.41256, 1.4089, 1.40627, 1.40202, 1.39874, 1.39287, 1.39449, 1.38462, 1.38165, 1.37869, 1.37605, 1.37131, 1.37176, 1.36718, 1.37831, 1.36583, 1.43366, 1.52332, 1.56071, 1.55832, 1.44289, 1.36087, 1.34733, 1.35806, 1.33327, 1.33065, 
1.67491, 1.66957, 1.66499, 1.6603, 1.65346, 1.64917, 1.64107, 1.63589, 1.63448, 1.63349, 1.72708, 1.893, 2.0367, 1.58104, 1.60395, 1.58685, 1.58135, 1.57462, 1.5731, 1.57565, 1.56069, 1.55411, 1.55186, 1.54485, 1.53832, 1.53335, 1.52637, 1.53004, 1.54385, 1.5123, 1.50782, 1.50325, 1.50152, 1.49959, 1.46493, 1.52651, 1.5782, 1.58876, 1.58248, 1.46092, 1.47118, 1.46309, 1.45424, 1.44766, 1.46731, 1.44787, 1.42796, 1.42452, 1.42258, 1.41796, 1.41589, 1.412, 1.40769, 1.4027, 1.39707, 1.394, 1.3868, 1.38247, 1.37948, 1.37516, 1.37506, 1.37227, 1.36826, 1.36473, 1.36043, 1.36539, 1.42302, 1.51305, 1.57662, 1.5286, 1.35735, 1.3576, 1.35452, 1.34006, 1.33896, 1.33317, 
1.67763, 1.67573, 1.66543, 1.65908, 1.65278, 1.65013, 1.65339, 1.6376, 1.6414, 1.61466, 1.72162, 1.8992, 1.91047, 1.58844, 1.61355, 1.59509, 1.5941, 1.58487, 1.57514, 1.56498, 1.56306, 1.55866, 1.55575, 1.54847, 1.54025, 1.54422, 1.52859, 1.53554, 1.53573, 1.52069, 1.5237, 1.51575, 1.50967, 1.51284, 1.47217, 1.56933, 1.62303, 1.60074, 1.58252, 1.44023, 1.47923, 1.45794, 1.45749, 1.44908, 1.46171, 1.43654, 1.43236, 1.42785, 1.42303, 1.42217, 1.41795, 1.41464, 1.40934, 1.40241, 1.39868, 1.39383, 1.39052, 1.38705, 1.38092, 1.37726, 1.3754, 1.37412, 1.3751, 1.36544, 1.37508, 1.3646, 1.42395, 1.50059, 1.60865, 1.6002, 1.33217, 1.37177, 1.35163, 1.34118, 1.3349, 1.35035, 
1.68237, 1.67152, 1.66487, 1.65938, 1.65437, 1.64506, 1.63905, 1.63586, 1.63461, 1.62391, 1.65758, 1.84043, 1.93621, 1.58946, 1.60293, 1.5957, 1.58265, 1.58832, 1.5683, 1.56368, 1.55567, 1.55438, 1.54893, 1.54989, 1.53865, 1.53304, 1.52716, 1.5214, 1.53425, 1.51389, 1.51231, 1.50791, 1.50198, 1.50233, 1.48519, 1.5182, 1.60964, 1.59637, 1.55691, 1.46366, 1.46864, 1.48234, 1.45189, 1.44772, 1.44424, 1.4477, 1.43117, 1.42629, 1.42166, 1.42136, 1.41967, 1.41284, 1.41056, 1.40635, 1.40534, 1.39623, 1.39251, 1.38575, 1.37866, 1.37458, 1.37044, 1.36893, 1.36484, 1.36575, 1.36229, 1.36698, 1.40878, 1.49684, 1.594, 1.59063, 1.35275, 1.34286, 1.33735, 1.32975, 1.33017, 1.3263, 
1.67869, 1.6706, 1.66574, 1.65827, 1.65027, 1.64403, 1.63846, 1.63777, 1.64022, 1.62416, 1.77914, 1.82133, 1.78233, 1.57469, 1.60524, 1.58964, 1.58238, 1.57573, 1.57013, 1.56387, 1.56054, 1.57214, 1.55764, 1.54225, 1.53728, 1.52978, 1.52366, 1.52124, 1.54421, 1.53314, 1.51216, 1.50581, 1.49933, 1.51315, 1.47171, 1.56433, 1.57965, 1.57486, 1.52779, 1.52769, 1.46548, 1.47166, 1.45008, 1.45541, 1.44154, 1.45303, 1.43093, 1.42485, 1.42349, 1.41947, 1.41998, 1.41324, 1.41057, 1.40514, 1.40158, 1.39621, 1.39319, 1.3861, 1.37856, 1.37308, 1.36989, 1.36763, 1.36742, 1.36788, 1.36636, 1.37576, 1.39122, 1.50405, 1.57262, 1.56527, 1.40945, 1.34206, 1.3363, 1.33237, 1.32887, 1.32766, 
1.68171, 1.66487, 1.66243, 1.65121, 1.64766, 1.64232, 1.63775, 1.63539, 1.64723, 1.62084, 1.6749, 1.81959, 1.97142, 1.57917, 1.61692, 1.59505, 1.57892, 1.57549, 1.57312, 1.56429, 1.5565, 1.56596, 1.54462, 1.54034, 1.53401, 1.5297, 1.52193, 1.51881, 1.51735, 1.53014, 1.50936, 1.50338, 1.49819, 1.49926, 1.49643, 1.551, 1.57136, 1.58582, 1.55788, 1.47398, 1.47139, 1.45466, 1.4506, 1.44357, 1.4641, 1.47292, 1.47385, 1.43066, 1.42017, 1.4195, 1.41632, 1.41258, 1.41103, 1.40668, 1.40159, 1.39868, 1.3935, 1.38686, 1.37697, 1.37947, 1.37022, 1.3693, 1.36841, 1.36908, 1.3679, 1.37517, 1.41932, 1.51771, 1.62075, 1.61985, 1.43085, 1.36073, 1.34328, 1.33642, 1.34036, 1.32905, 
1.67324, 1.66633, 1.6598, 1.65586, 1.65432, 1.63645, 1.63558, 1.63414, 1.63086, 1.62113, 1.74143, 1.79522, 1.99345, 1.59251, 1.59931, 1.5917, 1.58175, 1.57803, 1.57048, 1.56283, 1.55519, 1.55182, 1.54692, 1.54065, 1.53364, 1.52729, 1.52318, 1.51328, 1.52338, 1.53715, 1.51666, 1.51349, 1.50634, 1.50377, 1.47473, 1.55034, 1.60225, 1.56212, 1.56827, 1.43939, 1.4623, 1.46505, 1.44808, 1.4415, 1.4408, 1.44401, 1.43601, 1.42321, 1.41968, 1.41701, 1.41314, 1.40802, 1.41975, 1.40411, 1.39951, 1.3973, 1.39443, 1.38911, 1.38288, 1.38751, 1.37453, 1.36953, 1.36755, 1.36407, 1.3647, 1.36872, 1.38868, 1.53164, 1.57571, 1.59681, 1.32032, 1.34525, 1.34346, 1.33423, 1.32943, 1.33107, 
1.67243, 1.67092, 1.66132, 1.66401, 1.6471, 1.64066, 1.63716, 1.63681, 1.63365, 1.6266, 1.7397, 1.85443, 1.99351, 1.56192, 1.59783, 1.60069, 1.58215, 1.57763, 1.5732, 1.56315, 1.55839, 1.55503, 1.54896, 1.54124, 1.53589, 1.53006, 1.52153, 1.51702, 1.51819, 1.52938, 1.53224, 1.50612, 1.50298, 1.4977, 1.49885, 1.53856, 1.59051, 1.56497, 1.5513, 1.48163, 1.46499, 1.47049, 1.45019, 1.45848, 1.44677, 1.45768, 1.43759, 1.42239, 1.41788, 1.41636, 1.41131, 1.40762, 1.40305, 1.40146, 1.40023, 1.39324, 1.38982, 1.38783, 1.38309, 1.3808, 1.37946, 1.37516, 1.372, 1.36612, 1.36363, 1.37595, 1.3696, 1.48889, 1.56025, 1.57198, 1.4264, 1.36706, 1.34851, 1.33199, 1.33575, 1.32498, 
1.6717, 1.66455, 1.65608, 1.64757, 1.64514, 1.64212, 1.6375, 1.63462, 1.63127, 1.62663, 1.64474, 1.89591, 1.79274, 1.71041, 1.5975, 1.58576, 1.58975, 1.57027, 1.56658, 1.56309, 1.55654, 1.56214, 1.54759, 1.54114, 1.53525, 1.53312, 1.52217, 1.5187, 1.51397, 1.51985, 1.52456, 1.50967, 1.51366, 1.49284, 1.48415, 1.55755, 1.58334, 1.55876, 1.5471, 1.46115, 1.46429, 1.4587, 1.45423, 1.45471, 1.45131, 1.46195, 1.44502, 1.43692, 1.41948, 1.41682, 1.41265, 1.4071, 1.40199, 1.40151, 1.39623, 1.39558, 1.38895, 1.38531, 1.38328, 1.37892, 1.3778, 1.37278, 1.37062, 1.36602, 1.36116, 1.37286, 1.35522, 1.52107, 1.62867, 1.62006, 1.49191, 1.30576, 1.34395, 1.3333, 1.33357, 1.32546, 
1.67252, 1.6694, 1.66149, 1.65801, 1.6466, 1.64532, 1.63718, 1.63404, 1.6342, 1.62399, 1.7138, 1.90979, 1.95478, 1.58587, 1.59349, 1.58644, 1.57667, 1.57274, 1.56677, 1.56202, 1.55761, 1.55143, 1.54159, 1.53438, 1.53302, 1.52811, 1.5215, 1.5184, 1.52368, 1.50912, 1.54143, 1.5148, 1.49426, 1.5027, 1.48659, 1.53658, 1.57227, 1.55021, 1.53905, 1.53043, 1.47296, 1.46109, 1.45699, 1.44425, 1.46871, 1.46534, 1.43367, 1.42353, 1.42248, 1.41572, 1.41147, 1.40705, 1.40178, 1.40101, 1.39577, 1.39206, 1.38794, 1.38302, 1.37944, 1.37532, 1.375, 1.37281, 1.3686, 1.36236, 1.35873, 1.36229, 1.38088, 1.54121, 1.57942, 1.62646, 1.44378, 1.33942, 1.34353, 1.33676, 1.32689, 1.32308, 
1.68608, 1.67223, 1.6635, 1.6621, 1.65518, 1.65158, 1.64028, 1.64316, 1.63729, 1.63506, 1.72398, 1.84766, 1.92691, 1.56534, 1.60266, 1.59589, 1.58656, 1.57287, 1.59385, 1.56206, 1.55268, 1.54894, 1.54438, 1.53589, 1.52932, 1.52504, 1.52344, 1.52074, 1.5207, 1.51455, 1.53532, 1.51623, 1.50979, 1.49609, 1.47282, 1.54461, 1.55498, 1.55788, 1.54116, 1.44001, 1.45847, 1.47159, 1.47533, 1.48587, 1.48328, 1.44098, 1.43744, 1.42743, 1.42006, 1.41747, 1.41155, 1.40383, 1.40168, 1.39881, 1.39489, 1.38947, 1.38501, 1.38412, 1.38024, 1.37799, 1.37555, 1.37213, 1.36871, 1.36405, 1.3789, 1.37295, 1.35932, 1.51284, 1.59221, 1.64101, 1.40167, 1.34153, 1.33812, 1.33538, 1.34014, 1.32416, 
1.67162, 1.67604, 1.66432, 1.65981, 1.65353, 1.64253, 1.6339, 1.62891, 1.62507, 1.62635, 1.73741, 1.88281, 1.81677, 1.5538, 1.59168, 1.59654, 1.59246, 1.57313, 1.56626, 1.55545, 1.55284, 1.5449, 1.53424, 1.53046, 1.52464, 1.52074, 1.51883, 1.51552, 1.51365, 1.51127, 1.53778, 1.54764, 1.51271, 1.50587, 1.47142, 1.49412, 1.55126, 1.53464, 1.55207, 1.4923, 1.48265, 1.51048, 1.50606, 1.47535, 1.45244, 1.45393, 1.43312, 1.42895, 1.42249, 1.41679, 1.41053, 1.40663, 1.40051, 1.39774, 1.39228, 1.38735, 1.38253, 1.38209, 1.37926, 1.37554, 1.37183, 1.37046, 1.36573, 1.36004, 1.35706, 1.37124, 1.33232, 1.4801, 1.60651, 1.63146, 1.46857, 1.35385, 1.33716, 1.33071, 1.32882, 1.32372, 
1.67387, 1.66737, 1.65712, 1.65495, 1.65212, 1.64637, 1.64818, 1.63337, 1.62922, 1.62325, 1.66596, 1.79829, 1.95916, 1.59013, 1.61427, 1.59431, 1.59811, 1.57927, 1.57583, 1.5633, 1.55661, 1.54767, 1.54377, 1.53531, 1.53007, 1.52595, 1.52185, 1.51806, 1.51341, 1.51146, 1.50735, 1.53297, 1.54039, 1.49366, 1.48552, 1.54296, 1.56115, 1.54588, 1.57352, 1.53088, 1.47636, 1.46874, 1.4608, 1.44909, 1.44581, 1.44781, 1.4308, 1.42609, 1.42352, 1.41591, 1.41363, 1.40908, 1.40281, 1.39925, 1.39545, 1.39276, 1.39067, 1.38465, 1.38231, 1.37535, 1.37274, 1.36985, 1.36464, 1.36255, 1.3567, 1.35909, 1.33392, 1.51632, 1.62789, 1.59218, 1.39553, 1.35263, 1.35468, 1.32943, 1.32743, 1.32596, 
1.66582, 1.66557, 1.65486, 1.65263, 1.65202, 1.64567, 1.64053, 1.63368, 1.63459, 1.61647, 1.67052, 1.78583, 1.92366, 1.59263, 1.61752, 1.59323, 1.59301, 1.59537, 1.57772, 1.56915, 1.56942, 1.55259, 1.55102, 1.54009, 1.53011, 1.52622, 1.51955, 1.51591, 1.51036, 1.5074, 1.51993, 1.51589, 1.53868, 1.5245, 1.49284, 1.52413, 1.53684, 1.51137, 1.53863, 1.51517, 1.4648, 1.46539, 1.45419, 1.44473, 1.44, 1.43779, 1.42825, 1.42607, 1.42339, 1.41591, 1.41147, 1.40847, 1.4048, 1.40189, 1.39691, 1.39223, 1.39067, 1.38855, 1.38529, 1.38072, 1.37577, 1.36927, 1.36433, 1.36548, 1.37059, 1.3743, 1.3468, 1.48425, 1.54081, 1.64768, 1.52072, 1.34395, 1.35138, 1.33226, 1.33039, 1.32483, 
1.66908, 1.66352, 1.65835, 1.65636, 1.65262, 1.64828, 1.64141, 1.63252, 1.62948, 1.62431, 1.70242, 1.73133, 1.9682, 1.58157, 1.61197, 1.60235, 1.6059, 1.58975, 1.57317, 1.56155, 1.56696, 1.54936, 1.54198, 1.53714, 1.53047, 1.52618, 1.51756, 1.51589, 1.51283, 1.50859, 1.50271, 1.50084, 1.50138, 1.52046, 1.50205, 1.56143, 1.57217, 1.54495, 1.53046, 1.51453, 1.47497, 1.45786, 1.45307, 1.44543, 1.44041, 1.43036, 1.42813, 1.42449, 1.41979, 1.41299, 1.41288, 1.40698, 1.40449, 1.40164, 1.39253, 1.39224, 1.38805, 1.38247, 1.38228, 1.38088, 1.37599, 1.36945, 1.36177, 1.36099, 1.35811, 1.37947, 1.34481, 1.50143, 1.63575, 1.66479, 1.33382, 1.35049, 1.33632, 1.33088, 1.32626, 1.32556, 
1.66898, 1.66125, 1.65744, 1.65257, 1.64802, 1.64319, 1.63395, 1.62723, 1.62384, 1.62352, 1.69874, 1.75373, 2.14356, 1.56555, 1.57952, 1.58343, 1.60226, 1.58874, 1.5812, 1.55916, 1.55207, 1.55056, 1.54152, 1.53604, 1.53028, 1.52484, 1.51923, 1.5137, 1.50951, 1.50344, 1.50127, 1.49555, 1.49162, 1.49742, 1.49706, 1.54286, 1.55146, 1.51377, 1.54796, 1.48943, 1.46794, 1.45937, 1.45148, 1.44699, 1.44042, 1.43637, 1.42885, 1.42496, 1.42144, 1.41703, 1.41253, 1.41016, 1.40475, 1.40077, 1.39651, 1.39236, 1.38884, 1.3844, 1.38044, 1.37609, 1.37159, 1.37127, 1.3673, 1.36172, 1.36755, 1.35904, 1.36399, 1.49331, 1.58455, 1.65131, 1.55354, 1.33746, 1.33316, 1.33029, 1.32548, 1.32533, 
1.668, 1.65923, 1.65378, 1.6496, 1.64246, 1.63847, 1.63312, 1.63482, 1.62417, 1.62059, 1.587, 1.85172, 1.99391, 1.56541, 1.5574, 1.63664, 1.59962, 1.60819, 1.58275, 1.5572, 1.54942, 1.54499, 1.54074, 1.53712, 1.53003, 1.52345, 1.51726, 1.51408, 1.50854, 1.5053, 1.49612, 1.49206, 1.48916, 1.49597, 1.49667, 1.52985, 1.54691, 1.37577, 1.54438, 1.51997, 1.46163, 1.4624, 1.45568, 1.44165, 1.436, 1.43103, 1.42392, 1.42278, 1.42062, 1.41632, 1.40961, 1.40918, 1.40428, 1.40008, 1.39472, 1.39115, 1.38287, 1.37888, 1.37687, 1.37519, 1.3673, 1.37082, 1.35853, 1.35921, 1.36934, 1.35482, 1.3271, 1.39467, 1.53735, 1.63836, 1.48167, 1.35008, 1.34273, 1.32995, 1.32439, 1.32479, 
1.66794, 1.65846, 1.65109, 1.64805, 1.64182, 1.63553, 1.62836, 1.6224, 1.62024, 1.61937, 1.59136, 1.83717, 1.99723, 1.54597, 1.57903, 1.80857, 1.64127, 1.60566, 1.59283, 1.57621, 1.55849, 1.54574, 1.54086, 1.5341, 1.52872, 1.52514, 1.51743, 1.51158, 1.5066, 1.50323, 1.49837, 1.4923, 1.48827, 1.48934, 1.49257, 1.54222, 1.54088, 1.49541, 1.5302, 1.51126, 1.45062, 1.4612, 1.44422, 1.43648, 1.42982, 1.42611, 1.42328, 1.42175, 1.42263, 1.41661, 1.40748, 1.40422, 1.39841, 1.39518, 1.3925, 1.38776, 1.38487, 1.3802, 1.37758, 1.37169, 1.36759, 1.36893, 1.36312, 1.3603, 1.35858, 1.35703, 1.35484, 1.49775, 1.53684, 1.65449, 1.49206, 1.34026, 1.34549, 1.32731, 1.33013, 1.32112, 
1.65998, 1.65812, 1.64864, 1.64603, 1.63852, 1.64723, 1.62985, 1.61908, 1.63036, 1.62277, 1.6158, 1.71971, 1.94192, 1.59595, 1.5713, 1.61417, 1.61298, 1.59352, 1.5771, 1.56375, 1.55981, 1.54104, 1.5363, 1.53217, 1.52703, 1.52342, 1.51422, 1.51238, 1.50389, 1.50001, 1.49401, 1.49045, 1.48696, 1.49708, 1.49254, 1.55832, 1.54149, 1.4822, 1.50858, 1.51633, 1.47212, 1.46154, 1.43649, 1.43346, 1.42848, 1.42608, 1.42464, 1.42277, 1.41593, 1.4156, 1.40741, 1.40049, 1.39599, 1.39508, 1.39018, 1.38835, 1.38241, 1.37936, 1.37613, 1.3731, 1.36978, 1.36877, 1.3616, 1.36041, 1.36377, 1.35662, 1.35768, 1.389, 1.56433, 1.72387, 1.39938, 1.35547, 1.34391, 1.32914, 1.33302, 1.32212, 
1.65775, 1.64772, 1.64359, 1.63841, 1.6338, 1.6274, 1.63151, 1.61613, 1.61203, 1.61002, 1.64247, 1.76497, 1.94533, 1.5702, 1.58248, 1.61961, 1.58805, 1.58876, 1.56843, 1.55107, 1.54393, 1.53499, 1.53054, 1.53034, 1.52188, 1.51672, 1.51325, 1.50939, 1.49814, 1.49288, 1.48903, 1.48367, 1.48183, 1.48225, 1.48282, 1.50786, 1.5231, 1.52121, 1.49239, 1.49585, 1.48218, 1.45127, 1.44365, 1.43327, 1.42596, 1.42567, 1.41918, 1.41823, 1.41247, 1.40531, 1.40119, 1.39558, 1.39266, 1.38951, 1.39136, 1.38996, 1.37852, 1.37522, 1.3689, 1.36857, 1.36738, 1.36457, 1.36024, 1.35693, 1.3535, 1.35415, 1.37791, 1.38524, 1.53756, 1.6748, 1.50673, 1.35058, 1.33376, 1.32113, 1.31777, 1.31702, 
1.65279, 1.64584, 1.64082, 1.63571, 1.63424, 1.62787, 1.62506, 1.61428, 1.6102, 1.61712, 1.58295, 1.69289, 1.87528, 1.56441, 1.5827, 1.57856, 1.57631, 1.56841, 1.55472, 1.54767, 1.54124, 1.53371, 1.5288, 1.52358, 1.5195, 1.5145, 1.5121, 1.5058, 1.49487, 1.489, 1.48557, 1.48265, 1.47888, 1.47889, 1.49013, 1.50019, 1.51918, 1.4924, 1.50035, 1.50017, 1.46161, 1.45309, 1.44428, 1.43974, 1.4302, 1.42359, 1.41678, 1.41385, 1.40868, 1.40313, 1.39647, 1.39262, 1.39092, 1.39048, 1.38921, 1.39008, 1.3843, 1.37327, 1.36583, 1.36323, 1.36339, 1.35971, 1.35735, 1.35484, 1.35214, 1.35732, 1.35087, 1.38909, 1.50729, 1.69962, 1.42791, 1.33977, 1.33666, 1.3189, 1.31847, 1.31544, 
1.65052, 1.64339, 1.641, 1.63754, 1.63421, 1.63005, 1.6241, 1.62395, 1.61294, 1.61145, 1.58118, 1.79648, 1.77505, 1.54841, 1.58024, 1.58624, 1.57217, 1.58881, 1.55641, 1.55101, 1.54695, 1.53867, 1.54363, 1.52464, 1.51786, 1.51295, 1.50948, 1.50526, 1.49894, 1.49228, 1.48691, 1.48252, 1.47938, 1.47941, 1.47478, 1.51993, 1.53356, 1.51286, 1.50173, 1.51148, 1.47419, 1.46061, 1.44463, 1.43432, 1.42653, 1.42333, 1.41944, 1.4185, 1.41666, 1.40282, 1.39811, 1.39518, 1.39143, 1.39211, 1.38804, 1.38485, 1.37955, 1.37054, 1.36482, 1.36489, 1.36115, 1.35952, 1.35744, 1.3511, 1.34717, 1.34574, 1.34441, 1.43313, 1.59287, 1.68851, 1.30288, 1.32909, 1.33406, 1.32602, 1.31999, 1.31544, 
1.65297, 1.64495, 1.63712, 1.63515, 1.63094, 1.62713, 1.62101, 1.61666, 1.60995, 1.61432, 1.59877, 1.75062, 1.76822, 1.66835, 1.582, 1.57424, 1.56899, 1.56418, 1.55889, 1.56181, 1.54274, 1.53663, 1.52937, 1.51983, 1.5177, 1.51062, 1.50741, 1.50319, 1.49768, 1.48999, 1.48588, 1.48219, 1.47727, 1.48148, 1.48083, 1.51421, 1.50941, 1.47979, 1.48341, 1.50845, 1.46131, 1.45119, 1.43736, 1.42749, 1.42605, 1.42643, 1.41715, 1.41425, 1.41062, 1.4039, 1.39852, 1.3951, 1.3954, 1.38893, 1.38484, 1.379, 1.37433, 1.36839, 1.36171, 1.36067, 1.36019, 1.36735, 1.3534, 1.34881, 1.34443, 1.34225, 1.34522, 1.37757, 1.62293, 1.6887, 1.4518, 1.31154, 1.32384, 1.32239, 1.31974, 1.31606, 
1.65165, 1.64806, 1.63686, 1.6346, 1.63158, 1.62897, 1.62096, 1.62094, 1.60905, 1.62009, 1.59936, 1.76962, 1.7306, 1.55239, 1.58201, 1.57588, 1.58393, 1.56875, 1.56068, 1.54753, 1.54331, 1.53952, 1.53164, 1.52534, 1.5212, 1.51385, 1.5075, 1.50646, 1.4977, 1.49191, 1.48839, 1.4837, 1.48463, 1.48178, 1.48543, 1.51796, 1.50923, 1.49992, 1.50897, 1.4921, 1.4719, 1.44839, 1.4339, 1.42822, 1.42753, 1.42146, 1.41619, 1.4122, 1.40666, 1.40217, 1.39844, 1.39663, 1.39191, 1.38577, 1.3819, 1.3778, 1.36957, 1.36719, 1.36212, 1.36037, 1.36103, 1.36673, 1.3579, 1.34952, 1.34738, 1.34533, 1.35898, 1.3093, 1.52315, 1.70525, 1.30323, 1.33271, 1.32947, 1.32917, 1.32236, 1.31951, 
1.64922, 1.64042, 1.6382, 1.62838, 1.62718, 1.62372, 1.61481, 1.60754, 1.60571, 1.5984, 1.60738, 1.67664, 1.87821, 1.54455, 1.57768, 1.57056, 1.56629, 1.55781, 1.54797, 1.54001, 1.53338, 1.53141, 1.52945, 1.52257, 1.51353, 1.50936, 1.50526, 1.49997, 1.50208, 1.48955, 1.4836, 1.48111, 1.47812, 1.48241, 1.48261, 1.48681, 1.50261, 1.48231, 1.48483, 1.48088, 1.4613, 1.44912, 1.42958, 1.42314, 1.42131, 1.41789, 1.41543, 1.40595, 1.40229, 1.39948, 1.39594, 1.39227, 1.38634, 1.38434, 1.37303, 1.37046, 1.36175, 1.35917, 1.35644, 1.35666, 1.35683, 1.35682, 1.35017, 1.35457, 1.3525, 1.34753, 1.35104, 1.39129, 1.56524, 1.61572, 1.4684, 1.30709, 1.32303, 1.31307, 1.31953, 1.30912, 
1.64336, 1.63714, 1.63172, 1.6238, 1.62054, 1.61225, 1.61308, 1.60286, 1.6006, 1.58912, 1.59247, 1.69708, 2.10841, 1.54443, 1.57421, 1.5644, 1.55661, 1.55013, 1.54249, 1.53046, 1.52332, 1.52356, 1.5217, 1.51628, 1.51049, 1.50619, 1.50078, 1.49449, 1.48615, 1.4808, 1.47621, 1.47348, 1.47008, 1.4774, 1.48266, 1.48288, 1.50851, 1.48806, 1.46863, 1.4876, 1.46335, 1.43445, 1.42657, 1.41671, 1.41263, 1.4123, 1.40916, 1.40484, 1.39783, 1.39076, 1.38802, 1.38565, 1.37834, 1.37505, 1.3746, 1.36502, 1.35835, 1.3555, 1.35017, 1.35373, 1.35183, 1.35014, 1.34701, 1.33694, 1.33709, 1.3396, 1.33683, 1.33305, 1.51166, 1.71689, 1.56488, 1.3094, 1.30795, 1.30859, 1.304, 1.3019, 
1.64274, 1.63453, 1.63385, 1.62508, 1.6186, 1.61612, 1.60939, 1.61355, 1.59771, 1.60222, 1.58255, 1.77437, 1.84776, 1.55809, 1.5828, 1.55935, 1.55534, 1.54648, 1.54005, 1.53043, 1.52511, 1.51963, 1.51838, 1.51365, 1.5107, 1.50321, 1.49711, 1.4921, 1.48782, 1.48783, 1.47562, 1.46851, 1.46613, 1.47521, 1.47153, 1.47993, 1.48449, 1.49449, 1.4795, 1.53338, 1.45999, 1.43894, 1.41819, 1.41368, 1.41131, 1.4086, 1.41974, 1.40272, 1.39336, 1.38892, 1.38281, 1.38163, 1.37829, 1.37637, 1.37206, 1.36391, 1.35985, 1.3519, 1.34745, 1.34779, 1.35107, 1.34801, 1.34444, 1.35468, 1.3516, 1.32889, 1.33327, 1.29003, 1.50689, 1.8838, 1.35657, 1.31591, 1.3097, 1.3088, 1.30261, 1.30403, 
1.63907, 1.63148, 1.62742, 1.62331, 1.61721, 1.6123, 1.61171, 1.60258, 1.62423, 1.59619, 1.59322, 1.65058, 1.82429, 1.64906, 1.57907, 1.56804, 1.55071, 1.54441, 1.53663, 1.54155, 1.52652, 1.52052, 1.51264, 1.52329, 1.50379, 1.49877, 1.49287, 1.48956, 1.4855, 1.47812, 1.47379, 1.46879, 1.47163, 1.47767, 1.46524, 1.47858, 1.49383, 1.49913, 1.46869, 1.47158, 1.46733, 1.44529, 1.42509, 1.41409, 1.41023, 1.40741, 1.39981, 1.39664, 1.39228, 1.39192, 1.3834, 1.37781, 1.37336, 1.3713, 1.36841, 1.36682, 1.36054, 1.36774, 1.35033, 1.34994, 1.34796, 1.34629, 1.35015, 1.35017, 1.33426, 1.33637, 1.34699, 1.31821, 1.45113, 1.70807, 1.42023, 1.31837, 1.31375, 1.30949, 1.31312, 1.30875, 
1.64117, 1.64444, 1.63, 1.62163, 1.61609, 1.61038, 1.60298, 1.60095, 1.59723, 1.60377, 1.59665, 1.75875, 2.20121, 1.55565, 1.57148, 1.56267, 1.55781, 1.54786, 1.5448, 1.53405, 1.55231, 1.52046, 1.5138, 1.51447, 1.50656, 1.50302, 1.49675, 1.49558, 1.48452, 1.49204, 1.47313, 1.46642, 1.46392, 1.46339, 1.47802, 1.47489, 1.49631, 1.49885, 1.48277, 1.47934, 1.44819, 1.44957, 1.43298, 1.41264, 1.41933, 1.40704, 1.42089, 1.39877, 1.39583, 1.38577, 1.38879, 1.37763, 1.37163, 1.37041, 1.37155, 1.36546, 1.35963, 1.35517, 1.35385, 1.34998, 1.34674, 1.34625, 1.34202, 1.33995, 1.35072, 1.33763, 1.35119, 1.31427, 1.4485, 1.63801, 1.60001, 1.31677, 1.32038, 1.31623, 1.31997, 1.30185, 
1.63859, 1.63315, 1.62347, 1.61722, 1.61292, 1.60408, 1.60174, 1.60013, 1.60757, 1.60517, 1.58925, 1.75113, 1.96779, 1.52858, 1.5706, 1.55568, 1.54724, 1.54646, 1.53818, 1.54711, 1.52656, 1.5176, 1.51912, 1.50935, 1.50327, 1.49908, 1.49003, 1.48569, 1.47941, 1.47556, 1.49353, 1.46704, 1.46187, 1.46501, 1.48886, 1.47636, 1.46928, 1.48842, 1.47832, 1.47885, 1.47224, 1.45539, 1.42679, 1.4071, 1.40415, 1.41226, 1.40437, 1.39876, 1.39508, 1.38507, 1.38279, 1.3792, 1.3767, 1.37288, 1.37098, 1.36705, 1.36638, 1.36089, 1.35584, 1.34748, 1.34992, 1.34357, 1.36278, 1.33855, 1.34675, 1.33936, 1.33522, 1.32284, 1.5134, 1.55782, 1.48149, 1.33761, 1.31325, 1.30662, 1.30612, 1.30172, 
1.62499, 1.62317, 1.61033, 1.60653, 1.60185, 1.59635, 1.61428, 1.59849, 1.5857, 1.5851, 1.54486, 1.70325, 1.9425, 1.55189, 1.55226, 1.54089, 1.53606, 1.5335, 1.54089, 1.53082, 1.51588, 1.50761, 1.50184, 1.49984, 1.48947, 1.48264, 1.48141, 1.4742, 1.46922, 1.46767, 1.47217, 1.45956, 1.45447, 1.45128, 1.46055, 1.46832, 1.46183, 1.4618, 1.45822, 1.48409, 1.4414, 1.42859, 1.41313, 1.4002, 1.40574, 1.39586, 1.39656, 1.3893, 1.38912, 1.37849, 1.37593, 1.37342, 1.36869, 1.3627, 1.35766, 1.35122, 1.34814, 1.35382, 1.34455, 1.34409, 1.34281, 1.33591, 1.33141, 1.32732, 1.32567, 1.32781, 1.32389, 1.3311, 1.49, 1.76935, 1.47259, 1.3027, 1.32646, 1.29809, 1.29502, 1.30767, 
1.61284, 1.60472, 1.59931, 1.59645, 1.58591, 1.57864, 1.57322, 1.56648, 1.56484, 1.56987, 1.58544, 1.68636, 1.94446, 1.53476, 1.54122, 1.52818, 1.52354, 1.51308, 1.51064, 1.511, 1.50556, 1.49989, 1.49353, 1.48572, 1.47631, 1.47119, 1.47091, 1.46101, 1.46181, 1.45416, 1.45053, 1.45834, 1.43793, 1.43435, 1.46203, 1.45822, 1.45762, 1.44976, 1.44277, 1.45146, 1.44752, 1.40399, 1.40801, 1.3838, 1.38086, 1.37623, 1.38486, 1.3911, 1.36515, 1.36331, 1.35665, 1.35413, 1.35561, 1.34635, 1.34006, 1.33402, 1.32837, 1.33104, 1.33639, 1.31696, 1.31439, 1.31603, 1.31819, 1.31068, 1.3073, 1.30298, 1.31502, 1.29745, 1.43303, 1.88517, 1.54562, 1.30321, 1.29326, 1.29305, 1.28534, 1.26891, 
1.61424, 1.60756, 1.61064, 1.60928, 1.59962, 1.59924, 1.59729, 1.58615, 1.58306, 1.57904, 1.58882, 1.62507, 1.84282, 1.5043, 1.56114, 1.55299, 1.52869, 1.5208, 1.52373, 1.51666, 1.51389, 1.50877, 1.50768, 1.49929, 1.48959, 1.4868, 1.48873, 1.47904, 1.47326, 1.46034, 1.45827, 1.45544, 1.46517, 1.44164, 1.45452, 1.44984, 1.48265, 1.45521, 1.46105, 1.47547, 1.46857, 1.42355, 1.4136, 1.41716, 1.39106, 1.39149, 1.3879, 1.38285, 1.37122, 1.37437, 1.36421, 1.36864, 1.36189, 1.35835, 1.34508, 1.34382, 1.34466, 1.33384, 1.33062, 1.32969, 1.32971, 1.31956, 1.32651, 1.31629, 1.31257, 1.3074, 1.31537, 1.29281, 1.44398, 1.55101, 1.56024, 1.289, 1.2919, 1.28893, 1.28224, 1.28289, 
1.62262, 1.62174, 1.6193, 1.61552, 1.61253, 1.60013, 1.60692, 1.59321, 1.59564, 1.58289, 1.58151, 1.62074, 1.81769, 1.74273, 1.55495, 1.54719, 1.56064, 1.54914, 1.53127, 1.53062, 1.51715, 1.50975, 1.506, 1.49961, 1.4987, 1.49225, 1.48639, 1.47633, 1.47172, 1.48362, 1.46241, 1.45707, 1.45551, 1.4524, 1.45776, 1.47366, 1.46952, 1.47241, 1.4778, 1.46043, 1.4499, 1.42803, 1.42079, 1.41611, 1.40626, 1.41037, 1.40936, 1.38777, 1.39516, 1.38292, 1.37344, 1.37347, 1.3688, 1.36365, 1.36147, 1.35625, 1.35341, 1.34702, 1.34685, 1.3398, 1.33765, 1.33122, 1.33118, 1.33429, 1.32402, 1.33129, 1.33339, 1.30988, 1.4408, 1.49936, 1.51779, 1.30921, 1.3201, 1.30251, 1.30867, 1.29003, 
1.62453, 1.6184, 1.61547, 1.60924, 1.6016, 1.60411, 1.58727, 1.58531, 1.58315, 1.58219, 1.58517, 1.65769, 1.91744, 1.55862, 1.54867, 1.5379, 1.53038, 1.52964, 1.52691, 1.51956, 1.50953, 1.50145, 1.50304, 1.49957, 1.49566, 1.49032, 1.47933, 1.48489, 1.47155, 1.46403, 1.45708, 1.45557, 1.45139, 1.45183, 1.46062, 1.47075, 1.45237, 1.44774, 1.45672, 1.46948, 1.4512, 1.42523, 1.41434, 1.40399, 1.3996, 1.41297, 1.39033, 1.39252, 1.3817, 1.37626, 1.37355, 1.3725, 1.37574, 1.35955, 1.37222, 1.35159, 1.34829, 1.34491, 1.34381, 1.34304, 1.33518, 1.33045, 1.34997, 1.32813, 1.32415, 1.32854, 1.32327, 1.32367, 1.42784, 1.66224, 1.6131, 1.37144, 1.30448, 1.29884, 1.2956, 1.29271, 
1.62347, 1.61505, 1.61278, 1.60938, 1.60379, 1.59554, 1.58488, 1.58308, 1.59173, 1.58536, 1.57838, 1.57489, 1.76442, 1.54184, 1.55475, 1.53808, 1.54038, 1.52896, 1.54402, 1.51816, 1.49893, 1.50066, 1.50085, 1.49729, 1.49334, 1.48663, 1.47681, 1.47134, 1.46802, 1.47417, 1.4574, 1.45424, 1.45198, 1.45098, 1.45543, 1.46353, 1.45839, 1.46823, 1.44838, 1.46844, 1.44743, 1.42258, 1.41341, 1.40427, 1.39618, 1.39098, 1.38861, 1.39246, 1.38055, 1.37894, 1.37376, 1.37172, 1.3656, 1.36233, 1.35508, 1.35225, 1.34963, 1.34456, 1.33847, 1.34781, 1.33401, 1.33128, 1.33094, 1.32828, 1.33527, 1.31864, 1.31984, 1.32473, 1.4858, 1.56835, 1.53318, 1.52972, 1.39878, 1.31017, 1.29571, 1.29963, 
1.61677, 1.61159, 1.60651, 1.60757, 1.60607, 1.5921, 1.58568, 1.58453, 1.58168, 1.58459, 1.58918, 1.68505, 1.76963, 1.54106, 1.55411, 1.54063, 1.53393, 1.52729, 1.54292, 1.51717, 1.50807, 1.50221, 1.49756, 1.49187, 1.49957, 1.48518, 1.48035, 1.46948, 1.46538, 1.46159, 1.45682, 1.46072, 1.45145, 1.44903, 1.46085, 1.45451, 1.47314, 1.45716, 1.45737, 1.44578, 1.43399, 1.42518, 1.41434, 1.40202, 1.39445, 1.38908, 1.38347, 1.38178, 1.37775, 1.37378, 1.3711, 1.3661, 1.36434, 1.36469, 1.35438, 1.35289, 1.35346, 1.34889, 1.34288, 1.33931, 1.33391, 1.32891, 1.33298, 1.3264, 1.31923, 1.31448, 1.31759, 1.31315, 1.38267, 1.62851, 1.52006, 1.49501, 1.35442, 1.28877, 1.28817, 1.28702, 
1.61548, 1.60131, 1.59594, 1.59693, 1.58894, 1.58304, 1.5787, 1.58516, 1.58204, 1.56795, 1.56566, 1.60002, 1.84329, 1.55744, 1.54879, 1.53239, 1.53094, 1.52166, 1.51712, 1.51835, 1.50095, 1.49604, 1.49136, 1.48836, 1.47956, 1.47703, 1.4687, 1.46313, 1.46194, 1.45831, 1.45335, 1.45445, 1.44552, 1.44779, 1.46865, 1.45512, 1.46945, 1.45855, 1.43651, 1.42846, 1.43929, 1.42124, 1.40973, 1.39231, 1.38884, 1.38286, 1.41521, 1.37852, 1.37344, 1.37214, 1.36602, 1.36364, 1.35797, 1.35364, 1.35167, 1.34617, 1.34549, 1.34019, 1.33314, 1.32754, 1.32274, 1.32122, 1.31835, 1.31933, 1.30584, 1.30506, 1.30202, 1.27203, 1.33004, 1.6885, 1.82847, 1.40795, 1.38768, 1.28344, 1.27944, 1.27975, 
1.60351, 1.60016, 1.6025, 1.59443, 1.58703, 1.57989, 1.57413, 1.56935, 1.56603, 1.56627, 1.56588, 1.65245, 1.70758, 1.54041, 1.54685, 1.52155, 1.51844, 1.52394, 1.51373, 1.51044, 1.50318, 1.49576, 1.49208, 1.48301, 1.47567, 1.46825, 1.46515, 1.46104, 1.45778, 1.45413, 1.45173, 1.44687, 1.4425, 1.4497, 1.44888, 1.45082, 1.48276, 1.44448, 1.43145, 1.44063, 1.424, 1.42714, 1.39686, 1.38256, 1.37915, 1.3778, 1.37509, 1.37151, 1.36858, 1.36752, 1.36269, 1.35722, 1.35155, 1.34766, 1.34261, 1.34002, 1.3407, 1.33505, 1.33296, 1.3236, 1.32277, 1.31923, 1.31599, 1.32367, 1.30479, 1.29875, 1.3168, 1.30334, 1.27717, 1.55434, 1.61951, 1.28534, 1.28158, 1.27799, 1.2721, 1.27192, 
1.60891, 1.60332, 1.59954, 1.59611, 1.5923, 1.58639, 1.57626, 1.57524, 1.56884, 1.57944, 1.56398, 1.64538, 1.69709, 1.77205, 1.52932, 1.52073, 1.5201, 1.52395, 1.51363, 1.51177, 1.50598, 1.50038, 1.49137, 1.48837, 1.47833, 1.47316, 1.47065, 1.46743, 1.46184, 1.46346, 1.46222, 1.44796, 1.44439, 1.45098, 1.4588, 1.45898, 1.45565, 1.44081, 1.442, 1.43056, 1.44231, 1.40932, 1.40581, 1.3853, 1.37995, 1.38945, 1.37529, 1.38855, 1.36895, 1.36859, 1.36413, 1.35768, 1.35331, 1.34388, 1.33774, 1.33888, 1.33676, 1.33685, 1.3317, 1.32781, 1.32582, 1.32278, 1.32573, 1.33571, 1.31062, 1.30621, 1.30431, 1.3021, 1.27548, 1.61011, 1.51618, 1.30166, 1.28297, 1.28333, 1.28317, 1.27847, 
1.60765, 1.60338, 1.5992, 1.59318, 1.5861, 1.58873, 1.60593, 1.59123, 1.56941, 1.56236, 1.5641, 1.5744, 1.75684, 1.70723, 1.52693, 1.54038, 1.5219, 1.52273, 1.51431, 1.50873, 1.50262, 1.50443, 1.49891, 1.48876, 1.48199, 1.47524, 1.4714, 1.47089, 1.46068, 1.45593, 1.45067, 1.44987, 1.44198, 1.45046, 1.44941, 1.45724, 1.4481, 1.44502, 1.45427, 1.44351, 1.42329, 1.41064, 1.3986, 1.38869, 1.38219, 1.3925, 1.37608, 1.38555, 1.37276, 1.36959, 1.36763, 1.3597, 1.35518, 1.35392, 1.34494, 1.34055, 1.33933, 1.3336, 1.33162, 1.33564, 1.32562, 1.32519, 1.31986, 1.33301, 1.32358, 1.33703, 1.32325, 1.31172, 1.42355, 1.60648, 1.5316, 1.25384, 1.29547, 1.28303, 1.28145, 1.27851, 
1.60064, 1.59928, 1.59516, 1.58604, 1.57926, 1.56788, 1.56093, 1.56196, 1.56517, 1.55435, 1.55915, 1.62365, 1.68557, 1.70956, 1.51441, 1.5337, 1.53031, 1.5152, 1.50786, 1.50537, 1.48867, 1.48009, 1.47491, 1.46804, 1.46444, 1.45419, 1.4528, 1.45478, 1.44136, 1.44188, 1.45417, 1.43607, 1.42692, 1.43727, 1.44118, 1.45051, 1.46576, 1.46096, 1.42801, 1.42194, 1.42974, 1.40963, 1.4052, 1.38511, 1.37602, 1.38459, 1.36423, 1.36055, 1.3593, 1.35693, 1.36024, 1.34738, 1.34432, 1.34756, 1.33687, 1.32809, 1.32271, 1.32028, 1.33306, 1.31861, 1.3127, 1.3124, 1.33281, 1.30631, 1.32048, 1.29789, 1.30264, 1.3063, 1.43758, 1.72139, 1.47162, 1.31494, 1.27888, 1.26836, 1.2808, 1.25706, 
