1.63833, 1.62593, 1.61842, 1.61497, 1.60689, 1.61364, 1.57872, 1.61727, 1.63261, 1.65416, 1.69603, 1.65911, 1.54216, 1.56492, 1.55707, 1.5595, 1.56435, 1.54523, 1.52886, 1.52428, 1.52083, 1.51651, 1.51422, 1.50385, 1.49771, 1.49023, 1.48899, 1.48198, 1.47455, 1.48363, 1.48236, 1.46883, 1.48082, 1.47556, 1.56083, 1.75543, 1.62253, 1.43291, 1.43933, 1.43147, 1.43235, 1.41931, 1.41239, 1.40673, 1.40234, 1.39653, 1.39052, 1.38587, 1.38413, 1.3787, 1.3776, 1.37166, 1.36906, 1.36573, 1.36435, 1.3569, 1.34951, 1.34684, 1.34188, 1.34843, 1.33285, 1.33238, 1.33326, 1.35292, 1.34593, 1.35143, 1.35469, 1.39292, 1.34747, 1.33156, 1.32287, 1.30625, 1.29238, 1.29591, 1.29037, 1.29256, 
1.63758, 1.66822, 1.6418, 1.62649, 1.61797, 1.62863, 1.63855, 1.62711, 1.65917, 1.67206, 1.7163, 1.66408, 1.57555, 1.57355, 1.57597, 1.56005, 1.5529, 1.56132, 1.54415, 1.54819, 1.52833, 1.5198, 1.51378, 1.51205, 1.50905, 1.50503, 1.49943, 1.49232, 1.48916, 1.48461, 1.48077, 1.47963, 1.48903, 1.45568, 1.66533, 1.73108, 1.71922, 1.45575, 1.4556, 1.44336, 1.43678, 1.42887, 1.42312, 1.41696, 1.41167, 1.40905, 1.40546, 1.39989, 1.39526, 1.39481, 1.38851, 1.38609, 1.37664, 1.36982, 1.36712, 1.36193, 1.3633, 1.36462, 1.36594, 1.36333, 1.35682, 1.35019, 1.3577, 1.36011, 1.35462, 1.40197, 1.36865, 1.39958, 1.37247, 1.34411, 1.33645, 1.32052, 1.30528, 1.31292, 1.30398, 1.29882, 
1.66889, 1.65328, 1.66189, 1.64363, 1.63724, 1.63687, 1.63541, 1.61624, 1.71635, 1.74084, 1.78252, 1.71085, 1.58976, 1.59358, 1.57828, 1.57564, 1.57199, 1.55826, 1.57844, 1.57579, 1.54519, 1.54098, 1.5329, 1.52829, 1.52344, 1.51392, 1.50998, 1.50447, 1.50333, 1.49857, 1.49194, 1.50017, 1.49504, 1.51738, 1.68221, 1.73628, 1.7068, 1.43525, 1.46095, 1.45746, 1.44405, 1.43988, 1.43517, 1.43093, 1.42657, 1.42449, 1.42046, 1.4164, 1.41001, 1.40945, 1.40726, 1.40406, 1.40205, 1.39316, 1.3843, 1.379, 1.37508, 1.37072, 1.36789, 1.36797, 1.36403, 1.36797, 1.35609, 1.36147, 1.35863, 1.39913, 1.40902, 1.41066, 1.44103, 1.33644, 1.34765, 1.34173, 1.32552, 1.33588, 1.32069, 1.31308, 
1.67211, 1.66161, 1.66193, 1.67208, 1.64829, 1.63694, 1.63155, 1.61382, 1.67738, 1.72658, 1.73206, 1.68847, 1.65321, 1.59841, 1.5898, 1.58395, 1.58546, 1.56849, 1.55935, 1.57231, 1.55731, 1.54661, 1.53855, 1.53733, 1.53289, 1.52615, 1.52104, 1.51431, 1.51214, 1.50628, 1.50024, 1.49646, 1.49376, 1.52814, 1.63238, 1.70128, 1.68348, 1.44128, 1.46891, 1.45864, 1.44504, 1.44725, 1.44061, 1.43736, 1.43, 1.42794, 1.4246, 1.41891, 1.41493, 1.41028, 1.40946, 1.40445, 1.40062, 1.40075, 1.39609, 1.38952, 1.38459, 1.38394, 1.37948, 1.379, 1.37753, 1.374, 1.37178, 1.37776, 1.35398, 1.41956, 1.44044, 1.4579, 1.45507, 1.34759, 1.34906, 1.3474, 1.32579, 1.32158, 1.31757, 1.31957, 
1.67964, 1.67271, 1.66673, 1.66834, 1.6709, 1.66293, 1.65829, 1.63474, 1.689, 1.74831, 1.83366, 1.7376, 1.59901, 1.61522, 1.60698, 1.58757, 1.58325, 1.58555, 1.5738, 1.57195, 1.602, 1.56842, 1.55115, 1.54608, 1.53993, 1.53475, 1.53135, 1.53269, 1.52096, 1.51456, 1.51296, 1.51787, 1.50527, 1.52473, 1.63834, 1.70949, 1.69082, 1.60288, 1.48469, 1.48227, 1.46724, 1.46926, 1.48062, 1.4496, 1.44131, 1.43804, 1.43631, 1.43245, 1.42914, 1.42705, 1.42326, 1.41911, 1.41579, 1.40745, 1.40256, 1.39668, 1.38908, 1.38832, 1.38286, 1.37647, 1.37651, 1.37922, 1.37741, 1.38499, 1.39277, 1.43535, 1.44677, 1.46609, 1.46994, 1.32631, 1.35626, 1.34201, 1.33811, 1.33403, 1.33094, 1.32903, 
1.67956, 1.67352, 1.66603, 1.67839, 1.66814, 1.68308, 1.6666, 1.63872, 1.6872, 1.74783, 1.8371, 1.80189, 1.60255, 1.61718, 1.6055, 1.59386, 1.60316, 1.58376, 1.57904, 1.58807, 1.56936, 1.58165, 1.5672, 1.55736, 1.54667, 1.54201, 1.53702, 1.5304, 1.52606, 1.52012, 1.51334, 1.51635, 1.52303, 1.48272, 1.63455, 1.6863, 1.68888, 1.54755, 1.50347, 1.48558, 1.47114, 1.4647, 1.45738, 1.44997, 1.44841, 1.44415, 1.44188, 1.43647, 1.4351, 1.43413, 1.43039, 1.42638, 1.42155, 1.42358, 1.41385, 1.41248, 1.4169, 1.39969, 1.39554, 1.39073, 1.38849, 1.38549, 1.39296, 1.39198, 1.38505, 1.42386, 1.4812, 1.48955, 1.48063, 1.41701, 1.3573, 1.35069, 1.34788, 1.34432, 1.34581, 1.33993, 
1.69691, 1.69212, 1.67621, 1.67517, 1.67667, 1.67476, 1.66141, 1.66019, 1.68987, 1.77941, 1.8262, 1.84857, 1.59795, 1.62028, 1.61323, 1.60986, 1.59952, 1.58679, 1.58756, 1.5795, 1.57173, 1.58125, 1.57397, 1.58181, 1.56432, 1.54422, 1.5438, 1.57467, 1.53382, 1.53296, 1.52904, 1.52331, 1.53715, 1.52045, 1.6082, 1.67501, 1.67254, 1.61035, 1.46153, 1.48282, 1.5065, 1.48196, 1.47154, 1.46886, 1.46591, 1.45694, 1.44745, 1.44712, 1.44931, 1.44087, 1.43467, 1.43243, 1.43013, 1.42637, 1.42048, 1.41396, 1.42218, 1.40925, 1.40902, 1.39764, 1.39186, 1.39034, 1.40556, 1.3992, 1.38898, 1.46451, 1.53319, 1.52936, 1.52958, 1.47161, 1.36448, 1.36876, 1.36096, 1.36205, 1.35437, 1.35999, 
1.68309, 1.68163, 1.67335, 1.67541, 1.66182, 1.65309, 1.64826, 1.65427, 1.61328, 1.70292, 1.85203, 1.85259, 1.58561, 1.61421, 1.61439, 1.60068, 1.58873, 1.57877, 1.5694, 1.57275, 1.57206, 1.55915, 1.56194, 1.57459, 1.56533, 1.55117, 1.53258, 1.52914, 1.52566, 1.52405, 1.52152, 1.5103, 1.51252, 1.51026, 1.59654, 1.6482, 1.64305, 1.57863, 1.47038, 1.47937, 1.49495, 1.4725, 1.47415, 1.46766, 1.44391, 1.44302, 1.44457, 1.44276, 1.43499, 1.4342, 1.42972, 1.42121, 1.42147, 1.41233, 1.40811, 1.4022, 1.40115, 1.39246, 1.39272, 1.3882, 1.39079, 1.38473, 1.38442, 1.39159, 1.40488, 1.41631, 1.46506, 1.52136, 1.53432, 1.38567, 1.35848, 1.35706, 1.34637, 1.34037, 1.33847, 1.33713, 
1.67231, 1.66903, 1.66425, 1.65707, 1.64829, 1.6409, 1.6307, 1.63096, 1.61623, 1.63706, 1.87226, 1.88315, 1.73886, 1.59755, 1.60686, 1.58456, 1.57903, 1.57205, 1.56758, 1.5672, 1.55609, 1.54997, 1.54313, 1.53648, 1.52981, 1.55275, 1.53259, 1.51832, 1.51612, 1.52973, 1.5022, 1.5099, 1.50117, 1.48921, 1.53342, 1.60263, 1.61277, 1.59549, 1.49705, 1.46737, 1.46614, 1.46613, 1.47542, 1.44109, 1.44053, 1.43029, 1.42644, 1.41885, 1.41574, 1.412, 1.40554, 1.40205, 1.39634, 1.3954, 1.39524, 1.38904, 1.38278, 1.37761, 1.37488, 1.37295, 1.36666, 1.36199, 1.35747, 1.35952, 1.35952, 1.40743, 1.48818, 1.55109, 1.55368, 1.48564, 1.35546, 1.34999, 1.32645, 1.3224, 1.321, 1.31869, 
1.67512, 1.67139, 1.66539, 1.65869, 1.65409, 1.66169, 1.63791, 1.64123, 1.61737, 1.72073, 1.86834, 1.88046, 1.5933, 1.61063, 1.59942, 1.58943, 1.58078, 1.56898, 1.56503, 1.56125, 1.55583, 1.55301, 1.54651, 1.53804, 1.53485, 1.52842, 1.54742, 1.53027, 1.52265, 1.51332, 1.5022, 1.50971, 1.50723, 1.47984, 1.50569, 1.59526, 1.609, 1.59512, 1.5037, 1.46571, 1.47214, 1.46122, 1.45776, 1.4678, 1.43701, 1.4311, 1.42862, 1.43001, 1.42323, 1.4167, 1.41053, 1.40805, 1.40552, 1.39957, 1.39586, 1.39121, 1.38905, 1.38334, 1.37849, 1.37577, 1.37334, 1.37072, 1.37565, 1.3709, 1.37531, 1.39471, 1.45987, 1.5397, 1.58438, 1.52659, 1.34545, 1.34493, 1.359, 1.33357, 1.32966, 1.32598, 
1.67237, 1.6659, 1.65987, 1.65131, 1.6472, 1.65765, 1.6588, 1.64383, 1.6078, 1.72461, 1.80438, 1.97569, 1.69026, 1.59848, 1.60243, 1.58657, 1.57896, 1.57428, 1.5658, 1.55884, 1.55635, 1.55159, 1.54715, 1.5372, 1.53387, 1.53702, 1.52743, 1.52793, 1.54443, 1.51273, 1.51255, 1.50345, 1.49882, 1.5127, 1.53179, 1.56251, 1.57493, 1.56147, 1.51769, 1.47204, 1.4686, 1.47174, 1.44877, 1.44357, 1.45123, 1.4311, 1.42459, 1.42468, 1.42281, 1.41869, 1.41558, 1.4111, 1.40614, 1.40223, 1.39944, 1.39186, 1.38896, 1.37808, 1.37121, 1.36815, 1.368, 1.36795, 1.3734, 1.36166, 1.36576, 1.34446, 1.43714, 1.56545, 1.63714, 1.52364, 1.33003, 1.33957, 1.33634, 1.32891, 1.32915, 1.3292, 
1.67532, 1.67459, 1.65255, 1.64618, 1.64425, 1.64065, 1.63671, 1.63727, 1.63455, 1.69654, 1.78216, 1.9492, 1.56289, 1.61103, 1.59336, 1.57992, 1.57341, 1.56886, 1.56539, 1.5597, 1.55525, 1.54931, 1.54527, 1.54019, 1.53069, 1.52504, 1.52426, 1.51607, 1.51725, 1.54462, 1.51688, 1.50477, 1.49889, 1.48901, 1.52809, 1.5727, 1.55835, 1.54764, 1.53062, 1.46459, 1.46854, 1.4612, 1.45311, 1.45391, 1.44703, 1.44185, 1.43535, 1.41978, 1.41792, 1.41317, 1.40925, 1.40308, 1.40142, 1.39886, 1.39626, 1.38974, 1.38636, 1.38866, 1.38123, 1.37827, 1.37719, 1.37267, 1.36815, 1.36571, 1.36655, 1.3648, 1.47092, 1.59536, 1.61844, 1.43365, 1.34047, 1.34545, 1.33312, 1.33107, 1.33802, 1.32314, 
1.66771, 1.66099, 1.65588, 1.65182, 1.64988, 1.64414, 1.63691, 1.64856, 1.63093, 1.64765, 1.76804, 1.88729, 1.58609, 1.60507, 1.59935, 1.5874, 1.58774, 1.57542, 1.56597, 1.58027, 1.54973, 1.54441, 1.53704, 1.53028, 1.52507, 1.52247, 1.51905, 1.51404, 1.51134, 1.50717, 1.53287, 1.52826, 1.49612, 1.4991, 1.47929, 1.55833, 1.5482, 1.52472, 1.53656, 1.4771, 1.48133, 1.47538, 1.44808, 1.44704, 1.44545, 1.43376, 1.42811, 1.42318, 1.42053, 1.41484, 1.41165, 1.40522, 1.3998, 1.39644, 1.39384, 1.38965, 1.38768, 1.3835, 1.38043, 1.37522, 1.369, 1.36604, 1.36172, 1.35629, 1.35588, 1.36561, 1.4533, 1.56918, 1.642, 1.3672, 1.31664, 1.33664, 1.33014, 1.32699, 1.32405, 1.31978, 
1.66437, 1.65286, 1.6484, 1.64549, 1.63911, 1.64091, 1.63166, 1.62596, 1.62126, 1.60018, 1.77245, 1.85225, 1.59562, 1.54955, 1.66944, 1.62483, 1.60037, 1.58498, 1.55732, 1.55238, 1.54696, 1.54095, 1.53834, 1.53371, 1.53338, 1.51791, 1.51881, 1.50918, 1.51616, 1.50015, 1.49259, 1.49095, 1.49588, 1.49305, 1.49872, 1.54748, 1.54435, 1.5142, 1.5271, 1.46153, 1.46418, 1.45421, 1.44629, 1.43486, 1.43048, 1.42655, 1.42311, 1.42195, 1.41635, 1.42256, 1.40752, 1.4047, 1.40007, 1.39624, 1.39298, 1.38784, 1.38092, 1.37691, 1.37655, 1.37333, 1.36649, 1.36627, 1.35839, 1.35723, 1.35503, 1.35948, 1.39648, 1.48992, 1.63009, 1.49207, 1.32672, 1.34146, 1.33201, 1.32984, 1.32439, 1.32052, 
1.64604, 1.64144, 1.63837, 1.63438, 1.62874, 1.62519, 1.62109, 1.63326, 1.6082, 1.61352, 1.70902, 2.08633, 1.73021, 1.5814, 1.58284, 1.57578, 1.5668, 1.5622, 1.5519, 1.54691, 1.53856, 1.53049, 1.52555, 1.52111, 1.51489, 1.51055, 1.50677, 1.49765, 1.49049, 1.48575, 1.4819, 1.48173, 1.47839, 1.49205, 1.47413, 1.53033, 1.52936, 1.49891, 1.51995, 1.4822, 1.45506, 1.44199, 1.43737, 1.42992, 1.42463, 1.41942, 1.41372, 1.4088, 1.40516, 1.40157, 1.39362, 1.38932, 1.39003, 1.38881, 1.3877, 1.38219, 1.37769, 1.37077, 1.36418, 1.36362, 1.36064, 1.35653, 1.35673, 1.35078, 1.35011, 1.35089, 1.36046, 1.55102, 1.67569, 1.46704, 1.33074, 1.33932, 1.31955, 1.31907, 1.31677, 1.31396, 
1.64284, 1.63384, 1.6276, 1.62425, 1.62038, 1.61369, 1.60866, 1.60269, 1.59697, 1.60263, 1.73089, 1.84786, 1.66851, 1.5782, 1.57819, 1.56796, 1.55706, 1.54757, 1.55144, 1.53807, 1.53135, 1.52786, 1.52328, 1.51938, 1.50628, 1.50289, 1.51317, 1.49286, 1.48709, 1.48447, 1.4812, 1.4754, 1.47347, 1.47662, 1.49766, 1.49526, 1.49508, 1.4766, 1.48423, 1.46119, 1.43797, 1.43083, 1.42623, 1.41653, 1.41722, 1.41318, 1.41036, 1.4105, 1.39835, 1.39905, 1.38916, 1.38596, 1.37994, 1.37468, 1.36798, 1.36262, 1.35792, 1.35487, 1.35371, 1.35521, 1.35351, 1.34862, 1.34743, 1.34365, 1.33917, 1.33831, 1.33609, 1.43394, 1.70886, 1.70566, 1.31302, 1.31262, 1.31951, 1.31056, 1.3188, 1.30295, 
1.63702, 1.63369, 1.62303, 1.61904, 1.60933, 1.62649, 1.59999, 1.60389, 1.60299, 1.59276, 1.67754, 1.84903, 1.80585, 1.56405, 1.56453, 1.55298, 1.55738, 1.55092, 1.53592, 1.53016, 1.52015, 1.51608, 1.51197, 1.50761, 1.50329, 1.49652, 1.49168, 1.48629, 1.48181, 1.47348, 1.46916, 1.46494, 1.47107, 1.47431, 1.46742, 1.47988, 1.49881, 1.47766, 1.48175, 1.47199, 1.44057, 1.4326, 1.41159, 1.40996, 1.40502, 1.40426, 1.40009, 1.39391, 1.39061, 1.38281, 1.37758, 1.37492, 1.37169, 1.36995, 1.37184, 1.36357, 1.36277, 1.35739, 1.35326, 1.35245, 1.35105, 1.34469, 1.33971, 1.36179, 1.34749, 1.34634, 1.34673, 1.46807, 1.73148, 1.71997, 1.30618, 1.31878, 1.30932, 1.31123, 1.31972, 1.30838, 
1.61996, 1.61826, 1.61675, 1.61672, 1.61233, 1.60345, 1.60346, 1.58596, 1.58539, 1.58302, 1.5932, 1.64899, 1.76622, 1.56654, 1.55367, 1.53886, 1.53088, 1.52987, 1.52717, 1.54369, 1.51242, 1.50799, 1.50259, 1.49842, 1.49223, 1.48935, 1.4844, 1.4755, 1.46671, 1.46126, 1.46048, 1.45555, 1.45412, 1.4571, 1.46599, 1.46965, 1.46968, 1.46286, 1.46837, 1.45085, 1.445, 1.42735, 1.41895, 1.40356, 1.39754, 1.39239, 1.38864, 1.38546, 1.38376, 1.37485, 1.37196, 1.36835, 1.36625, 1.36173, 1.35691, 1.35494, 1.35307, 1.3428, 1.3397, 1.33616, 1.33153, 1.33114, 1.3367, 1.33256, 1.32698, 1.33408, 1.32679, 1.34779, 1.51759, 1.455, 1.29482, 1.30576, 1.30032, 1.29572, 1.29008, 1.29094, 
1.60617, 1.59657, 1.59602, 1.5967, 1.58663, 1.58011, 1.58215, 1.5799, 1.57273, 1.56962, 1.57143, 1.83228, 1.72119, 1.54306, 1.53922, 1.52549, 1.52357, 1.5287, 1.53287, 1.50694, 1.50006, 1.49637, 1.4914, 1.48272, 1.48065, 1.47514, 1.46514, 1.46141, 1.46029, 1.45713, 1.45148, 1.4474, 1.44701, 1.44932, 1.45697, 1.46298, 1.44869, 1.44808, 1.44351, 1.44868, 1.41763, 1.41966, 1.40764, 1.38991, 1.38585, 1.38393, 1.379, 1.37424, 1.37214, 1.36726, 1.36484, 1.36029, 1.35787, 1.35178, 1.34593, 1.34774, 1.34764, 1.33941, 1.33407, 1.32502, 1.3235, 1.32155, 1.31773, 1.31218, 1.30651, 1.30299, 1.31207, 1.29908, 1.69028, 1.56524, 1.43738, 1.38754, 1.28932, 1.28152, 1.27991, 1.28173, 
1.59954, 1.59548, 1.59005, 1.5821, 1.57234, 1.56103, 1.56182, 1.58285, 1.54949, 1.56052, 1.55793, 1.69693, 1.68623, 1.53333, 1.5215, 1.5176, 1.51754, 1.51441, 1.5063, 1.48912, 1.48096, 1.4768, 1.46977, 1.46601, 1.45874, 1.4531, 1.45468, 1.44818, 1.44132, 1.47043, 1.43662, 1.4275, 1.42418, 1.44749, 1.44342, 1.46623, 1.46146, 1.4438, 1.42332, 1.4281, 1.41048, 1.40618, 1.38586, 1.37959, 1.37157, 1.38543, 1.36129, 1.35922, 1.35756, 1.35418, 1.3576, 1.34467, 1.34656, 1.33669, 1.3296, 1.32498, 1.32051, 1.31823, 1.3188, 1.31363, 1.31959, 1.31231, 1.30678, 1.31768, 1.30903, 1.3022, 1.3062, 1.28318, 1.72127, 1.47137, 1.32832, 1.2794, 1.26906, 1.26682, 1.2575, 1.25691, 
