0.829387, 0.830507, 0.834122, 0.835075, 0.831703, 0.829252, 0.839609, 0.83344, 0.831984, 0.83281, 0.834057, 0.832479, 0.825452, 0.825912, 0.832544, 0.832506, 0.831212, 0.83161, 0.840912, 0.830344, 0.829754, 0.831863, 0.833355, 0.84291, 0.832025, 0.831725, 0.833102, 0.831876, 0.854198, 0.853158, 0.830982, 0.831514, 0.831772, 0.831747, 0.833758, 0.83186, 0.830742, 0.829349, 0.829119, 0.825102, 0.824968, 0.824756, 0.829945, 0.829279, 0.829352, 0.828006, 0.833408, 0.826233, 0.827747, 0.829331, 0.832837, 0.825521, 0.826295, 0.82522, 0.826705, 0.84276, 0.843234, 0.829411, 0.82941, 0.828741, 0.828917, 0.832496, 0.821539, 0.824898, 0.824886, 0.82448, 0.823623, 0.823608, 0.823898, 0.825113, 0.8222, 0.823521, 0.820369, 0.820935, 0.821151, 0.81996, 0.818957, 0.828434, 0.86151, 0.816129, 0.816025, 0.815596, 0.815608, 0.817386, 0.818757, 0.813987, 0.812067, 0.810857, 0.819359, 0.805677, 0.807084, 0.817028, 0.81592, 0.814068, 0.813956, 0.830038, 0.829168, 0.814431, 0.814513, 0.814526, 0.815027, 0.832483, 0.816943, 0.81589, 0.814921, 0.829076, 0.815456, 0.813581, 0.814388, 0.814436, 0.815594, 0.814853, 0.81548, 0.817592, 0.815289, 0.824199, 0.814789, 0.826729, 0.828678, 0.829165, 0.827783, 0.823874, 0.825964, 0.825352, 0.825013, 0.843239, 0.826858, 0.826484, 0.814888, 0.821934, 0.817104, 0.81752, 0.81568, 0.814521, 0.816245, 0.839723, 0.84722, 0.827206, 0.828942, 0.817213, 0.815687, 0.846324, 0.814895, 0.815167, 0.823524, 0.831371, 0.833096, 0.818179, 0.819536, 0.85422, 0.813596, 0.81304, 0.813406, 0.814278, 0.81582, 0.820646, 0.815976, 0.815558, 0.813275, 0.808049, 0.808991, 0.814571, 0.815129, 0.81045, 0.810785, 0.821963, 0.813392, 0.812831, 0.812175, 0.825182, 0.814445, 0.813597, 0.812675, 0.814186, 0.814019, 0.812945, 0.831952, 0.8232, 0.81351, 0.813914, 0.81414, 0.812708, 0.822858, 0.811681, 0.811907, 0.811753, 0.812106, 0.828542, 0.83343, 0.839473, 0.828452, 0.808168, 0.807754, 0.808883, 0.808726, 0.808098, 0.836481, 0.833568, 0.832779, 0.826154, 0.806276, 0.805489, 0.836252, 0.837487, 0.805818, 0.804875, 0.803884, 0.803888, 0.804036, 0.824339, 0.804575, 0.807891, 0.810953, 0.810345, 0.801006, 0.801902, 0.802241, 0.802502, 0.803658, 0.804052, 0.800203, 0.800264, 0.799461, 0.799757, 0.799303, 0.797481, 0.797826, 0.803876, 0.799699, 0.798933, 0.807822, 0.801114, 0.802487, 0.798751, 0.799636, 0.801057, 0.800423, 0.796188, 0.804275, 0.807496, 0.805184, 0.803156, 0.802793, 0.801952, 0.805012, 0.808715, 0.803517, 0.798853, 0.799445, 0.799614, 0.798724, 0.796934, 0.796448, 0.790968, 0.786878, 0.785796, 0.781602, 0.780302, 0.7716, 0.77283, 0.770315, 0.774659, 0.775493, 0.775134, 0.837596, 0.848724, 0.850029, 0.855701, 0.889456, 0.888689, 0.914437, 0.914528, 0.914478, 0.963144, 1.20785, 1.19176, 1.2258, 1.22112, 1.25708, 1.25803, 1.22977, 1.23304, 1.23423, 1.22691, 1.23246, 1.23285, 1.22208, 1.22358, 1.23339, 0.965508, 0.895982, 0.895634, 0.894636, 0.880764, 0.868762, 0.840976, 0.842348, 0.840197, 0.839764, 0.806212, 0.81132, 0.794562
0.835623, 0.836561, 0.829235, 0.83006, 0.838052, 0.834933, 0.836426, 0.833428, 0.844172, 0.842846, 0.83434, 0.8338, 0.832442, 0.832112, 0.82503, 0.826412, 0.830258, 0.830873, 0.830764, 0.830333, 0.836865, 0.849288, 0.847698, 0.831047, 0.831314, 0.830928, 0.83062, 0.851741, 0.850002, 0.832928, 0.831001, 0.831372, 0.832076, 0.830919, 0.83113, 0.831583, 0.827191, 0.827138, 0.827905, 0.839285, 0.82773, 0.828476, 0.82498, 0.824323, 0.823631, 0.827923, 0.826892, 0.831086, 0.831234, 0.838636, 0.827032, 0.825932, 0.827111, 0.827281, 0.82446, 0.825373, 0.826241, 0.826368, 0.82612, 0.826287, 0.823944, 0.823749, 0.828092, 0.828717, 0.824668, 0.823381, 0.823062, 0.823172, 0.821906, 0.821742, 0.821408, 0.82155, 0.821234, 0.821848, 0.819662, 0.818624, 0.83585, 0.818243, 0.821995, 0.819745, 0.81842, 0.818116, 0.832231, 0.835799, 0.834302, 0.820903, 0.813991, 0.81299, 0.829902, 0.805538, 0.81066, 0.809235, 0.816272, 0.815109, 0.814835, 0.81581, 0.839869, 0.817359, 0.817356, 0.817607, 0.825738, 0.823265, 0.814703, 0.812127, 0.812127, 0.815581, 0.815286, 0.815051, 0.824989, 0.823431, 0.821831, 0.815727, 0.81587, 0.814935, 0.814292, 0.814497, 0.833101, 0.815953, 0.83498, 0.83452, 0.815586, 0.815541, 0.815478, 0.821264, 0.82081, 0.834766, 0.815545, 0.81517, 0.814921, 0.825469, 0.833799, 0.815814, 0.825199, 0.825045, 0.826161, 0.815659, 0.825265, 0.841803, 0.815102, 0.814503, 0.815492, 0.816101, 0.831711, 0.8155, 0.817329, 0.815233, 0.815132, 0.815095, 0.814787, 0.815234, 0.813719, 0.813686, 0.814213, 0.814343, 0.812204, 0.810912, 0.809147, 0.812898, 0.823146, 0.814635, 0.805606, 0.806163, 0.808346, 0.8189, 0.811324, 0.812187, 0.818973, 0.812496, 0.811621, 0.832286, 0.812767, 0.813574, 0.814901, 0.813929, 0.814096, 0.825248, 0.824347, 0.825847, 0.813347, 0.820853, 0.840255, 0.812495, 0.813444, 0.81198, 0.82345, 0.835087, 0.814493, 0.811157, 0.810285, 0.821544, 0.809668, 0.809845, 0.810488, 0.810383, 0.807664, 0.807442, 0.831284, 0.80835, 0.834971, 0.829173, 0.827507, 0.826552, 0.820086, 0.819182, 0.803693, 0.803133, 0.803396, 0.823434, 0.804246, 0.805061, 0.811263, 0.824773, 0.805154, 0.808502, 0.810224, 0.805158, 0.804518, 0.803102, 0.807099, 0.807252, 0.802108, 0.803142, 0.802677, 0.809775, 0.80997, 0.807878, 0.805491, 0.801437, 0.801053, 0.800133, 0.798659, 0.795801, 0.801544, 0.800693, 0.7991, 0.799103, 0.798694, 0.803066, 0.808346, 0.808323, 0.808284, 0.809251, 0.80237, 0.801748, 0.804846, 0.806426, 0.807251, 0.801056, 0.80244, 0.804272, 0.803989, 0.798573, 0.799419, 0.784539, 0.784601, 0.787272, 0.76789, 0.768188, 0.76862, 0.767818, 0.775388, 0.779767, 0.79809, 0.800708, 0.801909, 0.84396, 0.864144, 0.865141, 0.865266, 0.892185, 0.895636, 0.912249, 0.967757, 0.968101, 0.968694, 1.22643, 1.22702, 1.22956, 1.26825, 1.2683, 1.28446, 1.24769, 1.21561, 1.21602, 1.25674, 1.24517, 1.25008, 1.22178, 0.966054, 0.965563, 0.904116, 0.894505, 0.89346, 0.880659, 0.881292, 0.84195, 0.843061, 0.842572, 0.831458, 0.81023, 0.811144, 0.79182
0.832019, 0.830809, 0.828679, 0.836693, 0.834018, 0.835845, 0.838141, 0.849937, 0.83317, 0.832207, 0.824589, 0.829291, 0.83565, 0.82728, 0.828204, 0.828295, 0.829106, 0.841016, 0.829953, 0.82992, 0.845549, 0.841104, 0.830984, 0.830861, 0.831303, 0.831619, 0.831564, 0.844056, 0.843789, 0.844908, 0.836178, 0.837922, 0.831967, 0.830393, 0.826427, 0.825411, 0.825071, 0.825444, 0.826684, 0.832915, 0.832401, 0.829572, 0.82926, 0.827094, 0.825541, 0.835999, 0.826626, 0.833191, 0.832681, 0.826004, 0.825533, 0.828552, 0.83959, 0.832765, 0.823561, 0.823827, 0.82972, 0.831532, 0.825376, 0.825142, 0.824534, 0.824565, 0.824381, 0.824058, 0.822768, 0.821475, 0.821248, 0.8206, 0.819773, 0.82218, 0.825183, 0.819064, 0.834868, 0.834878, 0.817492, 0.822776, 0.819061, 0.818407, 0.818383, 0.846645, 0.845344, 0.816481, 0.815098, 0.815372, 0.833728, 0.815334, 0.814115, 0.814496, 0.814746, 0.817169, 0.815946, 0.85125, 0.850964, 0.850414, 0.819816, 0.817104, 0.817594, 0.817278, 0.817496, 0.817595, 0.816642, 0.81648, 0.817568, 0.817221, 0.816517, 0.831551, 0.831421, 0.833874, 0.817071, 0.817154, 0.816769, 0.816143, 0.816145, 0.833287, 0.814179, 0.814159, 0.821191, 0.815742, 0.814694, 0.814246, 0.81567, 0.817933, 0.817117, 0.817934, 0.817632, 0.817023, 0.818549, 0.816103, 0.816627, 0.833824, 0.815371, 0.815294, 0.815604, 0.818634, 0.818497, 0.835594, 0.833044, 0.816364, 0.81575, 0.826432, 0.820012, 0.822925, 0.822747, 0.815719, 0.815819, 0.821578, 0.822232, 0.827634, 0.815694, 0.815335, 0.815009, 0.815514, 0.815902, 0.816293, 0.82859, 0.814391, 0.812094, 0.810996, 0.808424, 0.808342, 0.808738, 0.80831, 0.805462, 0.808233, 0.821978, 0.822156, 0.813425, 0.812762, 0.816274, 0.815186, 0.813805, 0.812681, 0.814757, 0.813327, 0.814861, 0.820724, 0.81634, 0.81398, 0.814487, 0.815883, 0.815109, 0.83236, 0.832116, 0.832298, 0.812883, 0.812087, 0.811806, 0.814873, 0.81125, 0.811304, 0.81076, 0.811387, 0.810068, 0.826896, 0.808557, 0.853326, 0.810289, 0.814332, 0.804885, 0.806877, 0.80571, 0.805211, 0.805277, 0.805777, 0.805374, 0.820008, 0.830438, 0.804525, 0.808704, 0.803663, 0.805415, 0.804779, 0.802949, 0.801207, 0.81242, 0.812218, 0.802161, 0.802586, 0.804691, 0.804224, 0.800274, 0.7993, 0.798099, 0.797875, 0.798891, 0.807934, 0.804608, 0.793815, 0.799661, 0.800036, 0.801624, 0.796015, 0.797366, 0.794964, 0.795147, 0.815582, 0.795569, 0.805455, 0.806706, 0.80701, 0.803617, 0.801708, 0.802609, 0.808089, 0.803081, 0.805465, 0.809493, 0.805796, 0.800638, 0.801233, 0.79995, 0.798653, 0.799845, 0.791055, 0.791427, 0.777687, 0.762963, 0.76969, 0.770102, 0.769864, 0.766934, 0.786529, 0.781167, 0.78049, 0.811852, 0.81245, 0.82947, 0.878305, 0.897488, 0.879468, 0.879538, 0.918138, 0.909769, 0.986792, 1.10827, 1.1085, 1.09529, 1.25842, 1.22981, 1.26026, 1.28435, 1.28505, 1.25729, 1.25817, 1.27756, 1.27226, 1.2657, 1.25183, 1.00696, 0.919097, 0.91888, 0.909584, 0.910469, 0.884391, 0.886772, 0.852996, 0.846031, 0.828994, 0.826328, 0.810278, 0.810703, 0.820311
0.832147, 0.826996, 0.827253, 0.828785, 0.826766, 0.827333, 0.828297, 0.828944, 0.821509, 0.831529, 0.82334, 0.82198, 0.821155, 0.822291, 0.827205, 0.836096, 0.832706, 0.833375, 0.831134, 0.830939, 0.829197, 0.840352, 0.840397, 0.832146, 0.832738, 0.846105, 0.833125, 0.832268, 0.831249, 0.83239, 0.830585, 0.828487, 0.829377, 0.826175, 0.826153, 0.842427, 0.828326, 0.826303, 0.827146, 0.826714, 0.825542, 0.824236, 0.824359, 0.83915, 0.827392, 0.829031, 0.825457, 0.825157, 0.824565, 0.835987, 0.831552, 0.831595, 0.826192, 0.829045, 0.832116, 0.829233, 0.83086, 0.827001, 0.849721, 0.832225, 0.825558, 0.824843, 0.824447, 0.853707, 0.826679, 0.824113, 0.820575, 0.825217, 0.825423, 0.819003, 0.818515, 0.819254, 0.845933, 0.819285, 0.819015, 0.817893, 0.817984, 0.840943, 0.84081, 0.841584, 0.814468, 0.814047, 0.827375, 0.814613, 0.814651, 0.813993, 0.815477, 0.817954, 0.81717, 0.816066, 0.816524, 0.816601, 0.817034, 0.816632, 0.818285, 0.817061, 0.819119, 0.817673, 0.817291, 0.817255, 0.816636, 0.816011, 0.818592, 0.816905, 0.829196, 0.830134, 0.819338, 0.818082, 0.818213, 0.817721, 0.82805, 0.817898, 0.817347, 0.816171, 0.814448, 0.814677, 0.814463, 0.830621, 0.814753, 0.815862, 0.816821, 0.817223, 0.817459, 0.826367, 0.818252, 0.828501, 0.828992, 0.828142, 0.819476, 0.814947, 0.814693, 0.814322, 0.814972, 0.816824, 0.819604, 0.818414, 0.817787, 0.816683, 0.840479, 0.816912, 0.815346, 0.82977, 0.816514, 0.816434, 0.816813, 0.816898, 0.82848, 0.828274, 0.83235, 0.829728, 0.829941, 0.815016, 0.815294, 0.81547, 0.832393, 0.846833, 0.839942, 0.812109, 0.811523, 0.811102, 0.814694, 0.813095, 0.811289, 0.817695, 0.817993, 0.828055, 0.812808, 0.815486, 0.818922, 0.812434, 0.813777, 0.814747, 0.813999, 0.814041, 0.819115, 0.814081, 0.812459, 0.814797, 0.81375, 0.813414, 0.813311, 0.812844, 0.813256, 0.812962, 0.863252, 0.81273, 0.824788, 0.813252, 0.812163, 0.811066, 0.811144, 0.81879, 0.818469, 0.816439, 0.807941, 0.816592, 0.815562, 0.809661, 0.839195, 0.840872, 0.841116, 0.825189, 0.80504, 0.805882, 0.804923, 0.805329, 0.805068, 0.806531, 0.804667, 0.807863, 0.808664, 0.80889, 0.807735, 0.805759, 0.808298, 0.806715, 0.805076, 0.804179, 0.802554, 0.808965, 0.801998, 0.803871, 0.8048, 0.804767, 0.805582, 0.806868, 0.796729, 0.795186, 0.802967, 0.798522, 0.798228, 0.796643, 0.797449, 0.798636, 0.800053, 0.800735, 0.798496, 0.797036, 0.798378, 0.801169, 0.80201, 0.80566, 0.802864, 0.802799, 0.805264, 0.805784, 0.811247, 0.79831, 0.80581, 0.806861, 0.802808, 0.799502, 0.79652, 0.795906, 0.795773, 0.791544, 0.792086, 0.769763, 0.772337, 0.771278, 0.775404, 0.775718, 0.787103, 0.797913, 0.824207, 0.822996, 0.838768, 0.865708, 0.866084, 0.904986, 0.915379, 0.926028, 0.931934, 0.921864, 1.03701, 1.03756, 1.08515, 1.25798, 1.2787, 1.2602, 1.284, 1.28393, 1.29174, 1.2707, 1.27814, 1.25574, 1.10448, 1.0363, 0.947194, 0.953149, 0.929764, 0.923696, 0.904656, 0.90509, 0.880693, 0.878734, 0.855725, 0.853539, 0.829239, 0.818706, 0.817844, 0.811597
0.831183, 0.831378, 0.82916, 0.824499, 0.824655, 0.823148, 0.82923, 0.821897, 0.815222, 0.81888, 0.824296, 0.824725, 0.823313, 0.82829, 0.825669, 0.830271, 0.833015, 0.838009, 0.830318, 0.829734, 0.832934, 0.834019, 0.848828, 0.834277, 0.833263, 0.833461, 0.833185, 0.832356, 0.831449, 0.830561, 0.829114, 0.831482, 0.842006, 0.829689, 0.830185, 0.831685, 0.832045, 0.827874, 0.83969, 0.828144, 0.826656, 0.825814, 0.847084, 0.846856, 0.828194, 0.828089, 0.84941, 0.830935, 0.826218, 0.826054, 0.826438, 0.825586, 0.824922, 0.83366, 0.828871, 0.827907, 0.834968, 0.839858, 0.839748, 0.828619, 0.826956, 0.825832, 0.823667, 0.861064, 0.85384, 0.823309, 0.821411, 0.821155, 0.821345, 0.819981, 0.820516, 0.840354, 0.839495, 0.835509, 0.82816, 0.819088, 0.832612, 0.832955, 0.822446, 0.822423, 0.815679, 0.814798, 0.816468, 0.827899, 0.82474, 0.815436, 0.838894, 0.816105, 0.816345, 0.817293, 0.816585, 0.85423, 0.817732, 0.817803, 0.8177, 0.816949, 0.817619, 0.842669, 0.818059, 0.81621, 0.817584, 0.828054, 0.816843, 0.820768, 0.819539, 0.816185, 0.823164, 0.81665, 0.839738, 0.817925, 0.818548, 0.819088, 0.818811, 0.816424, 0.845838, 0.816039, 0.81528, 0.821076, 0.820879, 0.837136, 0.845795, 0.844644, 0.816965, 0.81756, 0.818251, 0.818298, 0.815523, 0.814913, 0.815537, 0.81634, 0.847005, 0.818914, 0.830203, 0.821096, 0.821389, 0.82068, 0.815985, 0.846621, 0.816452, 0.825491, 0.838755, 0.815488, 0.816652, 0.816211, 0.815102, 0.829318, 0.817304, 0.816831, 0.815148, 0.817658, 0.814961, 0.815585, 0.814916, 0.827795, 0.814731, 0.814729, 0.824683, 0.814169, 0.805529, 0.804275, 0.803839, 0.812427, 0.821242, 0.815862, 0.814037, 0.81235, 0.818434, 0.815155, 0.813986, 0.815113, 0.817365, 0.828333, 0.825248, 0.81382, 0.813116, 0.813313, 0.813218, 0.81492, 0.815152, 0.813935, 0.814081, 0.813932, 0.813854, 0.813423, 0.813947, 0.814379, 0.813837, 0.812671, 0.810909, 0.810361, 0.808879, 0.809762, 0.810882, 0.812363, 0.83, 0.810678, 0.810846, 0.811466, 0.826617, 0.82823, 0.831068, 0.828456, 0.830065, 0.816922, 0.808245, 0.808234, 0.805583, 0.80779, 0.813864, 0.807109, 0.825002, 0.825233, 0.805869, 0.805287, 0.80427, 0.814166, 0.80956, 0.807616, 0.807692, 0.813016, 0.814038, 0.801173, 0.800186, 0.797741, 0.804949, 0.805807, 0.805752, 0.798101, 0.798171, 0.797703, 0.795299, 0.804749, 0.797324, 0.797143, 0.797383, 0.792383, 0.794724, 0.797739, 0.801251, 0.802669, 0.803857, 0.803791, 0.803272, 0.804386, 0.8116, 0.810448, 0.810535, 0.806475, 0.806793, 0.805908, 0.798381, 0.797255, 0.798327, 0.795031, 0.77685, 0.775569, 0.775612, 0.770279, 0.780718, 0.780234, 0.778979, 0.774626, 0.787865, 0.822234, 0.821464, 0.822738, 0.864732, 0.864194, 0.867458, 0.908033, 0.9076, 0.919209, 0.931326, 0.972527, 1.02551, 0.997986, 1.06533, 1.06434, 1.27667, 1.26379, 1.28415, 1.29477, 1.29559, 1.29553, 1.29585, 1.29797, 1.01113, 1.0111, 0.985345, 0.961514, 0.960245, 0.940208, 0.940581, 0.946093, 0.891952, 0.891396, 0.829814, 0.829589, 0.826512, 0.811367, 0.791045, 0.797602
0.821457, 0.820378, 0.82785, 0.825341, 0.833333, 0.826068, 0.825503, 0.8311, 0.830428, 0.829361, 0.827991, 0.826903, 0.829502, 0.831762, 0.85087, 0.837156, 0.829484, 0.829362, 0.838848, 0.8314, 0.851902, 0.83082, 0.83119, 0.831552, 0.831486, 0.832373, 0.835637, 0.829731, 0.83725, 0.828948, 0.830428, 0.829571, 0.829332, 0.828681, 0.828987, 0.829012, 0.829313, 0.828874, 0.822319, 0.829424, 0.829352, 0.831943, 0.846589, 0.835489, 0.835328, 0.826804, 0.828854, 0.840964, 0.839487, 0.825616, 0.833883, 0.835593, 0.826516, 0.8273, 0.826278, 0.828487, 0.827213, 0.826595, 0.825287, 0.825007, 0.823962, 0.826744, 0.826167, 0.823191, 0.822444, 0.821748, 0.824168, 0.821592, 0.821873, 0.832454, 0.83274, 0.822994, 0.847262, 0.839613, 0.832349, 0.841756, 0.839708, 0.856161, 0.81699, 0.816798, 0.815736, 0.814975, 0.8165, 0.829036, 0.83655, 0.816103, 0.816471, 0.815972, 0.815778, 0.828849, 0.815005, 0.853717, 0.824337, 0.825191, 0.844251, 0.817625, 0.818459, 0.817613, 0.817544, 0.81577, 0.815666, 0.829297, 0.817112, 0.815601, 0.815581, 0.814928, 0.816928, 0.81663, 0.816587, 0.818442, 0.817596, 0.816864, 0.816663, 0.817873, 0.815483, 0.814418, 0.822792, 0.85348, 0.83533, 0.815482, 0.815598, 0.81633, 0.816725, 0.815758, 0.815435, 0.812935, 0.818936, 0.816922, 0.815202, 0.81498, 0.816104, 0.815897, 0.816486, 0.816827, 0.817085, 0.81644, 0.817886, 0.832298, 0.833582, 0.818291, 0.817316, 0.816216, 0.815479, 0.815671, 0.81866, 0.84797, 0.817454, 0.8176, 0.846493, 0.817547, 0.817149, 0.835924, 0.815438, 0.815112, 0.8155, 0.814798, 0.813266, 0.842533, 0.841561, 0.841059, 0.814883, 0.81517, 0.815365, 0.813024, 0.81455, 0.825448, 0.825565, 0.816545, 0.815896, 0.815297, 0.811407, 0.811719, 0.810393, 0.810202, 0.815235, 0.811324, 0.817419, 0.816301, 0.815758, 0.812445, 0.813061, 0.813955, 0.813773, 0.81268, 0.812164, 0.811374, 0.812851, 0.812904, 0.811741, 0.811006, 0.808923, 0.811354, 0.811604, 0.815003, 0.824227, 0.815215, 0.817991, 0.825939, 0.80799, 0.808471, 0.808526, 0.807697, 0.824721, 0.823573, 0.806854, 0.806963, 0.806653, 0.82302, 0.807313, 0.807177, 0.80773, 0.808476, 0.805778, 0.805247, 0.80467, 0.821969, 0.804804, 0.812133, 0.804641, 0.805338, 0.800716, 0.80406, 0.807916, 0.805295, 0.804764, 0.797607, 0.797837, 0.81809, 0.806271, 0.80926, 0.795317, 0.796904, 0.796973, 0.797261, 0.800619, 0.803763, 0.797682, 0.798319, 0.801351, 0.804078, 0.806159, 0.806144, 0.804892, 0.80863, 0.808176, 0.807037, 0.807288, 0.80724, 0.807738, 0.806816, 0.804183, 0.802955, 0.801657, 0.807926, 0.80794, 0.791714, 0.7912, 0.798664, 0.776359, 0.780895, 0.784859, 0.778806, 0.802346, 0.807067, 0.871001, 0.884446, 0.887938, 0.877365, 0.878018, 0.92569, 0.927233, 0.927312, 0.92741, 0.991732, 0.982022, 0.981605, 0.989296, 1.00202, 1.08439, 1.15958, 1.32762, 1.34051, 1.30991, 1.30886, 1.3195, 1.13967, 0.99881, 1.00919, 0.982066, 0.983839, 0.959582, 0.958155, 0.956974, 0.957631, 0.942586, 0.843057, 0.842998, 0.843951, 0.799147, 0.802226, 0.784305, 0.793495
0.825829, 0.824829, 0.830712, 0.832793, 0.832839, 0.832393, 0.827127, 0.827924, 0.860014, 0.829596, 0.838675, 0.829907, 0.831665, 0.851268, 0.849407, 0.831125, 0.830208, 0.829618, 0.83002, 0.852897, 0.854302, 0.828626, 0.830434, 0.845904, 0.831976, 0.829814, 0.828591, 0.82724, 0.838519, 0.828484, 0.831928, 0.826404, 0.839672, 0.828008, 0.828399, 0.826326, 0.825235, 0.825632, 0.827855, 0.828552, 0.829568, 0.858993, 0.82835, 0.828076, 0.829439, 0.828584, 0.83501, 0.834855, 0.840737, 0.829411, 0.827047, 0.862152, 0.826487, 0.82571, 0.825795, 0.825207, 0.824591, 0.823867, 0.824228, 0.823781, 0.849011, 0.823668, 0.823262, 0.823724, 0.824316, 0.82234, 0.821721, 0.821606, 0.820283, 0.821954, 0.820561, 0.820718, 0.820771, 0.821533, 0.831963, 0.823967, 0.825184, 0.826367, 0.854388, 0.83701, 0.836168, 0.818715, 0.81884, 0.818033, 0.842997, 0.818805, 0.83402, 0.837804, 0.846266, 0.83932, 0.83934, 0.874177, 0.873556, 0.856928, 0.827217, 0.831986, 0.83161, 0.819131, 0.815229, 0.814993, 0.8229, 0.82187, 0.816308, 0.816818, 0.815581, 0.815922, 0.815615, 0.815164, 0.839531, 0.81727, 0.8294, 0.817944, 0.817279, 0.816124, 0.81555, 0.845808, 0.815034, 0.814466, 0.814924, 0.814588, 0.81566, 0.815843, 0.815882, 0.816009, 0.815363, 0.814349, 0.81523, 0.821994, 0.847032, 0.817625, 0.835495, 0.836113, 0.834565, 0.825722, 0.832288, 0.83262, 0.86636, 0.827116, 0.818358, 0.81837, 0.818615, 0.828541, 0.822573, 0.836818, 0.815719, 0.81655, 0.815873, 0.816448, 0.814933, 0.817421, 0.817391, 0.816613, 0.81586, 0.815257, 0.816823, 0.816302, 0.815629, 0.81494, 0.814601, 0.814512, 0.81433, 0.814373, 0.814438, 0.814376, 0.813864, 0.813744, 0.817939, 0.817569, 0.812055, 0.808846, 0.809444, 0.809097, 0.814827, 0.833109, 0.812318, 0.811626, 0.814616, 0.81189, 0.812074, 0.814315, 0.80921, 0.815561, 0.814835, 0.815021, 0.812366, 0.81111, 0.811986, 0.811597, 0.810532, 0.811901, 0.812226, 0.811805, 0.81045, 0.80997, 0.810324, 0.809145, 0.809447, 0.809372, 0.809207, 0.808218, 0.809108, 0.808978, 0.814977, 0.811265, 0.809246, 0.807469, 0.808155, 0.810633, 0.805672, 0.828068, 0.809918, 0.821296, 0.804783, 0.821918, 0.807834, 0.805639, 0.826843, 0.80325, 0.803861, 0.803754, 0.80516, 0.803027, 0.801086, 0.819363, 0.800719, 0.798128, 0.815665, 0.802397, 0.808635, 0.798125, 0.798304, 0.796532, 0.79365, 0.80069, 0.799987, 0.801389, 0.797221, 0.80078, 0.796737, 0.799414, 0.800882, 0.808694, 0.806374, 0.804087, 0.804003, 0.814485, 0.808318, 0.807669, 0.807327, 0.806285, 0.804947, 0.803025, 0.80343, 0.797072, 0.797477, 0.795762, 0.801323, 0.782064, 0.788417, 0.780384, 0.779892, 0.796772, 0.798974, 0.802676, 0.842682, 0.842841, 0.842312, 0.908471, 0.923339, 0.924324, 0.967525, 0.986545, 0.987074, 0.987284, 0.987959, 1.00083, 1.00053, 1.00086, 1.03107, 1.03149, 1.35024, 1.30697, 1.33649, 1.33406, 1.32568, 1.07115, 1.02668, 0.997348, 1.01116, 1.00525, 1.00533, 0.967927, 0.947622, 0.94877, 0.849261, 0.84869, 0.850575, 0.807813, 0.826205, 0.785233, 0.783685, 0.783791
0.831454, 0.839734, 0.831787, 0.83231, 0.838263, 0.839496, 0.841061, 0.83966, 0.840674, 0.846359, 0.84646, 0.830021, 0.831568, 0.831, 0.830028, 0.829029, 0.830561, 0.829756, 0.828769, 0.829746, 0.829149, 0.829907, 0.85086, 0.834337, 0.829478, 0.829016, 0.828459, 0.835319, 0.826643, 0.826736, 0.826941, 0.829389, 0.828528, 0.828579, 0.828312, 0.826904, 0.825377, 0.832743, 0.832743, 0.838692, 0.829292, 0.847118, 0.828241, 0.82869, 0.836328, 0.854407, 0.828467, 0.826977, 0.826238, 0.845173, 0.829136, 0.836327, 0.827827, 0.827275, 0.827403, 0.827886, 0.827643, 0.827181, 0.826557, 0.825486, 0.825152, 0.825554, 0.850021, 0.824269, 0.824718, 0.822781, 0.822568, 0.822262, 0.820946, 0.820583, 0.8221, 0.822902, 0.819028, 0.820044, 0.821239, 0.823304, 0.839336, 0.839399, 0.821254, 0.86276, 0.862958, 0.876799, 0.837372, 0.870502, 0.870074, 0.867351, 0.850119, 0.857261, 0.890276, 0.863095, 0.856599, 0.855904, 0.884467, 0.886134, 0.886838, 0.841982, 0.842562, 0.819486, 0.816732, 0.81635, 0.815531, 0.813065, 0.813412, 0.815151, 0.852783, 0.814497, 0.836404, 0.857509, 0.857973, 0.825215, 0.82954, 0.829841, 0.828574, 0.81501, 0.828777, 0.815518, 0.817947, 0.816666, 0.815212, 0.815188, 0.814794, 0.816533, 0.816179, 0.814634, 0.814772, 0.815066, 0.815628, 0.81505, 0.815259, 0.815651, 0.818493, 0.819944, 0.819565, 0.815866, 0.826432, 0.847201, 0.853895, 0.822898, 0.821213, 0.821776, 0.817293, 0.824303, 0.816787, 0.816255, 0.817059, 0.819225, 0.819214, 0.835808, 0.816028, 0.816362, 0.815901, 0.816572, 0.81714, 0.817217, 0.816971, 0.842155, 0.818233, 0.81644, 0.814809, 0.815766, 0.814188, 0.813917, 0.814132, 0.813717, 0.813281, 0.812525, 0.813663, 0.814692, 0.824671, 0.810014, 0.811522, 0.815402, 0.814833, 0.815612, 0.819127, 0.813777, 0.810586, 0.812263, 0.811879, 0.811128, 0.811672, 0.811174, 0.806683, 0.818847, 0.812884, 0.811032, 0.812504, 0.813415, 0.810971, 0.811111, 0.810972, 0.810767, 0.809763, 0.807911, 0.861359, 0.843186, 0.809755, 0.809327, 0.808342, 0.809088, 0.846731, 0.811654, 0.81457, 0.808363, 0.812432, 0.813087, 0.815243, 0.81457, 0.813344, 0.810268, 0.808576, 0.805439, 0.817545, 0.809391, 0.805804, 0.807046, 0.815161, 0.804806, 0.803783, 0.804565, 0.803749, 0.804346, 0.802168, 0.798526, 0.800442, 0.801159, 0.801683, 0.793438, 0.794718, 0.813587, 0.815814, 0.806489, 0.805149, 0.798255, 0.79962, 0.798523, 0.796052, 0.796293, 0.804711, 0.797284, 0.797799, 0.802675, 0.802197, 0.801939, 0.80092, 0.801407, 0.809085, 0.809727, 0.807486, 0.806974, 0.806904, 0.806398, 0.795, 0.793828, 0.792283, 0.78313, 0.784658, 0.777413, 0.78325, 0.782263, 0.782522, 0.798069, 0.808693, 0.811711, 0.810991, 0.833624, 0.827121, 0.873938, 0.945843, 0.947243, 0.966319, 0.987894, 0.987578, 0.987466, 1.02186, 1.01655, 1.01555, 1.03761, 1.04989, 1.0495, 1.17314, 1.17711, 1.17591, 1.20512, 1.07823, 1.07793, 1.01811, 1.03384, 1.02998, 1.00558, 1.00554, 0.995844, 0.995013, 0.994247, 0.838749, 0.83994, 0.818317, 0.817208, 0.807804, 0.80169, 0.821234, 0.820803
0.827629, 0.825944, 0.82627, 0.834478, 0.832848, 0.839006, 0.846344, 0.846181, 0.844945, 0.843544, 0.843055, 0.830098, 0.830364, 0.831222, 0.833919, 0.830246, 0.844603, 0.840906, 0.839832, 0.831475, 0.829287, 0.851926, 0.831136, 0.831187, 0.829729, 0.829727, 0.831976, 0.831952, 0.827853, 0.828021, 0.835636, 0.831, 0.831137, 0.829356, 0.828514, 0.827968, 0.827161, 0.827482, 0.826013, 0.827787, 0.828284, 0.82751, 0.825926, 0.831293, 0.830733, 0.832979, 0.827396, 0.837434, 0.828392, 0.836227, 0.832705, 0.831772, 0.831834, 0.832166, 0.832305, 0.826046, 0.826283, 0.825364, 0.82488, 0.825474, 0.825098, 0.823286, 0.823493, 0.857034, 0.822142, 0.822248, 0.838233, 0.821951, 0.823593, 0.820317, 0.820846, 0.821195, 0.820908, 0.820339, 0.819671, 0.822848, 0.819953, 0.81789, 0.838613, 0.833138, 0.82526, 0.826028, 0.865944, 0.865438, 0.898298, 0.859826, 0.859374, 0.857372, 0.853621, 0.879947, 0.859853, 0.856502, 0.856632, 0.856539, 0.870181, 0.852806, 0.839271, 0.832133, 0.822026, 0.820304, 0.847946, 0.828807, 0.816926, 0.82437, 0.824608, 0.821021, 0.818948, 0.819438, 0.819885, 0.81866, 0.816035, 0.816651, 0.825957, 0.817347, 0.815866, 0.816171, 0.81664, 0.816532, 0.816332, 0.816225, 0.816956, 0.835725, 0.815993, 0.81576, 0.815672, 0.814481, 0.833644, 0.815045, 0.814757, 0.833523, 0.842478, 0.816069, 0.821124, 0.818787, 0.818594, 0.815147, 0.815429, 0.818167, 0.819661, 0.824909, 0.816505, 0.817237, 0.81621, 0.815518, 0.816191, 0.816446, 0.816805, 0.815917, 0.815748, 0.817298, 0.818055, 0.819755, 0.825413, 0.825516, 0.816191, 0.816682, 0.815723, 0.815743, 0.831992, 0.81523, 0.816288, 0.818059, 0.816691, 0.816898, 0.816411, 0.815913, 0.816809, 0.818855, 0.810158, 0.810175, 0.809877, 0.818117, 0.808569, 0.807723, 0.808548, 0.815165, 0.815279, 0.795175, 0.794844, 0.809746, 0.8088, 0.809457, 0.808157, 0.808636, 0.809264, 0.809026, 0.80887, 0.809381, 0.814629, 0.807485, 0.815427, 0.813811, 0.821381, 0.810225, 0.811386, 0.810796, 0.810813, 0.810861, 0.811466, 0.810042, 0.802766, 0.807468, 0.806611, 0.80603, 0.80749, 0.807105, 0.80922, 0.81068, 0.809228, 0.809123, 0.809087, 0.80786, 0.815767, 0.808921, 0.80849, 0.806774, 0.80646, 0.806419, 0.807227, 0.811732, 0.807761, 0.799419, 0.79679, 0.794929, 0.799031, 0.798627, 0.797902, 0.795627, 0.794507, 0.794016, 0.797225, 0.797811, 0.797937, 0.79888, 0.794242, 0.793662, 0.797038, 0.805782, 0.797235, 0.80295, 0.801825, 0.800321, 0.798748, 0.799099, 0.805763, 0.807952, 0.811188, 0.812356, 0.800688, 0.808898, 0.802398, 0.80497, 0.794285, 0.804677, 0.805259, 0.797311, 0.798333, 0.778539, 0.787269, 0.787316, 0.803784, 0.804826, 0.815676, 0.822264, 0.82212, 0.822593, 0.873369, 0.90764, 0.913148, 0.913265, 0.992486, 0.999496, 0.999465, 1.02887, 1.01985, 1.03023, 1.03024, 1.06226, 1.0542, 1.08287, 1.09635, 1.18809, 1.16333, 1.16264, 1.16299, 1.08531, 1.08372, 1.04927, 1.03977, 1.02633, 1.0429, 1.02956, 1.03005, 0.889781, 0.818298, 0.819445, 0.821102, 0.808193, 0.809789, 0.801484, 0.7991, 0.811709
0.832581, 0.832831, 0.834667, 0.843466, 0.827004, 0.830135, 0.829444, 0.828947, 0.830662, 0.830444, 0.83094, 0.829744, 0.830752, 0.835535, 0.829112, 0.82845, 0.831804, 0.83956, 0.830326, 0.829779, 0.830091, 0.830152, 0.829189, 0.847409, 0.833536, 0.829347, 0.829088, 0.830081, 0.8303, 0.827273, 0.85357, 0.829667, 0.828163, 0.828664, 0.828765, 0.827882, 0.833073, 0.826331, 0.825143, 0.825433, 0.828169, 0.841143, 0.832514, 0.826777, 0.826352, 0.830004, 0.828246, 0.828303, 0.828364, 0.830666, 0.827936, 0.826683, 0.833903, 0.841908, 0.826657, 0.826464, 0.826365, 0.825701, 0.835211, 0.825146, 0.825093, 0.824955, 0.824717, 0.824417, 0.823227, 0.82358, 0.824439, 0.82491, 0.820808, 0.821089, 0.820789, 0.820049, 0.818994, 0.820865, 0.829596, 0.835701, 0.83538, 0.818927, 0.819091, 0.819467, 0.836486, 0.862472, 0.861604, 0.888497, 0.901417, 0.855861, 0.854668, 0.85232, 0.852889, 0.853599, 0.853038, 0.85031, 0.847434, 0.864426, 0.854701, 0.868233, 0.851325, 0.854663, 0.83584, 0.835226, 0.835699, 0.841653, 0.819035, 0.81805, 0.81659, 0.816694, 0.841755, 0.814734, 0.814555, 0.814668, 0.814649, 0.828386, 0.813307, 0.816344, 0.816625, 0.816421, 0.816038, 0.815598, 0.816338, 0.816214, 0.815801, 0.832752, 0.823032, 0.844103, 0.814201, 0.81425, 0.814511, 0.814324, 0.814682, 0.815419, 0.815109, 0.814497, 0.814663, 0.818074, 0.816007, 0.816855, 0.816562, 0.83998, 0.817357, 0.863298, 0.817843, 0.818235, 0.817639, 0.817316, 0.817647, 0.850793, 0.829106, 0.81985, 0.818631, 0.813347, 0.81301, 0.82953, 0.815443, 0.829264, 0.831156, 0.850736, 0.818632, 0.816759, 0.816811, 0.816486, 0.815798, 0.815666, 0.814072, 0.813901, 0.811884, 0.813182, 0.811817, 0.813183, 0.808388, 0.80977, 0.810129, 0.81649, 0.817944, 0.808674, 0.808683, 0.791352, 0.790942, 0.797941, 0.818427, 0.809955, 0.818728, 0.812344, 0.812184, 0.810947, 0.808602, 0.809959, 0.813658, 0.80952, 0.810894, 0.818143, 0.811748, 0.8088, 0.808294, 0.809476, 0.809885, 0.810188, 0.815566, 0.822636, 0.814997, 0.817035, 0.815246, 0.80635, 0.806287, 0.810343, 0.806494, 0.815554, 0.810426, 0.80809, 0.806677, 0.813758, 0.810745, 0.811611, 0.804485, 0.804856, 0.806718, 0.805802, 0.804746, 0.804055, 0.804151, 0.812223, 0.810916, 0.800782, 0.803204, 0.802507, 0.798224, 0.797776, 0.804911, 0.798319, 0.800992, 0.800017, 0.799856, 0.798366, 0.797881, 0.803756, 0.795427, 0.799534, 0.801858, 0.800844, 0.803872, 0.804334, 0.800332, 0.81172, 0.802789, 0.800945, 0.807055, 0.806568, 0.813776, 0.815271, 0.8129, 0.810289, 0.806679, 0.796342, 0.797456, 0.793573, 0.789871, 0.842268, 0.843229, 0.794907, 0.794043, 0.784043, 0.803983, 0.806888, 0.821991, 0.82184, 0.82424, 0.826385, 0.854146, 0.850616, 0.869938, 0.894002, 1.01313, 1.00138, 1.024, 1.02365, 1.03082, 1.05565, 1.05474, 1.08507, 1.07332, 1.11974, 1.11923, 1.16971, 1.1698, 1.16973, 1.16211, 1.12446, 1.10209, 1.09474, 1.04712, 1.04634, 1.05672, 0.878115, 0.878307, 0.867056, 0.873757, 0.874164, 0.860999, 0.81901, 0.818232, 0.793664, 0.793461, 0.788772
0.825411, 0.826125, 0.827049, 0.828024, 0.826127, 0.82932, 0.828382, 0.837707, 0.838806, 0.839682, 0.839115, 0.82909, 0.83005, 0.841731, 0.84297, 0.830355, 0.831832, 0.836215, 0.833221, 0.829873, 0.830046, 0.830085, 0.839647, 0.853916, 0.853916, 0.841867, 0.832715, 0.830762, 0.829538, 0.828482, 0.828119, 0.853785, 0.854504, 0.845722, 0.828695, 0.828436, 0.827319, 0.826796, 0.827548, 0.828198, 0.827784, 0.827787, 0.828722, 0.840514, 0.827854, 0.827801, 0.828005, 0.82816, 0.832626, 0.831125, 0.827481, 0.82741, 0.853352, 0.840917, 0.825031, 0.843992, 0.845827, 0.82587, 0.825001, 0.824273, 0.883133, 0.824664, 0.824391, 0.845751, 0.824208, 0.823086, 0.822241, 0.821695, 0.821002, 0.820584, 0.831483, 0.822053, 0.820231, 0.843676, 0.844301, 0.831714, 0.831763, 0.818283, 0.842114, 0.841561, 0.863691, 0.871009, 0.869725, 0.869145, 0.881406, 0.891137, 0.848058, 0.845377, 0.850497, 0.851126, 0.850181, 0.850136, 0.852254, 0.85639, 0.850176, 0.853812, 0.853727, 0.852818, 0.852848, 0.852597, 0.816129, 0.815636, 0.81503, 0.827048, 0.816736, 0.811658, 0.815127, 0.814312, 0.814034, 0.81465, 0.854717, 0.832152, 0.814884, 0.814697, 0.81469, 0.814609, 0.814809, 0.814982, 0.815077, 0.81455, 0.84589, 0.815226, 0.814715, 0.814517, 0.833603, 0.839066, 0.828495, 0.850218, 0.817864, 0.81705, 0.838595, 0.846507, 0.845558, 0.840268, 0.839455, 0.814749, 0.814876, 0.817317, 0.860447, 0.815258, 0.814657, 0.82609, 0.825798, 0.817889, 0.817467, 0.817595, 0.813187, 0.811137, 0.818624, 0.815447, 0.814221, 0.815627, 0.815938, 0.815986, 0.815692, 0.816016, 0.816061, 0.825737, 0.825385, 0.818107, 0.819359, 0.817122, 0.815765, 0.813485, 0.82275, 0.821869, 0.812183, 0.811713, 0.817888, 0.818258, 0.812442, 0.819228, 0.821501, 0.817313, 0.817962, 0.816439, 0.822339, 0.811821, 0.812074, 0.811511, 0.813061, 0.814871, 0.816787, 0.818064, 0.813241, 0.811703, 0.81161, 0.811776, 0.811912, 0.804221, 0.7879, 0.818148, 0.811618, 0.810675, 0.810287, 0.807847, 0.808539, 0.810326, 0.814837, 0.815604, 0.81633, 0.821626, 0.822049, 0.821707, 0.812256, 0.811773, 0.810034, 0.808631, 0.809472, 0.809502, 0.808668, 0.805642, 0.80638, 0.805836, 0.813777, 0.80964, 0.809006, 0.807626, 0.802203, 0.798778, 0.805644, 0.807705, 0.798452, 0.799702, 0.802022, 0.797799, 0.796675, 0.810859, 0.803047, 0.804071, 0.805015, 0.800177, 0.799456, 0.798032, 0.797706, 0.797923, 0.801466, 0.800021, 0.799462, 0.795558, 0.807777, 0.805272, 0.806736, 0.805774, 0.809622, 0.81156, 0.810127, 0.810844, 0.810132, 0.811142, 0.803864, 0.803743, 0.804545, 0.794169, 0.791119, 0.800898, 0.800844, 0.787904, 0.78534, 0.787225, 0.777827, 0.78148, 0.787458, 0.81164, 0.821217, 0.835247, 0.835047, 0.87644, 0.863826, 0.899871, 0.991578, 1.02232, 1.02254, 1.03092, 1.07866, 1.06613, 1.06567, 1.13767, 1.13999, 1.13999, 1.19471, 1.19613, 1.21033, 1.18349, 1.20941, 1.23868, 1.1196, 1.12038, 1.13013, 1.08907, 1.08772, 0.883678, 0.881614, 0.882594, 0.877923, 0.834091, 0.839759, 0.803269, 0.801304, 0.80105, 0.791324, 0.7986
0.827097, 0.826695, 0.827334, 0.828, 0.82784, 0.82969, 0.843301, 0.82898, 0.84315, 0.840729, 0.840426, 0.840305, 0.828751, 0.830084, 0.832288, 0.850011, 0.848234, 0.829766, 0.82895, 0.854497, 0.832093, 0.830202, 0.832882, 0.832323, 0.829224, 0.830248, 0.830525, 0.829133, 0.829858, 0.827998, 0.828145, 0.827619, 0.827838, 0.830573, 0.831195, 0.829311, 0.826274, 0.835837, 0.836163, 0.827614, 0.826561, 0.826323, 0.829299, 0.85685, 0.856824, 0.827783, 0.82811, 0.859435, 0.826067, 0.825756, 0.82455, 0.824531, 0.824911, 0.850734, 0.858789, 0.825281, 0.825312, 0.824536, 0.825191, 0.848686, 0.835949, 0.832861, 0.824493, 0.824459, 0.822128, 0.843351, 0.829565, 0.821625, 0.836295, 0.819828, 0.819577, 0.819864, 0.819823, 0.825266, 0.825994, 0.8277, 0.846249, 0.825053, 0.841937, 0.84182, 0.835388, 0.851165, 0.867447, 0.851372, 0.850432, 0.849463, 0.841765, 0.840589, 0.842014, 0.842739, 0.842143, 0.849615, 0.849266, 0.850592, 0.8477, 0.859327, 0.860457, 0.85375, 0.854214, 0.858453, 0.855197, 0.854652, 0.818442, 0.819922, 0.828507, 0.812987, 0.816262, 0.816817, 0.818127, 0.817648, 0.832228, 0.816244, 0.816192, 0.82785, 0.826977, 0.817498, 0.81438, 0.813903, 0.81383, 0.814137, 0.814176, 0.85075, 0.813551, 0.814644, 0.814642, 0.815409, 0.815143, 0.814134, 0.814924, 0.814453, 0.814616, 0.813362, 0.811846, 0.843865, 0.81649, 0.818962, 0.817269, 0.815062, 0.838469, 0.817897, 0.818277, 0.833549, 0.817526, 0.818199, 0.819317, 0.818312, 0.814721, 0.81949, 0.811857, 0.814848, 0.815279, 0.815961, 0.815164, 0.814471, 0.821972, 0.81725, 0.81647, 0.817427, 0.817003, 0.817704, 0.828863, 0.816215, 0.827822, 0.816367, 0.815899, 0.816149, 0.817132, 0.817566, 0.818384, 0.821335, 0.818264, 0.812361, 0.811446, 0.814701, 0.815717, 0.818888, 0.811071, 0.810976, 0.813814, 0.813997, 0.814214, 0.814544, 0.813573, 0.813454, 0.813168, 0.81129, 0.817552, 0.814497, 0.814684, 0.81338, 0.814792, 0.813545, 0.813841, 0.81679, 0.831572, 0.816756, 0.817513, 0.817188, 0.816262, 0.822566, 0.824979, 0.826226, 0.828064, 0.816202, 0.816032, 0.807518, 0.808575, 0.807427, 0.807179, 0.81128, 0.812781, 0.813391, 0.808288, 0.807623, 0.809023, 0.809678, 0.804599, 0.805699, 0.806099, 0.800536, 0.803293, 0.804898, 0.80721, 0.808821, 0.799189, 0.798871, 0.795833, 0.801986, 0.804352, 0.804274, 0.79964, 0.799468, 0.7983, 0.801512, 0.801664, 0.805458, 0.804635, 0.808035, 0.802315, 0.805216, 0.804809, 0.804983, 0.811688, 0.806397, 0.808202, 0.809368, 0.811348, 0.808772, 0.810427, 0.810677, 0.804836, 0.791118, 0.791497, 0.791043, 0.795442, 0.788503, 0.781396, 0.774073, 0.786363, 0.784065, 0.769922, 0.797409, 0.78813, 0.799454, 0.799184, 0.846308, 0.829968, 0.830288, 0.856153, 0.856293, 0.901212, 0.910663, 1.04299, 1.04242, 1.11856, 1.12573, 1.12721, 1.13111, 1.1319, 1.21692, 1.21801, 1.22293, 1.23256, 1.22333, 1.24624, 1.23643, 1.22386, 1.22415, 1.13574, 1.13636, 0.935285, 0.859348, 0.873315, 0.897649, 0.830186, 0.829745, 0.837444, 0.803677, 0.802159, 0.811811, 0.809157, 0.808104
0.844375, 0.826507, 0.838045, 0.826529, 0.828214, 0.82997, 0.82844, 0.828815, 0.831497, 0.830233, 0.840937, 0.839971, 0.828018, 0.827799, 0.828463, 0.84527, 0.834543, 0.829567, 0.830383, 0.835121, 0.829674, 0.842441, 0.828252, 0.839622, 0.828744, 0.827916, 0.86112, 0.824659, 0.832999, 0.830299, 0.828119, 0.843974, 0.846142, 0.8368, 0.830174, 0.829434, 0.832729, 0.828489, 0.82755, 0.827314, 0.857105, 0.825542, 0.825227, 0.827864, 0.828607, 0.826337, 0.826496, 0.825816, 0.825009, 0.825364, 0.825078, 0.825085, 0.832399, 0.839836, 0.826129, 0.842887, 0.836332, 0.823204, 0.822593, 0.821922, 0.823375, 0.823217, 0.82762, 0.825933, 0.822803, 0.833058, 0.820968, 0.821944, 0.82216, 0.821006, 0.829458, 0.819872, 0.818998, 0.823915, 0.826065, 0.826455, 0.833756, 0.828946, 0.828889, 0.827164, 0.831276, 0.852458, 0.841605, 0.840463, 0.840549, 0.841938, 0.838941, 0.840925, 0.840886, 0.840704, 0.848123, 0.84633, 0.847479, 0.848475, 0.850519, 0.851533, 0.852533, 0.850323, 0.850516, 0.85003, 0.842921, 0.848761, 0.826823, 0.825671, 0.818955, 0.828613, 0.825407, 0.826932, 0.827708, 0.813154, 0.827694, 0.812056, 0.842384, 0.817289, 0.840972, 0.823244, 0.822656, 0.819267, 0.811971, 0.812565, 0.81291, 0.81317, 0.811696, 0.834851, 0.834046, 0.817385, 0.814723, 0.814992, 0.815029, 0.816227, 0.818401, 0.812956, 0.812437, 0.812405, 0.8133, 0.814876, 0.815753, 0.813512, 0.813504, 0.822364, 0.821959, 0.817748, 0.814694, 0.821829, 0.821019, 0.815947, 0.817136, 0.814397, 0.813667, 0.812665, 0.824645, 0.815867, 0.817312, 0.814914, 0.824822, 0.81822, 0.818388, 0.817082, 0.816391, 0.815831, 0.815731, 0.815777, 0.817203, 0.818153, 0.815373, 0.815369, 0.828174, 0.815108, 0.814514, 0.814655, 0.825702, 0.815119, 0.812155, 0.820224, 0.817729, 0.812518, 0.83043, 0.816198, 0.817743, 0.813441, 0.814974, 0.815762, 0.809221, 0.811608, 0.811717, 0.832274, 0.811534, 0.811432, 0.812636, 0.812215, 0.811158, 0.825877, 0.826316, 0.833875, 0.822403, 0.811181, 0.820143, 0.824889, 0.820238, 0.828895, 0.806371, 0.808621, 0.807316, 0.807041, 0.800258, 0.813396, 0.814482, 0.808001, 0.810856, 0.819592, 0.808013, 0.809229, 0.810743, 0.809439, 0.808237, 0.805335, 0.80503, 0.802779, 0.80269, 0.802674, 0.801815, 0.799797, 0.79814, 0.797673, 0.799015, 0.798572, 0.805433, 0.805315, 0.798686, 0.807792, 0.802018, 0.813461, 0.798071, 0.803358, 0.803664, 0.807158, 0.802927, 0.80394, 0.804914, 0.811057, 0.809079, 0.808128, 0.807969, 0.810531, 0.809772, 0.810735, 0.813166, 0.81205, 0.810811, 0.811231, 0.811168, 0.809911, 0.809365, 0.797671, 0.795664, 0.788426, 0.77404, 0.77485, 0.784219, 0.770183, 0.769433, 0.782773, 0.780123, 0.780036, 0.794105, 0.794793, 0.85177, 0.851205, 0.885935, 0.862523, 0.904997, 0.892194, 0.939781, 1.14572, 1.14667, 1.15796, 1.15909, 1.17777, 1.17722, 1.20651, 1.20387, 1.19311, 1.12845, 1.24279, 1.2421, 1.24273, 1.2366, 1.24944, 1.15212, 0.911369, 0.909424, 0.903061, 0.899168, 0.870461, 0.844062, 0.842867, 0.834211, 0.818044, 0.806519, 0.805689, 0.797823, 0.780403
0.827577, 0.825323, 0.825715, 0.82649, 0.826888, 0.826718, 0.827316, 0.827001, 0.82762, 0.82764, 0.827784, 0.827798, 0.827554, 0.827565, 0.831194, 0.830186, 0.829601, 0.828345, 0.828372, 0.834406, 0.828144, 0.842159, 0.840696, 0.842907, 0.843098, 0.828171, 0.828241, 0.830944, 0.831872, 0.832522, 0.826805, 0.82648, 0.829703, 0.831098, 0.830958, 0.826608, 0.825808, 0.825824, 0.82614, 0.826329, 0.82604, 0.828277, 0.826562, 0.826576, 0.825772, 0.824744, 0.824712, 0.848009, 0.825251, 0.824637, 0.825096, 0.82456, 0.823854, 0.824325, 0.838776, 0.838096, 0.824738, 0.824014, 0.822712, 0.821371, 0.825023, 0.828468, 0.82265, 0.821615, 0.821342, 0.820463, 0.820619, 0.820174, 0.819972, 0.820101, 0.819418, 0.819085, 0.826579, 0.825206, 0.816147, 0.83467, 0.834841, 0.817617, 0.816157, 0.828649, 0.828827, 0.82994, 0.830581, 0.842365, 0.841167, 0.838642, 0.838225, 0.839126, 0.841397, 0.841219, 0.841476, 0.848474, 0.877703, 0.876951, 0.849585, 0.847767, 0.852543, 0.852649, 0.849638, 0.837488, 0.839096, 0.846309, 0.828511, 0.822011, 0.821757, 0.813554, 0.825004, 0.8136, 0.813218, 0.811377, 0.835921, 0.814978, 0.814431, 0.814413, 0.814268, 0.81252, 0.811614, 0.812654, 0.811937, 0.812186, 0.812875, 0.811898, 0.832279, 0.831623, 0.822553, 0.829289, 0.827405, 0.826173, 0.814653, 0.822045, 0.813093, 0.812554, 0.81376, 0.814667, 0.813201, 0.81508, 0.824789, 0.813938, 0.815939, 0.812286, 0.81288, 0.813004, 0.818062, 0.819765, 0.818017, 0.818471, 0.815627, 0.815355, 0.815083, 0.818172, 0.814446, 0.815083, 0.815352, 0.81143, 0.813248, 0.813382, 0.811773, 0.82187, 0.833282, 0.814634, 0.82059, 0.816985, 0.820132, 0.814978, 0.816028, 0.816595, 0.817303, 0.817241, 0.816627, 0.815952, 0.814205, 0.814554, 0.818121, 0.817372, 0.817893, 0.812165, 0.819423, 0.821689, 0.815608, 0.814982, 0.814529, 0.813289, 0.812465, 0.812529, 0.814294, 0.814213, 0.809388, 0.82002, 0.821039, 0.813131, 0.812462, 0.813344, 0.813175, 0.822766, 0.811373, 0.828596, 0.825701, 0.827944, 0.826002, 0.815762, 0.805203, 0.798113, 0.796744, 0.799185, 0.808826, 0.809269, 0.811484, 0.811066, 0.81115, 0.811259, 0.808794, 0.811088, 0.812159, 0.811446, 0.809162, 0.807196, 0.804833, 0.805248, 0.815261, 0.816086, 0.808541, 0.799291, 0.805214, 0.801672, 0.808224, 0.805894, 0.803638, 0.80263, 0.80219, 0.815611, 0.808413, 0.809234, 0.810605, 0.79919, 0.804589, 0.80159, 0.800329, 0.80641, 0.8069, 0.815674, 0.803293, 0.801813, 0.810667, 0.810134, 0.810368, 0.8211, 0.822437, 0.830093, 0.81412, 0.814226, 0.813674, 0.811251, 0.804534, 0.797642, 0.798507, 0.790962, 0.776866, 0.777903, 0.769579, 0.785052, 0.78497, 0.769781, 0.778788, 0.77844, 0.793577, 0.793768, 0.856311, 0.867868, 0.889208, 0.891868, 0.911972, 0.921407, 0.928408, 0.928317, 0.974773, 1.16736, 1.16699, 1.19989, 1.19869, 1.22186, 1.13786, 1.13709, 1.14657, 1.21808, 1.25472, 1.25463, 1.23913, 1.25777, 0.905822, 0.883905, 0.882957, 0.876431, 0.840139, 0.839995, 0.840389, 0.842152, 0.842779, 0.824048, 0.82344, 0.826947, 0.824748, 0.812257
0.826842, 0.82637, 0.825829, 0.827909, 0.827474, 0.827169, 0.828525, 0.828591, 0.827752, 0.825889, 0.842212, 0.840687, 0.826796, 0.832588, 0.847751, 0.827206, 0.826844, 0.840722, 0.826874, 0.827337, 0.836408, 0.826744, 0.864669, 0.827224, 0.827703, 0.827143, 0.823713, 0.823779, 0.824762, 0.825338, 0.825605, 0.825732, 0.829096, 0.828151, 0.82689, 0.825357, 0.82695, 0.827133, 0.827231, 0.82732, 0.827895, 0.84929, 0.8255, 0.825842, 0.824799, 0.825252, 0.825585, 0.825099, 0.823932, 0.846623, 0.823234, 0.8227, 0.829152, 0.823113, 0.821959, 0.832852, 0.822204, 0.82382, 0.823635, 0.823118, 0.822443, 0.82117, 0.821264, 0.82023, 0.820516, 0.820804, 0.820079, 0.836, 0.839083, 0.852281, 0.819256, 0.817639, 0.817387, 0.817103, 0.81839, 0.812969, 0.8137, 0.840358, 0.841089, 0.816391, 0.849534, 0.848986, 0.830484, 0.832178, 0.812605, 0.814993, 0.840892, 0.839788, 0.84022, 0.859834, 0.859482, 0.846252, 0.846233, 0.847396, 0.847424, 0.846998, 0.856202, 0.854056, 0.83067, 0.830435, 0.82979, 0.818935, 0.816502, 0.813162, 0.842963, 0.828075, 0.818451, 0.815474, 0.813101, 0.814081, 0.829583, 0.828965, 0.828264, 0.814772, 0.81346, 0.849384, 0.812128, 0.811786, 0.812526, 0.81271, 0.828245, 0.812972, 0.833803, 0.839552, 0.851918, 0.884218, 0.861309, 0.859874, 0.876515, 0.815021, 0.835714, 0.842845, 0.813014, 0.813692, 0.81209, 0.811073, 0.813989, 0.813442, 0.811992, 0.811159, 0.811529, 0.814344, 0.814061, 0.810656, 0.810652, 0.812183, 0.813415, 0.81322, 0.821533, 0.817695, 0.811892, 0.812685, 0.812298, 0.812007, 0.81908, 0.809143, 0.812567, 0.815225, 0.819309, 0.820264, 0.819356, 0.813037, 0.816047, 0.813161, 0.815806, 0.815964, 0.823035, 0.815514, 0.815068, 0.809887, 0.816506, 0.814842, 0.82899, 0.815608, 0.815996, 0.815217, 0.814909, 0.813582, 0.815806, 0.816151, 0.818358, 0.81141, 0.81452, 0.809302, 0.813031, 0.812306, 0.781174, 0.804386, 0.814524, 0.813485, 0.832503, 0.819077, 0.827997, 0.813302, 0.810527, 0.816622, 0.814976, 0.814242, 0.813801, 0.812129, 0.81925, 0.808722, 0.807969, 0.818239, 0.810667, 0.809044, 0.818579, 0.819151, 0.810525, 0.810982, 0.812114, 0.803109, 0.813019, 0.811175, 0.804256, 0.807505, 0.802552, 0.801548, 0.800831, 0.803854, 0.7988, 0.797744, 0.811462, 0.800726, 0.807102, 0.801474, 0.802616, 0.802707, 0.802826, 0.802361, 0.799576, 0.810621, 0.812815, 0.816194, 0.816846, 0.802195, 0.801517, 0.802657, 0.80405, 0.804766, 0.802694, 0.808937, 0.809422, 0.810486, 0.812491, 0.811003, 0.812057, 0.820982, 0.813625, 0.814279, 0.814961, 0.815377, 0.829058, 0.804858, 0.803939, 0.803406, 0.789499, 0.789832, 0.791516, 0.772934, 0.771689, 0.797967, 0.798417, 0.794249, 0.795012, 0.817157, 0.872959, 0.870862, 0.905087, 0.904789, 0.904827, 0.946087, 0.945921, 0.955649, 0.967361, 1.18906, 1.20325, 1.19319, 1.19253, 1.1264, 1.10679, 1.10507, 1.07685, 1.06622, 1.06974, 1.2121, 1.22207, 0.916898, 0.917433, 0.917927, 0.871454, 0.885584, 0.881315, 0.865838, 0.863906, 0.853642, 0.851238, 0.839399, 0.809138, 0.814813, 0.811588, 0.800254
0.828731, 0.827769, 0.829195, 0.828798, 0.82896, 0.827018, 0.827226, 0.8279, 0.82802, 0.828086, 0.826949, 0.826167, 0.827416, 0.82709, 0.826258, 0.834738, 0.826737, 0.836772, 0.828827, 0.828427, 0.8298, 0.846586, 0.825963, 0.825234, 0.827339, 0.826144, 0.824778, 0.825491, 0.832586, 0.825878, 0.825498, 0.825198, 0.824667, 0.838429, 0.827095, 0.84628, 0.82876, 0.829351, 1.09097, 1.0892, 0.87472, 0.874134, 0.880051, 0.880144, 0.823974, 0.823422, 0.82328, 0.824771, 0.824161, 0.823729, 0.841782, 0.824755, 0.824201, 0.823455, 0.822694, 0.821075, 0.819845, 0.838095, 0.822075, 0.794915, 0.787262, 0.842984, 0.842068, 0.791992, 0.832261, 0.831736, 0.830024, 0.831565, 0.820236, 0.819882, 0.816852, 0.815355, 0.816444, 0.839538, 0.812999, 0.821015, 0.821116, 0.821415, 0.819739, 0.829362, 0.811916, 0.836469, 0.817684, 0.814367, 0.814315, 0.808192, 0.807927, 0.807917, 0.844775, 0.844663, 0.845818, 0.845338, 0.844561, 0.849617, 0.847651, 0.847041, 0.85002, 0.856011, 0.854773, 0.814535, 0.813113, 0.81289, 0.813088, 0.81813, 0.817444, 0.817697, 0.814186, 0.816296, 0.880205, 0.811899, 0.83248, 0.834234, 0.836871, 0.836397, 0.822663, 0.82239, 0.816207, 0.815992, 0.814992, 0.813591, 0.812656, 0.813439, 0.813407, 0.834667, 0.82714, 0.814036, 0.813427, 0.813545, 0.81617, 0.815341, 0.815826, 0.818802, 0.811468, 0.815045, 0.814203, 0.81421, 0.810973, 0.812808, 0.812346, 0.812828, 0.813135, 0.810905, 0.811723, 0.812295, 0.817477, 0.816367, 0.815602, 0.814944, 0.82476, 0.823934, 0.82248, 0.823374, 0.812468, 0.81827, 0.826447, 0.816504, 0.813514, 0.813611, 0.814018, 0.818335, 0.819058, 0.819407, 0.815034, 0.814209, 0.80975, 0.811631, 0.813286, 0.812734, 0.812491, 0.812403, 0.812267, 0.812412, 0.813371, 0.814402, 0.813134, 0.818179, 0.814999, 0.816955, 0.819438, 0.81644, 0.816042, 0.814831, 0.8193, 0.808363, 0.818549, 0.78634, 0.787001, 0.797965, 0.796586, 0.813168, 0.812734, 0.813476, 0.813977, 0.81454, 0.812529, 0.810414, 0.808928, 0.818322, 0.812624, 0.810992, 0.809994, 0.808864, 0.814175, 0.81447, 0.813647, 0.812218, 0.81209, 0.816247, 0.809501, 0.811111, 0.811509, 0.801449, 0.799516, 0.81294, 0.810642, 0.809965, 0.808469, 0.808467, 0.801522, 0.800644, 0.800105, 0.798895, 0.79818, 0.801198, 0.803324, 0.805733, 0.811712, 0.802268, 0.802109, 0.803005, 0.801871, 0.811611, 0.810827, 0.802494, 0.804356, 0.80419, 0.804372, 0.806561, 0.807397, 0.808264, 0.810464, 0.811694, 0.812123, 0.814517, 0.818868, 0.812451, 0.832152, 0.82651, 0.82474, 0.815094, 0.815407, 0.818605, 0.819826, 0.821298, 0.8022, 0.802461, 0.788241, 0.778623, 0.785246, 0.784479, 0.774191, 0.783792, 0.785568, 0.803992, 0.800773, 0.801139, 0.879939, 0.877438, 0.877556, 0.908428, 0.907685, 0.947854, 0.954118, 0.956124, 0.956662, 0.982597, 1.22919, 1.18154, 1.17799, 1.10112, 1.06126, 1.04283, 1.08415, 1.07024, 1.05716, 1.05772, 1.0578, 0.939728, 0.918223, 0.902738, 0.916252, 0.927118, 0.876759, 0.860011, 0.878549, 0.879135, 0.837147, 0.855789, 0.822566, 0.836586, 0.808683, 0.78831
0.824722, 0.824431, 0.824619, 0.832936, 0.82961, 0.829891, 0.82886, 0.829079, 0.846892, 0.827148, 0.827895, 0.828756, 0.828343, 0.841814, 0.831994, 0.828188, 0.82818, 0.827849, 0.827764, 0.840944, 0.836623, 0.835963, 0.816616, 0.835733, 0.83334, 0.832571, 0.875981, 0.87592, 0.83554, 0.843503, 0.832233, 0.831883, 1.12054, 1.09275, 1.08219, 1.08224, 1.08291, 1.08675, 1.08658, 1.12239, 1.12283, 0.897763, 0.899027, 0.891949, 0.872897, 0.860252, 0.840795, 0.852698, 0.852664, 0.823918, 0.823351, 0.823143, 0.820037, 0.826541, 0.835529, 0.816188, 0.815834, 0.816272, 0.832231, 0.832633, 0.797432, 0.778969, 0.808272, 0.780682, 0.780299, 0.820497, 0.818613, 0.81899, 0.842218, 0.817941, 0.817822, 0.81551, 0.814991, 0.816375, 0.815433, 0.812354, 0.813962, 0.813168, 0.812175, 0.812152, 0.812792, 0.819695, 0.821894, 0.821426, 0.812247, 0.812324, 0.809879, 0.819091, 0.836535, 0.811242, 0.846734, 0.846335, 0.846012, 0.845426, 0.8449, 0.814221, 0.82027, 0.81696, 0.833203, 0.811444, 0.811608, 0.811834, 0.814207, 0.815878, 0.812632, 0.812154, 0.812014, 0.812431, 0.808622, 0.829595, 0.821824, 0.818003, 0.812324, 0.842608, 0.813862, 0.813372, 0.814043, 0.814113, 0.813453, 0.813507, 0.815342, 0.813849, 0.812563, 0.81318, 0.818474, 0.812335, 0.826711, 0.825313, 0.815912, 0.813799, 0.813598, 0.812096, 0.813147, 0.818791, 0.8082, 0.810403, 0.809852, 0.810549, 0.810142, 0.811896, 0.806263, 0.80533, 0.810646, 0.812309, 0.810916, 0.811618, 0.82104, 0.810546, 0.808099, 0.819476, 0.825152, 0.822751, 0.813203, 0.832966, 0.817595, 0.814408, 0.813986, 0.8142, 0.814682, 0.816589, 0.815565, 0.820083, 0.82239, 0.820074, 0.817592, 0.813589, 0.818604, 0.809962, 0.8097, 0.818061, 0.826027, 0.811291, 0.817599, 0.817873, 0.817809, 0.814904, 0.813074, 0.827892, 0.81724, 0.816626, 0.815958, 0.816941, 0.810822, 0.818004, 0.813542, 0.784149, 0.784079, 0.794306, 0.793752, 0.813919, 0.814347, 0.813384, 0.813396, 0.813161, 0.811713, 0.8115, 0.811697, 0.811803, 0.811417, 0.818781, 0.815724, 0.814994, 0.820805, 0.819764, 0.809102, 0.813136, 0.811844, 0.809069, 0.808878, 0.802435, 0.81047, 0.806025, 0.816462, 0.802207, 0.80295, 0.803223, 0.801196, 0.79818, 0.798082, 0.801946, 0.815714, 0.818026, 0.81391, 0.804478, 0.805628, 0.807755, 0.815911, 0.806147, 0.805591, 0.804081, 0.804094, 0.804388, 0.804174, 0.804809, 0.805842, 0.806512, 0.805881, 0.804514, 0.807036, 0.815799, 0.814463, 0.813373, 0.811721, 0.8225, 0.817088, 0.813154, 0.814188, 0.814142, 0.833105, 0.821849, 0.829604, 0.829421, 0.802114, 0.799352, 0.817276, 0.818523, 0.817907, 0.800876, 0.794526, 0.781335, 0.787115, 0.784377, 0.783528, 0.824121, 0.850871, 0.850953, 0.885737, 0.897462, 0.921922, 0.920761, 0.94162, 0.942092, 0.983739, 1.00402, 1.01241, 1.00268, 1.00262, 1.13884, 1.139, 1.11898, 1.11841, 1.04888, 1.04899, 1.05421, 1.05387, 1.05302, 0.96793, 0.967791, 0.942276, 0.927614, 0.915012, 0.915774, 0.884146, 0.884795, 0.856413, 0.864107, 0.850237, 0.808541, 0.814224, 0.787181, 0.809337, 0.779738
0.827881, 0.824394, 0.823232, 0.843261, 0.827992, 0.826982, 0.82898, 0.832059, 0.830719, 0.826963, 0.827744, 0.831843, 0.849334, 0.83327, 0.833464, 0.82692, 0.827776, 0.829045, 0.826136, 0.828133, 0.82916, 0.830567, 0.826907, 0.827139, 0.826401, 0.826578, 0.831726, 0.830877, 0.829223, 0.829692, 0.845655, 1.0757, 1.0895, 1.07835, 1.08838, 1.08283, 1.08515, 1.08399, 1.11964, 1.12173, 1.08876, 1.08927, 0.907898, 0.907001, 0.87517, 0.876187, 0.836139, 0.836309, 0.822097, 0.824506, 0.824473, 0.82118, 0.823145, 0.79504, 0.793777, 0.794279, 0.829608, 0.830421, 0.82373, 0.8233, 0.821721, 0.80619, 0.788069, 0.788142, 0.832975, 0.828782, 0.819053, 0.819317, 0.849895, 0.832913, 0.816698, 0.818871, 0.817226, 0.814088, 0.82131, 0.83494, 0.835036, 0.835438, 0.823161, 0.811973, 0.820262, 0.841382, 0.809725, 0.809326, 0.812382, 0.826983, 0.830831, 0.831742, 0.830688, 0.838023, 0.838367, 0.831442, 0.829552, 0.823939, 0.825272, 0.825046, 0.812138, 0.812311, 0.813276, 0.813005, 0.812615, 0.853728, 0.854718, 0.80411, 0.811278, 0.817905, 0.817323, 0.811883, 0.812256, 0.811338, 0.840143, 0.811954, 0.812785, 0.811824, 0.811719, 0.811318, 0.811534, 0.811582, 0.811864, 0.832384, 0.811944, 0.813796, 0.83247, 0.815122, 0.814536, 0.813832, 0.814017, 0.813382, 0.813527, 0.823961, 0.813469, 0.81325, 0.812182, 0.814587, 0.814421, 0.811306, 0.81285, 0.815231, 0.809973, 0.809431, 0.809078, 0.808509, 0.8089, 0.814914, 0.811759, 0.811019, 0.818448, 0.81933, 0.811634, 0.811276, 0.811888, 0.811547, 0.814764, 0.829053, 0.812197, 0.813281, 0.817487, 0.819003, 0.8284, 0.812546, 0.811544, 0.810816, 0.810316, 0.812574, 0.81272, 0.808502, 0.811344, 0.811134, 0.811457, 0.808913, 0.807629, 0.814724, 0.82818, 0.804234, 0.802652, 0.815688, 0.816151, 0.822371, 0.816638, 0.826173, 0.818079, 0.817682, 0.818704, 0.818937, 0.813906, 0.814927, 0.814324, 0.815259, 0.814295, 0.814023, 0.814602, 0.814493, 0.814677, 0.818247, 0.818332, 0.825647, 0.810626, 0.812677, 0.813479, 0.812292, 0.810869, 0.808568, 0.814386, 0.809631, 0.809632, 0.811565, 0.814537, 0.814606, 0.808383, 0.801633, 0.82501, 0.811448, 0.805172, 0.805035, 0.799856, 0.800945, 0.800698, 0.800614, 0.803803, 0.808519, 0.801319, 0.801883, 0.805296, 0.805301, 0.804383, 0.811421, 0.81116, 0.804797, 0.805441, 0.820645, 0.807925, 0.805507, 0.807458, 0.805744, 0.811199, 0.805258, 0.806279, 0.807403, 0.806884, 0.842854, 0.808701, 0.809123, 0.808914, 0.810934, 0.810685, 0.811613, 0.818595, 0.813885, 0.815024, 0.814525, 0.816275, 0.818251, 0.816339, 0.804574, 0.801946, 0.80106, 0.794822, 0.794343, 0.802049, 0.798395, 0.799034, 0.800396, 0.836602, 0.82856, 0.838525, 0.838383, 0.884655, 0.900701, 0.900097, 0.949387, 0.948214, 0.987359, 0.987672, 0.984951, 0.985954, 1.01829, 1.01418, 1.12442, 1.13706, 1.10658, 1.10836, 1.0731, 1.07092, 1.0701, 1.07086, 1.01577, 0.991718, 0.95472, 0.95418, 0.955566, 0.921566, 0.935534, 0.895566, 0.851875, 0.848191, 0.849058, 0.849724, 0.811961, 0.811697, 0.801401, 0.78343, 0.779447
0.828198, 0.82929, 0.821393, 0.824682, 0.824812, 0.825259, 0.82356, 0.839895, 0.825192, 0.825424, 0.829361, 0.826976, 0.825607, 0.826936, 0.826833, 0.828722, 0.825831, 0.825535, 0.825733, 0.825321, 0.835426, 0.829648, 0.842078, 0.831571, 0.82711, 0.829099, 0.827687, 0.837261, 0.836535, 0.844884, 0.843045, 1.06802, 1.06844, 1.10234, 1.10012, 1.08376, 1.09096, 1.0917, 1.0861, 1.08895, 1.09188, 1.10141, 1.11189, 1.11232, 0.897494, 0.898535, 0.899436, 0.826699, 0.825411, 0.817653, 0.814605, 0.796985, 0.793905, 0.804752, 0.795052, 0.796141, 0.824402, 0.820079, 0.820227, 0.819779, 0.819738, 0.820494, 0.82021, 0.819937, 0.821147, 0.820568, 0.818616, 0.818049, 0.817425, 0.818054, 0.827992, 0.817253, 0.822715, 0.820442, 0.816707, 0.813295, 0.812553, 0.81289, 0.811812, 0.81285, 0.813071, 0.809719, 0.810902, 0.808831, 0.814059, 0.814104, 0.826601, 0.8162, 0.814587, 0.813376, 0.840712, 0.836451, 0.836992, 0.819544, 0.81904, 0.832077, 0.809676, 0.808981, 0.811879, 0.811583, 0.811282, 0.819059, 0.819554, 0.811865, 0.866924, 0.824978, 0.815076, 0.814106, 0.815126, 0.81812, 0.817928, 0.817893, 0.812066, 0.812493, 0.825706, 0.811582, 0.811007, 0.846085, 0.80969, 0.807621, 0.816568, 0.82349, 0.815095, 0.813625, 0.813493, 0.830936, 0.830585, 0.813644, 0.813368, 0.825577, 0.834504, 0.834312, 0.815117, 0.814728, 0.808637, 0.810053, 0.812552, 0.818045, 0.80999, 0.810572, 0.80974, 0.810837, 0.817545, 0.817476, 0.819442, 0.813416, 0.812881, 0.812894, 0.82053, 0.810975, 0.810004, 0.828087, 0.838879, 0.813354, 0.816176, 0.818874, 0.815194, 0.815033, 0.822607, 0.815507, 0.816328, 0.80833, 0.816932, 0.818636, 0.812559, 0.809717, 0.809493, 0.818583, 0.808423, 0.809825, 0.814619, 0.810594, 0.806007, 0.812508, 0.812263, 0.813334, 0.811546, 0.810768, 0.827714, 0.814389, 0.80356, 0.811822, 0.832068, 0.813771, 0.813683, 0.814236, 0.814227, 0.814212, 0.813095, 0.815958, 0.814233, 0.815134, 0.826184, 0.814227, 0.814774, 0.819349, 0.81236, 0.811756, 0.811303, 0.811817, 0.811116, 0.807514, 0.80728, 0.822196, 0.812006, 0.817265, 0.815296, 0.816363, 0.809424, 0.810561, 0.81197, 0.818239, 0.807604, 0.811079, 0.802418, 0.802899, 0.803778, 0.808499, 0.801412, 0.802242, 0.801859, 0.800582, 0.787044, 0.790655, 0.815288, 0.805314, 0.806025, 0.812837, 0.811481, 0.811026, 0.804086, 0.809178, 0.810435, 0.805408, 0.806502, 0.804917, 0.810458, 0.810471, 0.80932, 0.808256, 0.809718, 0.808446, 0.809079, 0.810402, 0.818095, 0.818291, 0.83205, 0.832675, 0.822369, 0.823402, 0.815218, 0.813676, 0.814914, 0.815962, 0.801981, 0.795207, 0.795703, 0.795878, 0.812447, 0.813974, 0.807858, 0.801626, 0.802912, 0.838678, 0.839957, 0.886543, 0.891669, 0.892285, 0.891735, 1.00288, 0.963032, 0.963293, 1.00826, 0.997553, 1.01109, 1.013, 1.03039, 1.0401, 1.14309, 1.12939, 1.10054, 1.08855, 1.07851, 1.07787, 1.07849, 1.025, 0.991067, 0.98118, 0.959272, 0.95934, 0.927048, 0.907187, 0.906232, 0.852986, 0.856959, 0.842715, 0.862844, 0.809985, 0.833713, 0.789082, 0.788443, 0.783283
0.84189, 0.828661, 0.828414, 0.829603, 0.836273, 0.824898, 0.824806, 0.836152, 0.828725, 0.828892, 0.823445, 0.826367, 0.826629, 0.827483, 0.827716, 0.828476, 0.846143, 0.825465, 0.824606, 0.828879, 0.82278, 0.845654, 0.825284, 0.825113, 0.825337, 0.824196, 0.835617, 0.825186, 0.825676, 0.853245, 0.852558, 1.06171, 1.06277, 1.10196, 1.10876, 1.09943, 1.09118, 1.09154, 1.0949, 1.08764, 1.1163, 1.10139, 1.11653, 1.11666, 1.11191, 1.11061, 1.11073, 0.835744, 0.818866, 0.819359, 0.826662, 0.825401, 0.815983, 0.803506, 0.803623, 0.825472, 0.823021, 0.822463, 0.825041, 0.821614, 0.829419, 0.820595, 0.819763, 0.820093, 0.819629, 0.819324, 0.819934, 0.819952, 0.819338, 0.819504, 0.818969, 0.833086, 0.816077, 0.817182, 0.821878, 0.820132, 0.812575, 0.813925, 0.816794, 0.817176, 0.815093, 0.814005, 0.812846, 0.822886, 0.811709, 0.839432, 0.837083, 0.814298, 0.814108, 0.813319, 0.814635, 0.826285, 0.827357, 0.822383, 0.813216, 0.812389, 0.812657, 0.860882, 0.850887, 0.849683, 0.827108, 0.825161, 0.812856, 0.812473, 0.811299, 0.842374, 0.811884, 0.810975, 0.825334, 0.8128, 0.812878, 0.812165, 0.812251, 0.81164, 0.811075, 0.808152, 0.811308, 0.80808, 0.813331, 0.814829, 0.812919, 0.812371, 0.812362, 0.811783, 0.813494, 0.813781, 0.813198, 0.81308, 0.829599, 0.814177, 0.813301, 0.833323, 0.813706, 0.809734, 0.811035, 0.812024, 0.81063, 0.81026, 0.806716, 0.811999, 0.8016, 0.801859, 0.809927, 0.809274, 0.825138, 0.810751, 0.811257, 0.81417, 0.815457, 0.814558, 0.814973, 0.817441, 0.819242, 0.822633, 0.814439, 0.813917, 0.813276, 0.817506, 0.817759, 0.813005, 0.812462, 0.812866, 0.817655, 0.809394, 0.80957, 0.809778, 0.809022, 0.782998, 0.798839, 0.79988, 0.813151, 0.800698, 0.802283, 0.812527, 0.809184, 0.814882, 0.811258, 0.811866, 0.814627, 0.81311, 0.808701, 0.81308, 0.818011, 0.821815, 0.815297, 0.816495, 0.81788, 0.814335, 0.813105, 0.820037, 0.820649, 0.816635, 0.821443, 0.811723, 0.811147, 0.809249, 0.808158, 0.811923, 0.808954, 0.821035, 0.805658, 0.803644, 0.801961, 0.811241, 0.805426, 0.820092, 0.810252, 0.811571, 0.809919, 0.809159, 0.805715, 0.806596, 0.811132, 0.810965, 0.81094, 0.809725, 0.800261, 0.807972, 0.807246, 0.80548, 0.815579, 0.814095, 0.801534, 0.805434, 0.804725, 0.804904, 0.807203, 0.807056, 0.806482, 0.807765, 0.807478, 0.809515, 0.814287, 0.816015, 0.809197, 0.809892, 0.808222, 0.808578, 0.810009, 0.811411, 0.814153, 0.809102, 0.816779, 0.831335, 0.810032, 0.812493, 0.822303, 0.835614, 0.81174, 0.810895, 0.810614, 0.810439, 0.828745, 0.783029, 0.790359, 0.785327, 0.806886, 0.804261, 0.807605, 0.797852, 0.798333, 0.807926, 0.825393, 0.848649, 0.848782, 0.854898, 0.855155, 0.917048, 0.917022, 0.916597, 0.973671, 0.984947, 1.01007, 1.01276, 1.0389, 1.03907, 1.05379, 1.0461, 1.04717, 1.12849, 1.13581, 1.13895, 1.13968, 1.14661, 1.09903, 1.04334, 1.00901, 0.995638, 1.00832, 0.958057, 0.95715, 0.886307, 0.871625, 0.864268, 0.86719, 0.82141, 0.81041, 0.799481, 0.794745, 0.787304, 0.787374, 0.787489
0.83091, 0.830437, 0.829564, 0.828785, 0.826004, 0.828021, 0.835562, 0.827801, 0.826204, 0.835499, 0.828826, 0.825496, 0.83306, 0.86442, 0.82981, 0.829483, 0.825344, 0.840103, 0.840547, 0.824001, 0.823485, 0.824689, 0.824192, 0.82183, 0.821618, 0.8219, 0.84551, 0.846377, 0.825607, 0.824812, 0.824777, 0.849673, 1.06535, 1.06614, 0.839296, 1.10332, 1.0902, 1.08234, 1.11184, 1.11098, 1.09518, 1.09802, 0.840467, 0.853125, 0.84563, 0.845494, 0.824142, 0.82493, 0.823351, 0.823505, 0.828336, 0.829467, 0.825033, 0.833, 0.829775, 0.829345, 0.824351, 0.816801, 0.81602, 0.821772, 0.83647, 0.825684, 0.834427, 0.820998, 0.820401, 0.821898, 0.821898, 0.825071, 0.821925, 0.820503, 0.820356, 0.823452, 0.820294, 0.818582, 0.811221, 0.812268, 0.81547, 0.813569, 0.815811, 0.814318, 0.812207, 0.814033, 0.825919, 0.816385, 0.815087, 0.816303, 0.81622, 0.815953, 0.832453, 0.832742, 0.833659, 0.815553, 0.81485, 0.839507, 0.821484, 0.812445, 0.812119, 0.818708, 0.812867, 0.813284, 0.814983, 0.813452, 0.814185, 0.813884, 0.81548, 0.814902, 0.814561, 0.814977, 0.816205, 0.823806, 0.824587, 0.812391, 0.812249, 0.813116, 0.810844, 0.811509, 0.812194, 0.829947, 0.814591, 0.81247, 0.812592, 0.81576, 0.818366, 0.817767, 0.815506, 0.817685, 0.815689, 0.813775, 0.812693, 0.813868, 0.812625, 0.825927, 0.829724, 0.813745, 0.822961, 0.812168, 0.810498, 0.810318, 0.810042, 0.804574, 0.805125, 0.805701, 0.805881, 0.822479, 0.81593, 0.817517, 0.820883, 0.815606, 0.813972, 0.814391, 0.812952, 0.8161, 0.818563, 0.818281, 0.814662, 0.929105, 0.821272, 0.814988, 0.823778, 0.822895, 0.819092, 0.816651, 0.821187, 0.822132, 0.814735, 0.816283, 0.807429, 0.806691, 0.791469, 0.799309, 0.798204, 0.808033, 0.810041, 0.81184, 0.810544, 0.810451, 0.81456, 0.814767, 0.815742, 0.815281, 0.815415, 0.822186, 0.815421, 0.816216, 0.816106, 0.815246, 0.814754, 0.815715, 0.815091, 0.815418, 0.818342, 0.812736, 0.811922, 0.812243, 0.813376, 0.825439, 0.822144, 0.805086, 0.809692, 0.812713, 0.805516, 0.807018, 0.808847, 0.805587, 0.804764, 0.807006, 0.816555, 0.817957, 0.805963, 0.807656, 0.807267, 0.804909, 0.801762, 0.812661, 0.802831, 0.808955, 0.808598, 0.809015, 0.80797, 0.811114, 0.811789, 0.808078, 0.806482, 0.808555, 0.810632, 0.812495, 0.804559, 0.811442, 0.811385, 0.809143, 0.807734, 0.819062, 0.808997, 0.809615, 0.808277, 0.809041, 0.808183, 0.808701, 0.814363, 0.813668, 0.80966, 0.807623, 0.810322, 0.811687, 0.81178, 0.818679, 0.817603, 0.824845, 0.811926, 0.811433, 0.829684, 0.808028, 0.787256, 0.798616, 0.773637, 0.75187, 0.774582, 0.742549, 0.752707, 0.745093, 0.745522, 0.766899, 0.76568, 0.836387, 0.869977, 0.853438, 0.924905, 0.923476, 0.913441, 0.919917, 0.963327, 0.963392, 0.963431, 1.04538, 1.04729, 1.06208, 1.08261, 1.0821, 1.0943, 1.12795, 1.15765, 1.15767, 1.16656, 1.16847, 1.10516, 1.10613, 1.05972, 1.04816, 0.921212, 0.921284, 0.921364, 0.884023, 0.881624, 0.838942, 0.839167, 0.823171, 0.839445, 0.805688, 0.809074, 0.781797, 0.778757, 0.779298
0.828348, 0.840401, 0.830997, 0.831217, 0.831805, 0.823646, 0.828607, 0.827119, 0.828629, 0.826716, 0.828356, 0.832021, 0.82675, 0.826625, 0.825365, 0.85097, 0.824915, 0.824703, 0.824776, 0.824992, 0.829376, 0.829241, 0.824702, 0.824782, 0.826475, 0.825412, 0.824732, 0.822973, 0.824472, 0.822657, 0.822977, 0.849915, 0.824957, 0.82478, 0.823409, 0.825331, 0.831764, 0.830279, 0.829927, 0.839652, 0.848484, 0.849669, 0.838553, 0.850468, 0.866476, 0.823148, 0.82263, 0.824436, 0.822764, 0.820999, 0.821176, 0.821728, 0.821909, 0.818989, 0.840772, 0.819623, 0.818714, 0.819697, 0.820113, 0.82632, 0.824961, 0.82021, 0.828753, 0.820692, 0.821801, 0.821324, 0.821179, 0.821744, 0.853738, 0.820799, 0.821568, 0.820338, 0.820331, 0.820254, 0.814484, 0.813694, 0.814391, 0.82623, 0.816799, 0.815845, 0.81508, 0.817265, 0.819079, 0.821805, 0.831963, 0.814305, 0.814871, 0.814662, 0.835067, 0.812818, 0.825767, 0.82405, 0.818133, 0.815761, 0.813273, 0.825427, 0.812931, 0.812936, 0.852745, 0.814937, 0.814147, 0.813954, 0.826245, 0.815642, 0.815842, 0.817812, 0.815588, 0.814092, 0.814825, 0.814313, 0.811523, 0.809871, 0.809563, 0.810787, 0.812979, 0.813312, 0.811469, 0.811902, 0.826829, 0.813541, 0.812749, 0.81394, 0.812926, 0.812837, 0.812602, 0.814202, 0.814235, 0.813755, 0.81419, 0.813598, 0.813306, 0.812824, 0.813049, 0.812678, 0.811175, 0.822727, 0.820138, 0.811064, 0.808946, 0.80923, 0.814808, 0.808956, 0.819354, 0.816806, 0.811421, 0.813572, 0.813747, 0.814474, 0.815339, 0.825491, 0.812623, 0.849458, 0.828667, 0.828529, 0.926864, 0.930418, 0.933015, 0.936227, 0.937165, 0.948793, 0.951486, 0.936948, 0.828981, 0.812955, 0.810193, 0.810188, 0.818102, 0.808076, 0.813522, 0.810084, 0.808861, 0.810161, 0.811621, 0.817088, 0.818952, 0.821236, 0.823037, 0.814236, 0.814191, 0.828933, 0.814335, 0.814111, 0.813978, 0.815956, 0.815396, 0.81534, 0.816083, 0.816106, 0.815454, 0.8153, 0.812871, 0.812948, 0.810114, 0.818896, 0.822212, 0.810599, 0.80853, 0.808129, 0.80798, 0.806491, 0.80447, 0.805223, 0.805562, 0.805032, 0.81482, 0.805785, 0.814602, 0.822534, 0.80479, 0.807068, 0.80898, 0.801081, 0.803755, 0.804178, 0.803155, 0.803616, 0.804686, 0.818538, 0.80845, 0.806868, 0.804526, 0.80537, 0.824705, 0.806313, 0.806952, 0.80638, 0.806512, 0.805581, 0.815382, 0.804566, 0.806129, 0.807232, 0.80547, 0.810825, 0.810218, 0.821786, 0.82127, 0.808979, 0.808507, 0.80844, 0.809286, 0.810177, 0.809782, 0.814314, 0.812616, 0.811225, 0.811601, 0.812165, 0.825477, 0.798338, 0.797778, 0.802656, 0.802096, 0.778261, 0.779256, 0.779968, 0.750158, 0.769614, 0.74517, 0.747135, 0.755923, 0.756327, 0.808419, 0.856218, 0.858625, 0.873944, 0.866332, 0.883761, 0.884157, 0.918031, 0.913773, 0.930425, 0.931248, 1.06949, 1.06953, 1.17334, 1.12591, 1.15408, 1.14986, 1.15031, 1.26761, 1.26784, 1.26776, 1.2787, 1.29003, 1.13125, 1.10285, 0.966054, 0.966592, 0.969082, 0.904241, 0.902273, 0.891203, 0.839915, 0.826458, 0.82711, 0.798841, 0.790632, 0.79076, 0.777787, 0.790838, 0.786869
0.828925, 0.82522, 0.824062, 0.837238, 0.829015, 0.828991, 0.829518, 0.829558, 0.826256, 0.832462, 0.856725, 0.827769, 0.828165, 0.826903, 0.828299, 0.825394, 0.825258, 0.829316, 0.834886, 0.826799, 0.826946, 0.828507, 0.844927, 0.846928, 0.826052, 0.825162, 0.834191, 0.827973, 0.826718, 0.825689, 0.822296, 0.828058, 0.82718, 0.836427, 0.835193, 0.833074, 0.825358, 0.837359, 0.829606, 0.829986, 0.824755, 0.824922, 0.821488, 0.824548, 0.823193, 0.822787, 0.82143, 0.84273, 0.819835, 0.820929, 0.821543, 0.82555, 0.825333, 0.822907, 0.826433, 0.821607, 0.820844, 0.831352, 0.821555, 0.821419, 0.824744, 0.822647, 0.822348, 0.844459, 0.82229, 0.821271, 0.820224, 0.822158, 0.821657, 0.821574, 0.828204, 0.830572, 0.822439, 0.840489, 0.817873, 0.815879, 0.81453, 0.817392, 0.817714, 0.817876, 0.830446, 0.821432, 0.816433, 0.815854, 0.815012, 0.814455, 0.814382, 0.815505, 0.815477, 0.814836, 0.811809, 0.818904, 0.818372, 0.814102, 0.82089, 0.815996, 0.815815, 0.829418, 0.822202, 0.813853, 0.816084, 0.823052, 0.814263, 0.815014, 0.814688, 0.814283, 0.813988, 0.815281, 0.815813, 0.814411, 0.81715, 0.82897, 0.828691, 0.812193, 0.808857, 0.811517, 0.812511, 0.821772, 0.822199, 0.856027, 0.813341, 0.821161, 0.813835, 0.813234, 0.81418, 0.813961, 0.838083, 0.837942, 0.813076, 0.813758, 0.82936, 0.817202, 0.815034, 0.812872, 0.81251, 0.809599, 0.811053, 0.811838, 0.815294, 0.809886, 0.811073, 0.811604, 0.813284, 0.815704, 0.816054, 0.813635, 0.811754, 0.813335, 0.813477, 0.8365, 0.837375, 0.829147, 0.828997, 0.826949, 0.975161, 0.932253, 0.93034, 0.929665, 0.93874, 0.950427, 0.937195, 0.937166, 0.826403, 0.839719, 0.815236, 0.815439, 0.815769, 0.816436, 0.811669, 0.812888, 0.81142, 0.810406, 0.810018, 0.817606, 0.825649, 0.815904, 0.816068, 0.812488, 0.822, 0.814128, 0.814866, 0.814581, 0.839719, 0.816066, 0.820208, 0.815425, 0.814788, 0.814916, 0.814556, 0.813167, 0.811561, 0.853863, 0.835466, 0.82147, 0.81202, 0.81186, 0.818668, 0.811487, 0.808786, 0.807433, 0.805321, 0.810975, 0.80856, 0.806979, 0.805753, 0.803997, 0.804266, 0.805842, 0.800714, 0.81548, 0.808682, 0.807302, 0.806796, 0.812615, 0.812775, 0.808526, 0.803179, 0.803422, 0.80533, 0.808472, 0.809682, 0.808008, 0.814495, 0.813395, 0.804728, 0.809188, 0.806494, 0.806887, 0.809167, 0.806204, 0.813323, 0.806186, 0.806583, 0.807353, 0.810475, 0.808343, 0.808979, 0.808817, 0.809101, 0.808227, 0.807395, 0.81496, 0.814267, 0.826879, 0.828995, 0.82797, 0.822377, 0.806847, 0.806339, 0.820394, 0.818401, 0.815021, 0.79815, 0.771138, 0.771178, 0.766298, 0.766863, 0.766038, 0.756456, 0.750373, 0.761165, 0.761707, 0.800497, 0.811312, 0.870177, 0.862204, 0.862096, 0.886487, 0.877457, 0.896855, 0.918935, 0.94719, 0.940776, 1.01717, 1.11318, 1.11267, 1.16399, 1.16371, 1.17379, 1.19071, 1.18855, 1.28833, 1.29448, 1.29574, 1.30959, 1.20017, 1.18148, 1.18189, 0.973584, 0.956834, 0.929145, 0.928631, 0.847814, 0.848809, 0.850197, 0.800915, 0.807938, 0.808547, 0.805172, 0.793614, 0.776897, 0.777879
0.825298, 0.827188, 0.82804, 0.824838, 0.827272, 0.829134, 0.826215, 0.8255, 0.829039, 0.829769, 0.829882, 0.828547, 0.833145, 0.832074, 0.83471, 0.826226, 0.829168, 0.828365, 0.830019, 0.827535, 0.827449, 0.827882, 0.846541, 0.834954, 0.825727, 0.826304, 0.840665, 0.82585, 0.825622, 0.829141, 0.823292, 0.836661, 0.825317, 0.825402, 0.825129, 0.824623, 0.824251, 0.823909, 0.823329, 0.822198, 0.82223, 0.822946, 0.82585, 0.8201, 0.819631, 0.832851, 0.832149, 0.838889, 0.822963, 0.842461, 0.82571, 0.825013, 0.825729, 0.819766, 0.819357, 0.825152, 0.823478, 0.821931, 0.821191, 0.822529, 0.822177, 0.822289, 0.822202, 0.822419, 0.822675, 0.821472, 0.821034, 0.821295, 0.822332, 0.831883, 0.822, 0.836596, 0.825415, 0.82648, 0.824755, 0.823589, 0.821884, 0.821988, 0.821626, 0.8197, 0.81999, 0.818972, 0.838575, 0.817949, 0.818628, 0.818354, 0.818502, 0.830772, 0.829607, 0.818401, 0.817811, 0.859674, 0.814719, 0.825901, 0.814966, 0.816688, 0.816938, 0.816417, 0.815256, 0.815095, 0.815162, 0.816339, 0.813538, 0.814529, 0.815602, 0.821795, 0.818066, 0.813953, 0.813993, 0.814281, 0.79897, 0.800903, 0.82587, 0.814856, 0.81578, 0.804647, 0.820205, 0.837216, 0.83686, 0.814496, 0.814285, 0.814078, 0.814471, 0.814499, 0.813375, 0.814405, 0.83241, 0.832266, 0.829068, 0.814532, 0.832783, 0.825994, 0.813856, 0.815027, 0.814421, 0.812401, 0.811954, 0.824905, 0.813222, 0.819357, 0.81779, 0.815528, 0.815316, 0.815373, 0.813612, 0.815129, 0.817711, 0.817459, 0.814899, 0.81449, 0.812602, 0.812425, 0.812423, 0.812439, 0.81792, 0.816191, 0.828214, 0.824924, 0.977712, 0.822864, 0.812152, 0.812425, 0.812371, 0.812499, 0.812098, 0.814592, 0.81064, 0.816099, 0.809986, 0.81593, 0.815714, 0.81643, 0.816845, 0.816519, 0.814518, 0.814959, 0.816148, 0.814725, 0.814045, 0.817751, 0.818676, 0.812808, 0.81397, 0.814606, 0.815716, 0.814022, 0.813553, 0.826584, 0.812365, 0.835726, 0.812619, 0.812943, 0.812888, 0.813835, 0.814523, 0.815828, 0.81316, 0.810044, 0.818569, 0.820852, 0.80656, 0.806705, 0.806182, 0.811675, 0.81187, 0.806242, 0.809175, 0.809662, 0.810757, 0.80614, 0.813379, 0.817696, 0.803997, 0.8024, 0.799414, 0.810132, 0.809725, 0.804987, 0.806025, 0.807657, 0.81037, 0.818986, 0.80762, 0.806382, 0.805809, 0.808188, 0.809063, 0.805629, 0.821506, 0.80939, 0.820221, 0.808052, 0.81452, 0.814451, 0.814452, 0.814937, 0.8144, 0.812532, 0.809219, 0.8086, 0.815431, 0.817307, 0.810847, 0.809724, 0.815158, 0.816023, 0.815583, 0.809876, 0.820968, 0.80169, 0.797757, 0.814798, 0.800474, 0.792146, 0.788089, 0.786646, 0.798405, 0.776652, 0.751305, 0.751649, 0.755485, 0.755491, 0.770318, 0.771537, 0.821248, 0.821233, 0.87937, 0.878952, 0.84551, 0.827829, 0.828209, 0.838407, 0.977137, 0.872892, 0.871847, 0.870226, 1.18176, 1.21546, 1.23357, 1.21112, 1.21165, 1.22656, 1.29966, 1.30879, 1.30935, 1.22289, 1.22278, 1.22322, 0.954585, 0.954639, 0.913092, 0.921025, 0.895139, 0.860307, 0.859942, 0.852829, 0.803125, 0.8017, 0.791113, 0.781137, 0.7804, 0.780444
0.827095, 0.825876, 0.819245, 0.820521, 0.83615, 0.835622, 0.823499, 0.826291, 0.827259, 0.827172, 0.83015, 0.829617, 0.846054, 0.83754, 0.837338, 0.840471, 0.829043, 0.829467, 0.829217, 0.828436, 0.842604, 0.834796, 0.836717, 0.831472, 0.832704, 0.825044, 0.825031, 0.824656, 0.824159, 0.824204, 0.823062, 0.823325, 0.824694, 0.822773, 0.821621, 0.826095, 0.820277, 0.825036, 0.82522, 0.826556, 0.82741, 0.825567, 0.808931, 0.829257, 0.820769, 0.821167, 0.823036, 0.823398, 0.823184, 0.824626, 0.846963, 0.815139, 0.816163, 0.822378, 0.822736, 0.82267, 0.824959, 0.823483, 0.824661, 0.824515, 0.839951, 0.826154, 0.822262, 0.822604, 0.835853, 0.826283, 0.820345, 0.82036, 0.835863, 0.833637, 0.844008, 0.818101, 0.825787, 0.827899, 0.827913, 0.823168, 0.821614, 0.819971, 0.821318, 0.82283, 0.822405, 0.821009, 0.830591, 0.818639, 0.818968, 0.818532, 0.818939, 0.829045, 0.817709, 0.817026, 0.817142, 0.818645, 0.822143, 0.823872, 0.824943, 0.816919, 0.815028, 0.816046, 0.816165, 0.815512, 0.815891, 0.817611, 0.815126, 0.816917, 0.815157, 0.821811, 0.81561, 0.815046, 0.812715, 0.811729, 0.812627, 0.806006, 0.819018, 0.809149, 0.808749, 0.815527, 0.815851, 0.836065, 0.836454, 0.840187, 0.830882, 0.816388, 0.815821, 0.814143, 0.810354, 0.807617, 0.826253, 0.818029, 0.812384, 0.814422, 0.825486, 0.814555, 0.814669, 0.813943, 0.814374, 0.815929, 0.811827, 0.808047, 0.812612, 0.812091, 0.812256, 0.813966, 0.813582, 0.814266, 0.814684, 0.813006, 0.812329, 0.820137, 0.823911, 0.813964, 0.830674, 0.818811, 0.817701, 0.813986, 0.81513, 0.809589, 0.813503, 0.815115, 0.813947, 0.813207, 0.825099, 0.817841, 0.817581, 0.818162, 0.816044, 0.818981, 0.810538, 0.809151, 0.817762, 0.812012, 0.811546, 0.812314, 0.811526, 0.814004, 0.813993, 0.812833, 0.812299, 0.836131, 0.811225, 0.811331, 0.8146, 0.813189, 0.818336, 0.813949, 0.813688, 0.828703, 0.813277, 0.81383, 0.81321, 0.811214, 0.812007, 0.812458, 0.812339, 0.811405, 0.810129, 0.808654, 0.817318, 0.816301, 0.808935, 0.80856, 0.807358, 0.805732, 0.813544, 0.805113, 0.809206, 0.807714, 0.811687, 0.81028, 0.810187, 0.806195, 0.810055, 0.811852, 0.810658, 0.808924, 0.808923, 0.808733, 0.80823, 0.811068, 0.812361, 0.812199, 0.811742, 0.818685, 0.810765, 0.810363, 0.810449, 0.808188, 0.808384, 0.811138, 0.812874, 0.816521, 0.817129, 0.816058, 0.825475, 0.822484, 0.824588, 0.82361, 0.823802, 0.819904, 0.82903, 0.814696, 0.814332, 0.814125, 0.814252, 0.812907, 0.810712, 0.808466, 0.804507, 0.804319, 0.80311, 0.814689, 0.801507, 0.801118, 0.795575, 0.79353, 0.780456, 0.78168, 0.766488, 0.753093, 0.773402, 0.756097, 0.756521, 0.758959, 0.763337, 0.763269, 0.772748, 0.809918, 0.798511, 0.796499, 0.794739, 0.819057, 0.822413, 0.822559, 0.863046, 0.873233, 0.860608, 0.860259, 0.859838, 0.859248, 1.20837, 1.21683, 1.21671, 1.22572, 1.23687, 1.29766, 1.29867, 1.26635, 1.25302, 0.978903, 0.97846, 0.9627, 0.932498, 0.900427, 0.900762, 0.870743, 0.82442, 0.857114, 0.816003, 0.806663, 0.822187, 0.805424, 0.787809, 0.799082
0.8285, 0.839629, 0.822669, 0.823143, 0.825528, 0.825858, 0.828484, 0.825529, 0.833635, 0.826412, 0.847313, 0.838991, 0.840537, 0.838932, 0.830231, 0.8313, 0.830894, 0.831068, 0.830827, 0.862216, 0.850062, 0.849424, 0.829035, 0.830022, 0.832893, 0.825184, 0.826133, 0.82893, 0.828081, 0.828258, 0.82499, 0.823259, 0.821931, 0.822121, 0.830338, 0.828398, 0.816852, 0.821137, 0.822519, 0.821488, 0.817795, 0.81954, 0.819615, 0.818524, 0.817346, 0.817292, 0.873022, 0.852433, 0.852301, 0.822122, 0.822771, 0.822616, 0.820937, 0.820913, 0.821082, 0.82209, 0.823003, 0.823312, 0.823301, 0.823078, 0.822883, 0.824736, 0.824247, 0.824353, 0.824824, 0.823243, 0.821889, 0.821584, 0.824661, 0.823748, 0.823426, 0.840176, 0.848022, 0.839922, 0.821532, 0.835274, 0.834697, 0.833076, 0.832978, 0.821116, 0.820256, 0.821406, 0.819898, 0.822087, 0.819695, 0.819481, 0.818033, 0.818204, 0.818546, 0.818036, 0.817946, 0.818478, 0.818428, 0.817958, 0.830627, 0.826723, 0.816664, 0.815669, 0.816058, 0.816593, 0.818613, 0.819026, 0.81464, 0.823284, 0.816752, 0.831203, 0.811592, 0.817421, 0.81859, 0.811702, 0.812193, 0.814974, 0.818472, 0.811601, 0.818779, 0.825427, 0.836079, 0.817721, 0.814386, 0.81466, 0.818548, 0.819759, 0.809756, 0.816421, 0.816539, 0.815979, 0.818891, 0.815216, 0.815417, 0.814292, 0.814044, 0.812899, 0.813814, 0.814324, 0.814626, 0.813571, 0.813831, 0.818456, 0.818022, 0.811393, 0.811929, 0.812757, 0.811036, 0.812024, 0.836621, 0.812321, 0.816105, 0.823021, 0.822536, 0.823027, 0.814443, 0.813929, 0.811837, 0.811153, 0.819, 0.812931, 0.813316, 0.813498, 0.81782, 0.819568, 0.822278, 0.814095, 0.811959, 0.811809, 0.811708, 0.811461, 0.810544, 0.81093, 0.81918, 0.821428, 0.809531, 0.814604, 0.817566, 0.813433, 0.822007, 0.8208, 0.814333, 0.813015, 0.812941, 0.814148, 0.811605, 0.814102, 0.813706, 0.80669, 0.81187, 0.812224, 0.812057, 0.812269, 0.812512, 0.81243, 0.811951, 0.81198, 0.810933, 0.814247, 0.80876, 0.810862, 0.818591, 0.817888, 0.808915, 0.811134, 0.806055, 0.818462, 0.81123, 0.825492, 0.816199, 0.815606, 0.807705, 0.80871, 0.809348, 0.807151, 0.807586, 0.808207, 0.809058, 0.811208, 0.814146, 0.811037, 0.829512, 0.810191, 0.811343, 0.821898, 0.809632, 0.82601, 0.81231, 0.812557, 0.811297, 0.81068, 0.81676, 0.823448, 0.826568, 0.828858, 0.821826, 0.8226, 0.82078, 0.874096, 0.827904, 0.818959, 0.823079, 0.821293, 0.820674, 0.811518, 0.82127, 0.812238, 0.813447, 0.805586, 0.814767, 0.82904, 0.803033, 0.804259, 0.79835, 0.798065, 0.807529, 0.797957, 0.818496, 0.80121, 0.783754, 0.783819, 0.773583, 0.773344, 0.758383, 0.747503, 0.755577, 0.767568, 0.771509, 0.771203, 0.755024, 0.765003, 0.784138, 0.798553, 0.798071, 0.805037, 0.79217, 0.792332, 0.812227, 0.811756, 0.870763, 0.863911, 0.847926, 0.853251, 0.853947, 0.858159, 1.2723, 1.28656, 1.2871, 1.25084, 1.25053, 1.27184, 0.999148, 0.961193, 0.96084, 0.915582, 0.914864, 0.925095, 0.845886, 0.837735, 0.824507, 0.814434, 0.833176, 0.802956, 0.803782, 0.803851, 0.792506, 0.792722
0.829604, 0.825457, 0.82623, 0.829181, 0.828766, 0.823914, 0.826192, 0.837301, 0.836173, 0.827742, 0.836299, 0.836013, 0.834951, 0.832712, 0.829646, 0.828665, 0.829194, 0.829224, 0.828753, 0.835245, 0.847087, 0.836212, 0.829771, 0.82767, 0.828396, 0.82744, 0.826742, 0.828013, 0.828543, 0.825019, 0.824453, 0.822202, 0.820873, 0.820455, 0.819397, 0.817132, 0.816848, 0.820907, 0.819144, 0.8176, 0.815571, 0.8156, 0.828873, 0.828074, 0.827628, 0.816062, 0.820677, 0.821314, 0.821648, 0.82095, 0.820504, 0.822122, 0.823002, 0.822407, 0.8458, 0.82372, 0.836018, 0.821959, 0.822885, 0.832042, 0.83624, 0.82564, 0.823735, 0.82325, 0.822762, 0.823814, 0.829173, 0.822679, 0.823718, 0.826073, 0.823228, 0.823888, 0.824886, 0.823891, 0.95067, 0.977494, 0.951916, 0.951881, 0.951803, 0.958804, 0.82264, 0.822352, 0.822477, 0.823233, 0.824585, 0.850372, 0.820327, 0.819583, 0.818973, 0.828237, 0.817503, 0.817937, 0.817671, 0.824809, 0.819405, 0.820593, 0.819734, 0.818922, 0.818992, 0.818338, 0.81798, 0.818598, 0.817405, 0.816333, 0.815888, 0.81244, 0.811534, 0.818761, 0.809976, 0.810255, 0.824612, 0.809059, 0.810905, 0.812567, 0.813523, 0.81432, 0.81511, 0.811447, 0.811185, 0.810751, 0.80967, 0.815428, 0.815336, 0.814774, 0.811496, 0.815288, 0.815607, 0.824418, 0.81576, 0.822649, 0.814465, 0.81434, 0.814272, 0.826984, 0.827043, 0.814708, 0.814949, 0.802278, 0.821958, 0.842159, 0.812366, 0.811173, 0.808706, 0.831736, 0.818661, 0.817687, 0.829899, 0.81527, 0.814593, 0.832104, 0.814455, 0.825975, 0.817994, 0.815135, 0.81492, 0.814514, 0.814098, 0.822712, 0.832606, 0.813353, 0.815985, 0.815748, 0.822932, 0.813846, 0.80906, 0.811207, 0.809514, 0.808388, 0.808691, 0.80819, 0.815319, 0.815395, 0.811873, 0.813612, 0.814649, 0.809441, 0.810238, 0.817539, 0.810631, 0.807792, 0.805265, 0.805261, 0.814021, 0.813344, 0.81537, 0.817178, 0.816043, 0.81387, 0.814786, 0.814276, 0.816248, 0.811103, 0.81089, 0.811494, 0.822915, 0.812211, 0.812555, 0.813106, 0.816761, 0.814751, 0.811974, 0.823245, 0.810268, 0.809581, 0.808582, 0.807756, 0.821657, 0.815416, 0.815015, 0.811507, 0.817801, 0.813594, 0.825448, 0.818256, 0.817463, 0.81445, 0.814183, 0.8365, 0.818324, 0.821586, 0.822348, 0.812029, 0.813202, 0.81413, 0.813457, 0.813367, 0.81872, 0.81956, 0.825759, 0.826723, 0.820313, 0.823287, 0.821862, 0.833754, 0.810062, 0.809998, 0.81161, 0.811474, 0.812636, 0.809164, 0.806238, 0.805091, 0.806326, 0.804429, 0.808187, 0.801147, 0.804332, 0.805555, 0.804907, 0.800895, 0.79983, 0.799646, 0.796302, 0.803392, 0.78386, 0.773912, 0.772752, 0.792595, 0.764844, 0.777869, 0.768008, 0.767946, 0.766454, 0.766321, 0.746254, 0.75251, 0.769865, 0.791346, 0.791085, 0.787331, 0.787886, 0.789391, 0.789382, 0.789742, 0.838573, 0.874424, 0.865301, 0.84343, 0.844107, 0.860501, 1.21428, 1.21432, 1.21977, 1.23756, 1.23383, 1.23313, 0.963351, 0.945667, 0.954958, 0.942848, 0.936311, 0.920344, 0.850459, 0.84672, 0.824743, 0.823418, 0.831703, 0.814448, 0.798132, 0.799073, 0.800909, 0.801554
0.826071, 0.813226, 0.822962, 0.824356, 0.823844, 0.828004, 0.828324, 0.828598, 0.836906, 0.830115, 0.829962, 0.832146, 0.834843, 0.832285, 0.829801, 0.830344, 0.830888, 0.834095, 0.836489, 0.83897, 0.830882, 0.83989, 0.839082, 0.837824, 0.835159, 0.833135, 0.826569, 0.840157, 0.828377, 0.826836, 0.821783, 0.829965, 0.8225, 0.825363, 0.825662, 0.829079, 0.813358, 0.818833, 0.817643, 0.813509, 0.8206, 0.81996, 0.815148, 0.818024, 0.816942, 0.816521, 0.81588, 0.819353, 0.81927, 0.819222, 0.818525, 0.825365, 0.82388, 0.824387, 0.843749, 0.845198, 0.822392, 0.823057, 0.822558, 0.823122, 0.821361, 0.822068, 0.830377, 0.829119, 0.821428, 0.829654, 0.832583, 0.823638, 0.822169, 0.840167, 0.838946, 0.832925, 0.846675, 0.846878, 0.9591, 0.960374, 0.973964, 0.956458, 0.955816, 0.956012, 0.980932, 0.830525, 0.841874, 0.831786, 0.853864, 0.820746, 0.820425, 0.846675, 0.819408, 0.820088, 0.819884, 0.819439, 0.818506, 0.817743, 0.817637, 0.818335, 0.829904, 0.81732, 0.817548, 0.82857, 0.815778, 0.824564, 0.816351, 0.8148, 0.812886, 0.81141, 0.811605, 0.808427, 0.809071, 0.808766, 0.810114, 0.814747, 0.815344, 0.819375, 0.819305, 0.812513, 0.832045, 0.809813, 0.808866, 0.814678, 0.821119, 0.814489, 0.809873, 0.809231, 0.821136, 0.820589, 0.829182, 0.83079, 0.816295, 0.822639, 0.764992, 0.781373, 0.780193, 0.820683, 0.830462, 0.822211, 0.828389, 0.826412, 0.817836, 0.816465, 0.821356, 0.821004, 0.810834, 0.811599, 0.824535, 0.824698, 0.814205, 0.818023, 0.818358, 0.828045, 0.827923, 0.814521, 0.815245, 0.815476, 0.815614, 0.815988, 0.815708, 0.815937, 0.814962, 0.811859, 0.814524, 0.816627, 0.817888, 0.810469, 0.82314, 0.813637, 0.810572, 0.810677, 0.812491, 0.806592, 0.80563, 0.819681, 0.822378, 0.820261, 0.815727, 0.815221, 0.812365, 0.811073, 0.812261, 0.814984, 0.812987, 0.81499, 0.82617, 0.811829, 0.810169, 0.809865, 0.816475, 0.816015, 0.812341, 0.814177, 0.811507, 0.811853, 0.813744, 0.817889, 0.81793, 0.811001, 0.811608, 0.813376, 0.811629, 0.818929, 0.81528, 0.840017, 0.814457, 0.815304, 0.813531, 0.813038, 0.811821, 0.813328, 0.810923, 0.821258, 0.813288, 0.818398, 0.818253, 0.827561, 0.828275, 0.821951, 0.821865, 0.821707, 0.822277, 0.823669, 0.82279, 0.822832, 0.823722, 0.817862, 0.818026, 0.81608, 0.814804, 0.832339, 0.821941, 0.822723, 0.819717, 0.821776, 0.812369, 0.812453, 0.814139, 0.809253, 0.814279, 0.815528, 0.818671, 0.818618, 0.818001, 0.811427, 0.811031, 0.802764, 0.803074, 0.807169, 0.815907, 0.814218, 0.809213, 0.807802, 0.807119, 0.801437, 0.810379, 0.797722, 0.784781, 0.770353, 0.770008, 0.763775, 0.762881, 0.757374, 0.753193, 0.756076, 0.757661, 0.755341, 0.746862, 0.770059, 0.772005, 0.771238, 0.792229, 0.7723, 0.794045, 0.792513, 0.790862, 0.78984, 0.828389, 0.82844, 0.871554, 0.843509, 1.25388, 1.20371, 1.20537, 1.19852, 1.19031, 1.19905, 1.19682, 1.19597, 0.969598, 0.967482, 0.951733, 0.95202, 0.862847, 0.86432, 0.840293, 0.845531, 0.840301, 0.836821, 0.823384, 0.82136, 0.814186, 0.801505, 0.789817, 0.787428
0.825789, 0.824606, 0.841438, 0.828891, 0.831682, 0.829338, 0.830429, 0.83165, 0.828961, 0.825236, 0.843427, 0.836962, 0.829509, 0.837388, 0.835845, 0.834833, 0.829813, 0.829224, 0.830323, 0.843655, 0.843013, 0.841991, 0.832563, 0.829591, 0.829682, 0.829262, 0.82388, 0.822013, 0.820256, 0.820276, 0.824215, 0.822588, 0.818157, 0.818166, 0.818332, 0.816291, 0.820143, 0.814434, 0.815273, 0.815711, 0.81364, 0.813544, 0.813404, 0.815248, 0.815655, 0.816621, 0.816875, 0.818388, 0.822717, 0.822238, 0.828179, 0.819772, 0.821434, 0.825555, 0.830904, 0.828718, 0.822871, 0.8232, 0.821493, 0.82115, 0.821489, 0.82271, 0.821298, 0.819508, 0.849121, 0.819538, 0.821023, 0.823256, 0.822046, 0.821931, 0.823281, 0.82408, 0.824, 0.822995, 0.822354, 0.823856, 0.825433, 0.843508, 0.844862, 0.823038, 0.845424, 0.837291, 0.822833, 0.82384, 0.821099, 0.820669, 0.820403, 0.83298, 0.850548, 0.820398, 0.819767, 0.81947, 0.820518, 0.81908, 0.815868, 0.821162, 0.821963, 0.833301, 0.813787, 0.811715, 0.813071, 0.818008, 0.812019, 0.811557, 0.815301, 0.809209, 0.808029, 0.812409, 0.818304, 0.809211, 0.810174, 0.813095, 0.812762, 0.812077, 0.814234, 0.811466, 0.811703, 0.812708, 0.814134, 0.819326, 0.817644, 0.82097, 0.811188, 0.822658, 0.82599, 0.838679, 0.818725, 0.816438, 0.815256, 0.819961, 0.752874, 0.753844, 0.754302, 0.787213, 0.788809, 0.787774, 0.790804, 0.827792, 0.826056, 0.818441, 0.817866, 0.818234, 0.8261, 0.808773, 0.815861, 0.811744, 0.812497, 0.809766, 0.821476, 0.810558, 0.811706, 0.812759, 0.81362, 0.814379, 0.822377, 0.814908, 0.814728, 0.826556, 0.812795, 0.81188, 0.814862, 0.813175, 0.814719, 0.817376, 0.815792, 0.811278, 0.825082, 0.806912, 0.816789, 0.81546, 0.812595, 0.811684, 0.812291, 0.811761, 0.812615, 0.813919, 0.814642, 0.818478, 0.808435, 0.808497, 0.809811, 0.810922, 0.810594, 0.809905, 0.809788, 0.786529, 0.785499, 0.818752, 0.811477, 0.811871, 0.812606, 0.820709, 0.819133, 0.819562, 0.812843, 0.811944, 0.811421, 0.810184, 0.83314, 0.828303, 0.814439, 0.819606, 0.819094, 0.822075, 0.829165, 0.818701, 0.817644, 0.818055, 0.811191, 0.812444, 0.812805, 0.815679, 0.824967, 0.813986, 0.829959, 0.828449, 0.826252, 0.821748, 0.818778, 0.820923, 0.821838, 0.818007, 0.827348, 0.82713, 0.825075, 0.820894, 0.81952, 0.823333, 0.825119, 0.818797, 0.819831, 0.829789, 0.812155, 0.811369, 0.828574, 0.815339, 0.812472, 0.812627, 0.815795, 0.812524, 0.812077, 0.809668, 0.8182, 0.805953, 0.805099, 0.805283, 0.80114, 0.801439, 0.801815, 0.807482, 0.805917, 0.805202, 0.794192, 0.794939, 0.787707, 0.788411, 0.766172, 0.756771, 0.758444, 0.756497, 0.755952, 0.76751, 0.756634, 0.747568, 0.747843, 0.756799, 0.767643, 0.767869, 0.757328, 0.763519, 0.762563, 0.789812, 0.776238, 0.811782, 0.802883, 0.803248, 0.794493, 0.843329, 0.843359, 1.21765, 1.19421, 1.19493, 1.18579, 1.19206, 1.17788, 1.2026, 1.01982, 0.98932, 0.989877, 0.93883, 0.862682, 0.861756, 0.842411, 0.825761, 0.825039, 0.825541, 0.837248, 0.800584, 0.830425, 0.792723, 0.805628, 0.776842
0.826596, 0.826258, 0.826455, 0.811574, 0.829183, 0.811791, 0.836012, 0.842734, 0.825944, 0.828167, 0.833337, 0.833827, 0.833704, 0.833233, 0.829072, 0.832583, 0.830907, 0.831217, 0.831312, 0.845918, 0.845318, 0.845538, 0.84574, 0.835997, 0.834648, 0.826754, 0.825759, 0.818775, 0.818763, 0.81868, 0.81975, 0.82193, 0.820813, 0.817189, 0.818362, 0.817836, 0.816402, 0.816218, 0.815806, 0.819874, 0.813182, 0.818743, 0.812753, 0.812645, 0.816221, 0.818002, 0.819693, 0.820048, 0.822931, 0.821088, 0.820953, 0.834844, 0.833194, 0.82297, 0.841655, 0.822069, 0.822533, 0.821807, 0.82146, 0.821726, 0.827745, 0.838756, 0.839385, 0.829567, 0.822774, 0.821418, 0.821288, 0.824542, 0.823135, 0.837821, 0.838201, 0.825232, 0.82424, 0.823797, 0.823713, 0.82406, 0.824374, 0.82421, 0.824919, 0.823457, 0.822522, 0.822351, 0.822443, 0.821434, 0.822416, 0.82262, 0.822888, 0.82157, 0.821338, 0.821427, 0.822399, 0.822578, 0.821454, 0.82116, 0.815546, 0.814377, 0.813023, 0.813062, 0.813156, 0.812099, 0.811866, 0.818687, 0.812206, 0.815888, 0.81768, 0.817947, 0.819632, 0.821331, 0.815041, 0.815953, 0.826268, 0.811444, 0.813408, 0.813305, 0.826588, 0.817978, 0.821796, 0.813522, 0.814108, 0.819295, 0.815973, 0.815742, 0.81655, 0.81631, 0.817806, 0.817288, 0.822376, 0.821266, 0.825251, 0.820111, 0.81969, 0.819402, 0.749007, 0.748986, 0.831499, 0.831907, 0.820809, 0.818173, 0.824853, 0.821385, 0.839553, 0.838922, 0.828948, 0.822546, 0.81144, 0.812235, 0.818254, 0.814831, 0.813184, 0.812544, 0.812119, 0.813812, 0.813401, 0.818609, 0.811696, 0.817406, 0.817296, 0.814585, 0.813156, 0.813377, 0.814013, 0.814307, 0.81431, 0.81719, 0.816039, 0.813608, 0.812554, 0.812361, 0.81222, 0.819824, 0.818174, 0.821506, 0.81169, 0.811516, 0.811597, 0.812296, 0.811945, 0.814512, 0.814476, 0.815515, 0.808995, 0.807775, 0.825779, 0.812128, 0.813665, 0.793296, 0.815751, 0.806019, 0.82615, 0.808783, 0.808065, 0.829905, 0.814206, 0.809053, 0.809225, 0.825577, 0.818833, 0.817545, 0.816255, 0.815937, 0.82154, 0.825791, 0.827869, 0.829332, 0.833226, 0.821344, 0.829471, 0.82319, 0.81632, 0.824235, 0.823381, 0.816427, 0.818149, 0.820561, 0.821796, 0.822451, 0.817915, 0.819043, 0.818537, 0.81824, 0.820411, 0.82223, 0.820337, 0.821291, 0.825907, 0.825973, 0.819812, 0.819268, 0.819812, 0.819244, 0.822609, 0.822665, 0.815258, 0.816136, 0.815197, 0.82876, 0.824415, 0.807493, 0.807112, 0.825138, 0.808746, 0.808188, 0.808295, 0.802173, 0.806686, 0.805629, 0.802546, 0.805048, 0.800754, 0.799211, 0.805128, 0.823635, 0.801555, 0.783734, 0.783599, 0.784325, 0.777529, 0.777147, 0.758066, 0.758071, 0.762552, 0.761522, 0.76366, 0.762758, 0.761983, 0.762582, 0.764181, 0.753925, 0.758361, 0.765025, 0.765391, 0.767473, 0.768028, 0.777554, 0.792094, 0.789579, 0.78911, 0.83369, 0.851735, 1.29189, 1.20589, 1.20488, 1.205, 1.23232, 1.22991, 1.23072, 1.06146, 1.06433, 0.920433, 0.922718, 0.842552, 0.852568, 0.824441, 0.821661, 0.819757, 0.806648, 0.807258, 0.832831, 0.821961, 0.798679, 0.804106, 0.786846
0.834067, 0.839426, 0.832566, 0.8361, 0.829115, 0.830712, 0.842899, 0.842608, 0.829549, 0.831252, 0.830852, 0.836959, 0.832213, 0.832909, 0.834154, 0.833938, 0.826959, 0.836368, 0.833531, 0.832378, 0.835135, 0.837381, 0.836717, 0.828174, 0.82999, 0.822503, 0.821764, 0.819996, 0.820342, 0.822293, 0.826114, 0.818388, 0.816453, 0.816429, 0.814995, 0.81492, 0.822257, 0.823338, 0.814741, 0.814666, 0.814284, 0.817935, 0.815004, 0.815645, 0.815388, 0.814969, 0.815428, 0.82228, 0.821206, 0.818247, 0.818994, 0.833437, 0.834656, 0.825719, 0.823418, 0.823527, 0.822002, 0.821897, 0.82222, 0.821556, 0.822339, 0.821375, 0.843574, 0.820988, 0.821442, 0.822764, 0.823264, 0.824621, 0.824014, 0.82421, 0.824889, 0.824115, 0.82364, 0.825512, 0.837339, 0.825635, 0.822354, 0.821967, 0.826324, 0.825749, 0.825476, 0.823255, 0.823926, 0.822735, 0.822229, 0.822366, 0.822164, 0.822774, 0.850254, 0.821975, 0.821382, 0.82857, 0.818278, 0.825265, 0.815933, 0.815318, 0.81222, 0.812486, 0.8189, 0.814821, 0.813184, 0.812185, 0.812782, 0.823469, 0.814913, 0.816776, 0.821087, 0.828801, 0.825428, 0.81545, 0.824837, 0.824848, 0.817047, 0.821502, 0.82179, 0.815558, 0.814833, 0.815918, 0.818773, 0.818265, 0.817971, 0.819122, 0.816989, 0.816352, 0.82198, 0.825086, 0.818894, 0.826034, 0.826084, 0.826259, 0.819136, 0.826459, 0.826461, 0.827769, 0.821694, 0.822956, 0.825418, 0.823972, 0.821465, 0.816235, 0.821108, 0.818683, 0.817505, 0.827132, 0.813389, 0.812075, 0.811915, 0.81342, 0.813436, 0.813661, 0.820444, 0.821742, 0.819979, 0.818754, 0.811104, 0.817436, 0.815802, 0.814838, 0.826152, 0.819139, 0.815918, 0.816428, 0.816198, 0.815493, 0.816052, 0.816224, 0.841375, 0.829111, 0.815726, 0.817219, 0.815193, 0.814293, 0.818742, 0.81218, 0.81451, 0.813786, 0.822138, 0.819254, 0.809824, 0.80957, 0.810863, 0.81476, 0.804713, 0.80221, 0.802282, 0.818073, 0.817806, 0.816665, 0.812542, 0.814882, 0.816823, 0.819789, 0.819882, 0.819001, 0.819057, 0.818687, 0.827727, 0.822629, 0.822917, 0.821284, 0.820807, 0.825901, 0.824615, 0.834077, 0.857046, 0.835687, 0.825083, 0.823804, 0.823851, 0.835643, 0.817808, 0.817845, 0.821655, 0.821155, 0.824598, 0.824148, 0.832177, 0.823783, 0.82314, 0.820079, 0.818269, 0.825977, 0.825663, 0.816785, 0.84953, 0.825711, 0.814143, 0.825904, 0.817901, 0.817698, 0.817725, 0.818873, 0.820838, 0.820753, 0.832017, 0.83238, 0.83181, 0.8182, 0.818654, 0.814755, 0.815748, 0.803279, 0.809054, 0.801869, 0.807555, 0.804186, 0.80291, 0.80172, 0.807399, 0.802974, 0.797701, 0.798674, 0.800274, 0.795414, 0.780902, 0.781211, 0.782862, 0.766641, 0.770813, 0.756494, 0.758605, 0.757634, 0.769867, 0.771674, 0.780669, 0.780661, 0.759134, 0.789594, 0.766253, 0.764498, 0.764763, 0.789137, 0.771179, 0.773134, 0.77296, 0.77291, 0.812873, 0.812195, 0.831974, 0.867124, 1.29094, 1.32571, 1.3103, 1.30676, 1.35068, 1.32016, 1.08508, 1.08577, 1.0779, 0.860544, 0.861005, 0.860669, 0.819053, 0.817812, 0.818407, 0.819409, 0.804463, 0.821657, 0.810776, 0.805187, 0.804358, 0.781272
0.834189, 0.832162, 0.830607, 0.83874, 0.837072, 0.83013, 0.831653, 0.839547, 0.842774, 0.83346, 0.833228, 0.832564, 0.837865, 0.826614, 0.831792, 0.835218, 0.832288, 0.831629, 0.829317, 0.832862, 0.83901, 0.82646, 0.825336, 0.825541, 0.825486, 0.822725, 0.822281, 0.822684, 0.819964, 0.820339, 0.818718, 0.815917, 0.80741, 0.817717, 0.814715, 0.815998, 0.815574, 0.820414, 0.816281, 0.811739, 0.811006, 0.818289, 0.818029, 0.818297, 0.819327, 0.818594, 0.817185, 0.825414, 0.822985, 0.851424, 0.827684, 0.841101, 0.823655, 0.823282, 0.82333, 0.82255, 0.822304, 0.821472, 0.821644, 0.82236, 0.821196, 0.819858, 0.834828, 0.822036, 0.823513, 0.824038, 0.823499, 0.822573, 0.824712, 0.824476, 0.823602, 0.824358, 0.824366, 0.824796, 0.824874, 0.824594, 0.82451, 0.829675, 0.841923, 0.833358, 0.824206, 0.823036, 0.823172, 0.823177, 0.822626, 0.822449, 0.822682, 0.822632, 0.829466, 0.830201, 0.829423, 0.819535, 0.819619, 0.817094, 0.82703, 0.826141, 0.824595, 0.819262, 0.829658, 0.817258, 0.818314, 0.827813, 0.816557, 0.81475, 0.814667, 0.814303, 0.814313, 0.818286, 0.816363, 0.815494, 0.816923, 0.819897, 0.818389, 0.818797, 0.818185, 0.818332, 0.84045, 0.829471, 0.819361, 0.828738, 0.818916, 0.81987, 0.819724, 0.855567, 0.843931, 0.830654, 0.831203, 0.818491, 0.82254, 0.835235, 0.822968, 0.824229, 0.82183, 0.820566, 0.8195, 0.830937, 0.820392, 0.823791, 0.821581, 0.819222, 0.825005, 0.825715, 0.812367, 0.812462, 0.827994, 0.81265, 0.814787, 0.818495, 0.817656, 0.815836, 0.813629, 0.81343, 0.814538, 0.814803, 0.836746, 0.815743, 0.842717, 0.835456, 0.815447, 0.814588, 0.817283, 0.81666, 0.815349, 0.824946, 0.81696, 0.816224, 0.816562, 0.816523, 0.835647, 0.816669, 0.8178, 0.813795, 0.814253, 0.814368, 0.829478, 0.814104, 0.8128, 0.815172, 0.809874, 0.808746, 0.811628, 0.811763, 0.812695, 0.8095, 0.809151, 0.809321, 0.807618, 0.814898, 0.815552, 0.815043, 0.815407, 0.818864, 0.817253, 0.815225, 0.825269, 0.825498, 0.828396, 0.82354, 0.824075, 0.824327, 0.829056, 0.832, 0.840231, 0.839873, 0.841126, 0.847043, 0.829203, 0.831414, 0.833462, 0.822639, 0.834773, 0.820379, 0.836747, 0.819582, 0.820368, 0.819337, 0.818452, 0.815412, 0.833315, 0.813584, 0.82771, 0.827779, 0.816536, 0.814873, 0.814527, 0.82378, 0.82555, 0.824418, 0.82511, 0.813962, 0.815147, 0.815006, 0.813918, 0.812974, 0.827577, 0.837564, 0.815398, 0.81477, 0.821816, 0.821999, 0.811983, 0.809022, 0.807674, 0.802467, 0.807949, 0.802411, 0.812469, 0.801952, 0.804428, 0.798716, 0.799007, 0.800124, 0.799162, 0.796961, 0.777857, 0.767434, 0.756687, 0.752499, 0.767091, 0.767516, 0.776814, 0.788901, 0.793821, 0.771958, 0.776689, 0.767921, 0.768221, 0.773637, 0.774819, 0.776427, 0.812979, 0.768346, 0.775046, 0.77661, 0.777324, 0.786217, 0.784211, 0.795631, 0.836271, 0.834248, 0.842317, 1.33317, 1.33408, 1.33721, 1.33714, 1.32681, 1.24455, 1.21371, 1.0986, 0.866461, 0.866944, 0.84664, 0.846262, 0.831785, 0.819788, 0.84295, 0.824653, 0.818869, 0.807409, 0.788214, 0.787216, 0.787994
