1.65575, 1.65572, 1.65369, 1.65357, 1.65799, 1.67226, 1.65953, 1.67204, 1.66545, 1.65382, 1.64697, 1.64347, 1.63526, 1.63349, 1.63177, 1.60746, 1.62028, 1.64816, 1.62535, 1.66858, 1.69338, 1.73144, 1.72765, 1.72215, 1.77308, 1.77679, 1.75293, 1.78948, 1.70031, 1.68302, 1.62498, 1.58615, 1.59583, 1.59591, 1.5936, 1.58956, 1.59337, 1.58558, 1.58436, 1.59963, 1.57974, 1.58316, 1.57332, 1.57082, 1.5672, 1.57432, 1.5706, 1.57209, 1.57063, 1.56117, 1.578, 1.572, 1.55482, 1.56045, 1.55846, 1.54386, 1.54148, 1.53888, 1.53766, 1.53512, 1.53413, 1.5336, 1.53149, 1.53045, 1.52826, 1.52819, 1.53364, 1.52174, 1.5213, 1.51933, 1.51879, 1.51763, 1.51646, 1.51148, 1.50997, 1.50733, 1.50217, 1.5091, 1.50086, 1.50008, 1.50022, 1.50456, 1.49677, 1.49584, 1.49594, 1.49608, 1.49523, 1.48169, 1.46737, 1.50024, 1.54428, 1.56385, 1.63413, 1.65239, 1.70434, 1.70672, 1.69561, 1.68329, 1.3187, 1.54254, 1.4603, 1.43686, 1.46227, 1.45842, 1.46242, 1.45357, 1.44792, 1.44729, 1.44522, 1.44527, 1.44403, 1.4412, 1.44054, 1.43796, 1.43794, 1.44807, 1.43281, 1.4326, 1.42964, 1.43015, 1.42826, 1.42708, 1.42882, 1.42715, 1.42645, 1.45384, 1.42109, 1.42163, 1.41852, 1.41603, 1.41351, 1.4122, 1.40977, 1.40879, 1.40932, 1.40752, 1.40808, 1.40625, 1.40382, 1.4037, 1.40073, 1.40158, 1.39876, 1.39912, 1.39766, 1.39701, 1.39484, 1.39193, 1.38836, 1.38648, 1.38836, 1.38538, 1.38335, 1.38113, 1.38127, 1.37993, 1.37954, 1.37722, 1.3759, 1.3786, 1.37723, 1.37662, 1.37305, 1.37078, 1.37041, 1.37036, 1.37049, 1.36973, 1.36974, 1.36742, 1.37068, 1.3677, 1.38645, 1.37218, 1.35356, 1.37476, 1.37801, 1.40542, 1.40958, 1.43371, 1.48601, 1.44983, 1.45745, 1.46485, 1.44753, 1.42729, 1.41468, 1.38519, 1.31595, 1.33139, 1.36391, 1.35501, 1.34112, 1.33404, 1.3373, 1.32809, 1.3268, 1.32054, 1.33067, 1.34119, 1.31957, 1.3157, 1.31471, 1.31602, 1.31471, 1.31153, 1.31287, 1.32628, 1.32036, 1.31386
1.65888, 1.65518, 1.6543, 1.65798, 1.65189, 1.6513, 1.65964, 1.67242, 1.67565, 1.66599, 1.65446, 1.65841, 1.64989, 1.66133, 1.65395, 1.63688, 1.61979, 1.64171, 1.65709, 1.7002, 1.70929, 1.75519, 1.76483, 1.77012, 1.73244, 1.79598, 1.7853, 1.75845, 1.74065, 1.70036, 1.64746, 1.58146, 1.60342, 1.60364, 1.61171, 1.60375, 1.59309, 1.58998, 1.58867, 1.58662, 1.59547, 1.57942, 1.57708, 1.5763, 1.57658, 1.57267, 1.57089, 1.56893, 1.57113, 1.567, 1.57707, 1.58133, 1.57269, 1.55714, 1.56214, 1.55127, 1.55327, 1.54713, 1.54261, 1.54005, 1.54393, 1.53932, 1.53341, 1.53284, 1.52989, 1.52766, 1.52617, 1.5263, 1.52242, 1.52172, 1.51791, 1.5161, 1.51458, 1.51332, 1.51064, 1.51024, 1.50589, 1.50658, 1.50223, 1.50329, 1.5022, 1.51181, 1.50003, 1.49715, 1.50041, 1.50391, 1.5138, 1.49975, 1.49272, 1.47418, 1.56441, 1.57099, 1.54392, 1.66091, 1.69165, 1.69212, 1.69338, 1.66898, 1.62362, 1.58577, 1.47126, 1.44635, 1.46431, 1.47222, 1.46991, 1.47089, 1.46118, 1.46481, 1.45392, 1.45227, 1.45032, 1.44918, 1.44664, 1.44339, 1.44342, 1.441, 1.43896, 1.43704, 1.43462, 1.43297, 1.43234, 1.43187, 1.42979, 1.4307, 1.4294, 1.42764, 1.42788, 1.4262, 1.42429, 1.42189, 1.4177, 1.41911, 1.41776, 1.41668, 1.41439, 1.4132, 1.41198, 1.41161, 1.40983, 1.40986, 1.4083, 1.4064, 1.40523, 1.40225, 1.4018, 1.39816, 1.39722, 1.39717, 1.39254, 1.39149, 1.38848, 1.38872, 1.38856, 1.38381, 1.38522, 1.38193, 1.38168, 1.38036, 1.37751, 1.37733, 1.37492, 1.3751, 1.37611, 1.37438, 1.37261, 1.3717, 1.37076, 1.37096, 1.36779, 1.3672, 1.36922, 1.37535, 1.38557, 1.35829, 1.37106, 1.37898, 1.3753, 1.40312, 1.41241, 1.43431, 1.4383, 1.44063, 1.44014, 1.41989, 1.45108, 1.43804, 1.43469, 1.39111, 1.349, 1.3349, 1.35156, 1.34548, 1.35374, 1.33972, 1.33452, 1.33421, 1.33102, 1.32884, 1.32625, 1.32881, 1.32423, 1.32536, 1.32328, 1.32075, 1.3192, 1.31984, 1.31901, 1.32337, 1.32477, 1.32998
1.66587, 1.66438, 1.66214, 1.66148, 1.65766, 1.65731, 1.66368, 1.67043, 1.67468, 1.67228, 1.67552, 1.65274, 1.65164, 1.64977, 1.65095, 1.64765, 1.62927, 1.62435, 1.66176, 1.68452, 1.70564, 1.71436, 1.73922, 1.74568, 1.77699, 1.7837, 1.76149, 1.75568, 1.74072, 1.67771, 1.60315, 1.5764, 1.62371, 1.60604, 1.60142, 1.59995, 1.60092, 1.59541, 1.5949, 1.5867, 1.58432, 1.57954, 1.58132, 1.58169, 1.57695, 1.58248, 1.57319, 1.57208, 1.57078, 1.5655, 1.56975, 1.56923, 1.57786, 1.57938, 1.55573, 1.55468, 1.55131, 1.5489, 1.54515, 1.5434, 1.54034, 1.53666, 1.53541, 1.53274, 1.53179, 1.53068, 1.5298, 1.52869, 1.52639, 1.52505, 1.52287, 1.52247, 1.51821, 1.53373, 1.51619, 1.5151, 1.51532, 1.50975, 1.5089, 1.50775, 1.50636, 1.50452, 1.50331, 1.50073, 1.50002, 1.50051, 1.49994, 1.52072, 1.46795, 1.48169, 1.53288, 1.57696, 1.62014, 1.56901, 1.68795, 1.70409, 1.69265, 1.6644, 1.59124, 1.56744, 1.52311, 1.44407, 1.45929, 1.47837, 1.47946, 1.47124, 1.46838, 1.48061, 1.46478, 1.47109, 1.46223, 1.46658, 1.45703, 1.44669, 1.4442, 1.44243, 1.4406, 1.4389, 1.4365, 1.43586, 1.43447, 1.4306, 1.43115, 1.43231, 1.42699, 1.42909, 1.42864, 1.42724, 1.42625, 1.4237, 1.42193, 1.42229, 1.41996, 1.41926, 1.42811, 1.41693, 1.4159, 1.41333, 1.41398, 1.4141, 1.41518, 1.40797, 1.40466, 1.40138, 1.39986, 1.3963, 1.39537, 1.39364, 1.3913, 1.39123, 1.38809, 1.38629, 1.3849, 1.38276, 1.38025, 1.37817, 1.37508, 1.37751, 1.37466, 1.37363, 1.37153, 1.37129, 1.3711, 1.37137, 1.36864, 1.3775, 1.36939, 1.36452, 1.37642, 1.36729, 1.37598, 1.37665, 1.37733, 1.37799, 1.34111, 1.35808, 1.39274, 1.42334, 1.43548, 1.45196, 1.45237, 1.45113, 1.45892, 1.46651, 1.4652, 1.45456, 1.42842, 1.43629, 1.37149, 1.31999, 1.33821, 1.35477, 1.35142, 1.3471, 1.3365, 1.3298, 1.32947, 1.32911, 1.32875, 1.3297, 1.32491, 1.33282, 1.34086, 1.32227, 1.32475, 1.32694, 1.32379, 1.33075, 1.33006, 1.33037
1.67122, 1.67111, 1.66656, 1.67054, 1.66119, 1.66534, 1.65809, 1.67363, 1.67182, 1.67896, 1.68248, 1.6519, 1.64952, 1.66029, 1.6591, 1.64752, 1.63017, 1.62901, 1.63284, 1.72591, 1.68272, 1.71596, 1.79242, 1.77358, 1.77508, 1.78197, 1.80766, 1.77355, 1.73449, 1.70213, 1.61845, 1.59253, 1.60578, 1.60753, 1.61015, 1.60452, 1.61211, 1.58822, 1.58586, 1.58404, 1.58959, 1.5812, 1.58562, 1.5772, 1.57565, 1.57568, 1.57792, 1.57128, 1.56896, 1.56847, 1.56589, 1.56644, 1.59682, 1.59661, 1.586, 1.57139, 1.56314, 1.56144, 1.56818, 1.5593, 1.54546, 1.54356, 1.54093, 1.53803, 1.53807, 1.53439, 1.53742, 1.53227, 1.53168, 1.5295, 1.52831, 1.52393, 1.52253, 1.52689, 1.51868, 1.54998, 1.51711, 1.51645, 1.52221, 1.51268, 1.50955, 1.50733, 1.50425, 1.50275, 1.50323, 1.50321, 1.50976, 1.50526, 1.47246, 1.49246, 1.52979, 1.57017, 1.61732, 1.65961, 1.68194, 1.68962, 1.69512, 1.68672, 1.63421, 1.58551, 1.5242, 1.44323, 1.47996, 1.48301, 1.48888, 1.47884, 1.47762, 1.46998, 1.46769, 1.463, 1.47148, 1.45809, 1.45516, 1.45157, 1.45013, 1.45396, 1.447, 1.4426, 1.44223, 1.44033, 1.4376, 1.43677, 1.43642, 1.43543, 1.44125, 1.43356, 1.43404, 1.43065, 1.42975, 1.42773, 1.42552, 1.42878, 1.42528, 1.42081, 1.42091, 1.4196, 1.41908, 1.41819, 1.41729, 1.41574, 1.41321, 1.41126, 1.4092, 1.40826, 1.40802, 1.40534, 1.40186, 1.39946, 1.39643, 1.39549, 1.3946, 1.39007, 1.3911, 1.38676, 1.38471, 1.38301, 1.38901, 1.37961, 1.3799, 1.378, 1.37413, 1.37372, 1.37401, 1.37228, 1.37097, 1.37306, 1.37253, 1.37281, 1.37508, 1.3948, 1.3865, 1.37541, 1.37871, 1.38416, 1.38865, 1.38191, 1.44826, 1.48243, 1.49134, 1.50568, 1.45465, 1.47489, 1.46731, 1.46625, 1.45999, 1.42398, 1.41629, 1.42318, 1.38548, 1.34985, 1.34991, 1.35013, 1.3719, 1.33983, 1.34034, 1.33681, 1.33526, 1.33248, 1.35132, 1.34577, 1.32806, 1.32714, 1.32626, 1.32465, 1.3268, 1.34316, 1.34263, 1.32698, 1.33998, 1.33733
1.67244, 1.66904, 1.66677, 1.66484, 1.66288, 1.66124, 1.6648, 1.65806, 1.66886, 1.68556, 1.70012, 1.68942, 1.66814, 1.64654, 1.6517, 1.64255, 1.63031, 1.6342, 1.62965, 1.67692, 1.71484, 1.7687, 1.77359, 1.78158, 1.86165, 1.83129, 1.81754, 1.79698, 1.77922, 1.7139, 1.65367, 1.58843, 1.62565, 1.60804, 1.61113, 1.60009, 1.60188, 1.59488, 1.59096, 1.60266, 1.58641, 1.58472, 1.58298, 1.58217, 1.58125, 1.57965, 1.57784, 1.57575, 1.57374, 1.57183, 1.58675, 1.60204, 1.60362, 1.60781, 1.58534, 1.58241, 1.56434, 1.5559, 1.55407, 1.55092, 1.54979, 1.54815, 1.544, 1.54421, 1.54405, 1.5412, 1.53905, 1.53699, 1.5355, 1.53299, 1.53213, 1.52976, 1.52907, 1.52671, 1.52453, 1.52098, 1.52041, 1.51881, 1.51696, 1.516, 1.51186, 1.50959, 1.51004, 1.5085, 1.51389, 1.51436, 1.50778, 1.5095, 1.488, 1.48141, 1.54419, 1.54782, 1.57877, 1.62669, 1.62981, 1.66654, 1.66499, 1.66071, 1.64037, 1.57458, 1.53745, 1.48966, 1.48383, 1.49993, 1.48576, 1.49121, 1.48271, 1.47499, 1.47408, 1.4694, 1.46876, 1.46731, 1.46606, 1.46211, 1.46082, 1.45758, 1.45667, 1.4506, 1.45, 1.44553, 1.44488, 1.44411, 1.44401, 1.44092, 1.441, 1.44159, 1.43782, 1.43706, 1.43406, 1.43123, 1.4312, 1.42884, 1.42783, 1.42584, 1.42528, 1.41899, 1.42005, 1.42102, 1.41871, 1.42033, 1.41724, 1.41489, 1.4131, 1.41129, 1.40992, 1.40888, 1.40554, 1.40457, 1.40159, 1.39892, 1.39689, 1.39352, 1.39542, 1.38892, 1.3898, 1.38852, 1.38522, 1.38584, 1.3852, 1.38369, 1.38283, 1.37985, 1.377, 1.37767, 1.38, 1.37749, 1.37994, 1.37883, 1.3801, 1.38179, 1.39527, 1.38448, 1.38602, 1.3918, 1.36911, 1.36422, 1.40658, 1.4399, 1.48886, 1.49195, 1.47824, 1.47073, 1.46666, 1.47822, 1.4739, 1.46797, 1.41634, 1.45028, 1.39312, 1.32044, 1.33625, 1.35942, 1.35077, 1.3425, 1.33768, 1.33842, 1.33722, 1.33789, 1.3365, 1.33602, 1.3331, 1.3332, 1.33221, 1.33124, 1.33029, 1.33135, 1.32919, 1.32839, 1.32746, 1.32744
1.67277, 1.67028, 1.66808, 1.66581, 1.66332, 1.66218, 1.6618, 1.67612, 1.66252, 1.66545, 1.67491, 1.68971, 1.67585, 1.65187, 1.65614, 1.65702, 1.63333, 1.62659, 1.6626, 1.69086, 1.73695, 1.75519, 1.77173, 1.7822, 1.84367, 1.83167, 1.78699, 1.78586, 1.71909, 1.70417, 1.62509, 1.596, 1.61561, 1.61308, 1.61712, 1.60376, 1.60097, 1.59861, 1.59678, 1.59666, 1.59582, 1.59013, 1.58735, 1.58581, 1.58485, 1.58256, 1.58116, 1.5795, 1.57792, 1.57637, 1.57631, 1.57341, 1.57028, 1.57529, 1.57118, 1.58534, 1.57005, 1.55488, 1.55241, 1.55079, 1.55338, 1.54783, 1.54746, 1.54522, 1.54587, 1.54382, 1.5421, 1.54307, 1.54459, 1.53611, 1.53362, 1.53867, 1.53738, 1.52653, 1.52604, 1.52353, 1.52153, 1.52055, 1.51954, 1.51569, 1.51506, 1.51359, 1.53, 1.51151, 1.51266, 1.51371, 1.52038, 1.52132, 1.50017, 1.49269, 1.53973, 1.569, 1.67083, 1.65794, 1.66524, 1.69645, 1.69112, 1.68709, 1.6734, 1.59633, 1.53721, 1.47237, 1.45418, 1.47862, 1.49052, 1.47824, 1.47264, 1.47976, 1.48121, 1.48668, 1.47815, 1.47173, 1.46144, 1.46069, 1.45991, 1.45714, 1.45405, 1.45273, 1.44918, 1.4512, 1.44928, 1.44685, 1.44523, 1.44513, 1.4442, 1.44301, 1.44138, 1.4405, 1.43797, 1.43582, 1.43388, 1.43164, 1.43339, 1.43055, 1.42744, 1.43009, 1.42396, 1.42406, 1.42203, 1.42153, 1.41955, 1.41926, 1.4172, 1.41846, 1.41485, 1.41254, 1.40736, 1.40659, 1.40459, 1.40538, 1.4014, 1.40066, 1.3987, 1.39607, 1.3947, 1.39188, 1.3899, 1.39215, 1.39035, 1.38871, 1.38691, 1.38691, 1.38568, 1.38327, 1.38342, 1.38363, 1.38439, 1.38195, 1.38191, 1.38265, 1.41232, 1.39085, 1.39797, 1.40159, 1.37282, 1.38465, 1.42069, 1.41936, 1.50619, 1.48886, 1.46949, 1.4992, 1.47977, 1.48812, 1.4834, 1.48922, 1.47085, 1.45415, 1.42133, 1.34512, 1.33656, 1.36077, 1.36317, 1.35796, 1.34188, 1.33851, 1.34081, 1.34143, 1.3425, 1.34008, 1.34046, 1.33881, 1.3367, 1.33616, 1.33755, 1.33663, 1.33479, 1.33232, 1.33069, 1.32683
1.67148, 1.66837, 1.66571, 1.67559, 1.66213, 1.65932, 1.65594, 1.66075, 1.65585, 1.6575, 1.65925, 1.67947, 1.68471, 1.67188, 1.66317, 1.65511, 1.63667, 1.61611, 1.62926, 1.68722, 1.70323, 1.73903, 1.73669, 1.81064, 1.81977, 1.84079, 1.8458, 1.82903, 1.79157, 1.72959, 1.67579, 1.60267, 1.60583, 1.6101, 1.6253, 1.6074, 1.59821, 1.60657, 1.59274, 1.59482, 1.59447, 1.6079, 1.58455, 1.60623, 1.58229, 1.57846, 1.57709, 1.57509, 1.57561, 1.57377, 1.57529, 1.57086, 1.56747, 1.57164, 1.56862, 1.57388, 1.58011, 1.57505, 1.56635, 1.56849, 1.55997, 1.54644, 1.55662, 1.54307, 1.54572, 1.54078, 1.54097, 1.53664, 1.53601, 1.53333, 1.53069, 1.52704, 1.52498, 1.52403, 1.54109, 1.51788, 1.51462, 1.51349, 1.51207, 1.52351, 1.50758, 1.50571, 1.51945, 1.52629, 1.50538, 1.50396, 1.51342, 1.50334, 1.49268, 1.50413, 1.47784, 1.59029, 1.62085, 1.64356, 1.69304, 1.68607, 1.6983, 1.70592, 1.67256, 1.6214, 1.54702, 1.49248, 1.4387, 1.48333, 1.48755, 1.46784, 1.4756, 1.46755, 1.47234, 1.46209, 1.46507, 1.45383, 1.46083, 1.4526, 1.44855, 1.44792, 1.44718, 1.44488, 1.44367, 1.44331, 1.44227, 1.44067, 1.43944, 1.43959, 1.436, 1.43589, 1.43523, 1.43266, 1.43278, 1.43079, 1.43152, 1.43149, 1.43005, 1.43019, 1.42605, 1.4256, 1.42456, 1.42351, 1.42106, 1.42047, 1.42031, 1.41804, 1.42313, 1.41735, 1.41529, 1.41439, 1.41117, 1.41047, 1.40885, 1.41329, 1.40838, 1.40509, 1.40119, 1.40148, 1.39933, 1.39797, 1.39497, 1.39134, 1.39111, 1.38888, 1.38839, 1.38692, 1.38551, 1.38598, 1.38556, 1.38317, 1.39002, 1.38187, 1.38137, 1.38553, 1.39216, 1.38587, 1.38238, 1.37901, 1.38017, 1.36107, 1.3808, 1.44109, 1.45389, 1.45542, 1.49259, 1.50657, 1.48265, 1.48639, 1.49618, 1.4921, 1.48323, 1.42661, 1.42998, 1.3414, 1.33124, 1.35092, 1.3646, 1.34973, 1.35301, 1.34669, 1.345, 1.34709, 1.35363, 1.35007, 1.3446, 1.33709, 1.33683, 1.36111, 1.33802, 1.33628, 1.33132, 1.33015, 1.32958, 1.32653
1.68604, 1.67207, 1.67049, 1.66766, 1.66476, 1.65786, 1.6579, 1.6621, 1.65466, 1.65168, 1.66108, 1.65758, 1.66242, 1.67973, 1.66212, 1.64415, 1.64794, 1.61456, 1.62395, 1.66441, 1.73297, 1.74841, 1.77656, 1.80293, 1.81137, 1.82761, 1.8272, 1.8034, 1.79577, 1.73451, 1.66463, 1.60665, 1.62052, 1.61889, 1.61952, 1.60044, 1.59547, 1.5992, 1.58991, 1.59287, 1.58874, 1.58477, 1.59862, 1.58251, 1.57855, 1.57665, 1.57369, 1.57143, 1.56924, 1.56814, 1.58198, 1.56615, 1.56451, 1.56063, 1.55901, 1.55602, 1.5613, 1.57146, 1.56179, 1.55719, 1.55085, 1.54049, 1.54035, 1.54793, 1.54314, 1.54218, 1.54027, 1.55142, 1.53692, 1.53073, 1.52988, 1.52572, 1.53028, 1.52031, 1.51492, 1.51093, 1.51304, 1.50438, 1.50267, 1.50387, 1.50081, 1.50016, 1.50265, 1.49974, 1.50702, 1.50052, 1.51308, 1.5039, 1.49882, 1.48932, 1.51626, 1.56116, 1.6162, 1.64882, 1.67577, 1.67977, 1.65811, 1.6239, 1.64031, 1.65775, 1.54202, 1.48451, 1.46043, 1.45068, 1.47133, 1.47753, 1.47579, 1.46889, 1.45829, 1.45532, 1.45931, 1.46467, 1.45689, 1.45048, 1.44797, 1.44565, 1.44372, 1.44194, 1.4414, 1.44203, 1.44119, 1.4399, 1.43913, 1.43599, 1.4332, 1.43025, 1.42968, 1.42961, 1.42793, 1.42921, 1.43063, 1.43002, 1.42975, 1.42635, 1.42434, 1.42286, 1.42098, 1.4197, 1.41882, 1.41915, 1.41588, 1.41566, 1.41497, 1.41409, 1.41438, 1.41298, 1.41228, 1.40975, 1.41177, 1.41202, 1.40751, 1.40202, 1.40035, 1.397, 1.39513, 1.3955, 1.3914, 1.38901, 1.38813, 1.3876, 1.38831, 1.38745, 1.38647, 1.38079, 1.38197, 1.39011, 1.39867, 1.38102, 1.38315, 1.37575, 1.37328, 1.37867, 1.38828, 1.38551, 1.36952, 1.38044, 1.39833, 1.4414, 1.48059, 1.51519, 1.47669, 1.47832, 1.52921, 1.51921, 1.52147, 1.52028, 1.47848, 1.45761, 1.43167, 1.36572, 1.33033, 1.35486, 1.37558, 1.35152, 1.34884, 1.34634, 1.34468, 1.34327, 1.34028, 1.35602, 1.33948, 1.33595, 1.33712, 1.33425, 1.33321, 1.33194, 1.33094, 1.32994, 1.32923, 1.32712
1.67941, 1.68332, 1.67939, 1.67771, 1.67465, 1.67246, 1.67116, 1.66988, 1.6792, 1.67274, 1.66442, 1.66348, 1.6652, 1.68862, 1.68155, 1.6817, 1.64883, 1.61367, 1.63598, 1.63675, 1.66885, 1.70587, 1.79027, 1.80239, 1.81897, 1.83888, 1.87195, 1.82723, 1.82443, 1.74453, 1.6609, 1.5973, 1.61292, 1.61653, 1.62999, 1.60676, 1.60419, 1.60426, 1.60596, 1.61266, 1.59247, 1.59089, 1.59104, 1.5906, 1.58759, 1.58567, 1.58458, 1.58542, 1.58557, 1.58372, 1.57882, 1.57492, 1.57146, 1.56893, 1.56188, 1.56092, 1.56042, 1.55871, 1.56783, 1.56821, 1.56287, 1.56058, 1.55296, 1.55165, 1.55919, 1.54924, 1.54661, 1.54538, 1.54481, 1.54239, 1.53966, 1.53432, 1.52959, 1.52483, 1.52278, 1.52096, 1.52087, 1.51994, 1.54366, 1.51337, 1.51138, 1.52305, 1.50544, 1.51445, 1.50956, 1.51417, 1.52271, 1.52045, 1.51902, 1.50631, 1.51417, 1.55346, 1.59024, 1.64149, 1.65728, 1.66442, 1.68253, 1.63423, 1.6212, 1.60461, 1.57289, 1.48609, 1.44431, 1.44965, 1.46607, 1.49026, 1.478, 1.48538, 1.48897, 1.46681, 1.47415, 1.46101, 1.47811, 1.47298, 1.45687, 1.45593, 1.45359, 1.45402, 1.45115, 1.44865, 1.44673, 1.44595, 1.4426, 1.43983, 1.43648, 1.43441, 1.43203, 1.4336, 1.43504, 1.43615, 1.4375, 1.43966, 1.43898, 1.43456, 1.43261, 1.42641, 1.42578, 1.42361, 1.42298, 1.42366, 1.42402, 1.42447, 1.42201, 1.41966, 1.41805, 1.41426, 1.40987, 1.40665, 1.40607, 1.40525, 1.40599, 1.40316, 1.4038, 1.40573, 1.40535, 1.40252, 1.39893, 1.39286, 1.3924, 1.39499, 1.39323, 1.39221, 1.38843, 1.38462, 1.38731, 1.38396, 1.38327, 1.38825, 1.38523, 1.38561, 1.38011, 1.40364, 1.38219, 1.38461, 1.3767, 1.3573, 1.37203, 1.41138, 1.44868, 1.47851, 1.52389, 1.52469, 1.51981, 1.51404, 1.51281, 1.50055, 1.49592, 1.45622, 1.43058, 1.37727, 1.34444, 1.37458, 1.37555, 1.36882, 1.3606, 1.3608, 1.34627, 1.34569, 1.34674, 1.34755, 1.36134, 1.34654, 1.34363, 1.34315, 1.34014, 1.33989, 1.33583, 1.3338, 1.3342, 1.33366
1.69295, 1.6795, 1.67964, 1.68732, 1.67753, 1.68556, 1.67471, 1.68351, 1.68466, 1.6749, 1.675, 1.6677, 1.67881, 1.66922, 1.65976, 1.65847, 1.65691, 1.66206, 1.64446, 1.66463, 1.68155, 1.70295, 1.75392, 1.76426, 1.82151, 1.83847, 1.84548, 1.84442, 1.84597, 1.7582, 1.70002, 1.62282, 1.61033, 1.62061, 1.61618, 1.60461, 1.6068, 1.61791, 1.60611, 1.6032, 1.60631, 1.59305, 1.59246, 1.58711, 1.58605, 1.58595, 1.58628, 1.58529, 1.58477, 1.58089, 1.57899, 1.57299, 1.57164, 1.56918, 1.56901, 1.57072, 1.57173, 1.57493, 1.57905, 1.57955, 1.57516, 1.58159, 1.56047, 1.56836, 1.55501, 1.54805, 1.54549, 1.54098, 1.5405, 1.54101, 1.54211, 1.53904, 1.5369, 1.55037, 1.53122, 1.52986, 1.52705, 1.52686, 1.52573, 1.53078, 1.52341, 1.52185, 1.51993, 1.53018, 1.53861, 1.52845, 1.52628, 1.52753, 1.51058, 1.48819, 1.50383, 1.55734, 1.58683, 1.63688, 1.66328, 1.67354, 1.6743, 1.66432, 1.64179, 1.61257, 1.48888, 1.52396, 1.46833, 1.46158, 1.48157, 1.48462, 1.49934, 1.50095, 1.49266, 1.47932, 1.48538, 1.48709, 1.4749, 1.46804, 1.47449, 1.47595, 1.47707, 1.46661, 1.46235, 1.46208, 1.45859, 1.45527, 1.44966, 1.44545, 1.44024, 1.43918, 1.47969, 1.4424, 1.44463, 1.44474, 1.4448, 1.44412, 1.43989, 1.43938, 1.43448, 1.4314, 1.42996, 1.43298, 1.42703, 1.4322, 1.42614, 1.42579, 1.42297, 1.42028, 1.41775, 1.44413, 1.4176, 1.41556, 1.41364, 1.41164, 1.40923, 1.40915, 1.41724, 1.40594, 1.41257, 1.40191, 1.42276, 1.40181, 1.39841, 1.41024, 1.39579, 1.43002, 1.39107, 1.40144, 1.39822, 1.38575, 1.4017, 1.3857, 1.39027, 1.39649, 1.39235, 1.38574, 1.4001, 1.38867, 1.38251, 1.43299, 1.37753, 1.41996, 1.45421, 1.48604, 1.49604, 1.50021, 1.53437, 1.49577, 1.49854, 1.55068, 1.58672, 1.47965, 1.45169, 1.37079, 1.35031, 1.35701, 1.38403, 1.37152, 1.36683, 1.35867, 1.35414, 1.35383, 1.35068, 1.35081, 1.34835, 1.36341, 1.3409, 1.36111, 1.33472, 1.34447, 1.33453, 1.33233, 1.33278, 1.34548
1.67161, 1.66447, 1.66269, 1.66187, 1.66471, 1.65838, 1.66025, 1.66027, 1.66683, 1.68346, 1.68226, 1.66567, 1.66805, 1.65467, 1.65236, 1.66559, 1.64408, 1.63098, 1.61128, 1.63836, 1.6758, 1.74726, 1.74994, 1.76593, 1.81017, 1.87234, 1.89307, 1.86184, 1.83708, 1.75269, 1.73853, 1.60765, 1.62695, 1.6188, 1.62754, 1.61478, 1.61917, 1.6158, 1.6124, 1.6073, 1.60466, 1.5827, 1.57569, 1.57158, 1.57074, 1.57513, 1.58595, 1.58266, 1.58051, 1.57766, 1.56781, 1.55849, 1.55616, 1.56597, 1.5562, 1.557, 1.5571, 1.56133, 1.56451, 1.56422, 1.55182, 1.56723, 1.57175, 1.56889, 1.55495, 1.54542, 1.55542, 1.54557, 1.54525, 1.54387, 1.54222, 1.5399, 1.53722, 1.52935, 1.5248, 1.51667, 1.51447, 1.51632, 1.528, 1.52195, 1.52109, 1.52514, 1.51042, 1.50917, 1.51019, 1.51667, 1.51922, 1.51745, 1.49118, 1.48844, 1.48699, 1.58434, 1.59664, 1.61774, 1.62206, 1.64303, 1.65396, 1.64802, 1.66547, 1.61861, 1.59201, 1.51447, 1.46845, 1.45016, 1.48156, 1.4747, 1.48674, 1.4783, 1.50495, 1.48589, 1.49541, 1.4678, 1.47539, 1.46664, 1.46783, 1.46773, 1.46502, 1.46877, 1.4502, 1.44645, 1.44637, 1.44393, 1.4409, 1.43206, 1.43106, 1.42868, 1.42616, 1.42939, 1.44036, 1.44194, 1.44407, 1.43976, 1.43732, 1.4267, 1.42091, 1.4137, 1.41037, 1.40825, 1.40606, 1.40512, 1.40502, 1.40427, 1.40491, 1.40266, 1.40121, 1.39841, 1.39644, 1.3975, 1.39579, 1.3921, 1.38564, 1.38371, 1.3845, 1.38483, 1.38571, 1.38788, 1.38946, 1.39158, 1.39194, 1.39693, 1.3985, 1.39532, 1.39492, 1.37946, 1.37481, 1.37122, 1.36967, 1.37267, 1.36839, 1.36957, 1.37097, 1.37377, 1.38498, 1.38481, 1.3621, 1.3601, 1.38293, 1.42008, 1.49401, 1.48173, 1.48522, 1.54045, 1.51402, 1.5323, 1.53811, 1.53723, 1.50242, 1.43904, 1.42805, 1.35018, 1.30902, 1.36916, 1.36277, 1.36742, 1.35628, 1.35445, 1.35189, 1.34985, 1.35465, 1.35429, 1.36084, 1.3277, 1.32246, 1.32349, 1.32378, 1.33058, 1.32396, 1.319, 1.31971, 1.32305
1.68408, 1.68378, 1.68236, 1.68027, 1.6998, 1.67962, 1.67612, 1.69284, 1.68472, 1.67625, 1.67078, 1.66529, 1.6787, 1.66897, 1.65826, 1.64794, 1.64533, 1.64502, 1.62065, 1.64822, 1.68305, 1.74341, 1.77842, 1.8221, 1.83135, 1.90274, 1.89955, 1.89738, 1.87219, 1.77622, 1.68399, 1.64494, 1.60879, 1.63235, 1.62634, 1.63143, 1.62287, 1.62126, 1.61427, 1.62417, 1.63046, 1.59959, 1.60869, 1.60571, 1.60581, 1.59202, 1.59086, 1.59136, 1.58923, 1.58712, 1.58446, 1.58232, 1.58127, 1.5885, 1.58325, 1.60014, 1.5727, 1.57275, 1.572, 1.58402, 1.57901, 1.58201, 1.57291, 1.5872, 1.56642, 1.56548, 1.55794, 1.55824, 1.5627, 1.56402, 1.56181, 1.54161, 1.54053, 1.53786, 1.53724, 1.53748, 1.55437, 1.56058, 1.53074, 1.54116, 1.52679, 1.52352, 1.54255, 1.52909, 1.51811, 1.52581, 1.53555, 1.53041, 1.52318, 1.50489, 1.52615, 1.52294, 1.56364, 1.64111, 1.63703, 1.67194, 1.68479, 1.66903, 1.65089, 1.60378, 1.58372, 1.58624, 1.4885, 1.45931, 1.47129, 1.49955, 1.50234, 1.48644, 1.502, 1.51, 1.50234, 1.48852, 1.48447, 1.47989, 1.47733, 1.47093, 1.46877, 1.4627, 1.46114, 1.4577, 1.45507, 1.45345, 1.45073, 1.45392, 1.45421, 1.44892, 1.44779, 1.4486, 1.44688, 1.45698, 1.44628, 1.4432, 1.44135, 1.43767, 1.43993, 1.43527, 1.43508, 1.43291, 1.42988, 1.43744, 1.42939, 1.42564, 1.42758, 1.42664, 1.42272, 1.42108, 1.42034, 1.41769, 1.41626, 1.41343, 1.41246, 1.41104, 1.40984, 1.40914, 1.40798, 1.40572, 1.40518, 1.40259, 1.40907, 1.40482, 1.4029, 1.40012, 1.40103, 1.39801, 1.40128, 1.40371, 1.40318, 1.39122, 1.39114, 1.3895, 1.40327, 1.38992, 1.40162, 1.40638, 1.3917, 1.37838, 1.3832, 1.39609, 1.44833, 1.46088, 1.4742, 1.50672, 1.51395, 1.57769, 1.55043, 1.52068, 1.50019, 1.47494, 1.49827, 1.38728, 1.35283, 1.33909, 1.37908, 1.37464, 1.36208, 1.36246, 1.36493, 1.36096, 1.35313, 1.34981, 1.37031, 1.3454, 1.34711, 1.36362, 1.35432, 1.34451, 1.34208, 1.34104, 1.34265, 1.34045
1.67515, 1.67594, 1.67172, 1.67216, 1.67154, 1.66996, 1.66882, 1.66886, 1.6655, 1.65966, 1.65595, 1.65451, 1.65055, 1.66546, 1.65039, 1.65005, 1.65133, 1.64132, 1.61211, 1.63811, 1.68837, 1.6997, 1.75421, 1.79239, 1.82162, 1.84751, 1.85297, 1.8647, 1.83183, 1.75974, 1.70663, 1.59592, 1.57632, 1.61469, 1.6167, 1.61161, 1.60784, 1.61256, 1.60294, 1.60215, 1.59283, 1.58897, 1.59226, 1.58244, 1.57825, 1.57701, 1.5739, 1.56969, 1.56893, 1.56951, 1.57163, 1.57112, 1.57068, 1.56748, 1.56322, 1.56044, 1.55848, 1.55945, 1.56047, 1.55931, 1.55751, 1.553, 1.56431, 1.56649, 1.55435, 1.54518, 1.54237, 1.54757, 1.54405, 1.53178, 1.538, 1.5372, 1.52846, 1.52762, 1.52618, 1.53678, 1.52242, 1.53371, 1.52096, 1.53084, 1.51981, 1.51632, 1.5202, 1.50717, 1.52198, 1.50561, 1.51685, 1.51056, 1.51052, 1.49327, 1.49429, 1.5427, 1.59916, 1.61006, 1.62354, 1.64114, 1.63763, 1.63732, 1.63036, 1.61301, 1.58572, 1.53375, 1.50001, 1.44938, 1.46851, 1.48499, 1.47436, 1.48089, 1.47856, 1.49064, 1.50844, 1.48684, 1.46809, 1.46651, 1.4522, 1.45419, 1.45186, 1.45078, 1.44186, 1.43958, 1.43944, 1.43873, 1.43971, 1.44072, 1.44304, 1.44119, 1.4412, 1.43991, 1.43821, 1.43526, 1.43288, 1.43141, 1.42957, 1.43101, 1.43069, 1.42499, 1.42194, 1.41984, 1.41808, 1.41684, 1.41889, 1.41769, 1.41242, 1.40966, 1.40779, 1.4051, 1.40301, 1.4005, 1.39844, 1.39928, 1.40002, 1.39868, 1.39515, 1.39211, 1.39, 1.3893, 1.38901, 1.39063, 1.39092, 1.38524, 1.38437, 1.38415, 1.38582, 1.38806, 1.38542, 1.38247, 1.38019, 1.38467, 1.39166, 1.37587, 1.38145, 1.382, 1.38355, 1.38905, 1.39846, 1.3658, 1.388, 1.4156, 1.45386, 1.45875, 1.49242, 1.50042, 1.51173, 1.5265, 1.53788, 1.54061, 1.51345, 1.52353, 1.45684, 1.368, 1.34998, 1.35443, 1.36667, 1.37024, 1.35318, 1.34489, 1.34384, 1.34253, 1.34029, 1.33781, 1.33395, 1.33409, 1.33148, 1.33479, 1.33414, 1.34689, 1.33429, 1.33136, 1.33255, 1.33217
1.67194, 1.67191, 1.6692, 1.67005, 1.66663, 1.66565, 1.66325, 1.66475, 1.66275, 1.66733, 1.65881, 1.65829, 1.66362, 1.64711, 1.64862, 1.64778, 1.64682, 1.65173, 1.61296, 1.63093, 1.68508, 1.7205, 1.74759, 1.76914, 1.81429, 1.85215, 1.85414, 1.8693, 1.87677, 1.83416, 1.75232, 1.64562, 1.57763, 1.60566, 1.61347, 1.61519, 1.59973, 1.61102, 1.60423, 1.59158, 1.60812, 1.59911, 1.58522, 1.5952, 1.58575, 1.59988, 1.58159, 1.57212, 1.56862, 1.56785, 1.56551, 1.56424, 1.56157, 1.5624, 1.55953, 1.55846, 1.55769, 1.56827, 1.55832, 1.55551, 1.55812, 1.5646, 1.54905, 1.56124, 1.56116, 1.54143, 1.53834, 1.53814, 1.53457, 1.54009, 1.53181, 1.53015, 1.52879, 1.52984, 1.53054, 1.52321, 1.52285, 1.5302, 1.51376, 1.51109, 1.51215, 1.52763, 1.51006, 1.5021, 1.51695, 1.50371, 1.51299, 1.51233, 1.51355, 1.50339, 1.47246, 1.50637, 1.58844, 1.59233, 1.60246, 1.63082, 1.64095, 1.6361, 1.62064, 1.59533, 1.57881, 1.54046, 1.50021, 1.44841, 1.4623, 1.4796, 1.4767, 1.47838, 1.47872, 1.46743, 1.48261, 1.49431, 1.47507, 1.45852, 1.44646, 1.45236, 1.4443, 1.44847, 1.45153, 1.44397, 1.44293, 1.44078, 1.4412, 1.44112, 1.4417, 1.43965, 1.43674, 1.43675, 1.43454, 1.434, 1.43468, 1.43034, 1.43602, 1.42716, 1.42584, 1.42467, 1.42721, 1.42025, 1.42104, 1.42217, 1.42285, 1.42292, 1.41873, 1.4127, 1.41027, 1.42005, 1.40472, 1.40205, 1.40117, 1.40156, 1.39702, 1.39537, 1.39265, 1.3923, 1.3889, 1.38756, 1.38787, 1.38689, 1.38623, 1.40569, 1.39293, 1.38686, 1.40304, 1.39241, 1.39954, 1.39952, 1.3788, 1.38539, 1.37273, 1.37198, 1.3716, 1.387, 1.39166, 1.39261, 1.37975, 1.36514, 1.35421, 1.3914, 1.41723, 1.43494, 1.44083, 1.49601, 1.50991, 1.56758, 1.57133, 1.64122, 1.53391, 1.50994, 1.48595, 1.40863, 1.33221, 1.36657, 1.36199, 1.37796, 1.35365, 1.36344, 1.346, 1.3436, 1.35032, 1.33694, 1.3497, 1.33566, 1.36526, 1.34082, 1.35666, 1.33247, 1.33114, 1.33156, 1.32989, 1.33335
1.67213, 1.71622, 1.6672, 1.66469, 1.66191, 1.66138, 1.65429, 1.65105, 1.64929, 1.6473, 1.65236, 1.65502, 1.63939, 1.6376, 1.63499, 1.64551, 1.64774, 1.64733, 1.61755, 1.613, 1.64173, 1.67287, 1.71439, 1.76878, 1.79003, 1.83081, 1.85949, 1.8622, 1.83092, 1.80677, 1.6731, 1.59289, 1.57033, 1.58849, 1.61407, 1.6147, 1.60956, 1.59534, 1.60143, 1.58623, 1.591, 1.58122, 1.57869, 1.57938, 1.57575, 1.5743, 1.58911, 1.56798, 1.57131, 1.56473, 1.5622, 1.55876, 1.55469, 1.55468, 1.55244, 1.55047, 1.5478, 1.54494, 1.54453, 1.54105, 1.53912, 1.53697, 1.53521, 1.53347, 1.54188, 1.55378, 1.55152, 1.54429, 1.54173, 1.54199, 1.52714, 1.52313, 1.53693, 1.51958, 1.51636, 1.51186, 1.50802, 1.50634, 1.50366, 1.50298, 1.50191, 1.49893, 1.49736, 1.50101, 1.4948, 1.49486, 1.50629, 1.49954, 1.51311, 1.48567, 1.48796, 1.48844, 1.56536, 1.57683, 1.61819, 1.64253, 1.63009, 1.61998, 1.61323, 1.6072, 1.58534, 1.53749, 1.50902, 1.44686, 1.45222, 1.46596, 1.4664, 1.47068, 1.45903, 1.45781, 1.45982, 1.48812, 1.47864, 1.46884, 1.44889, 1.44172, 1.44007, 1.43866, 1.43749, 1.43792, 1.43788, 1.43722, 1.43376, 1.43195, 1.43034, 1.42764, 1.42586, 1.42388, 1.42007, 1.42042, 1.41984, 1.46328, 1.41853, 1.41674, 1.42243, 1.41395, 1.41281, 1.41032, 1.40821, 1.40786, 1.40386, 1.40367, 1.40277, 1.40312, 1.39916, 1.39794, 1.39543, 1.39391, 1.38964, 1.38817, 1.3881, 1.3832, 1.3829, 1.38143, 1.37958, 1.37935, 1.37883, 1.37913, 1.37669, 1.37532, 1.37363, 1.37754, 1.37137, 1.36911, 1.36995, 1.36633, 1.36471, 1.36381, 1.36426, 1.36248, 1.36351, 1.36144, 1.36596, 1.3621, 1.37069, 1.35074, 1.3298, 1.32994, 1.4023, 1.41963, 1.38145, 1.55924, 1.52452, 1.53038, 1.53117, 1.57767, 1.527, 1.49619, 1.46107, 1.3748, 1.34111, 1.35494, 1.34075, 1.34402, 1.35469, 1.33716, 1.33705, 1.33203, 1.33915, 1.32961, 1.32485, 1.32844, 1.32365, 1.32891, 1.32212, 1.31711, 1.36021, 1.32326, 1.31616, 1.31591
1.66645, 1.66585, 1.65951, 1.66064, 1.65813, 1.6727, 1.65332, 1.64835, 1.64578, 1.64138, 1.65244, 1.63509, 1.63416, 1.62974, 1.64456, 1.6346, 1.63309, 1.62542, 1.60091, 1.57888, 1.60643, 1.61822, 1.66563, 1.72491, 1.79851, 1.82454, 1.88674, 1.86612, 1.85521, 1.76949, 1.75254, 1.63257, 1.57232, 1.59997, 1.60299, 1.59304, 1.59576, 1.58642, 1.60672, 1.58274, 1.58047, 1.57562, 1.57631, 1.57261, 1.57991, 1.57117, 1.56819, 1.56413, 1.56301, 1.56106, 1.56038, 1.55902, 1.55784, 1.55606, 1.5538, 1.55089, 1.54767, 1.54458, 1.54234, 1.54728, 1.56216, 1.5472, 1.53412, 1.52398, 1.52428, 1.54685, 1.55424, 1.54043, 1.52656, 1.52869, 1.52395, 1.53397, 1.52122, 1.5225, 1.51681, 1.50985, 1.51016, 1.50878, 1.50655, 1.50558, 1.50683, 1.50153, 1.49948, 1.50715, 1.50931, 1.50345, 1.50013, 1.50982, 1.49602, 1.48885, 1.46879, 1.49325, 1.53701, 1.58085, 1.62652, 1.6409, 1.70775, 1.6618, 1.63096, 1.60966, 1.5751, 1.52425, 1.5277, 1.47927, 1.4409, 1.46431, 1.46422, 1.46159, 1.45888, 1.45401, 1.45256, 1.4573, 1.47047, 1.46215, 1.47402, 1.44731, 1.43775, 1.43939, 1.43492, 1.43251, 1.43112, 1.43037, 1.42836, 1.42601, 1.42361, 1.42035, 1.41954, 1.41743, 1.41501, 1.41324, 1.41169, 1.41542, 1.40876, 1.40744, 1.4057, 1.4053, 1.40525, 1.40173, 1.39871, 1.39773, 1.39621, 1.39443, 1.39257, 1.39346, 1.39272, 1.394, 1.39375, 1.39316, 1.39101, 1.38787, 1.3853, 1.38442, 1.38169, 1.38029, 1.37839, 1.38069, 1.37477, 1.37441, 1.37097, 1.37037, 1.36944, 1.36973, 1.36825, 1.36629, 1.36717, 1.36124, 1.35986, 1.35938, 1.35785, 1.35584, 1.35442, 1.35421, 1.36257, 1.35827, 1.36574, 1.35209, 1.35666, 1.40581, 1.40613, 1.46835, 1.52769, 1.53352, 1.5472, 1.55668, 1.55557, 1.54799, 1.51743, 1.50327, 1.45591, 1.40903, 1.3041, 1.31934, 1.3373, 1.34056, 1.33908, 1.34008, 1.32433, 1.32458, 1.32388, 1.32138, 1.3197, 1.3201, 1.31826, 1.31362, 1.31396, 1.31443, 1.31579, 1.31463, 1.31261, 1.30992
1.65777, 1.65512, 1.65224, 1.65076, 1.648, 1.64503, 1.64321, 1.64467, 1.64367, 1.6428, 1.63721, 1.63729, 1.63397, 1.63299, 1.63765, 1.63551, 1.63674, 1.63816, 1.63401, 1.59804, 1.62004, 1.67559, 1.71454, 1.77523, 1.80952, 1.84528, 1.869, 1.9, 1.90687, 1.79229, 1.775, 1.62397, 1.59643, 1.59498, 1.61035, 1.60275, 1.60027, 1.58904, 1.58598, 1.5834, 1.5797, 1.57763, 1.57524, 1.57224, 1.56941, 1.56577, 1.563, 1.58217, 1.56025, 1.55473, 1.55573, 1.55719, 1.5576, 1.5561, 1.55563, 1.55081, 1.5481, 1.54533, 1.54307, 1.54038, 1.54085, 1.54444, 1.53743, 1.54722, 1.53143, 1.53135, 1.53347, 1.5423, 1.55259, 1.55838, 1.53252, 1.52211, 1.52092, 1.51697, 1.51665, 1.52631, 1.51899, 1.51232, 1.5131, 1.51182, 1.5109, 1.50813, 1.50453, 1.50152, 1.50209, 1.50716, 1.50186, 1.50316, 1.50228, 1.5047, 1.47101, 1.49842, 1.51352, 1.55948, 1.61387, 1.60225, 1.62273, 1.63018, 1.62747, 1.61933, 1.58461, 1.54383, 1.54026, 1.47542, 1.44552, 1.46623, 1.47192, 1.46913, 1.46272, 1.46212, 1.46135, 1.45624, 1.4631, 1.47542, 1.47363, 1.46782, 1.44799, 1.45065, 1.44142, 1.45446, 1.43622, 1.43435, 1.45278, 1.42981, 1.43001, 1.42615, 1.42571, 1.4238, 1.42013, 1.42081, 1.41883, 1.41737, 1.41482, 1.41428, 1.41268, 1.4123, 1.41123, 1.40971, 1.40911, 1.4087, 1.4077, 1.40654, 1.40542, 1.40857, 1.40178, 1.40109, 1.39834, 1.39914, 1.39699, 1.3946, 1.39253, 1.39123, 1.38938, 1.38737, 1.38698, 1.37881, 1.38141, 1.37906, 1.37833, 1.37721, 1.37514, 1.37466, 1.37392, 1.37144, 1.37119, 1.38867, 1.36569, 1.36737, 1.36445, 1.37239, 1.36183, 1.36718, 1.37848, 1.38096, 1.3794, 1.37781, 1.35848, 1.36063, 1.37432, 1.43645, 1.47142, 1.49299, 1.50209, 1.53742, 1.54092, 1.53015, 1.5208, 1.46811, 1.4837, 1.41983, 1.33312, 1.31394, 1.33678, 1.34393, 1.33557, 1.33032, 1.32637, 1.32582, 1.32714, 1.32453, 1.32647, 1.32346, 1.32311, 1.32105, 1.3259, 1.31919, 1.31875, 1.31922, 1.31628, 1.31588
1.65756, 1.65512, 1.65373, 1.65551, 1.65466, 1.65219, 1.65235, 1.64291, 1.6379, 1.64792, 1.64048, 1.63279, 1.63327, 1.63433, 1.63457, 1.63527, 1.64072, 1.63135, 1.62163, 1.60944, 1.61003, 1.6829, 1.72072, 1.76246, 1.78578, 1.85665, 1.87159, 1.88585, 1.88018, 1.83591, 1.73885, 1.65256, 1.56738, 1.57505, 1.59827, 1.62035, 1.5986, 1.58626, 1.5838, 1.57984, 1.57862, 1.57464, 1.57112, 1.56672, 1.57098, 1.56349, 1.56362, 1.56997, 1.59168, 1.55379, 1.55415, 1.55586, 1.55718, 1.55635, 1.55251, 1.55082, 1.54859, 1.54306, 1.54109, 1.54015, 1.53828, 1.53749, 1.53416, 1.5326, 1.53122, 1.52923, 1.52818, 1.52227, 1.53764, 1.54177, 1.53718, 1.52879, 1.52276, 1.51323, 1.51166, 1.51214, 1.51969, 1.50741, 1.50215, 1.5021, 1.49947, 1.49862, 1.49995, 1.49605, 1.49354, 1.50678, 1.49714, 1.50083, 1.49378, 1.48644, 1.46986, 1.4755, 1.52078, 1.54442, 1.6405, 1.61243, 1.61777, 1.60808, 1.59162, 1.58872, 1.59553, 1.56396, 1.51753, 1.4935, 1.441, 1.46542, 1.4701, 1.45709, 1.45297, 1.45471, 1.4455, 1.44401, 1.44478, 1.46405, 1.46897, 1.45724, 1.44626, 1.43484, 1.44755, 1.43439, 1.44304, 1.4477, 1.44732, 1.42563, 1.42481, 1.42519, 1.42567, 1.42515, 1.43427, 1.41969, 1.42251, 1.41661, 1.41379, 1.41158, 1.41223, 1.41037, 1.41082, 1.41033, 1.41104, 1.40783, 1.40408, 1.40425, 1.40365, 1.4021, 1.40108, 1.39905, 1.39842, 1.39594, 1.39382, 1.39464, 1.39716, 1.38517, 1.38561, 1.38168, 1.37992, 1.38154, 1.37635, 1.37727, 1.37561, 1.3743, 1.37488, 1.37351, 1.37221, 1.36946, 1.36793, 1.36696, 1.36593, 1.36635, 1.36412, 1.36417, 1.377, 1.36415, 1.36402, 1.3781, 1.36575, 1.35843, 1.35726, 1.37601, 1.39586, 1.46898, 1.48876, 1.51384, 1.52082, 1.56031, 1.5719, 1.56809, 1.55516, 1.47059, 1.42267, 1.37548, 1.32832, 1.34356, 1.34395, 1.33613, 1.34412, 1.34315, 1.32967, 1.32498, 1.32543, 1.32406, 1.32411, 1.32256, 1.32308, 1.32262, 1.32025, 1.31915, 1.31921, 1.31709, 1.30859, 1.30706
1.67134, 1.66779, 1.66583, 1.67062, 1.66497, 1.66022, 1.65912, 1.67148, 1.65804, 1.64998, 1.65053, 1.6424, 1.64063, 1.65007, 1.63563, 1.634, 1.63216, 1.63306, 1.63322, 1.60967, 1.61476, 1.64178, 1.69662, 1.74397, 1.79021, 1.84483, 1.87941, 1.88423, 1.8761, 1.82042, 1.72761, 1.60492, 1.58862, 1.59263, 1.59857, 1.60291, 1.59907, 1.59092, 1.58988, 1.58565, 1.58082, 1.5771, 1.57535, 1.57246, 1.57135, 1.58206, 1.56585, 1.58912, 1.59207, 1.56161, 1.55986, 1.55938, 1.5581, 1.55792, 1.55417, 1.55104, 1.54892, 1.54737, 1.55027, 1.54557, 1.54145, 1.53821, 1.53675, 1.53459, 1.5339, 1.52982, 1.52762, 1.52692, 1.52753, 1.51846, 1.53863, 1.53392, 1.54165, 1.5143, 1.51421, 1.51035, 1.51928, 1.50593, 1.50395, 1.50978, 1.50119, 1.51027, 1.49762, 1.4974, 1.49416, 1.49463, 1.50298, 1.50771, 1.49454, 1.49595, 1.46488, 1.47836, 1.51189, 1.52139, 1.57454, 1.60575, 1.66159, 1.62257, 1.61334, 1.60144, 1.58484, 1.57349, 1.53729, 1.46051, 1.42695, 1.46604, 1.4683, 1.47126, 1.45539, 1.45026, 1.44732, 1.44607, 1.44559, 1.45041, 1.45553, 1.46495, 1.46261, 1.44754, 1.43952, 1.43455, 1.43139, 1.44375, 1.43005, 1.42722, 1.42708, 1.4254, 1.42565, 1.42303, 1.4205, 1.42014, 1.41776, 1.41596, 1.41422, 1.41267, 1.41157, 1.40882, 1.40702, 1.40656, 1.4053, 1.40468, 1.40191, 1.40189, 1.42464, 1.39893, 1.39943, 1.39532, 1.39477, 1.39242, 1.39135, 1.38809, 1.38669, 1.38615, 1.38301, 1.38189, 1.3807, 1.3787, 1.378, 1.37718, 1.37465, 1.37457, 1.37402, 1.37295, 1.37152, 1.37122, 1.37063, 1.36817, 1.36794, 1.36748, 1.36541, 1.37149, 1.36445, 1.37067, 1.36231, 1.36432, 1.39082, 1.37658, 1.33966, 1.37568, 1.39987, 1.42914, 1.46757, 1.51981, 1.52723, 1.58638, 1.57731, 1.57631, 1.57807, 1.56066, 1.45628, 1.42393, 1.33286, 1.32392, 1.35623, 1.35005, 1.35072, 1.33362, 1.33424, 1.33393, 1.33012, 1.32828, 1.33003, 1.32558, 1.34379, 1.32388, 1.32358, 1.33852, 1.32249, 1.319, 1.31905, 1.32155
1.66776, 1.66573, 1.66431, 1.66268, 1.66109, 1.65613, 1.65272, 1.65286, 1.66941, 1.64792, 1.6569, 1.64111, 1.64077, 1.63696, 1.65099, 1.64822, 1.63848, 1.63896, 1.63578, 1.6131, 1.60567, 1.6258, 1.69065, 1.70974, 1.74526, 1.78606, 1.86414, 1.88815, 1.94328, 1.83166, 1.72374, 1.58757, 1.56859, 1.57522, 1.59823, 1.59263, 1.6032, 1.58502, 1.58188, 1.57864, 1.5765, 1.57431, 1.57139, 1.56879, 1.56654, 1.5649, 1.56426, 1.56862, 1.56318, 1.56093, 1.55826, 1.55713, 1.55558, 1.555, 1.55243, 1.55045, 1.55032, 1.54723, 1.54445, 1.54382, 1.53865, 1.53851, 1.55039, 1.53499, 1.54096, 1.52946, 1.529, 1.52701, 1.54464, 1.52246, 1.5242, 1.52988, 1.55142, 1.52761, 1.5291, 1.50772, 1.50627, 1.5068, 1.50458, 1.50213, 1.50138, 1.51005, 1.49847, 1.49596, 1.49511, 1.49466, 1.49537, 1.49876, 1.49647, 1.50437, 1.46352, 1.50006, 1.53035, 1.56179, 1.579, 1.5979, 1.6027, 1.59121, 1.59153, 1.59298, 1.58704, 1.5506, 1.51499, 1.50227, 1.45251, 1.45822, 1.48294, 1.46796, 1.4558, 1.45728, 1.4488, 1.44634, 1.44676, 1.44485, 1.46162, 1.44555, 1.45466, 1.45359, 1.45418, 1.44431, 1.44431, 1.43425, 1.42692, 1.42616, 1.42546, 1.42444, 1.423, 1.42011, 1.41936, 1.41901, 1.41721, 1.41725, 1.41577, 1.41359, 1.41337, 1.41179, 1.41103, 1.41079, 1.40903, 1.40647, 1.40431, 1.40182, 1.39785, 1.39614, 1.39465, 1.39455, 1.3923, 1.39116, 1.38881, 1.38885, 1.38513, 1.38518, 1.38456, 1.38092, 1.38016, 1.38062, 1.37868, 1.3786, 1.37632, 1.37554, 1.37825, 1.37427, 1.37362, 1.37082, 1.36958, 1.36862, 1.38623, 1.36827, 1.36719, 1.36237, 1.35913, 1.36061, 1.37122, 1.36044, 1.3606, 1.36763, 1.34259, 1.35483, 1.40217, 1.37105, 1.45202, 1.48903, 1.52297, 1.53023, 1.56749, 1.56257, 1.54369, 1.49351, 1.48144, 1.42004, 1.34721, 1.34031, 1.35699, 1.35088, 1.35455, 1.34092, 1.35317, 1.33339, 1.34337, 1.34655, 1.33307, 1.32778, 1.32893, 1.32698, 1.32667, 1.3237, 1.32075, 1.32052, 1.31782, 1.31822
1.67189, 1.66169, 1.66446, 1.65717, 1.65582, 1.6538, 1.65029, 1.64824, 1.64418, 1.64318, 1.64677, 1.64814, 1.64339, 1.64059, 1.63397, 1.65526, 1.64759, 1.65171, 1.63521, 1.62178, 1.61264, 1.64481, 1.68289, 1.69995, 1.73313, 1.81326, 1.85386, 1.89778, 1.90725, 1.91856, 1.7923, 1.67102, 1.60285, 1.59191, 1.60263, 1.59952, 1.59869, 1.59099, 1.59627, 1.58481, 1.59563, 1.58026, 1.57761, 1.57553, 1.57276, 1.57161, 1.57, 1.56807, 1.56596, 1.56522, 1.56383, 1.56337, 1.56055, 1.55739, 1.55532, 1.56061, 1.55101, 1.55031, 1.54998, 1.54712, 1.54374, 1.54261, 1.53955, 1.53735, 1.53465, 1.53593, 1.53419, 1.52666, 1.52795, 1.52524, 1.52475, 1.54058, 1.54347, 1.53451, 1.53172, 1.51526, 1.52271, 1.51349, 1.526, 1.50971, 1.51972, 1.5063, 1.50352, 1.52287, 1.50134, 1.50625, 1.51026, 1.51646, 1.50331, 1.49258, 1.47993, 1.48257, 1.49616, 1.53395, 1.57241, 1.5776, 1.60344, 1.60317, 1.63834, 1.58368, 1.55949, 1.55861, 1.52693, 1.53488, 1.45765, 1.46152, 1.48569, 1.48509, 1.46578, 1.46073, 1.45234, 1.4522, 1.45574, 1.44824, 1.4503, 1.44538, 1.45643, 1.46233, 1.45604, 1.46171, 1.44481, 1.43395, 1.43188, 1.42983, 1.42818, 1.42619, 1.42454, 1.42307, 1.42189, 1.42012, 1.41991, 1.41897, 1.41926, 1.41764, 1.41572, 1.41654, 1.41361, 1.4113, 1.4098, 1.40817, 1.40554, 1.40258, 1.40171, 1.40151, 1.39786, 1.39567, 1.39398, 1.39177, 1.39231, 1.39097, 1.38861, 1.38609, 1.38481, 1.38363, 1.38105, 1.38084, 1.37873, 1.37654, 1.37563, 1.37419, 1.37431, 1.37345, 1.37306, 1.37058, 1.37027, 1.36833, 1.36706, 1.3709, 1.37804, 1.3618, 1.37127, 1.36865, 1.36117, 1.36936, 1.37496, 1.36228, 1.35834, 1.35296, 1.41623, 1.46138, 1.44647, 1.47524, 1.49108, 1.56635, 1.58672, 1.60856, 1.58123, 1.56249, 1.45686, 1.39129, 1.32795, 1.34178, 1.35052, 1.35477, 1.35415, 1.34863, 1.35495, 1.3475, 1.33756, 1.33331, 1.33401, 1.33246, 1.33254, 1.33043, 1.32716, 1.32877, 1.32587, 1.32321, 1.32353, 1.32032
1.66455, 1.6634, 1.66205, 1.65746, 1.65588, 1.65508, 1.6515, 1.64715, 1.64452, 1.64248, 1.64197, 1.64746, 1.63458, 1.6348, 1.63409, 1.63419, 1.63404, 1.64765, 1.63993, 1.62282, 1.61198, 1.62373, 1.66573, 1.72023, 1.75116, 1.80697, 1.85137, 1.89435, 1.92885, 1.89644, 1.80221, 1.67857, 1.57926, 1.57984, 1.61748, 1.60319, 1.59236, 1.58945, 1.5864, 1.58134, 1.58136, 1.57875, 1.57782, 1.57467, 1.56973, 1.56763, 1.58872, 1.56607, 1.56128, 1.55792, 1.55619, 1.55501, 1.55344, 1.55168, 1.55079, 1.55383, 1.54801, 1.54662, 1.54736, 1.54744, 1.54717, 1.53815, 1.53741, 1.53463, 1.53313, 1.53084, 1.53086, 1.52813, 1.5274, 1.52455, 1.52513, 1.53147, 1.52156, 1.53356, 1.53793, 1.5371, 1.51227, 1.51126, 1.50982, 1.50886, 1.5066, 1.52055, 1.50599, 1.50494, 1.50088, 1.49535, 1.50659, 1.50974, 1.4999, 1.50935, 1.46905, 1.50148, 1.48771, 1.51959, 1.51653, 1.59974, 1.60026, 1.59927, 1.58576, 1.56794, 1.56222, 1.5499, 1.53427, 1.48953, 1.45031, 1.44383, 1.467, 1.46638, 1.4696, 1.46924, 1.46715, 1.45208, 1.44845, 1.44897, 1.4464, 1.44636, 1.44336, 1.45146, 1.4576, 1.44956, 1.4332, 1.43088, 1.42941, 1.43295, 1.42397, 1.42375, 1.42255, 1.42196, 1.42106, 1.42002, 1.41761, 1.41827, 1.41901, 1.41862, 1.41464, 1.41285, 1.41204, 1.41156, 1.41091, 1.40819, 1.40648, 1.40563, 1.40588, 1.40579, 1.39811, 1.39632, 1.39566, 1.39496, 1.39458, 1.39265, 1.39158, 1.39007, 1.41117, 1.3858, 1.38159, 1.37942, 1.37746, 1.37598, 1.37357, 1.37157, 1.37038, 1.3673, 1.36377, 1.36436, 1.36678, 1.36822, 1.36759, 1.36408, 1.36255, 1.36211, 1.3616, 1.35761, 1.35862, 1.36134, 1.36942, 1.36841, 1.33962, 1.36734, 1.39555, 1.4127, 1.46196, 1.46132, 1.53036, 1.55227, 1.59902, 1.61481, 1.62004, 1.58985, 1.53094, 1.44811, 1.34074, 1.3224, 1.3473, 1.34329, 1.35518, 1.3326, 1.33727, 1.3269, 1.32786, 1.32976, 1.34537, 1.32376, 1.32391, 1.32457, 1.32437, 1.32685, 1.32049, 1.31963, 1.31978, 1.32298
1.66449, 1.66111, 1.65646, 1.6571, 1.6539, 1.65057, 1.64943, 1.64693, 1.64535, 1.64264, 1.64207, 1.63995, 1.63896, 1.63675, 1.63533, 1.63555, 1.63362, 1.63831, 1.63172, 1.63093, 1.60317, 1.63444, 1.67793, 1.68663, 1.75848, 1.80883, 1.85716, 1.93069, 1.94456, 1.90025, 1.78651, 1.67343, 1.57234, 1.57182, 1.60896, 1.5991, 1.59958, 1.58931, 1.58494, 1.58291, 1.58012, 1.57802, 1.57632, 1.57234, 1.58891, 1.56977, 1.56762, 1.56465, 1.56253, 1.56061, 1.55819, 1.5572, 1.55663, 1.555, 1.55226, 1.55004, 1.54862, 1.54847, 1.54377, 1.54145, 1.53813, 1.53554, 1.53542, 1.53304, 1.54476, 1.52787, 1.52619, 1.52403, 1.52157, 1.52132, 1.51917, 1.51925, 1.518, 1.53034, 1.54447, 1.54108, 1.53036, 1.52882, 1.51059, 1.51207, 1.50726, 1.50673, 1.50008, 1.49844, 1.50265, 1.49676, 1.49512, 1.49662, 1.49595, 1.49657, 1.46848, 1.4728, 1.52959, 1.55561, 1.5638, 1.57892, 1.62107, 1.63049, 1.5709, 1.56377, 1.55427, 1.54746, 1.54699, 1.51331, 1.46712, 1.43513, 1.45762, 1.47807, 1.46219, 1.46118, 1.45593, 1.44906, 1.44724, 1.44447, 1.44243, 1.44103, 1.43889, 1.4371, 1.44044, 1.45895, 1.47119, 1.44788, 1.44502, 1.42688, 1.42645, 1.4242, 1.42272, 1.42138, 1.42165, 1.42023, 1.41954, 1.4189, 1.41871, 1.41763, 1.41709, 1.4156, 1.4134, 1.41224, 1.41113, 1.41018, 1.40828, 1.40745, 1.40664, 1.40441, 1.40242, 1.40039, 1.39813, 1.39682, 1.39492, 1.39207, 1.39126, 1.39065, 1.38842, 1.38487, 1.38232, 1.37846, 1.37513, 1.37541, 1.37599, 1.37447, 1.3709, 1.36647, 1.36573, 1.36496, 1.36459, 1.3651, 1.36613, 1.36487, 1.36563, 1.37291, 1.36534, 1.37163, 1.36397, 1.37815, 1.37045, 1.36674, 1.38094, 1.33895, 1.34981, 1.43094, 1.47064, 1.46523, 1.51414, 1.58138, 1.5826, 1.61013, 1.63162, 1.57093, 1.52422, 1.3764, 1.34454, 1.34093, 1.33804, 1.34063, 1.35625, 1.33959, 1.34473, 1.33229, 1.3332, 1.33157, 1.35035, 1.33398, 1.3275, 1.32765, 1.32513, 1.32372, 1.32281, 1.32058, 1.33511, 1.3174
1.65804, 1.65769, 1.65652, 1.65843, 1.65431, 1.64772, 1.64645, 1.64353, 1.64718, 1.63978, 1.6378, 1.63496, 1.63411, 1.63532, 1.63378, 1.634, 1.63076, 1.63132, 1.63457, 1.63681, 1.60247, 1.60981, 1.67432, 1.68021, 1.75239, 1.79351, 1.89282, 1.84788, 1.94761, 1.91479, 1.75311, 1.65603, 1.58875, 1.58575, 1.60288, 1.60531, 1.58952, 1.59989, 1.58544, 1.58365, 1.58021, 1.57832, 1.57577, 1.57551, 1.5715, 1.57231, 1.58135, 1.5649, 1.56169, 1.55946, 1.55754, 1.55425, 1.55324, 1.55237, 1.54999, 1.54914, 1.54666, 1.54523, 1.54531, 1.53892, 1.5365, 1.53638, 1.53109, 1.52971, 1.52704, 1.52572, 1.52589, 1.52335, 1.51786, 1.51633, 1.51333, 1.51145, 1.51473, 1.51119, 1.53088, 1.53765, 1.5303, 1.52057, 1.52105, 1.5138, 1.50563, 1.50399, 1.50942, 1.49989, 1.49601, 1.49368, 1.49607, 1.49617, 1.50239, 1.48705, 1.46412, 1.46181, 1.5036, 1.53719, 1.61415, 1.60277, 1.61315, 1.58386, 1.5684, 1.56086, 1.56287, 1.56215, 1.54075, 1.54978, 1.50575, 1.44642, 1.45789, 1.46791, 1.46585, 1.45871, 1.45808, 1.4492, 1.44456, 1.44362, 1.44231, 1.44001, 1.43908, 1.43774, 1.43919, 1.43684, 1.43179, 1.4298, 1.41633, 1.4193, 1.42191, 1.43216, 1.42033, 1.41891, 1.42006, 1.42699, 1.41924, 1.41675, 1.41563, 1.413, 1.41143, 1.41036, 1.40875, 1.40638, 1.40747, 1.40477, 1.40462, 1.40367, 1.40037, 1.40181, 1.39953, 1.39809, 1.39833, 1.39622, 1.3958, 1.39448, 1.39326, 1.39166, 1.38908, 1.38812, 1.38676, 1.38523, 1.38354, 1.38092, 1.37824, 1.37605, 1.37447, 1.37211, 1.37124, 1.37016, 1.3673, 1.3671, 1.36581, 1.36545, 1.36686, 1.36469, 1.36405, 1.36054, 1.35983, 1.36125, 1.37256, 1.36798, 1.3645, 1.35008, 1.35378, 1.39187, 1.43691, 1.50353, 1.52897, 1.57205, 1.592, 1.59821, 1.59413, 1.59253, 1.46597, 1.43496, 1.31965, 1.32415, 1.35359, 1.34293, 1.33986, 1.33323, 1.3325, 1.33055, 1.33242, 1.32682, 1.3295, 1.32626, 1.32249, 1.32274, 1.35874, 1.32169, 1.34583, 1.31754, 1.31747, 1.31596
1.6622, 1.67217, 1.65844, 1.65524, 1.65562, 1.64809, 1.6459, 1.64368, 1.64409, 1.63932, 1.65933, 1.63563, 1.63492, 1.63535, 1.642, 1.63516, 1.63177, 1.6368, 1.63151, 1.64087, 1.62479, 1.61346, 1.66007, 1.66915, 1.7383, 1.78652, 1.86045, 1.91147, 2.00473, 1.80754, 1.90498, 1.70287, 1.57595, 1.56604, 1.59704, 1.59425, 1.59918, 1.59375, 1.59045, 1.59256, 1.58181, 1.57878, 1.58948, 1.5715, 1.57087, 1.5689, 1.56756, 1.56398, 1.56128, 1.55964, 1.55791, 1.55713, 1.55587, 1.55398, 1.55208, 1.55028, 1.54896, 1.54749, 1.54497, 1.5435, 1.61564, 1.53802, 1.53533, 1.53323, 1.5318, 1.52825, 1.52568, 1.5213, 1.52081, 1.51876, 1.51585, 1.51472, 1.51383, 1.51351, 1.51703, 1.51779, 1.52368, 1.52789, 1.53763, 1.53129, 1.50696, 1.50218, 1.50389, 1.50622, 1.50091, 1.49904, 1.49387, 1.49507, 1.49536, 1.50917, 1.47866, 1.50228, 1.5042, 1.5235, 1.53331, 1.58256, 1.60147, 1.58138, 1.55421, 1.5662, 1.53754, 1.52998, 1.51303, 1.49952, 1.49551, 1.44697, 1.46824, 1.46902, 1.46351, 1.47095, 1.46415, 1.46032, 1.45652, 1.45334, 1.44635, 1.45748, 1.46457, 1.45695, 1.45127, 1.43508, 1.45146, 1.45383, 1.44331, 1.44638, 1.4384, 1.43093, 1.41822, 1.41699, 1.41612, 1.41555, 1.41546, 1.41425, 1.41381, 1.41254, 1.40985, 1.40843, 1.40433, 1.40473, 1.40231, 1.40066, 1.3995, 1.40124, 1.39874, 1.39829, 1.39817, 1.39572, 1.39557, 1.39281, 1.39283, 1.39031, 1.38861, 1.38638, 1.3852, 1.38492, 1.38234, 1.38187, 1.38237, 1.38082, 1.37973, 1.37929, 1.37931, 1.37775, 1.37662, 1.37721, 1.37561, 1.37577, 1.37096, 1.36732, 1.3672, 1.36726, 1.36445, 1.36446, 1.36432, 1.36368, 1.3668, 1.37191, 1.39076, 1.33319, 1.38415, 1.39693, 1.46888, 1.46188, 1.51369, 1.5441, 1.56277, 1.57575, 1.58245, 1.51565, 1.45059, 1.45067, 1.35794, 1.32302, 1.34481, 1.37061, 1.33841, 1.33432, 1.33002, 1.33016, 1.32918, 1.32763, 1.32731, 1.32593, 1.32599, 1.32438, 1.32127, 1.32092, 1.32069, 1.31944, 1.31868, 1.31545
1.66087, 1.65306, 1.65212, 1.65037, 1.64658, 1.64253, 1.64191, 1.64272, 1.64263, 1.64114, 1.64113, 1.63797, 1.63773, 1.63665, 1.63279, 1.63165, 1.62957, 1.62908, 1.6305, 1.63197, 1.63866, 1.62005, 1.64378, 1.69593, 1.72472, 1.79549, 1.85193, 1.88622, 1.92431, 1.91297, 1.78157, 1.67935, 1.57138, 1.57789, 1.59591, 1.60074, 1.59011, 1.58365, 1.59757, 1.57971, 1.57528, 1.57314, 1.56898, 1.5671, 1.56655, 1.56638, 1.57176, 1.56209, 1.56076, 1.56019, 1.55836, 1.55402, 1.55104, 1.55042, 1.54871, 1.54609, 1.54546, 1.54385, 1.54249, 1.54132, 1.5375, 1.53568, 1.53514, 1.53126, 1.53108, 1.52698, 1.52457, 1.52299, 1.52095, 1.51753, 1.517, 1.51441, 1.51465, 1.51312, 1.51047, 1.51237, 1.51995, 1.52902, 1.54766, 1.53341, 1.53514, 1.51608, 1.50587, 1.49837, 1.4967, 1.4918, 1.49058, 1.50237, 1.49229, 1.49608, 1.47435, 1.49405, 1.52381, 1.52681, 1.57772, 1.5849, 1.58255, 1.5721, 1.5557, 1.54132, 1.54087, 1.54092, 1.51369, 1.50532, 1.47945, 1.44075, 1.44634, 1.45497, 1.47235, 1.46238, 1.45878, 1.45343, 1.4541, 1.45114, 1.45118, 1.44873, 1.46033, 1.46507, 1.46621, 1.48464, 1.45831, 1.44721, 1.43823, 1.43742, 1.4267, 1.42435, 1.42308, 1.42043, 1.41892, 1.4181, 1.41776, 1.4163, 1.41412, 1.41222, 1.41079, 1.40875, 1.40578, 1.40522, 1.40328, 1.40167, 1.401, 1.40133, 1.40172, 1.39961, 1.39585, 1.39533, 1.39414, 1.39255, 1.39166, 1.38867, 1.38709, 1.38532, 1.38337, 1.38207, 1.38139, 1.38116, 1.3797, 1.37718, 1.37785, 1.37772, 1.37544, 1.37709, 1.37525, 1.37517, 1.37385, 1.37058, 1.36939, 1.3677, 1.36469, 1.36332, 1.36062, 1.36137, 1.35955, 1.35696, 1.35866, 1.36291, 1.37605, 1.35522, 1.34372, 1.44794, 1.42544, 1.49272, 1.54391, 1.56839, 1.60087, 1.64473, 1.63726, 1.63739, 1.51821, 1.37532, 1.33851, 1.33883, 1.35467, 1.34299, 1.34379, 1.35155, 1.33078, 1.32888, 1.32982, 1.32939, 1.32827, 1.3245, 1.32413, 1.32221, 1.31998, 1.31905, 1.32058, 1.31894, 1.31888, 1.31421
1.66742, 1.66335, 1.66021, 1.65817, 1.65337, 1.65834, 1.6493, 1.64919, 1.6472, 1.64415, 1.64117, 1.63848, 1.63442, 1.63457, 1.63215, 1.63178, 1.62901, 1.62955, 1.64223, 1.63678, 1.63768, 1.61687, 1.61034, 1.69624, 1.74711, 1.8135, 1.85547, 1.90436, 1.95227, 1.94111, 1.75781, 1.74694, 1.56206, 1.5795, 1.59567, 1.60154, 1.59122, 1.59506, 1.5903, 1.59235, 1.58577, 1.5751, 1.5761, 1.57654, 1.56992, 1.57603, 1.56505, 1.56457, 1.56401, 1.56778, 1.55807, 1.55497, 1.55182, 1.55039, 1.54791, 1.54726, 1.54339, 1.53893, 1.53491, 1.53365, 1.53145, 1.52963, 1.52895, 1.52803, 1.52551, 1.52383, 1.5231, 1.52179, 1.52188, 1.51942, 1.51909, 1.51875, 1.52655, 1.51747, 1.51593, 1.5146, 1.51227, 1.51027, 1.52639, 1.5229, 1.53677, 1.51677, 1.51929, 1.50961, 1.50404, 1.50209, 1.50658, 1.52011, 1.49325, 1.49872, 1.46941, 1.46947, 1.4787, 1.52922, 1.55357, 1.55803, 1.56214, 1.56478, 1.5157, 1.5506, 1.54759, 1.55771, 1.56534, 1.52087, 1.48114, 1.44079, 1.4582, 1.46578, 1.46129, 1.45566, 1.46834, 1.46191, 1.47283, 1.46506, 1.48227, 1.48832, 1.48493, 1.48792, 1.47893, 1.46776, 1.44191, 1.42972, 1.45372, 1.43122, 1.42705, 1.4296, 1.42298, 1.4224, 1.42087, 1.42041, 1.41727, 1.41673, 1.41313, 1.41189, 1.40876, 1.40596, 1.40344, 1.40296, 1.40497, 1.40035, 1.39892, 1.39687, 1.39735, 1.39531, 1.39597, 1.39261, 1.39029, 1.38834, 1.39214, 1.38696, 1.38465, 1.38343, 1.38318, 1.38091, 1.38104, 1.3805, 1.3784, 1.378, 1.37752, 1.37763, 1.37489, 1.37557, 1.37394, 1.37188, 1.37104, 1.37067, 1.36888, 1.3663, 1.36516, 1.36419, 1.36163, 1.36219, 1.3577, 1.36336, 1.3668, 1.3683, 1.37112, 1.35473, 1.34015, 1.41989, 1.41624, 1.48262, 1.51197, 1.56462, 1.58855, 1.61307, 1.61969, 1.58505, 1.40812, 1.40498, 1.33394, 1.30622, 1.35855, 1.34065, 1.33753, 1.33522, 1.33287, 1.33178, 1.3327, 1.33794, 1.32752, 1.32873, 1.3337, 1.32493, 1.32288, 1.32157, 1.32041, 1.3179, 1.31921, 1.3185
1.66543, 1.66169, 1.66132, 1.65987, 1.65847, 1.65394, 1.65137, 1.64769, 1.64503, 1.64417, 1.64102, 1.63933, 1.6355, 1.63233, 1.63117, 1.62771, 1.62407, 1.62288, 1.62334, 1.62594, 1.62562, 1.62649, 1.64047, 1.70268, 1.78284, 1.81685, 1.87051, 1.95928, 2.08303, 2.18767, 1.87877, 1.71062, 1.58161, 1.5525, 1.57986, 1.59884, 1.59007, 1.59276, 1.59743, 1.59284, 1.57981, 1.58573, 1.57398, 1.57197, 1.58062, 1.58186, 1.56532, 1.56175, 1.55808, 1.55472, 1.55347, 1.55203, 1.54913, 1.5459, 1.54443, 1.54026, 1.53875, 1.53717, 1.53222, 1.52947, 1.52811, 1.52522, 1.52345, 1.52256, 1.52057, 1.51908, 1.51854, 1.51931, 1.51728, 1.51567, 1.51438, 1.51374, 1.51347, 1.51222, 1.51078, 1.51011, 1.51, 1.50653, 1.50931, 1.52638, 1.55137, 1.54842, 1.54891, 1.54259, 1.50256, 1.51629, 1.49583, 1.49378, 1.49591, 1.48942, 1.48594, 1.4753, 1.49522, 1.50595, 1.52084, 1.54006, 1.55115, 1.54806, 1.5311, 1.55318, 1.54659, 1.57225, 1.58423, 1.51992, 1.47882, 1.4606, 1.49301, 1.50277, 1.49031, 1.49616, 1.50001, 1.50112, 1.50676, 1.49824, 1.47415, 1.46352, 1.46802, 1.46329, 1.44568, 1.44682, 1.45313, 1.43536, 1.43479, 1.43081, 1.427, 1.42941, 1.42292, 1.42237, 1.42041, 1.41869, 1.32655, 1.41321, 1.41269, 1.411, 1.40928, 1.40784, 1.40488, 1.40245, 1.40097, 1.40169, 1.3985, 1.39798, 1.39528, 1.39357, 1.39199, 1.39114, 1.39058, 1.38988, 1.38607, 1.38492, 1.38485, 1.38575, 1.38066, 1.38069, 1.38071, 1.37776, 1.37729, 1.37595, 1.37349, 1.37316, 1.37229, 1.37214, 1.37081, 1.36813, 1.36938, 1.36449, 1.36402, 1.36391, 1.36093, 1.36005, 1.35915, 1.35714, 1.35662, 1.35594, 1.35414, 1.36507, 1.37816, 1.36828, 1.32665, 1.35346, 1.41348, 1.45873, 1.50296, 1.53864, 1.59624, 1.63048, 1.62728, 1.60994, 1.48726, 1.42719, 1.35417, 1.32082, 1.33339, 1.34204, 1.33724, 1.33341, 1.32858, 1.32962, 1.32839, 1.32841, 1.32663, 1.32505, 1.32315, 1.32098, 1.31876, 1.31669, 1.31598, 1.31691, 1.31446, 1.31367
1.65542, 1.65374, 1.65258, 1.65103, 1.6516, 1.65212, 1.65785, 1.65877, 1.64888, 1.64699, 1.64579, 1.64139, 1.63808, 1.63796, 1.63207, 1.63104, 1.62721, 1.62427, 1.64177, 1.62027, 1.61952, 1.62022, 1.63509, 1.65424, 1.71368, 1.75442, 1.86562, 1.9269, 1.85721, 1.99047, 2.02452, 1.67941, 1.5743, 1.58494, 1.62676, 1.61412, 1.6012, 1.59325, 1.60523, 1.59117, 1.59208, 1.59295, 1.59241, 1.58317, 1.57995, 1.58228, 1.59262, 1.57279, 1.58172, 1.5668, 1.56165, 1.57059, 1.58261, 1.55242, 1.55022, 1.54777, 1.54582, 1.54154, 1.54074, 1.53772, 1.53613, 1.53529, 1.53096, 1.52903, 1.52582, 1.52463, 1.52341, 1.52234, 1.52031, 1.55399, 1.51742, 1.51663, 1.51518, 1.51271, 1.50981, 1.50791, 1.51163, 1.52307, 1.51389, 1.52303, 1.51221, 1.51274, 1.53432, 1.54916, 1.56724, 1.54555, 1.52664, 1.51051, 1.49315, 1.4816, 1.46726, 1.47524, 1.48122, 1.50919, 1.53011, 1.55586, 1.56209, 1.53692, 1.50644, 1.49873, 1.52163, 1.53106, 1.53191, 1.51817, 1.50858, 1.46209, 1.48567, 1.47297, 1.46489, 1.47003, 1.46787, 1.46522, 1.45504, 1.46168, 1.45034, 1.44736, 1.4452, 1.45363, 1.44238, 1.43955, 1.45386, 1.43455, 1.43214, 1.42941, 1.4279, 1.4258, 1.42415, 1.42262, 1.42029, 1.41918, 1.41586, 1.41531, 1.41345, 1.4119, 1.40978, 1.40911, 1.40748, 1.40602, 1.40485, 1.40449, 1.40235, 1.39905, 1.39898, 1.39834, 1.396, 1.39458, 1.39386, 1.39208, 1.39219, 1.39156, 1.39023, 1.38888, 1.38812, 1.388, 1.38695, 1.38734, 1.38442, 1.38055, 1.38171, 1.3767, 1.37555, 1.37535, 1.37256, 1.37776, 1.36916, 1.36785, 1.36526, 1.36523, 1.36229, 1.36863, 1.35932, 1.35726, 1.35728, 1.37053, 1.35715, 1.3595, 1.37128, 1.37172, 1.36013, 1.36004, 1.42029, 1.47871, 1.49524, 1.53774, 1.61598, 1.61653, 1.63728, 1.62822, 1.4898, 1.41557, 1.35742, 1.3371, 1.34546, 1.35129, 1.34142, 1.33839, 1.33268, 1.3305, 1.32899, 1.32883, 1.32762, 1.32854, 1.3253, 1.32379, 1.32583, 1.33358, 1.32335, 1.31996, 1.31906, 1.33105
1.65646, 1.65403, 1.65359, 1.65199, 1.65335, 1.65434, 1.65429, 1.65107, 1.65017, 1.64792, 1.64499, 1.6414, 1.64535, 1.63769, 1.63483, 1.64433, 1.62734, 1.62418, 1.621, 1.62281, 1.62251, 1.61771, 1.58689, 1.655, 1.72133, 1.71575, 1.82547, 1.86161, 1.96267, 1.97629, 1.89262, 1.68801, 1.57491, 1.58889, 1.59546, 1.60386, 1.59652, 1.61671, 1.59753, 1.60101, 1.59564, 1.59169, 1.60104, 1.58316, 1.58937, 1.5859, 1.57125, 1.56646, 1.56467, 1.56203, 1.55927, 1.55798, 1.55329, 1.55038, 1.54776, 1.54544, 1.54341, 1.54124, 1.53915, 1.53628, 1.53432, 1.53352, 1.52987, 1.52642, 1.52491, 1.5244, 1.52135, 1.51997, 1.51885, 1.51696, 1.51559, 1.51341, 1.5132, 1.51295, 1.50915, 1.50745, 1.50628, 1.51318, 1.5059, 1.51693, 1.50211, 1.5022, 1.50086, 1.50093, 1.49729, 1.50227, 1.51858, 1.51617, 1.52085, 1.51934, 1.49898, 1.48489, 1.48961, 1.50198, 1.54562, 1.57014, 1.56494, 1.57722, 1.55148, 1.49479, 1.52942, 1.56498, 1.54374, 1.53156, 1.5201, 1.47656, 1.46526, 1.47006, 1.4714, 1.46495, 1.45546, 1.45416, 1.45092, 1.44806, 1.44489, 1.44773, 1.44073, 1.43961, 1.43667, 1.43065, 1.4303, 1.4294, 1.42622, 1.42624, 1.42254, 1.42251, 1.42456, 1.42304, 1.41954, 1.4171, 1.41381, 1.41189, 1.41176, 1.41202, 1.41096, 1.41068, 1.40708, 1.40602, 1.40491, 1.40537, 1.40382, 1.4018, 1.39913, 1.39863, 1.39397, 1.39166, 1.39137, 1.39012, 1.38891, 1.38907, 1.38816, 1.38513, 1.39571, 1.38804, 1.38047, 1.38131, 1.38094, 1.38024, 1.37981, 1.37826, 1.37709, 1.3756, 1.37368, 1.37071, 1.36873, 1.3663, 1.36417, 1.3633, 1.36102, 1.35956, 1.36075, 1.36093, 1.36453, 1.3579, 1.37586, 1.37806, 1.37851, 1.37427, 1.36854, 1.33986, 1.40275, 1.45502, 1.50116, 1.57888, 1.62028, 1.63474, 1.66749, 1.66304, 1.56975, 1.47173, 1.43064, 1.31691, 1.33759, 1.34364, 1.33624, 1.34034, 1.33314, 1.32976, 1.32832, 1.32804, 1.32537, 1.32421, 1.3236, 1.3242, 1.32202, 1.32319, 1.32252, 1.32275, 1.32026, 1.31922
1.65769, 1.65572, 1.65412, 1.65502, 1.65294, 1.65048, 1.64759, 1.64848, 1.64542, 1.64326, 1.65085, 1.63726, 1.63523, 1.63317, 1.62863, 1.62646, 1.62375, 1.62302, 1.62255, 1.62319, 1.62248, 1.62349, 1.59905, 1.62386, 1.70037, 1.70385, 1.7888, 1.82806, 1.89226, 2.13882, 1.78542, 1.61499, 1.5819, 1.56523, 1.56901, 1.5771, 1.5781, 1.57898, 1.58328, 1.5934, 1.59807, 1.61007, 1.59363, 1.58992, 1.58054, 1.57477, 1.58011, 1.56516, 1.5588, 1.55768, 1.55912, 1.55019, 1.54952, 1.5484, 1.54675, 1.54367, 1.54171, 1.53965, 1.53776, 1.53542, 1.53464, 1.53307, 1.53087, 1.52847, 1.5272, 1.52392, 1.52166, 1.52083, 1.51783, 1.51693, 1.51382, 1.51201, 1.50978, 1.50922, 1.50665, 1.505, 1.50325, 1.50219, 1.49971, 1.49851, 1.49723, 1.49583, 1.49367, 1.4925, 1.49112, 1.49137, 1.48899, 1.48971, 1.49255, 1.50857, 1.49397, 1.49936, 1.5371, 1.52004, 1.55002, 1.55107, 1.56231, 1.54144, 1.53302, 1.50463, 1.50185, 1.53601, 1.55057, 1.5215, 1.50959, 1.48662, 1.46811, 1.47173, 1.46892, 1.46723, 1.46148, 1.45258, 1.45214, 1.44986, 1.44563, 1.44425, 1.44273, 1.4407, 1.43717, 1.43594, 1.43329, 1.43208, 1.42883, 1.42851, 1.42726, 1.42571, 1.42486, 1.42223, 1.42225, 1.41869, 1.41645, 1.41578, 1.41391, 1.4124, 1.41018, 1.40941, 1.41068, 1.40816, 1.40603, 1.40472, 1.40212, 1.40115, 1.39959, 1.39832, 1.39614, 1.39497, 1.39438, 1.39186, 1.3888, 1.38785, 1.38792, 1.38559, 1.38405, 1.38217, 1.3802, 1.38077, 1.3777, 1.37751, 1.37644, 1.37465, 1.37501, 1.37257, 1.37057, 1.37095, 1.36929, 1.36787, 1.36586, 1.36447, 1.36287, 1.36153, 1.36094, 1.35994, 1.3593, 1.3584, 1.35762, 1.35803, 1.35883, 1.37067, 1.36651, 1.3409, 1.39928, 1.44415, 1.48991, 1.55552, 1.61272, 1.62081, 1.66195, 1.65478, 1.60549, 1.45045, 1.38515, 1.3189, 1.34313, 1.33738, 1.35465, 1.33486, 1.33382, 1.33094, 1.3291, 1.33342, 1.32617, 1.32433, 1.32421, 1.32428, 1.32486, 1.32424, 1.32488, 1.32265, 1.32144, 1.32179
1.6528, 1.64943, 1.64899, 1.64673, 1.64622, 1.64422, 1.64201, 1.64015, 1.63846, 1.63892, 1.6381, 1.63687, 1.63256, 1.63076, 1.62686, 1.62435, 1.62545, 1.62987, 1.62298, 1.63462, 1.62598, 1.62186, 1.60827, 1.60493, 1.70106, 1.77109, 1.75729, 1.8259, 1.96168, 1.97653, 1.96727, 1.81244, 1.5699, 1.53353, 1.53698, 1.62292, 1.69282, 1.69764, 1.72729, 1.6893, 1.63715, 1.61473, 1.62145, 1.60173, 1.6001, 1.58348, 1.58328, 1.5952, 1.58274, 1.55717, 1.55456, 1.55068, 1.5483, 1.54679, 1.5459, 1.54121, 1.54038, 1.53805, 1.5373, 1.53663, 1.53389, 1.53287, 1.52997, 1.52938, 1.52705, 1.52412, 1.52123, 1.52023, 1.51728, 1.57537, 1.51323, 1.51022, 1.5086, 1.50803, 1.50667, 1.50423, 1.50407, 1.51538, 1.49874, 1.49559, 1.49375, 1.49252, 1.4904, 1.48868, 1.4866, 1.48558, 1.48621, 1.48919, 1.49018, 1.48991, 1.49105, 1.48506, 1.50233, 1.52384, 1.53384, 1.54418, 1.54591, 1.52584, 1.51541, 1.48953, 1.49111, 1.52423, 1.51266, 1.50895, 1.49223, 1.50828, 1.46682, 1.46385, 1.47956, 1.4623, 1.45984, 1.44826, 1.44484, 1.44196, 1.44039, 1.43794, 1.43927, 1.43411, 1.42929, 1.42947, 1.42719, 1.42565, 1.4239, 1.42292, 1.42546, 1.42383, 1.42173, 1.42079, 1.43461, 1.41967, 1.42656, 1.41637, 1.41553, 1.4117, 1.40949, 1.40573, 1.40411, 1.40246, 1.40306, 1.40286, 1.39892, 1.39811, 1.39596, 1.39421, 1.39364, 1.3933, 1.39175, 1.39479, 1.38805, 1.38642, 1.38478, 1.38458, 1.38377, 1.38076, 1.3788, 1.3783, 1.37592, 1.37423, 1.37103, 1.37008, 1.3681, 1.36564, 1.36504, 1.36406, 1.36482, 1.36502, 1.3638, 1.36066, 1.36289, 1.3608, 1.35744, 1.35649, 1.3551, 1.35356, 1.35352, 1.36086, 1.35895, 1.36546, 1.36374, 1.34996, 1.33988, 1.41402, 1.45359, 1.50705, 1.59088, 1.63471, 1.67539, 1.66876, 1.63731, 1.45739, 1.35805, 1.32809, 1.33985, 1.34738, 1.33863, 1.34645, 1.3321, 1.33228, 1.35831, 1.33016, 1.3241, 1.32992, 1.32158, 1.3307, 1.32006, 1.31866, 1.31623, 1.31452, 1.31463, 1.31305
1.65298, 1.64973, 1.65009, 1.64805, 1.64541, 1.64425, 1.64109, 1.63918, 1.63674, 1.63666, 1.63125, 1.63124, 1.62859, 1.6254, 1.6228, 1.61961, 1.61961, 1.62698, 1.61851, 1.61953, 1.62111, 1.62433, 1.61629, 1.59344, 1.66947, 1.69101, 1.74175, 1.81254, 1.9662, 2.00842, 1.98156, 1.70987, 1.621, 1.56776, 1.56777, 1.59767, 1.59794, 1.67885, 1.69664, 1.68471, 1.66165, 1.62568, 1.61725, 1.59631, 1.60032, 1.58922, 1.58322, 1.56906, 1.57185, 1.55904, 1.5585, 1.55836, 1.56532, 1.5446, 1.54141, 1.54199, 1.53832, 1.53756, 1.53352, 1.53155, 1.53235, 1.53299, 1.52853, 1.52676, 1.52591, 1.52551, 1.52164, 1.51913, 1.5163, 1.52418, 1.5112, 1.5098, 1.50984, 1.50527, 1.50324, 1.50215, 1.50125, 1.49931, 1.49823, 1.49605, 1.49324, 1.49238, 1.48967, 1.49288, 1.48752, 1.48606, 1.48444, 1.48622, 1.49048, 1.49129, 1.49684, 1.47578, 1.49115, 1.51213, 1.55501, 1.52323, 1.53644, 1.52681, 1.49446, 1.49527, 1.50466, 1.52809, 1.49708, 1.51699, 1.49271, 1.49953, 1.44698, 1.46115, 1.45911, 1.45512, 1.46462, 1.4516, 1.4505, 1.43801, 1.43363, 1.43232, 1.43021, 1.42941, 1.42818, 1.42669, 1.42399, 1.41882, 1.4228, 1.42297, 1.42414, 1.42225, 1.42169, 1.42152, 1.41808, 1.41774, 1.41501, 1.41431, 1.4113, 1.40779, 1.40707, 1.40533, 1.40654, 1.4065, 1.39815, 1.3979, 1.39624, 1.39836, 1.39375, 1.3927, 1.39163, 1.38898, 1.38893, 1.38701, 1.38605, 1.38434, 1.38421, 1.38185, 1.38007, 1.37849, 1.37739, 1.37541, 1.3757, 1.37358, 1.37198, 1.37209, 1.37025, 1.36998, 1.36829, 1.36834, 1.3685, 1.36487, 1.36443, 1.36366, 1.36047, 1.35866, 1.37397, 1.35981, 1.36181, 1.36055, 1.36387, 1.35518, 1.35699, 1.35546, 1.35492, 1.32603, 1.36361, 1.37467, 1.47035, 1.54193, 1.56439, 1.62022, 1.73565, 1.72421, 1.59294, 1.46835, 1.39972, 1.31619, 1.35463, 1.35083, 1.34427, 1.34048, 1.33149, 1.33453, 1.32401, 1.34019, 1.3223, 1.34062, 1.32231, 1.32298, 1.32175, 1.31663, 1.31793, 1.31681, 1.31341, 1.31635
1.64385, 1.64208, 1.64134, 1.6414, 1.63677, 1.63696, 1.63317, 1.63146, 1.63083, 1.62709, 1.62608, 1.62448, 1.62328, 1.64412, 1.61744, 1.61442, 1.61463, 1.61227, 1.61024, 1.60949, 1.60843, 1.60821, 1.60633, 1.58278, 1.65163, 1.66715, 1.71846, 1.83907, 1.89244, 2.18052, 1.93503, 1.79535, 1.58075, 1.55976, 1.5579, 1.58613, 1.58932, 1.58492, 1.58522, 1.60196, 1.60313, 1.58983, 1.58327, 1.58665, 1.58894, 1.57606, 1.58415, 1.57469, 1.56521, 1.55529, 1.54339, 1.5492, 1.53698, 1.53446, 1.53325, 1.53377, 1.53194, 1.52786, 1.52687, 1.5272, 1.52363, 1.52077, 1.51956, 1.51962, 1.51993, 1.51909, 1.51444, 1.51329, 1.51077, 1.51031, 1.50728, 1.50419, 1.50202, 1.4994, 1.49561, 1.49254, 1.49247, 1.49171, 1.48802, 1.48776, 1.48579, 1.48452, 1.48281, 1.4812, 1.47863, 1.4791, 1.47462, 1.49269, 1.48183, 1.48136, 1.49843, 1.48118, 1.49308, 1.50611, 1.53638, 1.53292, 1.51592, 1.50927, 1.5256, 1.51196, 1.51532, 1.50797, 1.49528, 1.50989, 1.50915, 1.50395, 1.46594, 1.45941, 1.45548, 1.45881, 1.45389, 1.44593, 1.44664, 1.43777, 1.43528, 1.4317, 1.42963, 1.42954, 1.42392, 1.4251, 1.42464, 1.42327, 1.42396, 1.42869, 1.41659, 1.41534, 1.41517, 1.4134, 1.41432, 1.40813, 1.40569, 1.40267, 1.40184, 1.40209, 1.40581, 1.39674, 1.39721, 1.39463, 1.39247, 1.39154, 1.3913, 1.39121, 1.38972, 1.39031, 1.39058, 1.39089, 1.39014, 1.38963, 1.38918, 1.38791, 1.38213, 1.37949, 1.37878, 1.37792, 1.37597, 1.37316, 1.36962, 1.36555, 1.36429, 1.36828, 1.36732, 1.36653, 1.36622, 1.36544, 1.36313, 1.36376, 1.36338, 1.35861, 1.35976, 1.35797, 1.35403, 1.35353, 1.35395, 1.35093, 1.34836, 1.34695, 1.35631, 1.35075, 1.35364, 1.35379, 1.37265, 1.39521, 1.45394, 1.52331, 1.55544, 1.61944, 1.7042, 1.71317, 1.70643, 1.45391, 1.37907, 1.30368, 1.32659, 1.33952, 1.34313, 1.32713, 1.32292, 1.3195, 1.31862, 1.31662, 1.31661, 1.3154, 1.31659, 1.31895, 1.31429, 1.31509, 1.30979, 1.30753, 1.30444, 1.31381
1.64046, 1.63783, 1.63721, 1.6354, 1.63634, 1.63463, 1.63377, 1.6322, 1.6311, 1.6296, 1.62716, 1.6252, 1.62294, 1.62007, 1.61821, 1.61526, 1.61371, 1.61296, 1.60951, 1.60866, 1.61007, 1.6085, 1.6031, 1.58037, 1.63437, 1.69108, 1.71369, 1.80218, 1.83032, 2.0835, 1.91665, 1.78307, 1.66659, 1.54882, 1.56853, 1.58386, 1.57614, 1.58176, 1.57299, 1.5802, 1.57316, 1.57939, 1.57945, 1.56556, 1.5618, 1.56813, 1.55572, 1.56013, 1.54849, 1.54752, 1.54455, 1.54164, 1.53998, 1.53829, 1.53572, 1.53326, 1.5305, 1.52908, 1.52577, 1.52327, 1.522, 1.52042, 1.5179, 1.51614, 1.51512, 1.51418, 1.51314, 1.50939, 1.50908, 1.50793, 1.50454, 1.50265, 1.4983, 1.49568, 1.4944, 1.49038, 1.48876, 1.48704, 1.48577, 1.4855, 1.48307, 1.48159, 1.47993, 1.47941, 1.47882, 1.47762, 1.47598, 1.47583, 1.48463, 1.4789, 1.47643, 1.48774, 1.49525, 1.53685, 1.52294, 1.52708, 1.52234, 1.51876, 1.51762, 1.51319, 1.48869, 1.50048, 1.50301, 1.49185, 1.49547, 1.51011, 1.48218, 1.46018, 1.4567, 1.45661, 1.45258, 1.44342, 1.44165, 1.43782, 1.43346, 1.43462, 1.42907, 1.42604, 1.42439, 1.42253, 1.42188, 1.41926, 1.41869, 1.41762, 1.41529, 1.41433, 1.41252, 1.40941, 1.40681, 1.4049, 1.40387, 1.40219, 1.40005, 1.39606, 1.39648, 1.39548, 1.39209, 1.39184, 1.38977, 1.3901, 1.38787, 1.38646, 1.38834, 1.38793, 1.38818, 1.38763, 1.38704, 1.38576, 1.38472, 1.38391, 1.38195, 1.37949, 1.37765, 1.37195, 1.36859, 1.36566, 1.36457, 1.36323, 1.3623, 1.36214, 1.3609, 1.36079, 1.36029, 1.3587, 1.35926, 1.35608, 1.35543, 1.35424, 1.3543, 1.35324, 1.35229, 1.34906, 1.36013, 1.34485, 1.34495, 1.34435, 1.34439, 1.34569, 1.35424, 1.32376, 1.32299, 1.35853, 1.45436, 1.49087, 1.52444, 1.57297, 1.69847, 1.73747, 1.57726, 1.43067, 1.34987, 1.2883, 1.30883, 1.33149, 1.33993, 1.33766, 1.32062, 1.31885, 1.32044, 1.31793, 1.31901, 1.31773, 1.31705, 1.31562, 1.31469, 1.31019, 1.31209, 1.30933, 1.30887, 1.3095
1.63935, 1.63824, 1.63661, 1.63477, 1.63189, 1.6315, 1.6302, 1.62998, 1.62882, 1.62732, 1.62647, 1.6346, 1.6213, 1.62098, 1.61686, 1.61423, 1.614, 1.60977, 1.60792, 1.60592, 1.60644, 1.60718, 1.60399, 1.58114, 1.59049, 1.68001, 1.76421, 1.8046, 1.83748, 1.80358, 1.75463, 1.66846, 1.61654, 1.53775, 1.54759, 1.58034, 1.58158, 1.58796, 1.57895, 1.58431, 1.57022, 1.56638, 1.56601, 1.56114, 1.56041, 1.55911, 1.56109, 1.55312, 1.55065, 1.54966, 1.54456, 1.54228, 1.54004, 1.53854, 1.5354, 1.53381, 1.53176, 1.5276, 1.52497, 1.52073, 1.51638, 1.51605, 1.51617, 1.51606, 1.51426, 1.51105, 1.50968, 1.50711, 1.50578, 1.50565, 1.50363, 1.50164, 1.49899, 1.4991, 1.49674, 1.4925, 1.49122, 1.48959, 1.48745, 1.48569, 1.48426, 1.48153, 1.48016, 1.47759, 1.47682, 1.47635, 1.48098, 1.47472, 1.47605, 1.47866, 1.4914, 1.49859, 1.47912, 1.50547, 1.53018, 1.57684, 1.52967, 1.53522, 1.51343, 1.49478, 1.50282, 1.48116, 1.4868, 1.48905, 1.50582, 1.50578, 1.46276, 1.46493, 1.46014, 1.45895, 1.45158, 1.45106, 1.43896, 1.43337, 1.4279, 1.42883, 1.42612, 1.42388, 1.42343, 1.43636, 1.41987, 1.41931, 1.41737, 1.41603, 1.4168, 1.4141, 1.41193, 1.40937, 1.40881, 1.407, 1.40673, 1.40465, 1.40463, 1.39994, 1.39829, 1.39858, 1.39663, 1.39462, 1.392, 1.39109, 1.39046, 1.3912, 1.38788, 1.3856, 1.38494, 1.38541, 1.38339, 1.37929, 1.37849, 1.37697, 1.37487, 1.37277, 1.37056, 1.36801, 1.36469, 1.36638, 1.36197, 1.35946, 1.36038, 1.36051, 1.35907, 1.36036, 1.35793, 1.35725, 1.35531, 1.35446, 1.35464, 1.35224, 1.3534, 1.3487, 1.3512, 1.34735, 1.3468, 1.35443, 1.34413, 1.34221, 1.343, 1.34449, 1.35272, 1.34023, 1.34275, 1.37524, 1.45335, 1.53022, 1.52487, 1.61277, 1.68596, 1.85829, 1.67929, 1.51781, 1.43457, 1.31138, 1.31055, 1.32453, 1.32918, 1.32195, 1.32065, 1.34006, 1.3202, 1.3331, 1.31767, 1.31857, 1.31799, 1.31436, 1.31528, 1.31529, 1.31408, 1.31205, 1.3336, 1.31156
1.63889, 1.63667, 1.63516, 1.63494, 1.63327, 1.6335, 1.63057, 1.62996, 1.62926, 1.62818, 1.6256, 1.62352, 1.62054, 1.61857, 1.62318, 1.63751, 1.61975, 1.61087, 1.60765, 1.60714, 1.61233, 1.60802, 1.61674, 1.59848, 1.60207, 1.65613, 1.76748, 1.8436, 1.74155, 1.74603, 1.71182, 1.82758, 1.63416, 1.55104, 1.56153, 1.57532, 1.58017, 1.58276, 1.59541, 1.57335, 1.58491, 1.57624, 1.56796, 1.57563, 1.56748, 1.57266, 1.55417, 1.55187, 1.54791, 1.54428, 1.54189, 1.54127, 1.54143, 1.53998, 1.53871, 1.53434, 1.53255, 1.53134, 1.52931, 1.52677, 1.52437, 1.52055, 1.52002, 1.51894, 1.51677, 1.51544, 1.51235, 1.51059, 1.50955, 1.50698, 1.50485, 1.50286, 1.50005, 1.49885, 1.49794, 1.50617, 1.49263, 1.49057, 1.48856, 1.48808, 1.48591, 1.48563, 1.48319, 1.48174, 1.48039, 1.47979, 1.47889, 1.48247, 1.48663, 1.49385, 1.48353, 1.48326, 1.48807, 1.52237, 1.51671, 1.50869, 1.50957, 1.50248, 1.4911, 1.47906, 1.48845, 1.4816, 1.48931, 1.49584, 1.53027, 1.49028, 1.48216, 1.4561, 1.45705, 1.44387, 1.44405, 1.43516, 1.43063, 1.44339, 1.428, 1.42648, 1.42584, 1.4346, 1.42497, 1.42637, 1.42217, 1.42063, 1.4174, 1.41637, 1.41451, 1.41157, 1.41116, 1.40924, 1.40804, 1.4056, 1.40331, 1.40301, 1.40155, 1.39914, 1.40176, 1.39645, 1.39524, 1.42955, 1.39394, 1.39165, 1.41394, 1.38832, 1.38712, 1.38426, 1.38064, 1.38005, 1.3785, 1.37639, 1.37779, 1.37101, 1.36946, 1.36828, 1.36711, 1.36384, 1.36188, 1.35959, 1.36014, 1.3595, 1.35716, 1.35741, 1.35858, 1.35798, 1.35793, 1.35755, 1.37463, 1.36521, 1.35376, 1.35158, 1.35218, 1.35046, 1.34912, 1.34819, 1.34813, 1.34506, 1.35802, 1.3438, 1.36484, 1.3442, 1.3515, 1.3504, 1.33412, 1.37815, 1.41714, 1.46869, 1.52578, 1.56939, 1.71606, 1.72445, 1.65856, 1.47743, 1.35691, 1.28125, 1.33014, 1.33291, 1.3334, 1.3275, 1.31799, 1.33283, 1.31751, 1.31849, 1.31737, 1.31559, 1.31548, 1.31523, 1.31257, 1.31219, 1.32403, 1.31029, 1.30764, 1.30689
1.6356, 1.63394, 1.63012, 1.62836, 1.62566, 1.62513, 1.62373, 1.62406, 1.62069, 1.61854, 1.61665, 1.614, 1.61299, 1.61008, 1.60833, 1.60445, 1.60409, 1.60192, 1.59916, 1.59641, 1.59452, 1.60065, 1.5915, 1.59761, 1.617, 1.65517, 1.72654, 1.78596, 1.85541, 1.87425, 2.15355, 2.15588, 1.72057, 1.5437, 1.57987, 1.57716, 1.57874, 1.57615, 1.57651, 1.56798, 1.56108, 1.55958, 1.55613, 1.55415, 1.56499, 1.54897, 1.54404, 1.53993, 1.53749, 1.53358, 1.53237, 1.53653, 1.53164, 1.52999, 1.52821, 1.52705, 1.52652, 1.52534, 1.52397, 1.52276, 1.5208, 1.51762, 1.51614, 1.51014, 1.50724, 1.50477, 1.50453, 1.50298, 1.50147, 1.49869, 1.49717, 1.49479, 1.4931, 1.49072, 1.48904, 1.48859, 1.48523, 1.48413, 1.48135, 1.47746, 1.47815, 1.47759, 1.47653, 1.47474, 1.47331, 1.47277, 1.47863, 1.47094, 1.47454, 1.4921, 1.47575, 1.48567, 1.48571, 1.49573, 1.51997, 1.50695, 1.49691, 1.48713, 1.48188, 1.46897, 1.46769, 1.48231, 1.48219, 1.49347, 1.49314, 1.49338, 1.46524, 1.45336, 1.45378, 1.43729, 1.4352, 1.44004, 1.42416, 1.42439, 1.42006, 1.41769, 1.41706, 1.41395, 1.41286, 1.41354, 1.41557, 1.41708, 1.43002, 1.41241, 1.40964, 1.40715, 1.40679, 1.40233, 1.39958, 1.39815, 1.39523, 1.39532, 1.39369, 1.39222, 1.39247, 1.39158, 1.38807, 1.38794, 1.38508, 1.38427, 1.37962, 1.37936, 1.37863, 1.3753, 1.37438, 1.37238, 1.36895, 1.3708, 1.36428, 1.36187, 1.35854, 1.35925, 1.35712, 1.35689, 1.35728, 1.35432, 1.35201, 1.35343, 1.35124, 1.35089, 1.35412, 1.35383, 1.35276, 1.35167, 1.35247, 1.35013, 1.35008, 1.34661, 1.34416, 1.34611, 1.34179, 1.34775, 1.33873, 1.33762, 1.33516, 1.33679, 1.33542, 1.33681, 1.34503, 1.33943, 1.29984, 1.31841, 1.41463, 1.46909, 1.47815, 1.5484, 1.61997, 1.71719, 1.48396, 1.47905, 1.44338, 1.29827, 1.31535, 1.31473, 1.31103, 1.30945, 1.30814, 1.30817, 1.30665, 1.31135, 1.30836, 1.30956, 1.30528, 1.30643, 1.29962, 1.29817, 1.29907, 1.29543, 1.29849, 1.29415
1.63281, 1.63545, 1.63021, 1.63384, 1.62496, 1.62313, 1.62677, 1.61902, 1.61997, 1.61344, 1.61918, 1.60961, 1.60825, 1.61724, 1.60585, 1.60142, 1.6078, 1.59528, 1.5926, 1.59164, 1.59574, 1.60629, 1.59627, 1.60563, 1.56718, 1.63195, 1.67161, 1.75965, 1.88423, 1.94783, 1.96718, 1.86895, 1.67029, 1.59802, 1.56523, 1.5807, 1.57508, 1.56867, 1.55948, 1.5577, 1.55211, 1.55802, 1.54859, 1.54376, 1.54303, 1.53964, 1.53731, 1.53534, 1.5314, 1.53127, 1.52883, 1.52364, 1.52138, 1.52033, 1.518, 1.51833, 1.51831, 1.51588, 1.51477, 1.5138, 1.51241, 1.51306, 1.51195, 1.50917, 1.50585, 1.50375, 1.50209, 1.50013, 1.49751, 1.49609, 1.49514, 1.49339, 1.48979, 1.48787, 1.48523, 1.48119, 1.47901, 1.47843, 1.47789, 1.47468, 1.47436, 1.4719, 1.47006, 1.46822, 1.46623, 1.46432, 1.46461, 1.46419, 1.46623, 1.46823, 1.48152, 1.4702, 1.47037, 1.46739, 1.49187, 1.49974, 1.49577, 1.51439, 1.48956, 1.47475, 1.4989, 1.48325, 1.48259, 1.48479, 1.48952, 1.4847, 1.49578, 1.44217, 1.43721, 1.43717, 1.43667, 1.43482, 1.4237, 1.42588, 1.41417, 1.41328, 1.41158, 1.41002, 1.41085, 1.41047, 1.4091, 1.40639, 1.40555, 1.406, 1.40547, 1.40287, 1.4014, 1.39976, 1.39527, 1.39399, 1.3919, 1.38865, 1.38566, 1.38527, 1.3881, 1.38154, 1.38244, 1.37992, 1.37975, 1.37825, 1.37864, 1.37869, 1.37658, 1.37706, 1.37554, 1.37137, 1.36843, 1.36544, 1.36194, 1.36073, 1.36098, 1.35538, 1.3561, 1.3513, 1.3552, 1.35053, 1.35045, 1.34713, 1.34639, 1.3478, 1.3512, 1.35043, 1.35135, 1.35301, 1.34834, 1.3474, 1.35827, 1.34455, 1.34401, 1.35092, 1.33691, 1.34334, 1.33994, 1.3538, 1.33103, 1.34299, 1.32907, 1.32797, 1.33088, 1.33975, 1.28931, 1.32629, 1.38874, 1.44684, 1.50609, 1.5831, 1.69336, 1.73594, 1.72557, 1.47564, 1.4213, 1.29252, 1.29293, 1.3102, 1.31698, 1.30865, 1.307, 1.30892, 1.30775, 1.30576, 1.30319, 1.30287, 1.31936, 1.30009, 1.29627, 1.29572, 1.313, 1.29433, 1.29511, 1.29481
1.63118, 1.62665, 1.62478, 1.62322, 1.62234, 1.62013, 1.6185, 1.62213, 1.62368, 1.61128, 1.61026, 1.61382, 1.60901, 1.6072, 1.60206, 1.60099, 1.60025, 1.61188, 1.59891, 1.60039, 1.59483, 1.5973, 1.59784, 1.59165, 1.5648, 1.67517, 1.67918, 1.6969, 1.81788, 1.82165, 2.05274, 1.87327, 1.64711, 1.5782, 1.56173, 1.56952, 1.59014, 1.56273, 1.55847, 1.56674, 1.55221, 1.54904, 1.55913, 1.55084, 1.54368, 1.54105, 1.53759, 1.53423, 1.53409, 1.54469, 1.53252, 1.52807, 1.5261, 1.52307, 1.52049, 1.51814, 1.51516, 1.51125, 1.51541, 1.5163, 1.51041, 1.50938, 1.5056, 1.50897, 1.49976, 1.49877, 1.4971, 1.49513, 1.49203, 1.48998, 1.48862, 1.4889, 1.48735, 1.48509, 1.48445, 1.48093, 1.47946, 1.50362, 1.47459, 1.47923, 1.47296, 1.47052, 1.47455, 1.46723, 1.46427, 1.46297, 1.46164, 1.46158, 1.47668, 1.46319, 1.46617, 1.46369, 1.46236, 1.4631, 1.47118, 1.48497, 1.48257, 1.49189, 1.48379, 1.49221, 1.46921, 1.46994, 1.48666, 1.47982, 1.47474, 1.47577, 1.46506, 1.4599, 1.45741, 1.44362, 1.45365, 1.44223, 1.42995, 1.41943, 1.41982, 1.4226, 1.41368, 1.42375, 1.4114, 1.40923, 1.40929, 1.40612, 1.40387, 1.40474, 1.39989, 1.40092, 1.39931, 1.39736, 1.39619, 1.40273, 1.39223, 1.38843, 1.38533, 1.38766, 1.38501, 1.38195, 1.37826, 1.37885, 1.37607, 1.37388, 1.37072, 1.37024, 1.36851, 1.36825, 1.36916, 1.36935, 1.36811, 1.36594, 1.36532, 1.36453, 1.36477, 1.36224, 1.35778, 1.36141, 1.35488, 1.35773, 1.35891, 1.35101, 1.35119, 1.35178, 1.34864, 1.34704, 1.34722, 1.35066, 1.3614, 1.34625, 1.34275, 1.34274, 1.36454, 1.34157, 1.34192, 1.33761, 1.34935, 1.3505, 1.3336, 1.34416, 1.33369, 1.33467, 1.34847, 1.33495, 1.32922, 1.34312, 1.37056, 1.42617, 1.50224, 1.53087, 1.62422, 1.73407, 1.73565, 1.5162, 1.40413, 1.32026, 1.31308, 1.32838, 1.32803, 1.32865, 1.31708, 1.32399, 1.32699, 1.33153, 1.30651, 1.31276, 1.30825, 1.30993, 1.32127, 1.30137, 1.30928, 1.29631, 1.29572, 1.2954
1.6312, 1.62935, 1.6279, 1.62399, 1.62688, 1.62664, 1.61749, 1.61602, 1.61302, 1.60972, 1.60704, 1.60544, 1.63328, 1.60045, 1.60667, 1.59842, 1.60051, 1.60151, 1.59818, 1.60128, 1.60124, 1.61302, 1.59617, 1.58877, 1.60996, 1.59088, 1.65001, 1.79712, 1.8187, 1.96351, 2.01099, 1.82348, 1.74183, 1.55612, 1.5546, 1.56511, 1.57307, 1.55858, 1.55743, 1.55412, 1.55253, 1.55446, 1.55542, 1.54781, 1.55507, 1.55368, 1.5482, 1.53692, 1.55603, 1.53259, 1.53686, 1.52595, 1.5235, 1.55105, 1.51904, 1.51704, 1.52209, 1.51406, 1.51416, 1.51481, 1.52339, 1.51111, 1.50866, 1.50854, 1.5047, 1.50185, 1.49959, 1.4978, 1.49591, 1.49262, 1.48936, 1.48897, 1.48644, 1.48391, 1.48459, 1.47981, 1.47718, 1.47477, 1.47424, 1.47171, 1.47031, 1.46804, 1.46755, 1.46508, 1.46427, 1.46315, 1.46396, 1.46853, 1.4672, 1.47119, 1.46629, 1.47456, 1.46628, 1.46784, 1.46827, 1.48592, 1.47522, 1.48603, 1.51563, 1.50928, 1.46541, 1.45873, 1.47806, 1.46817, 1.4781, 1.46988, 1.46754, 1.45602, 1.43993, 1.44376, 1.43722, 1.42961, 1.43491, 1.41684, 1.41222, 1.41546, 1.40907, 1.40714, 1.40527, 1.404, 1.41902, 1.40284, 1.40419, 1.40261, 1.40026, 1.39941, 1.39896, 1.39776, 1.39821, 1.39199, 1.39002, 1.38857, 1.3849, 1.38369, 1.38168, 1.38037, 1.37873, 1.37765, 1.37705, 1.37583, 1.37408, 1.3718, 1.3708, 1.36925, 1.36962, 1.36706, 1.36595, 1.36673, 1.36482, 1.36416, 1.36273, 1.36325, 1.36203, 1.36187, 1.36088, 1.36137, 1.35744, 1.35678, 1.35563, 1.35183, 1.3508, 1.35006, 1.35317, 1.34762, 1.34449, 1.34368, 1.34287, 1.34288, 1.34403, 1.34087, 1.35053, 1.33975, 1.33973, 1.33939, 1.34065, 1.33722, 1.34343, 1.3379, 1.34402, 1.34063, 1.32607, 1.32999, 1.33776, 1.41801, 1.45353, 1.4767, 1.63341, 1.67075, 1.61619, 1.50664, 1.37153, 1.29555, 1.30102, 1.33063, 1.31852, 1.31625, 1.31022, 1.30955, 1.30631, 1.30719, 1.30353, 1.30442, 1.30451, 1.31302, 1.3103, 1.30219, 1.29941, 1.3009, 1.29542, 1.29713
1.6204, 1.61886, 1.61696, 1.61985, 1.61356, 1.6123, 1.60742, 1.60682, 1.60424, 1.60224, 1.60026, 1.5976, 1.59386, 1.59281, 1.6168, 1.59938, 1.60814, 1.60768, 1.60253, 1.59415, 1.5946, 1.59646, 1.59101, 1.59077, 1.56586, 1.57753, 1.64789, 1.7246, 1.80599, 1.87278, 1.89635, 1.77903, 1.68061, 1.55872, 1.53718, 1.54225, 1.55299, 1.56297, 1.5552, 1.54288, 1.53994, 1.53663, 1.53521, 1.53742, 1.53001, 1.53199, 1.52792, 1.52723, 1.52416, 1.52303, 1.52226, 1.52035, 1.5173, 1.52468, 1.51434, 1.51197, 1.51264, 1.51337, 1.50524, 1.51008, 1.499, 1.49989, 1.49323, 1.49427, 1.49214, 1.49005, 1.48889, 1.48457, 1.48536, 1.48426, 1.48018, 1.4767, 1.4758, 1.47375, 1.47207, 1.47119, 1.46911, 1.46937, 1.46805, 1.46566, 1.46403, 1.46148, 1.45961, 1.45847, 1.45715, 1.47464, 1.47822, 1.45401, 1.46392, 1.4703, 1.45823, 1.46288, 1.47343, 1.47755, 1.47746, 1.46846, 1.46865, 1.48891, 1.46362, 1.46625, 1.47417, 1.46478, 1.45482, 1.45825, 1.49713, 1.47783, 1.44817, 1.46454, 1.42922, 1.4378, 1.42412, 1.4195, 1.414, 1.41559, 1.40231, 1.40852, 1.40297, 1.40056, 1.40005, 1.42162, 1.3977, 1.39614, 1.39763, 1.40557, 1.39672, 1.39498, 1.39145, 1.39501, 1.38554, 1.38606, 1.40915, 1.37824, 1.37804, 1.38049, 1.37485, 1.37386, 1.37427, 1.37243, 1.37253, 1.37108, 1.37697, 1.36915, 1.36471, 1.3717, 1.3788, 1.37572, 1.35778, 1.3524, 1.3507, 1.35174, 1.38822, 1.3863, 1.34723, 1.34463, 1.34695, 1.34573, 1.34555, 1.34324, 1.34146, 1.33948, 1.33624, 1.33429, 1.33582, 1.33246, 1.3338, 1.33328, 1.33283, 1.33395, 1.33039, 1.35451, 1.33684, 1.33574, 1.32558, 1.32476, 1.33662, 1.33132, 1.32689, 1.3271, 1.32632, 1.32608, 1.32072, 1.2882, 1.31199, 1.38332, 1.4925, 1.54331, 1.66464, 1.7698, 1.46148, 1.46105, 1.46359, 1.29171, 1.30958, 1.33361, 1.30543, 1.31712, 1.30645, 1.29718, 1.29172, 1.29416, 1.29326, 1.29505, 1.29222, 1.30218, 1.28807, 1.28821, 1.28847, 1.30473, 1.28116, 1.28244
1.60119, 1.59872, 1.59844, 1.5963, 1.5943, 1.59551, 1.59071, 1.58585, 1.58354, 1.57922, 1.57817, 1.57456, 1.57219, 1.57138, 1.57194, 1.56879, 1.56536, 1.56489, 1.5637, 1.57566, 1.5626, 1.56651, 1.56959, 1.59673, 1.56094, 1.56508, 1.59713, 1.64885, 1.68574, 1.83417, 1.94081, 1.9466, 1.67567, 1.53389, 1.51257, 1.53109, 1.55464, 1.5281, 1.54164, 1.52025, 1.52236, 1.51409, 1.51976, 1.513, 1.51038, 1.51045, 1.51292, 1.51027, 1.50902, 1.50845, 1.50683, 1.50526, 1.50332, 1.50047, 1.49932, 1.49865, 1.49644, 1.4961, 1.4927, 1.48974, 1.48281, 1.48129, 1.47921, 1.47505, 1.47304, 1.47141, 1.47563, 1.47174, 1.47114, 1.47212, 1.46618, 1.46574, 1.45997, 1.4608, 1.46181, 1.456, 1.45248, 1.45086, 1.45351, 1.44767, 1.44655, 1.44414, 1.44496, 1.44494, 1.44016, 1.43534, 1.43334, 1.4324, 1.43319, 1.43359, 1.45934, 1.44899, 1.44683, 1.4436, 1.46795, 1.44972, 1.45254, 1.46762, 1.46954, 1.4722, 1.44555, 1.44524, 1.46315, 1.43586, 1.44404, 1.45342, 1.44405, 1.43742, 1.40918, 1.40699, 1.40301, 1.4004, 1.39858, 1.39856, 1.39962, 1.38971, 1.38553, 1.39204, 1.38048, 1.37748, 1.3775, 1.37564, 1.37538, 1.38276, 1.38508, 1.38244, 1.38245, 1.3644, 1.36301, 1.3626, 1.36277, 1.36381, 1.36332, 1.35765, 1.35694, 1.35524, 1.35355, 1.3532, 1.35095, 1.34981, 1.35078, 1.34989, 1.34555, 1.34618, 1.34345, 1.34955, 1.33735, 1.33738, 1.33387, 1.33368, 1.33485, 1.33395, 1.32678, 1.32499, 1.32682, 1.333, 1.3335, 1.33306, 1.32067, 1.3165, 1.31957, 1.31927, 1.31974, 1.31554, 1.31297, 1.31511, 1.31437, 1.3162, 1.3179, 1.31827, 1.31554, 1.31133, 1.30702, 1.31613, 1.30268, 1.30254, 1.30004, 1.29705, 1.30048, 1.29982, 1.31027, 1.30289, 1.2881, 1.44064, 1.45832, 1.49329, 1.56642, 1.58278, 1.60898, 1.68841, 1.32985, 1.28754, 1.26774, 1.30268, 1.28892, 1.28962, 1.29144, 1.29151, 1.28464, 1.28443, 1.27115, 1.27378, 1.27148, 1.2733, 1.27573, 1.272, 1.26733, 1.26662, 1.26076, 1.25832
1.61426, 1.61224, 1.6114, 1.61295, 1.61575, 1.61191, 1.62712, 1.60659, 1.60146, 1.60247, 1.60612, 1.5939, 1.59291, 1.59126, 1.59595, 1.58494, 1.60039, 1.58362, 1.58222, 1.58283, 1.58149, 1.58226, 1.58237, 1.58276, 1.58011, 1.56245, 1.5888, 1.64995, 1.88488, 1.93893, 2.03815, 1.88689, 1.67153, 1.53662, 1.53482, 1.55114, 1.55859, 1.54851, 1.54492, 1.54847, 1.55378, 1.53128, 1.54066, 1.53078, 1.53019, 1.52749, 1.52484, 1.52502, 1.52232, 1.52083, 1.51942, 1.51768, 1.51667, 1.5153, 1.5095, 1.50944, 1.50811, 1.507, 1.50519, 1.50286, 1.49962, 1.49736, 1.50495, 1.49319, 1.50238, 1.49215, 1.49056, 1.48856, 1.48691, 1.48471, 1.48436, 1.48149, 1.47899, 1.47558, 1.47282, 1.4701, 1.46511, 1.4645, 1.46113, 1.45961, 1.46053, 1.4593, 1.45796, 1.45703, 1.45457, 1.45217, 1.45393, 1.44611, 1.4483, 1.44741, 1.45203, 1.45775, 1.45612, 1.45573, 1.46927, 1.47077, 1.47971, 1.46822, 1.47463, 1.48503, 1.46567, 1.4595, 1.46108, 1.45562, 1.46102, 1.44516, 1.45218, 1.44808, 1.42955, 1.42786, 1.43064, 1.42036, 1.43362, 1.41517, 1.41294, 1.42572, 1.40448, 1.40391, 1.42038, 1.39732, 1.39692, 1.39465, 1.39251, 1.39309, 1.39072, 1.38621, 1.39928, 1.38594, 1.38459, 1.38351, 1.38364, 1.38165, 1.3777, 1.37376, 1.37256, 1.37345, 1.37103, 1.37066, 1.36685, 1.36752, 1.36812, 1.36665, 1.36494, 1.36351, 1.36353, 1.35874, 1.35927, 1.35663, 1.35634, 1.35414, 1.35425, 1.35339, 1.34769, 1.34542, 1.34256, 1.34183, 1.34015, 1.33816, 1.33837, 1.33715, 1.33801, 1.33505, 1.33578, 1.33294, 1.32957, 1.33019, 1.35809, 1.32963, 1.33114, 1.32874, 1.32616, 1.33614, 1.33115, 1.32545, 1.33964, 1.33966, 1.32391, 1.34077, 1.32011, 1.32126, 1.32607, 1.31233, 1.32032, 1.35762, 1.47247, 1.52224, 1.51596, 1.45676, 1.45965, 1.48118, 1.49314, 1.28424, 1.2807, 1.31256, 1.31485, 1.31411, 1.3045, 1.31987, 1.31867, 1.29789, 1.29375, 1.30098, 1.29895, 1.29063, 1.29067, 1.29107, 1.28474, 1.28772, 1.28263, 1.27486
1.65078, 1.6312, 1.61341, 1.61207, 1.61042, 1.60754, 1.60795, 1.60693, 1.60383, 1.59918, 1.59677, 1.60978, 1.59241, 1.58894, 1.58681, 1.58559, 1.58208, 1.5832, 1.58965, 1.58277, 1.58079, 1.58248, 1.5788, 1.58739, 1.58232, 1.55496, 1.63703, 1.67461, 1.81009, 1.88613, 1.94823, 1.83425, 1.81301, 1.54475, 1.53319, 1.55669, 1.54995, 1.56083, 1.53769, 1.53142, 1.53176, 1.53654, 1.53155, 1.5304, 1.53007, 1.52973, 1.52676, 1.52491, 1.52151, 1.5202, 1.51684, 1.52031, 1.50441, 1.50066, 1.50015, 1.5092, 1.50362, 1.50262, 1.50195, 1.50251, 1.49959, 1.5002, 1.49775, 1.49686, 1.49234, 1.49147, 1.49833, 1.4865, 1.4825, 1.47854, 1.47615, 1.47343, 1.47215, 1.46986, 1.46811, 1.47774, 1.46988, 1.46382, 1.51355, 1.45821, 1.45658, 1.46398, 1.45549, 1.46207, 1.45054, 1.45088, 1.45857, 1.45116, 1.45125, 1.4511, 1.46694, 1.4759, 1.45755, 1.4741, 1.4581, 1.47155, 1.46069, 1.46388, 1.45883, 1.46892, 1.45525, 1.46908, 1.45453, 1.45146, 1.46119, 1.46112, 1.47935, 1.4402, 1.45938, 1.44409, 1.42404, 1.42302, 1.42364, 1.41719, 1.40661, 1.40363, 1.40265, 1.40626, 1.40164, 1.39936, 1.39833, 1.3958, 1.39323, 1.39268, 1.38967, 1.38814, 1.3865, 1.38548, 1.39223, 1.38409, 1.3816, 1.379, 1.3771, 1.37551, 1.37243, 1.37197, 1.37355, 1.37172, 1.37109, 1.37503, 1.36785, 1.36513, 1.3634, 1.36125, 1.35758, 1.35539, 1.35729, 1.35522, 1.35602, 1.35173, 1.36408, 1.35499, 1.34803, 1.34578, 1.3446, 1.34626, 1.34599, 1.34251, 1.34121, 1.33864, 1.33801, 1.34254, 1.33583, 1.3365, 1.33172, 1.32998, 1.32969, 1.32834, 1.34363, 1.33009, 1.32729, 1.32701, 1.32567, 1.34322, 1.33741, 1.33666, 1.33331, 1.32672, 1.32421, 1.32225, 1.32348, 1.32332, 1.29302, 1.36087, 1.42069, 1.50382, 1.51108, 1.62989, 1.63796, 1.63065, 1.52865, 1.36917, 1.40196, 1.39356, 1.32274, 1.3094, 1.31694, 1.31368, 1.30855, 1.29743, 1.30175, 1.29807, 1.29972, 1.31126, 1.29067, 1.29093, 1.2886, 1.28854, 1.29229, 1.29499
1.61283, 1.61214, 1.61107, 1.61095, 1.61006, 1.60857, 1.60631, 1.60557, 1.60233, 1.59547, 1.58896, 1.58883, 1.58498, 1.58519, 1.59847, 1.58298, 1.58312, 1.5813, 1.57889, 1.59059, 1.5761, 1.58651, 1.58502, 1.57724, 1.57133, 1.54512, 1.57173, 1.6463, 1.74585, 1.82796, 2.02392, 2.43576, 1.82826, 1.53498, 1.54273, 1.54707, 1.54846, 1.54561, 1.55085, 1.53776, 1.53377, 1.53723, 1.5363, 1.5386, 1.52747, 1.5248, 1.52415, 1.52047, 1.51891, 1.51618, 1.51312, 1.50952, 1.50013, 1.49846, 1.49614, 1.49912, 1.49915, 1.50027, 1.49877, 1.49855, 1.50011, 1.4956, 1.49367, 1.49301, 1.49094, 1.48648, 1.48579, 1.48296, 1.48077, 1.47821, 1.47447, 1.47209, 1.46773, 1.46824, 1.46657, 1.46583, 1.4659, 1.46402, 1.4611, 1.47998, 1.45716, 1.45486, 1.45269, 1.46213, 1.47764, 1.45192, 1.45113, 1.44935, 1.45027, 1.45714, 1.45494, 1.45708, 1.45734, 1.46876, 1.45389, 1.47181, 1.46822, 1.45759, 1.4618, 1.45254, 1.45794, 1.45896, 1.44712, 1.46612, 1.44727, 1.44932, 1.44227, 1.45874, 1.4491, 1.43828, 1.43483, 1.41722, 1.4123, 1.42371, 1.41519, 1.40521, 1.4008, 1.39888, 1.39682, 1.39422, 1.39158, 1.3887, 1.41023, 1.38632, 1.38537, 1.38635, 1.38455, 1.38116, 1.38035, 1.38026, 1.43738, 1.38027, 1.38069, 1.37727, 1.37487, 1.37236, 1.37178, 1.36971, 1.36887, 1.36708, 1.36725, 1.36365, 1.36154, 1.36133, 1.36045, 1.36056, 1.35687, 1.35288, 1.36016, 1.35306, 1.35121, 1.34958, 1.35168, 1.36823, 1.35098, 1.3816, 1.34426, 1.34326, 1.34064, 1.33789, 1.33889, 1.33539, 1.3348, 1.33394, 1.33361, 1.33349, 1.33235, 1.33185, 1.33064, 1.33081, 1.327, 1.32588, 1.32784, 1.31962, 1.31868, 1.31872, 1.33031, 1.31617, 1.31457, 1.32796, 1.32449, 1.32632, 1.31488, 1.32416, 1.40481, 1.52066, 1.54948, 1.58892, 1.72683, 1.78772, 1.5109, 1.52781, 1.51965, 1.5215, 1.49191, 1.40976, 1.37749, 1.29485, 1.28957, 1.29101, 1.29081, 1.28954, 1.28853, 1.28694, 1.28926, 1.28729, 1.28332, 1.28719, 1.27856, 1.28119
1.60114, 1.59689, 1.59579, 1.60143, 1.60274, 1.60438, 1.60313, 1.60042, 1.59525, 1.59223, 1.58852, 1.58581, 1.58442, 1.58381, 1.58323, 1.58412, 1.5838, 1.57884, 1.57601, 1.58306, 1.5733, 1.57807, 1.57913, 1.57336, 1.56752, 1.58244, 1.6246, 1.6411, 1.70475, 1.72271, 1.88428, 2.19778, 1.77119, 1.61757, 1.51922, 1.5352, 1.54248, 1.54214, 1.54313, 1.52997, 1.52978, 1.52932, 1.52613, 1.52569, 1.52914, 1.5276, 1.53159, 1.53362, 1.51496, 1.51136, 1.50925, 1.51006, 1.50556, 1.50406, 1.50139, 1.49966, 1.4982, 1.49871, 1.49308, 1.49012, 1.49085, 1.48879, 1.48706, 1.48602, 1.48469, 1.48291, 1.4803, 1.4789, 1.476, 1.47945, 1.4694, 1.47119, 1.46769, 1.46452, 1.46403, 1.46288, 1.46054, 1.45885, 1.45869, 1.45713, 1.45606, 1.45179, 1.45007, 1.44868, 1.44817, 1.44805, 1.44764, 1.44691, 1.44747, 1.44926, 1.45047, 1.45105, 1.47041, 1.45573, 1.46741, 1.46244, 1.45787, 1.45401, 1.45783, 1.45195, 1.45047, 1.44527, 1.44122, 1.45319, 1.44305, 1.44638, 1.45512, 1.43687, 1.42389, 1.4229, 1.43175, 1.42022, 1.41317, 1.40401, 1.39933, 1.39868, 1.39733, 1.3979, 1.39162, 1.38961, 1.38633, 1.38712, 1.40543, 1.40502, 1.38147, 1.37954, 1.37826, 1.37812, 1.37542, 1.37319, 1.37363, 1.37084, 1.37901, 1.36952, 1.36755, 1.36602, 1.36326, 1.36999, 1.36365, 1.3614, 1.36252, 1.35746, 1.35864, 1.3563, 1.35437, 1.35322, 1.349, 1.35121, 1.34572, 1.34757, 1.3505, 1.34822, 1.3503, 1.34518, 1.34619, 1.34705, 1.33952, 1.34102, 1.33515, 1.33395, 1.3286, 1.32788, 1.32459, 1.32502, 1.32316, 1.32269, 1.32335, 1.32352, 1.3225, 1.3201, 1.31845, 1.31644, 1.31658, 1.32928, 1.31277, 1.30776, 1.30664, 1.3068, 1.3091, 1.31272, 1.32315, 1.30351, 1.29913, 1.31755, 1.42386, 1.46719, 1.61081, 1.70432, 1.98199, 1.99872, 1.58207, 1.49257, 1.42346, 1.41318, 1.4026, 1.37424, 1.32629, 1.29056, 1.28802, 1.28283, 1.28025, 1.28903, 1.28492, 1.28103, 1.28434, 1.2844, 1.2814, 1.27628, 1.27614, 1.27457
1.59785, 1.59787, 1.59619, 1.59358, 1.59227, 1.59037, 1.59151, 1.58899, 1.58889, 1.58472, 1.57803, 1.57797, 1.5762, 1.57297, 1.57213, 1.57106, 1.57626, 1.59079, 1.57847, 1.56912, 1.56599, 1.56456, 1.57478, 1.57376, 1.57535, 1.54846, 1.53027, 1.63116, 1.76485, 1.63655, 1.72639, 1.75058, 1.69194, 1.64536, 1.50542, 1.53981, 1.5302, 1.52811, 1.51966, 1.51924, 1.51956, 1.51836, 1.52336, 1.51803, 1.52374, 1.52696, 1.51618, 1.53628, 1.5126, 1.55103, 1.53467, 1.51285, 1.50064, 1.50538, 1.49565, 1.4928, 1.50233, 1.48935, 1.48713, 1.48814, 1.48391, 1.47971, 1.47763, 1.47537, 1.47187, 1.47141, 1.46892, 1.4683, 1.46686, 1.46759, 1.46482, 1.46142, 1.45938, 1.4579, 1.45748, 1.45612, 1.45455, 1.45416, 1.45211, 1.45135, 1.45208, 1.46272, 1.44612, 1.45526, 1.47125, 1.4437, 1.44342, 1.44127, 1.45012, 1.45167, 1.45489, 1.46405, 1.45103, 1.45694, 1.45535, 1.45748, 1.45248, 1.44897, 1.448, 1.47087, 1.43633, 1.43265, 1.43113, 1.45668, 1.43344, 1.43281, 1.44261, 1.4362, 1.44722, 1.42675, 1.42013, 1.41319, 1.39872, 1.39138, 1.40002, 1.3863, 1.38426, 1.38156, 1.37733, 1.37613, 1.37519, 1.37615, 1.37725, 1.37575, 1.37517, 1.37393, 1.37323, 1.37104, 1.37114, 1.36856, 1.3682, 1.36731, 1.36839, 1.37142, 1.36393, 1.36194, 1.3609, 1.35772, 1.35674, 1.35392, 1.35145, 1.35142, 1.34746, 1.34488, 1.3428, 1.34321, 1.34196, 1.3409, 1.3473, 1.3395, 1.30961, 1.34129, 1.33861, 1.33773, 1.34044, 1.33516, 1.3331, 1.33076, 1.33157, 1.3252, 1.32528, 1.32318, 1.32223, 1.32113, 1.31889, 1.32059, 1.31951, 1.31814, 1.31567, 1.31576, 1.3294, 1.32975, 1.30842, 1.30333, 1.32851, 1.30247, 1.29986, 1.31959, 1.29946, 1.30839, 1.31566, 1.29704, 1.29032, 1.26682, 1.28193, 1.43691, 1.62034, 1.61741, 1.57078, 1.61912, 1.53766, 1.40292, 1.39664, 1.29623, 1.27991, 1.28842, 1.29551, 1.30166, 1.27646, 1.27984, 1.27775, 1.27565, 1.27623, 1.27766, 1.27731, 1.2728, 1.26933, 1.26887, 1.28475, 1.26628
1.60258, 1.59903, 1.59693, 1.59427, 1.59517, 1.59824, 1.59438, 1.59129, 1.58877, 1.58535, 1.58864, 1.57975, 1.57885, 1.58087, 1.57534, 1.59225, 1.58121, 1.56812, 1.56778, 1.58955, 1.56702, 1.57643, 1.56133, 1.57182, 1.56701, 1.56154, 1.56966, 1.60596, 1.74383, 1.67275, 1.69791, 1.76493, 1.7417, 1.77856, 1.54175, 1.52801, 1.53045, 1.53813, 1.53659, 1.52046, 1.52192, 1.51727, 1.5243, 1.51434, 1.51517, 1.52427, 1.53126, 1.51461, 1.51002, 1.50767, 1.50745, 1.50551, 1.50348, 1.50102, 1.49959, 1.49752, 1.49545, 1.49384, 1.49169, 1.48812, 1.48314, 1.48446, 1.48577, 1.47894, 1.47581, 1.47488, 1.47144, 1.47171, 1.47217, 1.47185, 1.46967, 1.46749, 1.46568, 1.46415, 1.46269, 1.46834, 1.46018, 1.45957, 1.45707, 1.45491, 1.4527, 1.45088, 1.44774, 1.44803, 1.4506, 1.4475, 1.44194, 1.44082, 1.46136, 1.44728, 1.44435, 1.44453, 1.44482, 1.45923, 1.46155, 1.4514, 1.46626, 1.4493, 1.46854, 1.46432, 1.46079, 1.44707, 1.44369, 1.44079, 1.44929, 1.43911, 1.42759, 1.42348, 1.42309, 1.42014, 1.41535, 1.40808, 1.40884, 1.39385, 1.39207, 1.38594, 1.38587, 1.38191, 1.38096, 1.38132, 1.38899, 1.38051, 1.37905, 1.38268, 1.37622, 1.37416, 1.37412, 1.37154, 1.37086, 1.37094, 1.36979, 1.37027, 1.37027, 1.3675, 1.36531, 1.36485, 1.36178, 1.35923, 1.35907, 1.35656, 1.35825, 1.35179, 1.35024, 1.34108, 1.34274, 1.3397, 1.33747, 1.33995, 1.33657, 1.33837, 1.33906, 1.33841, 1.33796, 1.33619, 1.33444, 1.33548, 1.33331, 1.33256, 1.33058, 1.33135, 1.33257, 1.32971, 1.32667, 1.32795, 1.3267, 1.32349, 1.32358, 1.32379, 1.346, 1.32044, 1.3211, 1.31808, 1.31619, 1.31444, 1.31453, 1.32577, 1.31208, 1.32753, 1.3136, 1.31674, 1.31552, 1.30737, 1.30915, 1.28149, 1.33509, 1.39697, 1.54083, 1.57818, 1.64904, 1.65193, 1.50338, 1.36916, 1.25598, 1.28976, 1.29549, 1.29169, 1.28775, 1.29917, 1.28506, 1.28491, 1.28591, 1.2827, 1.28067, 1.28131, 1.29118, 1.27249, 1.27844, 1.27051, 1.27012, 1.26687
1.59755, 1.5959, 1.59604, 1.59265, 1.59187, 1.58951, 1.58859, 1.59019, 1.58493, 1.58536, 1.5852, 1.58606, 1.57133, 1.57265, 1.57098, 1.57172, 1.57856, 1.56493, 1.56178, 1.57758, 1.57737, 1.56372, 1.56281, 1.55892, 1.56218, 1.5521, 1.55863, 1.59978, 1.63661, 1.78103, 1.70949, 1.725, 1.71645, 1.69638, 1.53294, 1.50892, 1.52583, 1.53006, 1.52424, 1.53143, 1.52955, 1.52085, 1.51974, 1.51912, 1.52434, 1.51587, 1.51282, 1.50957, 1.50687, 1.50431, 1.50965, 1.4977, 1.49656, 1.49456, 1.4909, 1.4913, 1.49668, 1.48877, 1.48707, 1.48545, 1.48794, 1.48489, 1.47854, 1.47773, 1.47413, 1.47114, 1.49359, 1.49007, 1.46528, 1.46626, 1.46147, 1.46482, 1.45827, 1.4573, 1.46005, 1.45607, 1.45239, 1.46081, 1.45076, 1.45075, 1.44827, 1.44718, 1.44016, 1.43806, 1.43668, 1.43753, 1.43672, 1.4346, 1.44365, 1.45031, 1.45136, 1.45103, 1.443, 1.44447, 1.44755, 1.456, 1.45333, 1.46165, 1.46499, 1.44354, 1.46299, 1.45416, 1.45103, 1.42903, 1.42752, 1.43355, 1.42575, 1.43384, 1.42025, 1.41747, 1.42057, 1.41673, 1.39756, 1.3983, 1.39826, 1.38619, 1.38867, 1.3822, 1.38847, 1.38159, 1.37641, 1.3854, 1.38149, 1.3748, 1.36917, 1.38664, 1.37527, 1.37341, 1.36937, 1.36766, 1.36702, 1.36586, 1.36404, 1.36217, 1.36033, 1.35998, 1.35905, 1.35616, 1.35294, 1.35136, 1.35177, 1.34887, 1.34662, 1.34473, 1.34953, 1.35644, 1.34635, 1.34328, 1.3514, 1.33445, 1.33278, 1.33316, 1.33059, 1.3329, 1.32917, 1.32695, 1.32886, 1.32515, 1.32569, 1.32723, 1.32169, 1.32048, 1.31849, 1.32353, 1.3203, 1.31702, 1.31861, 1.31684, 1.31738, 1.32935, 1.31467, 1.32684, 1.31077, 1.32199, 1.30947, 1.30887, 1.32726, 1.31209, 1.31351, 1.32701, 1.30205, 1.30198, 1.30345, 1.27775, 1.35276, 1.44167, 1.4686, 1.72674, 1.81668, 1.81058, 1.51573, 1.42687, 1.32662, 1.29892, 1.28345, 1.2842, 1.28594, 1.27927, 1.29411, 1.28444, 1.26993, 1.28355, 1.2845, 1.26522, 1.28883, 1.28878, 1.26208, 1.26165, 1.26144, 1.26428
1.59576, 1.5947, 1.59285, 1.58969, 1.58526, 1.58474, 1.58016, 1.57815, 1.57448, 1.56627, 1.56619, 1.56016, 1.54947, 1.55009, 1.55578, 1.56067, 1.56147, 1.56324, 1.54201, 1.5437, 1.54191, 1.54113, 1.53894, 1.53843, 1.54632, 1.54146, 1.49855, 1.58657, 1.65727, 1.68844, 1.75471, 1.74707, 1.76528, 1.63681, 1.50226, 1.48249, 1.52187, 1.50665, 1.50609, 1.5147, 1.52209, 1.52358, 1.515, 1.51404, 1.51228, 1.51247, 1.50955, 1.50621, 1.50563, 1.49676, 1.4915, 1.48544, 1.4775, 1.47452, 1.47487, 1.47306, 1.47099, 1.46893, 1.46754, 1.47486, 1.46356, 1.46296, 1.45855, 1.45697, 1.45467, 1.45548, 1.4492, 1.44758, 1.44511, 1.44398, 1.44313, 1.44122, 1.43808, 1.43682, 1.43241, 1.43202, 1.43213, 1.43412, 1.4373, 1.4371, 1.43668, 1.43919, 1.42887, 1.4253, 1.42259, 1.42169, 1.41716, 1.41987, 1.42052, 1.43801, 1.42485, 1.43707, 1.43077, 1.45835, 1.43974, 1.4544, 1.46469, 1.44777, 1.45118, 1.45065, 1.44689, 1.43637, 1.43311, 1.43007, 1.42381, 1.43061, 1.41894, 1.41366, 1.41294, 1.40262, 1.41449, 1.41633, 1.40979, 1.39685, 1.3941, 1.38823, 1.3833, 1.37803, 1.37404, 1.36858, 1.36059, 1.35577, 1.35592, 1.35666, 1.3567, 1.35394, 1.35314, 1.36319, 1.3517, 1.35182, 1.35055, 1.34773, 1.34453, 1.34658, 1.34328, 1.34231, 1.34005, 1.33491, 1.33483, 1.33394, 1.33085, 1.32777, 1.3278, 1.32717, 1.32495, 1.32056, 1.32052, 1.31926, 1.31598, 1.31379, 1.3132, 1.31416, 1.31111, 1.31138, 1.31622, 1.31033, 1.31042, 1.31128, 1.31174, 1.30895, 1.30497, 1.30556, 1.30495, 1.3037, 1.30442, 1.3001, 1.29882, 1.29427, 1.29582, 1.29455, 1.29476, 1.29222, 1.29227, 1.29263, 1.2978, 1.29586, 1.28269, 1.28214, 1.30027, 1.28491, 1.28464, 1.28548, 1.30085, 1.31262, 1.28445, 1.39617, 1.52329, 1.50889, 1.81657, 1.79817, 1.45882, 1.37812, 1.35766, 1.29759, 1.26828, 1.26325, 1.2742, 1.25553, 1.25241, 1.25066, 1.24841, 1.25676, 1.26083, 1.2471, 1.25155, 1.25826, 1.25291, 1.25494, 1.28157, 1.25962
