1.63167, 1.63125, 1.62174, 1.61995, 1.6228, 1.6146, 1.6112, 1.60815, 1.60594, 1.61236, 1.6209, 1.61099, 1.60679, 1.6163, 1.58337, 1.5754, 1.63489, 1.61294, 1.64632, 1.62103, 1.60794, 1.62844, 1.65799, 1.68977, 1.69366, 1.68254, 1.65552, 1.59937, 1.53958, 1.56386, 1.57325, 1.57146, 1.55211, 1.55469, 1.55675, 1.54802, 1.57178, 1.55313, 1.53813, 1.54071, 1.5317, 1.52727, 1.54112, 1.52434, 1.52344, 1.521, 1.51912, 1.516, 1.51384, 1.5127, 1.51141, 1.50991, 1.50943, 1.50964, 1.50052, 1.49655, 1.49525, 1.49366, 1.48882, 1.48892, 1.49158, 1.48472, 1.48377, 1.50596, 1.4772, 1.47482, 1.46838, 1.468, 1.46971, 1.47173, 1.46428, 1.46168, 1.4615, 1.4706, 1.47829, 1.47943, 1.44424, 1.43564, 1.5231, 1.55775, 1.65094, 1.74583, 1.7733, 1.7596, 1.67868, 1.53301, 1.44363, 1.43061, 1.43615, 1.44413, 1.43351, 1.42714, 1.42641, 1.42637, 1.41972, 1.42595, 1.41496, 1.43032, 1.41354, 1.409, 1.40745, 1.40485, 1.4029, 1.40224, 1.39916, 1.3958, 1.39404, 1.39212, 1.3912, 1.38524, 1.38355, 1.3827, 1.38175, 1.38133, 1.37913, 1.37567, 1.37284, 1.37519, 1.37137, 1.36861, 1.37046, 1.36789, 1.36535, 1.36344, 1.36276, 1.36154, 1.35909, 1.36362, 1.35898, 1.35508, 1.34872, 1.34748, 1.34713, 1.34507, 1.34483, 1.34333, 1.34248, 1.33758, 1.33644, 1.33337, 1.33079, 1.32972, 1.3301, 1.32904, 1.32861, 1.32911, 1.33666, 1.34102, 1.33892, 1.34428, 1.34343, 1.35211, 1.35355, 1.34819, 1.36114, 1.36688, 1.41921, 1.35823, 1.38867, 1.37135, 1.34374, 1.31438, 1.3416, 1.34313, 1.31982, 1.3137, 1.30236, 1.29529, 1.29239, 1.29095, 1.28944, 1.29184, 1.28849, 1.28841, 1.28758, 1.29009, 1.29143, 1.30924, 1.30403, 
1.63677, 1.68321, 1.67963, 1.66552, 1.63894, 1.6283, 1.6253, 1.62562, 1.61779, 1.61656, 1.62009, 1.62914, 1.62681, 1.63722, 1.62924, 1.62037, 1.6171, 1.63204, 1.65269, 1.66076, 1.67597, 1.69033, 1.70591, 1.7204, 1.71323, 1.68851, 1.6335, 1.58876, 1.58154, 1.57275, 1.5825, 1.56646, 1.57161, 1.56204, 1.55811, 1.55608, 1.55089, 1.55192, 1.5499, 1.55748, 1.57638, 1.54006, 1.54143, 1.53679, 1.5371, 1.53749, 1.52704, 1.5301, 1.52239, 1.51868, 1.51622, 1.51866, 1.50988, 1.50919, 1.51065, 1.50699, 1.50725, 1.50499, 1.5033, 1.50194, 1.50061, 1.49812, 1.49563, 1.49212, 1.48964, 1.48994, 1.48576, 1.4813, 1.48146, 1.47916, 1.47955, 1.47789, 1.47799, 1.47786, 1.48489, 1.48828, 1.47245, 1.45238, 1.5029, 1.55398, 1.61117, 1.66189, 1.72823, 1.73434, 1.71151, 1.53389, 1.45562, 1.42769, 1.46112, 1.46793, 1.45073, 1.44408, 1.44037, 1.43503, 1.42982, 1.42799, 1.42543, 1.42647, 1.41818, 1.41781, 1.41582, 1.41363, 1.41193, 1.40971, 1.40568, 1.40582, 1.40659, 1.40351, 1.40134, 1.39861, 1.39766, 1.39559, 1.39492, 1.3942, 1.39188, 1.39257, 1.39111, 1.38656, 1.38575, 1.38196, 1.38238, 1.37992, 1.37817, 1.3729, 1.3714, 1.36752, 1.36732, 1.36354, 1.36277, 1.36122, 1.36318, 1.36079, 1.3595, 1.35893, 1.36299, 1.3642, 1.36345, 1.36174, 1.36465, 1.36034, 1.35608, 1.35695, 1.35373, 1.34702, 1.34824, 1.34661, 1.35772, 1.36078, 1.3685, 1.35393, 1.34768, 1.35198, 1.36859, 1.39908, 1.42001, 1.36555, 1.41266, 1.43472, 1.3882, 1.37501, 1.35162, 1.32352, 1.3375, 1.32546, 1.32083, 1.31717, 1.33067, 1.30997, 1.30315, 1.30232, 1.30158, 1.31687, 1.30242, 1.30467, 1.29884, 1.29734, 1.29858, 1.29634, 1.29425, 
1.65134, 1.65326, 1.65105, 1.64414, 1.65261, 1.65437, 1.6405, 1.64144, 1.63416, 1.63107, 1.63558, 1.64089, 1.62434, 1.63429, 1.62284, 1.62056, 1.60275, 1.68324, 1.72055, 1.71032, 1.68169, 1.73089, 1.74722, 1.77985, 1.76438, 1.74379, 1.66629, 1.64037, 1.58574, 1.59134, 1.60104, 1.59482, 1.58134, 1.57662, 1.56684, 1.56441, 1.57444, 1.55735, 1.55559, 1.56279, 1.55493, 1.55977, 1.56973, 1.57094, 1.55973, 1.55014, 1.55457, 1.54293, 1.54798, 1.537, 1.53374, 1.53071, 1.52921, 1.52851, 1.52611, 1.52469, 1.52107, 1.51666, 1.51383, 1.51102, 1.50922, 1.50737, 1.5053, 1.50303, 1.49914, 1.50159, 1.51018, 1.49633, 1.49564, 1.49473, 1.49327, 1.48822, 1.4955, 1.49171, 1.48714, 1.49393, 1.47571, 1.4766, 1.54693, 1.53543, 1.61325, 1.70693, 1.73658, 1.65741, 1.74783, 1.63743, 1.50718, 1.44514, 1.45225, 1.46751, 1.45734, 1.4552, 1.44871, 1.44512, 1.44294, 1.43877, 1.44369, 1.43313, 1.43286, 1.43182, 1.4307, 1.43052, 1.42717, 1.42448, 1.42351, 1.4291, 1.42149, 1.41968, 1.41824, 1.4145, 1.41332, 1.41917, 1.40811, 1.40812, 1.40583, 1.40628, 1.40387, 1.40486, 1.4045, 1.40346, 1.40398, 1.40164, 1.39715, 1.39552, 1.39115, 1.38935, 1.38315, 1.38231, 1.37901, 1.37739, 1.37514, 1.374, 1.37214, 1.36857, 1.37081, 1.37057, 1.36676, 1.36513, 1.36545, 1.36488, 1.37177, 1.36038, 1.35928, 1.35605, 1.36468, 1.35209, 1.35522, 1.3608, 1.362, 1.36889, 1.36431, 1.3636, 1.36814, 1.39831, 1.39623, 1.40834, 1.40788, 1.4079, 1.42006, 1.40901, 1.39468, 1.3787, 1.31572, 1.3384, 1.34193, 1.3382, 1.34254, 1.32719, 1.32598, 1.31987, 1.31932, 1.31856, 1.31671, 1.31997, 1.31272, 1.31166, 1.31178, 1.30908, 1.3101, 
1.66486, 1.65953, 1.65783, 1.65454, 1.6555, 1.65889, 1.66015, 1.66607, 1.67642, 1.65911, 1.63799, 1.63405, 1.63311, 1.62886, 1.6407, 1.63153, 1.61184, 1.61127, 1.65489, 1.6844, 1.68648, 1.73877, 1.72642, 1.73032, 1.72257, 1.73778, 1.71597, 1.63179, 1.57803, 1.6002, 1.5951, 1.58965, 1.58715, 1.58803, 1.58305, 1.58016, 1.58147, 1.57492, 1.57004, 1.56792, 1.56418, 1.56801, 1.56525, 1.56464, 1.57024, 1.56468, 1.55668, 1.54766, 1.54554, 1.55003, 1.54049, 1.53763, 1.53558, 1.53464, 1.53396, 1.53269, 1.53036, 1.52662, 1.52479, 1.52329, 1.52007, 1.51763, 1.51549, 1.5158, 1.51065, 1.51063, 1.50731, 1.50451, 1.50261, 1.50079, 1.50682, 1.49428, 1.49381, 1.49335, 1.49408, 1.49232, 1.49124, 1.46903, 1.54115, 1.53988, 1.61695, 1.65295, 1.69629, 1.69437, 1.68085, 1.60238, 1.54659, 1.4484, 1.42792, 1.45055, 1.45775, 1.44893, 1.44626, 1.45129, 1.44202, 1.44157, 1.44236, 1.44098, 1.43896, 1.43802, 1.43534, 1.43157, 1.42743, 1.42898, 1.42881, 1.42894, 1.42559, 1.42292, 1.42344, 1.41943, 1.41716, 1.41577, 1.41471, 1.41232, 1.40935, 1.4076, 1.40611, 1.40557, 1.40509, 1.40278, 1.40157, 1.39981, 1.39922, 1.39843, 1.39655, 1.39729, 1.39586, 1.39235, 1.38807, 1.38662, 1.38514, 1.38266, 1.38158, 1.37936, 1.37918, 1.37739, 1.37562, 1.37763, 1.37649, 1.37391, 1.37256, 1.36983, 1.37157, 1.37125, 1.37119, 1.36935, 1.37223, 1.37388, 1.36843, 1.37376, 1.34762, 1.37981, 1.40706, 1.41764, 1.41758, 1.42685, 1.44417, 1.45376, 1.45764, 1.48786, 1.43537, 1.42123, 1.33674, 1.33614, 1.3454, 1.34791, 1.34507, 1.33188, 1.32609, 1.32324, 1.31957, 1.32283, 1.32606, 1.31622, 1.31495, 1.31533, 1.33315, 1.31387, 1.30888, 
1.67488, 1.67245, 1.682, 1.67055, 1.66481, 1.66233, 1.66537, 1.65612, 1.66849, 1.67182, 1.66705, 1.65949, 1.66189, 1.64801, 1.65642, 1.64516, 1.62297, 1.63487, 1.67943, 1.68432, 1.7229, 1.74881, 1.83068, 1.79049, 1.78226, 1.73475, 1.72451, 1.66558, 1.60736, 1.59615, 1.62008, 1.61007, 1.60151, 1.5907, 1.5858, 1.58332, 1.58347, 1.58117, 1.57901, 1.57645, 1.57561, 1.57204, 1.5714, 1.58178, 1.57101, 1.56541, 1.57937, 1.58247, 1.57452, 1.56508, 1.55134, 1.54919, 1.55321, 1.54433, 1.54199, 1.54049, 1.53695, 1.53466, 1.53352, 1.53142, 1.53037, 1.52851, 1.52664, 1.52355, 1.51965, 1.51942, 1.51701, 1.51514, 1.5236, 1.51174, 1.50945, 1.50653, 1.50463, 1.51636, 1.51397, 1.51279, 1.51152, 1.47883, 1.52912, 1.57004, 1.61783, 1.65461, 1.66572, 1.68987, 1.69268, 1.64108, 1.60218, 1.52633, 1.48002, 1.48329, 1.48255, 1.48158, 1.48501, 1.46921, 1.47107, 1.46316, 1.45714, 1.45692, 1.45191, 1.45732, 1.44804, 1.44425, 1.44127, 1.44039, 1.43746, 1.43628, 1.43504, 1.43738, 1.43349, 1.43412, 1.43017, 1.42956, 1.42583, 1.42675, 1.42557, 1.42407, 1.42132, 1.42103, 1.41927, 1.4174, 1.41578, 1.41341, 1.41117, 1.41168, 1.40741, 1.40537, 1.40252, 1.40014, 1.39747, 1.39468, 1.39152, 1.38952, 1.38558, 1.3858, 1.38167, 1.38124, 1.38064, 1.37863, 1.37461, 1.37378, 1.37455, 1.37303, 1.3724, 1.37477, 1.37163, 1.3745, 1.37499, 1.37544, 1.38286, 1.38107, 1.3849, 1.41052, 1.38969, 1.43021, 1.44377, 1.45, 1.48214, 1.48486, 1.46414, 1.46724, 1.44981, 1.41237, 1.3898, 1.33069, 1.35303, 1.35893, 1.34683, 1.33867, 1.33972, 1.3356, 1.33634, 1.33042, 1.32911, 1.33223, 1.32885, 1.32665, 1.32681, 1.33369, 1.33402, 
1.67608, 1.67497, 1.67144, 1.66784, 1.66714, 1.662, 1.67404, 1.66365, 1.65645, 1.65425, 1.65795, 1.67902, 1.68353, 1.673, 1.66197, 1.63808, 1.63333, 1.62686, 1.6866, 1.70194, 1.72796, 1.7854, 1.81971, 1.83589, 1.86667, 1.80621, 1.77294, 1.66214, 1.59069, 1.59978, 1.61361, 1.61671, 1.59926, 1.60648, 1.59585, 1.59319, 1.60056, 1.58846, 1.60336, 1.58233, 1.58601, 1.58133, 1.57843, 1.57175, 1.58633, 1.5725, 1.56877, 1.56588, 1.57273, 1.57942, 1.57917, 1.57363, 1.55555, 1.5501, 1.54763, 1.54689, 1.54365, 1.54402, 1.54196, 1.53906, 1.53698, 1.5334, 1.5296, 1.52702, 1.52432, 1.52119, 1.51873, 1.52984, 1.51533, 1.52074, 1.51635, 1.50983, 1.51424, 1.51365, 1.50576, 1.51434, 1.501, 1.48057, 1.51372, 1.565, 1.59141, 1.64127, 1.6668, 1.68748, 1.68673, 1.70629, 1.63384, 1.53, 1.4991, 1.44098, 1.49341, 1.49179, 1.47627, 1.4778, 1.46729, 1.46255, 1.46426, 1.45789, 1.45998, 1.45261, 1.44888, 1.44845, 1.44615, 1.44552, 1.44385, 1.44176, 1.44236, 1.44078, 1.43837, 1.43638, 1.43474, 1.43274, 1.43106, 1.43139, 1.43379, 1.43257, 1.42952, 1.42839, 1.42683, 1.42367, 1.42572, 1.4222, 1.42262, 1.42132, 1.42026, 1.41565, 1.41224, 1.41017, 1.40752, 1.40738, 1.40537, 1.40611, 1.40626, 1.39722, 1.39686, 1.39562, 1.39329, 1.3893, 1.38925, 1.3951, 1.385, 1.3888, 1.38546, 1.38428, 1.3817, 1.40194, 1.38868, 1.38137, 1.38363, 1.38791, 1.36216, 1.3848, 1.41161, 1.42118, 1.46991, 1.45884, 1.47846, 1.51628, 1.48634, 1.47785, 1.4754, 1.45761, 1.43674, 1.35057, 1.35951, 1.35379, 1.35382, 1.34751, 1.34748, 1.34522, 1.34655, 1.34511, 1.34063, 1.34045, 1.33998, 1.33734, 1.33678, 1.33721, 1.33371, 
1.68706, 1.6862, 1.69146, 1.67649, 1.67455, 1.6728, 1.67165, 1.68708, 1.68869, 1.67838, 1.67138, 1.67324, 1.66869, 1.67592, 1.6619, 1.66746, 1.6453, 1.62886, 1.67901, 1.68938, 1.71352, 1.77801, 1.82281, 1.83743, 1.84797, 1.8296, 1.81209, 1.70287, 1.63413, 1.61019, 1.62703, 1.6135, 1.61941, 1.61049, 1.60702, 1.60679, 1.59744, 1.58996, 1.59722, 1.58428, 1.59178, 1.59211, 1.58565, 1.58434, 1.58146, 1.57181, 1.57139, 1.56912, 1.56964, 1.57154, 1.57379, 1.57919, 1.58457, 1.57838, 1.56824, 1.56751, 1.56177, 1.56358, 1.54258, 1.54079, 1.54211, 1.54114, 1.54332, 1.54249, 1.55029, 1.53139, 1.52984, 1.52667, 1.52579, 1.53743, 1.52433, 1.52082, 1.53047, 1.52028, 1.52994, 1.5284, 1.52771, 1.51807, 1.51272, 1.50459, 1.60597, 1.63432, 1.67165, 1.67554, 1.66845, 1.66598, 1.6404, 1.49764, 1.50785, 1.45618, 1.46931, 1.49238, 1.49092, 1.4851, 1.49591, 1.48964, 1.47446, 1.48211, 1.48164, 1.46884, 1.46565, 1.4784, 1.46565, 1.46377, 1.4607, 1.45495, 1.47543, 1.44584, 1.44238, 1.44754, 1.44322, 1.44571, 1.44745, 1.44657, 1.44357, 1.44047, 1.43859, 1.43332, 1.45261, 1.43266, 1.42952, 1.42822, 1.42496, 1.42655, 1.42283, 1.42167, 1.41929, 1.41819, 1.41526, 1.41276, 1.41613, 1.41965, 1.41986, 1.40533, 1.4049, 1.40538, 1.40142, 1.39908, 1.39794, 1.39474, 1.39383, 1.39164, 1.38921, 1.39031, 1.38667, 1.38905, 1.40324, 1.39851, 1.3971, 1.39332, 1.40727, 1.36047, 1.39817, 1.46116, 1.47607, 1.50006, 1.52382, 1.51268, 1.52239, 1.52794, 1.51405, 1.47929, 1.46221, 1.36063, 1.35771, 1.37237, 1.37321, 1.35717, 1.35474, 1.35332, 1.36474, 1.3531, 1.36058, 1.34897, 1.3893, 1.34531, 1.34026, 1.34097, 1.3464, 
1.6804, 1.67807, 1.67214, 1.6702, 1.67222, 1.67052, 1.69959, 1.67299, 1.66497, 1.65881, 1.65491, 1.65168, 1.6465, 1.64518, 1.64824, 1.64707, 1.65729, 1.61061, 1.63207, 1.67816, 1.71679, 1.74775, 1.80677, 1.82411, 1.85, 1.84445, 1.78151, 1.69555, 1.62118, 1.60005, 1.61353, 1.61705, 1.61074, 1.61281, 1.60049, 1.59938, 1.58961, 1.58505, 1.58047, 1.57796, 1.58876, 1.5792, 1.56596, 1.56516, 1.56799, 1.56955, 1.57442, 1.56464, 1.56341, 1.55635, 1.55688, 1.55973, 1.5576, 1.55526, 1.56649, 1.57057, 1.55761, 1.55196, 1.55156, 1.54415, 1.54302, 1.52994, 1.5284, 1.52711, 1.52646, 1.52409, 1.52321, 1.52181, 1.52254, 1.52103, 1.51796, 1.51211, 1.50941, 1.50672, 1.51258, 1.50758, 1.52718, 1.52022, 1.48877, 1.55866, 1.62357, 1.59941, 1.64455, 1.63555, 1.64014, 1.6295, 1.6212, 1.5778, 1.546, 1.49482, 1.46842, 1.48446, 1.47646, 1.46864, 1.47959, 1.48963, 1.48901, 1.46933, 1.47062, 1.45213, 1.4527, 1.45111, 1.44134, 1.44043, 1.43972, 1.43924, 1.4405, 1.44228, 1.44301, 1.44163, 1.44006, 1.43766, 1.43326, 1.43231, 1.43108, 1.432, 1.43074, 1.42442, 1.42183, 1.41994, 1.41878, 1.41966, 1.41798, 1.42652, 1.40936, 1.40912, 1.40619, 1.40078, 1.39881, 1.39985, 1.40048, 1.39782, 1.39308, 1.39151, 1.38964, 1.39068, 1.39107, 1.38696, 1.38709, 1.38592, 1.38702, 1.38812, 1.38477, 1.38389, 1.39604, 1.38109, 1.37705, 1.37832, 1.38982, 1.38571, 1.40197, 1.3615, 1.3789, 1.46811, 1.45438, 1.46149, 1.50013, 1.51989, 1.53182, 1.5276, 1.50592, 1.49035, 1.4668, 1.39262, 1.35559, 1.36911, 1.36702, 1.354, 1.35099, 1.34291, 1.34361, 1.33947, 1.33776, 1.33621, 1.34439, 1.33569, 1.33659, 1.33693, 1.33187, 
1.6656, 1.66336, 1.65945, 1.65785, 1.66267, 1.65457, 1.65163, 1.65107, 1.64596, 1.64528, 1.65949, 1.63688, 1.63712, 1.62818, 1.62535, 1.62719, 1.62591, 1.6033, 1.58822, 1.68564, 1.63395, 1.73491, 1.79374, 1.83649, 1.86671, 1.87933, 1.84505, 1.73663, 1.61032, 1.56529, 1.60253, 1.59641, 1.58947, 1.59654, 1.58444, 1.5818, 1.57838, 1.57583, 1.57282, 1.57131, 1.56817, 1.56539, 1.56417, 1.56419, 1.56192, 1.55849, 1.55757, 1.55402, 1.55075, 1.54734, 1.54453, 1.54117, 1.53943, 1.53479, 1.53286, 1.52774, 1.53061, 1.5319, 1.53119, 1.54823, 1.52435, 1.52794, 1.51847, 1.51569, 1.51504, 1.51353, 1.51223, 1.53346, 1.50975, 1.51031, 1.50201, 1.50709, 1.50555, 1.50042, 1.49788, 1.4988, 1.50851, 1.5162, 1.47863, 1.49347, 1.54844, 1.58601, 1.61966, 1.6587, 1.6273, 1.62771, 1.60771, 1.59645, 1.55757, 1.46989, 1.47058, 1.45102, 1.46481, 1.47095, 1.46094, 1.46363, 1.45694, 1.47821, 1.47013, 1.45833, 1.43822, 1.44489, 1.4382, 1.43165, 1.44176, 1.43039, 1.42678, 1.4249, 1.42053, 1.41953, 1.41628, 1.41566, 1.41296, 1.4129, 1.41011, 1.40658, 1.40542, 1.40449, 1.40243, 1.4012, 1.39913, 1.39636, 1.39461, 1.39552, 1.39495, 1.39247, 1.39284, 1.39319, 1.3883, 1.38621, 1.38453, 1.38166, 1.38021, 1.37731, 1.37555, 1.37489, 1.37129, 1.37069, 1.37036, 1.36803, 1.36708, 1.36383, 1.36249, 1.36095, 1.3584, 1.35796, 1.35584, 1.35459, 1.35521, 1.35884, 1.3636, 1.35313, 1.37937, 1.39521, 1.468, 1.52658, 1.53152, 1.54732, 1.55693, 1.54845, 1.51835, 1.49219, 1.45626, 1.30931, 1.29593, 1.33775, 1.34164, 1.3292, 1.33819, 1.32473, 1.32557, 1.32081, 1.31789, 1.3196, 1.31816, 1.31609, 1.3156, 1.31676, 1.31353, 
1.67127, 1.66862, 1.66657, 1.66322, 1.6618, 1.65827, 1.65603, 1.65451, 1.65135, 1.64975, 1.65802, 1.64134, 1.63719, 1.63536, 1.63503, 1.63396, 1.63243, 1.63812, 1.60706, 1.63015, 1.6714, 1.69749, 1.74191, 1.83322, 1.86823, 1.87951, 1.87972, 1.80667, 1.67207, 1.57835, 1.60702, 1.60978, 1.60255, 1.60289, 1.59625, 1.59684, 1.59716, 1.57645, 1.58002, 1.58144, 1.5676, 1.56567, 1.56129, 1.56089, 1.55814, 1.5571, 1.55639, 1.55265, 1.55191, 1.55026, 1.54752, 1.54515, 1.54249, 1.54052, 1.557, 1.53449, 1.53292, 1.52997, 1.52641, 1.52614, 1.54336, 1.5304, 1.53854, 1.5359, 1.5166, 1.51198, 1.51108, 1.5095, 1.51042, 1.50366, 1.50068, 1.49845, 1.49902, 1.5105, 1.51379, 1.49576, 1.4963, 1.50436, 1.46349, 1.47439, 1.49012, 1.50492, 1.5662, 1.59296, 1.60522, 1.60836, 1.59278, 1.5994, 1.53729, 1.51518, 1.44766, 1.47094, 1.4714, 1.46958, 1.46941, 1.44788, 1.4467, 1.45425, 1.44727, 1.44716, 1.46638, 1.45825, 1.45073, 1.44685, 1.43408, 1.44053, 1.42829, 1.42773, 1.42606, 1.42399, 1.42354, 1.42256, 1.42051, 1.41908, 1.41489, 1.41429, 1.41189, 1.41102, 1.40764, 1.40808, 1.40601, 1.40322, 1.40236, 1.39945, 1.3984, 1.39613, 1.39319, 1.39246, 1.38931, 1.38865, 1.38647, 1.38435, 1.38324, 1.38221, 1.38018, 1.37735, 1.3766, 1.37526, 1.37474, 1.37338, 1.37448, 1.37232, 1.38069, 1.38264, 1.36808, 1.36807, 1.37227, 1.36496, 1.36219, 1.37415, 1.3693, 1.36306, 1.35801, 1.40832, 1.42863, 1.4966, 1.50338, 1.53746, 1.57647, 1.57767, 1.56939, 1.52287, 1.46236, 1.36517, 1.32947, 1.34808, 1.34338, 1.3522, 1.35241, 1.35011, 1.33301, 1.33058, 1.32932, 1.32695, 1.3277, 1.33067, 1.32386, 1.32439, 1.3193, 
1.66984, 1.66486, 1.6623, 1.65992, 1.65728, 1.65342, 1.65051, 1.64733, 1.6455, 1.64273, 1.65511, 1.63726, 1.64072, 1.65567, 1.64524, 1.63194, 1.63384, 1.63033, 1.60704, 1.61689, 1.64815, 1.72104, 1.76537, 1.82585, 1.93509, 2.00707, 1.97277, 1.75789, 1.68671, 1.57974, 1.59194, 1.609, 1.59757, 1.58846, 1.58654, 1.58319, 1.57887, 1.57682, 1.58321, 1.5714, 1.56792, 1.56425, 1.56171, 1.55957, 1.55979, 1.55552, 1.55375, 1.55376, 1.55285, 1.5489, 1.54667, 1.54496, 1.54365, 1.54187, 1.5356, 1.53453, 1.53136, 1.5285, 1.52656, 1.52667, 1.5241, 1.53993, 1.52175, 1.52125, 1.53168, 1.54155, 1.53965, 1.52127, 1.50927, 1.50949, 1.50938, 1.50675, 1.50146, 1.49894, 1.49608, 1.49551, 1.49539, 1.49425, 1.46917, 1.49343, 1.53324, 1.52807, 1.55188, 1.57513, 1.57326, 1.57127, 1.59235, 1.5424, 1.51616, 1.51609, 1.46865, 1.43315, 1.47246, 1.46562, 1.46221, 1.45541, 1.46042, 1.45031, 1.44747, 1.44547, 1.44308, 1.44117, 1.45287, 1.46233, 1.44772, 1.42934, 1.43476, 1.42752, 1.42237, 1.42117, 1.4219, 1.42243, 1.42139, 1.41982, 1.41865, 1.41618, 1.41516, 1.41265, 1.41174, 1.41081, 1.40838, 1.40513, 1.40348, 1.40155, 1.40003, 1.3982, 1.39792, 1.39683, 1.39376, 1.39131, 1.38898, 1.38572, 1.38339, 1.38097, 1.37807, 1.37235, 1.3711, 1.36752, 1.36576, 1.36514, 1.36517, 1.36565, 1.36657, 1.36644, 1.36529, 1.36938, 1.36158, 1.36143, 1.35885, 1.36058, 1.3656, 1.36586, 1.34507, 1.39803, 1.40684, 1.46781, 1.52024, 1.6067, 1.62025, 1.62315, 1.63406, 1.58821, 1.42957, 1.36659, 1.32708, 1.34669, 1.33781, 1.34885, 1.33001, 1.33616, 1.32976, 1.32812, 1.3283, 1.3281, 1.32734, 1.32629, 1.32591, 1.32583, 1.3204, 
1.67132, 1.6657, 1.66008, 1.68808, 1.65085, 1.6487, 1.64383, 1.64359, 1.64197, 1.64806, 1.63833, 1.63701, 1.63691, 1.63421, 1.6335, 1.64673, 1.6289, 1.62767, 1.6271, 1.59843, 1.62942, 1.70677, 1.74471, 1.78076, 1.85754, 1.94594, 1.93385, 1.78959, 1.65542, 1.56532, 1.58272, 1.5972, 1.59376, 1.58986, 1.58324, 1.57548, 1.57454, 1.57217, 1.56933, 1.56792, 1.56607, 1.56458, 1.56247, 1.56029, 1.55762, 1.55553, 1.55408, 1.5526, 1.54985, 1.54731, 1.54535, 1.54342, 1.54165, 1.53877, 1.53707, 1.53383, 1.53257, 1.52758, 1.52448, 1.52088, 1.5202, 1.52441, 1.51471, 1.51141, 1.5167, 1.50985, 1.51068, 1.53869, 1.53647, 1.52389, 1.51276, 1.50819, 1.50028, 1.50413, 1.49124, 1.49529, 1.49727, 1.50914, 1.47835, 1.48361, 1.51773, 1.55732, 1.57485, 1.57148, 1.5409, 1.55387, 1.54594, 1.54428, 1.53519, 1.52904, 1.48858, 1.4338, 1.46413, 1.46232, 1.471, 1.45333, 1.46866, 1.45027, 1.4504, 1.45127, 1.44846, 1.44868, 1.45156, 1.44339, 1.45083, 1.43811, 1.42582, 1.43852, 1.42412, 1.43035, 1.41783, 1.41659, 1.41565, 1.41488, 1.41233, 1.41031, 1.41025, 1.47111, 1.40424, 1.40228, 1.40064, 1.39874, 1.39945, 1.399, 1.39707, 1.39568, 1.39489, 1.39237, 1.3905, 1.38881, 1.38625, 1.38508, 1.3829, 1.38194, 1.38099, 1.37964, 1.37838, 1.37925, 1.37726, 1.37554, 1.37473, 1.37453, 1.3723, 1.37093, 1.36919, 1.36685, 1.36799, 1.36468, 1.36267, 1.37744, 1.38457, 1.3727, 1.37821, 1.34768, 1.42667, 1.45524, 1.46872, 1.54656, 1.62799, 1.61433, 1.61646, 1.60274, 1.43274, 1.36606, 1.30689, 1.33826, 1.34679, 1.3417, 1.3541, 1.33158, 1.34278, 1.34511, 1.3288, 1.32532, 1.32465, 1.3227, 1.32513, 1.31947, 1.31768, 
1.66264, 1.66147, 1.65647, 1.65471, 1.65411, 1.65154, 1.65168, 1.649, 1.6483, 1.64704, 1.6416, 1.63874, 1.63509, 1.63325, 1.63008, 1.64793, 1.62422, 1.62189, 1.62207, 1.61017, 1.6264, 1.66639, 1.69381, 1.75781, 1.80672, 1.84782, 1.95624, 1.81693, 1.66954, 1.56583, 1.60524, 1.60028, 1.59624, 1.59806, 1.6012, 1.58273, 1.58546, 1.57874, 1.57771, 1.57291, 1.56908, 1.56562, 1.5624, 1.55745, 1.55496, 1.55227, 1.54865, 1.54704, 1.54502, 1.54205, 1.53833, 1.5362, 1.53351, 1.53105, 1.52645, 1.52603, 1.52294, 1.52277, 1.52028, 1.51943, 1.51768, 1.51598, 1.51448, 1.51239, 1.51079, 1.50932, 1.51025, 1.51644, 1.51001, 1.52005, 1.53176, 1.53024, 1.52424, 1.55078, 1.52213, 1.4933, 1.48681, 1.49922, 1.47494, 1.47451, 1.47689, 1.53087, 1.55214, 1.55683, 1.55388, 1.54513, 1.523, 1.51296, 1.57913, 1.52809, 1.50991, 1.4749, 1.47294, 1.49465, 1.46866, 1.47221, 1.47145, 1.46959, 1.44477, 1.44747, 1.45678, 1.44478, 1.44797, 1.44169, 1.43615, 1.43689, 1.4303, 1.42734, 1.42456, 1.42369, 1.42119, 1.42101, 1.41859, 1.41671, 1.41325, 1.41211, 1.41078, 1.40845, 1.40618, 1.40396, 1.40103, 1.39849, 1.39822, 1.39708, 1.3951, 1.39371, 1.3924, 1.39125, 1.38902, 1.38719, 1.3869, 1.38531, 1.38445, 1.38283, 1.38057, 1.37854, 1.37792, 1.37293, 1.37363, 1.37152, 1.36922, 1.36606, 1.36612, 1.36384, 1.36325, 1.36053, 1.3588, 1.35706, 1.35433, 1.35289, 1.35317, 1.37491, 1.36239, 1.32956, 1.39549, 1.43139, 1.4512, 1.51599, 1.56588, 1.63731, 1.64082, 1.56177, 1.48804, 1.36662, 1.31463, 1.33787, 1.33852, 1.33364, 1.33185, 1.32888, 1.32752, 1.32955, 1.32354, 1.3232, 1.32071, 1.32092, 1.31957, 1.31689, 1.31729, 
1.65746, 1.65477, 1.65121, 1.64875, 1.64726, 1.64443, 1.64418, 1.64027, 1.63651, 1.63597, 1.63862, 1.63398, 1.64006, 1.6292, 1.62512, 1.62341, 1.62261, 1.61909, 1.61776, 1.61786, 1.60223, 1.64049, 1.69398, 1.7697, 1.84279, 1.84904, 2.02762, 2.00439, 1.60387, 1.57852, 1.55615, 1.57143, 1.64726, 1.62743, 1.6249, 1.60279, 1.59827, 1.60832, 1.60415, 1.5897, 1.5851, 1.57016, 1.56714, 1.55289, 1.54961, 1.54764, 1.54609, 1.54475, 1.54204, 1.53928, 1.53819, 1.5362, 1.53376, 1.53154, 1.52878, 1.52677, 1.5249, 1.52059, 1.51894, 1.51459, 1.5137, 1.51193, 1.50931, 1.50601, 1.50616, 1.50491, 1.50317, 1.50014, 1.49732, 1.49352, 1.49189, 1.48959, 1.48845, 1.48698, 1.48666, 1.4878, 1.49075, 1.4954, 1.49866, 1.48118, 1.50885, 1.52691, 1.54066, 1.54557, 1.54177, 1.495, 1.48666, 1.50662, 1.51625, 1.5387, 1.51305, 1.46768, 1.46015, 1.46559, 1.46122, 1.46091, 1.44911, 1.44588, 1.44322, 1.44037, 1.43775, 1.43597, 1.43199, 1.43102, 1.42741, 1.42433, 1.42424, 1.42129, 1.41977, 1.41964, 1.41986, 1.41789, 1.41909, 1.41491, 1.41188, 1.41032, 1.4088, 1.40529, 1.40517, 1.40499, 1.40211, 1.39864, 1.39737, 1.39606, 1.39389, 1.39337, 1.3917, 1.39, 1.387, 1.38497, 1.3824, 1.38061, 1.37848, 1.37545, 1.37425, 1.37433, 1.38243, 1.3767, 1.37025, 1.3654, 1.36437, 1.36395, 1.36495, 1.3888, 1.35772, 1.35991, 1.35534, 1.3554, 1.35574, 1.35382, 1.35252, 1.35461, 1.35697, 1.35801, 1.32096, 1.39285, 1.42126, 1.4879, 1.53796, 1.58966, 1.65503, 1.62266, 1.48129, 1.42334, 1.32853, 1.34847, 1.34754, 1.33943, 1.32994, 1.32898, 1.32582, 1.32609, 1.32541, 1.33016, 1.32276, 1.31948, 1.32083, 1.31677, 1.32208, 
1.64296, 1.63989, 1.63776, 1.63756, 1.63445, 1.63334, 1.63319, 1.63176, 1.63049, 1.62791, 1.62536, 1.62279, 1.62001, 1.61795, 1.61959, 1.61257, 1.6134, 1.6076, 1.60599, 1.60463, 1.61008, 1.58614, 1.66758, 1.70646, 1.81604, 1.88797, 2.08335, 1.91565, 1.63807, 1.568, 1.56021, 1.57562, 1.57609, 1.57226, 1.57374, 1.57421, 1.57369, 1.56839, 1.563, 1.56503, 1.5613, 1.55275, 1.54941, 1.547, 1.54218, 1.53886, 1.53641, 1.53537, 1.53319, 1.52908, 1.52645, 1.52374, 1.52259, 1.51923, 1.51724, 1.51517, 1.51311, 1.51125, 1.50981, 1.50885, 1.50673, 1.53337, 1.50099, 1.49609, 1.49512, 1.48985, 1.48768, 1.48509, 1.48435, 1.4821, 1.4812, 1.47941, 1.47849, 1.47839, 1.47681, 1.47625, 1.48178, 1.48806, 1.48214, 1.47834, 1.50001, 1.52003, 1.52826, 1.52827, 1.50992, 1.48359, 1.48032, 1.49547, 1.51577, 1.51238, 1.49246, 1.48926, 1.45488, 1.46036, 1.45642, 1.44977, 1.44305, 1.43973, 1.43504, 1.43265, 1.43042, 1.42758, 1.42423, 1.42154, 1.42045, 1.41882, 1.41647, 1.41493, 1.41237, 1.40992, 1.40723, 1.40523, 1.40216, 1.40228, 1.39913, 1.39471, 1.39326, 1.39214, 1.39099, 1.3896, 1.39183, 1.3855, 1.38473, 1.38604, 1.38798, 1.38647, 1.3851, 1.3847, 1.38424, 1.38116, 1.37798, 1.37597, 1.37036, 1.36898, 1.37551, 1.36405, 1.36195, 1.36079, 1.36038, 1.36017, 1.3598, 1.35801, 1.35555, 1.35476, 1.35587, 1.3558, 1.35324, 1.34822, 1.34769, 1.3476, 1.34631, 1.3452, 1.34767, 1.3651, 1.34363, 1.36439, 1.42945, 1.49546, 1.57459, 1.59354, 1.69911, 1.72988, 1.46095, 1.41972, 1.29378, 1.32307, 1.32987, 1.32481, 1.32427, 1.31974, 1.31837, 1.31731, 1.31677, 1.31678, 1.31555, 1.31432, 1.31126, 1.30922, 1.30881, 
1.63731, 1.63469, 1.63316, 1.62764, 1.626, 1.62431, 1.62204, 1.62143, 1.62008, 1.61659, 1.61172, 1.61131, 1.60856, 1.60674, 1.60381, 1.60126, 1.59945, 1.59542, 1.59243, 1.59985, 1.60228, 1.59608, 1.61768, 1.70043, 1.78861, 1.84585, 1.87255, 2.15366, 1.66765, 1.56212, 1.56446, 1.57595, 1.5716, 1.56676, 1.56484, 1.56868, 1.55792, 1.55467, 1.5589, 1.54906, 1.54417, 1.53911, 1.54229, 1.53119, 1.5378, 1.52936, 1.52931, 1.52822, 1.52627, 1.525, 1.52378, 1.52224, 1.51946, 1.51785, 1.5135, 1.5085, 1.50591, 1.5031, 1.50261, 1.49988, 1.49824, 1.49582, 1.49274, 1.49139, 1.48797, 1.48589, 1.48466, 1.48209, 1.47812, 1.47585, 1.47583, 1.47659, 1.4741, 1.47654, 1.47196, 1.48582, 1.47097, 1.47249, 1.47772, 1.47682, 1.49553, 1.4962, 1.49273, 1.49188, 1.49029, 1.47957, 1.48118, 1.49155, 1.49049, 1.48172, 1.4816, 1.46598, 1.48235, 1.44482, 1.43572, 1.43282, 1.43361, 1.42624, 1.41975, 1.41909, 1.41983, 1.41622, 1.41348, 1.4297, 1.41465, 1.41404, 1.41171, 1.40891, 1.4059, 1.40373, 1.40209, 1.40148, 1.39541, 1.39563, 1.39499, 1.39429, 1.39193, 1.38898, 1.38716, 1.385, 1.38164, 1.38001, 1.37804, 1.3769, 1.37254, 1.37138, 1.36711, 1.36423, 1.36258, 1.36098, 1.35805, 1.3567, 1.35659, 1.35726, 1.3516, 1.35269, 1.35336, 1.35096, 1.35328, 1.35167, 1.35457, 1.35096, 1.34822, 1.34654, 1.34603, 1.34435, 1.34072, 1.34058, 1.33948, 1.33734, 1.3365, 1.34485, 1.33535, 1.33684, 1.34181, 1.33949, 1.38192, 1.40884, 1.50711, 1.59172, 1.70715, 1.70709, 1.58608, 1.34044, 1.29185, 1.31016, 1.3301, 1.31545, 1.30929, 1.30818, 1.32359, 1.30968, 1.31024, 1.30972, 1.30905, 1.30501, 1.30131, 1.29919, 1.30002, 
1.63007, 1.63024, 1.62748, 1.6246, 1.62033, 1.62041, 1.6146, 1.61275, 1.61115, 1.60646, 1.60353, 1.59994, 1.59851, 1.59821, 1.59772, 1.60311, 1.59365, 1.60316, 1.59279, 1.59954, 1.58923, 1.59561, 1.59243, 1.65631, 1.67501, 1.8453, 1.95854, 1.94461, 1.80332, 1.56828, 1.53605, 1.56829, 1.56189, 1.55644, 1.55705, 1.55124, 1.54851, 1.55538, 1.55377, 1.54159, 1.53861, 1.54754, 1.53379, 1.52977, 1.53569, 1.52117, 1.51902, 1.51753, 1.51471, 1.51315, 1.51261, 1.51055, 1.50892, 1.50767, 1.50495, 1.50353, 1.51426, 1.49866, 1.49579, 1.49338, 1.48978, 1.48825, 1.4865, 1.48348, 1.48116, 1.47792, 1.48894, 1.47252, 1.47086, 1.46934, 1.46697, 1.46515, 1.46346, 1.46801, 1.46125, 1.46111, 1.47069, 1.47062, 1.46492, 1.47241, 1.4746, 1.4668, 1.48474, 1.48592, 1.47154, 1.49315, 1.48247, 1.46587, 1.46487, 1.47911, 1.4733, 1.46401, 1.45563, 1.45202, 1.44383, 1.4345, 1.42743, 1.41771, 1.42931, 1.40774, 1.40761, 1.40514, 1.40339, 1.40283, 1.40204, 1.40202, 1.39923, 1.39903, 1.3978, 1.40269, 1.39451, 1.39002, 1.38898, 1.38798, 1.3823, 1.37921, 1.38029, 1.37612, 1.37551, 1.37283, 1.37256, 1.37167, 1.37022, 1.36838, 1.36671, 1.36692, 1.36421, 1.36407, 1.36266, 1.36121, 1.35926, 1.3606, 1.35893, 1.35868, 1.35501, 1.35401, 1.35048, 1.35168, 1.3479, 1.34844, 1.34562, 1.34372, 1.34305, 1.34086, 1.3466, 1.34028, 1.33723, 1.33826, 1.33865, 1.33756, 1.33574, 1.34736, 1.34301, 1.34677, 1.34232, 1.32045, 1.31081, 1.3593, 1.48214, 1.58674, 1.71493, 1.72254, 1.48613, 1.46362, 1.31713, 1.33402, 1.31865, 1.31325, 1.31353, 1.30826, 1.3064, 1.30716, 1.30311, 1.30427, 1.31292, 1.30534, 1.29971, 1.29859, 1.29717, 
1.6167, 1.61732, 1.61434, 1.61372, 1.61423, 1.61344, 1.60975, 1.61182, 1.63325, 1.61064, 1.61308, 1.59397, 1.59287, 1.58926, 1.58955, 1.58368, 1.58337, 1.58207, 1.58143, 1.58162, 1.58658, 1.58046, 1.54371, 1.57528, 1.64635, 1.73534, 1.84719, 1.76324, 1.63771, 1.5499, 1.54071, 1.56565, 1.55343, 1.55129, 1.55114, 1.53886, 1.53289, 1.52895, 1.54207, 1.54071, 1.52655, 1.52497, 1.53893, 1.52316, 1.54093, 1.5156, 1.5117, 1.50836, 1.50631, 1.50627, 1.50466, 1.50051, 1.49828, 1.49746, 1.49596, 1.49333, 1.49207, 1.49064, 1.48835, 1.48467, 1.4816, 1.49445, 1.47748, 1.47576, 1.4712, 1.46783, 1.46414, 1.46095, 1.45976, 1.45808, 1.45902, 1.45729, 1.45477, 1.45257, 1.46035, 1.44672, 1.4612, 1.45573, 1.4512, 1.45473, 1.4561, 1.47064, 1.46892, 1.46158, 1.47204, 1.46991, 1.46884, 1.45936, 1.4555, 1.4575, 1.46356, 1.44419, 1.44083, 1.4358, 1.44271, 1.4223, 1.42564, 1.42455, 1.41259, 1.4075, 1.40286, 1.40472, 1.39795, 1.39484, 1.39365, 1.39872, 1.38995, 1.38962, 1.38641, 1.385, 1.38456, 1.38129, 1.38175, 1.37925, 1.37303, 1.37044, 1.37128, 1.36845, 1.3677, 1.36808, 1.36569, 1.3669, 1.36455, 1.36195, 1.3611, 1.35546, 1.35495, 1.35422, 1.35235, 1.3524, 1.35078, 1.34409, 1.36315, 1.33932, 1.33803, 1.33688, 1.33626, 1.3343, 1.33317, 1.3334, 1.33138, 1.32892, 1.32761, 1.32814, 1.32951, 1.32683, 1.32324, 1.32274, 1.32311, 1.33203, 1.32936, 1.32251, 1.31417, 1.31923, 1.3259, 1.32279, 1.30567, 1.35554, 1.46206, 1.51765, 1.49634, 1.45275, 1.48975, 1.49762, 1.27616, 1.29129, 1.3016, 1.31151, 1.29609, 1.29538, 1.29224, 1.29087, 1.31253, 1.28642, 1.28755, 1.28604, 1.2853, 1.28211, 1.27562, 
1.60303, 1.59826, 1.59641, 1.59323, 1.59342, 1.59568, 1.59692, 1.59562, 1.58857, 1.582, 1.58031, 1.57803, 1.57804, 1.57919, 1.58577, 1.57838, 1.57458, 1.57422, 1.56855, 1.57838, 1.57624, 1.56578, 1.56208, 1.5403, 1.64218, 1.7381, 1.83478, 1.84559, 1.71789, 1.63955, 1.51997, 1.53967, 1.5344, 1.53213, 1.52586, 1.52347, 1.52076, 1.52126, 1.53652, 1.52459, 1.51459, 1.51245, 1.53421, 1.52392, 1.53828, 1.50426, 1.49966, 1.49695, 1.49589, 1.49204, 1.4885, 1.48819, 1.48552, 1.48283, 1.4804, 1.48015, 1.47685, 1.47501, 1.47267, 1.47168, 1.47556, 1.46419, 1.46332, 1.46186, 1.46039, 1.45843, 1.45726, 1.45608, 1.45435, 1.45291, 1.4501, 1.44786, 1.44601, 1.4443, 1.44382, 1.44357, 1.45153, 1.44735, 1.44767, 1.45446, 1.45347, 1.45267, 1.46165, 1.45263, 1.45579, 1.44465, 1.45135, 1.4413, 1.44997, 1.43663, 1.42921, 1.44878, 1.43978, 1.43506, 1.41903, 1.41382, 1.41359, 1.40293, 1.40197, 1.40297, 1.40211, 1.40347, 1.38599, 1.39192, 1.38253, 1.38057, 1.38142, 1.37892, 1.37605, 1.37444, 1.37373, 1.37277, 1.37464, 1.37149, 1.36789, 1.36554, 1.36496, 1.38091, 1.36705, 1.35816, 1.35735, 1.35722, 1.35484, 1.35254, 1.34872, 1.35022, 1.34471, 1.34356, 1.3432, 1.34558, 1.34587, 1.34481, 1.34042, 1.33905, 1.33581, 1.33177, 1.34362, 1.32545, 1.32331, 1.32247, 1.32037, 1.32086, 1.31895, 1.31947, 1.31936, 1.31901, 1.31658, 1.31346, 1.30717, 1.30631, 1.304, 1.30321, 1.30179, 1.29985, 1.32331, 1.30901, 1.30544, 1.32338, 1.36621, 1.47849, 1.68981, 1.70176, 1.99654, 1.57833, 1.47913, 1.41887, 1.40977, 1.39542, 1.33365, 1.29882, 1.28595, 1.28038, 1.28656, 1.28106, 1.27801, 1.28075, 1.27904, 1.27827, 1.2747, 
1.59708, 1.59944, 1.60378, 1.58944, 1.58612, 1.58331, 1.58135, 1.58057, 1.57525, 1.56981, 1.58943, 1.56476, 1.56383, 1.55993, 1.55899, 1.55783, 1.5635, 1.55464, 1.54824, 1.54355, 1.55213, 1.54718, 1.53779, 1.52831, 1.62119, 1.77565, 1.69511, 1.68538, 1.69057, 1.72391, 1.50275, 1.50654, 1.51317, 1.52299, 1.52029, 1.51659, 1.51497, 1.52028, 1.51349, 1.51029, 1.5203, 1.50407, 1.50231, 1.49726, 1.51141, 1.48586, 1.48795, 1.47886, 1.47787, 1.47762, 1.47455, 1.47177, 1.48824, 1.46589, 1.46125, 1.46169, 1.45782, 1.45373, 1.45234, 1.46116, 1.45725, 1.44693, 1.44997, 1.44719, 1.45013, 1.43834, 1.43953, 1.44026, 1.44089, 1.43897, 1.45107, 1.43297, 1.4266, 1.42668, 1.42336, 1.4271, 1.43499, 1.43848, 1.43892, 1.43718, 1.45079, 1.43967, 1.44874, 1.44708, 1.44535, 1.45533, 1.447, 1.43362, 1.43289, 1.42392, 1.42284, 1.42137, 1.42908, 1.40989, 1.41429, 1.40625, 1.40602, 1.39371, 1.38671, 1.38315, 1.37708, 1.37792, 1.37539, 1.38931, 1.36609, 1.37503, 1.38181, 1.36142, 1.3588, 1.36128, 1.35654, 1.35758, 1.35764, 1.355, 1.35753, 1.35375, 1.35093, 1.35828, 1.34737, 1.34557, 1.3438, 1.33874, 1.33739, 1.33724, 1.33742, 1.33418, 1.33188, 1.33051, 1.32678, 1.32613, 1.32232, 1.33007, 1.31869, 1.31765, 1.31888, 1.32662, 1.31764, 1.31567, 1.31546, 1.31326, 1.31154, 1.31096, 1.30998, 1.32716, 1.32236, 1.3168, 1.30576, 1.30647, 1.31321, 1.31597, 1.29927, 1.31287, 1.29772, 1.30164, 1.31521, 1.31586, 1.30961, 1.29783, 1.34371, 1.47853, 1.68224, 1.72468, 1.47114, 1.47172, 1.36402, 1.32753, 1.2949, 1.29198, 1.28868, 1.27111, 1.2645, 1.26832, 1.28139, 1.2642, 1.25961, 1.26357, 1.25904, 1.25428, 1.25863, 
