0.427011, 0.417697, 0.417869, 0.431566, 0.429324, 0.466384, 0.487703, 0.477586, 0.462713, 0.466184, 0.50064, 0.519148, 0.503983, 0.504367, 0.545985, 0.5354, 0.538894, 0.529186, 0.545506, 0.561533, 0.573681, 0.579571, 0.605611, 0.614501, 0.612279, 0.629363, 0.614185, 0.646107, 0.63767, 0.656765, 0.653492, 0.659835, 0.660309, 0.668973, 0.667737, 0.711344, 0.708948, 0.698042, 0.701397, 0.707846, 0.71578, 0.722393, 0.762957, 0.758542, 0.770628, 0.770044, 0.771817, 0.777104, 0.78105, 0.8214, 0.803227, 0.838808, 0.818629, 0.821525, 0.823712, 0.838464, 0.848846, 0.87845, 0.889825, 0.874804, 0.877539, 0.889409, 0.895301, 0.917231, 0.91878, 0.928919, 0.933795, 0.95647, 0.976991, 0.975368, 0.97728, 0.976723, 0.999235, 0.993955, 0.994163, 1.00199, 1.00125, 1.03377, 1.02281, 1.04197, 1.05435, 1.04348, 1.06444, 1.06545, 1.06708, 1.09171, 1.11948, 1.11755, 1.13547, 1.10851, 1.11564, 1.14151, 1.15561, 1.15484, 1.14157, 1.16872, 1.17082, 1.1708, 1.19777, 1.18296, 1.21821, 1.2144, 1.21574, 1.2267, 1.23716, 1.22801, 1.24078, 1.25436, 1.25758, 1.2943, 1.30007, 1.30007, 1.30312, 1.30228, 1.30016, 1.31409, 1.34686, 1.3445, 1.33976, 1.35375, 1.37381, 1.37578, 1.40278, 1.38181, 1.39006, 1.38928, 1.42031, 1.42418, 1.40671, 1.45803, 1.47435, 1.47381, 1.47004, 1.4784, 1.47999, 1.48246, 1.47895, 1.50602, 1.50633, 1.55073, 1.544, 1.56012, 1.54853, 1.56032, 1.55354, 1.57481, 1.57101, 1.58153, 1.57714, 1.61833, 1.62426, 1.61348, 1.61452, 1.62398, 1.64519, 1.64719, 1.64739, 1.6484, 1.69652, 1.69507, 1.67641, 1.70231, 1.7077, 1.6988, 1.73059, 1.73126, 1.74448, 1.73693, 1.75404, 1.78858, 1.76466, 1.80096, 1.79397, 1.80335, 1.8174, 1.84145, 1.82538, 1.82101, 1.83247, 1.85859, 1.85831, 1.86791, 1.86136, 1.88977, 1.88958, 1.90021, 1.91476, 1.9133, 1.91311, 1.92139, 1.92414, 1.92565, 1.98398, 1.96268, 1.96477, 1.96242, 1.99601, 2.02102, 2.03137, 2.00964, 2.0391, 2.04491, 2.03209, 2.03906, 2.05905, 2.04611, 2.07398, 2.08032, 2.08477, 2.121, 2.11895, 2.10826, 2.16168, 2.12393, 2.12355, 2.14209, 2.16056, 2.20528, 2.20666, 2.20391, 2.17612, 2.22367, 2.23263, 2.22578, 2.24513, 2.25566, 2.2509, 2.25012, 2.25037, 2.2493, 2.3051, 2.28414, 2.3187, 2.30043, 2.3126, 2.30051, 2.33627, 2.3298, 2.34128, 2.35897, 2.40175, 2.36683, 2.39767, 2.40016, 2.39481, 2.40412, 2.39211, 2.41531, 2.41401, 2.44687, 2.45735, 2.46304, 2.48759, 2.46136, 2.47135, 2.4841, 2.52977, 2.51517, 2.5152, 2.53068, 2.53902, 2.55252, 2.554, 2.55017, 2.55004, 2.54341, 2.57454, 2.56712, 2.57146, 2.59025, 2.6023, 2.60352, 2.62525, 2.62535, 2.62504, 2.66375, 2.6514, 2.6885, 2.6872, 2.68521, 2.67834, 2.70196, 2.70482, 2.73647, 2.7192, 2.71852, 2.71159, 2.7516, 2.75795, 2.79576, 2.76547, 2.78344, 2.7771, 2.78005, 2.7947, 2.82326, 2.84277, 2.82146, 2.8483, 2.86733
0.435574, 0.403722, 0.415162, 0.433281, 0.442401, 0.432093, 0.456831, 0.462649, 0.456033, 0.476156, 0.476459, 0.501361, 0.53201, 0.532493, 0.550312, 0.531043, 0.562723, 0.560566, 0.54261, 0.589769, 0.566384, 0.577031, 0.573805, 0.573919, 0.588117, 0.591511, 0.600227, 0.632356, 0.624042, 0.643865, 0.663363, 0.674258, 0.65239, 0.661817, 0.663039, 0.690436, 0.690251, 0.70002, 0.692069, 0.702742, 0.729837, 0.733369, 0.731585, 0.756444, 0.746343, 0.74677, 0.794803, 0.793206, 0.785047, 0.787752, 0.81875, 0.831476, 0.82335, 0.815082, 0.856981, 0.863681, 0.836635, 0.860229, 0.881838, 0.87809, 0.870805, 0.875396, 0.886687, 0.913172, 0.928973, 0.930362, 0.914846, 0.940304, 0.960462, 0.968454, 0.982714, 0.983594, 0.983967, 0.97775, 1.00084, 0.995153, 0.998845, 1.02376, 1.01914, 1.05773, 1.03062, 1.03863, 1.04398, 1.07693, 1.06673, 1.06527, 1.083, 1.09525, 1.09445, 1.09655, 1.10898, 1.11717, 1.14292, 1.13527, 1.14614, 1.1465, 1.1685, 1.16446, 1.18987, 1.18013, 1.18786, 1.20261, 1.20126, 1.21, 1.23731, 1.25117, 1.25314, 1.26822, 1.26698, 1.26064, 1.28127, 1.28132, 1.29525, 1.29838, 1.29615, 1.30715, 1.33777, 1.34436, 1.32966, 1.35875, 1.36383, 1.3824, 1.37009, 1.40375, 1.38811, 1.38697, 1.39183, 1.41304, 1.43008, 1.46158, 1.42729, 1.45888, 1.48091, 1.4798, 1.45621, 1.47798, 1.4776, 1.50368, 1.52713, 1.50095, 1.56829, 1.51694, 1.54703, 1.52857, 1.55919, 1.5597, 1.56733, 1.56276, 1.60863, 1.60667, 1.62469, 1.60858, 1.63111, 1.62717, 1.66528, 1.6439, 1.65793, 1.66787, 1.67797, 1.67279, 1.6793, 1.69858, 1.69663, 1.7217, 1.70429, 1.7258, 1.72633, 1.76522, 1.76372, 1.77626, 1.75118, 1.7833, 1.78181, 1.77662, 1.80487, 1.81604, 1.83742, 1.84056, 1.84085, 1.82932, 1.8698, 1.83994, 1.87274, 1.85499, 1.87035, 1.91135, 1.89184, 1.9143, 1.91429, 1.92521, 1.91313, 1.95243, 1.96895, 1.95232, 1.9705, 1.96847, 1.99036, 1.98919, 2.02367, 2.02367, 2.02189, 2.01392, 2.04583, 2.04666, 2.05646, 2.06657, 2.0652, 2.07764, 2.08663, 2.09438, 2.10399, 2.11773, 2.09972, 2.13494, 2.13619, 2.16133, 2.15109, 2.14422, 2.14688, 2.15917, 2.21213, 2.17701, 2.19008, 2.242, 2.22608, 2.23812, 2.23585, 2.22955, 2.2527, 2.27719, 2.26345, 2.27998, 2.30334, 2.29358, 2.29354, 2.29425, 2.31796, 2.3277, 2.3312, 2.35317, 2.34213, 2.33993, 2.38997, 2.38056, 2.39499, 2.37798, 2.41614, 2.43337, 2.41123, 2.42502, 2.45894, 2.45802, 2.43517, 2.42993, 2.45599, 2.48136, 2.49153, 2.49196, 2.49496, 2.52987, 2.5667, 2.51235, 2.55294, 2.53499, 2.57034, 2.55478, 2.55926, 2.59384, 2.56699, 2.59935, 2.61109, 2.61165, 2.6086, 2.6293, 2.66341, 2.63083, 2.64998, 2.6651, 2.67367, 2.66421, 2.68832, 2.68029, 2.72981, 2.69805, 2.73424, 2.70561, 2.71288, 2.75433, 2.74712, 2.74737, 2.7505, 2.76308, 2.8049, 2.76007, 2.81242, 2.80958, 2.80193, 2.83904, 2.86398, 2.83334
0.415931, 0.42061, 0.415091, 0.421758, 0.447817, 0.445092, 0.47331, 0.437372, 0.481856, 0.473565, 0.467174, 0.484345, 0.4912, 0.488323, 0.534473, 0.50641, 0.526524, 0.535239, 0.54543, 0.586338, 0.563448, 0.608073, 0.580787, 0.591359, 0.588229, 0.61855, 0.618139, 0.608738, 0.62227, 0.612549, 0.653681, 0.662592, 0.6407, 0.669169, 0.669429, 0.669043, 0.701254, 0.690388, 0.713834, 0.705491, 0.719477, 0.719782, 0.720255, 0.727782, 0.739213, 0.749132, 0.773446, 0.768102, 0.793917, 0.812194, 0.840896, 0.820919, 0.84537, 0.822785, 0.820369, 0.839215, 0.829177, 0.849788, 0.876276, 0.881523, 0.870975, 0.885113, 0.884471, 0.882956, 0.91466, 0.903251, 0.911674, 0.954589, 0.970289, 0.946273, 0.962592, 0.971255, 0.962559, 0.993925, 0.997979, 0.998553, 1.01123, 1.00425, 1.00794, 1.03325, 1.04995, 1.0474, 1.04097, 1.06409, 1.07263, 1.08143, 1.07078, 1.0807, 1.10867, 1.10743, 1.10946, 1.11947, 1.14625, 1.13362, 1.14322, 1.14441, 1.17665, 1.19651, 1.17777, 1.17527, 1.19476, 1.18776, 1.21189, 1.21041, 1.22517, 1.26257, 1.2366, 1.26095, 1.27708, 1.26225, 1.26394, 1.26635, 1.28035, 1.32591, 1.29655, 1.30344, 1.33279, 1.33226, 1.35042, 1.33168, 1.34106, 1.35525, 1.38287, 1.36459, 1.38477, 1.38136, 1.40335, 1.40257, 1.403, 1.42794, 1.44242, 1.46614, 1.4679, 1.47942, 1.46864, 1.46674, 1.48343, 1.51224, 1.50665, 1.49261, 1.51329, 1.51381, 1.52048, 1.53373, 1.55054, 1.53985, 1.57624, 1.56604, 1.56882, 1.59043, 1.61962, 1.60782, 1.62268, 1.61686, 1.6441, 1.63891, 1.63657, 1.66159, 1.65252, 1.67255, 1.67888, 1.69582, 1.71365, 1.69546, 1.7037, 1.71357, 1.73784, 1.76409, 1.7731, 1.76912, 1.79519, 1.78014, 1.776, 1.79971, 1.80095, 1.8009, 1.8346, 1.84543, 1.84177, 1.84861, 1.85172, 1.86325, 1.87552, 1.87934, 1.89705, 1.92666, 1.89025, 1.89997, 1.93527, 1.92822, 1.93566, 1.95203, 1.95167, 1.95193, 1.97898, 1.96351, 1.9906, 2.01341, 1.99691, 1.98987, 2.01093, 2.0087, 2.03141, 2.02956, 2.0295, 2.06115, 2.06061, 2.08598, 2.09066, 2.07888, 2.11544, 2.11846, 2.11808, 2.11265, 2.12459, 2.12532, 2.12399, 2.14974, 2.16599, 2.15958, 2.21009, 2.20457, 2.20778, 2.1829, 2.2237, 2.2415, 2.23236, 2.22075, 2.26595, 2.25155, 2.2487, 2.28396, 2.28432, 2.28373, 2.29826, 2.33263, 2.3277, 2.33849, 2.32759, 2.33093, 2.36626, 2.33455, 2.35095, 2.40298, 2.38679, 2.41044, 2.37321, 2.42567, 2.42882, 2.40405, 2.42061, 2.44117, 2.43086, 2.44399, 2.48376, 2.47093, 2.48532, 2.48486, 2.48333, 2.52462, 2.52339, 2.53547, 2.56614, 2.53623, 2.55912, 2.55297, 2.55241, 2.57114, 2.57826, 2.57122, 2.61191, 2.61142, 2.60506, 2.60796, 2.65716, 2.65594, 2.67498, 2.65372, 2.64892, 2.64742, 2.7159, 2.6878, 2.72259, 2.68751, 2.70428, 2.70572, 2.71223, 2.7462, 2.75546, 2.74661, 2.75915, 2.77053, 2.78756, 2.77015, 2.81232, 2.80239, 2.83868, 2.78401, 2.81986, 2.8434
0.403742, 0.401258, 0.392654, 0.407809, 0.410876, 0.438922, 0.428281, 0.431782, 0.469482, 0.453401, 0.467761, 0.497134, 0.511356, 0.485811, 0.52602, 0.518319, 0.54272, 0.535934, 0.544796, 0.538427, 0.547836, 0.560561, 0.576813, 0.579633, 0.590754, 0.607205, 0.624198, 0.614723, 0.635921, 0.634402, 0.667281, 0.673697, 0.641058, 0.66392, 0.665191, 0.664215, 0.687272, 0.679246, 0.695026, 0.69089, 0.701737, 0.704666, 0.730599, 0.735192, 0.742734, 0.786585, 0.770372, 0.764088, 0.762099, 0.779693, 0.813941, 0.81862, 0.797574, 0.818549, 0.819986, 0.823605, 0.839904, 0.864363, 0.853858, 0.853808, 0.876671, 0.902184, 0.884789, 0.895033, 0.891166, 0.915854, 0.916572, 0.920429, 0.960608, 0.938359, 0.944401, 0.991482, 0.957045, 0.976202, 0.984071, 0.996979, 0.995542, 0.99732, 1.029, 1.01924, 1.0322, 1.03404, 1.04245, 1.06679, 1.04954, 1.07004, 1.07301, 1.09367, 1.11443, 1.11282, 1.10958, 1.12424, 1.11564, 1.11796, 1.13255, 1.15386, 1.15662, 1.173, 1.17429, 1.17498, 1.18002, 1.19453, 1.21422, 1.22391, 1.23358, 1.23183, 1.23382, 1.23792, 1.26361, 1.26303, 1.27518, 1.26093, 1.28782, 1.28032, 1.29735, 1.29696, 1.31179, 1.31385, 1.33179, 1.33049, 1.33138, 1.357, 1.37261, 1.38523, 1.38848, 1.41085, 1.4076, 1.40941, 1.42383, 1.41773, 1.43482, 1.42115, 1.45493, 1.46159, 1.47584, 1.49549, 1.48876, 1.48314, 1.49885, 1.51674, 1.49978, 1.53774, 1.52533, 1.54745, 1.56096, 1.52727, 1.54692, 1.5779, 1.58525, 1.58719, 1.61073, 1.62013, 1.59692, 1.63049, 1.63129, 1.62972, 1.63414, 1.64437, 1.64811, 1.65589, 1.68034, 1.6936, 1.70724, 1.70279, 1.7021, 1.71304, 1.72846, 1.72398, 1.74069, 1.74162, 1.75738, 1.75827, 1.76148, 1.7823, 1.79645, 1.79792, 1.80402, 1.83201, 1.83744, 1.83348, 1.85953, 1.86162, 1.846, 1.86841, 1.86489, 1.89249, 1.90871, 1.92255, 1.91388, 1.91951, 1.92238, 1.96843, 1.96378, 1.95995, 1.96998, 1.96949, 1.97792, 2.00788, 2.00742, 1.99588, 2.03493, 2.00417, 2.01643, 2.01694, 2.05944, 2.03472, 2.06162, 2.06563, 2.0653, 2.0641, 2.08394, 2.1022, 2.0843, 2.12775, 2.14848, 2.1189, 2.13057, 2.15681, 2.15882, 2.17666, 2.15631, 2.1789, 2.17242, 2.17967, 2.2004, 2.20055, 2.22227, 2.22622, 2.23196, 2.24901, 2.24924, 2.29809, 2.27463, 2.30127, 2.2822, 2.33889, 2.33687, 2.33532, 2.31045, 2.31777, 2.32881, 2.3457, 2.37748, 2.33961, 2.38805, 2.40906, 2.37765, 2.37913, 2.43344, 2.43614, 2.43243, 2.42215, 2.43911, 2.44661, 2.44216, 2.44552, 2.45726, 2.47275, 2.48418, 2.49582, 2.50137, 2.49799, 2.51146, 2.52231, 2.53212, 2.55759, 2.54011, 2.54048, 2.56476, 2.57078, 2.57643, 2.60259, 2.60151, 2.64968, 2.62255, 2.62237, 2.62431, 2.6194, 2.65819, 2.67543, 2.63909, 2.70071, 2.69087, 2.69077, 2.69247, 2.69131, 2.74627, 2.76034, 2.75408, 2.74244, 2.73635, 2.7592, 2.80117, 2.80636, 2.78859, 2.82067, 2.80437, 2.8162, 2.81662, 2.81399
0.383111, 0.384309, 0.39606, 0.418019, 0.434489, 0.439216, 0.428769, 0.428246, 0.483946, 0.470621, 0.452184, 0.459627, 0.486852, 0.474023, 0.512151, 0.51846, 0.500859, 0.542835, 0.524074, 0.558625, 0.557023, 0.571439, 0.57236, 0.584342, 0.583479, 0.603565, 0.590132, 0.628703, 0.630044, 0.639399, 0.615294, 0.66042, 0.649163, 0.683259, 0.6663, 0.669456, 0.670707, 0.691773, 0.674217, 0.719487, 0.691021, 0.697722, 0.742422, 0.728524, 0.731311, 0.752083, 0.756766, 0.777842, 0.765857, 0.80176, 0.786934, 0.790833, 0.809661, 0.815266, 0.818481, 0.819827, 0.861495, 0.874034, 0.874315, 0.862896, 0.85515, 0.894341, 0.872947, 0.890869, 0.901591, 0.905026, 0.919479, 0.921053, 0.919429, 0.947803, 0.964495, 0.954183, 0.948856, 0.982642, 0.973241, 0.97809, 0.991941, 0.998548, 0.998711, 1.00457, 1.01652, 1.03616, 1.04248, 1.05465, 1.04606, 1.07425, 1.06788, 1.08616, 1.07831, 1.10168, 1.10292, 1.1151, 1.12756, 1.1249, 1.12198, 1.13887, 1.1592, 1.16122, 1.16445, 1.20136, 1.19123, 1.22003, 1.21013, 1.21455, 1.23359, 1.23959, 1.22332, 1.2504, 1.23309, 1.24051, 1.27984, 1.28923, 1.28452, 1.28263, 1.28309, 1.32624, 1.32781, 1.33096, 1.32306, 1.33008, 1.34633, 1.37009, 1.3664, 1.36558, 1.38423, 1.3972, 1.39654, 1.40611, 1.40071, 1.42712, 1.45889, 1.44816, 1.46406, 1.46351, 1.44423, 1.47786, 1.49391, 1.48437, 1.50654, 1.49816, 1.51743, 1.49546, 1.52077, 1.51984, 1.54408, 1.56257, 1.53824, 1.56544, 1.59292, 1.59943, 1.59906, 1.5994, 1.58518, 1.617, 1.62356, 1.61371, 1.6437, 1.65411, 1.66802, 1.66817, 1.6621, 1.69209, 1.67212, 1.67143, 1.72695, 1.71709, 1.70573, 1.72435, 1.72435, 1.75224, 1.76175, 1.74624, 1.76147, 1.77881, 1.77876, 1.80978, 1.8162, 1.81445, 1.82222, 1.83192, 1.84557, 1.83885, 1.84194, 1.86236, 1.88005, 1.85842, 1.8787, 1.90731, 1.88401, 1.91744, 1.91525, 1.93098, 1.91733, 1.92547, 1.96504, 1.93696, 1.97603, 1.97609, 1.99785, 2.0245, 2.00787, 2.00278, 2.02436, 2.04238, 2.02862, 2.03068, 2.06833, 2.0604, 2.06611, 2.05511, 2.11331, 2.09037, 2.09091, 2.11384, 2.10658, 2.12487, 2.1612, 2.15553, 2.14878, 2.17034, 2.14891, 2.16215, 2.18258, 2.18733, 2.20715, 2.19274, 2.22869, 2.23807, 2.22218, 2.25579, 2.27092, 2.25959, 2.29436, 2.29332, 2.28127, 2.31446, 2.28455, 2.30437, 2.31804, 2.31817, 2.3143, 2.34933, 2.35093, 2.35612, 2.37027, 2.36186, 2.37874, 2.39368, 2.42482, 2.42443, 2.42801, 2.44594, 2.44545, 2.42299, 2.45239, 2.4747, 2.46634, 2.47607, 2.5006, 2.50552, 2.50271, 2.53267, 2.51464, 2.55388, 2.54432, 2.59512, 2.54622, 2.53385, 2.55828, 2.55971, 2.58755, 2.58567, 2.61544, 2.60113, 2.62239, 2.6196, 2.6434, 2.62242, 2.64329, 2.65787, 2.65807, 2.65807, 2.67373, 2.69686, 2.69597, 2.69379, 2.73734, 2.71156, 2.77404, 2.75646, 2.76366, 2.75425, 2.75325, 2.76644, 2.79906, 2.82224, 2.81167, 2.81243, 2.79502, 2.85019
0.393538, 0.403554, 0.383764, 0.39503, 0.410784, 0.441521, 0.465973, 0.438245, 0.441599, 0.441487, 0.454645, 0.459511, 0.479252, 0.473312, 0.516941, 0.490164, 0.534051, 0.525629, 0.545332, 0.521831, 0.560337, 0.564036, 0.583634, 0.578218, 0.57814, 0.595549, 0.590073, 0.597906, 0.605272, 0.621737, 0.62125, 0.625306, 0.625803, 0.634895, 0.651957, 0.645806, 0.662745, 0.689508, 0.687937, 0.702943, 0.70761, 0.704782, 0.729649, 0.726451, 0.746145, 0.738898, 0.760412, 0.750697, 0.775132, 0.781463, 0.795013, 0.822468, 0.804586, 0.797395, 0.82014, 0.829564, 0.852734, 0.842794, 0.859812, 0.849249, 0.904239, 0.891491, 0.87077, 0.89478, 0.894857, 0.908377, 0.926294, 0.92085, 0.923484, 0.925143, 0.926174, 0.952036, 0.952645, 0.961143, 0.964863, 0.97428, 0.995789, 1.00859, 1.00818, 1.00313, 1.01699, 1.02902, 1.02618, 1.05079, 1.04204, 1.04972, 1.07042, 1.06552, 1.09427, 1.0953, 1.1004, 1.10151, 1.12135, 1.1131, 1.12406, 1.12968, 1.1607, 1.15204, 1.16062, 1.171, 1.19772, 1.19199, 1.19912, 1.19101, 1.22289, 1.24211, 1.23148, 1.23782, 1.2267, 1.25608, 1.25008, 1.27365, 1.26741, 1.2668, 1.29995, 1.31203, 1.30598, 1.32219, 1.33699, 1.31873, 1.35969, 1.37274, 1.3712, 1.35709, 1.38565, 1.40941, 1.3856, 1.3851, 1.4162, 1.41318, 1.42999, 1.42455, 1.4461, 1.46523, 1.4655, 1.45145, 1.4718, 1.47326, 1.47292, 1.51235, 1.4964, 1.50201, 1.50426, 1.52291, 1.51868, 1.52572, 1.54051, 1.55811, 1.56568, 1.56481, 1.5857, 1.59502, 1.59603, 1.59587, 1.61443, 1.63772, 1.65407, 1.65103, 1.63987, 1.66796, 1.66536, 1.67507, 1.66673, 1.67552, 1.69228, 1.6929, 1.72381, 1.73654, 1.75162, 1.72852, 1.7387, 1.74517, 1.74749, 1.77973, 1.80591, 1.78003, 1.7973, 1.81345, 1.80307, 1.82825, 1.83044, 1.83292, 1.85577, 1.87067, 1.86625, 1.87991, 1.87583, 1.8885, 1.89362, 1.90601, 1.91701, 1.92708, 1.92015, 1.9331, 1.95339, 1.97065, 1.96957, 1.96712, 2.00716, 1.99713, 1.99262, 2.01326, 1.99605, 1.99469, 2.00415, 2.0615, 2.06972, 2.07258, 2.07031, 2.0838, 2.08846, 2.08971, 2.09988, 2.09712, 2.10371, 2.1254, 2.12885, 2.12136, 2.1378, 2.13825, 2.17626, 2.18694, 2.19303, 2.18822, 2.2116, 2.20146, 2.20798, 2.20753, 2.23643, 2.24488, 2.23828, 2.27263, 2.28547, 2.2876, 2.301, 2.28845, 2.33154, 2.28535, 2.32075, 2.33941, 2.3311, 2.34838, 2.35229, 2.33965, 2.36797, 2.38157, 2.36339, 2.40833, 2.39948, 2.40842, 2.41802, 2.42609, 2.41057, 2.42814, 2.44612, 2.4708, 2.48317, 2.46294, 2.49422, 2.50369, 2.50667, 2.50747, 2.49416, 2.52002, 2.51388, 2.56945, 2.54986, 2.55974, 2.57389, 2.57318, 2.59385, 2.59364, 2.62217, 2.61671, 2.60798, 2.60788, 2.62549, 2.64088, 2.65689, 2.63954, 2.70107, 2.65905, 2.66943, 2.69303, 2.70964, 2.68178, 2.70521, 2.7308, 2.72436, 2.7365, 2.76319, 2.76015, 2.77147, 2.76787, 2.76692, 2.78676, 2.80739, 2.80903, 2.79471, 2.82163
0.389733, 0.359524, 0.398489, 0.425611, 0.422544, 0.442054, 0.445282, 0.414578, 0.423067, 0.432827, 0.44574, 0.465973, 0.497837, 0.47387, 0.508197, 0.504803, 0.495285, 0.521407, 0.521882, 0.53582, 0.535085, 0.567621, 0.549066, 0.591185, 0.557261, 0.58896, 0.576755, 0.601705, 0.615695, 0.620842, 0.618562, 0.647847, 0.651026, 0.673159, 0.638556, 0.649308, 0.684305, 0.660739, 0.660425, 0.688272, 0.684917, 0.692504, 0.695006, 0.704458, 0.740107, 0.732523, 0.751645, 0.753208, 0.761055, 0.756668, 0.77594, 0.788527, 0.787697, 0.830388, 0.805716, 0.802277, 0.835959, 0.815486, 0.838811, 0.873109, 0.870332, 0.868553, 0.891457, 0.908788, 0.901871, 0.918504, 0.917621, 0.952894, 0.944761, 0.94773, 0.964288, 0.933464, 0.979111, 0.983603, 0.967618, 0.978663, 0.974052, 0.978907, 0.989381, 1.01676, 1.00496, 1.01294, 1.0542, 1.03174, 1.03706, 1.07761, 1.04982, 1.08138, 1.10112, 1.07508, 1.0855, 1.10575, 1.10601, 1.10937, 1.13908, 1.14412, 1.13649, 1.16133, 1.14374, 1.17424, 1.17395, 1.18073, 1.19142, 1.18806, 1.2121, 1.21707, 1.23033, 1.21663, 1.22288, 1.24747, 1.27214, 1.27128, 1.29254, 1.28156, 1.30341, 1.32629, 1.32625, 1.32548, 1.32722, 1.32997, 1.32429, 1.33453, 1.34612, 1.34768, 1.36821, 1.38868, 1.40283, 1.39544, 1.40384, 1.41427, 1.42069, 1.41601, 1.44863, 1.429, 1.44301, 1.48536, 1.46232, 1.45417, 1.49004, 1.48957, 1.48603, 1.50214, 1.49579, 1.50563, 1.51926, 1.54594, 1.5468, 1.54315, 1.56573, 1.56454, 1.56402, 1.58638, 1.61033, 1.63702, 1.60886, 1.62113, 1.62355, 1.64694, 1.64864, 1.65845, 1.69255, 1.68248, 1.66231, 1.69634, 1.69768, 1.69931, 1.70938, 1.71066, 1.71026, 1.71856, 1.72867, 1.74953, 1.75872, 1.79257, 1.77935, 1.7864, 1.78634, 1.80601, 1.80662, 1.8241, 1.82464, 1.87731, 1.83509, 1.83721, 1.8579, 1.85487, 1.88437, 1.89722, 1.92282, 1.92716, 1.9304, 1.91734, 1.91446, 1.91018, 1.92375, 1.94852, 1.9804, 1.95952, 1.99832, 2.00021, 2.00039, 1.98535, 2.03502, 2.00132, 2.0261, 2.0319, 2.0753, 2.04712, 2.06686, 2.04825, 2.07731, 2.10425, 2.10575, 2.08265, 2.12027, 2.10397, 2.13627, 2.17181, 2.1166, 2.20791, 2.19099, 2.19595, 2.16301, 2.21362, 2.17756, 2.20713, 2.2084, 2.20519, 2.23355, 2.23435, 2.24446, 2.25254, 2.26385, 2.2698, 2.26956, 2.29048, 2.28768, 2.29447, 2.34339, 2.32565, 2.34196, 2.35001, 2.35629, 2.35949, 2.34315, 2.35955, 2.38991, 2.40112, 2.41836, 2.41223, 2.39263, 2.40726, 2.41052, 2.43968, 2.44237, 2.47923, 2.454, 2.44553, 2.48398, 2.48528, 2.48169, 2.48048, 2.52216, 2.51815, 2.53244, 2.52476, 2.53194, 2.54615, 2.54645, 2.56458, 2.55752, 2.56819, 2.57431, 2.6218, 2.59746, 2.61881, 2.64058, 2.65357, 2.63573, 2.65391, 2.67582, 2.67119, 2.69089, 2.6617, 2.72991, 2.68919, 2.71619, 2.73707, 2.71627, 2.71861, 2.74714, 2.79163, 2.76787, 2.76537, 2.76657, 2.78067, 2.77783, 2.80384, 2.81651, 2.82224
0.37576, 0.375968, 0.373213, 0.385983, 0.388143, 0.392651, 0.426005, 0.409241, 0.45294, 0.462979, 0.466528, 0.461284, 0.46326, 0.473321, 0.509969, 0.508031, 0.499263, 0.515394, 0.532631, 0.51743, 0.535734, 0.56588, 0.545553, 0.554485, 0.566113, 0.577092, 0.582502, 0.576467, 0.587897, 0.632104, 0.615006, 0.611883, 0.624532, 0.636794, 0.652077, 0.644819, 0.674061, 0.683247, 0.670657, 0.686694, 0.704156, 0.702567, 0.72104, 0.721805, 0.73018, 0.762789, 0.763665, 0.73238, 0.746499, 0.764247, 0.766743, 0.782305, 0.77846, 0.802488, 0.80021, 0.799796, 0.846013, 0.815138, 0.832495, 0.861305, 0.866734, 0.870754, 0.884483, 0.860713, 0.894442, 0.908329, 0.912466, 0.897873, 0.935661, 0.928861, 0.94863, 0.930009, 0.942076, 0.958456, 0.968601, 0.988096, 0.971937, 0.976578, 0.98476, 0.986174, 1.00877, 1.03326, 1.02364, 1.03038, 1.0349, 1.06541, 1.04749, 1.06841, 1.06683, 1.09532, 1.09705, 1.08238, 1.10516, 1.10475, 1.1196, 1.12933, 1.13965, 1.14643, 1.14584, 1.14477, 1.17282, 1.16387, 1.19086, 1.19509, 1.19093, 1.2059, 1.23122, 1.23056, 1.24295, 1.23642, 1.26704, 1.25875, 1.28471, 1.29561, 1.30459, 1.32358, 1.29564, 1.31897, 1.31577, 1.30916, 1.31501, 1.3513, 1.36399, 1.34051, 1.34848, 1.36038, 1.37064, 1.38868, 1.39474, 1.39534, 1.4122, 1.41703, 1.42479, 1.42379, 1.44914, 1.4516, 1.45697, 1.47271, 1.48487, 1.46761, 1.48141, 1.516, 1.51325, 1.5413, 1.52387, 1.52691, 1.55433, 1.55726, 1.57072, 1.54839, 1.56546, 1.57169, 1.59498, 1.57655, 1.58737, 1.62411, 1.64562, 1.64097, 1.62242, 1.65513, 1.65398, 1.66144, 1.6554, 1.66904, 1.68695, 1.68912, 1.70757, 1.72594, 1.73475, 1.73847, 1.72462, 1.73343, 1.75236, 1.75164, 1.75832, 1.76832, 1.77151, 1.7997, 1.78234, 1.81309, 1.84069, 1.82076, 1.84505, 1.86583, 1.86258, 1.86984, 1.86937, 1.88572, 1.88209, 1.88273, 1.89054, 1.93134, 1.92744, 1.94523, 1.94238, 1.96126, 1.96568, 1.9897, 1.99494, 1.97273, 1.98723, 1.98903, 1.99727, 2.01387, 2.03903, 2.00759, 2.04493, 2.03547, 2.05157, 2.07694, 2.07129, 2.09029, 2.10001, 2.09404, 2.11457, 2.10349, 2.11078, 2.14517, 2.13915, 2.14253, 2.15147, 2.14845, 2.18267, 2.16927, 2.2314, 2.20253, 2.21427, 2.24615, 2.26311, 2.21718, 2.24891, 2.2486, 2.23536, 2.27121, 2.29106, 2.30181, 2.2739, 2.31068, 2.31127, 2.2945, 2.35735, 2.3421, 2.33866, 2.33829, 2.36203, 2.35174, 2.38352, 2.36935, 2.38445, 2.4298, 2.40907, 2.40819, 2.42497, 2.44597, 2.44006, 2.45314, 2.44505, 2.48701, 2.49168, 2.46713, 2.49733, 2.50094, 2.51693, 2.53693, 2.53561, 2.52981, 2.55296, 2.55969, 2.55705, 2.5511, 2.55002, 2.58135, 2.58034, 2.58064, 2.60379, 2.60267, 2.60447, 2.6084, 2.65009, 2.63308, 2.65963, 2.6746, 2.66813, 2.6999, 2.68909, 2.67503, 2.71552, 2.71855, 2.70154, 2.71096, 2.72744, 2.73418, 2.73856, 2.7594, 2.7823, 2.78824, 2.7743, 2.77533, 2.83015, 2.80492
0.35093, 0.374041, 0.383093, 0.423719, 0.399248, 0.398668, 0.3987, 0.428234, 0.430866, 0.437541, 0.487613, 0.473825, 0.477821, 0.519136, 0.488402, 0.510216, 0.50166, 0.491318, 0.505027, 0.541389, 0.538915, 0.549792, 0.543047, 0.543081, 0.560668, 0.583666, 0.580138, 0.584355, 0.590126, 0.60741, 0.628437, 0.624744, 0.660439, 0.632226, 0.653992, 0.659647, 0.645517, 0.679394, 0.664525, 0.692429, 0.681263, 0.68058, 0.721285, 0.720119, 0.721342, 0.751937, 0.74446, 0.734626, 0.734986, 0.764771, 0.784826, 0.781046, 0.775682, 0.80446, 0.807913, 0.798288, 0.826497, 0.826239, 0.827141, 0.856998, 0.839871, 0.887841, 0.851517, 0.884652, 0.901383, 0.922964, 0.88845, 0.920789, 0.903144, 0.92974, 0.928698, 0.92799, 0.937315, 0.955955, 0.974896, 0.952804, 0.961451, 0.963328, 0.995428, 0.988292, 1.00071, 1.00185, 1.0259, 1.03713, 1.04417, 1.04682, 1.04676, 1.05043, 1.07065, 1.06391, 1.07402, 1.09852, 1.09458, 1.10891, 1.11683, 1.11646, 1.12835, 1.14144, 1.15319, 1.15436, 1.15887, 1.1807, 1.17958, 1.17936, 1.2111, 1.20297, 1.19952, 1.21278, 1.21436, 1.23448, 1.23458, 1.25467, 1.24659, 1.28147, 1.27425, 1.27272, 1.2759, 1.31217, 1.31193, 1.32913, 1.32826, 1.32364, 1.3291, 1.36157, 1.35089, 1.35167, 1.36892, 1.37011, 1.38414, 1.40403, 1.4042, 1.43782, 1.43895, 1.43206, 1.44117, 1.44436, 1.45412, 1.47852, 1.46473, 1.49145, 1.4995, 1.5111, 1.51383, 1.49563, 1.52043, 1.52707, 1.54036, 1.57213, 1.57961, 1.56107, 1.55883, 1.57174, 1.59049, 1.59641, 1.60258, 1.61881, 1.6191, 1.61656, 1.61664, 1.63746, 1.644, 1.64365, 1.65901, 1.68569, 1.68637, 1.68968, 1.69322, 1.71371, 1.72044, 1.71444, 1.74393, 1.73646, 1.75919, 1.75818, 1.7608, 1.77654, 1.80562, 1.82344, 1.79214, 1.79217, 1.81748, 1.83711, 1.83481, 1.84211, 1.86614, 1.85585, 1.87163, 1.86622, 1.86492, 1.89279, 1.88691, 1.91083, 1.91457, 1.90626, 1.94437, 1.94429, 1.95265, 1.97488, 1.98579, 1.98702, 1.9686, 2.00261, 2.0285, 2.01773, 2.02196, 2.01031, 2.06246, 2.05536, 2.06984, 2.05298, 2.09283, 2.09305, 2.11532, 2.12869, 2.10795, 2.12062, 2.12171, 2.12536, 2.15393, 2.16171, 2.14369, 2.16938, 2.17359, 2.19139, 2.17121, 2.18152, 2.21409, 2.20068, 2.22989, 2.2379, 2.23881, 2.2632, 2.2732, 2.25537, 2.28255, 2.29747, 2.2766, 2.276, 2.276, 2.34063, 2.30103, 2.34954, 2.3596, 2.33536, 2.38271, 2.36372, 2.38751, 2.35567, 2.39805, 2.37972, 2.38723, 2.41162, 2.44234, 2.45313, 2.43941, 2.443, 2.48456, 2.49817, 2.46245, 2.45724, 2.48498, 2.4843, 2.48991, 2.50711, 2.53345, 2.53687, 2.55275, 2.55023, 2.53623, 2.57442, 2.5433, 2.60186, 2.58823, 2.57652, 2.59828, 2.62641, 2.60811, 2.61392, 2.6353, 2.69123, 2.63914, 2.65733, 2.73337, 2.68214, 2.6782, 2.69798, 2.70477, 2.70656, 2.71084, 2.72171, 2.71779, 2.7474, 2.75333, 2.78537, 2.75167, 2.74844, 2.7741, 2.77038, 2.81516, 2.82723
0.358589, 0.386135, 0.370997, 0.382357, 0.376362, 0.392395, 0.426828, 0.401635, 0.427285, 0.438144, 0.441712, 0.453106, 0.466627, 0.465561, 0.501572, 0.50208, 0.484858, 0.486265, 0.486192, 0.515165, 0.524924, 0.544579, 0.538166, 0.576124, 0.553078, 0.549467, 0.593376, 0.597151, 0.609657, 0.623647, 0.593746, 0.601881, 0.619647, 0.632832, 0.63774, 0.632788, 0.65771, 0.672594, 0.670893, 0.692967, 0.691286, 0.691802, 0.691676, 0.708584, 0.712149, 0.730552, 0.737067, 0.739084, 0.76278, 0.771152, 0.766247, 0.756384, 0.784377, 0.79581, 0.795915, 0.802337, 0.820982, 0.842355, 0.843345, 0.864078, 0.865678, 0.863445, 0.852663, 0.884153, 0.87407, 0.919333, 0.920951, 0.912596, 0.919496, 0.913675, 0.916897, 0.921136, 0.944344, 0.9541, 0.955895, 0.981035, 0.991007, 0.991537, 1.00428, 1.02277, 1.00116, 1.01469, 1.03545, 1.0302, 1.02937, 1.06409, 1.04058, 1.07135, 1.04977, 1.07914, 1.098, 1.07813, 1.08794, 1.10835, 1.1223, 1.13364, 1.13007, 1.13749, 1.1393, 1.14309, 1.16509, 1.15978, 1.1705, 1.17762, 1.19884, 1.20107, 1.19699, 1.21679, 1.21854, 1.23071, 1.2314, 1.23251, 1.25173, 1.28106, 1.28438, 1.28493, 1.29422, 1.2922, 1.31247, 1.31311, 1.33974, 1.33982, 1.32713, 1.3414, 1.36246, 1.36271, 1.37797, 1.38401, 1.38408, 1.38345, 1.39908, 1.42447, 1.41642, 1.41587, 1.43462, 1.47205, 1.45512, 1.44391, 1.44348, 1.48452, 1.49293, 1.50974, 1.5043, 1.50407, 1.51899, 1.51817, 1.53438, 1.54775, 1.53455, 1.55076, 1.56453, 1.56134, 1.58399, 1.57295, 1.63399, 1.6095, 1.60774, 1.6077, 1.6116, 1.62777, 1.63483, 1.64724, 1.65095, 1.6814, 1.68557, 1.69224, 1.68988, 1.72037, 1.7, 1.73369, 1.72109, 1.73264, 1.72869, 1.74556, 1.77537, 1.78551, 1.79002, 1.78266, 1.7998, 1.82135, 1.81463, 1.81594, 1.84296, 1.8249, 1.8753, 1.87006, 1.87967, 1.86398, 1.86789, 1.87693, 1.90706, 1.90649, 1.91871, 1.92739, 1.94233, 1.92503, 1.94601, 1.95838, 1.98933, 1.98024, 2.00742, 1.98104, 1.99385, 2.0144, 1.99984, 2.00129, 2.01028, 2.02447, 2.05206, 2.05557, 2.0724, 2.06661, 2.10423, 2.08706, 2.09352, 2.11398, 2.14003, 2.12748, 2.1265, 2.13917, 2.16399, 2.16623, 2.17052, 2.17686, 2.17938, 2.20007, 2.17773, 2.19451, 2.19985, 2.22506, 2.25228, 2.23054, 2.23705, 2.26013, 2.26201, 2.27269, 2.26732, 2.29846, 2.31037, 2.29095, 2.31321, 2.31455, 2.36915, 2.34901, 2.35918, 2.34807, 2.35875, 2.38372, 2.38167, 2.37662, 2.40775, 2.40845, 2.39427, 2.41492, 2.43947, 2.43939, 2.45675, 2.45293, 2.45553, 2.51126, 2.47912, 2.50495, 2.51283, 2.48812, 2.49653, 2.51549, 2.52615, 2.54905, 2.55168, 2.54016, 2.56757, 2.56113, 2.55987, 2.58071, 2.57356, 2.60616, 2.61652, 2.62997, 2.61341, 2.62787, 2.65349, 2.64694, 2.64983, 2.68834, 2.68777, 2.68751, 2.74638, 2.72071, 2.7072, 2.72992, 2.76733, 2.73321, 2.77189, 2.75046, 2.73931, 2.7653, 2.78299, 2.788, 2.78689, 2.79862
0.342606, 0.388174, 0.377222, 0.389598, 0.379263, 0.4051, 0.406705, 0.445821, 0.414868, 0.454102, 0.420934, 0.421603, 0.467447, 0.469041, 0.484048, 0.476555, 0.486374, 0.534373, 0.510879, 0.501252, 0.515225, 0.546617, 0.535872, 0.534313, 0.555108, 0.57326, 0.569664, 0.573323, 0.587448, 0.59219, 0.584377, 0.618591, 0.618663, 0.619445, 0.624908, 0.639491, 0.649912, 0.663094, 0.683322, 0.680522, 0.698544, 0.69389, 0.692989, 0.719162, 0.725791, 0.705928, 0.749886, 0.749938, 0.728406, 0.773, 0.770559, 0.766509, 0.791318, 0.794274, 0.795123, 0.801015, 0.804907, 0.832299, 0.835592, 0.838017, 0.856919, 0.857072, 0.859996, 0.863172, 0.887994, 0.904461, 0.905057, 0.904883, 0.893629, 0.903021, 0.90905, 0.918441, 0.943334, 0.942838, 0.96295, 0.946092, 0.960043, 0.977833, 1.00572, 0.978629, 1.0007, 1.02655, 1.0084, 1.02037, 1.03594, 1.04021, 1.03791, 1.0444, 1.05545, 1.08806, 1.07096, 1.07114, 1.09711, 1.11498, 1.09593, 1.11148, 1.1348, 1.12309, 1.12547, 1.16064, 1.14408, 1.16554, 1.15741, 1.16346, 1.1864, 1.1973, 1.20195, 1.22796, 1.22407, 1.23952, 1.23829, 1.26171, 1.25142, 1.2495, 1.28399, 1.28162, 1.29084, 1.28141, 1.30866, 1.32574, 1.32764, 1.33368, 1.32047, 1.35525, 1.3362, 1.36003, 1.37166, 1.36199, 1.36562, 1.38805, 1.39738, 1.40211, 1.42117, 1.41848, 1.42107, 1.42418, 1.47498, 1.44864, 1.49126, 1.47469, 1.47923, 1.48659, 1.50232, 1.49997, 1.49393, 1.54518, 1.51278, 1.5403, 1.55847, 1.5484, 1.55517, 1.56878, 1.60062, 1.58348, 1.58545, 1.58953, 1.5925, 1.62136, 1.6246, 1.6471, 1.64419, 1.65941, 1.6755, 1.65391, 1.65886, 1.69988, 1.69757, 1.70855, 1.70939, 1.70772, 1.72937, 1.73712, 1.73232, 1.73193, 1.76591, 1.7722, 1.77941, 1.78638, 1.77245, 1.81802, 1.81761, 1.81317, 1.81745, 1.83217, 1.83515, 1.84378, 1.85892, 1.89585, 1.8634, 1.88096, 1.88273, 1.90414, 1.92718, 1.92085, 1.9272, 1.93822, 1.9412, 1.96297, 1.94905, 1.9907, 1.98321, 1.9866, 1.97979, 2.00968, 2.02078, 2.03488, 2.03508, 2.02621, 2.02032, 2.0672, 2.07298, 2.07654, 2.06727, 2.0782, 2.10561, 2.10306, 2.13894, 2.1284, 2.11775, 2.18435, 2.14948, 2.163, 2.17025, 2.15975, 2.1774, 2.18174, 2.20929, 2.22394, 2.22951, 2.21208, 2.24813, 2.23883, 2.24011, 2.24344, 2.26492, 2.25707, 2.27841, 2.26937, 2.30137, 2.32917, 2.31083, 2.31124, 2.31945, 2.31875, 2.34347, 2.32967, 2.34701, 2.3567, 2.3805, 2.37987, 2.41034, 2.39637, 2.40213, 2.44367, 2.40899, 2.40912, 2.44957, 2.44353, 2.46583, 2.46217, 2.47, 2.51855, 2.47636, 2.50024, 2.49201, 2.49421, 2.54588, 2.54448, 2.52508, 2.56751, 2.54869, 2.57219, 2.60464, 2.58126, 2.66767, 2.62262, 2.59866, 2.6274, 2.62805, 2.62201, 2.64527, 2.6636, 2.63976, 2.66787, 2.67472, 2.67448, 2.70439, 2.7338, 2.72116, 2.69949, 2.73563, 2.73307, 2.72702, 2.72696, 2.75814, 2.75969, 2.78113, 2.79094, 2.79191, 2.78141
0.373672, 0.348443, 0.36436, 0.364151, 0.401099, 0.391213, 0.407395, 0.465242, 0.462871, 0.46288, 0.462677, 0.489034, 0.475681, 0.463939, 0.51128, 0.493889, 0.515156, 0.511108, 0.487581, 0.514103, 0.541097, 0.515304, 0.556692, 0.545629, 0.531825, 0.581855, 0.577271, 0.570014, 0.600907, 0.597095, 0.624743, 0.602262, 0.593054, 0.615527, 0.616435, 0.664282, 0.646662, 0.645874, 0.645783, 0.677664, 0.685033, 0.705527, 0.720648, 0.715575, 0.724718, 0.718557, 0.712864, 0.739678, 0.753699, 0.735435, 0.757147, 0.757386, 0.763983, 0.786795, 0.773254, 0.807546, 0.808461, 0.808408, 0.822571, 0.843333, 0.844058, 0.836378, 0.861282, 0.874338, 0.880779, 0.879699, 0.891087, 0.880719, 0.903556, 0.918019, 0.918075, 0.936438, 0.921442, 0.925727, 0.950029, 0.95604, 0.976812, 0.96101, 0.973156, 0.97814, 1.01017, 1.00895, 1.00422, 1.00796, 1.03386, 1.02452, 1.05698, 1.06629, 1.05976, 1.05063, 1.08068, 1.09268, 1.0877, 1.11574, 1.10293, 1.12105, 1.12436, 1.13131, 1.14395, 1.14306, 1.1508, 1.17397, 1.17246, 1.16333, 1.20136, 1.19847, 1.19466, 1.2159, 1.20534, 1.21327, 1.22669, 1.2375, 1.24814, 1.24774, 1.27894, 1.27063, 1.29623, 1.29944, 1.30147, 1.30837, 1.31927, 1.32968, 1.3321, 1.32135, 1.32611, 1.35354, 1.3912, 1.39489, 1.37639, 1.38441, 1.39318, 1.40319, 1.42361, 1.39879, 1.42597, 1.44178, 1.44279, 1.46775, 1.45816, 1.4689, 1.46282, 1.48266, 1.48173, 1.47971, 1.50372, 1.50571, 1.51502, 1.54597, 1.54375, 1.52763, 1.56103, 1.56671, 1.5726, 1.5714, 1.57842, 1.60361, 1.59343, 1.61054, 1.62012, 1.64392, 1.61996, 1.63018, 1.66446, 1.66007, 1.657, 1.66056, 1.67369, 1.69578, 1.6853, 1.73836, 1.72693, 1.72738, 1.72423, 1.74453, 1.74087, 1.75944, 1.74664, 1.78247, 1.79503, 1.79895, 1.80986, 1.80172, 1.82363, 1.82417, 1.84061, 1.84882, 1.8485, 1.8686, 1.87253, 1.87328, 1.8698, 1.89647, 1.88803, 1.91363, 1.92504, 1.93027, 1.94465, 1.96161, 1.96203, 1.94595, 2.00048, 1.97832, 2.01104, 2.01066, 2.01159, 2.02601, 2.03953, 2.02767, 2.0355, 2.0621, 2.04301, 2.07159, 2.08826, 2.08102, 2.08293, 2.08437, 2.09514, 2.12763, 2.12358, 2.12254, 2.12181, 2.12951, 2.16382, 2.16399, 2.16321, 2.17223, 2.20842, 2.18762, 2.18566, 2.21573, 2.21753, 2.22742, 2.22533, 2.2467, 2.27093, 2.27923, 2.28474, 2.27654, 2.28392, 2.30555, 2.31135, 2.31041, 2.30907, 2.33174, 2.35073, 2.36072, 2.37958, 2.38017, 2.39099, 2.39111, 2.38766, 2.38118, 2.40492, 2.40308, 2.42283, 2.41789, 2.41922, 2.42619, 2.45321, 2.45822, 2.49913, 2.49753, 2.51787, 2.49125, 2.50157, 2.50534, 2.53649, 2.53553, 2.52647, 2.54012, 2.54708, 2.55838, 2.57775, 2.58151, 2.58465, 2.58364, 2.58524, 2.6355, 2.6377, 2.61548, 2.65897, 2.62949, 2.64893, 2.66701, 2.66713, 2.6699, 2.67475, 2.69966, 2.70485, 2.69038, 2.71065, 2.75495, 2.73363, 2.75436, 2.75373, 2.7698, 2.78062, 2.79878, 2.78059, 2.78131
0.347203, 0.347718, 0.368165, 0.378652, 0.366185, 0.417081, 0.390974, 0.422309, 0.407761, 0.430151, 0.531026, 0.451395, 0.463527, 0.473818, 0.487157, 0.505681, 0.477377, 0.475396, 0.498204, 0.511961, 0.507666, 0.518493, 0.517649, 0.561843, 0.560342, 0.572477, 0.565533, 0.596626, 0.5861, 0.580645, 0.618465, 0.617305, 0.618745, 0.624352, 0.61739, 0.633045, 0.649451, 0.6481, 0.646711, 0.677773, 0.66036, 0.702372, 0.711857, 0.732992, 0.715189, 0.716344, 0.739305, 0.721757, 0.719231, 0.751827, 0.769357, 0.766303, 0.754382, 0.773144, 0.773819, 0.789379, 0.801281, 0.831759, 0.840297, 0.835199, 0.829118, 0.837572, 0.84058, 0.845741, 0.883593, 0.874699, 0.899096, 0.904979, 0.915702, 0.919687, 0.939973, 0.910336, 0.912966, 0.926949, 0.932089, 0.941056, 0.966674, 0.957784, 0.981021, 0.976382, 0.992915, 0.989823, 1.01121, 1.01467, 1.05013, 1.03637, 1.03228, 1.06041, 1.04661, 1.05077, 1.06882, 1.08426, 1.08519, 1.10159, 1.09092, 1.12179, 1.10922, 1.13009, 1.1269, 1.13991, 1.17363, 1.16868, 1.15547, 1.17029, 1.18584, 1.19118, 1.18641, 1.20217, 1.20124, 1.20987, 1.22015, 1.2493, 1.24122, 1.24499, 1.24688, 1.25835, 1.29588, 1.28073, 1.27555, 1.32313, 1.31724, 1.32647, 1.32778, 1.3262, 1.32726, 1.35069, 1.36719, 1.35837, 1.35818, 1.38189, 1.37612, 1.39914, 1.39859, 1.43286, 1.43426, 1.4181, 1.44002, 1.42757, 1.45924, 1.46391, 1.47219, 1.47119, 1.46686, 1.49928, 1.49082, 1.52662, 1.51078, 1.52666, 1.54998, 1.54894, 1.57849, 1.54737, 1.56181, 1.58267, 1.57532, 1.59351, 1.59987, 1.60724, 1.60946, 1.60946, 1.62736, 1.6374, 1.64674, 1.639, 1.69583, 1.68217, 1.69603, 1.70457, 1.69652, 1.72107, 1.72474, 1.7318, 1.7472, 1.74769, 1.76535, 1.77927, 1.7867, 1.78623, 1.77122, 1.78473, 1.81747, 1.81097, 1.81409, 1.82427, 1.83164, 1.8378, 1.83942, 1.83488, 1.88156, 1.8777, 1.87961, 1.8791, 1.87843, 1.89148, 1.91405, 1.92959, 1.92364, 1.95874, 1.95489, 1.95533, 1.95455, 1.99465, 1.96126, 1.96932, 2.00471, 2.03402, 2.01275, 2.02204, 2.03186, 2.03583, 2.07208, 2.06096, 2.05315, 2.05305, 2.10238, 2.0936, 2.09342, 2.13952, 2.14284, 2.12084, 2.13342, 2.12203, 2.14551, 2.16384, 2.15653, 2.21833, 2.20496, 2.18672, 2.20346, 2.20437, 2.24232, 2.2184, 2.24686, 2.2375, 2.26647, 2.24156, 2.28335, 2.29083, 2.29112, 2.26916, 2.3115, 2.31763, 2.33225, 2.33108, 2.33232, 2.33881, 2.33727, 2.36245, 2.37024, 2.38458, 2.36628, 2.39788, 2.38054, 2.43324, 2.42026, 2.41134, 2.44831, 2.45354, 2.45363, 2.46336, 2.46077, 2.46775, 2.47804, 2.53593, 2.51426, 2.53869, 2.51807, 2.50144, 2.55376, 2.56449, 2.59364, 2.57313, 2.57447, 2.57273, 2.57163, 2.57704, 2.58628, 2.63439, 2.62238, 2.60882, 2.6067, 2.63395, 2.65293, 2.63664, 2.65571, 2.68071, 2.72715, 2.67435, 2.68074, 2.68992, 2.72686, 2.71067, 2.73685, 2.75862, 2.76982, 2.76692, 2.78029, 2.75361, 2.76532, 2.81542
0.400156, 0.33919, 0.385533, 0.374106, 0.391755, 0.370636, 0.383574, 0.405679, 0.408181, 0.422072, 0.430834, 0.431234, 0.449674, 0.514537, 0.475431, 0.488859, 0.466698, 0.464574, 0.482771, 0.496771, 0.499832, 0.508525, 0.507312, 0.520807, 0.542349, 0.54244, 0.549832, 0.560696, 0.577282, 0.6015, 0.608487, 0.632101, 0.62209, 0.622663, 0.63157, 0.640493, 0.658281, 0.632234, 0.647559, 0.661818, 0.677239, 0.676123, 0.682198, 0.686628, 0.716741, 0.715668, 0.71657, 0.728394, 0.748481, 0.758705, 0.751656, 0.75263, 0.750904, 0.755978, 0.79502, 0.810726, 0.800072, 0.793142, 0.792247, 0.819602, 0.825206, 0.850043, 0.854805, 0.870959, 0.845665, 0.852823, 0.868792, 0.870008, 0.884591, 0.883492, 0.895311, 0.908079, 0.926293, 0.927505, 0.928318, 0.942722, 0.963364, 0.981396, 0.97418, 0.984514, 0.998735, 0.9876, 0.990458, 1.00212, 1.01541, 1.01084, 1.05009, 1.04064, 1.06781, 1.07369, 1.06085, 1.0789, 1.08871, 1.07775, 1.15906, 1.12181, 1.10321, 1.1188, 1.13064, 1.14948, 1.13002, 1.15502, 1.17341, 1.16651, 1.16591, 1.17061, 1.19168, 1.21596, 1.20944, 1.21989, 1.20991, 1.24479, 1.23587, 1.24726, 1.26985, 1.26837, 1.26802, 1.28149, 1.28108, 1.29344, 1.3046, 1.32032, 1.30959, 1.33358, 1.35509, 1.34091, 1.33696, 1.37902, 1.35313, 1.36405, 1.38183, 1.40298, 1.3998, 1.3941, 1.4228, 1.41281, 1.41546, 1.44412, 1.45077, 1.45938, 1.4803, 1.46831, 1.46892, 1.50693, 1.47889, 1.49085, 1.5131, 1.5681, 1.54662, 1.53355, 1.53737, 1.5404, 1.57618, 1.5767, 1.58266, 1.58901, 1.58734, 1.59374, 1.60279, 1.62402, 1.6446, 1.64454, 1.63495, 1.63836, 1.65016, 1.65152, 1.66151, 1.66769, 1.69535, 1.69942, 1.7029, 1.73291, 1.7312, 1.72236, 1.73818, 1.76891, 1.74929, 1.78031, 1.7793, 1.79314, 1.81329, 1.80006, 1.80088, 1.80534, 1.8263, 1.87278, 1.85637, 1.85482, 1.85612, 1.87857, 1.88502, 1.88076, 1.87042, 1.92573, 1.89904, 1.89247, 1.94869, 1.92139, 1.95355, 1.94521, 1.99055, 1.96571, 1.96586, 1.96546, 1.99719, 1.99927, 2.03145, 2.01691, 2.02299, 2.01757, 2.05187, 2.06624, 2.06808, 2.06456, 2.06349, 2.07333, 2.09102, 2.10627, 2.10718, 2.11585, 2.12629, 2.16392, 2.13443, 2.16275, 2.16784, 2.16601, 2.17792, 2.18647, 2.18711, 2.22098, 2.20497, 2.21458, 2.21541, 2.23782, 2.24011, 2.29267, 2.25483, 2.25921, 2.25313, 2.3104, 2.29433, 2.31496, 2.3307, 2.35768, 2.33808, 2.35631, 2.33475, 2.34186, 2.35541, 2.36735, 2.36523, 2.37194, 2.40761, 2.43281, 2.43435, 2.38982, 2.41862, 2.42514, 2.46957, 2.46681, 2.46648, 2.48364, 2.46567, 2.47687, 2.47587, 2.52551, 2.51968, 2.49568, 2.53562, 2.52874, 2.56054, 2.53886, 2.56254, 2.56716, 2.57877, 2.59879, 2.59979, 2.62071, 2.60146, 2.63807, 2.64601, 2.68041, 2.63836, 2.64421, 2.67157, 2.64868, 2.68511, 2.67072, 2.70879, 2.67773, 2.7054, 2.70543, 2.70619, 2.73454, 2.7704, 2.7539, 2.76511, 2.75358, 2.76391, 2.78732
0.348152, 0.347806, 0.393607, 0.390868, 0.386461, 0.381119, 0.369447, 0.438208, 0.390696, 0.399695, 0.410887, 0.439979, 0.457806, 0.466103, 0.484475, 0.458905, 0.474801, 0.503697, 0.47973, 0.511533, 0.506882, 0.53297, 0.494552, 0.518587, 0.540395, 0.53914, 0.559898, 0.568551, 0.589002, 0.604653, 0.593456, 0.588262, 0.600568, 0.590737, 0.632438, 0.630786, 0.61896, 0.628638, 0.656774, 0.643202, 0.684815, 0.690014, 0.66718, 0.672864, 0.691797, 0.691137, 0.690881, 0.744869, 0.742747, 0.74956, 0.75297, 0.745211, 0.778, 0.763711, 0.762619, 0.796379, 0.792168, 0.791248, 0.794667, 0.801684, 0.80341, 0.823249, 0.821976, 0.845794, 0.846278, 0.843986, 0.860647, 0.877639, 0.867128, 0.891074, 0.896551, 0.896153, 0.902933, 0.916378, 0.932389, 0.94685, 0.940187, 0.9546, 0.975198, 0.975424, 0.987602, 0.982094, 1.00542, 1.02322, 1.00156, 1.03699, 1.01701, 1.04146, 1.053, 1.05026, 1.0529, 1.05499, 1.06778, 1.07176, 1.10733, 1.10225, 1.10196, 1.13269, 1.11612, 1.11642, 1.13019, 1.14368, 1.14268, 1.16708, 1.1672, 1.16796, 1.18561, 1.19963, 1.20055, 1.20115, 1.21219, 1.22429, 1.22452, 1.24682, 1.24398, 1.24443, 1.28081, 1.27376, 1.28612, 1.29562, 1.31537, 1.2994, 1.30441, 1.35252, 1.32, 1.3234, 1.36366, 1.34097, 1.3919, 1.36396, 1.3924, 1.3972, 1.40858, 1.40293, 1.42286, 1.41988, 1.4228, 1.4309, 1.43774, 1.46122, 1.47011, 1.47339, 1.46275, 1.4963, 1.50007, 1.50177, 1.4971, 1.52303, 1.53449, 1.53831, 1.54965, 1.54069, 1.5711, 1.5565, 1.55831, 1.56205, 1.58714, 1.59061, 1.61257, 1.60928, 1.62822, 1.6419, 1.61973, 1.64653, 1.65221, 1.6728, 1.6792, 1.66342, 1.6935, 1.69333, 1.69272, 1.69436, 1.73847, 1.75321, 1.73097, 1.74795, 1.74386, 1.77011, 1.7551, 1.77508, 1.80014, 1.80013, 1.79982, 1.80194, 1.84345, 1.85836, 1.84497, 1.844, 1.83906, 1.86304, 1.85251, 1.89258, 1.88405, 1.88537, 1.88974, 1.93174, 1.91079, 1.91, 1.94528, 1.9733, 1.94159, 1.97616, 1.97732, 1.97618, 1.98061, 1.99052, 2.03922, 2.02054, 2.02428, 2.03885, 2.03564, 2.06196, 2.04955, 2.06347, 2.06544, 2.08961, 2.11071, 2.11725, 2.10423, 2.1345, 2.1152, 2.11667, 2.13505, 2.16172, 2.14925, 2.16161, 2.1836, 2.20434, 2.1907, 2.21824, 2.21801, 2.24484, 2.26405, 2.23186, 2.23223, 2.23447, 2.25199, 2.2788, 2.25548, 2.27739, 2.28079, 2.27944, 2.28126, 2.30154, 2.31067, 2.31985, 2.37804, 2.35515, 2.37015, 2.39438, 2.36322, 2.36394, 2.40529, 2.39124, 2.39114, 2.40631, 2.42235, 2.4242, 2.42979, 2.44409, 2.42646, 2.4656, 2.47412, 2.47519, 2.49176, 2.49129, 2.49189, 2.547, 2.49883, 2.51463, 2.54297, 2.55002, 2.55542, 2.56335, 2.59836, 2.56466, 2.60326, 2.57483, 2.60382, 2.63003, 2.63523, 2.64558, 2.6343, 2.63997, 2.64268, 2.65883, 2.64933, 2.67716, 2.66701, 2.66755, 2.7324, 2.72116, 2.68108, 2.70934, 2.75168, 2.71562, 2.78063, 2.77392, 2.74943, 2.77176
0.352686, 0.353114, 0.33704, 0.335776, 0.350162, 0.359055, 0.395408, 0.400145, 0.400595, 0.407865, 0.402516, 0.423331, 0.449983, 0.460131, 0.449281, 0.456355, 0.456826, 0.46376, 0.463145, 0.472924, 0.517891, 0.492895, 0.548893, 0.55063, 0.535987, 0.535348, 0.549247, 0.551221, 0.575409, 0.586112, 0.588418, 0.576801, 0.604386, 0.647434, 0.586531, 0.640811, 0.628609, 0.632733, 0.660345, 0.634709, 0.64247, 0.674894, 0.675885, 0.688772, 0.689715, 0.683657, 0.698666, 0.715343, 0.719819, 0.740085, 0.739511, 0.743205, 0.753204, 0.770434, 0.778043, 0.780098, 0.7807, 0.785279, 0.813995, 0.811456, 0.807894, 0.825827, 0.87451, 0.825655, 0.844268, 0.84088, 0.852209, 0.860928, 0.877456, 0.878571, 0.897144, 0.908237, 0.919535, 0.918649, 0.907921, 0.934068, 0.959592, 0.94805, 0.949611, 0.968071, 0.968509, 0.973712, 1.01439, 1.01526, 1.00774, 1.01548, 1.01335, 1.02309, 1.02752, 1.0534, 1.04647, 1.05375, 1.07382, 1.09532, 1.08545, 1.09138, 1.10997, 1.13987, 1.13768, 1.11584, 1.11579, 1.14749, 1.13318, 1.14604, 1.16132, 1.16148, 1.16405, 1.1803, 1.20251, 1.19189, 1.2233, 1.20918, 1.22048, 1.23175, 1.23947, 1.24221, 1.25372, 1.26524, 1.26649, 1.27183, 1.28712, 1.31719, 1.32922, 1.33707, 1.32919, 1.33004, 1.33147, 1.33956, 1.35502, 1.36125, 1.37619, 1.39602, 1.39493, 1.39284, 1.39305, 1.41111, 1.41322, 1.43958, 1.43781, 1.46942, 1.45601, 1.46921, 1.49223, 1.50114, 1.48955, 1.49271, 1.49983, 1.52359, 1.52233, 1.54453, 1.54344, 1.54312, 1.55875, 1.54575, 1.55297, 1.57288, 1.59282, 1.57621, 1.61349, 1.62643, 1.61592, 1.61365, 1.6372, 1.63477, 1.63957, 1.66458, 1.66147, 1.6776, 1.67651, 1.69338, 1.6856, 1.69909, 1.72381, 1.72426, 1.73635, 1.74439, 1.76114, 1.76494, 1.75906, 1.76473, 1.79045, 1.77138, 1.81651, 1.79937, 1.81636, 1.82573, 1.83501, 1.85977, 1.83296, 1.83369, 1.8662, 1.86326, 1.87618, 1.8969, 1.87892, 1.89231, 1.9208, 1.92328, 1.91733, 1.91758, 1.94572, 1.94113, 1.97732, 1.9812, 1.98189, 2.01663, 2.00902, 2.02476, 2.05177, 2.0282, 2.04287, 2.05899, 2.03624, 2.05286, 2.08206, 2.09498, 2.0864, 2.11203, 2.09318, 2.09626, 2.09849, 2.13869, 2.1287, 2.14263, 2.14203, 2.16085, 2.17059, 2.1802, 2.18132, 2.17637, 2.18938, 2.21064, 2.22632, 2.23837, 2.26038, 2.23327, 2.26063, 2.25787, 2.25668, 2.27817, 2.27738, 2.27694, 2.31484, 2.30818, 2.32814, 2.32515, 2.31829, 2.34237, 2.34403, 2.34927, 2.38779, 2.39438, 2.38358, 2.38351, 2.42845, 2.39681, 2.40151, 2.42142, 2.44376, 2.45978, 2.47686, 2.43104, 2.47567, 2.48012, 2.5019, 2.5025, 2.50188, 2.48495, 2.51812, 2.51753, 2.55531, 2.56672, 2.53493, 2.60793, 2.55291, 2.57389, 2.5913, 2.59791, 2.58438, 2.62354, 2.61543, 2.62076, 2.61312, 2.61872, 2.64702, 2.64715, 2.67651, 2.67386, 2.67636, 2.7082, 2.72857, 2.70613, 2.70993, 2.69861, 2.72713, 2.73683, 2.75196, 2.73897, 2.77283, 2.78206
0.315127, 0.355873, 0.3864, 0.362238, 0.383357, 0.393602, 0.407227, 0.383868, 0.403369, 0.419933, 0.403987, 0.429826, 0.447585, 0.448597, 0.448177, 0.428595, 0.455601, 0.473528, 0.456583, 0.493745, 0.491457, 0.504161, 0.518511, 0.531983, 0.540139, 0.529021, 0.521718, 0.524633, 0.53581, 0.550224, 0.566647, 0.586107, 0.577737, 0.605108, 0.605038, 0.608823, 0.634909, 0.632194, 0.643385, 0.698128, 0.700765, 0.674098, 0.67419, 0.68119, 0.691334, 0.676687, 0.713892, 0.711089, 0.719623, 0.727518, 0.728272, 0.769984, 0.736731, 0.764261, 0.767767, 0.791819, 0.782607, 0.777834, 0.790057, 0.792111, 0.797598, 0.804941, 0.848693, 0.844022, 0.836335, 0.858757, 0.85672, 0.871238, 0.863072, 0.86408, 0.866648, 0.877452, 0.905987, 0.921862, 0.932614, 0.918917, 0.927417, 0.937021, 0.940689, 0.953432, 0.963967, 0.967082, 0.97511, 1.00275, 1.00221, 1.00147, 1.02933, 1.04085, 1.04821, 1.04035, 1.04079, 1.05731, 1.05521, 1.06432, 1.07138, 1.08718, 1.09385, 1.09386, 1.09861, 1.1366, 1.1119, 1.1376, 1.14376, 1.13657, 1.15097, 1.16323, 1.16418, 1.17166, 1.1843, 1.18843, 1.20985, 1.21429, 1.21122, 1.22337, 1.23176, 1.23432, 1.24594, 1.24812, 1.27866, 1.27804, 1.29656, 1.30739, 1.30769, 1.30542, 1.30961, 1.32036, 1.32337, 1.36097, 1.36807, 1.35576, 1.36794, 1.37142, 1.37711, 1.37503, 1.40647, 1.39862, 1.40957, 1.44546, 1.45294, 1.46476, 1.44376, 1.44326, 1.45079, 1.47888, 1.46601, 1.48593, 1.50642, 1.49037, 1.52681, 1.53707, 1.52528, 1.55104, 1.54508, 1.54228, 1.55125, 1.56438, 1.58181, 1.5921, 1.60381, 1.60427, 1.6238, 1.61777, 1.61511, 1.64712, 1.6368, 1.65527, 1.67211, 1.66373, 1.67175, 1.69541, 1.71324, 1.69616, 1.72622, 1.73118, 1.7337, 1.75245, 1.73493, 1.76188, 1.77121, 1.76101, 1.77501, 1.77559, 1.79645, 1.79526, 1.82036, 1.8244, 1.80808, 1.84074, 1.83909, 1.83821, 1.88349, 1.87239, 1.8682, 1.86642, 1.88622, 1.89451, 1.89373, 1.92775, 1.93431, 1.92468, 1.9487, 1.94264, 1.95998, 1.98661, 2.00387, 1.98985, 1.9956, 2.03198, 2.0239, 2.01678, 2.01516, 2.01836, 2.02994, 2.05026, 2.04478, 2.05969, 2.08178, 2.07797, 2.0835, 2.12422, 2.11697, 2.11914, 2.13461, 2.14164, 2.1657, 2.14041, 2.18127, 2.16217, 2.19349, 2.17979, 2.20496, 2.19278, 2.20334, 2.22679, 2.23425, 2.23447, 2.23519, 2.26383, 2.27288, 2.276, 2.28446, 2.27898, 2.28691, 2.30726, 2.30503, 2.32313, 2.35241, 2.3297, 2.34243, 2.35275, 2.3575, 2.37383, 2.40373, 2.4016, 2.43938, 2.43321, 2.41087, 2.41955, 2.48955, 2.4358, 2.42895, 2.43821, 2.47021, 2.47396, 2.47367, 2.51907, 2.48649, 2.50082, 2.51267, 2.51289, 2.53256, 2.56353, 2.5288, 2.55691, 2.55433, 2.57378, 2.59049, 2.59087, 2.58077, 2.60817, 2.60271, 2.63216, 2.62834, 2.62825, 2.62802, 2.66411, 2.65639, 2.64982, 2.67624, 2.69862, 2.69845, 2.69873, 2.69206, 2.71508, 2.72249, 2.72278, 2.73756, 2.77472, 2.75023, 2.74613
0.319096, 0.328044, 0.330988, 0.342384, 0.351326, 0.348657, 0.362279, 0.406608, 0.393679, 0.387391, 0.420836, 0.42595, 0.431782, 0.439216, 0.439384, 0.451505, 0.448475, 0.454399, 0.452213, 0.469943, 0.484163, 0.505445, 0.508254, 0.497523, 0.519886, 0.512471, 0.529049, 0.537843, 0.552477, 0.550523, 0.569852, 0.600433, 0.601245, 0.601077, 0.599174, 0.635295, 0.608288, 0.649937, 0.642944, 0.662878, 0.655476, 0.684268, 0.669335, 0.666575, 0.703996, 0.68217, 0.678813, 0.706372, 0.704139, 0.732053, 0.753055, 0.738981, 0.738835, 0.738852, 0.763713, 0.757013, 0.760779, 0.764329, 0.802236, 0.793949, 0.800224, 0.802224, 0.815884, 0.814064, 0.837822, 0.842998, 0.845674, 0.856185, 0.854643, 0.862732, 0.873018, 0.894211, 0.879236, 0.895561, 0.904235, 0.915211, 0.939749, 0.956442, 0.942229, 0.955551, 0.956826, 0.988066, 0.988452, 0.988588, 0.988103, 1.00535, 1.00876, 1.00689, 1.02657, 1.04225, 1.05736, 1.03611, 1.05378, 1.06185, 1.07232, 1.09456, 1.0737, 1.08566, 1.10258, 1.11872, 1.13085, 1.13136, 1.14347, 1.15913, 1.14945, 1.15051, 1.16528, 1.19766, 1.17656, 1.21209, 1.21032, 1.20392, 1.20914, 1.21998, 1.21908, 1.23204, 1.24111, 1.24695, 1.26361, 1.26063, 1.27414, 1.30951, 1.29776, 1.3002, 1.3118, 1.31136, 1.31907, 1.33236, 1.36226, 1.34225, 1.35527, 1.37428, 1.38884, 1.38587, 1.4053, 1.41879, 1.4106, 1.42501, 1.41298, 1.42268, 1.43082, 1.45241, 1.45153, 1.46326, 1.46629, 1.48921, 1.48972, 1.51733, 1.52944, 1.52719, 1.5278, 1.53066, 1.53351, 1.53742, 1.5733, 1.57845, 1.57036, 1.56223, 1.59733, 1.5788, 1.59319, 1.6313, 1.61381, 1.61273, 1.63693, 1.65024, 1.65226, 1.65384, 1.6652, 1.66492, 1.70359, 1.70886, 1.71609, 1.71113, 1.72412, 1.72211, 1.72093, 1.74523, 1.76804, 1.77656, 1.77972, 1.76665, 1.78388, 1.79821, 1.79728, 1.81831, 1.82409, 1.8455, 1.84823, 1.8484, 1.84895, 1.86285, 1.8589, 1.88664, 1.89795, 1.90481, 1.90394, 1.94284, 1.93911, 1.94533, 1.94506, 1.93332, 1.93171, 1.95194, 1.97413, 1.9974, 1.98064, 1.99777, 1.99127, 2.01847, 2.02869, 2.01344, 2.0555, 2.06242, 2.08271, 2.07695, 2.0763, 2.06496, 2.08337, 2.10305, 2.10211, 2.12233, 2.14072, 2.15289, 2.13578, 2.14186, 2.13897, 2.16298, 2.1589, 2.16054, 2.17968, 2.18306, 2.2075, 2.20782, 2.23552, 2.25224, 2.22963, 2.25571, 2.26296, 2.27597, 2.26306, 2.26478, 2.34198, 2.34891, 2.34603, 2.31985, 2.31908, 2.3662, 2.36687, 2.3824, 2.35357, 2.37728, 2.38197, 2.38139, 2.38855, 2.40468, 2.40089, 2.43578, 2.41282, 2.45662, 2.42188, 2.44721, 2.47798, 2.47677, 2.48355, 2.47416, 2.5004, 2.49642, 2.51213, 2.49099, 2.51633, 2.51551, 2.52573, 2.53818, 2.53525, 2.58604, 2.57209, 2.58304, 2.56745, 2.60257, 2.60807, 2.60879, 2.64392, 2.6188, 2.6815, 2.65863, 2.67296, 2.64946, 2.67394, 2.69166, 2.69135, 2.6852, 2.70489, 2.69524, 2.72212, 2.70881, 2.73832, 2.73989, 2.73956, 2.7301
0.363217, 0.339439, 0.321488, 0.348353, 0.327214, 0.363642, 0.393209, 0.386239, 0.388731, 0.38097, 0.431003, 0.392511, 0.41787, 0.449837, 0.453514, 0.45271, 0.455887, 0.456803, 0.508294, 0.508509, 0.481005, 0.503297, 0.519011, 0.510435, 0.501792, 0.524725, 0.546394, 0.541463, 0.567284, 0.54361, 0.584857, 0.569892, 0.583908, 0.594911, 0.594208, 0.600891, 0.63133, 0.641009, 0.617457, 0.653306, 0.667269, 0.662528, 0.679719, 0.677862, 0.706916, 0.684072, 0.696472, 0.695324, 0.700918, 0.707156, 0.705797, 0.735873, 0.749268, 0.745725, 0.751824, 0.747399, 0.781179, 0.781195, 0.798373, 0.800154, 0.808374, 0.803192, 0.818547, 0.809329, 0.832456, 0.842198, 0.840008, 0.831127, 0.849917, 0.873606, 0.860189, 0.871637, 0.871624, 0.885522, 0.89426, 0.917553, 0.919557, 0.939272, 0.942759, 0.942985, 0.949912, 0.949344, 0.975028, 0.989058, 0.987474, 1.00955, 1.01189, 1.00178, 1.01624, 1.01608, 1.02247, 1.03028, 1.0569, 1.04503, 1.08192, 1.07904, 1.09188, 1.09219, 1.09083, 1.09858, 1.11591, 1.11294, 1.14663, 1.1412, 1.15725, 1.15641, 1.17599, 1.17553, 1.18437, 1.18349, 1.18577, 1.18821, 1.20457, 1.22968, 1.23002, 1.24939, 1.24843, 1.25123, 1.25693, 1.27113, 1.28421, 1.27927, 1.29186, 1.29337, 1.30185, 1.30297, 1.343, 1.32047, 1.34402, 1.37428, 1.36738, 1.35772, 1.381, 1.40149, 1.39859, 1.39229, 1.41205, 1.4045, 1.45419, 1.42617, 1.46777, 1.45772, 1.47229, 1.47652, 1.49031, 1.48988, 1.49244, 1.49325, 1.49088, 1.51117, 1.50978, 1.53294, 1.53465, 1.56249, 1.5722, 1.551, 1.56481, 1.58565, 1.57768, 1.58582, 1.65438, 1.61294, 1.62656, 1.63523, 1.64657, 1.63365, 1.63296, 1.64624, 1.6507, 1.69279, 1.67875, 1.70549, 1.70436, 1.7151, 1.71035, 1.74523, 1.74488, 1.73716, 1.75215, 1.75894, 1.77508, 1.77328, 1.77488, 1.78265, 1.78648, 1.81139, 1.82562, 1.82563, 1.83228, 1.84947, 1.86493, 1.8622, 1.88293, 1.88321, 1.89218, 1.87668, 1.89785, 1.89926, 1.91152, 1.92677, 1.95301, 1.94277, 1.95874, 1.95991, 1.98035, 1.9871, 1.97678, 1.97672, 1.99031, 2.01081, 2.01908, 2.02154, 2.03131, 2.04575, 2.03386, 2.0649, 2.05495, 2.07972, 2.08384, 2.10055, 2.10951, 2.10631, 2.11794, 2.12107, 2.14507, 2.15325, 2.13642, 2.15633, 2.17938, 2.17983, 2.18789, 2.20823, 2.20061, 2.19658, 2.21684, 2.2629, 2.23467, 2.23602, 2.30736, 2.27205, 2.2968, 2.26334, 2.30179, 2.33526, 2.31822, 2.32927, 2.32857, 2.32296, 2.31596, 2.32941, 2.35802, 2.35673, 2.36658, 2.37735, 2.37691, 2.39276, 2.40461, 2.44305, 2.4361, 2.41547, 2.40824, 2.46427, 2.46316, 2.47069, 2.47849, 2.46763, 2.51784, 2.47685, 2.49927, 2.51279, 2.52192, 2.53648, 2.54733, 2.55612, 2.55302, 2.54552, 2.56052, 2.58424, 2.56399, 2.59869, 2.63005, 2.58862, 2.58675, 2.64294, 2.64432, 2.66413, 2.64699, 2.67803, 2.6789, 2.69562, 2.67465, 2.68901, 2.68479, 2.70791, 2.71474, 2.70738, 2.73301, 2.74192, 2.73879, 2.75413
0.386626, 0.306719, 0.314721, 0.332379, 0.349453, 0.375428, 0.371293, 0.370384, 0.389573, 0.39157, 0.411805, 0.421019, 0.389793, 0.40904, 0.436516, 0.426882, 0.446572, 0.455977, 0.445506, 0.45594, 0.457481, 0.489857, 0.487284, 0.508066, 0.51958, 0.506539, 0.539244, 0.525504, 0.555709, 0.557248, 0.567349, 0.569847, 0.567462, 0.593532, 0.601665, 0.608075, 0.619594, 0.649532, 0.617446, 0.642634, 0.635143, 0.660865, 0.658575, 0.6785, 0.685886, 0.694764, 0.698227, 0.702767, 0.700807, 0.728678, 0.735515, 0.732932, 0.754359, 0.732728, 0.762741, 0.773768, 0.798791, 0.784081, 0.780657, 0.779874, 0.783883, 0.82482, 0.810061, 0.810396, 0.825439, 0.828019, 0.854585, 0.845792, 0.88223, 0.860326, 0.863173, 0.887291, 0.919067, 0.919827, 0.899867, 0.899456, 0.92387, 0.918719, 0.944767, 0.950948, 0.950713, 0.96076, 0.962042, 0.963694, 0.979086, 0.994308, 1.01103, 1.03756, 1.022, 1.02874, 1.02351, 1.03643, 1.05732, 1.06345, 1.05962, 1.06796, 1.08554, 1.08769, 1.11525, 1.09379, 1.12264, 1.12197, 1.11575, 1.12213, 1.13222, 1.16002, 1.16314, 1.16014, 1.16136, 1.17434, 1.21608, 1.20339, 1.20233, 1.23818, 1.24527, 1.23419, 1.2467, 1.24247, 1.26502, 1.26758, 1.27881, 1.27906, 1.28712, 1.30175, 1.30607, 1.32707, 1.33358, 1.32848, 1.32353, 1.34001, 1.33456, 1.35433, 1.36869, 1.38818, 1.3911, 1.39811, 1.40576, 1.40369, 1.41622, 1.4388, 1.42268, 1.43248, 1.47053, 1.44819, 1.47158, 1.47078, 1.4812, 1.5036, 1.5102, 1.48953, 1.49657, 1.52968, 1.52665, 1.53369, 1.55655, 1.56454, 1.57791, 1.57458, 1.5712, 1.56982, 1.58845, 1.60168, 1.63669, 1.63504, 1.63367, 1.62359, 1.63138, 1.65846, 1.65386, 1.66609, 1.6663, 1.70095, 1.69918, 1.71259, 1.72724, 1.71119, 1.73391, 1.72805, 1.72508, 1.77399, 1.76822, 1.77605, 1.77659, 1.77353, 1.81069, 1.82073, 1.80661, 1.8144, 1.82956, 1.83995, 1.85813, 1.85809, 1.86459, 1.8782, 1.89308, 1.87885, 1.89124, 1.92726, 1.90755, 1.94338, 1.92067, 1.94873, 1.93486, 1.96858, 1.96942, 1.97907, 2.01446, 1.98318, 2.01591, 2.00825, 2.02377, 2.02407, 2.01366, 2.02708, 2.04795, 2.06638, 2.05365, 2.04954, 2.08035, 2.09309, 2.10134, 2.11085, 2.11491, 2.11457, 2.10722, 2.12427, 2.14234, 2.17148, 2.18423, 2.17217, 2.18191, 2.20513, 2.23441, 2.20767, 2.21333, 2.21335, 2.23248, 2.25957, 2.24324, 2.24153, 2.27831, 2.27634, 2.28069, 2.26698, 2.28713, 2.31196, 2.32244, 2.31262, 2.31395, 2.33469, 2.35997, 2.37092, 2.35395, 2.34966, 2.36986, 2.4279, 2.41868, 2.4072, 2.41588, 2.42012, 2.44958, 2.44898, 2.45016, 2.44947, 2.46282, 2.46758, 2.46789, 2.49082, 2.49867, 2.50718, 2.49481, 2.54555, 2.51815, 2.57365, 2.53249, 2.54572, 2.53123, 2.56584, 2.57407, 2.61629, 2.60119, 2.5841, 2.5854, 2.63422, 2.63283, 2.62347, 2.67746, 2.65314, 2.66022, 2.68627, 2.68145, 2.68026, 2.69532, 2.7262, 2.71018, 2.7206, 2.70848, 2.72562, 2.75979, 2.73919
0.324543, 0.313706, 0.310818, 0.331244, 0.350002, 0.360257, 0.352612, 0.382438, 0.373195, 0.393263, 0.399815, 0.427523, 0.402181, 0.420838, 0.406637, 0.456867, 0.439591, 0.469921, 0.44234, 0.497215, 0.459336, 0.491401, 0.474751, 0.505793, 0.490806, 0.532385, 0.53437, 0.542525, 0.534518, 0.556759, 0.54878, 0.564927, 0.587973, 0.604509, 0.577502, 0.61749, 0.592289, 0.617146, 0.60763, 0.641432, 0.626134, 0.649408, 0.659932, 0.663174, 0.646911, 0.686969, 0.686301, 0.696633, 0.698923, 0.698239, 0.722045, 0.729907, 0.731678, 0.729199, 0.747671, 0.738186, 0.759744, 0.759007, 0.778139, 0.776028, 0.801504, 0.82535, 0.810424, 0.817856, 0.825236, 0.828979, 0.843174, 0.843022, 0.849845, 0.869673, 0.870696, 0.889215, 0.883979, 0.90914, 0.892521, 0.900635, 0.935408, 0.907526, 0.92272, 0.935063, 0.940824, 0.948823, 0.994669, 0.991397, 0.989817, 0.984267, 0.982623, 1.02217, 1.00729, 1.01216, 1.02529, 1.02155, 1.041, 1.06658, 1.05342, 1.05193, 1.06049, 1.06816, 1.10142, 1.11518, 1.10624, 1.11392, 1.12692, 1.15662, 1.15783, 1.13751, 1.14484, 1.17508, 1.17994, 1.16903, 1.18299, 1.1771, 1.20821, 1.22986, 1.22628, 1.24373, 1.22287, 1.24845, 1.27065, 1.26668, 1.26134, 1.2709, 1.28204, 1.28226, 1.28945, 1.31396, 1.30393, 1.33296, 1.3297, 1.33933, 1.35484, 1.35975, 1.35027, 1.38637, 1.38878, 1.39183, 1.39378, 1.42376, 1.43003, 1.41145, 1.41841, 1.43113, 1.44047, 1.43809, 1.46087, 1.45456, 1.48268, 1.49493, 1.51883, 1.49948, 1.51353, 1.50362, 1.54062, 1.54555, 1.52927, 1.54342, 1.55152, 1.56045, 1.58369, 1.58312, 1.59627, 1.58859, 1.60678, 1.62726, 1.6274, 1.62151, 1.64771, 1.64793, 1.67001, 1.67787, 1.69428, 1.66847, 1.71067, 1.71088, 1.70006, 1.71396, 1.71449, 1.72789, 1.75102, 1.74538, 1.76207, 1.75072, 1.78049, 1.78579, 1.77536, 1.80954, 1.82456, 1.8185, 1.8313, 1.84176, 1.83179, 1.85257, 1.86131, 1.88181, 1.86268, 1.87155, 1.89568, 1.9134, 1.93198, 1.93827, 1.91471, 1.94738, 1.93834, 1.93914, 1.96287, 1.96919, 2.00658, 2.00587, 2.00579, 2.01375, 2.01402, 2.02219, 2.03609, 2.05029, 2.05252, 2.06435, 2.06581, 2.07595, 2.08298, 2.08567, 2.08736, 2.08851, 2.10861, 2.11795, 2.13425, 2.14654, 2.14371, 2.18033, 2.18717, 2.16667, 2.20413, 2.195, 2.17729, 2.22926, 2.21094, 2.249, 2.22578, 2.22175, 2.22721, 2.24034, 2.26019, 2.27512, 2.25912, 2.28847, 2.28616, 2.32853, 2.30334, 2.31032, 2.34151, 2.34544, 2.32145, 2.34849, 2.35016, 2.37276, 2.36717, 2.39356, 2.38553, 2.38201, 2.3981, 2.43517, 2.43519, 2.45922, 2.44864, 2.46661, 2.45915, 2.49046, 2.50928, 2.47763, 2.48143, 2.48742, 2.49431, 2.5304, 2.5299, 2.55096, 2.53128, 2.57028, 2.55503, 2.57158, 2.61196, 2.58839, 2.57864, 2.5902, 2.61248, 2.6402, 2.60907, 2.64774, 2.67494, 2.64561, 2.64586, 2.65433, 2.69053, 2.67372, 2.71842, 2.67397, 2.69588, 2.698, 2.72898, 2.73609, 2.73361, 2.73246
0.30185, 0.318507, 0.332426, 0.318058, 0.348745, 0.339563, 0.345338, 0.349336, 0.37588, 0.375398, 0.376856, 0.413244, 0.40521, 0.412516, 0.413672, 0.413959, 0.442287, 0.449157, 0.479304, 0.463623, 0.466291, 0.490802, 0.497758, 0.486962, 0.518407, 0.511018, 0.512137, 0.514386, 0.521338, 0.565845, 0.566657, 0.588134, 0.574045, 0.611041, 0.577228, 0.574542, 0.594664, 0.618368, 0.618716, 0.619654, 0.649483, 0.649621, 0.648241, 0.647014, 0.680869, 0.681308, 0.673192, 0.67348, 0.694597, 0.718279, 0.694197, 0.739713, 0.733698, 0.732689, 0.743237, 0.744432, 0.749469, 0.750999, 0.777487, 0.786054, 0.784082, 0.78191, 0.800671, 0.795778, 0.829042, 0.843142, 0.834085, 0.850208, 0.852126, 0.854137, 0.852684, 0.867271, 0.875571, 0.899094, 0.902473, 0.912823, 0.925328, 0.932072, 0.918849, 0.946079, 0.941861, 0.942436, 0.963686, 0.98361, 0.965968, 0.981768, 0.976777, 0.980564, 0.996235, 1.00582, 1.02519, 1.01542, 1.0252, 1.05422, 1.05717, 1.049, 1.05008, 1.06515, 1.07116, 1.10504, 1.09301, 1.13401, 1.11911, 1.12336, 1.13504, 1.15216, 1.16123, 1.16322, 1.1601, 1.16469, 1.17757, 1.19843, 1.21883, 1.19467, 1.21409, 1.24315, 1.23434, 1.23655, 1.23706, 1.24418, 1.28006, 1.25834, 1.27085, 1.29944, 1.31889, 1.30963, 1.29856, 1.30924, 1.31861, 1.32011, 1.35403, 1.37424, 1.35382, 1.38529, 1.39898, 1.39609, 1.40722, 1.38796, 1.41602, 1.41738, 1.4201, 1.42108, 1.44187, 1.47235, 1.45194, 1.45834, 1.48292, 1.48543, 1.47859, 1.50281, 1.50345, 1.52058, 1.52443, 1.53679, 1.52324, 1.53783, 1.55239, 1.5619, 1.57156, 1.61006, 1.60183, 1.60283, 1.60875, 1.63401, 1.63068, 1.63021, 1.6463, 1.64432, 1.67255, 1.6723, 1.66967, 1.66848, 1.69648, 1.70311, 1.71095, 1.70179, 1.73886, 1.73783, 1.73597, 1.73807, 1.75506, 1.75488, 1.76961, 1.78985, 1.7733, 1.80813, 1.81419, 1.80454, 1.81127, 1.81638, 1.83037, 1.84628, 1.85203, 1.85945, 1.86131, 1.86153, 1.87928, 1.87903, 1.89209, 1.91522, 1.9169, 1.9157, 1.93959, 1.96992, 1.95217, 1.96781, 1.97564, 1.97356, 2.00342, 1.98939, 1.9884, 1.9928, 2.0314, 2.02767, 2.03227, 2.03839, 2.04518, 2.08351, 2.08017, 2.10324, 2.10384, 2.1186, 2.11848, 2.11683, 2.14998, 2.10351, 2.12817, 2.18962, 2.17318, 2.18347, 2.18095, 2.17983, 2.20456, 2.183, 2.20763, 2.19831, 2.26315, 2.22944, 2.238, 2.25579, 2.26748, 2.27995, 2.26947, 2.2605, 2.30009, 2.30151, 2.29446, 2.32245, 2.3043, 2.34892, 2.34911, 2.33891, 2.38141, 2.37265, 2.40394, 2.39799, 2.40042, 2.41672, 2.39046, 2.40723, 2.42789, 2.4353, 2.47047, 2.47062, 2.4589, 2.45714, 2.48416, 2.48437, 2.47998, 2.49926, 2.52411, 2.52881, 2.57006, 2.55391, 2.52368, 2.53597, 2.56271, 2.55616, 2.55892, 2.60336, 2.58703, 2.60942, 2.58988, 2.60078, 2.65231, 2.61957, 2.61409, 2.63231, 2.65582, 2.65777, 2.68175, 2.69167, 2.68727, 2.68744, 2.68723, 2.69526, 2.73982, 2.73986, 2.74464, 2.74949
0.311605, 0.313572, 0.331674, 0.365618, 0.329022, 0.368761, 0.359033, 0.372123, 0.373152, 0.401692, 0.41461, 0.408349, 0.397568, 0.404675, 0.40987, 0.409914, 0.445104, 0.436889, 0.503949, 0.484935, 0.485606, 0.496891, 0.494715, 0.470603, 0.493784, 0.494519, 0.511563, 0.527404, 0.511229, 0.54978, 0.587195, 0.559374, 0.562383, 0.558924, 0.592363, 0.581599, 0.587803, 0.583244, 0.605096, 0.646411, 0.612303, 0.624846, 0.63412, 0.669659, 0.66296, 0.65686, 0.673687, 0.691171, 0.704212, 0.715565, 0.705352, 0.732472, 0.74256, 0.730252, 0.733836, 0.752456, 0.753817, 0.789398, 0.763251, 0.797012, 0.771503, 0.776661, 0.794707, 0.832399, 0.826202, 0.844315, 0.835462, 0.834686, 0.846397, 0.846907, 0.849655, 0.857078, 0.859867, 0.892537, 0.876083, 0.890219, 0.911896, 0.909149, 0.919413, 0.929686, 0.936601, 0.960084, 0.960965, 0.955019, 0.961194, 0.980674, 0.989196, 1.00197, 1.00844, 0.996021, 1.01684, 1.02518, 1.05397, 1.03568, 1.05412, 1.06412, 1.07807, 1.07116, 1.09652, 1.07756, 1.09069, 1.09839, 1.12374, 1.11734, 1.12992, 1.14006, 1.15012, 1.14514, 1.17171, 1.18562, 1.18839, 1.18944, 1.19973, 1.21934, 1.22594, 1.23677, 1.23684, 1.23084, 1.23376, 1.23968, 1.2505, 1.29196, 1.26479, 1.29168, 1.28224, 1.31273, 1.2989, 1.31344, 1.30905, 1.32234, 1.34849, 1.33937, 1.37912, 1.39326, 1.39997, 1.39143, 1.40577, 1.41189, 1.39212, 1.40219, 1.40364, 1.43441, 1.42283, 1.4371, 1.43862, 1.46174, 1.46509, 1.48245, 1.50984, 1.48023, 1.48939, 1.5092, 1.53444, 1.52561, 1.5201, 1.5591, 1.55493, 1.55876, 1.57284, 1.58619, 1.59253, 1.58965, 1.58932, 1.61108, 1.61499, 1.63101, 1.65527, 1.65073, 1.6348, 1.67214, 1.68092, 1.68386, 1.67083, 1.67911, 1.70321, 1.7033, 1.70357, 1.73944, 1.74028, 1.73678, 1.73803, 1.74405, 1.7762, 1.7615, 1.77233, 1.79631, 1.7981, 1.80998, 1.80134, 1.81137, 1.81431, 1.83479, 1.85255, 1.84864, 1.88184, 1.88453, 1.90353, 1.9041, 1.89645, 1.90637, 1.91441, 1.94778, 1.94762, 1.95067, 1.94906, 1.93741, 1.9639, 1.95925, 1.9911, 2.00398, 2.00437, 2.00367, 2.00254, 2.07004, 2.04918, 2.02738, 2.06178, 2.05509, 2.0789, 2.07989, 2.08071, 2.1168, 2.10031, 2.14551, 2.11771, 2.15537, 2.16203, 2.11513, 2.14641, 2.17474, 2.17997, 2.19706, 2.26386, 2.22407, 2.2218, 2.2139, 2.26637, 2.22236, 2.26649, 2.24845, 2.25387, 2.29013, 2.27306, 2.27004, 2.27672, 2.28298, 2.32897, 2.31422, 2.30811, 2.31843, 2.32091, 2.35771, 2.34836, 2.3635, 2.34969, 2.37937, 2.37863, 2.40495, 2.40698, 2.40779, 2.40765, 2.42958, 2.41937, 2.45593, 2.44974, 2.46478, 2.46316, 2.48, 2.48343, 2.50542, 2.52451, 2.53601, 2.56752, 2.51618, 2.52092, 2.51906, 2.55088, 2.55185, 2.55221, 2.58179, 2.59095, 2.61749, 2.61412, 2.60547, 2.61976, 2.61001, 2.63598, 2.66092, 2.65941, 2.70609, 2.69152, 2.69309, 2.65677, 2.69847, 2.69159, 2.71729, 2.7301, 2.73083, 2.73181, 2.71837
0.321367, 0.317892, 0.328036, 0.316185, 0.317156, 0.341545, 0.347628, 0.361242, 0.363286, 0.361516, 0.383731, 0.389702, 0.390834, 0.397874, 0.439854, 0.428557, 0.438788, 0.438693, 0.448895, 0.467589, 0.469414, 0.464482, 0.469888, 0.497383, 0.507448, 0.500881, 0.527575, 0.521074, 0.524555, 0.534468, 0.55848, 0.532462, 0.574996, 0.590414, 0.584148, 0.584179, 0.58431, 0.596828, 0.617999, 0.604468, 0.614988, 0.652581, 0.64456, 0.648107, 0.673146, 0.65868, 0.658907, 0.67649, 0.673546, 0.714366, 0.695283, 0.71291, 0.712424, 0.713985, 0.736969, 0.722919, 0.734742, 0.744082, 0.78557, 0.783989, 0.781507, 0.814536, 0.814608, 0.797519, 0.830271, 0.830428, 0.810103, 0.843621, 0.844135, 0.858422, 0.846753, 0.85313, 0.884152, 0.891781, 0.87414, 0.884914, 0.893791, 0.915358, 0.90721, 0.917193, 0.943522, 0.92846, 0.962938, 0.963951, 0.977299, 0.981387, 0.975884, 0.981289, 1.00974, 0.994621, 1.00455, 1.03416, 1.02073, 1.02974, 1.03574, 1.04229, 1.04906, 1.06144, 1.07121, 1.07178, 1.11043, 1.10831, 1.11502, 1.14382, 1.12035, 1.14241, 1.15095, 1.15125, 1.15063, 1.16001, 1.17729, 1.18906, 1.19089, 1.18624, 1.21935, 1.2191, 1.2405, 1.21498, 1.24734, 1.23803, 1.23731, 1.24515, 1.27585, 1.29209, 1.29021, 1.31296, 1.30704, 1.29891, 1.33274, 1.31105, 1.33005, 1.32807, 1.36124, 1.34848, 1.35603, 1.3798, 1.40265, 1.40631, 1.40587, 1.40176, 1.40878, 1.4288, 1.43656, 1.43923, 1.4722, 1.46821, 1.45335, 1.46488, 1.47384, 1.49355, 1.49101, 1.52452, 1.51691, 1.52965, 1.54153, 1.5507, 1.53122, 1.54389, 1.56695, 1.56663, 1.59635, 1.56811, 1.59869, 1.62986, 1.63731, 1.62506, 1.62358, 1.64152, 1.64113, 1.65603, 1.68382, 1.66149, 1.6578, 1.69699, 1.68013, 1.72431, 1.72373, 1.7296, 1.73076, 1.7262, 1.76602, 1.74824, 1.77927, 1.7891, 1.77945, 1.80931, 1.80375, 1.80474, 1.8246, 1.81747, 1.83371, 1.84065, 1.85855, 1.83842, 1.85501, 1.86108, 1.88955, 1.8921, 1.91666, 1.91212, 1.9133, 1.91382, 1.94196, 1.95203, 1.95238, 1.9523, 1.95054, 2.01732, 1.97765, 1.96818, 1.99494, 1.97997, 2.00732, 2.00814, 2.04419, 2.032, 2.06222, 2.05995, 2.09076, 2.06455, 2.08026, 2.07305, 2.08298, 2.10962, 2.11149, 2.12756, 2.11028, 2.14923, 2.15375, 2.14453, 2.17324, 2.1728, 2.21781, 2.1762, 2.22062, 2.21078, 2.20419, 2.23529, 2.24589, 2.24463, 2.2346, 2.23219, 2.2517, 2.27453, 2.30751, 2.28696, 2.2764, 2.30071, 2.30061, 2.34206, 2.31619, 2.37203, 2.37609, 2.35577, 2.37001, 2.35876, 2.39717, 2.36696, 2.39831, 2.39737, 2.43248, 2.42052, 2.42594, 2.44966, 2.44004, 2.46688, 2.49117, 2.4607, 2.45069, 2.50069, 2.50412, 2.51185, 2.51199, 2.51147, 2.55174, 2.52619, 2.55104, 2.57429, 2.56379, 2.58421, 2.57609, 2.58668, 2.59117, 2.58998, 2.60108, 2.60195, 2.67348, 2.65515, 2.6415, 2.6561, 2.67347, 2.66689, 2.66483, 2.66485, 2.70958, 2.72878, 2.69506, 2.73965, 2.73852, 2.72535
0.285624, 0.289874, 0.304287, 0.306978, 0.327963, 0.337963, 0.363611, 0.356431, 0.357856, 0.355395, 0.376611, 0.380964, 0.394907, 0.380724, 0.397989, 0.424277, 0.427056, 0.459507, 0.459282, 0.487416, 0.465809, 0.490781, 0.455912, 0.470946, 0.523891, 0.514965, 0.54933, 0.555107, 0.521908, 0.548067, 0.543187, 0.544115, 0.562888, 0.56623, 0.567128, 0.577123, 0.597367, 0.590234, 0.603408, 0.621247, 0.621387, 0.604953, 0.663876, 0.634435, 0.643064, 0.649306, 0.681138, 0.656589, 0.682859, 0.694755, 0.695161, 0.692624, 0.735585, 0.73213, 0.719244, 0.749386, 0.732984, 0.769283, 0.751085, 0.75584, 0.773772, 0.767521, 0.802861, 0.793964, 0.795946, 0.82919, 0.805885, 0.831619, 0.862644, 0.850617, 0.849672, 0.846423, 0.86149, 0.870251, 0.869503, 0.882013, 0.90255, 0.894274, 0.92456, 0.912202, 0.929224, 0.941416, 0.933089, 0.95023, 0.947176, 0.957862, 0.963646, 0.971528, 1.00109, 0.990842, 0.997895, 0.998928, 1.01207, 1.03694, 1.0385, 1.03749, 1.04099, 1.05948, 1.06116, 1.0628, 1.08076, 1.08417, 1.10314, 1.11625, 1.11767, 1.12679, 1.14631, 1.16527, 1.15663, 1.14803, 1.15222, 1.17195, 1.17043, 1.18547, 1.19798, 1.21267, 1.24697, 1.23006, 1.24149, 1.24092, 1.2669, 1.26836, 1.28176, 1.28892, 1.29229, 1.29362, 1.29808, 1.29398, 1.3345, 1.32296, 1.33656, 1.34551, 1.34672, 1.34078, 1.35466, 1.35842, 1.38141, 1.39081, 1.39232, 1.39543, 1.42032, 1.42963, 1.43459, 1.44403, 1.43063, 1.44153, 1.47501, 1.47891, 1.4822, 1.48567, 1.49288, 1.5028, 1.5259, 1.52057, 1.5257, 1.52286, 1.54706, 1.55677, 1.54452, 1.56247, 1.56858, 1.57877, 1.58099, 1.60949, 1.62769, 1.6293, 1.6135, 1.64855, 1.64784, 1.65245, 1.65105, 1.65559, 1.66903, 1.66375, 1.71549, 1.71546, 1.70591, 1.72348, 1.71985, 1.73385, 1.73522, 1.73928, 1.73785, 1.78761, 1.78115, 1.80346, 1.79034, 1.79713, 1.79715, 1.81667, 1.84337, 1.82693, 1.84436, 1.84754, 1.84408, 1.87736, 1.88632, 1.88868, 1.8855, 1.91438, 1.91797, 1.92459, 1.92972, 1.9242, 1.9552, 1.9927, 1.96298, 1.96293, 1.99632, 1.99023, 2.00574, 2.00442, 2.02158, 2.00299, 2.03106, 2.02289, 2.02974, 2.0353, 2.05764, 2.05804, 2.06996, 2.09116, 2.11464, 2.11347, 2.11481, 2.12531, 2.10784, 2.15248, 2.14356, 2.14777, 2.14158, 2.16627, 2.1668, 2.20083, 2.20903, 2.20687, 2.20478, 2.2032, 2.23533, 2.23492, 2.23474, 2.29527, 2.25285, 2.26344, 2.25241, 2.28186, 2.3028, 2.30361, 2.30156, 2.34981, 2.33181, 2.33289, 2.35698, 2.35578, 2.34756, 2.35331, 2.40074, 2.39738, 2.39761, 2.39181, 2.39338, 2.42254, 2.44174, 2.43473, 2.43497, 2.42915, 2.47714, 2.48868, 2.46647, 2.48402, 2.50675, 2.49778, 2.51481, 2.5257, 2.5552, 2.54197, 2.54641, 2.55508, 2.55482, 2.54177, 2.55748, 2.58035, 2.58755, 2.60188, 2.63022, 2.61848, 2.63573, 2.63292, 2.62576, 2.66084, 2.64933, 2.65035, 2.65645, 2.68576, 2.6968, 2.68065, 2.72364, 2.731, 2.76173, 2.73711
0.289625, 0.287806, 0.284104, 0.337402, 0.307936, 0.308243, 0.343441, 0.347702, 0.351365, 0.377037, 0.401028, 0.404436, 0.373283, 0.400729, 0.400863, 0.400849, 0.417873, 0.459916, 0.42431, 0.457272, 0.459172, 0.469413, 0.468984, 0.504599, 0.482231, 0.510536, 0.497401, 0.487093, 0.511762, 0.518868, 0.542616, 0.553478, 0.546186, 0.567501, 0.547038, 0.59123, 0.584588, 0.600148, 0.612042, 0.604136, 0.624961, 0.615482, 0.606894, 0.645674, 0.65666, 0.63741, 0.655138, 0.675103, 0.677084, 0.679994, 0.683453, 0.681133, 0.708326, 0.730518, 0.744865, 0.725902, 0.737931, 0.737719, 0.752472, 0.76308, 0.774092, 0.766188, 0.769154, 0.797318, 0.786311, 0.815165, 0.835393, 0.825516, 0.819811, 0.83248, 0.839029, 0.852037, 0.874318, 0.86647, 0.868354, 0.898717, 0.896724, 0.897685, 0.907726, 0.906338, 0.942005, 0.946723, 0.926074, 0.964471, 0.946736, 0.971283, 0.960267, 0.988418, 0.975284, 0.984649, 0.997698, 1.01929, 1.02042, 1.02549, 1.03726, 1.03993, 1.05709, 1.04777, 1.07954, 1.09059, 1.09398, 1.07785, 1.09238, 1.09514, 1.11599, 1.11373, 1.13666, 1.15072, 1.13337, 1.15354, 1.14933, 1.1831, 1.18524, 1.19935, 1.20736, 1.19467, 1.2029, 1.22219, 1.22454, 1.2264, 1.23693, 1.26082, 1.26812, 1.26149, 1.28476, 1.27085, 1.30216, 1.30221, 1.31951, 1.31758, 1.31654, 1.34394, 1.33265, 1.35045, 1.3479, 1.37226, 1.35755, 1.36804, 1.37835, 1.39877, 1.41092, 1.41554, 1.43684, 1.43093, 1.46093, 1.45559, 1.44677, 1.49169, 1.47542, 1.46567, 1.47478, 1.50017, 1.5092, 1.55103, 1.52096, 1.54847, 1.53969, 1.5397, 1.5606, 1.5592, 1.57908, 1.56628, 1.6075, 1.60921, 1.61021, 1.61516, 1.64459, 1.6425, 1.62317, 1.65399, 1.63468, 1.65536, 1.67573, 1.68463, 1.70226, 1.71699, 1.72944, 1.70418, 1.72519, 1.71161, 1.75276, 1.7383, 1.76277, 1.76846, 1.76699, 1.80782, 1.77256, 1.80445, 1.80439, 1.85159, 1.80788, 1.85897, 1.81877, 1.86326, 1.86249, 1.86586, 1.86867, 1.86824, 1.9132, 1.877, 1.89563, 1.89964, 1.89873, 1.96238, 1.95153, 1.94458, 1.94882, 1.94236, 1.96681, 1.96013, 1.98558, 1.99708, 1.99866, 2.0066, 2.00567, 2.0313, 2.05599, 2.06984, 2.06501, 2.07688, 2.06631, 2.07192, 2.13444, 2.12132, 2.11479, 2.09579, 2.13622, 2.13154, 2.11392, 2.12173, 2.15917, 2.16629, 2.16103, 2.17726, 2.17625, 2.2122, 2.20824, 2.21069, 2.2373, 2.23146, 2.22402, 2.23235, 2.24341, 2.28358, 2.29137, 2.28933, 2.27958, 2.30614, 2.30403, 2.30135, 2.32511, 2.34692, 2.32542, 2.35333, 2.36087, 2.35268, 2.36986, 2.3939, 2.38216, 2.40123, 2.40276, 2.40759, 2.4157, 2.42164, 2.42962, 2.45332, 2.45069, 2.49054, 2.47831, 2.4807, 2.48087, 2.49188, 2.49171, 2.52178, 2.52209, 2.51856, 2.53517, 2.54972, 2.55375, 2.5415, 2.54236, 2.59406, 2.61635, 2.58752, 2.59714, 2.62433, 2.59132, 2.62584, 2.62406, 2.62501, 2.65475, 2.65725, 2.65696, 2.67055, 2.66678, 2.70742, 2.70645, 2.71539, 2.72169, 2.71127
0.289172, 0.298356, 0.328061, 0.312085, 0.315061, 0.297912, 0.356175, 0.360262, 0.379993, 0.355597, 0.366304, 0.352364, 0.376769, 0.391192, 0.401582, 0.420859, 0.430536, 0.421374, 0.440708, 0.425553, 0.435816, 0.451983, 0.452171, 0.492962, 0.490041, 0.490293, 0.51202, 0.514158, 0.517573, 0.502614, 0.536788, 0.540635, 0.551936, 0.552954, 0.583833, 0.576784, 0.578718, 0.586694, 0.604851, 0.613504, 0.59681, 0.625865, 0.611211, 0.627794, 0.629728, 0.653933, 0.652008, 0.667923, 0.658655, 0.690747, 0.683682, 0.682618, 0.697021, 0.704882, 0.726064, 0.728286, 0.727777, 0.755208, 0.755458, 0.750334, 0.771733, 0.784784, 0.781814, 0.794347, 0.813309, 0.813475, 0.814621, 0.81481, 0.808815, 0.856098, 0.828862, 0.874207, 0.844165, 0.863855, 0.886323, 0.888083, 0.882629, 0.880243, 0.895379, 0.926062, 0.92625, 0.917699, 0.929777, 0.957233, 0.965452, 0.954555, 0.974077, 0.964625, 0.973668, 1.00227, 1.00577, 0.993352, 1.00188, 1.03021, 1.04745, 1.04349, 1.0308, 1.06124, 1.05988, 1.06326, 1.07694, 1.07954, 1.10621, 1.10326, 1.10121, 1.13215, 1.13407, 1.13582, 1.14345, 1.14658, 1.15014, 1.17247, 1.19386, 1.1774, 1.20193, 1.1879, 1.22002, 1.20231, 1.21262, 1.2204, 1.23521, 1.24666, 1.26788, 1.26698, 1.28309, 1.28942, 1.28224, 1.32274, 1.3155, 1.30213, 1.31677, 1.31571, 1.33544, 1.33365, 1.35654, 1.3774, 1.39168, 1.3713, 1.36845, 1.38316, 1.39658, 1.41014, 1.41322, 1.43612, 1.44038, 1.44338, 1.46889, 1.44493, 1.46095, 1.48028, 1.48812, 1.47762, 1.48337, 1.50297, 1.52388, 1.52342, 1.52309, 1.54014, 1.53053, 1.53657, 1.56465, 1.55098, 1.59579, 1.59295, 1.60637, 1.59338, 1.60795, 1.62751, 1.61018, 1.65744, 1.64488, 1.67155, 1.65762, 1.65956, 1.69364, 1.67614, 1.69296, 1.69245, 1.72073, 1.73078, 1.71717, 1.7453, 1.74514, 1.75431, 1.78753, 1.77534, 1.77428, 1.80007, 1.8064, 1.78784, 1.82089, 1.80312, 1.83958, 1.85122, 1.84721, 1.86166, 1.88303, 1.87763, 1.88433, 1.88859, 1.88961, 1.91137, 1.91055, 1.94584, 1.94643, 1.95159, 1.95317, 1.95325, 1.96496, 1.95623, 1.96586, 2.00427, 2.01699, 2.01628, 2.01849, 2.01326, 2.04606, 2.04482, 2.04511, 2.04199, 2.06287, 2.06677, 2.10072, 2.1314, 2.12046, 2.14848, 2.13115, 2.11608, 2.124, 2.14619, 2.14575, 2.14928, 2.15966, 2.15901, 2.19783, 2.20365, 2.18793, 2.22904, 2.21504, 2.22357, 2.2384, 2.24756, 2.24042, 2.24146, 2.25159, 2.29367, 2.3007, 2.29973, 2.32104, 2.3288, 2.31095, 2.32638, 2.35898, 2.35053, 2.35355, 2.34875, 2.34838, 2.36225, 2.38664, 2.39342, 2.39736, 2.41849, 2.43583, 2.41522, 2.42475, 2.51415, 2.4192, 2.45225, 2.45937, 2.45555, 2.48307, 2.48757, 2.50804, 2.48387, 2.55025, 2.51769, 2.55779, 2.53486, 2.56278, 2.57075, 2.57704, 2.58624, 2.58413, 2.58393, 2.61461, 2.61848, 2.6046, 2.64325, 2.60774, 2.61966, 2.64754, 2.63942, 2.68066, 2.69731, 2.67827, 2.67366, 2.70092, 2.71241, 2.73234, 2.72161
0.303021, 0.293509, 0.303361, 0.289574, 0.291887, 0.318403, 0.341562, 0.335535, 0.318102, 0.375878, 0.363397, 0.383788, 0.390413, 0.372731, 0.411164, 0.391213, 0.385363, 0.435417, 0.425461, 0.434758, 0.459251, 0.449737, 0.45983, 0.458675, 0.500474, 0.500585, 0.470402, 0.49463, 0.495258, 0.545844, 0.541424, 0.539483, 0.555282, 0.541986, 0.550643, 0.563314, 0.611222, 0.581169, 0.569489, 0.615793, 0.62046, 0.609249, 0.604727, 0.636158, 0.66664, 0.634246, 0.637051, 0.659549, 0.659129, 0.681508, 0.682161, 0.698223, 0.710672, 0.689749, 0.714751, 0.71791, 0.728585, 0.721278, 0.746215, 0.75655, 0.766309, 0.764635, 0.767968, 0.77223, 0.804042, 0.813995, 0.809774, 0.814046, 0.804668, 0.812498, 0.826496, 0.82741, 0.83224, 0.867302, 0.869389, 0.873512, 0.877463, 0.902253, 0.916027, 0.90565, 0.929622, 0.911005, 0.921993, 0.937364, 0.936984, 0.961017, 0.959689, 0.984476, 0.985097, 0.976092, 0.99459, 0.994277, 0.995937, 1.02905, 1.01518, 1.034, 1.06075, 1.03677, 1.06043, 1.05168, 1.06706, 1.08287, 1.09322, 1.10955, 1.10546, 1.11679, 1.13008, 1.11361, 1.14433, 1.13849, 1.14757, 1.16474, 1.15687, 1.1876, 1.18144, 1.1907, 1.20406, 1.21979, 1.22682, 1.22945, 1.2219, 1.24381, 1.24282, 1.25224, 1.27492, 1.27462, 1.27507, 1.296, 1.30151, 1.32908, 1.32208, 1.31675, 1.32956, 1.33715, 1.36826, 1.3479, 1.37336, 1.37406, 1.36559, 1.37488, 1.39513, 1.41173, 1.40224, 1.41313, 1.42269, 1.42267, 1.45365, 1.45274, 1.46543, 1.48573, 1.46654, 1.48922, 1.47492, 1.48667, 1.50178, 1.50164, 1.53619, 1.52652, 1.52616, 1.54127, 1.56127, 1.58267, 1.58478, 1.56894, 1.57536, 1.60054, 1.59352, 1.59908, 1.6098, 1.62273, 1.63461, 1.6552, 1.63743, 1.67803, 1.67515, 1.70494, 1.70337, 1.69756, 1.71418, 1.71029, 1.73726, 1.72718, 1.72792, 1.74959, 1.7615, 1.76125, 1.76525, 1.78514, 1.79422, 1.82383, 1.80374, 1.81082, 1.84227, 1.8349, 1.83558, 1.83518, 1.85639, 1.88346, 1.85144, 1.86948, 1.89744, 1.90047, 1.92758, 1.93828, 1.93732, 1.94508, 1.94527, 1.93685, 1.98227, 1.98057, 1.98042, 1.9997, 1.98964, 2.01466, 2.01438, 2.01462, 2.03156, 2.03189, 2.05858, 2.06652, 2.0615, 2.06029, 2.0906, 2.08712, 2.10343, 2.10513, 2.13433, 2.13458, 2.14977, 2.13474, 2.12923, 2.14552, 2.16315, 2.18024, 2.16553, 2.18526, 2.18966, 2.21711, 2.21819, 2.21414, 2.20472, 2.226, 2.24203, 2.24154, 2.26339, 2.27909, 2.27981, 2.2685, 2.2899, 2.28421, 2.31675, 2.32406, 2.35306, 2.34511, 2.34088, 2.36097, 2.34479, 2.39087, 2.38142, 2.38722, 2.39769, 2.39554, 2.39696, 2.39381, 2.44296, 2.44988, 2.44455, 2.46141, 2.47657, 2.49737, 2.47973, 2.48755, 2.47306, 2.51881, 2.52675, 2.48975, 2.51697, 2.55786, 2.56384, 2.55631, 2.58422, 2.55343, 2.58375, 2.56494, 2.58495, 2.59081, 2.59912, 2.62008, 2.61124, 2.60568, 2.62909, 2.64632, 2.63979, 2.6705, 2.676, 2.68512, 2.67439, 2.6858, 2.72352, 2.7113
0.262528, 0.263416, 0.26661, 0.277095, 0.300581, 0.329366, 0.331386, 0.322958, 0.324701, 0.327584, 0.361631, 0.380812, 0.378977, 0.397767, 0.404523, 0.404544, 0.383449, 0.455226, 0.431127, 0.40743, 0.425076, 0.423008, 0.469092, 0.470672, 0.49076, 0.481692, 0.475716, 0.480468, 0.520888, 0.522502, 0.518948, 0.515732, 0.566274, 0.536948, 0.565416, 0.564732, 0.572236, 0.563268, 0.576908, 0.580869, 0.62143, 0.598398, 0.626602, 0.617683, 0.631811, 0.631317, 0.640819, 0.670351, 0.658155, 0.659564, 0.698739, 0.694488, 0.670686, 0.744544, 0.694129, 0.738784, 0.738979, 0.74878, 0.748496, 0.749355, 0.744981, 0.761966, 0.767006, 0.760271, 0.797016, 0.792813, 0.823277, 0.798984, 0.819817, 0.818706, 0.818039, 0.862387, 0.827789, 0.854447, 0.870141, 0.875165, 0.884045, 0.881349, 0.906503, 0.916949, 0.903875, 0.93927, 0.919212, 0.943769, 0.94975, 0.976083, 0.948296, 0.961901, 0.977947, 0.9724, 1.00083, 0.985319, 1.01387, 1.0053, 1.0212, 1.02081, 1.0297, 1.05351, 1.03569, 1.06039, 1.07811, 1.0696, 1.06853, 1.09704, 1.08729, 1.09586, 1.12134, 1.117, 1.12426, 1.1379, 1.13974, 1.15412, 1.16385, 1.16462, 1.17214, 1.19052, 1.21994, 1.19826, 1.22706, 1.22259, 1.24298, 1.24457, 1.25349, 1.25705, 1.27508, 1.26537, 1.27621, 1.28081, 1.29065, 1.29415, 1.29361, 1.32773, 1.31588, 1.3367, 1.3377, 1.34443, 1.34959, 1.36385, 1.36076, 1.3751, 1.3961, 1.40332, 1.40431, 1.40224, 1.42236, 1.4142, 1.46279, 1.46245, 1.44378, 1.45783, 1.4623, 1.48192, 1.47974, 1.4779, 1.51963, 1.51041, 1.51986, 1.52014, 1.52113, 1.5409, 1.543, 1.545, 1.59316, 1.5838, 1.58317, 1.60801, 1.59191, 1.62426, 1.61834, 1.63455, 1.63161, 1.63336, 1.66484, 1.66759, 1.66069, 1.68175, 1.67107, 1.69951, 1.68583, 1.71798, 1.72695, 1.72117, 1.72346, 1.74875, 1.752, 1.7925, 1.77208, 1.79722, 1.7767, 1.8027, 1.80289, 1.81659, 1.82487, 1.84552, 1.83733, 1.82102, 1.85102, 1.85059, 1.86715, 1.89984, 1.89377, 1.91307, 1.89057, 1.91374, 1.93316, 1.93401, 1.94403, 1.94968, 1.98354, 1.97582, 1.97288, 1.97987, 1.99443, 1.99752, 2.01699, 1.99407, 2.01932, 2.05961, 2.04059, 2.06241, 2.05947, 2.07444, 2.07872, 2.09365, 2.09636, 2.08809, 2.14937, 2.13224, 2.14959, 2.15122, 2.15799, 2.14528, 2.15249, 2.18003, 2.19003, 2.17744, 2.20332, 2.20476, 2.20109, 2.21457, 2.21202, 2.22494, 2.22284, 2.23045, 2.26755, 2.27366, 2.28216, 2.27322, 2.31061, 2.31068, 2.29061, 2.29748, 2.32498, 2.32112, 2.34025, 2.33708, 2.34928, 2.363, 2.3883, 2.37726, 2.38367, 2.38194, 2.40661, 2.3979, 2.41346, 2.43707, 2.4463, 2.43315, 2.4609, 2.48325, 2.49387, 2.44976, 2.50038, 2.4892, 2.529, 2.48531, 2.50657, 2.52173, 2.52905, 2.53227, 2.59521, 2.60918, 2.54931, 2.60524, 2.60095, 2.58788, 2.60634, 2.60257, 2.63343, 2.63773, 2.64123, 2.66301, 2.67979, 2.67318, 2.69019, 2.66728, 2.73675, 2.71215, 2.69278, 2.69726
0.275003, 0.273892, 0.263805, 0.309626, 0.314862, 0.321028, 0.310359, 0.332759, 0.332236, 0.378483, 0.368753, 0.342057, 0.359168, 0.390939, 0.386863, 0.389772, 0.401203, 0.43172, 0.413951, 0.423078, 0.442805, 0.421402, 0.442008, 0.500571, 0.470901, 0.456245, 0.51636, 0.515695, 0.504773, 0.494722, 0.512358, 0.539487, 0.512693, 0.51465, 0.556326, 0.563119, 0.555576, 0.548878, 0.569413, 0.587554, 0.579989, 0.598548, 0.61411, 0.607416, 0.628604, 0.615242, 0.667219, 0.65992, 0.659175, 0.666363, 0.670553, 0.65706, 0.695741, 0.692445, 0.705321, 0.725394, 0.735617, 0.736832, 0.737774, 0.742676, 0.752926, 0.765869, 0.757004, 0.787927, 0.786924, 0.78829, 0.796075, 0.805228, 0.835102, 0.805969, 0.819971, 0.832944, 0.834742, 0.832823, 0.840487, 0.857122, 0.874533, 0.880545, 0.905498, 0.909611, 0.918023, 0.919326, 0.929035, 0.928367, 0.929611, 0.93909, 0.938981, 0.966494, 0.952668, 0.96166, 0.974348, 0.998937, 0.988665, 1.00542, 1.01142, 1.03312, 1.03127, 1.03669, 1.05539, 1.05057, 1.06418, 1.09005, 1.08911, 1.07982, 1.09294, 1.10189, 1.09896, 1.11496, 1.12217, 1.12435, 1.14638, 1.14282, 1.16018, 1.15633, 1.19333, 1.1735, 1.19283, 1.21606, 1.2033, 1.20468, 1.23962, 1.22793, 1.24702, 1.24117, 1.25029, 1.25297, 1.25778, 1.27355, 1.29619, 1.30848, 1.31024, 1.31956, 1.33051, 1.34072, 1.34688, 1.33343, 1.33994, 1.3588, 1.37164, 1.38506, 1.36703, 1.39879, 1.38965, 1.43175, 1.42624, 1.42741, 1.43148, 1.43459, 1.44149, 1.47251, 1.4721, 1.47033, 1.48864, 1.48279, 1.51722, 1.50349, 1.51675, 1.52316, 1.52102, 1.53683, 1.55549, 1.55852, 1.5617, 1.57599, 1.60252, 1.58793, 1.6028, 1.59304, 1.60693, 1.63505, 1.64949, 1.64393, 1.64176, 1.65634, 1.67267, 1.6937, 1.68194, 1.68196, 1.70047, 1.70393, 1.69974, 1.72756, 1.73583, 1.73521, 1.74038, 1.77642, 1.77408, 1.78272, 1.79407, 1.79123, 1.78453, 1.80102, 1.82529, 1.79952, 1.81017, 1.82521, 1.84555, 1.84813, 1.87948, 1.8529, 1.87868, 1.88874, 1.89681, 1.89614, 1.89051, 1.92495, 1.93935, 1.93637, 1.95174, 1.98364, 1.97623, 1.97632, 1.98872, 2.0035, 2.00642, 1.99587, 1.99476, 2.01474, 2.02774, 2.02861, 2.06593, 2.05345, 2.09243, 2.09131, 2.0901, 2.11353, 2.10607, 2.0915, 2.10507, 2.11328, 2.13187, 2.15628, 2.1701, 2.1696, 2.15862, 2.15608, 2.16339, 2.21845, 2.17742, 2.19572, 2.23391, 2.21776, 2.217, 2.24666, 2.24071, 2.24329, 2.24838, 2.2735, 2.30736, 2.32488, 2.29523, 2.33548, 2.31953, 2.32867, 2.33869, 2.3775, 2.34337, 2.35952, 2.35903, 2.36655, 2.36766, 2.39061, 2.38953, 2.43636, 2.41302, 2.4177, 2.47679, 2.4567, 2.44569, 2.46356, 2.44938, 2.48837, 2.48885, 2.4942, 2.50369, 2.52925, 2.49031, 2.50916, 2.5285, 2.53582, 2.56476, 2.55632, 2.56095, 2.5647, 2.56578, 2.56724, 2.59322, 2.63917, 2.62958, 2.61227, 2.64178, 2.62303, 2.63256, 2.68405, 2.64931, 2.68, 2.69871, 2.69222, 2.70223, 2.69876
0.259464, 0.244038, 0.279711, 0.269208, 0.306771, 0.328945, 0.300933, 0.310181, 0.306521, 0.373874, 0.343961, 0.366709, 0.386543, 0.369683, 0.383826, 0.396806, 0.404527, 0.409196, 0.409958, 0.418175, 0.425349, 0.449454, 0.449337, 0.464885, 0.463791, 0.445222, 0.456991, 0.479825, 0.498667, 0.516548, 0.515307, 0.538373, 0.504498, 0.529003, 0.555896, 0.567093, 0.557325, 0.573974, 0.576444, 0.597889, 0.602619, 0.580571, 0.58992, 0.621955, 0.619007, 0.645451, 0.639063, 0.632419, 0.649341, 0.662422, 0.681129, 0.680602, 0.661204, 0.698326, 0.680796, 0.708127, 0.702127, 0.704317, 0.738201, 0.75799, 0.748177, 0.758504, 0.770405, 0.766041, 0.760753, 0.773306, 0.774207, 0.819599, 0.79706, 0.807894, 0.826906, 0.849995, 0.853359, 0.848822, 0.861808, 0.862578, 0.857914, 0.870062, 0.892274, 0.884386, 0.913308, 0.912244, 0.910057, 0.933422, 0.935006, 0.935445, 0.933672, 0.939315, 0.964886, 0.974515, 0.977676, 0.971001, 0.994679, 0.992277, 0.99761, 1.01175, 1.01411, 1.04965, 1.05423, 1.04716, 1.07064, 1.07085, 1.07613, 1.08252, 1.08244, 1.1225, 1.10132, 1.10443, 1.11274, 1.13071, 1.13039, 1.15973, 1.15793, 1.16369, 1.17488, 1.18573, 1.19551, 1.2019, 1.19629, 1.20172, 1.21559, 1.21415, 1.25375, 1.24137, 1.24232, 1.25397, 1.273, 1.27188, 1.28463, 1.29643, 1.30402, 1.30532, 1.32282, 1.32956, 1.33943, 1.34077, 1.3446, 1.34382, 1.34775, 1.37171, 1.38221, 1.38613, 1.39039, 1.39153, 1.40038, 1.43342, 1.43013, 1.42386, 1.44821, 1.44755, 1.46379, 1.45367, 1.48835, 1.48189, 1.48904, 1.51654, 1.50796, 1.5066, 1.5069, 1.52655, 1.53735, 1.56492, 1.56312, 1.56907, 1.57089, 1.59175, 1.59209, 1.60589, 1.62342, 1.62714, 1.61793, 1.63581, 1.62976, 1.66156, 1.66796, 1.66743, 1.66695, 1.6834, 1.71351, 1.69982, 1.70294, 1.71981, 1.71918, 1.74676, 1.75457, 1.74165, 1.76775, 1.79948, 1.76928, 1.76877, 1.80105, 1.8198, 1.80889, 1.83703, 1.84017, 1.84438, 1.84862, 1.86841, 1.84825, 1.86147, 1.90398, 1.89386, 1.90766, 1.91345, 1.933, 1.91188, 1.9423, 1.97833, 1.9627, 1.94403, 1.95242, 1.95139, 1.98773, 1.98992, 2.0135, 2.01655, 2.02865, 2.03006, 2.02767, 2.04179, 2.06556, 2.05143, 2.07841, 2.09429, 2.09908, 2.09705, 2.09762, 2.10418, 2.08323, 2.10868, 2.15223, 2.1385, 2.15265, 2.14623, 2.16346, 2.18342, 2.19696, 2.20354, 2.17946, 2.2221, 2.20526, 2.20421, 2.22443, 2.22426, 2.27122, 2.26917, 2.26623, 2.25962, 2.25816, 2.28022, 2.29392, 2.3153, 2.32076, 2.29743, 2.33066, 2.35032, 2.37343, 2.33941, 2.36615, 2.36411, 2.38507, 2.41905, 2.3661, 2.40068, 2.39975, 2.41848, 2.40929, 2.42891, 2.44954, 2.44098, 2.50072, 2.46772, 2.50542, 2.50516, 2.47619, 2.48939, 2.49861, 2.52235, 2.50977, 2.54304, 2.54208, 2.60534, 2.56819, 2.57363, 2.56679, 2.58162, 2.58102, 2.59122, 2.5968, 2.63281, 2.63345, 2.63525, 2.62605, 2.65596, 2.65393, 2.71214, 2.68072, 2.6716, 2.68543, 2.72204
0.250209, 0.247852, 0.28112, 0.277265, 0.276842, 0.311121, 0.307419, 0.308607, 0.337797, 0.346431, 0.341043, 0.341309, 0.364136, 0.356105, 0.379494, 0.375865, 0.386209, 0.387041, 0.439567, 0.435026, 0.434168, 0.435848, 0.439221, 0.439847, 0.465853, 0.483071, 0.484481, 0.476483, 0.479944, 0.486428, 0.498529, 0.514743, 0.516902, 0.53559, 0.536142, 0.524824, 0.531091, 0.55391, 0.567733, 0.577171, 0.600612, 0.611163, 0.591822, 0.623975, 0.637362, 0.63965, 0.637067, 0.636608, 0.65939, 0.659131, 0.64649, 0.676333, 0.677286, 0.690401, 0.695292, 0.700576, 0.700018, 0.714174, 0.725736, 0.725497, 0.746671, 0.740434, 0.773478, 0.769476, 0.765329, 0.765918, 0.780744, 0.79072, 0.804011, 0.804191, 0.802375, 0.827872, 0.835946, 0.852931, 0.864295, 0.846744, 0.897555, 0.877906, 0.87131, 0.89752, 0.909459, 0.9193, 0.90936, 0.913397, 0.914928, 0.956228, 0.942669, 0.945998, 0.95334, 0.955239, 0.970628, 0.974687, 0.975377, 1.00534, 0.998459, 1.00073, 1.00981, 1.05209, 1.0491, 1.04952, 1.05742, 1.06494, 1.06399, 1.07483, 1.07707, 1.09897, 1.10491, 1.10513, 1.1054, 1.11927, 1.14206, 1.13033, 1.14254, 1.14506, 1.174, 1.17113, 1.17278, 1.17629, 1.19432, 1.19599, 1.20257, 1.22572, 1.22703, 1.24061, 1.26228, 1.24482, 1.2518, 1.29144, 1.27348, 1.27405, 1.28601, 1.30172, 1.3055, 1.30998, 1.33474, 1.3338, 1.34152, 1.34038, 1.36327, 1.35543, 1.35545, 1.37501, 1.41162, 1.40808, 1.39343, 1.4168, 1.43053, 1.42636, 1.42556, 1.44807, 1.46156, 1.46824, 1.49989, 1.47531, 1.48877, 1.48349, 1.49586, 1.50829, 1.52386, 1.55125, 1.53437, 1.53507, 1.58301, 1.56063, 1.60219, 1.57193, 1.59641, 1.60044, 1.58726, 1.6344, 1.61052, 1.62418, 1.64223, 1.66048, 1.66695, 1.6662, 1.6795, 1.68282, 1.68677, 1.72003, 1.74118, 1.70836, 1.7237, 1.72456, 1.72349, 1.73337, 1.7514, 1.75593, 1.76414, 1.7882, 1.80005, 1.79159, 1.81581, 1.80759, 1.81974, 1.83309, 1.83173, 1.87517, 1.85947, 1.86258, 1.85336, 1.88961, 1.88113, 1.91013, 1.89072, 1.90342, 1.93562, 1.93122, 1.92478, 1.96883, 1.96895, 1.96473, 1.97881, 1.96267, 2.0072, 1.99713, 2.00892, 2.01394, 2.01432, 2.0167, 2.0484, 2.0251, 2.04946, 2.07343, 2.07059, 2.07694, 2.07334, 2.08814, 2.10877, 2.09082, 2.12092, 2.12137, 2.14879, 2.12635, 2.13491, 2.16636, 2.16296, 2.19369, 2.18322, 2.20685, 2.21413, 2.19358, 2.21167, 2.25079, 2.25714, 2.27055, 2.26563, 2.26595, 2.29164, 2.29524, 2.29506, 2.28366, 2.32746, 2.3121, 2.3524, 2.32832, 2.3528, 2.34735, 2.35492, 2.35696, 2.35676, 2.39412, 2.38198, 2.38687, 2.3802, 2.3979, 2.41568, 2.44263, 2.44209, 2.45125, 2.4802, 2.46934, 2.48031, 2.48868, 2.50784, 2.50272, 2.51227, 2.49026, 2.50879, 2.5609, 2.53678, 2.54047, 2.5565, 2.54694, 2.58868, 2.57694, 2.59098, 2.5735, 2.59049, 2.60883, 2.60729, 2.61431, 2.64218, 2.64312, 2.64449, 2.67506, 2.68755, 2.68037, 2.67425, 2.69566
0.27268, 0.255896, 0.259528, 0.297905, 0.297343, 0.292858, 0.273095, 0.324118, 0.295826, 0.349005, 0.341964, 0.321701, 0.358044, 0.35235, 0.341703, 0.377435, 0.36674, 0.373533, 0.4033, 0.425462, 0.413065, 0.411788, 0.412176, 0.472983, 0.455629, 0.463057, 0.473207, 0.50909, 0.473433, 0.500605, 0.51197, 0.528149, 0.496614, 0.521675, 0.518684, 0.524411, 0.559386, 0.552001, 0.567143, 0.587788, 0.587573, 0.607535, 0.585093, 0.603904, 0.600782, 0.597721, 0.627685, 0.632823, 0.646199, 0.638373, 0.669379, 0.690147, 0.660483, 0.683697, 0.66849, 0.705054, 0.724443, 0.722211, 0.731968, 0.739686, 0.746772, 0.728687, 0.736628, 0.751612, 0.783926, 0.779703, 0.77104, 0.801311, 0.811757, 0.804421, 0.818883, 0.820376, 0.836019, 0.863797, 0.855111, 0.839406, 0.846402, 0.864492, 0.881447, 0.874177, 0.888837, 0.888069, 0.930968, 0.911164, 0.931141, 0.96002, 0.936356, 0.93736, 0.937428, 0.955049, 0.971012, 0.960292, 0.977879, 0.99357, 1.01012, 1.00974, 1.04102, 1.01222, 1.02517, 1.03934, 1.06104, 1.04463, 1.06496, 1.07983, 1.07115, 1.07598, 1.10823, 1.11027, 1.1056, 1.10336, 1.12729, 1.13045, 1.1321, 1.15546, 1.15698, 1.16611, 1.17054, 1.18188, 1.1975, 1.19184, 1.21986, 1.20652, 1.22152, 1.22093, 1.245, 1.26498, 1.2651, 1.27235, 1.28256, 1.28132, 1.30972, 1.30981, 1.30878, 1.32379, 1.33332, 1.33299, 1.353, 1.33658, 1.34314, 1.3594, 1.36941, 1.3684, 1.3919, 1.38034, 1.39348, 1.42024, 1.40994, 1.44962, 1.44452, 1.45364, 1.46375, 1.45458, 1.47227, 1.5004, 1.49988, 1.48096, 1.51555, 1.51267, 1.52041, 1.52643, 1.52152, 1.54737, 1.54188, 1.56838, 1.56461, 1.56508, 1.59057, 1.60251, 1.60037, 1.61769, 1.61688, 1.62252, 1.65907, 1.64307, 1.65413, 1.65082, 1.66797, 1.6815, 1.67619, 1.68999, 1.68009, 1.6922, 1.72664, 1.71331, 1.75773, 1.74428, 1.76212, 1.75209, 1.76577, 1.78942, 1.78556, 1.77702, 1.80274, 1.81187, 1.85271, 1.81792, 1.8272, 1.84988, 1.84511, 1.84638, 1.85948, 1.88734, 1.87796, 1.92442, 1.89702, 1.93186, 1.93165, 1.91446, 1.93903, 1.97942, 1.98126, 1.96473, 1.97687, 1.97696, 1.98303, 1.97973, 2.01736, 1.98943, 2.02469, 2.03284, 2.03168, 2.03447, 2.04815, 2.06409, 2.06668, 2.08311, 2.09799, 2.09314, 2.09241, 2.1042, 2.1362, 2.13252, 2.13492, 2.13464, 2.13588, 2.18974, 2.16401, 2.16408, 2.19326, 2.17576, 2.20887, 2.21161, 2.21219, 2.23433, 2.23443, 2.21816, 2.24477, 2.2526, 2.26137, 2.27695, 2.30748, 2.30826, 2.31793, 2.32948, 2.31219, 2.34858, 2.34848, 2.31527, 2.36708, 2.36718, 2.36204, 2.39946, 2.40871, 2.40858, 2.41517, 2.40089, 2.44617, 2.41282, 2.45207, 2.45971, 2.43354, 2.44318, 2.48689, 2.49425, 2.47249, 2.48378, 2.50552, 2.51536, 2.52922, 2.5395, 2.54961, 2.5507, 2.55965, 2.55958, 2.58073, 2.57465, 2.57421, 2.58656, 2.60788, 2.58893, 2.63153, 2.62769, 2.63523, 2.62726, 2.68466, 2.67837, 2.66393, 2.68496, 2.68894, 2.69336
0.245729, 0.265514, 0.259161, 0.279856, 0.279913, 0.266622, 0.330692, 0.279481, 0.325973, 0.332919, 0.348986, 0.356841, 0.359324, 0.402724, 0.380393, 0.381497, 0.372357, 0.37797, 0.373939, 0.413729, 0.434628, 0.441402, 0.436673, 0.435494, 0.450997, 0.46609, 0.467965, 0.482, 0.477433, 0.471353, 0.480181, 0.514127, 0.517572, 0.514617, 0.526331, 0.550479, 0.547882, 0.543801, 0.576635, 0.571955, 0.572644, 0.558976, 0.566494, 0.601525, 0.611903, 0.63936, 0.636479, 0.635627, 0.631565, 0.654477, 0.671482, 0.649738, 0.678029, 0.693596, 0.677832, 0.698684, 0.673265, 0.688409, 0.719747, 0.729698, 0.718589, 0.750099, 0.769291, 0.773593, 0.752816, 0.773605, 0.78033, 0.813339, 0.793178, 0.785461, 0.815996, 0.836551, 0.839003, 0.851793, 0.865571, 0.860255, 0.843575, 0.85672, 0.895404, 0.908532, 0.887893, 0.89584, 0.911725, 0.922785, 0.913154, 0.918595, 0.932945, 0.944736, 0.933458, 0.950128, 0.972852, 0.974169, 0.980285, 0.99051, 1.01091, 1.0071, 1.01576, 1.00993, 1.01806, 1.02117, 1.04246, 1.06299, 1.0623, 1.07801, 1.0925, 1.08443, 1.08165, 1.10514, 1.10196, 1.14214, 1.11949, 1.11821, 1.1463, 1.14632, 1.17475, 1.17441, 1.19303, 1.16712, 1.18546, 1.21629, 1.20494, 1.21162, 1.25766, 1.23926, 1.24277, 1.23982, 1.26722, 1.27885, 1.2716, 1.27066, 1.27497, 1.28273, 1.30258, 1.30454, 1.31727, 1.31161, 1.34417, 1.3366, 1.35023, 1.37543, 1.35437, 1.38807, 1.38282, 1.38734, 1.39168, 1.40639, 1.40605, 1.42226, 1.41996, 1.4243, 1.44523, 1.44375, 1.44655, 1.4858, 1.46423, 1.49972, 1.49194, 1.50403, 1.51621, 1.52452, 1.5334, 1.53012, 1.53061, 1.55783, 1.55797, 1.58144, 1.58287, 1.58158, 1.60134, 1.59846, 1.62201, 1.60041, 1.62446, 1.65162, 1.6538, 1.65893, 1.65484, 1.67484, 1.66546, 1.68226, 1.69462, 1.69266, 1.6932, 1.71359, 1.7428, 1.72725, 1.7567, 1.74481, 1.74844, 1.75595, 1.77714, 1.80272, 1.80404, 1.81846, 1.81241, 1.83223, 1.83393, 1.85824, 1.83941, 1.82171, 1.87979, 1.8908, 1.87841, 1.88731, 1.90731, 1.90005, 1.91221, 1.92563, 1.93296, 1.93001, 1.95153, 1.96555, 1.9637, 1.96547, 1.98312, 1.99582, 2.00673, 2.01041, 2.02109, 2.02337, 2.01843, 2.03321, 2.09109, 2.05938, 2.05618, 2.06728, 2.06909, 2.08207, 2.08943, 2.11646, 2.1134, 2.13074, 2.13118, 2.13579, 2.1465, 2.1808, 2.1673, 2.17334, 2.18351, 2.19155, 2.19781, 2.21219, 2.22238, 2.22299, 2.23268, 2.25557, 2.23399, 2.23272, 2.27888, 2.28642, 2.2909, 2.3019, 2.30077, 2.31612, 2.29801, 2.30815, 2.32503, 2.35525, 2.34401, 2.34689, 2.35684, 2.36209, 2.38248, 2.3866, 2.41802, 2.39753, 2.41162, 2.43551, 2.45527, 2.45508, 2.47245, 2.47557, 2.4742, 2.45645, 2.45611, 2.48288, 2.49022, 2.48427, 2.53622, 2.54916, 2.57095, 2.50994, 2.52603, 2.54039, 2.57318, 2.57957, 2.60958, 2.55936, 2.60553, 2.60845, 2.64738, 2.63755, 2.6584, 2.65423, 2.68493, 2.68416, 2.68085, 2.65782, 2.67908, 2.72278
