1.69565, 1.6887, 1.68867, 1.6852, 1.68046, 1.69294, 1.69259, 1.68546, 1.67659, 1.67674, 1.67387, 1.68164, 1.67737, 1.68121, 1.66991, 1.68158, 1.67612, 1.66296, 1.66126, 1.66075, 1.65066, 1.62882, 1.64812, 1.67971, 1.68554, 1.70013, 1.73505, 1.76875, 1.80633, 1.8405, 1.84961, 1.84801, 1.84919, 1.79858, 1.73842, 1.68627, 1.62491, 1.61304, 1.62414, 1.63042, 1.61915, 1.60733, 1.61953, 1.62101, 1.6092, 1.60571, 1.61016, 1.62001, 1.5937, 1.58915, 1.59307, 1.59034, 1.58955, 1.58815, 1.58872, 1.58784, 1.58213, 1.57958, 1.5759, 1.57577, 1.57309, 1.57182, 1.57367, 1.58851, 1.59191, 1.57502, 1.58908, 1.59463, 1.59294, 1.58901, 1.5675, 1.56454, 1.56176, 1.5691, 1.54549, 1.54411, 1.55272, 1.54448, 1.54475, 1.54431, 1.54167, 1.53801, 1.53701, 1.53504, 1.53323, 1.5403, 1.5304, 1.52993, 1.53112, 1.52773, 1.52583, 1.5405, 1.53242, 1.52485, 1.532, 1.54869, 1.55518, 1.52737, 1.53195, 1.50245, 1.51924, 1.50725, 1.57506, 1.61073, 1.63511, 1.65449, 1.67659, 1.67338, 1.66991, 1.6431, 1.64316, 1.61668, 1.53447, 1.50188, 1.46865, 1.46883, 1.48731, 1.48886, 1.48218, 1.49696, 1.50598, 1.50994, 1.48278, 1.48472, 1.48405, 1.47813, 1.48549, 1.47067, 1.47481, 1.48236, 1.46903, 1.4683, 1.46749, 1.46571, 1.46191, 1.45813, 1.48054, 1.45157, 1.44658, 1.44586, 1.44591, 1.44717, 1.44849, 1.45002, 1.45128, 1.45072, 1.44881, 1.44508, 1.44295, 1.43976, 1.43824, 1.4369, 1.43538, 1.43431, 1.43189, 1.43318, 1.4318, 1.43265, 1.42914, 1.42724, 1.42498, 1.42396, 1.42194, 1.42022, 1.41958, 1.41707, 1.41677, 1.41478, 1.41505, 1.41609, 1.4154, 1.41526, 1.40819, 1.41367, 1.40594, 1.41531, 1.40928, 1.40196, 1.40216, 1.40863, 1.40769, 1.39633, 1.39384, 1.40348, 1.41432, 1.39244, 1.38965, 1.39264, 1.39542, 1.40331, 1.39312, 1.40038, 1.40069, 1.38281, 1.37982, 1.40907, 1.45508, 1.4642, 1.48536, 1.49237, 1.53067, 1.52838, 1.51734, 1.57294, 1.53136, 1.52207, 1.50105, 1.45104, 1.4603, 1.41379, 1.35435, 1.36728, 1.37269, 1.38148, 1.36076, 1.36792, 1.36039, 1.35713, 1.35568, 1.35542, 1.35617, 1.35628, 1.35652, 1.38506, 1.35312, 1.35837, 1.372, 1.34279, 1.33986, 1.34261
1.68694, 1.69321, 1.67067, 1.66613, 1.66254, 1.66106, 1.66126, 1.65843, 1.65745, 1.66044, 1.665, 1.66912, 1.67189, 1.67377, 1.66572, 1.6687, 1.65843, 1.66102, 1.64831, 1.66211, 1.66571, 1.62251, 1.63126, 1.67709, 1.70274, 1.71968, 1.77502, 1.79277, 1.83735, 1.85607, 1.86265, 1.88006, 1.83268, 1.75687, 1.68834, 1.66657, 1.63045, 1.60746, 1.62465, 1.63067, 1.6144, 1.60691, 1.60549, 1.60458, 1.60395, 1.61709, 1.59019, 1.57869, 1.57397, 1.57114, 1.57926, 1.59578, 1.58432, 1.58545, 1.58361, 1.58777, 1.5745, 1.56758, 1.56361, 1.55816, 1.56111, 1.58656, 1.56801, 1.56556, 1.56316, 1.56179, 1.56567, 1.57794, 1.57605, 1.58603, 1.5823, 1.55163, 1.5503, 1.54724, 1.55005, 1.54342, 1.54347, 1.55064, 1.54439, 1.54301, 1.54151, 1.53991, 1.53441, 1.52966, 1.52091, 1.51634, 1.51633, 1.51867, 1.52109, 1.523, 1.52115, 1.51424, 1.51223, 1.51106, 1.51066, 1.51381, 1.51465, 1.51351, 1.51715, 1.47874, 1.50012, 1.50184, 1.53452, 1.66436, 1.61075, 1.63734, 1.644, 1.64814, 1.64818, 1.63175, 1.63178, 1.5953, 1.58218, 1.4907, 1.4773, 1.47208, 1.48363, 1.4962, 1.47506, 1.50011, 1.50567, 1.49261, 1.47464, 1.46844, 1.47926, 1.47414, 1.47326, 1.46659, 1.46834, 1.46862, 1.48072, 1.45985, 1.46857, 1.45877, 1.45645, 1.45112, 1.4486, 1.43816, 1.433, 1.43113, 1.43, 1.43331, 1.44242, 1.44366, 1.4466, 1.44494, 1.44101, 1.43429, 1.42824, 1.4274, 1.4213, 1.41867, 1.41857, 1.41632, 1.41924, 1.42114, 1.42212, 1.42105, 1.41949, 1.41806, 1.41626, 1.41391, 1.41258, 1.41309, 1.4127, 1.40581, 1.40043, 1.39935, 1.39465, 1.3952, 1.40902, 1.39555, 1.39953, 1.39502, 1.39495, 1.39556, 1.39434, 1.39207, 1.39896, 1.39236, 1.3856, 1.38227, 1.37893, 1.37822, 1.39489, 1.37961, 1.38184, 1.38271, 1.38751, 1.38239, 1.39515, 1.40976, 1.39201, 1.38673, 1.36796, 1.38687, 1.42301, 1.41811, 1.48742, 1.52565, 1.54069, 1.52371, 1.50936, 1.47959, 1.52422, 1.52234, 1.4631, 1.46871, 1.43397, 1.41638, 1.34567, 1.35093, 1.36338, 1.36478, 1.3542, 1.35372, 1.35132, 1.36654, 1.35776, 1.36571, 1.35402, 1.34547, 1.36475, 1.33702, 1.35097, 1.3328, 1.35593, 1.32959, 1.3284, 1.32772
1.68912, 1.6835, 1.67917, 1.67958, 1.67555, 1.67412, 1.67867, 1.67031, 1.67029, 1.69693, 1.6754, 1.67564, 1.67497, 1.67906, 1.67097, 1.66645, 1.6622, 1.67251, 1.6585, 1.64995, 1.64804, 1.64137, 1.63477, 1.6486, 1.67914, 1.70943, 1.74961, 1.7793, 1.84854, 1.86889, 1.88035, 1.89094, 1.8643, 1.83861, 1.7481, 1.69742, 1.62309, 1.61761, 1.62977, 1.62997, 1.6214, 1.62082, 1.62572, 1.61644, 1.61187, 1.6081, 1.59422, 1.58822, 1.58504, 1.58225, 1.58154, 1.58504, 1.58686, 1.60348, 1.58692, 1.58467, 1.57938, 1.57426, 1.56621, 1.56474, 1.57562, 1.5627, 1.57237, 1.56241, 1.55883, 1.55901, 1.57601, 1.57585, 1.57202, 1.58369, 1.57347, 1.55823, 1.55986, 1.56493, 1.55897, 1.55103, 1.5509, 1.54922, 1.5468, 1.54529, 1.54416, 1.54098, 1.53693, 1.53029, 1.52997, 1.5262, 1.5495, 1.52399, 1.53966, 1.52989, 1.52747, 1.52419, 1.51994, 1.51628, 1.53758, 1.51447, 1.51811, 1.51781, 1.52546, 1.50031, 1.48871, 1.5402, 1.59385, 1.63016, 1.63065, 1.63517, 1.68373, 1.6749, 1.67008, 1.66176, 1.66192, 1.61334, 1.56476, 1.5197, 1.46815, 1.4652, 1.47777, 1.48533, 1.4809, 1.47811, 1.49048, 1.48838, 1.49199, 1.49612, 1.47247, 1.47223, 1.47566, 1.47332, 1.47125, 1.47482, 1.46386, 1.45574, 1.45216, 1.45007, 1.44882, 1.44597, 1.44048, 1.43799, 1.43445, 1.4329, 1.43266, 1.43631, 1.43887, 1.4467, 1.44811, 1.44609, 1.44458, 1.43753, 1.44762, 1.42594, 1.42328, 1.41757, 1.42614, 1.41238, 1.4096, 1.4088, 1.40879, 1.40818, 1.40725, 1.40541, 1.4041, 1.40216, 1.3994, 1.40095, 1.39995, 1.43223, 1.39585, 1.39099, 1.3901, 1.38981, 1.39044, 1.39522, 1.3959, 1.39552, 1.39717, 1.39892, 1.40279, 1.40441, 1.40326, 1.39758, 1.40173, 1.38459, 1.3803, 1.37783, 1.37464, 1.37503, 1.37443, 1.37483, 1.38187, 1.37742, 1.38003, 1.39091, 1.39402, 1.39528, 1.41739, 1.37998, 1.41399, 1.47518, 1.47243, 1.49087, 1.50348, 1.57616, 1.51954, 1.53827, 1.54195, 1.50108, 1.48871, 1.44181, 1.41318, 1.35783, 1.31197, 1.36521, 1.3774, 1.36716, 1.36937, 1.35863, 1.35814, 1.35427, 1.35455, 1.36066, 1.34492, 1.36447, 1.34352, 1.33222, 1.32744, 1.32818, 1.32776, 1.33139, 1.32925, 1.32144
1.69056, 1.68918, 1.69701, 1.6869, 1.68804, 1.68238, 1.68414, 1.70007, 1.67852, 1.67779, 1.68582, 1.68995, 1.67913, 1.67246, 1.67223, 1.68299, 1.67098, 1.66282, 1.64865, 1.65149, 1.64075, 1.63412, 1.6232, 1.65888, 1.70315, 1.74486, 1.79985, 1.83201, 1.83343, 1.90354, 1.90104, 1.89511, 1.89946, 1.84163, 1.73461, 1.68582, 1.64744, 1.60368, 1.64464, 1.62961, 1.63201, 1.62468, 1.6262, 1.63626, 1.61304, 1.61353, 1.62862, 1.61016, 1.6059, 1.60457, 1.59622, 1.59708, 1.59336, 1.59314, 1.59247, 1.59141, 1.58856, 1.586, 1.58506, 1.58291, 1.57966, 1.5802, 1.57644, 1.5757, 1.57528, 1.57267, 1.58401, 1.58325, 1.58696, 1.59662, 1.58039, 1.58424, 1.57275, 1.57157, 1.55922, 1.56506, 1.5588, 1.56151, 1.55812, 1.54552, 1.5442, 1.55305, 1.54376, 1.54217, 1.55057, 1.56392, 1.55117, 1.5586, 1.53532, 1.53421, 1.53697, 1.52826, 1.53478, 1.54018, 1.53005, 1.53585, 1.53659, 1.52767, 1.5425, 1.53172, 1.5051, 1.51636, 1.55435, 1.614, 1.63808, 1.68057, 1.67697, 1.68242, 1.68248, 1.66316, 1.6594, 1.60037, 1.58132, 1.5456, 1.51662, 1.46828, 1.49894, 1.49974, 1.48906, 1.47754, 1.49156, 1.51616, 1.5097, 1.49495, 1.49701, 1.49995, 1.48522, 1.4916, 1.4786, 1.47815, 1.48181, 1.46551, 1.46226, 1.46105, 1.45684, 1.4557, 1.45207, 1.4524, 1.45109, 1.45052, 1.45147, 1.45213, 1.45272, 1.45205, 1.45155, 1.46629, 1.44781, 1.4467, 1.44447, 1.4406, 1.43992, 1.44258, 1.43607, 1.43231, 1.44069, 1.42817, 1.43012, 1.42566, 1.42433, 1.4239, 1.42291, 1.42371, 1.41988, 1.41986, 1.41931, 1.41625, 1.41503, 1.41208, 1.41404, 1.41153, 1.41193, 1.41121, 1.41105, 1.41251, 1.41034, 1.40793, 1.40889, 1.42552, 1.40831, 1.40657, 1.40433, 1.40006, 1.40712, 1.39923, 1.39605, 1.3964, 1.39486, 1.4017, 1.38927, 1.40016, 1.39796, 1.39918, 1.39944, 1.39554, 1.37547, 1.37868, 1.40548, 1.47244, 1.46281, 1.4775, 1.50912, 1.58419, 1.52339, 1.54312, 1.61084, 1.53864, 1.50754, 1.48957, 1.46862, 1.38099, 1.35862, 1.36723, 1.37423, 1.3754, 1.37263, 1.36515, 1.39477, 1.36182, 1.37184, 1.35965, 1.37414, 1.35105, 1.36436, 1.34984, 1.3504, 1.34774, 1.34571, 1.34652, 1.35094, 1.34758
1.68431, 1.68012, 1.67964, 1.67968, 1.67421, 1.67586, 1.67472, 1.67299, 1.67217, 1.67113, 1.66908, 1.67563, 1.66147, 1.66115, 1.66373, 1.65576, 1.66128, 1.6651, 1.65889, 1.66409, 1.63781, 1.66116, 1.63768, 1.6525, 1.69551, 1.73661, 1.74819, 1.78926, 1.80845, 1.85642, 1.86613, 1.99382, 1.86554, 1.8302, 1.72583, 1.69715, 1.62057, 1.59634, 1.6169, 1.61927, 1.61634, 1.6126, 1.60988, 1.60634, 1.6126, 1.60695, 1.61478, 1.59884, 1.60939, 1.58957, 1.58747, 1.5867, 1.58861, 1.58318, 1.58217, 1.58145, 1.58139, 1.58004, 1.57866, 1.57754, 1.57563, 1.57141, 1.56858, 1.5683, 1.56682, 1.56642, 1.56366, 1.56274, 1.55948, 1.57021, 1.575, 1.57053, 1.57124, 1.55539, 1.55021, 1.55748, 1.56931, 1.53949, 1.53715, 1.54511, 1.53562, 1.53526, 1.53462, 1.5347, 1.5343, 1.52975, 1.52874, 1.52802, 1.52696, 1.52675, 1.52334, 1.53618, 1.51863, 1.5208, 1.52369, 1.51941, 1.52374, 1.51755, 1.52584, 1.51379, 1.50061, 1.55817, 1.56238, 1.60352, 1.64245, 1.63851, 1.65942, 1.65617, 1.63774, 1.66793, 1.6415, 1.61022, 1.57616, 1.54095, 1.48538, 1.4635, 1.48433, 1.48183, 1.48274, 1.49477, 1.49215, 1.49988, 1.49586, 1.49755, 1.47688, 1.47881, 1.47647, 1.46467, 1.46123, 1.45866, 1.45588, 1.45446, 1.45499, 1.44754, 1.46133, 1.44835, 1.44737, 1.44567, 1.44597, 1.44647, 1.44517, 1.44554, 1.44369, 1.44191, 1.44087, 1.43935, 1.43708, 1.44536, 1.43522, 1.43317, 1.43463, 1.43137, 1.43432, 1.4306, 1.46088, 1.4331, 1.42822, 1.42912, 1.42422, 1.44079, 1.42777, 1.42924, 1.41855, 1.42107, 1.41562, 1.41119, 1.40918, 1.4078, 1.40858, 1.40522, 1.40424, 1.40248, 1.40517, 1.41323, 1.40058, 1.39872, 1.39829, 1.39838, 1.39636, 1.39439, 1.39397, 1.39328, 1.39459, 1.40154, 1.3918, 1.39141, 1.38949, 1.38892, 1.38948, 1.40141, 1.38933, 1.39243, 1.38945, 1.37559, 1.37555, 1.38285, 1.40874, 1.46125, 1.46501, 1.49874, 1.50019, 1.51068, 1.52593, 1.52833, 1.524, 1.52686, 1.49971, 1.50476, 1.45521, 1.40145, 1.35101, 1.36805, 1.37763, 1.37341, 1.36394, 1.38043, 1.36801, 1.36138, 1.37859, 1.34676, 1.34491, 1.35227, 1.34235, 1.34436, 1.35892, 1.36427, 1.34431, 1.34326, 1.35383, 1.34028
1.67579, 1.67812, 1.67428, 1.67004, 1.66877, 1.66903, 1.69608, 1.66684, 1.66543, 1.66514, 1.66445, 1.67554, 1.65827, 1.66349, 1.6623, 1.64926, 1.65143, 1.64757, 1.65461, 1.65141, 1.66513, 1.65046, 1.62009, 1.64823, 1.68356, 1.71683, 1.73052, 1.77884, 1.79566, 1.83121, 1.84278, 1.85151, 1.83034, 1.82762, 1.7402, 1.68668, 1.62744, 1.59925, 1.6235, 1.61267, 1.6126, 1.60712, 1.62009, 1.60422, 1.61035, 1.59299, 1.58837, 1.59917, 1.59692, 1.58988, 1.57875, 1.57703, 1.57344, 1.58898, 1.56839, 1.56709, 1.56555, 1.57598, 1.56917, 1.56905, 1.57078, 1.56104, 1.5583, 1.55726, 1.56482, 1.56136, 1.56051, 1.55879, 1.55573, 1.56471, 1.56933, 1.58143, 1.56945, 1.56575, 1.55114, 1.5428, 1.55132, 1.55106, 1.54316, 1.53104, 1.54104, 1.53707, 1.52815, 1.52518, 1.53197, 1.54135, 1.54532, 1.5412, 1.52966, 1.52062, 1.5202, 1.51296, 1.50998, 1.50716, 1.50685, 1.5135, 1.51755, 1.52004, 1.51395, 1.4927, 1.47696, 1.54084, 1.54054, 1.57657, 1.59583, 1.61392, 1.64195, 1.6422, 1.64151, 1.63135, 1.61849, 1.60563, 1.57459, 1.50544, 1.48374, 1.46047, 1.4715, 1.48246, 1.47628, 1.47863, 1.47791, 1.48728, 1.49454, 1.4954, 1.48242, 1.47336, 1.46836, 1.4602, 1.45413, 1.45419, 1.4502, 1.44365, 1.44415, 1.44264, 1.44335, 1.44286, 1.44171, 1.44359, 1.44614, 1.44646, 1.44461, 1.44504, 1.44319, 1.43967, 1.43533, 1.43327, 1.43204, 1.43034, 1.43255, 1.43052, 1.42853, 1.42204, 1.42222, 1.41957, 1.41957, 1.42117, 1.42218, 1.41805, 1.41325, 1.41088, 1.41013, 1.40858, 1.40407, 1.4024, 1.40087, 1.40182, 1.40232, 1.40249, 1.40247, 1.39762, 1.39482, 1.39452, 1.39156, 1.39208, 1.39332, 1.39231, 1.38783, 1.38771, 1.38493, 1.38714, 1.39115, 1.38942, 1.38853, 1.38562, 1.38255, 1.382, 1.37942, 1.37893, 1.37617, 1.37743, 1.38856, 1.39306, 1.38611, 1.38564, 1.37902, 1.41359, 1.41248, 1.45745, 1.46153, 1.46614, 1.50614, 1.51375, 1.51927, 1.54004, 1.54349, 1.5255, 1.51281, 1.49065, 1.451, 1.37096, 1.35557, 1.34406, 1.36503, 1.3553, 1.35677, 1.35031, 1.3621, 1.34716, 1.34644, 1.34401, 1.34163, 1.33819, 1.3378, 1.33524, 1.34074, 1.33884, 1.34061, 1.33757, 1.33782, 1.33541
1.68022, 1.67922, 1.67862, 1.67498, 1.67599, 1.67276, 1.66935, 1.66912, 1.66602, 1.66845, 1.6642, 1.66276, 1.67611, 1.66446, 1.65204, 1.66451, 1.6498, 1.65258, 1.64921, 1.64908, 1.65474, 1.63862, 1.61127, 1.63378, 1.68718, 1.7236, 1.75021, 1.78874, 1.81659, 1.86146, 1.85425, 1.87227, 1.88195, 1.83504, 1.75462, 1.73567, 1.60443, 1.57907, 1.61012, 1.61654, 1.61359, 1.60693, 1.59848, 1.59855, 1.59682, 1.60122, 1.58978, 1.58869, 1.58778, 1.58694, 1.58232, 1.58131, 1.58446, 1.5798, 1.58961, 1.56973, 1.5675, 1.56503, 1.5642, 1.56319, 1.5643, 1.56279, 1.56862, 1.55916, 1.55777, 1.55908, 1.55936, 1.55918, 1.55477, 1.55136, 1.56428, 1.56194, 1.55836, 1.57212, 1.5473, 1.55403, 1.54106, 1.55115, 1.53995, 1.53218, 1.53134, 1.53513, 1.52797, 1.52675, 1.5248, 1.52157, 1.53719, 1.51337, 1.51277, 1.51648, 1.51071, 1.50631, 1.50613, 1.51975, 1.50295, 1.50615, 1.50971, 1.51127, 1.51795, 1.50881, 1.49362, 1.50704, 1.55747, 1.57933, 1.59654, 1.60643, 1.64815, 1.64279, 1.64284, 1.62963, 1.62011, 1.5849, 1.5419, 1.52628, 1.52736, 1.45478, 1.47848, 1.4731, 1.47555, 1.48476, 1.48468, 1.4929, 1.48505, 1.50001, 1.49922, 1.46173, 1.46433, 1.45534, 1.45309, 1.45131, 1.44241, 1.44152, 1.44168, 1.44163, 1.44092, 1.44077, 1.44206, 1.44118, 1.4416, 1.43972, 1.43853, 1.43771, 1.43598, 1.43434, 1.43341, 1.43166, 1.42932, 1.42733, 1.42576, 1.42497, 1.4224, 1.4364, 1.41966, 1.42198, 1.42403, 1.42609, 1.4342, 1.42338, 1.41736, 1.41526, 1.40625, 1.40531, 1.40248, 1.4193, 1.39782, 1.39829, 1.39626, 1.39437, 1.3948, 1.39104, 1.38926, 1.38804, 1.38723, 1.38652, 1.3856, 1.39207, 1.38338, 1.38456, 1.38447, 1.38469, 1.39281, 1.3837, 1.38131, 1.37882, 1.37583, 1.3747, 1.37138, 1.37232, 1.37081, 1.38554, 1.38459, 1.38526, 1.39171, 1.38993, 1.34383, 1.35241, 1.41082, 1.43273, 1.4541, 1.47469, 1.4909, 1.4185, 1.53304, 1.5521, 1.56215, 1.55193, 1.54483, 1.49708, 1.41608, 1.40608, 1.34773, 1.36506, 1.36918, 1.37849, 1.36232, 1.35385, 1.35044, 1.34094, 1.33839, 1.33652, 1.33693, 1.33695, 1.33497, 1.35533, 1.34416, 1.3339, 1.33057, 1.33182, 1.33017, 1.33132
1.68233, 1.69558, 1.6818, 1.68215, 1.67891, 1.67608, 1.67288, 1.67187, 1.68386, 1.68176, 1.67979, 1.66174, 1.67123, 1.65895, 1.65557, 1.65353, 1.64694, 1.64959, 1.65061, 1.64429, 1.67199, 1.64528, 1.61663, 1.65817, 1.67725, 1.69909, 1.70365, 1.76054, 1.82732, 1.84794, 1.87857, 1.88182, 1.86812, 1.83406, 1.75829, 1.70014, 1.63402, 1.60613, 1.62289, 1.61756, 1.62686, 1.61347, 1.61308, 1.61245, 1.60667, 1.59425, 1.61716, 1.59155, 1.59293, 1.58867, 1.58806, 1.58537, 1.59497, 1.58587, 1.59937, 1.57287, 1.57116, 1.56921, 1.57521, 1.56484, 1.56602, 1.56306, 1.56207, 1.55837, 1.55775, 1.55427, 1.55751, 1.55333, 1.55507, 1.548, 1.54485, 1.5469, 1.5574, 1.56143, 1.56198, 1.55393, 1.54988, 1.55272, 1.54283, 1.53623, 1.54322, 1.54019, 1.53131, 1.52678, 1.52528, 1.53101, 1.5212, 1.53876, 1.5163, 1.51318, 1.51702, 1.51812, 1.51283, 1.5196, 1.50669, 1.50977, 1.51959, 1.5164, 1.52917, 1.51998, 1.49522, 1.49984, 1.54049, 1.6309, 1.60697, 1.61399, 1.65547, 1.65697, 1.6469, 1.64199, 1.60615, 1.57542, 1.55521, 1.52699, 1.51739, 1.46521, 1.46579, 1.4922, 1.48796, 1.47939, 1.47799, 1.49511, 1.48847, 1.47502, 1.49214, 1.47216, 1.46423, 1.4551, 1.46016, 1.45068, 1.45039, 1.45256, 1.45045, 1.45213, 1.44859, 1.4479, 1.45258, 1.44545, 1.48422, 1.44051, 1.43952, 1.43802, 1.43651, 1.43514, 1.43528, 1.43445, 1.43339, 1.43169, 1.43011, 1.42909, 1.42855, 1.42964, 1.42449, 1.43419, 1.4241, 1.42286, 1.42251, 1.41961, 1.41886, 1.4157, 1.41355, 1.41257, 1.41121, 1.40626, 1.40887, 1.40303, 1.40563, 1.39927, 1.4001, 1.39925, 1.39816, 1.39645, 1.39467, 1.39349, 1.39241, 1.39245, 1.39205, 1.3913, 1.39199, 1.39511, 1.38743, 1.40056, 1.40898, 1.40286, 1.38231, 1.38295, 1.38798, 1.37766, 1.37824, 1.3827, 1.38894, 1.3888, 1.40388, 1.37377, 1.3362, 1.34709, 1.3774, 1.42975, 1.4473, 1.47582, 1.49141, 1.51136, 1.52461, 1.53989, 1.55612, 1.56728, 1.54355, 1.5106, 1.47951, 1.39619, 1.35683, 1.3658, 1.37173, 1.36575, 1.37058, 1.37201, 1.36853, 1.35799, 1.35398, 1.34738, 1.36353, 1.34663, 1.34125, 1.35467, 1.3386, 1.33771, 1.33671, 1.33969, 1.33479, 1.33369
1.67455, 1.6726, 1.67236, 1.66831, 1.66746, 1.66223, 1.66173, 1.65967, 1.65817, 1.65512, 1.65283, 1.6486, 1.65039, 1.64184, 1.63908, 1.63801, 1.64584, 1.64153, 1.63302, 1.63168, 1.63321, 1.6242, 1.59552, 1.62201, 1.66786, 1.71657, 1.71127, 1.72388, 1.87054, 1.82118, 1.86991, 1.88592, 1.8897, 1.89012, 1.75466, 1.68557, 1.62413, 1.55403, 1.61031, 1.60896, 1.60211, 1.59771, 1.6032, 1.58639, 1.58545, 1.58365, 1.58266, 1.57957, 1.5779, 1.57601, 1.57503, 1.57261, 1.57105, 1.57142, 1.56882, 1.56849, 1.56727, 1.56401, 1.56176, 1.56049, 1.55804, 1.55687, 1.55497, 1.55139, 1.55365, 1.54684, 1.55375, 1.55514, 1.53912, 1.53784, 1.53431, 1.53501, 1.53702, 1.52771, 1.54817, 1.55674, 1.54388, 1.53666, 1.53903, 1.52371, 1.52345, 1.51993, 1.51633, 1.51443, 1.51245, 1.51092, 1.50895, 1.50717, 1.50692, 1.50526, 1.50563, 1.49923, 1.49843, 1.49599, 1.50969, 1.50922, 1.50362, 1.50558, 1.50932, 1.49129, 1.47221, 1.49663, 1.53046, 1.56607, 1.60012, 1.62339, 1.63681, 1.6352, 1.63447, 1.6287, 1.61826, 1.59883, 1.56246, 1.52248, 1.48355, 1.46467, 1.4521, 1.46926, 1.47138, 1.47146, 1.48887, 1.46892, 1.46532, 1.47598, 1.48028, 1.48852, 1.47729, 1.44698, 1.45782, 1.4429, 1.44217, 1.44074, 1.43792, 1.44859, 1.43735, 1.4357, 1.43327, 1.43217, 1.43278, 1.42872, 1.42707, 1.4235, 1.42258, 1.42033, 1.41946, 1.41953, 1.41902, 1.41917, 1.41586, 1.45085, 1.42608, 1.41099, 1.40948, 1.40702, 1.40662, 1.40524, 1.40585, 1.4029, 1.40189, 1.40039, 1.39931, 1.40026, 1.39706, 1.39614, 1.39375, 1.39095, 1.38951, 1.38714, 1.38751, 1.38535, 1.38315, 1.38271, 1.38196, 1.37924, 1.37834, 1.37797, 1.37773, 1.37777, 1.37504, 1.37315, 1.37129, 1.37136, 1.36961, 1.36857, 1.36661, 1.3659, 1.36507, 1.36619, 1.36445, 1.36465, 1.36452, 1.38796, 1.3803, 1.34941, 1.32934, 1.33139, 1.33403, 1.38242, 1.41617, 1.37544, 1.31593, 1.5073, 1.53364, 1.52378, 1.53581, 1.55841, 1.54766, 1.49144, 1.46442, 1.37162, 1.34396, 1.31603, 1.36016, 1.34781, 1.34851, 1.34756, 1.34842, 1.34148, 1.33658, 1.33844, 1.35093, 1.33107, 1.33281, 1.32642, 1.32417, 1.33349, 1.34536, 1.32043, 1.3661, 1.32244
1.67217, 1.67102, 1.6683, 1.67144, 1.66459, 1.66172, 1.65998, 1.66817, 1.65732, 1.65162, 1.64857, 1.64487, 1.64263, 1.63742, 1.63706, 1.63617, 1.63187, 1.63077, 1.63616, 1.63518, 1.63373, 1.61651, 1.58044, 1.60153, 1.6091, 1.62126, 1.66842, 1.74164, 1.79278, 1.80129, 1.8585, 1.86887, 1.87871, 1.80821, 1.77213, 1.70034, 1.62876, 1.57499, 1.59973, 1.60183, 1.59747, 1.60679, 1.60262, 1.59504, 1.58636, 1.58959, 1.58018, 1.57859, 1.57615, 1.57541, 1.57868, 1.57196, 1.57062, 1.56847, 1.56672, 1.56524, 1.56386, 1.56297, 1.56134, 1.56026, 1.55817, 1.5558, 1.55387, 1.55034, 1.5477, 1.544, 1.54126, 1.53848, 1.54635, 1.54633, 1.53384, 1.52642, 1.52607, 1.53432, 1.54586, 1.54354, 1.54503, 1.53872, 1.52519, 1.53704, 1.53352, 1.53749, 1.51989, 1.51982, 1.51211, 1.51234, 1.51118, 1.50921, 1.50844, 1.50511, 1.50589, 1.50294, 1.50088, 1.50029, 1.50329, 1.50599, 1.49904, 1.51893, 1.50584, 1.49486, 1.47084, 1.488, 1.53108, 1.5679, 1.5783, 1.62315, 1.64491, 1.65055, 1.64486, 1.63939, 1.62262, 1.61332, 1.55178, 1.52807, 1.51928, 1.48185, 1.44764, 1.45701, 1.46827, 1.47163, 1.46742, 1.46799, 1.4549, 1.47146, 1.46787, 1.46774, 1.46501, 1.45388, 1.44446, 1.44221, 1.43979, 1.44673, 1.4349, 1.43462, 1.44011, 1.43181, 1.43036, 1.42998, 1.42675, 1.42348, 1.42235, 1.42016, 1.41848, 1.41619, 1.41524, 1.41477, 1.41284, 1.41206, 1.41055, 1.40981, 1.4089, 1.40879, 1.40487, 1.40197, 1.39788, 1.39714, 1.39634, 1.39579, 1.39461, 1.39511, 1.39617, 1.39431, 1.39431, 1.39289, 1.39338, 1.39347, 1.39129, 1.38813, 1.3863, 1.38517, 1.38625, 1.38173, 1.3811, 1.37937, 1.37734, 1.37739, 1.37463, 1.38229, 1.37227, 1.37026, 1.37021, 1.36971, 1.36404, 1.36554, 1.36431, 1.36259, 1.36378, 1.36325, 1.36012, 1.36061, 1.36019, 1.36573, 1.36647, 1.36544, 1.33808, 1.35772, 1.39129, 1.43426, 1.4454, 1.50186, 1.50838, 1.50637, 1.49323, 1.53075, 1.54861, 1.53171, 1.52405, 1.51249, 1.47183, 1.35919, 1.3465, 1.344, 1.34696, 1.35566, 1.35391, 1.33745, 1.33268, 1.32978, 1.32644, 1.33234, 1.33127, 1.32374, 1.32358, 1.32258, 1.32092, 1.31954, 1.31857, 1.31955, 1.32668, 1.31656
1.66562, 1.66498, 1.66195, 1.66167, 1.65858, 1.65578, 1.65426, 1.65124, 1.64942, 1.647, 1.64484, 1.64459, 1.64072, 1.64014, 1.63765, 1.63553, 1.63254, 1.63113, 1.63079, 1.63786, 1.63424, 1.62763, 1.61615, 1.62129, 1.65581, 1.71938, 1.72993, 1.74523, 1.82342, 1.84301, 1.86774, 1.90077, 1.91343, 1.89633, 1.81963, 1.67833, 1.61395, 1.57607, 1.597, 1.60051, 1.5998, 1.60193, 1.60039, 1.58755, 1.58671, 1.58489, 1.58236, 1.57906, 1.58295, 1.57623, 1.57286, 1.57108, 1.56847, 1.56762, 1.56659, 1.56433, 1.5627, 1.56311, 1.56224, 1.56067, 1.55863, 1.55642, 1.55469, 1.5515, 1.54728, 1.54546, 1.54324, 1.54013, 1.53746, 1.53609, 1.53333, 1.53365, 1.53127, 1.53264, 1.53387, 1.54499, 1.54839, 1.5313, 1.52991, 1.52288, 1.53385, 1.51952, 1.51834, 1.51773, 1.51743, 1.51635, 1.51585, 1.51284, 1.51255, 1.52652, 1.50806, 1.50639, 1.50404, 1.50335, 1.50176, 1.50057, 1.5018, 1.50668, 1.51345, 1.50929, 1.47471, 1.47958, 1.5195, 1.55112, 1.58015, 1.60352, 1.60728, 1.60627, 1.623, 1.62414, 1.60947, 1.62373, 1.56203, 1.56049, 1.47018, 1.45714, 1.44462, 1.47032, 1.47339, 1.47547, 1.47692, 1.46085, 1.45824, 1.46514, 1.47089, 1.4817, 1.47373, 1.48505, 1.45106, 1.44585, 1.44384, 1.45003, 1.43782, 1.43672, 1.43727, 1.43434, 1.43087, 1.42866, 1.42631, 1.4261, 1.42421, 1.42308, 1.42102, 1.41975, 1.41587, 1.41602, 1.41508, 1.41243, 1.41322, 1.41063, 1.40989, 1.4089, 1.40712, 1.40634, 1.40483, 1.40468, 1.40304, 1.40178, 1.40085, 1.3992, 1.39865, 1.39823, 1.39899, 1.39672, 1.39792, 1.39169, 1.3914, 1.39088, 1.38937, 1.38759, 1.38539, 1.3921, 1.37961, 1.37771, 1.37676, 1.37462, 1.37387, 1.37197, 1.37119, 1.36941, 1.40257, 1.37184, 1.36746, 1.36871, 1.37783, 1.3643, 1.37146, 1.36247, 1.36124, 1.36041, 1.36041, 1.37211, 1.36179, 1.35718, 1.34014, 1.36704, 1.44033, 1.43464, 1.47481, 1.47936, 1.50661, 1.51664, 1.54049, 1.54437, 1.5413, 1.5315, 1.51951, 1.47815, 1.43456, 1.38562, 1.31971, 1.30963, 1.33322, 1.36354, 1.3372, 1.33337, 1.33285, 1.33368, 1.32881, 1.32626, 1.32591, 1.32403, 1.32068, 1.32247, 1.31869, 1.31825, 1.31665, 1.31738, 1.3188, 1.31598
1.66316, 1.66036, 1.65811, 1.65531, 1.65242, 1.65219, 1.65078, 1.64708, 1.6456, 1.64828, 1.64355, 1.64774, 1.63752, 1.64059, 1.64824, 1.63827, 1.63763, 1.63697, 1.64726, 1.63801, 1.64327, 1.6378, 1.61695, 1.61616, 1.6556, 1.69499, 1.73006, 1.77278, 1.8207, 1.82758, 1.90216, 1.90416, 1.88279, 1.8728, 1.81049, 1.66158, 1.6193, 1.57215, 1.60318, 1.60954, 1.60529, 1.60285, 1.59352, 1.59006, 1.58463, 1.59524, 1.57963, 1.57902, 1.57662, 1.57396, 1.56948, 1.56826, 1.57237, 1.56265, 1.55838, 1.55475, 1.55219, 1.55447, 1.55792, 1.55749, 1.55739, 1.55599, 1.55218, 1.55166, 1.55095, 1.54511, 1.54472, 1.54217, 1.54026, 1.53811, 1.53775, 1.53667, 1.5345, 1.53094, 1.54702, 1.54424, 1.54342, 1.54983, 1.55358, 1.53712, 1.52486, 1.52617, 1.52084, 1.52503, 1.51875, 1.53337, 1.5156, 1.51388, 1.51398, 1.51211, 1.51276, 1.5174, 1.50727, 1.50412, 1.50295, 1.50158, 1.50603, 1.50266, 1.50276, 1.49408, 1.4735, 1.49542, 1.50555, 1.5266, 1.53709, 1.60671, 1.60628, 1.62258, 1.63066, 1.63384, 1.62453, 1.61399, 1.57257, 1.54574, 1.50558, 1.46225, 1.45299, 1.46807, 1.47588, 1.47893, 1.4755, 1.45769, 1.47126, 1.45822, 1.46247, 1.46515, 1.47612, 1.46751, 1.48333, 1.45129, 1.45165, 1.44977, 1.4541, 1.44057, 1.44654, 1.43494, 1.43389, 1.45017, 1.43188, 1.43102, 1.42921, 1.42743, 1.42724, 1.42576, 1.42385, 1.42135, 1.41942, 1.41725, 1.41913, 1.41757, 1.41393, 1.41294, 1.41256, 1.41292, 1.41202, 1.41121, 1.4097, 1.40876, 1.40741, 1.40536, 1.40563, 1.40409, 1.40386, 1.40193, 1.40049, 1.39761, 1.39504, 1.39506, 1.39301, 1.39229, 1.3919, 1.38826, 1.38196, 1.38423, 1.38331, 1.38266, 1.38131, 1.37976, 1.38552, 1.37884, 1.37571, 1.37479, 1.37368, 1.38989, 1.3704, 1.38138, 1.36768, 1.36887, 1.36784, 1.36508, 1.36903, 1.38434, 1.38453, 1.38042, 1.35044, 1.36099, 1.36462, 1.40152, 1.4401, 1.47371, 1.48518, 1.49906, 1.54092, 1.5549, 1.54418, 1.52684, 1.50925, 1.47204, 1.43106, 1.37846, 1.33543, 1.31639, 1.33967, 1.34837, 1.34376, 1.33405, 1.33466, 1.32928, 1.32901, 1.32955, 1.32821, 1.32936, 1.32696, 1.32623, 1.32469, 1.32428, 1.32254, 1.32462, 1.3231, 1.32006
1.66415, 1.66181, 1.66053, 1.6576, 1.65518, 1.65836, 1.65676, 1.65472, 1.65734, 1.6445, 1.6412, 1.64222, 1.64342, 1.64169, 1.63489, 1.63562, 1.63668, 1.63688, 1.63688, 1.63747, 1.6438, 1.63271, 1.61458, 1.60901, 1.6549, 1.68785, 1.71733, 1.75058, 1.786, 1.85862, 1.88234, 1.88763, 1.87691, 1.84431, 1.78686, 1.71661, 1.65595, 1.57935, 1.60332, 1.6008, 1.60554, 1.59259, 1.58855, 1.58652, 1.58369, 1.58061, 1.5788, 1.57493, 1.57474, 1.56977, 1.59588, 1.56726, 1.56448, 1.56841, 1.56114, 1.55813, 1.5564, 1.574, 1.56089, 1.56031, 1.57298, 1.55728, 1.55239, 1.55354, 1.54531, 1.54421, 1.54324, 1.54074, 1.53986, 1.53715, 1.53475, 1.53395, 1.54836, 1.5314, 1.53804, 1.52448, 1.53263, 1.54803, 1.53726, 1.53647, 1.51985, 1.52588, 1.5159, 1.52071, 1.51394, 1.52328, 1.51527, 1.51377, 1.51619, 1.50403, 1.5075, 1.50194, 1.50003, 1.4989, 1.49678, 1.49956, 1.50252, 1.50763, 1.49845, 1.49347, 1.48866, 1.47205, 1.51632, 1.53005, 1.57518, 1.60614, 1.60439, 1.6157, 1.61574, 1.61285, 1.60062, 1.596, 1.57445, 1.54408, 1.55241, 1.44628, 1.45344, 1.46766, 1.4653, 1.46056, 1.46374, 1.45815, 1.44828, 1.44827, 1.44705, 1.46779, 1.46553, 1.46745, 1.46791, 1.44368, 1.4473, 1.44024, 1.4366, 1.43536, 1.43378, 1.43374, 1.42903, 1.43024, 1.42935, 1.42949, 1.42989, 1.42975, 1.42604, 1.42576, 1.42384, 1.42204, 1.41613, 1.41403, 1.41654, 1.41905, 1.41631, 1.41387, 1.41094, 1.4102, 1.41231, 1.41153, 1.4106, 1.40875, 1.40767, 1.40824, 1.40565, 1.40328, 1.40437, 1.39978, 1.39543, 1.39476, 1.3948, 1.39491, 1.39202, 1.39055, 1.3871, 1.38729, 1.38356, 1.38237, 1.38194, 1.37909, 1.37843, 1.37548, 1.37549, 1.37477, 1.37842, 1.3731, 1.37068, 1.37114, 1.37835, 1.37009, 1.37025, 1.37933, 1.37127, 1.36307, 1.36449, 1.36415, 1.36741, 1.368, 1.35319, 1.35054, 1.36963, 1.45193, 1.48233, 1.48201, 1.48533, 1.50973, 1.54173, 1.55445, 1.56882, 1.55101, 1.54898, 1.49005, 1.46267, 1.38737, 1.31191, 1.32776, 1.34449, 1.35056, 1.34402, 1.34626, 1.33093, 1.32884, 1.32945, 1.3285, 1.32699, 1.32589, 1.32586, 1.32431, 1.32968, 1.33245, 1.32488, 1.32136, 1.3203, 1.31774
1.67011, 1.66842, 1.66646, 1.6663, 1.67632, 1.67181, 1.66298, 1.66588, 1.65793, 1.65198, 1.65084, 1.64941, 1.64593, 1.64432, 1.64368, 1.64107, 1.63906, 1.63604, 1.63536, 1.63469, 1.63605, 1.63728, 1.61249, 1.60276, 1.65624, 1.66072, 1.71701, 1.76655, 1.80975, 1.83866, 1.87867, 1.89815, 1.93106, 1.89673, 1.79468, 1.72797, 1.63109, 1.56905, 1.59288, 1.6036, 1.59938, 1.60286, 1.58895, 1.59668, 1.59946, 1.58364, 1.58235, 1.57875, 1.57792, 1.57516, 1.5718, 1.56965, 1.56799, 1.56493, 1.56372, 1.56154, 1.56252, 1.56114, 1.56187, 1.55854, 1.55769, 1.55511, 1.55226, 1.55002, 1.54875, 1.54722, 1.54554, 1.54352, 1.54142, 1.54021, 1.53749, 1.53556, 1.53408, 1.53981, 1.53079, 1.53057, 1.53012, 1.54402, 1.54956, 1.53069, 1.53107, 1.52968, 1.52336, 1.51638, 1.51248, 1.5162, 1.5089, 1.50822, 1.50682, 1.5063, 1.50295, 1.50262, 1.49945, 1.4975, 1.49605, 1.49578, 1.50374, 1.50396, 1.50572, 1.50066, 1.48558, 1.48241, 1.50252, 1.54547, 1.54526, 1.55395, 1.58306, 1.59587, 1.59966, 1.58325, 1.59938, 1.59065, 1.56836, 1.55038, 1.5307, 1.45165, 1.45994, 1.45036, 1.46705, 1.47237, 1.47138, 1.44657, 1.45159, 1.44793, 1.44772, 1.4554, 1.4565, 1.48481, 1.46124, 1.45818, 1.45414, 1.44025, 1.43685, 1.43428, 1.43344, 1.43428, 1.43035, 1.42911, 1.42932, 1.42775, 1.42719, 1.42612, 1.42276, 1.42214, 1.42003, 1.41952, 1.41731, 1.41545, 1.41433, 1.41355, 1.41228, 1.41204, 1.41046, 1.40853, 1.40758, 1.40712, 1.40552, 1.40521, 1.40307, 1.40112, 1.39889, 1.3984, 1.39731, 1.39554, 1.39491, 1.39274, 1.39058, 1.38944, 1.38788, 1.38545, 1.38453, 1.38153, 1.37966, 1.37914, 1.37773, 1.37697, 1.37755, 1.37574, 1.37419, 1.37477, 1.37294, 1.37174, 1.37089, 1.37151, 1.36831, 1.37071, 1.36749, 1.36765, 1.37371, 1.36698, 1.36745, 1.36951, 1.37137, 1.36926, 1.35093, 1.34682, 1.38452, 1.40744, 1.4364, 1.46484, 1.47922, 1.50916, 1.56299, 1.55089, 1.54862, 1.54178, 1.52259, 1.46518, 1.42209, 1.39657, 1.32528, 1.32659, 1.34355, 1.34361, 1.38137, 1.34048, 1.33315, 1.3291, 1.32911, 1.327, 1.32613, 1.32729, 1.32779, 1.32551, 1.32462, 1.34405, 1.32431, 1.32614, 1.32751, 1.32172
1.67193, 1.66995, 1.66864, 1.66678, 1.66555, 1.66505, 1.66302, 1.66085, 1.65856, 1.65731, 1.65265, 1.65193, 1.64932, 1.64546, 1.64502, 1.6428, 1.64093, 1.63806, 1.63664, 1.6472, 1.64372, 1.64143, 1.63422, 1.60845, 1.63335, 1.66136, 1.68755, 1.72747, 1.78206, 1.83154, 1.85865, 1.8764, 1.87741, 1.8675, 1.84033, 1.702, 1.62727, 1.58058, 1.60205, 1.60626, 1.60951, 1.59653, 1.5929, 1.59033, 1.5956, 1.5834, 1.58149, 1.59661, 1.5932, 1.59149, 1.57986, 1.57784, 1.57009, 1.56824, 1.56818, 1.57539, 1.56508, 1.56323, 1.56148, 1.56177, 1.55624, 1.55451, 1.55361, 1.55268, 1.55004, 1.54848, 1.545, 1.5454, 1.55021, 1.53974, 1.53747, 1.53666, 1.53512, 1.53328, 1.55585, 1.52965, 1.53145, 1.53816, 1.55522, 1.55338, 1.53509, 1.53169, 1.528, 1.52336, 1.51344, 1.52746, 1.51848, 1.51727, 1.50754, 1.52672, 1.50274, 1.5133, 1.49888, 1.49721, 1.50183, 1.50579, 1.50562, 1.51372, 1.50976, 1.49999, 1.46748, 1.47377, 1.48203, 1.49497, 1.52769, 1.56807, 1.597, 1.61212, 1.64756, 1.60585, 1.60341, 1.5915, 1.57529, 1.53804, 1.52777, 1.49151, 1.44299, 1.45836, 1.47385, 1.46501, 1.47271, 1.46681, 1.45077, 1.44959, 1.45432, 1.44915, 1.46524, 1.45652, 1.47295, 1.47578, 1.45166, 1.44983, 1.44132, 1.43638, 1.43333, 1.44361, 1.43168, 1.42931, 1.42937, 1.43355, 1.42611, 1.42487, 1.42335, 1.42726, 1.42289, 1.4192, 1.41791, 1.41888, 1.41598, 1.41439, 1.411, 1.41051, 1.40901, 1.40861, 1.40702, 1.40625, 1.40348, 1.40478, 1.40225, 1.4014, 1.40064, 1.3982, 1.3961, 1.3949, 1.39824, 1.3921, 1.3893, 1.38868, 1.38785, 1.38718, 1.38492, 1.38368, 1.38162, 1.38161, 1.3798, 1.37882, 1.37855, 1.37619, 1.37468, 1.37444, 1.37413, 1.37254, 1.37105, 1.37524, 1.371, 1.37043, 1.38454, 1.36731, 1.36742, 1.36753, 1.37568, 1.36589, 1.38259, 1.38514, 1.36525, 1.35532, 1.38018, 1.42693, 1.43278, 1.46884, 1.5058, 1.52967, 1.58972, 1.58059, 1.5768, 1.58036, 1.57168, 1.56386, 1.45845, 1.42064, 1.33606, 1.3271, 1.34074, 1.34833, 1.35389, 1.35408, 1.33721, 1.33491, 1.33474, 1.3323, 1.33133, 1.34956, 1.34371, 1.32766, 1.34421, 1.32675, 1.32613, 1.32996, 1.323, 1.3206
1.67232, 1.67126, 1.66896, 1.66653, 1.66593, 1.66539, 1.66451, 1.66519, 1.65566, 1.65464, 1.65922, 1.65365, 1.65644, 1.66007, 1.64392, 1.64147, 1.63858, 1.63803, 1.63424, 1.64131, 1.64277, 1.6349, 1.6207, 1.59933, 1.60806, 1.67517, 1.69837, 1.72647, 1.74991, 1.80393, 1.84557, 1.88948, 1.94465, 1.89025, 1.7661, 1.72696, 1.61043, 1.56967, 1.58123, 1.61798, 1.59803, 1.59974, 1.58814, 1.58307, 1.5846, 1.57933, 1.57989, 1.57563, 1.57196, 1.57153, 1.56893, 1.56752, 1.56732, 1.57159, 1.56599, 1.56302, 1.56139, 1.56059, 1.55908, 1.55896, 1.55577, 1.55403, 1.5525, 1.55245, 1.55137, 1.54872, 1.57781, 1.54355, 1.53997, 1.53777, 1.54411, 1.53568, 1.54434, 1.53248, 1.54047, 1.53088, 1.52615, 1.5332, 1.54719, 1.54801, 1.54767, 1.54738, 1.51909, 1.51189, 1.5089, 1.50935, 1.51192, 1.50587, 1.50551, 1.50244, 1.50257, 1.50116, 1.49878, 1.49765, 1.49563, 1.49666, 1.49656, 1.50765, 1.50989, 1.51031, 1.46559, 1.46542, 1.52947, 1.52658, 1.53079, 1.58089, 1.59699, 1.60602, 1.60593, 1.63032, 1.58667, 1.59642, 1.56965, 1.51234, 1.54707, 1.49279, 1.45063, 1.46503, 1.46427, 1.47195, 1.46067, 1.457, 1.45052, 1.44822, 1.45848, 1.44989, 1.44866, 1.44925, 1.45773, 1.4681, 1.45483, 1.44927, 1.441, 1.4515, 1.43585, 1.43048, 1.42827, 1.4279, 1.42749, 1.42574, 1.42536, 1.42325, 1.42231, 1.42085, 1.41878, 1.41887, 1.41888, 1.41531, 1.41479, 1.41295, 1.41214, 1.41157, 1.41148, 1.41173, 1.40902, 1.40709, 1.40544, 1.40323, 1.40239, 1.40027, 1.39814, 1.39816, 1.39735, 1.39637, 1.39582, 1.38956, 1.38852, 1.38799, 1.38823, 1.38498, 1.38168, 1.38114, 1.38201, 1.38309, 1.38178, 1.3811, 1.3773, 1.37586, 1.37549, 1.37557, 1.37587, 1.37472, 1.37412, 1.37281, 1.37238, 1.37138, 1.37207, 1.36502, 1.36537, 1.36473, 1.37432, 1.38185, 1.37105, 1.36762, 1.36058, 1.33307, 1.36596, 1.42648, 1.45025, 1.45611, 1.48874, 1.51721, 1.54557, 1.58082, 1.57162, 1.56054, 1.55596, 1.48968, 1.4705, 1.40297, 1.34291, 1.34499, 1.34738, 1.36036, 1.35426, 1.34803, 1.34704, 1.34215, 1.3395, 1.33723, 1.33642, 1.34651, 1.33367, 1.33018, 1.32749, 1.32961, 1.3287, 1.33671, 1.32381, 1.32271
1.67127, 1.66801, 1.6645, 1.66323, 1.66291, 1.66077, 1.65797, 1.65619, 1.65394, 1.65251, 1.64943, 1.64984, 1.64868, 1.64536, 1.64233, 1.6409, 1.63918, 1.63729, 1.64427, 1.63447, 1.64144, 1.63636, 1.62829, 1.61711, 1.64198, 1.66538, 1.6835, 1.69257, 1.76111, 1.79657, 1.85538, 1.87743, 1.94791, 1.96274, 1.8158, 1.70266, 1.58698, 1.58481, 1.59596, 1.5998, 1.61037, 1.60964, 1.58886, 1.58826, 1.60328, 1.58358, 1.57877, 1.57683, 1.57679, 1.57308, 1.57164, 1.57255, 1.57148, 1.57076, 1.56834, 1.56783, 1.56227, 1.57152, 1.56143, 1.58497, 1.55751, 1.55553, 1.55345, 1.55266, 1.55073, 1.54849, 1.54509, 1.54404, 1.54396, 1.54166, 1.53888, 1.53645, 1.53431, 1.53199, 1.53108, 1.5271, 1.52754, 1.52636, 1.52559, 1.52715, 1.54001, 1.54462, 1.54034, 1.5339, 1.51444, 1.51997, 1.51351, 1.50995, 1.50736, 1.50656, 1.50742, 1.5045, 1.50415, 1.50185, 1.50168, 1.51022, 1.4995, 1.49934, 1.4999, 1.5101, 1.47962, 1.49876, 1.49214, 1.52728, 1.53814, 1.57785, 1.592, 1.59393, 1.58985, 1.59881, 1.59322, 1.58647, 1.58432, 1.53532, 1.52339, 1.47035, 1.46741, 1.47466, 1.47972, 1.47587, 1.4642, 1.47531, 1.45419, 1.45061, 1.44978, 1.44837, 1.44702, 1.44801, 1.45538, 1.46655, 1.45904, 1.4544, 1.45938, 1.44488, 1.43433, 1.44469, 1.42951, 1.4283, 1.42664, 1.42639, 1.42513, 1.42366, 1.42274, 1.42121, 1.42002, 1.41993, 1.4172, 1.41688, 1.41577, 1.41572, 1.41435, 1.41333, 1.41224, 1.41055, 1.40953, 1.40798, 1.40725, 1.40446, 1.40224, 1.40058, 1.40018, 1.39818, 1.39649, 1.39484, 1.39349, 1.39129, 1.39004, 1.38678, 1.38668, 1.3851, 1.38381, 1.38207, 1.38147, 1.38044, 1.37945, 1.37836, 1.37788, 1.37611, 1.3762, 1.37459, 1.37531, 1.37368, 1.37303, 1.37277, 1.37006, 1.37131, 1.36764, 1.36763, 1.363, 1.36119, 1.36002, 1.36778, 1.3616, 1.37169, 1.37584, 1.34095, 1.37015, 1.40074, 1.42988, 1.44474, 1.48256, 1.51331, 1.55647, 1.59404, 1.39864, 1.39696, 1.55017, 1.52492, 1.46623, 1.38925, 1.33339, 1.33069, 1.35419, 1.35751, 1.35799, 1.35499, 1.34363, 1.3426, 1.33847, 1.33949, 1.33534, 1.33573, 1.33435, 1.34087, 1.33461, 1.33381, 1.32906, 1.32568, 1.32397, 1.32225
1.67201, 1.66848, 1.67052, 1.66527, 1.66399, 1.66115, 1.65656, 1.65509, 1.65373, 1.65019, 1.64879, 1.64513, 1.65181, 1.64201, 1.65562, 1.64918, 1.64144, 1.63804, 1.63647, 1.64829, 1.63821, 1.64947, 1.63639, 1.61311, 1.61619, 1.66519, 1.71656, 1.72427, 1.7548, 1.79107, 1.87218, 1.90752, 1.92358, 1.91139, 1.87901, 1.72883, 1.64235, 1.58313, 1.60269, 1.60311, 1.60787, 1.60313, 1.61017, 1.59087, 1.58835, 1.58615, 1.5845, 1.58228, 1.58076, 1.57792, 1.57547, 1.57789, 1.58465, 1.57215, 1.5698, 1.56699, 1.56431, 1.56378, 1.5622, 1.56122, 1.56563, 1.57257, 1.55626, 1.55412, 1.55263, 1.55123, 1.55047, 1.54942, 1.54726, 1.54421, 1.54098, 1.53966, 1.53731, 1.53503, 1.5312, 1.531, 1.53897, 1.53739, 1.52696, 1.54048, 1.54078, 1.54414, 1.53792, 1.52501, 1.53656, 1.52713, 1.52065, 1.54002, 1.52233, 1.51578, 1.51086, 1.50771, 1.51274, 1.50389, 1.50296, 1.51029, 1.50371, 1.50461, 1.51413, 1.50506, 1.47238, 1.48651, 1.51342, 1.53042, 1.52841, 1.58824, 1.60723, 1.62817, 1.63146, 1.59949, 1.59367, 1.59425, 1.56489, 1.5379, 1.50391, 1.47319, 1.46455, 1.46387, 1.46359, 1.47895, 1.46929, 1.47152, 1.4574, 1.45367, 1.45326, 1.45553, 1.4502, 1.44976, 1.44838, 1.44772, 1.45806, 1.46355, 1.4559, 1.4462, 1.43965, 1.44318, 1.43567, 1.43132, 1.43043, 1.42934, 1.42746, 1.4254, 1.42545, 1.42322, 1.42246, 1.4229, 1.4219, 1.42107, 1.4194, 1.41789, 1.41763, 1.4158, 1.41402, 1.41124, 1.41072, 1.40847, 1.40564, 1.40499, 1.40223, 1.40158, 1.39977, 1.39802, 1.39843, 1.39505, 1.39493, 1.39416, 1.39907, 1.39134, 1.38822, 1.38738, 1.38632, 1.38219, 1.38227, 1.38014, 1.38028, 1.37819, 1.37734, 1.37736, 1.37772, 1.37531, 1.3742, 1.37271, 1.37148, 1.36907, 1.36982, 1.37183, 1.37178, 1.36737, 1.3736, 1.37128, 1.36509, 1.36456, 1.37526, 1.37868, 1.36429, 1.35441, 1.35451, 1.42721, 1.46478, 1.45898, 1.47631, 1.49349, 1.54737, 1.5762, 1.60394, 1.61989, 1.58439, 1.45958, 1.42689, 1.38915, 1.32996, 1.34727, 1.35098, 1.35801, 1.35763, 1.34877, 1.35637, 1.35727, 1.3432, 1.33971, 1.34188, 1.3494, 1.33448, 1.3343, 1.33275, 1.33054, 1.3306, 1.32976, 1.32732, 1.32603
1.67189, 1.6687, 1.66605, 1.66434, 1.67227, 1.65871, 1.65815, 1.65565, 1.65355, 1.64823, 1.64715, 1.64628, 1.64399, 1.64836, 1.65576, 1.6372, 1.63602, 1.63588, 1.63622, 1.63589, 1.63546, 1.64294, 1.63951, 1.61637, 1.60935, 1.6234, 1.68093, 1.70695, 1.76843, 1.83122, 1.86537, 1.89697, 1.92567, 1.93748, 1.80404, 1.76666, 1.6018, 1.5792, 1.58019, 1.60552, 1.6015, 1.5941, 1.59247, 1.58978, 1.58408, 1.58918, 1.58143, 1.57922, 1.58539, 1.5752, 1.57157, 1.57512, 1.56962, 1.56862, 1.56328, 1.56121, 1.55871, 1.55843, 1.55704, 1.55509, 1.55497, 1.57668, 1.55686, 1.55013, 1.54925, 1.55215, 1.54917, 1.54882, 1.541, 1.54002, 1.53987, 1.53841, 1.53419, 1.53325, 1.53053, 1.53002, 1.53118, 1.54448, 1.52385, 1.52392, 1.52461, 1.53819, 1.52331, 1.54421, 1.53026, 1.51686, 1.51357, 1.51253, 1.51148, 1.51652, 1.51687, 1.50852, 1.52219, 1.5218, 1.49945, 1.49867, 1.49907, 1.50322, 1.50396, 1.49035, 1.48885, 1.47556, 1.48724, 1.53329, 1.54283, 1.58196, 1.59372, 1.60614, 1.59568, 1.60705, 1.58581, 1.56201, 1.59414, 1.5308, 1.53166, 1.48234, 1.44947, 1.45233, 1.4717, 1.47799, 1.47271, 1.46301, 1.46136, 1.45427, 1.45983, 1.45096, 1.44847, 1.44856, 1.44875, 1.45127, 1.43597, 1.46208, 1.46242, 1.44198, 1.44391, 1.43319, 1.43205, 1.42923, 1.42753, 1.42608, 1.42529, 1.42479, 1.4233, 1.42277, 1.42099, 1.42099, 1.42126, 1.42095, 1.42005, 1.41784, 1.41573, 1.41444, 1.41226, 1.41259, 1.40995, 1.40972, 1.40645, 1.40494, 1.40548, 1.4022, 1.40348, 1.40233, 1.40025, 1.39656, 1.39646, 1.39531, 1.39948, 1.39203, 1.38956, 1.38799, 1.38812, 1.38597, 1.38251, 1.38122, 1.37835, 1.37566, 1.3769, 1.37499, 1.37389, 1.37165, 1.37654, 1.3707, 1.37073, 1.37049, 1.37038, 1.36874, 1.37838, 1.36571, 1.36431, 1.364, 1.36458, 1.36237, 1.37164, 1.37087, 1.37405, 1.34014, 1.35499, 1.43762, 1.40903, 1.42617, 1.4785, 1.51612, 1.53764, 1.53745, 1.58151, 1.56454, 1.52643, 1.53355, 1.4858, 1.4114, 1.33121, 1.31782, 1.3544, 1.35052, 1.35408, 1.3465, 1.34358, 1.33157, 1.33092, 1.33208, 1.32936, 1.33768, 1.32666, 1.32633, 1.32699, 1.32867, 1.32838, 1.32953, 1.32316, 1.32534
1.6699, 1.66741, 1.66468, 1.6635, 1.6615, 1.65837, 1.6563, 1.65268, 1.65117, 1.65002, 1.64734, 1.64584, 1.64138, 1.64217, 1.63996, 1.63782, 1.63713, 1.64756, 1.63478, 1.63627, 1.63216, 1.64161, 1.64106, 1.61557, 1.61257, 1.66793, 1.71383, 1.75556, 1.80944, 1.84179, 1.88254, 1.96865, 2.01678, 2.03433, 1.92031, 1.71928, 1.58673, 1.58017, 1.5923, 1.60583, 1.61057, 1.59351, 1.59156, 1.59003, 1.58599, 1.58387, 1.58195, 1.57922, 1.57557, 1.57641, 1.57312, 1.57076, 1.56888, 1.56692, 1.56449, 1.56258, 1.56122, 1.56033, 1.5594, 1.55724, 1.55581, 1.5539, 1.55535, 1.55033, 1.54947, 1.54972, 1.54694, 1.54575, 1.54339, 1.54061, 1.5394, 1.53519, 1.54102, 1.52979, 1.53067, 1.52816, 1.52657, 1.52486, 1.52357, 1.52285, 1.52671, 1.52027, 1.54077, 1.56156, 1.53011, 1.53323, 1.51432, 1.51542, 1.5136, 1.51258, 1.51026, 1.50655, 1.5039, 1.50278, 1.50058, 1.49856, 1.49825, 1.50634, 1.52057, 1.51423, 1.47165, 1.47274, 1.54306, 1.51991, 1.53563, 1.5686, 1.56842, 1.57664, 1.57235, 1.57597, 1.58437, 1.57031, 1.54748, 1.55091, 1.50213, 1.52724, 1.45764, 1.45729, 1.46815, 1.46784, 1.47245, 1.47127, 1.48139, 1.45337, 1.45946, 1.45102, 1.45117, 1.44737, 1.44649, 1.44498, 1.45151, 1.4408, 1.46674, 1.46824, 1.44035, 1.43271, 1.43041, 1.43131, 1.42771, 1.42334, 1.42285, 1.42352, 1.4241, 1.42445, 1.42237, 1.42176, 1.42145, 1.41966, 1.41889, 1.41768, 1.41575, 1.4151, 1.41244, 1.41232, 1.41132, 1.40915, 1.40789, 1.40857, 1.40505, 1.40444, 1.40474, 1.40135, 1.40086, 1.3983, 1.39626, 1.39606, 1.39458, 1.39224, 1.39009, 1.38635, 1.38596, 1.38239, 1.3787, 1.37612, 1.37442, 1.37448, 1.37173, 1.37085, 1.36795, 1.36747, 1.36725, 1.36972, 1.36743, 1.36791, 1.36727, 1.36816, 1.36831, 1.36874, 1.36791, 1.36427, 1.36466, 1.36385, 1.36437, 1.3843, 1.37812, 1.34783, 1.34419, 1.3806, 1.41978, 1.4644, 1.51324, 1.54856, 1.55773, 1.62803, 1.62431, 1.61118, 1.59497, 1.55894, 1.44737, 1.38205, 1.3106, 1.34116, 1.33811, 1.34344, 1.34265, 1.33552, 1.33433, 1.35212, 1.33117, 1.33082, 1.3308, 1.33814, 1.3291, 1.33671, 1.32972, 1.32751, 1.32848, 1.32878, 1.32476, 1.32568
1.67085, 1.67184, 1.68814, 1.6629, 1.66283, 1.66273, 1.65551, 1.65425, 1.65025, 1.64895, 1.64717, 1.64431, 1.64381, 1.64218, 1.64007, 1.63875, 1.63953, 1.63564, 1.63408, 1.64136, 1.6472, 1.64762, 1.63346, 1.62996, 1.62367, 1.65564, 1.70338, 1.72035, 1.75153, 1.81579, 1.89024, 1.89811, 1.94114, 1.94781, 1.8759, 1.83722, 1.66583, 1.58976, 1.58155, 1.60254, 1.59792, 1.59943, 1.60592, 1.58655, 1.58486, 1.58261, 1.5813, 1.57872, 1.57635, 1.57571, 1.57471, 1.57312, 1.56935, 1.56869, 1.56453, 1.56363, 1.56167, 1.55831, 1.55583, 1.55545, 1.55508, 1.5524, 1.55109, 1.54743, 1.54591, 1.54528, 1.54626, 1.55186, 1.53999, 1.5387, 1.53663, 1.53518, 1.53225, 1.53134, 1.52814, 1.52601, 1.52438, 1.5244, 1.52294, 1.52272, 1.52132, 1.52098, 1.5206, 1.51934, 1.54173, 1.53156, 1.52559, 1.51598, 1.50994, 1.51635, 1.50912, 1.50634, 1.50324, 1.5001, 1.49887, 1.49875, 1.49961, 1.51239, 1.50591, 1.50901, 1.46862, 1.47736, 1.50191, 1.57591, 1.5632, 1.56516, 1.58601, 1.58972, 1.59156, 1.5816, 1.56892, 1.56719, 1.56625, 1.54368, 1.55236, 1.48799, 1.44918, 1.43913, 1.46661, 1.47365, 1.48038, 1.46336, 1.45841, 1.45347, 1.45035, 1.44701, 1.44625, 1.44408, 1.44293, 1.44095, 1.43857, 1.44214, 1.45881, 1.47258, 1.47884, 1.47097, 1.44013, 1.44435, 1.42827, 1.42619, 1.42539, 1.42289, 1.42389, 1.42305, 1.42141, 1.42021, 1.42006, 1.42096, 1.41943, 1.41879, 1.41733, 1.41557, 1.41458, 1.41403, 1.41195, 1.4113, 1.41046, 1.40926, 1.40765, 1.40563, 1.40298, 1.40242, 1.40027, 1.39843, 1.39638, 1.3954, 1.39444, 1.39272, 1.39023, 1.389, 1.38584, 1.38557, 1.38124, 1.37895, 1.37871, 1.37915, 1.37869, 1.37346, 1.3706, 1.36879, 1.36842, 1.37818, 1.36832, 1.36771, 1.36866, 1.36737, 1.36792, 1.3807, 1.36798, 1.37549, 1.36694, 1.36685, 1.38114, 1.37567, 1.36889, 1.37541, 1.36615, 1.41915, 1.4338, 1.47488, 1.46844, 1.51676, 1.57787, 1.5851, 1.60665, 1.63257, 1.60858, 1.57274, 1.50249, 1.37702, 1.34803, 1.34462, 1.34068, 1.34419, 1.34714, 1.33727, 1.33686, 1.34418, 1.33432, 1.33443, 1.34106, 1.3329, 1.33081, 1.33024, 1.3313, 1.32939, 1.32773, 1.33376, 1.32441, 1.32272
1.66752, 1.66529, 1.64995, 1.66139, 1.65888, 1.65904, 1.66123, 1.64933, 1.65965, 1.64501, 1.64413, 1.64185, 1.6415, 1.63798, 1.63664, 1.63579, 1.6359, 1.6363, 1.6345, 1.63781, 1.6327, 1.65053, 1.64139, 1.59846, 1.58909, 1.63281, 1.69669, 1.72221, 1.78657, 1.75262, 1.89911, 1.95504, 1.95912, 1.97284, 1.79273, 1.67515, 1.628, 1.58373, 1.59514, 1.60044, 1.60827, 1.59392, 1.60268, 1.59462, 1.58601, 1.59602, 1.58586, 1.57829, 1.57799, 1.57653, 1.57511, 1.5865, 1.57093, 1.56825, 1.56562, 1.56234, 1.5619, 1.55741, 1.55571, 1.55349, 1.55779, 1.5544, 1.56887, 1.54743, 1.54576, 1.54483, 1.54296, 1.54184, 1.53835, 1.53501, 1.53301, 1.53063, 1.52806, 1.55307, 1.52778, 1.52161, 1.51997, 1.51924, 1.51701, 1.51748, 1.5144, 1.52633, 1.51397, 1.54424, 1.53848, 1.54286, 1.53183, 1.53431, 1.50908, 1.50969, 1.51539, 1.50354, 1.50189, 1.50671, 1.49213, 1.49625, 1.49844, 1.49953, 1.49531, 1.50724, 1.47943, 1.47501, 1.49478, 1.51571, 1.56223, 1.58929, 1.6091, 1.58658, 1.59462, 1.57246, 1.56091, 1.56273, 1.56481, 1.54922, 1.52817, 1.50266, 1.47418, 1.44006, 1.47402, 1.48714, 1.46512, 1.47779, 1.45793, 1.45264, 1.44908, 1.44686, 1.44585, 1.44423, 1.44263, 1.44077, 1.44823, 1.4377, 1.44022, 1.45424, 1.44206, 1.43558, 1.44728, 1.44412, 1.42507, 1.42411, 1.42374, 1.42009, 1.41981, 1.4202, 1.42144, 1.42661, 1.42008, 1.41783, 1.41555, 1.41406, 1.41255, 1.41205, 1.40959, 1.40934, 1.40835, 1.40695, 1.40669, 1.40501, 1.40502, 1.40379, 1.40079, 1.39946, 1.40048, 1.3991, 1.39822, 1.39628, 1.39628, 1.39466, 1.39157, 1.39045, 1.38933, 1.38642, 1.38614, 1.38381, 1.38115, 1.38046, 1.37698, 1.37516, 1.37387, 1.37476, 1.37281, 1.37184, 1.37016, 1.36824, 1.36968, 1.36987, 1.36919, 1.37883, 1.37473, 1.38933, 1.36634, 1.3673, 1.36775, 1.36927, 1.36982, 1.36057, 1.33683, 1.37497, 1.42468, 1.46161, 1.50395, 1.53419, 1.57049, 1.58003, 1.59566, 1.59491, 1.58044, 1.53433, 1.49247, 1.39932, 1.34246, 1.33422, 1.37282, 1.34636, 1.34929, 1.34404, 1.33611, 1.33443, 1.33518, 1.33663, 1.33196, 1.33241, 1.33446, 1.33116, 1.32922, 1.32652, 1.3298, 1.32419, 1.34048, 1.3232
1.66866, 1.66778, 1.66444, 1.66118, 1.65951, 1.65824, 1.65542, 1.65244, 1.65071, 1.64762, 1.64478, 1.64148, 1.63879, 1.64189, 1.64108, 1.63399, 1.63567, 1.63678, 1.64078, 1.63409, 1.63322, 1.63131, 1.63129, 1.63012, 1.61638, 1.63087, 1.6423, 1.69887, 1.73514, 1.78186, 1.84849, 1.76413, 1.77815, 2.1256, 1.89617, 1.77955, 1.58152, 1.55797, 1.59087, 1.60564, 1.60408, 1.60308, 1.58998, 1.58557, 1.58514, 1.58299, 1.58167, 1.57792, 1.57579, 1.57345, 1.57128, 1.57027, 1.56891, 1.56521, 1.56415, 1.56, 1.56106, 1.55919, 1.55846, 1.55608, 1.55481, 1.55492, 1.56552, 1.55033, 1.54738, 1.54644, 1.54429, 1.54235, 1.53998, 1.53817, 1.53466, 1.53298, 1.53125, 1.52833, 1.52673, 1.52505, 1.52261, 1.51974, 1.5175, 1.51641, 1.51729, 1.51715, 1.51651, 1.52623, 1.51336, 1.53334, 1.5298, 1.5265, 1.51981, 1.5232, 1.52465, 1.50618, 1.50454, 1.5096, 1.52319, 1.49771, 1.49624, 1.49941, 1.50323, 1.5077, 1.47503, 1.48437, 1.48189, 1.52315, 1.57198, 1.57711, 1.59739, 1.59603, 1.58156, 1.57533, 1.55945, 1.55938, 1.56497, 1.53962, 1.52234, 1.51544, 1.49266, 1.43724, 1.45716, 1.48869, 1.46275, 1.46888, 1.454, 1.45139, 1.44854, 1.44748, 1.44625, 1.44416, 1.44348, 1.44304, 1.44222, 1.44128, 1.43919, 1.4438, 1.44132, 1.44655, 1.43339, 1.42344, 1.42753, 1.42865, 1.42064, 1.41966, 1.4192, 1.41702, 1.41626, 1.41703, 1.41598, 1.41552, 1.41337, 1.41202, 1.40955, 1.40937, 1.40702, 1.40605, 1.40531, 1.40385, 1.40335, 1.4041, 1.40312, 1.4019, 1.40255, 1.40151, 1.39942, 1.39895, 1.39723, 1.39572, 1.39585, 1.39386, 1.3918, 1.39196, 1.38951, 1.38816, 1.38757, 1.38579, 1.38241, 1.38232, 1.38147, 1.38153, 1.37959, 1.37604, 1.37639, 1.37392, 1.37037, 1.36953, 1.37101, 1.37879, 1.36841, 1.36861, 1.36624, 1.36247, 1.36888, 1.36384, 1.37255, 1.37669, 1.37194, 1.38262, 1.36222, 1.37888, 1.40001, 1.44508, 1.47579, 1.51563, 1.55347, 1.60046, 1.61397, 1.62634, 1.59861, 1.50526, 1.44677, 1.37537, 1.32033, 1.30201, 1.34362, 1.35553, 1.35265, 1.34934, 1.3331, 1.33248, 1.33299, 1.33268, 1.33248, 1.33053, 1.33013, 1.33049, 1.32752, 1.32731, 1.32487, 1.32187, 1.3209, 1.31954
1.66656, 1.6655, 1.66243, 1.66035, 1.65791, 1.65391, 1.65227, 1.65021, 1.64774, 1.64559, 1.64514, 1.64477, 1.64158, 1.63809, 1.6389, 1.63694, 1.63727, 1.63554, 1.63701, 1.63381, 1.63172, 1.6379, 1.63721, 1.63943, 1.61299, 1.63907, 1.68641, 1.72153, 1.73254, 1.81158, 1.86291, 1.93662, 1.94618, 1.78197, 1.91584, 1.75475, 1.65453, 1.56894, 1.58719, 1.59689, 1.60326, 1.59309, 1.60897, 1.60289, 1.59485, 1.58209, 1.57963, 1.5783, 1.57493, 1.57368, 1.57086, 1.57021, 1.56701, 1.56619, 1.56437, 1.56306, 1.56064, 1.55989, 1.55825, 1.55723, 1.55636, 1.55411, 1.55272, 1.55036, 1.54799, 1.5474, 1.54489, 1.54416, 1.54157, 1.5389, 1.53593, 1.53471, 1.533, 1.54695, 1.52926, 1.52595, 1.52295, 1.5199, 1.52639, 1.51762, 1.51584, 1.51459, 1.51414, 1.51367, 1.51297, 1.54127, 1.54134, 1.52928, 1.54036, 1.51005, 1.50676, 1.50612, 1.50924, 1.50175, 1.50157, 1.50246, 1.5046, 1.49644, 1.50123, 1.49661, 1.49312, 1.49257, 1.51043, 1.52748, 1.56531, 1.54438, 1.54096, 1.55932, 1.55679, 1.5607, 1.55215, 1.55417, 1.52711, 1.52869, 1.49891, 1.47847, 1.49826, 1.4454, 1.46409, 1.46519, 1.46485, 1.46896, 1.4589, 1.47171, 1.458, 1.45779, 1.45037, 1.45754, 1.45399, 1.44984, 1.44848, 1.45031, 1.44471, 1.44659, 1.45842, 1.44999, 1.45042, 1.43112, 1.43378, 1.43361, 1.42044, 1.41897, 1.41916, 1.41806, 1.41745, 1.41647, 1.41607, 1.37797, 1.41261, 1.41068, 1.40871, 1.40694, 1.40509, 1.40409, 1.40245, 1.40182, 1.40173, 1.40974, 1.40095, 1.40048, 1.39905, 1.39859, 1.39741, 1.39481, 1.39399, 1.39289, 1.39096, 1.38962, 1.38865, 1.38873, 1.38561, 1.38466, 1.38437, 1.38423, 1.38429, 1.38232, 1.38028, 1.38169, 1.38034, 1.37831, 1.3789, 1.37771, 1.37772, 1.3752, 1.3714, 1.37048, 1.3691, 1.36942, 1.36758, 1.36645, 1.36832, 1.3649, 1.37971, 1.3927, 1.37487, 1.39194, 1.35703, 1.36969, 1.42316, 1.4408, 1.50659, 1.50108, 1.54426, 1.56261, 1.57828, 1.57867, 1.56793, 1.51844, 1.45163, 1.4548, 1.35815, 1.33368, 1.34776, 1.34563, 1.34368, 1.34396, 1.34318, 1.33865, 1.33974, 1.33136, 1.331, 1.3308, 1.33057, 1.32813, 1.33045, 1.33531, 1.33608, 1.32606, 1.31973, 1.32099
1.66648, 1.66762, 1.66075, 1.65509, 1.65409, 1.65271, 1.64788, 1.64451, 1.64383, 1.64403, 1.64508, 1.64328, 1.64112, 1.64154, 1.63988, 1.63772, 1.63774, 1.6357, 1.63339, 1.63095, 1.63004, 1.63109, 1.63125, 1.6402, 1.61769, 1.62412, 1.66126, 1.70929, 1.71675, 1.78362, 1.85754, 1.85857, 1.93055, 1.92818, 1.80323, 1.70969, 1.67222, 1.55788, 1.58594, 1.59497, 1.6031, 1.60304, 1.58522, 1.59698, 1.59151, 1.58613, 1.57737, 1.59376, 1.56955, 1.5692, 1.56816, 1.56797, 1.56505, 1.56405, 1.56337, 1.56086, 1.55879, 1.5561, 1.5544, 1.55435, 1.55298, 1.55035, 1.54814, 1.5469, 1.54668, 1.54672, 1.5448, 1.54033, 1.53973, 1.53894, 1.53524, 1.53324, 1.53184, 1.52948, 1.52724, 1.52511, 1.52371, 1.52151, 1.5308, 1.5172, 1.52362, 1.51641, 1.51381, 1.51274, 1.5127, 1.5054, 1.53036, 1.54323, 1.53988, 1.53652, 1.50605, 1.51018, 1.51196, 1.49983, 1.49923, 1.50261, 1.49464, 1.49824, 1.50681, 1.49699, 1.47188, 1.48506, 1.49524, 1.52541, 1.56683, 1.62771, 1.58664, 1.58591, 1.57538, 1.57078, 1.54576, 1.5459, 1.54244, 1.52037, 1.51985, 1.47863, 1.45476, 1.45692, 1.45036, 1.47363, 1.46517, 1.45884, 1.45591, 1.45417, 1.46267, 1.46486, 1.45321, 1.45177, 1.45507, 1.45504, 1.45695, 1.45366, 1.46163, 1.46674, 1.46188, 1.48241, 1.44772, 1.4311, 1.43746, 1.42486, 1.43034, 1.43295, 1.42427, 1.41983, 1.41963, 1.41811, 1.41665, 1.41391, 1.41381, 1.41317, 1.41026, 1.40848, 1.4074, 1.40645, 1.40355, 1.40305, 1.4028, 1.4017, 1.40171, 1.40071, 1.39819, 1.39769, 1.39561, 1.39407, 1.39276, 1.39233, 1.38974, 1.38959, 1.38832, 1.38636, 1.38486, 1.38482, 1.38195, 1.38088, 1.38041, 1.38133, 1.3799, 1.38149, 1.37819, 1.38033, 1.37847, 1.37896, 1.37295, 1.37197, 1.37315, 1.37191, 1.36832, 1.36779, 1.36587, 1.36346, 1.36212, 1.36105, 1.37045, 1.38232, 1.36636, 1.3828, 1.34123, 1.38211, 1.41949, 1.44378, 1.48, 1.52337, 1.55827, 1.6024, 1.6137, 1.6411, 1.62812, 1.59777, 1.44039, 1.41962, 1.34523, 1.30771, 1.3573, 1.34432, 1.3482, 1.35689, 1.35447, 1.33783, 1.33215, 1.35195, 1.32949, 1.32731, 1.3291, 1.32602, 1.33461, 1.32259, 1.32208, 1.32329, 1.32558, 1.3225
1.66849, 1.67163, 1.66234, 1.65861, 1.65729, 1.65308, 1.65181, 1.64835, 1.64698, 1.64812, 1.64417, 1.6449, 1.64257, 1.637, 1.63542, 1.63506, 1.63516, 1.63437, 1.63199, 1.63185, 1.63034, 1.62999, 1.63356, 1.63007, 1.60953, 1.61074, 1.6753, 1.70932, 1.74611, 1.77113, 1.88905, 1.91741, 1.93464, 1.95622, 1.92025, 1.83203, 1.61082, 1.55951, 1.59595, 1.59969, 1.59329, 1.59207, 1.58714, 1.58319, 1.58106, 1.57862, 1.59308, 1.57541, 1.57321, 1.57232, 1.57036, 1.57436, 1.5673, 1.56497, 1.56224, 1.56186, 1.56156, 1.5583, 1.55711, 1.55354, 1.55101, 1.55023, 1.55037, 1.54619, 1.54162, 1.54005, 1.53842, 1.53452, 1.53316, 1.53343, 1.53316, 1.53142, 1.52879, 1.52764, 1.52528, 1.52414, 1.52288, 1.52085, 1.51963, 1.51909, 1.517, 1.51602, 1.51576, 1.51256, 1.51985, 1.50946, 1.51211, 1.53403, 1.54043, 1.53473, 1.53119, 1.51584, 1.51296, 1.50989, 1.4971, 1.50111, 1.49423, 1.49763, 1.5006, 1.49419, 1.48226, 1.46883, 1.49775, 1.49997, 1.53727, 1.5719, 1.57368, 1.57119, 1.56447, 1.54738, 1.54688, 1.5499, 1.54282, 1.54076, 1.53326, 1.50946, 1.47551, 1.44416, 1.45783, 1.46042, 1.47291, 1.46014, 1.4557, 1.46449, 1.45733, 1.45772, 1.45126, 1.45099, 1.46473, 1.46644, 1.49978, 1.49842, 1.48321, 1.4555, 1.46425, 1.43366, 1.43398, 1.43001, 1.42738, 1.42377, 1.42306, 1.42243, 1.42028, 1.41897, 1.41863, 1.41663, 1.41579, 1.41365, 1.41292, 1.41078, 1.40874, 1.40852, 1.40731, 1.40519, 1.40399, 1.40294, 1.40259, 1.40135, 1.4001, 1.39873, 1.39757, 1.39481, 1.39575, 1.3926, 1.39211, 1.38912, 1.38805, 1.38697, 1.38439, 1.38246, 1.38342, 1.38269, 1.37864, 1.3801, 1.37886, 1.37781, 1.37613, 1.37701, 1.37586, 1.37666, 1.37545, 1.37494, 1.37415, 1.37278, 1.37113, 1.37063, 1.36859, 1.36585, 1.36621, 1.36377, 1.36228, 1.36019, 1.36045, 1.37524, 1.36751, 1.37254, 1.3505, 1.35227, 1.38274, 1.43487, 1.49035, 1.54107, 1.57307, 1.58938, 1.61268, 1.62672, 1.62061, 1.57221, 1.51085, 1.38064, 1.31946, 1.3329, 1.33757, 1.33853, 1.34974, 1.33664, 1.33401, 1.33446, 1.33282, 1.33277, 1.33278, 1.3298, 1.32889, 1.3272, 1.32641, 1.32351, 1.32328, 1.32077, 1.32241, 1.32215
1.67129, 1.67024, 1.67586, 1.66561, 1.66303, 1.66134, 1.65624, 1.65451, 1.65212, 1.65093, 1.65057, 1.64786, 1.66093, 1.64383, 1.64027, 1.64017, 1.64601, 1.6367, 1.63486, 1.632, 1.63165, 1.63113, 1.64029, 1.63042, 1.63722, 1.61635, 1.64604, 1.70626, 1.75449, 1.80493, 1.85441, 1.88327, 1.90695, 1.92716, 1.86556, 1.72722, 1.64543, 1.56697, 1.57712, 1.59036, 1.60796, 1.60166, 1.59841, 1.60193, 1.59289, 1.58484, 1.58847, 1.57723, 1.57455, 1.57321, 1.57056, 1.5863, 1.56987, 1.56741, 1.58094, 1.56224, 1.56086, 1.55711, 1.55482, 1.55209, 1.55071, 1.54914, 1.54639, 1.54566, 1.54099, 1.53717, 1.53585, 1.5334, 1.53297, 1.5311, 1.53102, 1.52868, 1.52699, 1.52619, 1.5249, 1.52333, 1.52358, 1.52284, 1.52142, 1.52096, 1.52764, 1.52, 1.52014, 1.51571, 1.51604, 1.51338, 1.51958, 1.51606, 1.5327, 1.54428, 1.54506, 1.52563, 1.51236, 1.49987, 1.50759, 1.50852, 1.50857, 1.50348, 1.50638, 1.49614, 1.47002, 1.47559, 1.48343, 1.49988, 1.52085, 1.55327, 1.55992, 1.55504, 1.5683, 1.51793, 1.54402, 1.54685, 1.5469, 1.54152, 1.53539, 1.51371, 1.46126, 1.44745, 1.44596, 1.46801, 1.46147, 1.45813, 1.46213, 1.45888, 1.47823, 1.47247, 1.47607, 1.48354, 1.49891, 1.48974, 1.50414, 1.47223, 1.46747, 1.47757, 1.45739, 1.44924, 1.44702, 1.43102, 1.42996, 1.42611, 1.42564, 1.43397, 1.42331, 1.42098, 1.42042, 1.41925, 1.417, 1.41471, 1.413, 1.40963, 1.40766, 1.40501, 1.40556, 1.403, 1.40171, 1.39998, 1.40064, 1.39963, 1.39905, 1.39823, 1.39689, 1.39322, 1.39183, 1.39171, 1.39167, 1.38888, 1.38814, 1.38662, 1.38514, 1.3842, 1.38304, 1.38326, 1.38203, 1.38069, 1.37913, 1.37844, 1.37954, 1.37753, 1.37794, 1.37651, 1.37541, 1.37319, 1.37326, 1.37175, 1.37062, 1.36816, 1.36753, 1.36646, 1.37506, 1.36574, 1.36033, 1.36733, 1.37578, 1.37124, 1.37983, 1.37811, 1.35197, 1.35271, 1.39559, 1.41898, 1.48559, 1.51641, 1.58155, 1.58122, 1.62051, 1.62089, 1.60389, 1.5753, 1.4135, 1.38115, 1.33783, 1.30623, 1.3537, 1.34323, 1.34313, 1.34514, 1.33973, 1.33462, 1.33444, 1.34435, 1.33341, 1.3334, 1.33141, 1.32714, 1.32651, 1.32571, 1.32417, 1.32314, 1.32079, 1.32008
1.66908, 1.66812, 1.66599, 1.66418, 1.66549, 1.6668, 1.6592, 1.65545, 1.65338, 1.65008, 1.64818, 1.64516, 1.64211, 1.64361, 1.63803, 1.63625, 1.63397, 1.63247, 1.63053, 1.62647, 1.6247, 1.62545, 1.62877, 1.6335, 1.63424, 1.6251, 1.65922, 1.70264, 1.75455, 1.86815, 1.8516, 1.88077, 2.073, 2.12999, 1.94249, 1.76876, 1.65745, 1.55348, 1.55348, 1.59293, 1.59627, 1.61271, 1.59655, 1.5888, 1.59221, 1.59024, 1.58008, 1.5779, 1.57484, 1.58918, 1.5721, 1.57197, 1.58882, 1.56361, 1.56259, 1.55903, 1.56546, 1.55681, 1.55417, 1.54878, 1.54799, 1.54586, 1.54362, 1.54128, 1.53735, 1.53106, 1.53136, 1.53021, 1.52713, 1.52644, 1.52559, 1.52784, 1.52203, 1.5205, 1.52119, 1.52111, 1.52136, 1.51937, 1.51908, 1.51845, 1.51668, 1.51682, 1.51619, 1.51401, 1.51266, 1.5111, 1.51033, 1.51033, 1.53724, 1.55708, 1.54377, 1.54812, 1.54748, 1.51376, 1.49608, 1.49634, 1.50045, 1.49371, 1.48992, 1.50629, 1.48841, 1.4662, 1.47869, 1.49292, 1.49899, 1.53993, 1.56262, 1.55746, 1.54034, 1.53498, 1.53332, 1.53754, 1.54283, 1.54631, 1.51485, 1.51267, 1.47502, 1.46207, 1.47558, 1.47943, 1.48715, 1.49914, 1.49993, 1.50328, 1.50788, 1.51309, 1.5056, 1.47757, 1.47819, 1.48535, 1.46651, 1.45524, 1.45216, 1.45734, 1.45026, 1.4503, 1.46091, 1.43745, 1.43702, 1.42787, 1.43434, 1.42381, 1.42303, 1.42099, 1.41795, 1.41683, 1.41747, 1.41311, 1.41254, 1.41081, 1.41183, 1.4077, 1.40589, 1.40435, 1.40188, 1.4027, 1.40033, 1.39864, 1.39838, 1.39522, 1.39511, 1.39351, 1.3917, 1.3897, 1.38934, 1.38831, 1.38587, 1.3855, 1.38285, 1.38173, 1.38172, 1.38252, 1.38165, 1.38089, 1.37834, 1.37738, 1.37662, 1.37542, 1.37419, 1.37511, 1.37943, 1.37137, 1.37052, 1.36824, 1.36696, 1.3649, 1.3627, 1.36128, 1.35885, 1.35973, 1.35766, 1.35737, 1.35602, 1.36417, 1.36232, 1.36086, 1.35136, 1.33688, 1.42042, 1.40862, 1.47589, 1.48906, 1.5312, 1.60086, 1.61331, 1.61673, 1.65479, 1.60333, 1.47916, 1.42248, 1.3325, 1.33346, 1.34599, 1.34514, 1.35053, 1.33785, 1.33708, 1.33662, 1.33258, 1.33422, 1.33241, 1.33116, 1.3322, 1.32976, 1.32799, 1.32688, 1.32496, 1.32514, 1.32267, 1.32077
1.66467, 1.66473, 1.66146, 1.66164, 1.65757, 1.6566, 1.65557, 1.65395, 1.65347, 1.64998, 1.64991, 1.64748, 1.6461, 1.64307, 1.63944, 1.63735, 1.63474, 1.6317, 1.62975, 1.62681, 1.62494, 1.62501, 1.62547, 1.62736, 1.63492, 1.62654, 1.6228, 1.67477, 1.69582, 1.75493, 1.79235, 1.83671, 1.87579, 1.87121, 1.82342, 1.72348, 1.59659, 1.5787, 1.57807, 1.60695, 1.60497, 1.59951, 1.60967, 1.59153, 1.58735, 1.5927, 1.58494, 1.58096, 1.57946, 1.57753, 1.59032, 1.57093, 1.56845, 1.57149, 1.56052, 1.56055, 1.55852, 1.55531, 1.55395, 1.55091, 1.54972, 1.54642, 1.54557, 1.54223, 1.54073, 1.53556, 1.53301, 1.53212, 1.53116, 1.53023, 1.52733, 1.52673, 1.52375, 1.52339, 1.52197, 1.52072, 1.5204, 1.5203, 1.51758, 1.51783, 1.51745, 1.51486, 1.51393, 1.51336, 1.51171, 1.51165, 1.50746, 1.50673, 1.50741, 1.50792, 1.53969, 1.54194, 1.53837, 1.52387, 1.54849, 1.52653, 1.49145, 1.50723, 1.50233, 1.49601, 1.49152, 1.47211, 1.47543, 1.51048, 1.53108, 1.55166, 1.55921, 1.56132, 1.54117, 1.53171, 1.59734, 1.51548, 1.54699, 1.54048, 1.53828, 1.49627, 1.48699, 1.4747, 1.47446, 1.51286, 1.4966, 1.48116, 1.50651, 1.47646, 1.46897, 1.47185, 1.45097, 1.4644, 1.45126, 1.45665, 1.44727, 1.44539, 1.46458, 1.44055, 1.43628, 1.44323, 1.43257, 1.43031, 1.42814, 1.42679, 1.42559, 1.42375, 1.42249, 1.42154, 1.41945, 1.41758, 1.4163, 1.4153, 1.4139, 1.41319, 1.41114, 1.40913, 1.40693, 1.40182, 1.40017, 1.39878, 1.39843, 1.39902, 1.39824, 1.39681, 1.39512, 1.39416, 1.39383, 1.39201, 1.39132, 1.39131, 1.38922, 1.38886, 1.38549, 1.3858, 1.38489, 1.38449, 1.38277, 1.3819, 1.38057, 1.37723, 1.37595, 1.37513, 1.37414, 1.37215, 1.37081, 1.36968, 1.37055, 1.36764, 1.36792, 1.36451, 1.36374, 1.36173, 1.36071, 1.35896, 1.35726, 1.3556, 1.35964, 1.35699, 1.37742, 1.36304, 1.32978, 1.32615, 1.40827, 1.42913, 1.45145, 1.5016, 1.54513, 1.56937, 1.62717, 1.64257, 1.62546, 1.59663, 1.522, 1.40411, 1.32945, 1.31212, 1.33908, 1.34375, 1.34151, 1.33721, 1.33257, 1.35063, 1.33109, 1.32953, 1.32873, 1.32722, 1.32772, 1.32621, 1.32377, 1.32064, 1.32042, 1.31932, 1.31866, 1.31823
1.66028, 1.67226, 1.65599, 1.65449, 1.65704, 1.6502, 1.65394, 1.6587, 1.66122, 1.66436, 1.65113, 1.64866, 1.64775, 1.64513, 1.64179, 1.64011, 1.63798, 1.6334, 1.63037, 1.63012, 1.63375, 1.6316, 1.62797, 1.62706, 1.61359, 1.60084, 1.62144, 1.70297, 1.7486, 1.77661, 1.77814, 1.86662, 1.99636, 2.00931, 2.00699, 1.8831, 1.60711, 1.58324, 1.60693, 1.62907, 1.60304, 1.61618, 1.59955, 1.59787, 1.60419, 1.59306, 1.59803, 1.59562, 1.58589, 1.58597, 1.5814, 1.58541, 1.57502, 1.57995, 1.57505, 1.57655, 1.57497, 1.5765, 1.55797, 1.57139, 1.55543, 1.551, 1.55046, 1.54789, 1.54496, 1.54308, 1.54075, 1.5474, 1.53652, 1.53563, 1.5328, 1.52756, 1.52785, 1.52624, 1.52517, 1.52452, 1.52251, 1.52067, 1.5191, 1.5178, 1.51681, 1.51595, 1.5116, 1.5121, 1.50754, 1.50941, 1.5265, 1.53087, 1.51544, 1.51186, 1.51333, 1.52835, 1.54855, 1.55932, 1.56437, 1.5583, 1.53074, 1.52285, 1.50003, 1.49808, 1.48111, 1.48871, 1.47175, 1.50236, 1.51702, 1.55491, 1.55081, 1.54441, 1.51804, 1.52, 1.51053, 1.55073, 1.58156, 1.53072, 1.52001, 1.52069, 1.47133, 1.45482, 1.48708, 1.47128, 1.48008, 1.46347, 1.47188, 1.45819, 1.47925, 1.46068, 1.4647, 1.45743, 1.4475, 1.44542, 1.44654, 1.45718, 1.44026, 1.43795, 1.43778, 1.43545, 1.43621, 1.43034, 1.42752, 1.42676, 1.42545, 1.42308, 1.42238, 1.4197, 1.41847, 1.41633, 1.41403, 1.41347, 1.41242, 1.41085, 1.41126, 1.40788, 1.4067, 1.40657, 1.40639, 1.40431, 1.40206, 1.40203, 1.39948, 1.39885, 1.39662, 1.39657, 1.39585, 1.39564, 1.39331, 1.39245, 1.39163, 1.39443, 1.38965, 1.39084, 1.38908, 1.38877, 1.38626, 1.38393, 1.3819, 1.38098, 1.37829, 1.37775, 1.3865, 1.37487, 1.37417, 1.37138, 1.37015, 1.37052, 1.3677, 1.36642, 1.36493, 1.37118, 1.36125, 1.3593, 1.36079, 1.35847, 1.36516, 1.37125, 1.36356, 1.37411, 1.36123, 1.36253, 1.36794, 1.42657, 1.42598, 1.51692, 1.53903, 1.59623, 1.62722, 1.6361, 1.63426, 1.52914, 1.49276, 1.41657, 1.33042, 1.3218, 1.35157, 1.35041, 1.35371, 1.35437, 1.33874, 1.33403, 1.33214, 1.33004, 1.3295, 1.32822, 1.32572, 1.3273, 1.32407, 1.32589, 1.32553, 1.32573, 1.32251, 1.3209
1.66187, 1.65938, 1.65802, 1.65638, 1.65382, 1.65401, 1.65379, 1.65487, 1.66048, 1.6514, 1.65079, 1.64896, 1.64731, 1.65221, 1.64314, 1.64754, 1.63778, 1.63495, 1.63152, 1.62962, 1.62345, 1.62488, 1.63767, 1.62145, 1.62754, 1.5947, 1.59986, 1.64752, 1.68116, 1.7683, 1.83585, 1.91742, 1.98049, 1.97504, 1.92748, 1.82758, 1.59576, 1.57975, 1.59471, 1.60408, 1.5951, 1.60364, 1.61681, 1.60705, 1.59911, 1.60231, 1.61004, 1.59289, 1.59263, 1.58716, 1.57975, 1.59547, 1.57266, 1.58214, 1.56638, 1.56552, 1.5627, 1.55862, 1.55793, 1.55463, 1.55057, 1.54813, 1.54601, 1.54373, 1.54182, 1.53966, 1.5402, 1.53502, 1.5338, 1.53193, 1.52755, 1.52575, 1.5246, 1.52491, 1.5239, 1.5218, 1.52048, 1.51962, 1.51892, 1.517, 1.51602, 1.5155, 1.51308, 1.5095, 1.50826, 1.50905, 1.50919, 1.50899, 1.50794, 1.50545, 1.50616, 1.50404, 1.50286, 1.51661, 1.52054, 1.51789, 1.51706, 1.53322, 1.53356, 1.52355, 1.50713, 1.4895, 1.48878, 1.49608, 1.52752, 1.55968, 1.55454, 1.54803, 1.53711, 1.52376, 1.50446, 1.51164, 1.54697, 1.54074, 1.56703, 1.53402, 1.5089, 1.46755, 1.46499, 1.47222, 1.47151, 1.46098, 1.46534, 1.45391, 1.45224, 1.45018, 1.44765, 1.44374, 1.44217, 1.43998, 1.44033, 1.43689, 1.43641, 1.43403, 1.43088, 1.42763, 1.42665, 1.42542, 1.42599, 1.42601, 1.42593, 1.42458, 1.42285, 1.41913, 1.41653, 1.42021, 1.4163, 1.41449, 1.41358, 1.41292, 1.41127, 1.40985, 1.40927, 1.40878, 1.40746, 1.40653, 1.40537, 1.40231, 1.39982, 1.39843, 1.397, 1.39405, 1.39378, 1.39372, 1.39347, 1.39331, 1.39222, 1.3904, 1.38845, 1.38626, 1.38633, 1.38742, 1.38902, 1.38415, 1.38221, 1.38073, 1.37919, 1.37718, 1.37431, 1.37385, 1.37324, 1.37194, 1.37136, 1.37097, 1.37901, 1.36659, 1.36578, 1.36456, 1.37908, 1.36054, 1.36048, 1.36808, 1.36287, 1.36474, 1.37498, 1.36746, 1.37772, 1.35391, 1.40171, 1.43544, 1.5098, 1.5332, 1.58527, 1.60983, 1.65766, 1.65595, 1.67975, 1.6364, 1.50252, 1.4109, 1.35883, 1.31923, 1.34434, 1.3643, 1.35503, 1.34526, 1.34413, 1.33698, 1.34168, 1.33274, 1.33163, 1.33026, 1.33332, 1.32807, 1.32701, 1.32669, 1.32612, 1.32592, 1.32489, 1.3246
1.6609, 1.65777, 1.65712, 1.66185, 1.65625, 1.65605, 1.65483, 1.65391, 1.65266, 1.65064, 1.64895, 1.64661, 1.64523, 1.6425, 1.63823, 1.63726, 1.63359, 1.63672, 1.63025, 1.62984, 1.6276, 1.6262, 1.63388, 1.63117, 1.63732, 1.61708, 1.60238, 1.64804, 1.69039, 1.79347, 1.86528, 1.85511, 1.94002, 1.97606, 1.87533, 1.7273, 1.63831, 1.58575, 1.59342, 1.58691, 1.60215, 1.60286, 1.60462, 1.60344, 1.61373, 1.60517, 1.59935, 1.60353, 1.58948, 1.59019, 1.58217, 1.57145, 1.57891, 1.56444, 1.56161, 1.55973, 1.55871, 1.55527, 1.5531, 1.55107, 1.55167, 1.54759, 1.54469, 1.54351, 1.54066, 1.53797, 1.53773, 1.53534, 1.53411, 1.53339, 1.53068, 1.5299, 1.52611, 1.52363, 1.52013, 1.51891, 1.51716, 1.5163, 1.51672, 1.51531, 1.51414, 1.51305, 1.51223, 1.50961, 1.50779, 1.50619, 1.50425, 1.50391, 1.50263, 1.49938, 1.4989, 1.49833, 1.49751, 1.49614, 1.49669, 1.49696, 1.49224, 1.48272, 1.49324, 1.49446, 1.48374, 1.49074, 1.50639, 1.51942, 1.53223, 1.57925, 1.54716, 1.54187, 1.52105, 1.50354, 1.49932, 1.50989, 1.52433, 1.52354, 1.58609, 1.51581, 1.48911, 1.46176, 1.46067, 1.46796, 1.48181, 1.46475, 1.46149, 1.45679, 1.46748, 1.45087, 1.44891, 1.44805, 1.44643, 1.44554, 1.44135, 1.43979, 1.43875, 1.43902, 1.43996, 1.43143, 1.42991, 1.42851, 1.42799, 1.42699, 1.42312, 1.42129, 1.41949, 1.41839, 1.41703, 1.41639, 1.41552, 1.41379, 1.41358, 1.41295, 1.41233, 1.40956, 1.4087, 1.40792, 1.40675, 1.40667, 1.40227, 1.40088, 1.39718, 1.39689, 1.39625, 1.39402, 1.39392, 1.39143, 1.39028, 1.38993, 1.3887, 1.38755, 1.38464, 1.3843, 1.38401, 1.38291, 1.38209, 1.38486, 1.38135, 1.37975, 1.37827, 1.37678, 1.37435, 1.37353, 1.37099, 1.3717, 1.38567, 1.36852, 1.36653, 1.36698, 1.3607, 1.3622, 1.3636, 1.36046, 1.35979, 1.35879, 1.35903, 1.37497, 1.36294, 1.36462, 1.35987, 1.33835, 1.40211, 1.3854, 1.45345, 1.51027, 1.52044, 1.57236, 1.63148, 1.64579, 1.68625, 1.64226, 1.54784, 1.50185, 1.34782, 1.31997, 1.34445, 1.34367, 1.34303, 1.33668, 1.33514, 1.33402, 1.33329, 1.33017, 1.32836, 1.32875, 1.32714, 1.32591, 1.32689, 1.3266, 1.3274, 1.32622, 1.32561, 1.32418
1.66152, 1.65874, 1.65492, 1.65234, 1.65244, 1.65398, 1.65166, 1.65065, 1.6487, 1.64477, 1.64386, 1.65194, 1.64211, 1.64041, 1.63789, 1.64132, 1.63674, 1.63107, 1.62842, 1.62616, 1.62384, 1.62332, 1.62362, 1.62113, 1.62041, 1.61266, 1.62045, 1.65776, 1.68876, 1.76441, 1.83369, 1.95136, 1.90647, 2.04969, 1.95186, 1.96124, 1.61687, 1.56504, 1.57445, 1.56799, 1.56964, 1.5673, 1.58231, 1.58174, 1.57669, 1.57828, 1.60717, 1.59673, 1.59991, 1.58518, 1.58256, 1.57636, 1.57416, 1.5823, 1.56502, 1.55577, 1.5519, 1.55111, 1.54902, 1.5506, 1.54928, 1.54722, 1.54366, 1.5426, 1.54079, 1.53942, 1.53845, 1.53783, 1.53619, 1.53159, 1.53029, 1.52968, 1.52861, 1.52485, 1.52252, 1.51918, 1.51616, 1.51648, 1.51601, 1.51326, 1.51371, 1.50968, 1.5092, 1.50816, 1.50665, 1.50462, 1.50208, 1.50186, 1.50046, 1.49836, 1.49633, 1.49513, 1.49394, 1.49283, 1.49152, 1.50676, 1.48953, 1.49913, 1.4985, 1.50316, 1.49828, 1.49396, 1.50026, 1.52077, 1.53775, 1.54781, 1.54661, 1.54012, 1.54926, 1.51658, 1.50762, 1.50415, 1.53073, 1.54018, 1.52044, 1.51566, 1.49875, 1.48833, 1.464, 1.47618, 1.47158, 1.4629, 1.46019, 1.45498, 1.45298, 1.45091, 1.4484, 1.44679, 1.44399, 1.44385, 1.44087, 1.4392, 1.43696, 1.4351, 1.43316, 1.43132, 1.42976, 1.42932, 1.42854, 1.42789, 1.42652, 1.42596, 1.42303, 1.41993, 1.41881, 1.41796, 1.41762, 1.41522, 1.41456, 1.41277, 1.41246, 1.41059, 1.40892, 1.40764, 1.40555, 1.40366, 1.40312, 1.40226, 1.4003, 1.39834, 1.39741, 1.39891, 1.39519, 1.3927, 1.39048, 1.39008, 1.3894, 1.38754, 1.38636, 1.38456, 1.38378, 1.38232, 1.3806, 1.37909, 1.37914, 1.37769, 1.37487, 1.37525, 1.37421, 1.37417, 1.37275, 1.37264, 1.3705, 1.36734, 1.36688, 1.36621, 1.36438, 1.36295, 1.36278, 1.36229, 1.36077, 1.36031, 1.36019, 1.35993, 1.36174, 1.36508, 1.37049, 1.35783, 1.35717, 1.3966, 1.4472, 1.53716, 1.56117, 1.62731, 1.6456, 1.62448, 1.66216, 1.65016, 1.56893, 1.45847, 1.36146, 1.331, 1.34452, 1.34185, 1.34663, 1.33662, 1.33356, 1.33325, 1.3337, 1.34232, 1.32919, 1.32931, 1.32861, 1.32714, 1.32963, 1.3333, 1.32649, 1.33027, 1.32642, 1.32532
1.65869, 1.65587, 1.65243, 1.65165, 1.65798, 1.64837, 1.64769, 1.64691, 1.64607, 1.64158, 1.63917, 1.63737, 1.63875, 1.63743, 1.63497, 1.63208, 1.6307, 1.62829, 1.62644, 1.62616, 1.62371, 1.6334, 1.62709, 1.6207, 1.61927, 1.62409, 1.58928, 1.64247, 1.69704, 1.74412, 1.79717, 1.83789, 1.97663, 2.00401, 1.99049, 1.75547, 1.64134, 1.55139, 1.5505, 1.57467, 1.61223, 1.64479, 1.6787, 1.65573, 1.63462, 1.62607, 1.60793, 1.61565, 1.62222, 1.61416, 1.59356, 1.59141, 1.57782, 1.58833, 1.5679, 1.56141, 1.55575, 1.55067, 1.54844, 1.55809, 1.55079, 1.54472, 1.54218, 1.54237, 1.54005, 1.53775, 1.53748, 1.53557, 1.53486, 1.53313, 1.53144, 1.52951, 1.52716, 1.52356, 1.52087, 1.5201, 1.51694, 1.51509, 1.51353, 1.51239, 1.50933, 1.50962, 1.5087, 1.50874, 1.50755, 1.50441, 1.50283, 1.49862, 1.49802, 1.49526, 1.49368, 1.49241, 1.49041, 1.48971, 1.48902, 1.48875, 1.48925, 1.49346, 1.50751, 1.50566, 1.49564, 1.48583, 1.49184, 1.51691, 1.5239, 1.54107, 1.54592, 1.50729, 1.53356, 1.52698, 1.50338, 1.36365, 1.3515, 1.51949, 1.51459, 1.53396, 1.49589, 1.47597, 1.45805, 1.47751, 1.48152, 1.46822, 1.46466, 1.45321, 1.46112, 1.45475, 1.44482, 1.44361, 1.44034, 1.43893, 1.43542, 1.43268, 1.44298, 1.44471, 1.42895, 1.42688, 1.42611, 1.42371, 1.42414, 1.42341, 1.42282, 1.42938, 1.42278, 1.42024, 1.41943, 1.41831, 1.41597, 1.41467, 1.41258, 1.41184, 1.40909, 1.40832, 1.40829, 1.4055, 1.40459, 1.40206, 1.40078, 1.39882, 1.39885, 1.39601, 1.3964, 1.39472, 1.3947, 1.40985, 1.39071, 1.38925, 1.38689, 1.38478, 1.38495, 1.3813, 1.37964, 1.37909, 1.37645, 1.37599, 1.37581, 1.37565, 1.37503, 1.37287, 1.37339, 1.36696, 1.36701, 1.36523, 1.36742, 1.36771, 1.36363, 1.36042, 1.36041, 1.35594, 1.35965, 1.37511, 1.36011, 1.35735, 1.35606, 1.35552, 1.35723, 1.36252, 1.36841, 1.34714, 1.35618, 1.3814, 1.39985, 1.46529, 1.51848, 1.54387, 1.60373, 1.64555, 1.7551, 1.62092, 1.48846, 1.44408, 1.36259, 1.32235, 1.33628, 1.34871, 1.35, 1.34433, 1.33209, 1.33319, 1.33074, 1.32895, 1.34026, 1.34959, 1.32644, 1.32354, 1.34362, 1.32572, 1.32314, 1.32081, 1.321, 1.32169
1.66496, 1.65573, 1.65405, 1.65202, 1.65065, 1.65058, 1.6474, 1.64531, 1.64393, 1.64189, 1.64038, 1.63713, 1.64354, 1.63361, 1.63148, 1.62865, 1.62659, 1.62492, 1.62154, 1.62067, 1.63824, 1.62009, 1.61984, 1.61964, 1.63531, 1.61933, 1.5903, 1.61596, 1.6651, 1.70155, 1.79697, 1.83643, 1.87192, 2.04141, 2.05272, 1.98906, 1.64513, 1.56206, 1.55729, 1.56793, 1.61649, 1.71775, 1.8044, 1.81232, 1.76108, 1.74137, 1.65681, 1.61336, 1.6118, 1.60352, 1.61278, 1.59257, 1.59353, 1.57188, 1.56911, 1.56794, 1.57122, 1.55707, 1.56795, 1.5502, 1.54738, 1.54587, 1.54422, 1.54186, 1.53985, 1.53728, 1.53652, 1.53587, 1.53361, 1.5316, 1.52998, 1.52784, 1.52571, 1.52437, 1.52303, 1.52019, 1.51775, 1.51643, 1.51447, 1.5112, 1.50988, 1.50836, 1.5078, 1.50558, 1.50472, 1.50346, 1.50197, 1.50036, 1.49848, 1.49664, 1.49506, 1.49309, 1.49149, 1.49065, 1.48921, 1.48755, 1.48827, 1.48915, 1.49271, 1.49959, 1.50289, 1.48589, 1.50425, 1.53123, 1.54483, 1.54043, 1.53066, 1.53798, 1.51961, 1.49463, 1.49457, 1.50252, 1.50356, 1.50985, 1.51341, 1.52702, 1.49307, 1.48635, 1.45732, 1.47401, 1.4621, 1.45916, 1.45681, 1.44996, 1.44529, 1.44329, 1.46017, 1.43796, 1.43603, 1.43428, 1.43224, 1.43171, 1.42945, 1.42747, 1.4262, 1.42526, 1.42323, 1.42257, 1.42253, 1.42229, 1.42251, 1.4227, 1.42288, 1.42236, 1.42069, 1.4187, 1.41633, 1.41444, 1.40784, 1.40767, 1.40706, 1.40579, 1.40473, 1.40286, 1.4017, 1.39946, 1.39838, 1.39713, 1.39545, 1.39427, 1.39262, 1.39069, 1.39008, 1.3883, 1.38665, 1.38588, 1.38499, 1.38417, 1.38343, 1.38133, 1.38097, 1.42236, 1.37798, 1.37764, 1.37561, 1.37406, 1.37088, 1.3688, 1.36786, 1.36825, 1.36848, 1.36907, 1.36871, 1.36808, 1.368, 1.36443, 1.36881, 1.36204, 1.35988, 1.36013, 1.36071, 1.35813, 1.35805, 1.36478, 1.35715, 1.3584, 1.35538, 1.33523, 1.33419, 1.37498, 1.40993, 1.49868, 1.53714, 1.5595, 1.63665, 1.66181, 1.66508, 1.57368, 1.4934, 1.4099, 1.34185, 1.34429, 1.34636, 1.34342, 1.35755, 1.35406, 1.33444, 1.33627, 1.33826, 1.32886, 1.3398, 1.3404, 1.32559, 1.32387, 1.32361, 1.32201, 1.32066, 1.32637, 1.33698, 1.31844
1.65469, 1.65315, 1.65137, 1.64856, 1.64698, 1.65507, 1.6459, 1.64399, 1.64355, 1.63975, 1.64247, 1.63558, 1.64233, 1.63086, 1.62833, 1.62734, 1.63448, 1.62033, 1.62002, 1.61859, 1.62455, 1.61886, 1.61807, 1.61742, 1.6236, 1.61958, 1.58595, 1.61793, 1.66613, 1.7325, 1.76939, 1.87887, 1.94251, 1.97549, 2.01437, 1.85782, 1.67157, 1.56785, 1.57812, 1.57836, 1.57122, 1.6, 1.65236, 1.65484, 1.64693, 1.62539, 1.60486, 1.59236, 1.60576, 1.60141, 1.58571, 1.5848, 1.57894, 1.56832, 1.5831, 1.55783, 1.56515, 1.56819, 1.55525, 1.54443, 1.5444, 1.5418, 1.54711, 1.54017, 1.53751, 1.53539, 1.53279, 1.53661, 1.53004, 1.53002, 1.52659, 1.52631, 1.52552, 1.52415, 1.52175, 1.51762, 1.51531, 1.51472, 1.51413, 1.51036, 1.50794, 1.50704, 1.50505, 1.50312, 1.50092, 1.50057, 1.49867, 1.50008, 1.49628, 1.49431, 1.49281, 1.49189, 1.49068, 1.50513, 1.48691, 1.49568, 1.49516, 1.5035, 1.49233, 1.50894, 1.49464, 1.49331, 1.49828, 1.50875, 1.54034, 1.54993, 1.54282, 1.54172, 1.50137, 1.49447, 1.48295, 1.48264, 1.48812, 1.50358, 1.50965, 1.5228, 1.49372, 1.48317, 1.47963, 1.45745, 1.47389, 1.46489, 1.45847, 1.448, 1.44527, 1.43807, 1.43712, 1.43458, 1.43317, 1.43028, 1.42973, 1.42919, 1.42789, 1.42714, 1.42607, 1.42478, 1.42571, 1.42456, 1.4235, 1.42398, 1.42234, 1.42103, 1.41879, 1.41685, 1.41574, 1.41548, 1.41385, 1.4129, 1.40783, 1.40611, 1.40576, 1.40317, 1.40143, 1.39991, 1.39948, 1.39723, 1.39717, 1.39664, 1.3946, 1.39397, 1.39133, 1.3917, 1.3895, 1.38839, 1.38768, 1.38527, 1.38556, 1.38359, 1.38201, 1.37954, 1.37938, 1.37895, 1.37765, 1.37551, 1.37454, 1.37427, 1.37323, 1.3727, 1.3712, 1.37073, 1.37059, 1.37056, 1.36732, 1.36659, 1.36717, 1.36327, 1.36205, 1.36508, 1.36852, 1.36302, 1.36191, 1.37772, 1.36555, 1.35725, 1.36092, 1.35862, 1.36278, 1.3571, 1.34842, 1.38165, 1.43517, 1.49081, 1.54355, 1.56542, 1.61733, 1.66037, 1.74063, 1.62671, 1.4926, 1.39137, 1.35512, 1.32603, 1.3301, 1.34487, 1.34735, 1.34141, 1.33442, 1.33092, 1.32782, 1.33899, 1.32598, 1.3265, 1.32396, 1.32293, 1.32195, 1.32267, 1.32047, 1.31967, 1.31785, 1.3536
1.65038, 1.6474, 1.64575, 1.6448, 1.64219, 1.64133, 1.63765, 1.63673, 1.63484, 1.63306, 1.63229, 1.63026, 1.62733, 1.62656, 1.62479, 1.62457, 1.62007, 1.61887, 1.6166, 1.62048, 1.6141, 1.61228, 1.61082, 1.61037, 1.61085, 1.60842, 1.5765, 1.61228, 1.65848, 1.70341, 1.792, 1.82733, 1.88579, 2.04153, 1.90643, 1.81439, 1.57376, 1.56859, 1.56195, 1.5862, 1.58199, 1.58254, 1.59597, 1.60256, 1.604, 1.58782, 1.60999, 1.59279, 1.587, 1.59566, 1.57511, 1.57062, 1.57751, 1.57061, 1.55555, 1.54864, 1.54451, 1.54417, 1.55542, 1.53975, 1.53835, 1.53634, 1.53607, 1.53434, 1.52966, 1.52801, 1.52691, 1.5268, 1.5233, 1.52226, 1.52208, 1.52207, 1.52151, 1.52012, 1.51725, 1.51566, 1.51408, 1.5127, 1.51047, 1.508, 1.50567, 1.50161, 1.49882, 1.49921, 1.49376, 1.493, 1.49207, 1.4881, 1.48798, 1.48799, 1.48703, 1.48481, 1.48386, 1.4826, 1.48086, 1.481, 1.4791, 1.48019, 1.48419, 1.49273, 1.49569, 1.4852, 1.49333, 1.51854, 1.52364, 1.52591, 1.51748, 1.55206, 1.55151, 1.49933, 1.49168, 1.49085, 1.50202, 1.49945, 1.52928, 1.51649, 1.50963, 1.4721, 1.46391, 1.45554, 1.45419, 1.45352, 1.45149, 1.46193, 1.44545, 1.43824, 1.43632, 1.43382, 1.43194, 1.43311, 1.43594, 1.42679, 1.42555, 1.42417, 1.4237, 1.42326, 1.42083, 1.42109, 1.41929, 1.42014, 1.41557, 1.41574, 1.4129, 1.41364, 1.41171, 1.40867, 1.40659, 1.40292, 1.40103, 1.40139, 1.39762, 1.39501, 1.39639, 1.39627, 1.39211, 1.39134, 1.38957, 1.38978, 1.39336, 1.3931, 1.39446, 1.39263, 1.39151, 1.39129, 1.38949, 1.38811, 1.38314, 1.38096, 1.38111, 1.37934, 1.37249, 1.37276, 1.36927, 1.36921, 1.37246, 1.37152, 1.36828, 1.3676, 1.36807, 1.36728, 1.36687, 1.366, 1.36457, 1.36633, 1.36134, 1.36095, 1.36056, 1.35949, 1.35763, 1.35609, 1.35389, 1.35353, 1.35357, 1.35324, 1.35383, 1.36538, 1.35838, 1.36009, 1.34103, 1.34083, 1.35393, 1.45451, 1.52391, 1.5543, 1.63555, 1.63794, 1.66126, 1.58126, 1.58265, 1.43465, 1.358, 1.31473, 1.34279, 1.3328, 1.33744, 1.33465, 1.33586, 1.32856, 1.32308, 1.32295, 1.32565, 1.3422, 1.3166, 1.31598, 1.3157, 1.31242, 1.31387, 1.31264, 1.31446, 1.31329
1.64723, 1.64347, 1.64244, 1.64154, 1.63874, 1.63805, 1.6365, 1.63441, 1.6336, 1.63393, 1.63267, 1.63146, 1.63373, 1.62728, 1.62394, 1.62275, 1.62121, 1.61657, 1.61499, 1.61231, 1.61338, 1.61146, 1.60928, 1.61032, 1.6097, 1.61067, 1.59197, 1.61688, 1.68949, 1.68036, 1.75557, 1.85175, 1.90792, 1.99672, 2.19055, 1.76513, 1.65783, 1.55789, 1.54712, 1.5513, 1.57888, 1.58142, 1.57878, 1.59255, 1.58163, 1.57858, 1.57838, 1.57644, 1.57836, 1.56783, 1.57432, 1.5638, 1.55482, 1.55146, 1.55465, 1.54749, 1.54557, 1.54146, 1.54051, 1.53807, 1.53776, 1.5364, 1.53563, 1.5311, 1.52855, 1.52703, 1.52634, 1.52514, 1.52277, 1.52126, 1.51999, 1.51941, 1.51871, 1.51649, 1.51401, 1.51389, 1.51204, 1.51023, 1.5085, 1.50607, 1.50179, 1.50231, 1.49662, 1.49562, 1.49381, 1.49016, 1.48813, 1.49638, 1.48598, 1.48592, 1.48532, 1.48432, 1.48208, 1.48146, 1.47875, 1.47838, 1.47781, 1.481, 1.49456, 1.5026, 1.48112, 1.48034, 1.49915, 1.51045, 1.56226, 1.53191, 1.53011, 1.54657, 1.53091, 1.50935, 1.48322, 1.48484, 1.48685, 1.5112, 1.49677, 1.52307, 1.51169, 1.49674, 1.47889, 1.46041, 1.45913, 1.47101, 1.45502, 1.45872, 1.44431, 1.44265, 1.43814, 1.43697, 1.43452, 1.43178, 1.43051, 1.4292, 1.4274, 1.42575, 1.42209, 1.41978, 1.4219, 1.4165, 1.41587, 1.41594, 1.41503, 1.41211, 1.41075, 1.40875, 1.40699, 1.40467, 1.40242, 1.40038, 1.39871, 1.39676, 1.39546, 1.39373, 1.39273, 1.39124, 1.39054, 1.39004, 1.38978, 1.39203, 1.39131, 1.38938, 1.39023, 1.38963, 1.39059, 1.38851, 1.38944, 1.38874, 1.38747, 1.38179, 1.38016, 1.37796, 1.37363, 1.37114, 1.37062, 1.36752, 1.36435, 1.36262, 1.36271, 1.36451, 1.36393, 1.36478, 1.36551, 1.36446, 1.36236, 1.36076, 1.3586, 1.36097, 1.35908, 1.35758, 1.35642, 1.35504, 1.35138, 1.3509, 1.3496, 1.34963, 1.34826, 1.3507, 1.35869, 1.36014, 1.36042, 1.3676, 1.40713, 1.47029, 1.48231, 1.55456, 1.60477, 1.70651, 1.72009, 1.68899, 1.45726, 1.45829, 1.34089, 1.30595, 1.33439, 1.33919, 1.34736, 1.32595, 1.3237, 1.3205, 1.32066, 1.31798, 1.31923, 1.31718, 1.31563, 1.31628, 1.31549, 1.31397, 1.31172, 1.31239, 1.312, 1.30859
1.64096, 1.64135, 1.64084, 1.64111, 1.63847, 1.63679, 1.6368, 1.63519, 1.63464, 1.63395, 1.63367, 1.63141, 1.62988, 1.62774, 1.62651, 1.62317, 1.62184, 1.6181, 1.61676, 1.61481, 1.63654, 1.61991, 1.60941, 1.60882, 1.62036, 1.62058, 1.60698, 1.5958, 1.63944, 1.68748, 1.73044, 1.76925, 1.86493, 1.85801, 2.19254, 1.76093, 1.64531, 1.57609, 1.55199, 1.55222, 1.57766, 1.58227, 1.58101, 1.58221, 1.57388, 1.57477, 1.57102, 1.56949, 1.56622, 1.56406, 1.56289, 1.57269, 1.55604, 1.55551, 1.55568, 1.5489, 1.54571, 1.54426, 1.54808, 1.53917, 1.53753, 1.53616, 1.53448, 1.53117, 1.52855, 1.52619, 1.52823, 1.52313, 1.52171, 1.51978, 1.51759, 1.51574, 1.51436, 1.51401, 1.51201, 1.51088, 1.5096, 1.50856, 1.50649, 1.50471, 1.50272, 1.49815, 1.49722, 1.49393, 1.49891, 1.49885, 1.52064, 1.48655, 1.48678, 1.48524, 1.48934, 1.48158, 1.48066, 1.47939, 1.47789, 1.47714, 1.47757, 1.48881, 1.4839, 1.49226, 1.5037, 1.48533, 1.49247, 1.49173, 1.53378, 1.52009, 1.52304, 1.53435, 1.5179, 1.51764, 1.50652, 1.50596, 1.49197, 1.50336, 1.49691, 1.50324, 1.50943, 1.48927, 1.47123, 1.47214, 1.46322, 1.45656, 1.45118, 1.44882, 1.44273, 1.43967, 1.43766, 1.43384, 1.43055, 1.42958, 1.42764, 1.42566, 1.42388, 1.42329, 1.42113, 1.42007, 1.41876, 1.41741, 1.41612, 1.41375, 1.41261, 1.41018, 1.40824, 1.40575, 1.40412, 1.40222, 1.40144, 1.39706, 1.39819, 1.39722, 1.39413, 1.39393, 1.39156, 1.39128, 1.3909, 1.38899, 1.38858, 1.39005, 1.38898, 1.38934, 1.38933, 1.38822, 1.3868, 1.38729, 1.38527, 1.38465, 1.38266, 1.3804, 1.37955, 1.37334, 1.37117, 1.36891, 1.36688, 1.36685, 1.3646, 1.36297, 1.36365, 1.36237, 1.36262, 1.36143, 1.35897, 1.35898, 1.35881, 1.35939, 1.35543, 1.35654, 1.35736, 1.35359, 1.35471, 1.35072, 1.34784, 1.34716, 1.34665, 1.34759, 1.36131, 1.35032, 1.35336, 1.35374, 1.31316, 1.34799, 1.41592, 1.47384, 1.49686, 1.54919, 1.58236, 1.65728, 1.71017, 1.71247, 1.52258, 1.45007, 1.32413, 1.28797, 1.33721, 1.34703, 1.34605, 1.32918, 1.32394, 1.31946, 1.31927, 1.3207, 1.31922, 1.31968, 1.31939, 1.31727, 1.31925, 1.31183, 1.31178, 1.31418, 1.31216, 1.3092
1.64183, 1.64064, 1.64178, 1.64088, 1.63747, 1.63416, 1.63247, 1.63303, 1.6303, 1.63094, 1.62996, 1.62852, 1.62803, 1.62556, 1.62463, 1.621, 1.61912, 1.61745, 1.61624, 1.61325, 1.61298, 1.61977, 1.61356, 1.60736, 1.6101, 1.61042, 1.59239, 1.5932, 1.61958, 1.67358, 1.7593, 1.78587, 1.85846, 1.80115, 1.75414, 1.70582, 1.70614, 1.53721, 1.52631, 1.56799, 1.57172, 1.57932, 1.57656, 1.57035, 1.57594, 1.56853, 1.56642, 1.56448, 1.56226, 1.56842, 1.56941, 1.57324, 1.56119, 1.55269, 1.55211, 1.55805, 1.54545, 1.54387, 1.54193, 1.54022, 1.53797, 1.53618, 1.53328, 1.53048, 1.52729, 1.52466, 1.5207, 1.51862, 1.51763, 1.51762, 1.51706, 1.51595, 1.51324, 1.51241, 1.50981, 1.50879, 1.51315, 1.50596, 1.50465, 1.50292, 1.50133, 1.4983, 1.49731, 1.4969, 1.49226, 1.49027, 1.48937, 1.48814, 1.48646, 1.48546, 1.48334, 1.48157, 1.47975, 1.47871, 1.47775, 1.47605, 1.47821, 1.47763, 1.47901, 1.48147, 1.47808, 1.47181, 1.48713, 1.52362, 1.51865, 1.53198, 1.57459, 1.52148, 1.50179, 1.4965, 1.49471, 1.51225, 1.4752, 1.51944, 1.51426, 1.49937, 1.50328, 1.5056, 1.45735, 1.45451, 1.45432, 1.45822, 1.44763, 1.44157, 1.4416, 1.45635, 1.43344, 1.43553, 1.42782, 1.42589, 1.42565, 1.4269, 1.42618, 1.42264, 1.42043, 1.4186, 1.41588, 1.41549, 1.41575, 1.41559, 1.41321, 1.41245, 1.40878, 1.40646, 1.40372, 1.40337, 1.40417, 1.40345, 1.40489, 1.39954, 1.39812, 1.39588, 1.39602, 1.39455, 1.39096, 1.39102, 1.39016, 1.39074, 1.38823, 1.39168, 1.38913, 1.38785, 1.38554, 1.39275, 1.38511, 1.38099, 1.3811, 1.37681, 1.37624, 1.36949, 1.36828, 1.36657, 1.36453, 1.36257, 1.36225, 1.36373, 1.36367, 1.36308, 1.3626, 1.36207, 1.36177, 1.36102, 1.35913, 1.35641, 1.35745, 1.3568, 1.355, 1.35355, 1.35222, 1.34984, 1.34862, 1.34704, 1.3452, 1.35331, 1.34255, 1.34117, 1.35699, 1.35838, 1.3228, 1.32384, 1.38168, 1.4639, 1.50091, 1.55763, 1.58638, 1.61967, 1.67698, 1.60878, 1.5315, 1.43027, 1.3582, 1.28584, 1.32532, 1.33643, 1.33229, 1.33096, 1.32144, 1.32439, 1.33006, 1.32627, 1.3226, 1.32271, 1.32227, 1.3343, 1.33738, 1.31613, 1.31549, 1.32684, 1.31437, 1.31315
1.64144, 1.64023, 1.63832, 1.63533, 1.63616, 1.6369, 1.63416, 1.63374, 1.63442, 1.63233, 1.63091, 1.66496, 1.62807, 1.64325, 1.62451, 1.6223, 1.6204, 1.61698, 1.6161, 1.61297, 1.62019, 1.61004, 1.60878, 1.6096, 1.60968, 1.63057, 1.61333, 1.57363, 1.64997, 1.66851, 1.79347, 1.8488, 1.91902, 1.79805, 1.75918, 1.75282, 1.75531, 1.59799, 1.56461, 1.57618, 1.5957, 1.58592, 1.5912, 1.58237, 1.58203, 1.57289, 1.5721, 1.56945, 1.57908, 1.56943, 1.56177, 1.55986, 1.57497, 1.56215, 1.55288, 1.54933, 1.54751, 1.54555, 1.54533, 1.54426, 1.541, 1.53842, 1.5367, 1.53392, 1.5324, 1.52933, 1.52521, 1.52377, 1.52041, 1.52027, 1.51972, 1.51821, 1.51999, 1.51355, 1.51217, 1.5101, 1.50767, 1.50552, 1.5053, 1.5049, 1.503, 1.49983, 1.49697, 1.49618, 1.49213, 1.49266, 1.49043, 1.49828, 1.48816, 1.4864, 1.48481, 1.48355, 1.4847, 1.48203, 1.48088, 1.48132, 1.48046, 1.47954, 1.47908, 1.50215, 1.49481, 1.49347, 1.48971, 1.49403, 1.50407, 1.516, 1.55304, 1.5167, 1.49768, 1.50617, 1.48257, 1.49131, 1.4813, 1.49122, 1.4901, 1.5, 1.50263, 1.49588, 1.45844, 1.46405, 1.46536, 1.46114, 1.44678, 1.44726, 1.43811, 1.43374, 1.43011, 1.4287, 1.4279, 1.42619, 1.42443, 1.44077, 1.42361, 1.42006, 1.41999, 1.418, 1.41841, 1.41634, 1.41569, 1.41474, 1.41398, 1.41148, 1.40882, 1.40887, 1.40813, 1.42528, 1.40634, 1.40316, 1.40116, 1.39853, 1.39603, 1.44021, 1.39347, 1.39471, 1.39234, 1.39016, 1.38799, 1.38764, 1.38589, 1.38555, 1.38561, 1.38285, 1.3787, 1.3788, 1.37499, 1.37529, 1.37331, 1.3711, 1.3713, 1.36874, 1.36734, 1.36287, 1.36326, 1.36381, 1.36311, 1.3615, 1.36099, 1.36117, 1.36157, 1.36776, 1.37951, 1.37793, 1.35654, 1.35478, 1.35183, 1.35195, 1.35138, 1.35001, 1.34985, 1.34985, 1.34688, 1.34499, 1.34432, 1.34756, 1.3457, 1.35887, 1.34708, 1.35314, 1.33968, 1.3118, 1.39608, 1.45463, 1.47591, 1.5265, 1.62273, 1.70595, 1.70669, 1.72377, 1.63001, 1.43441, 1.30216, 1.31664, 1.33801, 1.33594, 1.33658, 1.33903, 1.33816, 1.32345, 1.32045, 1.31796, 1.31727, 1.31909, 1.31979, 1.32631, 1.31714, 1.32439, 1.33501, 1.31608, 1.31555, 1.31042
1.64524, 1.63843, 1.64124, 1.63776, 1.63411, 1.63361, 1.63174, 1.63257, 1.63035, 1.63127, 1.6271, 1.62651, 1.62674, 1.62419, 1.62411, 1.61935, 1.6178, 1.64566, 1.61145, 1.61044, 1.60807, 1.60675, 1.60597, 1.62809, 1.6064, 1.61135, 1.60528, 1.57876, 1.59906, 1.69568, 1.7318, 1.8149, 1.81167, 1.74683, 1.77594, 1.85289, 1.83226, 1.58735, 1.54577, 1.57695, 1.58283, 1.58964, 1.58358, 1.58843, 1.57976, 1.58928, 1.56936, 1.57225, 1.56599, 1.56199, 1.55719, 1.55442, 1.55149, 1.55161, 1.55794, 1.54485, 1.58502, 1.54192, 1.54107, 1.54065, 1.5378, 1.5351, 1.5342, 1.5329, 1.53122, 1.5306, 1.5286, 1.52496, 1.52522, 1.5224, 1.5204, 1.51877, 1.5173, 1.51491, 1.51344, 1.51058, 1.50906, 1.50624, 1.51826, 1.50254, 1.50189, 1.50102, 1.49876, 1.4965, 1.49282, 1.49198, 1.49272, 1.49003, 1.48842, 1.48795, 1.48559, 1.4856, 1.48442, 1.48201, 1.4811, 1.48138, 1.48106, 1.48031, 1.48316, 1.48652, 1.4911, 1.48527, 1.48992, 1.48368, 1.51734, 1.50729, 1.50844, 1.50411, 1.54627, 1.53752, 1.47453, 1.47892, 1.51642, 1.49281, 1.4908, 1.49209, 1.48792, 1.4837, 1.45722, 1.45173, 1.45093, 1.4446, 1.45434, 1.45177, 1.43165, 1.42983, 1.42763, 1.4336, 1.42682, 1.42507, 1.42419, 1.42603, 1.42435, 1.42285, 1.42133, 1.41945, 1.41834, 1.41695, 1.41564, 1.41224, 1.4122, 1.40992, 1.40874, 1.40503, 1.40461, 1.4043, 1.40226, 1.39986, 1.40056, 1.39945, 1.39656, 1.43179, 1.39451, 1.39247, 1.39226, 1.38992, 1.38933, 1.38893, 1.38506, 1.3819, 1.38451, 1.37969, 1.3788, 1.3769, 1.3761, 1.37167, 1.37185, 1.37105, 1.36844, 1.36652, 1.36295, 1.36023, 1.36301, 1.36037, 1.35919, 1.35903, 1.35925, 1.36021, 1.35918, 1.35878, 1.37368, 1.35822, 1.3595, 1.35438, 1.35423, 1.37095, 1.3539, 1.35332, 1.35039, 1.34976, 1.34737, 1.34765, 1.34925, 1.34702, 1.34718, 1.35672, 1.34835, 1.34487, 1.3431, 1.29762, 1.38499, 1.41669, 1.47556, 1.55763, 1.56796, 1.6032, 1.72806, 1.72041, 1.54758, 1.41964, 1.33222, 1.28331, 1.33028, 1.32718, 1.33405, 1.329, 1.32761, 1.3268, 1.31985, 1.32279, 1.3202, 1.31687, 1.32617, 1.32413, 1.31969, 1.34051, 1.32517, 1.32631, 1.31045, 1.31237
1.64014, 1.63846, 1.63665, 1.63306, 1.63173, 1.62967, 1.62828, 1.626, 1.62618, 1.62529, 1.62393, 1.62003, 1.61795, 1.61658, 1.61578, 1.61254, 1.61259, 1.60857, 1.60789, 1.60437, 1.60365, 1.599, 1.59777, 1.59792, 1.59608, 1.59795, 1.59017, 1.57613, 1.58624, 1.6367, 1.69216, 1.77518, 1.87155, 1.86992, 2.10428, 1.74521, 1.69941, 1.61389, 1.56516, 1.5787, 1.57872, 1.58553, 1.57232, 1.56974, 1.56792, 1.5654, 1.56391, 1.5611, 1.55683, 1.56957, 1.56448, 1.55558, 1.54672, 1.54362, 1.54038, 1.53715, 1.53485, 1.53308, 1.53296, 1.53331, 1.53193, 1.52991, 1.52958, 1.52839, 1.53123, 1.52707, 1.52505, 1.52517, 1.5195, 1.51785, 1.51471, 1.5108, 1.50945, 1.50778, 1.50622, 1.50557, 1.50436, 1.50317, 1.49935, 1.498, 1.49732, 1.49444, 1.4916, 1.4904, 1.49336, 1.49605, 1.48633, 1.48357, 1.48098, 1.48132, 1.48882, 1.48066, 1.47979, 1.47809, 1.47814, 1.47572, 1.47512, 1.48065, 1.476, 1.4776, 1.4863, 1.49155, 1.4869, 1.49698, 1.51114, 1.51634, 1.50095, 1.49876, 1.50738, 1.48036, 1.46859, 1.48441, 1.46276, 1.49239, 1.49679, 1.49756, 1.52402, 1.48633, 1.46149, 1.4408, 1.44256, 1.43867, 1.43692, 1.44721, 1.42654, 1.42554, 1.42392, 1.4228, 1.42213, 1.42187, 1.41936, 1.41827, 1.41899, 1.4177, 1.41697, 1.41612, 1.41568, 1.41453, 1.41031, 1.40694, 1.40758, 1.40603, 1.40476, 1.40088, 1.40109, 1.39945, 1.39883, 1.39862, 1.39827, 1.39731, 1.39274, 1.39286, 1.38949, 1.38822, 1.38668, 1.38439, 1.38378, 1.40917, 1.37997, 1.37779, 1.37542, 1.37239, 1.37213, 1.37005, 1.36846, 1.36425, 1.36382, 1.3618, 1.36088, 1.358, 1.35804, 1.35945, 1.35692, 1.35715, 1.35658, 1.35657, 1.36369, 1.35483, 1.361, 1.35731, 1.3551, 1.35573, 1.3552, 1.35519, 1.35019, 1.34914, 1.35158, 1.34775, 1.34557, 1.3448, 1.34351, 1.34352, 1.3415, 1.34077, 1.34121, 1.34329, 1.3426, 1.35385, 1.32614, 1.32678, 1.40604, 1.40325, 1.47832, 1.54485, 1.57653, 1.66189, 1.73555, 1.73937, 1.48722, 1.43248, 1.35417, 1.30347, 1.31503, 1.318, 1.32306, 1.31453, 1.31372, 1.32035, 1.3162, 1.32695, 1.31668, 1.32068, 1.31302, 1.31099, 1.31088, 1.30765, 1.309, 1.3034, 1.30644, 1.30484
1.63733, 1.63615, 1.63419, 1.63345, 1.63122, 1.62755, 1.62402, 1.62231, 1.62069, 1.61955, 1.61822, 1.61304, 1.61304, 1.6096, 1.61143, 1.6074, 1.60639, 1.63138, 1.60189, 1.62097, 1.5978, 1.60223, 1.58917, 1.58869, 1.59659, 1.60559, 1.59259, 1.56934, 1.62746, 1.70585, 1.70233, 1.77838, 1.808, 1.9303, 2.34493, 1.99923, 1.69313, 1.63461, 1.54106, 1.58255, 1.57891, 1.56869, 1.57267, 1.56209, 1.55858, 1.55604, 1.55537, 1.55078, 1.54846, 1.54808, 1.56576, 1.54196, 1.55316, 1.53334, 1.5322, 1.53129, 1.52822, 1.52653, 1.52453, 1.52329, 1.52354, 1.52324, 1.5234, 1.52262, 1.52269, 1.52788, 1.51911, 1.51964, 1.52247, 1.5134, 1.5129, 1.50853, 1.50742, 1.50598, 1.5054, 1.503, 1.50033, 1.49826, 1.4954, 1.49309, 1.49294, 1.49038, 1.48654, 1.48528, 1.48157, 1.48146, 1.47992, 1.47837, 1.47672, 1.47669, 1.48239, 1.47356, 1.47213, 1.47202, 1.46936, 1.46835, 1.46776, 1.47964, 1.48171, 1.47216, 1.47493, 1.48531, 1.47467, 1.47869, 1.48985, 1.50719, 1.50367, 1.48677, 1.49439, 1.50493, 1.48549, 1.46978, 1.48556, 1.50273, 1.51906, 1.48979, 1.48535, 1.45928, 1.46144, 1.46488, 1.44982, 1.43753, 1.43453, 1.43126, 1.44086, 1.422, 1.4192, 1.41902, 1.41702, 1.41433, 1.41396, 1.41978, 1.41964, 1.41236, 1.41968, 1.41056, 1.41952, 1.40838, 1.40754, 1.40552, 1.40234, 1.39869, 1.39768, 1.39522, 1.3929, 1.39054, 1.39113, 1.38997, 1.38912, 1.38812, 1.38835, 1.38785, 1.38421, 1.38025, 1.37951, 1.37846, 1.37907, 1.37785, 1.37603, 1.3751, 1.37489, 1.37123, 1.36813, 1.36623, 1.36404, 1.36289, 1.35999, 1.35961, 1.35844, 1.35669, 1.3579, 1.35706, 1.35611, 1.34987, 1.35018, 1.35309, 1.35379, 1.35359, 1.35337, 1.3511, 1.35197, 1.35193, 1.3466, 1.34918, 1.34776, 1.34704, 1.35064, 1.34315, 1.3394, 1.33647, 1.33655, 1.33696, 1.33835, 1.33691, 1.33598, 1.34383, 1.33979, 1.33814, 1.33451, 1.30687, 1.33662, 1.39825, 1.45656, 1.50744, 1.60045, 1.60342, 1.71688, 1.73418, 1.48918, 1.44588, 1.34377, 1.28117, 1.29707, 1.31358, 1.3305, 1.31108, 1.30998, 1.30914, 1.31069, 1.31021, 1.30991, 1.30813, 1.30345, 1.30524, 1.30396, 1.30277, 1.29889, 1.2972, 1.2972, 1.29566
1.65148, 1.63398, 1.63416, 1.63055, 1.63052, 1.62965, 1.6271, 1.62648, 1.62014, 1.61979, 1.61646, 1.61372, 1.61565, 1.61156, 1.61574, 1.60821, 1.60642, 1.60482, 1.60913, 1.61567, 1.59635, 1.59568, 1.59372, 1.59188, 1.61772, 1.60876, 1.58576, 1.57674, 1.58893, 1.634, 1.70908, 1.77545, 1.83979, 1.88015, 1.94702, 1.8522, 1.72257, 1.58592, 1.5585, 1.56947, 1.57992, 1.57421, 1.56497, 1.55971, 1.55944, 1.55559, 1.5543, 1.55075, 1.54952, 1.54383, 1.54136, 1.53887, 1.53653, 1.53406, 1.53322, 1.52937, 1.52701, 1.52576, 1.52339, 1.52278, 1.51965, 1.51962, 1.51843, 1.51953, 1.51774, 1.51762, 1.5162, 1.51319, 1.51316, 1.51281, 1.50951, 1.5094, 1.50594, 1.50426, 1.50257, 1.4996, 1.49814, 1.49615, 1.49545, 1.49281, 1.49241, 1.48838, 1.48658, 1.4826, 1.4814, 1.47946, 1.47854, 1.47762, 1.47606, 1.47522, 1.4749, 1.47231, 1.47009, 1.4673, 1.46636, 1.46509, 1.46522, 1.46497, 1.46635, 1.46903, 1.47237, 1.47067, 1.4786, 1.4672, 1.47812, 1.50663, 1.52681, 1.49613, 1.48537, 1.49328, 1.47445, 1.47179, 1.48272, 1.47949, 1.50089, 1.50334, 1.52388, 1.47049, 1.45147, 1.4608, 1.44829, 1.43724, 1.44408, 1.43382, 1.43091, 1.42603, 1.41668, 1.4139, 1.41252, 1.41355, 1.41212, 1.41254, 1.41102, 1.4093, 1.40737, 1.40657, 1.407, 1.4072, 1.40351, 1.40178, 1.40077, 1.40071, 1.39614, 1.39484, 1.39119, 1.38975, 1.3868, 1.3871, 1.3843, 1.38263, 1.38267, 1.38497, 1.38163, 1.40024, 1.38002, 1.37814, 1.37947, 1.37751, 1.37618, 1.37456, 1.37233, 1.37036, 1.36782, 1.36426, 1.36408, 1.3614, 1.36131, 1.35824, 1.35306, 1.35441, 1.35458, 1.35377, 1.35064, 1.34805, 1.34867, 1.34977, 1.34857, 1.35124, 1.3528, 1.35237, 1.35074, 1.34856, 1.34748, 1.348, 1.35399, 1.3462, 1.34092, 1.34041, 1.34014, 1.33837, 1.34697, 1.33782, 1.33122, 1.32932, 1.3305, 1.32975, 1.33699, 1.33728, 1.33049, 1.29007, 1.32631, 1.42735, 1.48641, 1.48528, 1.58496, 1.70025, 1.68278, 1.87625, 1.62414, 1.4051, 1.33683, 1.29737, 1.31667, 1.32574, 1.31527, 1.31884, 1.30659, 1.30736, 1.3087, 1.31368, 1.30774, 1.30496, 1.30574, 1.30608, 1.29946, 1.30091, 1.29619, 1.29494, 1.29466, 1.29438
1.63142, 1.63706, 1.63471, 1.62681, 1.62655, 1.62465, 1.62281, 1.62109, 1.61933, 1.61628, 1.61473, 1.61505, 1.6112, 1.60981, 1.60742, 1.60625, 1.60791, 1.6061, 1.60091, 1.59939, 1.598, 1.59586, 1.59335, 1.60631, 1.58994, 1.59239, 1.59169, 1.59377, 1.56369, 1.61827, 1.64488, 1.73826, 1.81663, 1.88897, 2.12366, 1.93454, 1.72204, 1.55827, 1.54119, 1.59226, 1.57544, 1.57297, 1.57864, 1.55941, 1.56791, 1.55241, 1.55128, 1.54889, 1.54615, 1.54398, 1.54071, 1.53982, 1.56122, 1.53384, 1.5318, 1.5315, 1.53043, 1.52742, 1.52716, 1.52369, 1.52244, 1.51923, 1.51926, 1.51587, 1.51666, 1.51328, 1.51243, 1.51017, 1.50916, 1.50721, 1.50657, 1.50329, 1.50302, 1.50003, 1.49837, 1.49598, 1.4924, 1.49135, 1.49002, 1.48944, 1.4883, 1.4861, 1.48437, 1.48336, 1.48059, 1.481, 1.47806, 1.47586, 1.4747, 1.47448, 1.47197, 1.47196, 1.46794, 1.46621, 1.46472, 1.48266, 1.46301, 1.47616, 1.47187, 1.4728, 1.46911, 1.4679, 1.47131, 1.46504, 1.47173, 1.47758, 1.51383, 1.48213, 1.48236, 1.48625, 1.47505, 1.4572, 1.49249, 1.47798, 1.47796, 1.49794, 1.48456, 1.48141, 1.45657, 1.46727, 1.44232, 1.45839, 1.43861, 1.44069, 1.42735, 1.41747, 1.42309, 1.4142, 1.41282, 1.41182, 1.42381, 1.41047, 1.4101, 1.4098, 1.40875, 1.40361, 1.40344, 1.40087, 1.39882, 1.39778, 1.39552, 1.39578, 1.39389, 1.39279, 1.39176, 1.39028, 1.39847, 1.38898, 1.38717, 1.38466, 1.38322, 1.37936, 1.37789, 1.3782, 1.37696, 1.37621, 1.37656, 1.37428, 1.37234, 1.37199, 1.3723, 1.371, 1.36941, 1.36719, 1.36449, 1.36289, 1.36115, 1.36046, 1.35711, 1.35441, 1.35245, 1.35121, 1.3509, 1.35038, 1.35145, 1.35321, 1.35144, 1.34869, 1.35157, 1.34892, 1.34957, 1.35129, 1.34681, 1.34628, 1.34481, 1.34456, 1.34425, 1.34239, 1.3526, 1.33895, 1.33981, 1.34095, 1.34364, 1.34768, 1.34943, 1.34614, 1.34724, 1.33569, 1.32691, 1.30139, 1.33872, 1.39474, 1.41943, 1.47486, 1.55338, 1.64392, 1.69267, 1.72565, 1.59955, 1.43849, 1.35211, 1.295, 1.31833, 1.32605, 1.32989, 1.31858, 1.31185, 1.31223, 1.3123, 1.30856, 1.31577, 1.30669, 1.30285, 1.30334, 1.3032, 1.3003, 1.29929, 1.30619, 1.29928, 1.29954
