1.63827, 1.62083, 1.61341, 1.60918, 1.60218, 1.60736, 1.61934, 1.6625, 1.6818, 1.66211, 1.56101, 1.55354, 1.56191, 1.57195, 1.52707, 1.52109, 1.51979, 1.51053, 1.49958, 1.49554, 1.4908, 1.48193, 1.47668, 1.4706, 1.46684, 1.462, 1.4562, 1.53095, 1.7363, 1.4671, 1.43448, 1.42557, 1.41466, 1.41036, 1.40633, 1.3967, 1.39176, 1.38496, 1.37961, 1.37549, 1.36859, 1.36649, 1.36013, 1.35515, 1.3502, 1.34428, 1.34379, 1.33531, 1.32965, 1.33658, 1.33734, 1.33449, 1.34862, 1.3645, 1.3331, 1.30839, 1.29766, 1.29531, 1.28226, 1.28395, 
1.67788, 1.62693, 1.61936, 1.60894, 1.60775, 1.61583, 1.64409, 1.65997, 1.73123, 1.66495, 1.58192, 1.56187, 1.5575, 1.56102, 1.54671, 1.5388, 1.51769, 1.51652, 1.50436, 1.50198, 1.49486, 1.48604, 1.48342, 1.46937, 1.46627, 1.4627, 1.46136, 1.52941, 1.74822, 1.4209, 1.43646, 1.43749, 1.41818, 1.40989, 1.40062, 1.39681, 1.39633, 1.39505, 1.38373, 1.37989, 1.37512, 1.36749, 1.36101, 1.35694, 1.35106, 1.35063, 1.3467, 1.36937, 1.33985, 1.33939, 1.34175, 1.35122, 1.35479, 1.36829, 1.36298, 1.31045, 1.30893, 1.28999, 1.28883, 1.28915, 
1.67163, 1.68131, 1.63439, 1.61891, 1.61287, 1.61384, 1.63338, 1.68631, 1.72283, 1.65599, 1.57677, 1.56822, 1.55179, 1.54995, 1.5422, 1.53963, 1.52249, 1.52059, 1.51066, 1.50514, 1.49942, 1.49396, 1.4888, 1.47626, 1.47112, 1.47157, 1.46799, 1.52773, 1.72968, 1.41279, 1.44838, 1.44229, 1.42472, 1.41603, 1.40929, 1.40591, 1.3995, 1.3995, 1.38917, 1.38446, 1.3813, 1.37766, 1.36797, 1.36055, 1.35974, 1.3576, 1.35489, 1.35161, 1.34378, 1.34696, 1.34758, 1.36827, 1.35641, 1.37531, 1.34657, 1.3264, 1.30747, 1.30231, 1.29476, 1.29304, 
1.6507, 1.68542, 1.62618, 1.6314, 1.62113, 1.63352, 1.61979, 1.64668, 1.70006, 1.64081, 1.57622, 1.57478, 1.56094, 1.56518, 1.56796, 1.5395, 1.52802, 1.52221, 1.51427, 1.50713, 1.50172, 1.49405, 1.48801, 1.48392, 1.48168, 1.47876, 1.46367, 1.58989, 1.74609, 1.42568, 1.45716, 1.46112, 1.43843, 1.4233, 1.41899, 1.41207, 1.40731, 1.40004, 1.39727, 1.39402, 1.38734, 1.37945, 1.37023, 1.36303, 1.35777, 1.36028, 1.36271, 1.35789, 1.35364, 1.35322, 1.36742, 1.36149, 1.37543, 1.38271, 1.38535, 1.33361, 1.32539, 1.31082, 1.30603, 1.30437, 
1.65313, 1.68273, 1.63399, 1.62589, 1.62464, 1.62325, 1.64713, 1.67242, 1.76504, 1.72276, 1.59293, 1.57474, 1.56098, 1.56144, 1.57206, 1.53541, 1.54399, 1.52668, 1.5205, 1.51281, 1.50637, 1.50205, 1.49855, 1.49262, 1.48605, 1.47969, 1.46481, 1.68958, 1.74726, 1.44879, 1.47198, 1.45833, 1.44031, 1.42991, 1.42323, 1.41681, 1.41095, 1.40541, 1.40175, 1.39855, 1.39507, 1.38276, 1.37767, 1.36732, 1.3653, 1.35938, 1.35753, 1.35449, 1.35077, 1.35025, 1.35309, 1.37822, 1.39913, 1.39829, 1.39976, 1.34568, 1.3445, 1.32261, 1.30636, 1.30836, 
1.65227, 1.66976, 1.65253, 1.63407, 1.6481, 1.64499, 1.61951, 1.68793, 1.73857, 1.72917, 1.5874, 1.57832, 1.58568, 1.57463, 1.57559, 1.54733, 1.54639, 1.53372, 1.52112, 1.51983, 1.50822, 1.505, 1.50309, 1.4965, 1.50345, 1.49049, 1.49926, 1.6504, 1.72357, 1.44069, 1.46789, 1.45183, 1.45811, 1.43283, 1.4288, 1.42525, 1.4174, 1.41576, 1.40563, 1.40474, 1.3999, 1.3934, 1.38295, 1.37439, 1.36888, 1.3633, 1.3611, 1.35654, 1.35634, 1.35806, 1.35636, 1.35202, 1.41078, 1.41103, 1.4067, 1.35135, 1.33339, 1.32022, 1.31364, 1.30861, 
1.66081, 1.66152, 1.66716, 1.65433, 1.63233, 1.63995, 1.64464, 1.68068, 1.76469, 1.65884, 1.60922, 1.58611, 1.56531, 1.55769, 1.562, 1.57227, 1.55391, 1.53496, 1.52946, 1.5225, 1.51215, 1.50695, 1.49764, 1.49618, 1.48783, 1.48455, 1.47939, 1.59616, 1.7191, 1.46503, 1.45442, 1.45772, 1.43988, 1.43181, 1.42873, 1.42097, 1.41938, 1.41538, 1.40506, 1.40267, 1.40345, 1.40166, 1.39261, 1.38321, 1.3788, 1.37003, 1.36795, 1.36473, 1.35781, 1.36793, 1.35477, 1.36026, 1.3951, 1.41681, 1.39277, 1.33482, 1.33374, 1.3198, 1.30983, 1.31184, 
1.66116, 1.65756, 1.66984, 1.66409, 1.62849, 1.62631, 1.65098, 1.70629, 1.72352, 1.66392, 1.59602, 1.58802, 1.56947, 1.57332, 1.55404, 1.56517, 1.5523, 1.54395, 1.53036, 1.52037, 1.51422, 1.50924, 1.50269, 1.49846, 1.49557, 1.49418, 1.489, 1.59137, 1.69688, 1.54121, 1.45711, 1.45129, 1.43939, 1.44199, 1.42587, 1.42115, 1.41572, 1.41621, 1.40897, 1.40214, 1.39952, 1.39832, 1.39264, 1.39213, 1.38017, 1.37386, 1.37451, 1.37187, 1.36434, 1.37559, 1.35678, 1.39349, 1.40374, 1.42791, 1.42332, 1.34969, 1.33663, 1.32479, 1.3165, 1.31931, 
1.6647, 1.66838, 1.66545, 1.67499, 1.63403, 1.63785, 1.65117, 1.68735, 1.74007, 1.74193, 1.59207, 1.593, 1.57514, 1.57854, 1.55737, 1.55684, 1.54447, 1.53867, 1.53433, 1.52679, 1.52062, 1.51557, 1.50934, 1.50039, 1.49297, 1.48919, 1.4798, 1.54307, 1.70054, 1.47812, 1.4505, 1.44839, 1.43841, 1.43786, 1.42734, 1.42407, 1.4209, 1.41387, 1.4094, 1.40298, 1.40207, 1.39785, 1.39688, 1.39074, 1.38138, 1.37662, 1.37444, 1.37153, 1.36768, 1.36787, 1.36173, 1.34743, 1.40224, 1.4517, 1.41391, 1.35185, 1.34003, 1.32168, 1.32951, 1.31186, 
1.66341, 1.65764, 1.65442, 1.66172, 1.63752, 1.63479, 1.62188, 1.74535, 1.77618, 1.75216, 1.59607, 1.59565, 1.58378, 1.57521, 1.56949, 1.56198, 1.55911, 1.53992, 1.53425, 1.53049, 1.52578, 1.51815, 1.51473, 1.50088, 1.49861, 1.4954, 1.48094, 1.64907, 1.70379, 1.68305, 1.43944, 1.45538, 1.44458, 1.44822, 1.43294, 1.42896, 1.42645, 1.41991, 1.41553, 1.40849, 1.40584, 1.40038, 1.39761, 1.39191, 1.38478, 1.3801, 1.37634, 1.37411, 1.3693, 1.36729, 1.36976, 1.3737, 1.40946, 1.45991, 1.42704, 1.35402, 1.35412, 1.3259, 1.31981, 1.31402, 
1.67142, 1.66352, 1.65807, 1.65459, 1.66994, 1.64559, 1.63225, 1.75423, 1.73175, 1.78501, 1.57873, 1.60058, 1.58881, 1.57705, 1.58931, 1.56589, 1.5701, 1.54894, 1.53819, 1.53107, 1.52555, 1.51916, 1.51109, 1.50433, 1.51087, 1.49736, 1.49751, 1.54382, 1.69276, 1.54332, 1.44489, 1.47096, 1.45101, 1.44526, 1.44097, 1.43208, 1.43353, 1.42899, 1.42052, 1.41655, 1.41102, 1.40609, 1.40252, 1.39669, 1.38851, 1.3831, 1.37919, 1.37418, 1.37176, 1.36752, 1.36777, 1.37641, 1.41012, 1.4398, 1.44984, 1.34348, 1.34473, 1.32839, 1.32474, 1.32066, 
1.67819, 1.66987, 1.6614, 1.65819, 1.67453, 1.64987, 1.63069, 1.72041, 1.74979, 1.75583, 1.61607, 1.61384, 1.58851, 1.57995, 1.57541, 1.57026, 1.5786, 1.561, 1.5401, 1.53398, 1.52729, 1.52358, 1.51576, 1.50866, 1.50579, 1.49957, 1.49904, 1.64084, 1.56885, 1.58895, 1.47772, 1.47462, 1.47871, 1.45049, 1.44281, 1.43554, 1.42952, 1.42823, 1.42295, 1.42703, 1.41429, 1.41394, 1.39703, 1.39504, 1.3852, 1.38164, 1.37548, 1.37053, 1.36948, 1.37556, 1.38148, 1.39248, 1.45241, 1.45105, 1.46147, 1.35348, 1.35338, 1.32992, 1.32514, 1.32251, 
1.68325, 1.67159, 1.66733, 1.6646, 1.68457, 1.65928, 1.62094, 1.72639, 1.77487, 1.7352, 1.60337, 1.60965, 1.58833, 1.58269, 1.57579, 1.56746, 1.58731, 1.56198, 1.56867, 1.53637, 1.5324, 1.5296, 1.5202, 1.51623, 1.52579, 1.52342, 1.49901, 1.52963, 1.69352, 1.68701, 1.49443, 1.47865, 1.47636, 1.45681, 1.44744, 1.43956, 1.441, 1.4329, 1.42763, 1.41995, 1.41845, 1.4137, 1.40694, 1.39646, 1.38917, 1.38503, 1.37867, 1.37283, 1.37046, 1.37161, 1.38171, 1.38264, 1.45473, 1.46525, 1.45016, 1.34894, 1.34024, 1.33288, 1.32891, 1.33265, 
1.68486, 1.68588, 1.66603, 1.65862, 1.68874, 1.65453, 1.62942, 1.77931, 1.83011, 1.81846, 1.58692, 1.6105, 1.59305, 1.58261, 1.57962, 1.57214, 1.60301, 1.55565, 1.55032, 1.54439, 1.53828, 1.53072, 1.53509, 1.51746, 1.50975, 1.51652, 1.48009, 1.54608, 1.67178, 1.64071, 1.49128, 1.47516, 1.47444, 1.46617, 1.45742, 1.45028, 1.44195, 1.43865, 1.42986, 1.42633, 1.41885, 1.41552, 1.41002, 1.4047, 1.39825, 1.38814, 1.38483, 1.37861, 1.37746, 1.37959, 1.38515, 1.38578, 1.47294, 1.47011, 1.47162, 1.33441, 1.34934, 1.33664, 1.33163, 1.33004, 
1.6832, 1.67528, 1.66827, 1.66163, 1.67639, 1.6684, 1.66945, 1.76669, 1.83178, 1.78715, 1.62403, 1.61071, 1.59708, 1.59575, 1.58309, 1.5763, 1.5685, 1.5719, 1.55072, 1.54653, 1.54378, 1.53382, 1.52441, 1.5205, 1.51464, 1.51082, 1.51222, 1.56804, 1.69161, 1.68538, 1.49193, 1.4732, 1.48187, 1.46185, 1.45517, 1.44852, 1.44528, 1.44072, 1.43512, 1.42949, 1.42301, 1.41972, 1.41519, 1.40584, 1.39968, 1.39317, 1.38983, 1.38551, 1.38234, 1.38101, 1.39952, 1.36477, 1.50297, 1.49695, 1.48754, 1.33528, 1.35177, 1.36149, 1.34034, 1.33563, 
1.68537, 1.67471, 1.67455, 1.65756, 1.6582, 1.68623, 1.6341, 1.72979, 1.82018, 1.82863, 1.61915, 1.60812, 1.61365, 1.60693, 1.57761, 1.57367, 1.56703, 1.57525, 1.57233, 1.55171, 1.53835, 1.53249, 1.53756, 1.51328, 1.51882, 1.51952, 1.51946, 1.47765, 1.68716, 1.62107, 1.45147, 1.47565, 1.46491, 1.4542, 1.44723, 1.44282, 1.44056, 1.43614, 1.43125, 1.43028, 1.42396, 1.42059, 1.4151, 1.40963, 1.40268, 1.39809, 1.39117, 1.38583, 1.38547, 1.38492, 1.3916, 1.38064, 1.47827, 1.48454, 1.49515, 1.33083, 1.34981, 1.34409, 1.34958, 1.3364, 
1.68551, 1.67943, 1.66918, 1.655, 1.6641, 1.67105, 1.61587, 1.73449, 1.8543, 1.78044, 1.61954, 1.62045, 1.59038, 1.59881, 1.57646, 1.57055, 1.56195, 1.5644, 1.55754, 1.54385, 1.54154, 1.53039, 1.51236, 1.50597, 1.50125, 1.50675, 1.51317, 1.5615, 1.67768, 1.63838, 1.44473, 1.47126, 1.45846, 1.45803, 1.44488, 1.44058, 1.43762, 1.42936, 1.42831, 1.4237, 1.41975, 1.41718, 1.41293, 1.40805, 1.40303, 1.39397, 1.38933, 1.3865, 1.3949, 1.37855, 1.38736, 1.36172, 1.51417, 1.51784, 1.52208, 1.34695, 1.37568, 1.34475, 1.33981, 1.33465, 
1.68944, 1.68367, 1.68178, 1.67101, 1.67264, 1.67218, 1.64891, 1.66516, 1.81987, 1.82441, 1.61289, 1.58631, 1.60045, 1.59169, 1.58504, 1.58565, 1.56913, 1.5595, 1.56205, 1.55174, 1.54568, 1.53958, 1.52473, 1.51921, 1.51304, 1.522, 1.528, 1.58944, 1.65318, 1.61988, 1.44876, 1.47729, 1.46801, 1.46072, 1.4545, 1.44846, 1.44077, 1.43318, 1.43619, 1.43913, 1.42547, 1.4229, 1.42109, 1.40573, 1.40289, 1.40326, 1.39275, 1.39108, 1.38233, 1.38856, 1.38887, 1.37876, 1.47933, 1.51796, 1.50715, 1.34398, 1.3728, 1.345, 1.34593, 1.34106, 
1.69921, 1.68272, 1.679, 1.67245, 1.67539, 1.67083, 1.65219, 1.67208, 1.83766, 1.84573, 1.62071, 1.61645, 1.61394, 1.60667, 1.58996, 1.58327, 1.57026, 1.57672, 1.56981, 1.56268, 1.54039, 1.54313, 1.53072, 1.52532, 1.53086, 1.52317, 1.52697, 1.58606, 1.67117, 1.66422, 1.48877, 1.482, 1.47895, 1.47506, 1.47351, 1.46067, 1.46867, 1.44745, 1.44427, 1.43391, 1.42857, 1.43341, 1.41818, 1.41499, 1.41143, 1.41039, 1.39974, 1.39575, 1.39877, 1.39711, 1.39122, 1.39011, 1.48591, 1.49598, 1.49415, 1.35848, 1.35543, 1.35376, 1.35521, 1.35213, 
1.68755, 1.68036, 1.66128, 1.65952, 1.66872, 1.66809, 1.61054, 1.74827, 1.76558, 1.85823, 1.62816, 1.61951, 1.61603, 1.58336, 1.59726, 1.57957, 1.55575, 1.55657, 1.55438, 1.55537, 1.5453, 1.5409, 1.52642, 1.52687, 1.5225, 1.52653, 1.51021, 1.48544, 1.64384, 1.64998, 1.44913, 1.47344, 1.49484, 1.46509, 1.46771, 1.44681, 1.44225, 1.42762, 1.44179, 1.41918, 1.4098, 1.4039, 1.40095, 1.39631, 1.38271, 1.38508, 1.3896, 1.39693, 1.37679, 1.36828, 1.3823, 1.36072, 1.49633, 1.53338, 1.53724, 1.42846, 1.36876, 1.34879, 1.34442, 1.32187, 
1.69916, 1.6868, 1.68009, 1.67576, 1.66838, 1.67132, 1.64715, 1.63876, 1.90259, 1.88977, 1.60866, 1.6234, 1.62086, 1.59979, 1.59044, 1.58861, 1.58268, 1.57898, 1.58222, 1.56713, 1.55825, 1.56237, 1.5394, 1.55195, 1.54748, 1.51928, 1.53156, 1.57222, 1.67144, 1.64967, 1.59315, 1.47136, 1.50658, 1.49459, 1.4642, 1.45916, 1.45355, 1.44798, 1.44449, 1.43771, 1.43304, 1.42946, 1.42136, 1.4178, 1.41258, 1.40915, 1.40234, 1.40104, 1.39186, 1.38993, 1.39501, 1.39159, 1.4729, 1.53128, 1.5461, 1.3469, 1.36511, 1.36715, 1.35136, 1.36147, 
1.68329, 1.6788, 1.67187, 1.66929, 1.65777, 1.652, 1.65124, 1.73165, 1.78659, 1.86714, 1.62152, 1.61325, 1.59982, 1.59061, 1.58673, 1.56999, 1.57153, 1.55891, 1.55938, 1.56148, 1.54205, 1.53086, 1.52751, 1.52106, 1.51942, 1.5061, 1.51057, 1.52014, 1.62286, 1.63771, 1.5793, 1.46845, 1.4818, 1.46868, 1.46119, 1.44027, 1.43983, 1.44089, 1.43353, 1.43007, 1.42269, 1.41688, 1.40943, 1.39915, 1.39978, 1.39004, 1.39082, 1.3838, 1.38565, 1.39175, 1.38168, 1.37605, 1.4683, 1.52613, 1.53974, 1.42432, 1.36779, 1.3539, 1.33417, 1.33095, 
1.68328, 1.67773, 1.66781, 1.66462, 1.66531, 1.66138, 1.64651, 1.72041, 1.81327, 1.85017, 1.57752, 1.6271, 1.59348, 1.61032, 1.5858, 1.57234, 1.56178, 1.55834, 1.55774, 1.55498, 1.54755, 1.54039, 1.52877, 1.52791, 1.52072, 1.50061, 1.51398, 1.47189, 1.6295, 1.63679, 1.54915, 1.47938, 1.47511, 1.50302, 1.45456, 1.44328, 1.44104, 1.43644, 1.43353, 1.42696, 1.4265, 1.4213, 1.41433, 1.4032, 1.3967, 1.38697, 1.38544, 1.38405, 1.38616, 1.37222, 1.3875, 1.3918, 1.43616, 1.56778, 1.55196, 1.33024, 1.35438, 1.34255, 1.3369, 1.35488, 
1.67998, 1.67306, 1.66374, 1.65019, 1.65397, 1.63678, 1.64708, 1.63447, 1.84052, 1.86158, 1.59235, 1.60202, 1.58612, 1.5801, 1.57354, 1.56299, 1.5542, 1.55004, 1.54182, 1.53402, 1.55098, 1.52654, 1.53002, 1.50388, 1.50143, 1.49537, 1.49947, 1.47513, 1.63461, 1.63661, 1.44633, 1.47136, 1.45778, 1.4789, 1.44884, 1.43658, 1.43247, 1.42657, 1.41919, 1.41634, 1.4127, 1.40552, 1.39983, 1.39595, 1.38784, 1.37909, 1.38508, 1.37136, 1.36641, 1.3629, 1.36299, 1.37178, 1.40046, 1.52638, 1.53799, 1.49593, 1.35893, 1.33417, 1.33904, 1.32899, 
1.67552, 1.66641, 1.66578, 1.65421, 1.63509, 1.63093, 1.62398, 1.60516, 1.77914, 1.86511, 1.63284, 1.60245, 1.58796, 1.57734, 1.57153, 1.56185, 1.55758, 1.54818, 1.54185, 1.52381, 1.54304, 1.52634, 1.52074, 1.50844, 1.49949, 1.51686, 1.51071, 1.46903, 1.58122, 1.62913, 1.52484, 1.4651, 1.46746, 1.46831, 1.44437, 1.43105, 1.42574, 1.41923, 1.41075, 1.40714, 1.40018, 1.39562, 1.39173, 1.38911, 1.38814, 1.37862, 1.37275, 1.36923, 1.36104, 1.3569, 1.3552, 1.3652, 1.40423, 1.55575, 1.55227, 1.40895, 1.34427, 1.3267, 1.32245, 1.31372, 
1.67381, 1.65836, 1.64934, 1.64412, 1.63912, 1.63299, 1.63798, 1.59678, 1.80097, 1.8965, 1.60961, 1.59315, 1.58675, 1.5776, 1.56401, 1.56107, 1.55709, 1.5641, 1.54197, 1.54791, 1.53523, 1.53317, 1.51593, 1.51959, 1.50953, 1.50033, 1.51341, 1.51664, 1.61514, 1.62904, 1.57283, 1.46859, 1.47062, 1.45476, 1.45014, 1.45437, 1.43643, 1.4248, 1.41863, 1.41219, 1.40992, 1.40624, 1.40235, 1.39795, 1.39164, 1.3868, 1.37746, 1.37401, 1.36841, 1.37657, 1.36208, 1.36397, 1.41979, 1.53654, 1.53849, 1.3324, 1.34393, 1.32782, 1.32534, 1.32127, 
1.67498, 1.6562, 1.65428, 1.64219, 1.63296, 1.63417, 1.63092, 1.6887, 1.85558, 1.88432, 1.56728, 1.59748, 1.58585, 1.57551, 1.57923, 1.55757, 1.55642, 1.54911, 1.53927, 1.53175, 1.53791, 1.52785, 1.51172, 1.50164, 1.50166, 1.49347, 1.5061, 1.4692, 1.60856, 1.60578, 1.49328, 1.47273, 1.45445, 1.45158, 1.44509, 1.43949, 1.42418, 1.42504, 1.41785, 1.41109, 1.4097, 1.40416, 1.40179, 1.39746, 1.38494, 1.38171, 1.37552, 1.37354, 1.36741, 1.36369, 1.36659, 1.38809, 1.46759, 1.50287, 1.56061, 1.37541, 1.34409, 1.33037, 1.32263, 1.32292, 
1.6762, 1.67509, 1.66636, 1.65866, 1.64515, 1.65122, 1.64084, 1.61437, 1.78442, 1.88067, 1.72795, 1.59895, 1.58975, 1.57731, 1.56815, 1.56107, 1.55733, 1.54809, 1.5513, 1.5367, 1.52852, 1.54602, 1.5128, 1.50935, 1.5093, 1.49548, 1.49629, 1.46467, 1.57491, 1.61747, 1.46022, 1.4627, 1.45607, 1.4497, 1.45567, 1.4498, 1.42777, 1.42342, 1.41709, 1.41253, 1.40587, 1.40162, 1.39915, 1.39154, 1.38497, 1.37971, 1.37408, 1.37229, 1.36994, 1.36513, 1.36213, 1.37284, 1.40248, 1.51222, 1.57612, 1.4412, 1.34062, 1.33676, 1.32883, 1.33711, 
1.67402, 1.66976, 1.66358, 1.65712, 1.64753, 1.638, 1.64031, 1.59664, 1.70471, 1.86352, 1.56724, 1.60264, 1.58472, 1.57129, 1.56475, 1.56234, 1.55499, 1.54882, 1.54484, 1.53444, 1.54343, 1.5332, 1.52745, 1.50492, 1.50162, 1.4955, 1.49603, 1.46397, 1.5606, 1.59039, 1.51639, 1.45836, 1.46303, 1.45455, 1.46247, 1.44661, 1.42583, 1.42032, 1.41931, 1.41305, 1.41035, 1.40359, 1.395, 1.3909, 1.38472, 1.37921, 1.37805, 1.3726, 1.36851, 1.36807, 1.36547, 1.3594, 1.43753, 1.46501, 1.5646, 1.48066, 1.34652, 1.35169, 1.33305, 1.32789, 
1.67431, 1.66797, 1.6564, 1.64784, 1.6476, 1.64066, 1.6371, 1.60735, 1.73329, 1.90673, 1.58905, 1.59953, 1.59108, 1.57912, 1.57077, 1.56529, 1.56076, 1.55064, 1.54404, 1.53803, 1.52771, 1.53002, 1.5334, 1.52324, 1.50445, 1.50173, 1.50531, 1.49595, 1.57343, 1.63775, 1.55773, 1.4781, 1.46847, 1.44803, 1.44555, 1.45524, 1.43069, 1.42337, 1.4196, 1.41501, 1.41235, 1.40504, 1.39939, 1.39285, 1.38929, 1.38042, 1.37622, 1.37293, 1.37019, 1.36375, 1.36056, 1.37357, 1.42971, 1.49025, 1.61603, 1.45559, 1.34847, 1.34613, 1.33168, 1.32991, 
1.6734, 1.66594, 1.65631, 1.64459, 1.64131, 1.63355, 1.63428, 1.62233, 1.80706, 1.85104, 1.57004, 1.60242, 1.58686, 1.57733, 1.56849, 1.5588, 1.55171, 1.54746, 1.54731, 1.53467, 1.53037, 1.52742, 1.53487, 1.51026, 1.50564, 1.49989, 1.50721, 1.46586, 1.60791, 1.56725, 1.55218, 1.45041, 1.46724, 1.45817, 1.44282, 1.45532, 1.42825, 1.42106, 1.41871, 1.41911, 1.41109, 1.40636, 1.39648, 1.39477, 1.39002, 1.38033, 1.37248, 1.3643, 1.36598, 1.36123, 1.35767, 1.37235, 1.41276, 1.46069, 1.61313, 1.33673, 1.34697, 1.33059, 1.3263, 1.32337, 
1.67736, 1.66266, 1.65359, 1.64838, 1.64174, 1.63558, 1.63242, 1.63026, 1.68647, 1.93132, 1.5853, 1.60198, 1.58384, 1.57844, 1.56798, 1.56132, 1.55566, 1.55062, 1.53963, 1.53649, 1.52766, 1.52003, 1.52686, 1.52713, 1.51224, 1.49632, 1.49628, 1.52778, 1.58126, 1.56186, 1.54684, 1.46441, 1.46724, 1.44614, 1.44112, 1.45785, 1.42706, 1.42566, 1.41981, 1.41675, 1.41215, 1.40784, 1.40213, 1.39608, 1.38919, 1.38277, 1.37455, 1.36866, 1.36453, 1.3648, 1.36431, 1.36849, 1.33625, 1.51208, 1.60705, 1.55819, 1.34031, 1.33928, 1.33148, 1.32381, 
1.66661, 1.66421, 1.65544, 1.64623, 1.63482, 1.63378, 1.63745, 1.63696, 1.68109, 1.84817, 1.65618, 1.6068, 1.58377, 1.57577, 1.5722, 1.5618, 1.55369, 1.54562, 1.53701, 1.52998, 1.5195, 1.51408, 1.52767, 1.52182, 1.50585, 1.50018, 1.49945, 1.46367, 1.61295, 1.58335, 1.56185, 1.45567, 1.46571, 1.4482, 1.43915, 1.43411, 1.43236, 1.42957, 1.41922, 1.41521, 1.40647, 1.40398, 1.3998, 1.39603, 1.3935, 1.38776, 1.38134, 1.37222, 1.36657, 1.36841, 1.36116, 1.37226, 1.36077, 1.52826, 1.5943, 1.46524, 1.35041, 1.3297, 1.32817, 1.3343, 
1.66974, 1.66165, 1.65648, 1.64606, 1.63589, 1.63482, 1.63135, 1.64692, 1.78558, 1.80846, 1.70293, 1.60628, 1.59382, 1.57915, 1.5693, 1.55902, 1.55552, 1.54774, 1.54137, 1.53335, 1.52574, 1.51511, 1.5136, 1.53696, 1.50255, 1.49966, 1.49442, 1.50456, 1.5997, 1.56517, 1.53521, 1.46841, 1.4645, 1.45592, 1.44645, 1.43503, 1.42903, 1.41761, 1.41427, 1.41042, 1.40302, 1.39933, 1.39748, 1.39809, 1.38621, 1.38188, 1.3784, 1.37816, 1.37515, 1.36643, 1.36281, 1.37097, 1.40943, 1.50111, 1.57211, 1.36154, 1.355, 1.3503, 1.32756, 1.3242, 
1.66809, 1.66566, 1.65802, 1.64235, 1.64273, 1.63671, 1.62966, 1.63019, 1.7244, 1.92394, 1.78067, 1.59719, 1.58179, 1.56889, 1.56597, 1.5594, 1.55074, 1.54441, 1.53833, 1.53018, 1.5219, 1.5156, 1.51232, 1.53036, 1.51343, 1.497, 1.50362, 1.49397, 1.58507, 1.54023, 1.51608, 1.45621, 1.46671, 1.45221, 1.4492, 1.46607, 1.43782, 1.42264, 1.41785, 1.41215, 1.40516, 1.40075, 1.39693, 1.39198, 1.38526, 1.38123, 1.37743, 1.37612, 1.3692, 1.36626, 1.35853, 1.3583, 1.34234, 1.56658, 1.63814, 1.54472, 1.34152, 1.35738, 1.33283, 1.32092, 
1.67186, 1.6679, 1.65441, 1.6489, 1.6416, 1.63318, 1.62989, 1.63736, 1.77947, 1.93509, 1.56185, 1.60878, 1.5953, 1.57697, 1.57867, 1.5612, 1.55149, 1.54446, 1.53073, 1.52754, 1.52238, 1.51894, 1.5169, 1.51132, 1.53164, 1.50495, 1.50594, 1.46784, 1.55981, 1.54786, 1.55437, 1.4489, 1.47065, 1.47245, 1.48619, 1.44364, 1.43592, 1.42306, 1.42118, 1.41286, 1.40325, 1.39803, 1.39775, 1.38859, 1.3835, 1.38109, 1.37658, 1.37384, 1.36984, 1.3642, 1.3593, 1.36723, 1.35071, 1.48638, 1.60487, 1.33649, 1.34744, 1.33381, 1.32825, 1.32574, 
1.67153, 1.66735, 1.65991, 1.65039, 1.64202, 1.63242, 1.62339, 1.62526, 1.70279, 1.96594, 1.58076, 1.58972, 1.5944, 1.57401, 1.58184, 1.55726, 1.54665, 1.53834, 1.52978, 1.52222, 1.51785, 1.51446, 1.51148, 1.50949, 1.54889, 1.50202, 1.49509, 1.48543, 1.51976, 1.53051, 1.54583, 1.48256, 1.50208, 1.50396, 1.4675, 1.44498, 1.43087, 1.42193, 1.41853, 1.41016, 1.40401, 1.40158, 1.39365, 1.38878, 1.38413, 1.37919, 1.37432, 1.37127, 1.36593, 1.35905, 1.35656, 1.36092, 1.32653, 1.53621, 1.62956, 1.36549, 1.33524, 1.32714, 1.32686, 1.31981, 
1.66719, 1.65545, 1.65199, 1.66573, 1.66089, 1.63827, 1.62472, 1.62718, 1.63498, 1.85723, 1.56509, 1.60395, 1.59307, 1.58509, 1.5824, 1.56969, 1.55144, 1.54728, 1.53649, 1.53001, 1.5229, 1.51802, 1.51172, 1.51001, 1.54103, 1.56768, 1.53545, 1.4794, 1.54109, 1.50707, 1.53212, 1.50852, 1.47778, 1.46488, 1.45075, 1.45385, 1.42964, 1.42451, 1.41805, 1.4126, 1.40747, 1.40387, 1.39587, 1.39244, 1.38857, 1.39081, 1.37882, 1.37627, 1.36935, 1.36894, 1.35759, 1.3673, 1.36552, 1.53711, 1.61599, 1.36405, 1.33952, 1.34738, 1.33297, 1.32297, 
1.66529, 1.65956, 1.65368, 1.65123, 1.65151, 1.63186, 1.6246, 1.62081, 1.76606, 1.85188, 1.57475, 1.61335, 1.59798, 1.59632, 1.58921, 1.56472, 1.55686, 1.54279, 1.53459, 1.52515, 1.52105, 1.51411, 1.512, 1.50578, 1.50822, 1.50041, 1.51722, 1.48494, 1.55883, 1.49457, 1.54329, 1.46392, 1.47122, 1.45139, 1.44164, 1.43005, 1.42597, 1.42238, 1.41406, 1.41023, 1.40696, 1.40262, 1.39606, 1.3898, 1.38729, 1.38121, 1.37967, 1.37638, 1.36862, 1.36025, 1.35995, 1.35852, 1.36725, 1.49847, 1.67641, 1.49273, 1.33706, 1.33336, 1.32487, 1.32219, 
1.66714, 1.66547, 1.65351, 1.64974, 1.64347, 1.63435, 1.62438, 1.62246, 1.6239, 1.81525, 1.56699, 1.57679, 1.59324, 1.60966, 1.58775, 1.55853, 1.54872, 1.54065, 1.53423, 1.52817, 1.52133, 1.51293, 1.50698, 1.49984, 1.49618, 1.49171, 1.49558, 1.49446, 1.54897, 1.50619, 1.53735, 1.47399, 1.46777, 1.45162, 1.44774, 1.43491, 1.42852, 1.42471, 1.416, 1.41359, 1.40719, 1.40144, 1.39694, 1.39177, 1.38575, 1.38086, 1.3766, 1.37073, 1.36765, 1.36217, 1.35891, 1.35689, 1.37394, 1.54647, 1.61321, 1.60592, 1.34885, 1.33051, 1.32606, 1.324, 
1.66821, 1.65593, 1.64807, 1.63898, 1.63756, 1.6296, 1.63736, 1.61977, 1.58444, 1.97547, 1.81179, 1.52971, 1.70953, 1.63094, 1.58247, 1.55896, 1.5486, 1.54066, 1.53556, 1.5297, 1.52139, 1.52789, 1.50713, 1.50389, 1.49211, 1.48665, 1.48922, 1.49337, 1.54374, 1.52424, 1.52275, 1.50892, 1.4685, 1.44132, 1.44436, 1.4281, 1.42433, 1.42087, 1.41656, 1.41137, 1.40355, 1.39876, 1.39319, 1.38684, 1.38499, 1.37609, 1.37121, 1.3651, 1.36369, 1.36265, 1.35402, 1.35259, 1.36739, 1.45101, 1.67181, 1.3547, 1.338, 1.33549, 1.32251, 1.3194, 
1.66165, 1.65346, 1.64782, 1.64522, 1.6309, 1.62348, 1.61959, 1.61586, 1.61383, 1.99254, 1.62, 1.56636, 1.68573, 1.61685, 1.59164, 1.55932, 1.54431, 1.54161, 1.53159, 1.52609, 1.51913, 1.51537, 1.50257, 1.50014, 1.49284, 1.5067, 1.49187, 1.49603, 1.56238, 1.49424, 1.51812, 1.49088, 1.47152, 1.43842, 1.4325, 1.42661, 1.42334, 1.4209, 1.41539, 1.41255, 1.40485, 1.39716, 1.39064, 1.38622, 1.38393, 1.37716, 1.37253, 1.36914, 1.36552, 1.35819, 1.38049, 1.35561, 1.35708, 1.45504, 1.73745, 1.3989, 1.35365, 1.34306, 1.32205, 1.33103, 
1.6529, 1.64731, 1.63759, 1.63168, 1.62683, 1.62334, 1.61167, 1.60837, 1.66661, 1.76305, 1.59428, 1.5794, 1.60033, 1.58564, 1.58229, 1.5616, 1.54806, 1.53188, 1.52629, 1.5195, 1.51344, 1.50613, 1.49813, 1.49142, 1.48377, 1.47833, 1.49209, 1.49124, 1.53118, 1.52559, 1.49653, 1.49334, 1.46785, 1.44519, 1.43021, 1.42422, 1.42294, 1.41387, 1.40671, 1.40656, 1.39331, 1.39009, 1.3893, 1.38863, 1.37989, 1.37561, 1.36759, 1.36585, 1.3634, 1.35797, 1.35375, 1.34694, 1.35876, 1.43698, 1.71207, 1.6831, 1.33967, 1.32366, 1.31391, 1.31883, 
1.65322, 1.64355, 1.63539, 1.63215, 1.62707, 1.62108, 1.61257, 1.60766, 1.60731, 1.80178, 1.59841, 1.5824, 1.58108, 1.57514, 1.56862, 1.54499, 1.53967, 1.53061, 1.52227, 1.51591, 1.50985, 1.50322, 1.49614, 1.4866, 1.48482, 1.47856, 1.47711, 1.48925, 1.52158, 1.51657, 1.50304, 1.49247, 1.4576, 1.43957, 1.43109, 1.42323, 1.4164, 1.41377, 1.40381, 1.39679, 1.39164, 1.38955, 1.3877, 1.38528, 1.38113, 1.37113, 1.3624, 1.35918, 1.35691, 1.35345, 1.34482, 1.34393, 1.34997, 1.35732, 1.55302, 1.52236, 1.31652, 1.32033, 1.3177, 1.31445, 
1.64871, 1.64079, 1.63492, 1.63038, 1.6265, 1.62083, 1.61042, 1.60648, 1.58793, 1.80301, 1.66465, 1.55944, 1.56979, 1.56986, 1.5613, 1.55799, 1.54091, 1.53317, 1.51625, 1.51465, 1.50653, 1.50354, 1.50297, 1.48853, 1.4844, 1.47643, 1.4822, 1.49367, 1.5578, 1.52217, 1.48913, 1.47608, 1.46222, 1.45486, 1.42661, 1.42076, 1.41636, 1.41166, 1.40589, 1.39891, 1.39608, 1.38959, 1.38485, 1.37826, 1.37477, 1.3666, 1.35927, 1.35824, 1.35397, 1.34965, 1.34814, 1.34086, 1.34294, 1.42665, 1.61418, 1.65099, 1.32274, 1.31976, 1.31612, 1.31434, 
1.65124, 1.63803, 1.63506, 1.62994, 1.62451, 1.61841, 1.62, 1.60997, 1.61696, 1.74842, 1.71252, 1.58103, 1.59167, 1.56835, 1.55833, 1.54545, 1.53997, 1.5331, 1.52774, 1.51783, 1.51146, 1.50917, 1.499, 1.49073, 1.48616, 1.48094, 1.48604, 1.4836, 1.50941, 1.53191, 1.49294, 1.48763, 1.4441, 1.44608, 1.42543, 1.42233, 1.4148, 1.40984, 1.4048, 1.40163, 1.39534, 1.38955, 1.38441, 1.3753, 1.36753, 1.35954, 1.356, 1.35669, 1.35742, 1.35026, 1.34763, 1.34362, 1.34301, 1.46769, 1.71593, 1.72801, 1.33035, 1.31638, 1.31676, 1.31471, 
1.64497, 1.63959, 1.62692, 1.62307, 1.63115, 1.62014, 1.60233, 1.59986, 1.589, 1.87522, 2.15546, 1.59256, 1.57583, 1.57208, 1.54424, 1.53903, 1.53034, 1.52656, 1.52178, 1.5082, 1.50303, 1.49605, 1.50313, 1.48382, 1.47725, 1.47497, 1.47216, 1.48579, 1.49359, 1.48509, 1.48259, 1.49901, 1.46415, 1.42618, 1.41848, 1.41271, 1.41041, 1.40543, 1.39742, 1.39403, 1.3861, 1.38222, 1.37432, 1.36424, 1.35736, 1.35506, 1.35083, 1.35291, 1.34934, 1.34491, 1.3395, 1.33446, 1.3437, 1.32096, 1.53166, 1.47836, 1.31126, 1.30818, 1.30528, 1.30261, 
1.63791, 1.63415, 1.6248, 1.61935, 1.61977, 1.6092, 1.60755, 1.59091, 1.58638, 1.88318, 1.96551, 1.56885, 1.55812, 1.55014, 1.54379, 1.53218, 1.52235, 1.518, 1.51421, 1.50961, 1.50295, 1.49292, 1.48772, 1.47821, 1.47365, 1.47036, 1.46668, 1.47091, 1.48032, 1.49159, 1.48329, 1.48586, 1.45122, 1.42556, 1.41391, 1.40989, 1.40597, 1.4001, 1.39331, 1.38286, 1.38159, 1.37766, 1.37355, 1.36499, 1.36056, 1.34926, 1.34844, 1.34891, 1.3475, 1.34343, 1.33479, 1.34364, 1.32697, 1.3546, 1.71068, 1.72491, 1.30973, 1.30796, 1.30355, 1.29935, 
1.63828, 1.63182, 1.62396, 1.62385, 1.61251, 1.60302, 1.59813, 1.59994, 1.59214, 1.76157, 1.64748, 1.57859, 1.56048, 1.54608, 1.54077, 1.54092, 1.52664, 1.51349, 1.517, 1.50457, 1.49525, 1.4892, 1.48313, 1.47606, 1.4695, 1.46522, 1.46216, 1.46326, 1.48459, 1.48274, 1.4716, 1.49215, 1.45182, 1.42927, 1.41246, 1.41034, 1.40252, 1.40304, 1.40143, 1.38466, 1.37626, 1.37214, 1.3676, 1.36613, 1.3675, 1.35452, 1.35011, 1.3474, 1.3424, 1.34268, 1.36239, 1.3335, 1.34834, 1.42384, 1.7037, 1.51454, 1.32245, 1.32365, 1.32585, 1.31028, 
1.6433, 1.63731, 1.6274, 1.61602, 1.60731, 1.60018, 1.6131, 1.60001, 1.6092, 1.63638, 2.01069, 1.57426, 1.55519, 1.55007, 1.55424, 1.53546, 1.52163, 1.51621, 1.51345, 1.50665, 1.49802, 1.49052, 1.48506, 1.4744, 1.46836, 1.4638, 1.47038, 1.46535, 1.48425, 1.49312, 1.47189, 1.47081, 1.44049, 1.42785, 1.41112, 1.40284, 1.40393, 1.39843, 1.39033, 1.38316, 1.37798, 1.372, 1.36777, 1.36439, 1.36468, 1.35998, 1.3569, 1.34872, 1.34346, 1.34338, 1.33919, 1.33753, 1.35161, 1.41831, 1.66691, 1.67971, 1.29825, 1.32029, 1.30479, 1.30268, 
1.63153, 1.62027, 1.6199, 1.60613, 1.59825, 1.59268, 1.609, 1.59706, 1.61791, 1.80589, 1.88427, 1.54065, 1.5614, 1.5352, 1.52895, 1.52306, 1.5139, 1.51562, 1.50021, 1.4997, 1.48513, 1.47602, 1.47195, 1.46803, 1.46492, 1.45803, 1.45241, 1.46127, 1.46903, 1.46504, 1.46405, 1.49734, 1.43102, 1.41547, 1.41005, 1.39755, 1.39598, 1.41992, 1.37933, 1.37642, 1.3723, 1.37135, 1.37305, 1.35717, 1.3842, 1.34522, 1.36155, 1.33678, 1.33273, 1.33042, 1.32419, 1.32586, 1.3254, 1.3096, 1.49259, 1.46176, 1.30211, 1.30662, 1.29151, 1.29469, 
1.60779, 1.60074, 1.59839, 1.59269, 1.57792, 1.57194, 1.56554, 1.56636, 1.59752, 1.68373, 1.97532, 1.54214, 1.52697, 1.51233, 1.51134, 1.50769, 1.50263, 1.49621, 1.48903, 1.48145, 1.48011, 1.47125, 1.46015, 1.45219, 1.44413, 1.43649, 1.43247, 1.4522, 1.45319, 1.44955, 1.44741, 1.45427, 1.41634, 1.39723, 1.40065, 1.37806, 1.38372, 1.38214, 1.36374, 1.35707, 1.35233, 1.34969, 1.34465, 1.33661, 1.33251, 1.32448, 1.33298, 1.31933, 1.31515, 1.31673, 1.30851, 1.30153, 1.3056, 1.30615, 1.49943, 1.5597, 1.28768, 1.2886, 1.27951, 1.27476, 
1.61845, 1.61607, 1.61317, 1.61307, 1.59525, 1.5904, 1.59994, 1.58159, 1.58276, 1.93814, 1.66291, 1.55949, 1.54783, 1.5404, 1.52583, 1.52242, 1.51636, 1.50829, 1.49923, 1.49421, 1.48855, 1.48423, 1.47441, 1.46437, 1.45751, 1.45531, 1.44752, 1.46814, 1.47998, 1.48499, 1.46497, 1.44444, 1.42975, 1.4295, 1.41094, 1.39992, 1.39583, 1.38503, 1.38272, 1.37311, 1.36998, 1.36599, 1.3627, 1.35615, 1.35436, 1.34687, 1.33785, 1.33486, 1.33029, 1.32962, 1.32293, 1.33628, 1.31975, 1.32057, 1.52362, 1.48137, 1.30962, 1.3263, 1.30527, 1.28964, 
1.62712, 1.61888, 1.61138, 1.60824, 1.59965, 1.58786, 1.58391, 1.58313, 1.58531, 1.69864, 1.8104, 1.55113, 1.53838, 1.53129, 1.52985, 1.51993, 1.50176, 1.50094, 1.5, 1.49838, 1.49221, 1.47766, 1.47177, 1.51344, 1.45721, 1.46143, 1.45088, 1.45587, 1.46071, 1.46686, 1.45455, 1.46207, 1.44103, 1.42286, 1.40454, 1.40016, 1.39108, 1.38679, 1.38192, 1.37473, 1.37141, 1.37184, 1.35903, 1.35552, 1.34864, 1.34573, 1.34166, 1.33501, 1.33047, 1.33039, 1.32392, 1.32992, 1.32378, 1.32276, 1.50426, 1.62853, 1.36989, 1.3158, 1.29678, 1.29199, 
1.62066, 1.6137, 1.61046, 1.6036, 1.5958, 1.58444, 1.58158, 1.57574, 1.57813, 1.59071, 1.97259, 1.54415, 1.55183, 1.53745, 1.53858, 1.51528, 1.50744, 1.49916, 1.49823, 1.49442, 1.484, 1.47497, 1.46684, 1.46298, 1.45429, 1.45118, 1.44995, 1.45673, 1.46651, 1.45, 1.44717, 1.45128, 1.45835, 1.41233, 1.39963, 1.39501, 1.38528, 1.38287, 1.38107, 1.37456, 1.36907, 1.36608, 1.35831, 1.35653, 1.35184, 1.35064, 1.34065, 1.33617, 1.33092, 1.33089, 1.3241, 1.31766, 1.31948, 1.3165, 1.55479, 1.78669, 1.52706, 1.37724, 1.28788, 1.29183, 
1.62247, 1.60761, 1.60162, 1.60246, 1.58498, 1.58371, 1.58528, 1.57297, 1.5795, 1.72302, 2.19817, 1.54309, 1.53081, 1.52718, 1.53215, 1.51121, 1.50659, 1.49935, 1.49175, 1.48567, 1.48136, 1.47127, 1.46256, 1.45896, 1.45764, 1.44735, 1.44602, 1.46886, 1.45782, 1.45557, 1.45011, 1.44528, 1.43105, 1.417, 1.39713, 1.38999, 1.39184, 1.38084, 1.3716, 1.36868, 1.36409, 1.35913, 1.36029, 1.34434, 1.34926, 1.34622, 1.33419, 1.32756, 1.32252, 1.32267, 1.31566, 1.30679, 1.31325, 1.32621, 1.42318, 1.99829, 1.4237, 1.32582, 1.28012, 1.27922, 
1.60307, 1.59885, 1.59442, 1.59002, 1.57831, 1.5773, 1.5717, 1.58269, 1.56769, 1.54029, 1.72635, 1.53088, 1.52019, 1.51873, 1.52434, 1.51107, 1.49888, 1.49523, 1.51057, 1.47248, 1.46836, 1.4635, 1.45736, 1.45248, 1.44622, 1.44497, 1.45083, 1.45299, 1.45218, 1.43951, 1.43495, 1.44476, 1.43758, 1.40458, 1.38378, 1.37609, 1.37633, 1.37114, 1.36709, 1.37149, 1.35913, 1.35173, 1.34635, 1.35448, 1.33995, 1.33453, 1.33118, 1.32208, 1.32227, 1.31563, 1.30563, 1.30858, 1.30932, 1.29496, 1.61813, 1.61829, 1.39997, 1.29542, 1.30154, 1.27271, 
1.60994, 1.6009, 1.59582, 1.59612, 1.58531, 1.58172, 1.57156, 1.57596, 1.56791, 1.66549, 1.73877, 1.55254, 1.52839, 1.52079, 1.52298, 1.50733, 1.50324, 1.49671, 1.49849, 1.47906, 1.47162, 1.46925, 1.46316, 1.45812, 1.4512, 1.44763, 1.44153, 1.44469, 1.46127, 1.44532, 1.44292, 1.44822, 1.4189, 1.40914, 1.38354, 1.38153, 1.37918, 1.37552, 1.36964, 1.37023, 1.35884, 1.35783, 1.3415, 1.33698, 1.33734, 1.33473, 1.33151, 1.32896, 1.32467, 1.32124, 1.31702, 1.31175, 1.31958, 1.31141, 1.5424, 1.58605, 1.28925, 1.28829, 1.28446, 1.28813, 
1.6061, 1.60286, 1.59331, 1.58853, 1.58543, 1.57244, 1.56459, 1.57364, 1.5618, 1.61008, 1.71573, 1.52797, 1.52316, 1.52144, 1.51675, 1.5201, 1.49736, 1.49095, 1.48688, 1.47789, 1.46629, 1.46433, 1.45839, 1.45168, 1.44658, 1.44754, 1.44407, 1.44361, 1.44859, 1.44403, 1.43985, 1.4269, 1.42062, 1.39648, 1.39645, 1.3847, 1.37144, 1.38556, 1.36523, 1.3604, 1.35339, 1.35041, 1.34566, 1.34077, 1.33361, 1.32807, 1.32594, 1.31961, 1.31802, 1.31384, 1.32457, 1.31222, 1.30062, 1.3039, 1.3352, 1.81138, 1.32321, 1.28607, 1.29264, 1.28147, 
1.60269, 1.59544, 1.59332, 1.57864, 1.56734, 1.55362, 1.56462, 1.54283, 1.54129, 1.65777, 1.75132, 1.48239, 1.5166, 1.51585, 1.5121, 1.49634, 1.48422, 1.47121, 1.46608, 1.45798, 1.44825, 1.44181, 1.43483, 1.43616, 1.43746, 1.4241, 1.41969, 1.43727, 1.4362, 1.45106, 1.44034, 1.42959, 1.41672, 1.39945, 1.38708, 1.37114, 1.35544, 1.35368, 1.34913, 1.34381, 1.3353, 1.33003, 1.32661, 1.31899, 1.31355, 1.30966, 1.31264, 1.30408, 1.30002, 1.29302, 1.28883, 1.29546, 1.28284, 1.3015, 1.51648, 1.78957, 1.34035, 1.25674, 1.25095, 1.25695, 
