1.61997, 1.61992, 1.61623, 1.61415, 1.62365, 1.60972, 1.61, 1.61058, 1.60572, 1.60342, 1.61005, 1.60377, 1.60603, 1.60589, 1.61403, 1.60257, 1.61647, 1.59869, 1.61013, 1.61818, 1.62824, 1.63654, 1.62777, 1.66912, 1.6397, 1.6549, 1.67193, 1.68963, 1.68326, 1.68557, 1.66173, 1.63779, 1.60575, 1.57608, 1.53354, 1.56288, 1.57179, 1.56202, 1.56351, 1.55327, 1.55433, 1.56517, 1.54584, 1.55992, 1.56308, 1.56497, 1.57093, 1.56072, 1.53346, 1.54022, 1.52802, 1.53744, 1.52611, 1.52681, 1.52444, 1.52456, 1.52253, 1.52016, 1.5181, 1.51686, 1.51882, 1.50688, 1.51225, 1.51247, 1.50994, 1.50795, 1.50372, 1.50236, 1.49915, 1.49881, 1.49769, 1.4963, 1.4947, 1.49294, 1.49097, 1.48826, 1.48748, 1.48591, 1.48842, 1.48575, 1.48305, 1.48213, 1.47906, 1.47617, 1.49226, 1.4708, 1.46486, 1.46549, 1.46885, 1.46843, 1.46553, 1.46713, 1.45917, 1.46749, 1.47143, 1.46561, 1.45268, 1.47425, 1.45173, 1.43449, 1.45238, 1.48842, 1.53079, 1.61552, 1.69318, 1.70379, 1.73623, 1.74055, 1.71062, 1.6137, 1.54165, 1.46886, 1.41937, 1.435, 1.43237, 1.43592, 1.43611, 1.42718, 1.42443, 1.42268, 1.41933, 1.42647, 1.41652, 1.42356, 1.41348, 1.41304, 1.41323, 1.41121, 1.40583, 1.40491, 1.40334, 1.39896, 1.40019, 1.39691, 1.39841, 1.39598, 1.39488, 1.39803, 1.39272, 1.39268, 1.39086, 1.38847, 1.38529, 1.38496, 1.38513, 1.38502, 1.38157, 1.38076, 1.37968, 1.37842, 1.37682, 1.37521, 1.37767, 1.37059, 1.36757, 1.36745, 1.36772, 1.36817, 1.36644, 1.3673, 1.36407, 1.36095, 1.36092, 1.35974, 1.35863, 1.36115, 1.35836, 1.35819, 1.35726, 1.35405, 1.35339, 1.35133, 1.34869, 1.34864, 1.34493, 1.34709, 1.34868, 1.34531, 1.34326, 1.34189, 1.3442, 1.34093, 1.33726, 1.33677, 1.33607, 1.33498, 1.3365, 1.33163, 1.34021, 1.32932, 1.33364, 1.34054, 1.33749, 1.33708, 1.33844, 1.3376, 1.33784, 1.34118, 1.3397, 1.33489, 1.35883, 1.37182, 1.35093, 1.3512, 1.3964, 1.36847, 1.37194, 1.36329, 1.38492, 1.35615, 1.36579, 1.38263, 1.33267, 1.31577, 1.31942, 1.30858, 1.30673, 1.31266, 1.30158, 1.29696, 1.29511, 1.29165, 1.29903, 1.30458, 1.30493, 1.28432, 1.2846, 1.28345, 1.28271, 1.2914, 1.28481, 1.28446, 1.28514, 1.28375, 1.2811, 1.30399, 1.31691, 1.33459, 1.33125, 1.34319, 
1.63166, 1.63469, 1.62708, 1.631, 1.62009, 1.62642, 1.61863, 1.61721, 1.61372, 1.62125, 1.61253, 1.61083, 1.61428, 1.61625, 1.63639, 1.6073, 1.59181, 1.62441, 1.61958, 1.62436, 1.63387, 1.64287, 1.66573, 1.68168, 1.68656, 1.69473, 1.71658, 1.72074, 1.72404, 1.72619, 1.67148, 1.63902, 1.58525, 1.57227, 1.55773, 1.5688, 1.5739, 1.57551, 1.56869, 1.5613, 1.56776, 1.55559, 1.5571, 1.55214, 1.54985, 1.55065, 1.56135, 1.54225, 1.57239, 1.56146, 1.56887, 1.5469, 1.54386, 1.54094, 1.54465, 1.53604, 1.55104, 1.53631, 1.52553, 1.5229, 1.52371, 1.52167, 1.52237, 1.51827, 1.5157, 1.51202, 1.51175, 1.51107, 1.51008, 1.50843, 1.5058, 1.50413, 1.50002, 1.49879, 1.4994, 1.50172, 1.50088, 1.49801, 1.49614, 1.49336, 1.49247, 1.49015, 1.48889, 1.48594, 1.48292, 1.47991, 1.47869, 1.49526, 1.47563, 1.47563, 1.47342, 1.47182, 1.47158, 1.47215, 1.47202, 1.48403, 1.48178, 1.46855, 1.46772, 1.44003, 1.47533, 1.5013, 1.56438, 1.60423, 1.65786, 1.70116, 1.73774, 1.73214, 1.72625, 1.71029, 1.56536, 1.54119, 1.44726, 1.41969, 1.44857, 1.45834, 1.46795, 1.4484, 1.4578, 1.44011, 1.43249, 1.44384, 1.42656, 1.42452, 1.42475, 1.4207, 1.42318, 1.41754, 1.41938, 1.41593, 1.41335, 1.41512, 1.40987, 1.40856, 1.40609, 1.40633, 1.40521, 1.40448, 1.4041, 1.40181, 1.40141, 1.39921, 1.39722, 1.39578, 1.39075, 1.39312, 1.39185, 1.38901, 1.38858, 1.38893, 1.39251, 1.38642, 1.38726, 1.38528, 1.38293, 1.38276, 1.38012, 1.3797, 1.3776, 1.37511, 1.37328, 1.37119, 1.36851, 1.3667, 1.36656, 1.36306, 1.36127, 1.36129, 1.35877, 1.3593, 1.35737, 1.35826, 1.35704, 1.3586, 1.357, 1.35679, 1.35806, 1.3593, 1.35614, 1.35753, 1.35673, 1.35395, 1.35439, 1.35473, 1.3524, 1.35813, 1.36332, 1.34647, 1.34953, 1.34711, 1.34464, 1.34358, 1.357, 1.34748, 1.36116, 1.34758, 1.34664, 1.34412, 1.34706, 1.36837, 1.35147, 1.3618, 1.36174, 1.35663, 1.37506, 1.36755, 1.36202, 1.4074, 1.37759, 1.37375, 1.3854, 1.36687, 1.34935, 1.31672, 1.34065, 1.34077, 1.32086, 1.3135, 1.30964, 1.3092, 1.31342, 1.30178, 1.30192, 1.31398, 1.29878, 1.29622, 1.29765, 1.30391, 1.30103, 1.29531, 1.2981, 1.29625, 1.29798, 1.31325, 1.29159, 1.30461, 1.29637, 1.30642, 1.29308, 1.31938, 
1.67728, 1.6788, 1.67089, 1.64408, 1.63402, 1.62866, 1.62827, 1.6416, 1.6221, 1.62436, 1.62025, 1.62251, 1.63619, 1.64466, 1.62983, 1.62982, 1.62122, 1.61369, 1.61517, 1.65591, 1.67297, 1.66593, 1.67139, 1.67209, 1.71282, 1.71655, 1.77959, 1.74157, 1.74187, 1.72473, 1.71687, 1.63418, 1.60239, 1.57606, 1.56649, 1.58632, 1.58072, 1.5964, 1.58577, 1.56928, 1.56707, 1.56538, 1.56279, 1.56325, 1.56805, 1.55614, 1.55692, 1.55271, 1.57196, 1.56484, 1.56265, 1.56534, 1.54696, 1.55479, 1.53898, 1.5377, 1.55124, 1.53505, 1.53555, 1.53522, 1.53317, 1.52961, 1.52827, 1.52688, 1.52372, 1.52241, 1.52248, 1.51917, 1.51996, 1.51713, 1.52283, 1.51178, 1.51028, 1.50903, 1.50718, 1.5069, 1.50596, 1.50312, 1.50319, 1.50226, 1.50012, 1.5108, 1.49887, 1.49653, 1.49662, 1.50302, 1.495, 1.49305, 1.49935, 1.49787, 1.48789, 1.48836, 1.48218, 1.48288, 1.49136, 1.47951, 1.48285, 1.48477, 1.46785, 1.45394, 1.49496, 1.50607, 1.53434, 1.63094, 1.66949, 1.72365, 1.73086, 1.74733, 1.73224, 1.70316, 1.61407, 1.5405, 1.46455, 1.431, 1.45469, 1.45874, 1.47171, 1.47128, 1.45781, 1.46073, 1.44402, 1.45896, 1.45091, 1.44418, 1.43666, 1.43344, 1.43396, 1.4326, 1.43158, 1.44469, 1.42323, 1.42348, 1.42325, 1.4253, 1.4233, 1.41749, 1.41599, 1.4144, 1.41317, 1.41311, 1.41284, 1.41178, 1.4091, 1.40617, 1.40496, 1.40477, 1.4039, 1.40367, 1.40174, 1.40131, 1.40179, 1.39879, 1.39991, 1.39833, 1.396, 1.39422, 1.39464, 1.39167, 1.39053, 1.38821, 1.38463, 1.38095, 1.37902, 1.37614, 1.37475, 1.3743, 1.37352, 1.36842, 1.36882, 1.36714, 1.36433, 1.36069, 1.36843, 1.36056, 1.35998, 1.36165, 1.36024, 1.36041, 1.35999, 1.3588, 1.36053, 1.35493, 1.35467, 1.35325, 1.35792, 1.35207, 1.35317, 1.35354, 1.35295, 1.35196, 1.36136, 1.35187, 1.35165, 1.35402, 1.35316, 1.35973, 1.36014, 1.37544, 1.35194, 1.39802, 1.36195, 1.40717, 1.37549, 1.37652, 1.39621, 1.39501, 1.40192, 1.4012, 1.42126, 1.44809, 1.40979, 1.43857, 1.346, 1.3107, 1.32106, 1.32799, 1.33056, 1.33998, 1.3278, 1.32914, 1.32247, 1.31985, 1.31582, 1.33598, 1.31181, 1.314, 1.31019, 1.31329, 1.32628, 1.31019, 1.30985, 1.30915, 1.30891, 1.31183, 1.31962, 1.31234, 1.30772, 1.31996, 1.30778, 1.3035, 
1.66092, 1.67085, 1.67129, 1.66394, 1.66155, 1.6485, 1.64414, 1.64104, 1.651, 1.63316, 1.62971, 1.62773, 1.63816, 1.62783, 1.63449, 1.61994, 1.61279, 1.60623, 1.61729, 1.6443, 1.66891, 1.67132, 1.67478, 1.69872, 1.69383, 1.73808, 1.75993, 1.76182, 1.76907, 1.74539, 1.71856, 1.69027, 1.6067, 1.59905, 1.56842, 1.60015, 1.58678, 1.58609, 1.58957, 1.58654, 1.57572, 1.57118, 1.56757, 1.56746, 1.56351, 1.58404, 1.55917, 1.55561, 1.55574, 1.55355, 1.55305, 1.55352, 1.56367, 1.57526, 1.56377, 1.56407, 1.55522, 1.55148, 1.54781, 1.55109, 1.54351, 1.53934, 1.5364, 1.53767, 1.5352, 1.53276, 1.53278, 1.5309, 1.52938, 1.5271, 1.52558, 1.52186, 1.52003, 1.51637, 1.51391, 1.51073, 1.51053, 1.50954, 1.50875, 1.50672, 1.50597, 1.50243, 1.50014, 1.50096, 1.50006, 1.49931, 1.51644, 1.5099, 1.4967, 1.49331, 1.50478, 1.4898, 1.48686, 1.48488, 1.49346, 1.48527, 1.48543, 1.48562, 1.46972, 1.46074, 1.4726, 1.5281, 1.54356, 1.58091, 1.63547, 1.67603, 1.71113, 1.72003, 1.70804, 1.68929, 1.66142, 1.57124, 1.48946, 1.4188, 1.43418, 1.46112, 1.46137, 1.46531, 1.45134, 1.44904, 1.45474, 1.44496, 1.44346, 1.43783, 1.44343, 1.44088, 1.43652, 1.43339, 1.43301, 1.42956, 1.43005, 1.42863, 1.42823, 1.42901, 1.42976, 1.42181, 1.42302, 1.42171, 1.42187, 1.42126, 1.41879, 1.41735, 1.41639, 1.41384, 1.41312, 1.40913, 1.4069, 1.40476, 1.40304, 1.40318, 1.40176, 1.40336, 1.40222, 1.40206, 1.40265, 1.40382, 1.40408, 1.40365, 1.40277, 1.40009, 1.40028, 1.39823, 1.3928, 1.39296, 1.38952, 1.38781, 1.38598, 1.38525, 1.38368, 1.38756, 1.38004, 1.37714, 1.37453, 1.37374, 1.37084, 1.37209, 1.37195, 1.36996, 1.37134, 1.36941, 1.37083, 1.36977, 1.36811, 1.36563, 1.36398, 1.36405, 1.36191, 1.36196, 1.35774, 1.35387, 1.35411, 1.35331, 1.35172, 1.36007, 1.35423, 1.35908, 1.36596, 1.34574, 1.37889, 1.36095, 1.39711, 1.42734, 1.38578, 1.39117, 1.39332, 1.39608, 1.42819, 1.44612, 1.41732, 1.42054, 1.40894, 1.37704, 1.37254, 1.33541, 1.31163, 1.33695, 1.35159, 1.33425, 1.33753, 1.33125, 1.32689, 1.32401, 1.32294, 1.32612, 1.32, 1.3232, 1.31495, 1.31873, 1.31206, 1.31086, 1.31598, 1.30675, 1.30722, 1.30656, 1.31244, 1.32565, 1.32407, 1.30489, 1.30631, 1.32806, 
1.6686, 1.66579, 1.65961, 1.65189, 1.66768, 1.67029, 1.66138, 1.67651, 1.6575, 1.64507, 1.63607, 1.64455, 1.62731, 1.63377, 1.64009, 1.63258, 1.61662, 1.61781, 1.62254, 1.66142, 1.66252, 1.68007, 1.6927, 1.69318, 1.7413, 1.7467, 1.75213, 1.75744, 1.76077, 1.72983, 1.71843, 1.68586, 1.64436, 1.60272, 1.59328, 1.56967, 1.5981, 1.59271, 1.58819, 1.58556, 1.58091, 1.57939, 1.57521, 1.57404, 1.57253, 1.57162, 1.56982, 1.5687, 1.56337, 1.57352, 1.55535, 1.55468, 1.55751, 1.56808, 1.56708, 1.56833, 1.57173, 1.56808, 1.5495, 1.54465, 1.54404, 1.54471, 1.54079, 1.54073, 1.53844, 1.53688, 1.53453, 1.53467, 1.53323, 1.53106, 1.52799, 1.52977, 1.5284, 1.5238, 1.52215, 1.52309, 1.52031, 1.51899, 1.5176, 1.51566, 1.51491, 1.5128, 1.50986, 1.50892, 1.50551, 1.505, 1.5031, 1.50178, 1.5002, 1.49826, 1.49531, 1.49246, 1.4894, 1.48944, 1.48948, 1.48993, 1.49032, 1.49337, 1.48215, 1.46198, 1.47568, 1.50439, 1.51471, 1.57754, 1.61401, 1.66325, 1.68998, 1.70213, 1.69184, 1.66448, 1.64394, 1.59373, 1.53419, 1.45408, 1.42658, 1.44042, 1.454, 1.45357, 1.44794, 1.45756, 1.44242, 1.44061, 1.44016, 1.43885, 1.43914, 1.43794, 1.43812, 1.43639, 1.43396, 1.43278, 1.43, 1.42858, 1.42669, 1.42403, 1.42551, 1.42462, 1.42385, 1.42526, 1.42492, 1.42305, 1.42064, 1.41919, 1.41732, 1.41692, 1.41296, 1.41539, 1.41149, 1.41062, 1.40987, 1.40762, 1.40513, 1.40447, 1.40446, 1.40206, 1.40185, 1.40099, 1.40155, 1.40023, 1.40033, 1.39987, 1.39941, 1.39951, 1.39828, 1.39664, 1.39802, 1.39341, 1.39156, 1.38903, 1.39286, 1.38313, 1.38416, 1.38173, 1.37984, 1.37966, 1.37806, 1.37928, 1.37761, 1.37659, 1.37643, 1.37454, 1.37429, 1.37208, 1.37354, 1.37128, 1.37131, 1.37079, 1.37161, 1.37053, 1.36884, 1.36853, 1.3674, 1.36635, 1.36212, 1.36152, 1.36384, 1.36434, 1.37587, 1.35019, 1.35007, 1.38441, 1.37116, 1.43612, 1.43313, 1.46144, 1.46896, 1.45416, 1.43752, 1.43759, 1.45897, 1.46903, 1.43832, 1.46037, 1.41683, 1.35543, 1.34267, 1.32395, 1.34396, 1.34749, 1.3456, 1.34156, 1.32918, 1.32917, 1.32245, 1.3215, 1.31939, 1.33807, 1.31831, 1.33736, 1.31675, 1.31547, 1.31704, 1.31408, 1.32245, 1.3157, 1.31032, 1.31065, 1.30935, 1.31308, 1.31934, 1.34699, 
1.65784, 1.65526, 1.66544, 1.65309, 1.65265, 1.65754, 1.67372, 1.6688, 1.69001, 1.67549, 1.66573, 1.66623, 1.66174, 1.65036, 1.65441, 1.65253, 1.64386, 1.62856, 1.6241, 1.64517, 1.66432, 1.71351, 1.70675, 1.71029, 1.74089, 1.76436, 1.79599, 1.78933, 1.79621, 1.77813, 1.75111, 1.74956, 1.73014, 1.64774, 1.59958, 1.59225, 1.61792, 1.60642, 1.61473, 1.59573, 1.59756, 1.59205, 1.59261, 1.59333, 1.5824, 1.58205, 1.57841, 1.57785, 1.59082, 1.57779, 1.57514, 1.58873, 1.56974, 1.57619, 1.57455, 1.57575, 1.57456, 1.58851, 1.57647, 1.57815, 1.5711, 1.56081, 1.55113, 1.55053, 1.54461, 1.54228, 1.54055, 1.54218, 1.53713, 1.53307, 1.53383, 1.53182, 1.53, 1.5282, 1.53009, 1.52674, 1.52528, 1.52341, 1.52117, 1.51972, 1.51581, 1.51533, 1.51463, 1.51357, 1.51295, 1.51051, 1.50786, 1.50741, 1.50598, 1.50387, 1.50289, 1.50905, 1.5011, 1.4994, 1.5037, 1.51006, 1.49772, 1.49873, 1.49647, 1.48914, 1.46815, 1.45877, 1.52847, 1.59595, 1.62743, 1.56323, 1.68257, 1.6861, 1.69536, 1.69343, 1.68219, 1.63388, 1.60594, 1.50314, 1.45258, 1.43086, 1.47162, 1.47218, 1.46914, 1.46562, 1.46393, 1.47847, 1.46001, 1.45587, 1.45513, 1.45192, 1.45376, 1.4469, 1.44681, 1.44497, 1.4421, 1.44067, 1.43877, 1.43514, 1.43532, 1.42952, 1.43257, 1.4323, 1.43197, 1.43068, 1.4308, 1.42927, 1.42828, 1.42776, 1.42622, 1.4241, 1.42341, 1.42089, 1.42108, 1.42033, 1.41796, 1.41691, 1.41626, 1.41554, 1.41337, 1.41311, 1.41188, 1.41064, 1.41195, 1.40956, 1.40776, 1.40593, 1.40277, 1.40137, 1.40166, 1.39878, 1.39676, 1.39494, 1.39293, 1.39192, 1.39168, 1.38728, 1.38667, 1.38798, 1.38444, 1.38342, 1.3846, 1.38056, 1.37879, 1.38649, 1.37681, 1.3748, 1.37475, 1.37379, 1.37575, 1.37258, 1.37386, 1.37183, 1.37143, 1.36872, 1.3727, 1.36821, 1.37475, 1.36793, 1.3688, 1.37547, 1.39567, 1.37896, 1.36092, 1.37485, 1.38187, 1.41743, 1.41009, 1.47451, 1.46426, 1.43828, 1.43914, 1.4414, 1.43009, 1.46397, 1.45047, 1.43748, 1.38261, 1.37649, 1.34483, 1.32442, 1.36112, 1.3563, 1.35491, 1.34078, 1.33959, 1.33654, 1.33402, 1.33148, 1.33073, 1.32763, 1.32844, 1.32731, 1.32714, 1.32566, 1.32396, 1.32381, 1.33252, 1.32027, 1.32315, 1.32078, 1.32286, 1.32292, 1.33705, 1.34248, 
1.67364, 1.66643, 1.66667, 1.66365, 1.6752, 1.67199, 1.6579, 1.66814, 1.66818, 1.68297, 1.6716, 1.67242, 1.65074, 1.6434, 1.66772, 1.65538, 1.65395, 1.63647, 1.61922, 1.62916, 1.64565, 1.77022, 1.74377, 1.78336, 1.7987, 1.76569, 1.77448, 1.80329, 1.79296, 1.81735, 1.79396, 1.70839, 1.70216, 1.63504, 1.61552, 1.58884, 1.61422, 1.60831, 1.60461, 1.5993, 1.59684, 1.59058, 1.58948, 1.60116, 1.59309, 1.58256, 1.58169, 1.58167, 1.58682, 1.57833, 1.57594, 1.57446, 1.57215, 1.57369, 1.59092, 1.56863, 1.58886, 1.58886, 1.59192, 1.60356, 1.60872, 1.60801, 1.5955, 1.5682, 1.57905, 1.5519, 1.55607, 1.54782, 1.54504, 1.5442, 1.54207, 1.55138, 1.53862, 1.53852, 1.53568, 1.53466, 1.53335, 1.53058, 1.52954, 1.5273, 1.52638, 1.52277, 1.52214, 1.52138, 1.53014, 1.51652, 1.51681, 1.51652, 1.51218, 1.50992, 1.50856, 1.50623, 1.50561, 1.52342, 1.52393, 1.51918, 1.51732, 1.52739, 1.51606, 1.51289, 1.47301, 1.48251, 1.53545, 1.57353, 1.62466, 1.57232, 1.67933, 1.69199, 1.69946, 1.70104, 1.72812, 1.63042, 1.6043, 1.55612, 1.48101, 1.45157, 1.46569, 1.49007, 1.48765, 1.49286, 1.47857, 1.47601, 1.47002, 1.48238, 1.46366, 1.46398, 1.45778, 1.45737, 1.45435, 1.45392, 1.45193, 1.45054, 1.44805, 1.44564, 1.44427, 1.44285, 1.44253, 1.43924, 1.43781, 1.43649, 1.43597, 1.43655, 1.4401, 1.43493, 1.43299, 1.43106, 1.42827, 1.42741, 1.42634, 1.42639, 1.4235, 1.42276, 1.42128, 1.42102, 1.4222, 1.41858, 1.41631, 1.41663, 1.41649, 1.41239, 1.41214, 1.41039, 1.40934, 1.40833, 1.40441, 1.40453, 1.40307, 1.40151, 1.40317, 1.39812, 1.39538, 1.3937, 1.39099, 1.39237, 1.39113, 1.38782, 1.38639, 1.38312, 1.38455, 1.38487, 1.38039, 1.37795, 1.37656, 1.37736, 1.37691, 1.37448, 1.3757, 1.37314, 1.3746, 1.37418, 1.37416, 1.38188, 1.38542, 1.38828, 1.37798, 1.37965, 1.39593, 1.37817, 1.3739, 1.37821, 1.41565, 1.42478, 1.45443, 1.44603, 1.45402, 1.48482, 1.48164, 1.46964, 1.46759, 1.46858, 1.4683, 1.41992, 1.39896, 1.40592, 1.36818, 1.34253, 1.3442, 1.35305, 1.34869, 1.35486, 1.34685, 1.33406, 1.33876, 1.33754, 1.33391, 1.33402, 1.352, 1.33438, 1.32853, 1.34142, 1.32806, 1.32684, 1.32744, 1.32682, 1.32626, 1.32793, 1.32783, 1.33268, 1.33683, 1.33026, 
1.67027, 1.66951, 1.66802, 1.66545, 1.66383, 1.66247, 1.67486, 1.65811, 1.65654, 1.6748, 1.66848, 1.6712, 1.67995, 1.67049, 1.68829, 1.64672, 1.64816, 1.64813, 1.63089, 1.61662, 1.66106, 1.69574, 1.72801, 1.78767, 1.76424, 1.79071, 1.79661, 1.79878, 1.79306, 1.79007, 1.77905, 1.75803, 1.69676, 1.65474, 1.60397, 1.59883, 1.62989, 1.61941, 1.60895, 1.60514, 1.60351, 1.60078, 1.5981, 1.59602, 1.59633, 1.59253, 1.58979, 1.58703, 1.58606, 1.58417, 1.58544, 1.58073, 1.58056, 1.57514, 1.57477, 1.57467, 1.57418, 1.57222, 1.57206, 1.56904, 1.57538, 1.57435, 1.57933, 1.57648, 1.57833, 1.55574, 1.554, 1.552, 1.55017, 1.55101, 1.54768, 1.54674, 1.54561, 1.54743, 1.54479, 1.54049, 1.53958, 1.53912, 1.5366, 1.53382, 1.5319, 1.53069, 1.52554, 1.52481, 1.52373, 1.52321, 1.52218, 1.52024, 1.52006, 1.51691, 1.51437, 1.51329, 1.51037, 1.50951, 1.52838, 1.50988, 1.51081, 1.51139, 1.52541, 1.50678, 1.48756, 1.49987, 1.5673, 1.57307, 1.5829, 1.64521, 1.66284, 1.6822, 1.69216, 1.69259, 1.68634, 1.65199, 1.6524, 1.5521, 1.50664, 1.4443, 1.44998, 1.49348, 1.47623, 1.48115, 1.47211, 1.4693, 1.46853, 1.46835, 1.46471, 1.46294, 1.4725, 1.45792, 1.45751, 1.45718, 1.4546, 1.45337, 1.45448, 1.44962, 1.46523, 1.44802, 1.44739, 1.44659, 1.44709, 1.44393, 1.44376, 1.44387, 1.44168, 1.44119, 1.44057, 1.4381, 1.43584, 1.43527, 1.43439, 1.4335, 1.43234, 1.43068, 1.42955, 1.42924, 1.42689, 1.42313, 1.42602, 1.42188, 1.45004, 1.4204, 1.41983, 1.41799, 1.4174, 1.41357, 1.41307, 1.41235, 1.40904, 1.40737, 1.40505, 1.40322, 1.40313, 1.40207, 1.40051, 1.39866, 1.39769, 1.39591, 1.39477, 1.39383, 1.39344, 1.40213, 1.39024, 1.38862, 1.39245, 1.38653, 1.38342, 1.38344, 1.38385, 1.38193, 1.38292, 1.38091, 1.38109, 1.38148, 1.38169, 1.39209, 1.395, 1.39608, 1.40253, 1.38605, 1.38865, 1.36302, 1.37048, 1.43093, 1.45493, 1.45305, 1.49312, 1.47719, 1.47079, 1.48427, 1.48579, 1.49823, 1.49248, 1.50134, 1.44723, 1.44673, 1.38207, 1.40338, 1.33646, 1.34961, 1.35814, 1.35779, 1.34566, 1.35362, 1.34012, 1.34335, 1.34375, 1.34168, 1.34281, 1.34067, 1.33959, 1.34036, 1.33952, 1.36994, 1.33958, 1.33889, 1.33602, 1.3329, 1.33272, 1.33153, 1.32772, 1.32729, 
1.67119, 1.67017, 1.66862, 1.66611, 1.66611, 1.65952, 1.65732, 1.65714, 1.655, 1.65938, 1.6508, 1.64899, 1.6604, 1.67203, 1.66893, 1.66878, 1.65577, 1.64722, 1.62817, 1.63463, 1.64129, 1.64249, 1.70514, 1.71746, 1.76676, 1.82837, 1.83212, 1.82354, 1.83396, 1.83606, 1.83481, 1.77817, 1.74123, 1.68798, 1.61773, 1.59214, 1.61332, 1.61655, 1.62668, 1.59931, 1.59679, 1.59052, 1.59147, 1.59538, 1.58766, 1.58709, 1.58558, 1.5848, 1.58561, 1.58045, 1.57829, 1.57712, 1.57587, 1.57285, 1.57179, 1.5755, 1.56867, 1.56754, 1.56475, 1.56129, 1.55891, 1.55692, 1.55508, 1.57875, 1.5629, 1.5626, 1.56412, 1.56537, 1.55544, 1.5513, 1.53977, 1.54015, 1.54177, 1.54051, 1.54146, 1.54063, 1.53844, 1.55501, 1.53758, 1.52878, 1.52597, 1.52174, 1.52113, 1.5238, 1.51385, 1.50973, 1.50633, 1.50334, 1.49956, 1.49815, 1.50632, 1.49933, 1.49959, 1.4998, 1.49942, 1.49989, 1.50187, 1.51224, 1.50355, 1.51779, 1.48645, 1.4868, 1.52345, 1.58189, 1.59206, 1.6617, 1.65917, 1.6761, 1.67904, 1.61688, 1.63199, 1.62802, 1.62114, 1.58011, 1.51371, 1.47136, 1.44158, 1.46148, 1.48337, 1.48676, 1.47475, 1.47357, 1.47518, 1.45906, 1.47165, 1.45405, 1.46423, 1.45416, 1.44959, 1.44816, 1.44753, 1.44718, 1.44511, 1.44319, 1.44346, 1.442, 1.44118, 1.44002, 1.43958, 1.4361, 1.43383, 1.43312, 1.43148, 1.43324, 1.42764, 1.42757, 1.42899, 1.4293, 1.43258, 1.4307, 1.42777, 1.43004, 1.42536, 1.42294, 1.42279, 1.42124, 1.41919, 1.41904, 1.41796, 1.4169, 1.41587, 1.41396, 1.41337, 1.41359, 1.41136, 1.40941, 1.40915, 1.40521, 1.40389, 1.40241, 1.40325, 1.40157, 1.3996, 1.3976, 1.39581, 1.393, 1.39115, 1.38984, 1.38834, 1.3861, 1.3848, 1.3854, 1.38704, 1.38649, 1.384, 1.38184, 1.38203, 1.38258, 1.38858, 1.38116, 1.38131, 1.37816, 1.38103, 1.37596, 1.38067, 1.37609, 1.37765, 1.38168, 1.37528, 1.3653, 1.40574, 1.45117, 1.43224, 1.4724, 1.48168, 1.48593, 1.49132, 1.53333, 1.50615, 1.50623, 1.52839, 1.482, 1.46768, 1.45121, 1.40273, 1.37722, 1.32401, 1.32679, 1.35414, 1.3583, 1.35132, 1.34966, 1.34833, 1.34486, 1.34409, 1.34447, 1.34336, 1.33848, 1.33661, 1.33764, 1.33555, 1.33094, 1.33226, 1.3292, 1.32972, 1.33047, 1.3306, 1.32949, 1.32745, 1.32522, 
1.67321, 1.66832, 1.66884, 1.66622, 1.696, 1.68263, 1.67169, 1.68195, 1.66847, 1.67, 1.6708, 1.66691, 1.66676, 1.67154, 1.65299, 1.67017, 1.65511, 1.67177, 1.65725, 1.62951, 1.625, 1.68077, 1.70334, 1.74218, 1.72289, 1.78562, 1.8043, 1.86558, 1.85608, 1.85916, 1.84914, 1.83264, 1.80691, 1.67404, 1.60982, 1.58811, 1.61088, 1.61768, 1.62079, 1.61654, 1.60482, 1.61944, 1.60227, 1.61548, 1.60693, 1.5911, 1.60321, 1.57934, 1.57396, 1.5857, 1.58127, 1.58006, 1.58242, 1.58317, 1.58096, 1.5765, 1.57132, 1.56735, 1.59633, 1.57092, 1.56642, 1.56667, 1.5681, 1.56765, 1.57819, 1.56976, 1.57229, 1.59215, 1.58985, 1.573, 1.56858, 1.56666, 1.55235, 1.54479, 1.54204, 1.53986, 1.53995, 1.54165, 1.53974, 1.53851, 1.53863, 1.53776, 1.53364, 1.53296, 1.52763, 1.55677, 1.52054, 1.5217, 1.52981, 1.5334, 1.52189, 1.52807, 1.52636, 1.52094, 1.52266, 1.51901, 1.51668, 1.53665, 1.52142, 1.52138, 1.47948, 1.48094, 1.49937, 1.53803, 1.56865, 1.60767, 1.64147, 1.66598, 1.66092, 1.67088, 1.66722, 1.65067, 1.61576, 1.58935, 1.57886, 1.51663, 1.47117, 1.4563, 1.46966, 1.48679, 1.47283, 1.48127, 1.48534, 1.48575, 1.47886, 1.47817, 1.48133, 1.47863, 1.47213, 1.46443, 1.46566, 1.46745, 1.46557, 1.46393, 1.46002, 1.46057, 1.45744, 1.4547, 1.45026, 1.44581, 1.43978, 1.43431, 1.43067, 1.43122, 1.43482, 1.43707, 1.43971, 1.44327, 1.4441, 1.44272, 1.43663, 1.4317, 1.42869, 1.42583, 1.43264, 1.41827, 1.42619, 1.42097, 1.41924, 1.42001, 1.42289, 1.42022, 1.41767, 1.41642, 1.41495, 1.41293, 1.41221, 1.41143, 1.40861, 1.40734, 1.40503, 1.39937, 1.39717, 1.39631, 1.39641, 1.39834, 1.39773, 1.3961, 1.39379, 1.39312, 1.39255, 1.39215, 1.38886, 1.38805, 1.41683, 1.39857, 1.37816, 1.37801, 1.37812, 1.40215, 1.39144, 1.38573, 1.40499, 1.3941, 1.39198, 1.39468, 1.39249, 1.40541, 1.37143, 1.3745, 1.38181, 1.45092, 1.48635, 1.47468, 1.49239, 1.52082, 1.54284, 1.52445, 1.51803, 1.47192, 1.51928, 1.50842, 1.51756, 1.46788, 1.40739, 1.41922, 1.34261, 1.33122, 1.35802, 1.35767, 1.3508, 1.35712, 1.34851, 1.3472, 1.36411, 1.36106, 1.34971, 1.34681, 1.35882, 1.34936, 1.35129, 1.34751, 1.32987, 1.35401, 1.32569, 1.32362, 1.3241, 1.32762, 1.36953, 1.32823, 
1.67839, 1.67992, 1.70467, 1.68197, 1.67345, 1.67073, 1.67023, 1.66863, 1.66671, 1.66212, 1.66171, 1.66538, 1.65801, 1.66527, 1.66467, 1.65854, 1.65848, 1.64581, 1.63426, 1.66373, 1.63263, 1.64444, 1.67326, 1.72745, 1.75121, 1.79078, 1.82033, 1.84755, 1.85819, 1.87161, 1.86668, 1.87146, 1.75976, 1.71586, 1.63159, 1.60873, 1.62551, 1.63038, 1.62841, 1.61712, 1.61608, 1.62126, 1.61631, 1.60642, 1.60602, 1.59921, 1.60061, 1.59308, 1.60381, 1.58996, 1.59877, 1.587, 1.58668, 1.5852, 1.58387, 1.58354, 1.58358, 1.58038, 1.57834, 1.5758, 1.57313, 1.56916, 1.5677, 1.57414, 1.56755, 1.56427, 1.56474, 1.57882, 1.56778, 1.56538, 1.58309, 1.58137, 1.58452, 1.55486, 1.5613, 1.55538, 1.55543, 1.56123, 1.55048, 1.55252, 1.5417, 1.54377, 1.54152, 1.53295, 1.53164, 1.53042, 1.52953, 1.5274, 1.52594, 1.52458, 1.53005, 1.52268, 1.52574, 1.51662, 1.5174, 1.52296, 1.52175, 1.53052, 1.52377, 1.52369, 1.53349, 1.48544, 1.52363, 1.53611, 1.57735, 1.60542, 1.63054, 1.65446, 1.6545, 1.64835, 1.64341, 1.64006, 1.62451, 1.58502, 1.56927, 1.5428, 1.49791, 1.46364, 1.491, 1.4886, 1.48418, 1.49295, 1.48745, 1.48726, 1.51224, 1.49212, 1.49324, 1.48145, 1.47087, 1.47587, 1.46433, 1.47483, 1.46846, 1.4651, 1.46914, 1.45081, 1.45705, 1.4475, 1.4475, 1.4476, 1.44714, 1.44429, 1.44301, 1.44374, 1.44177, 1.44121, 1.4432, 1.44039, 1.44343, 1.4366, 1.44188, 1.43082, 1.4296, 1.43007, 1.43432, 1.46102, 1.42933, 1.4271, 1.42965, 1.42743, 1.424, 1.42388, 1.42314, 1.42126, 1.42015, 1.42354, 1.41612, 1.41797, 1.41209, 1.41021, 1.40785, 1.40619, 1.40338, 1.40534, 1.40193, 1.39997, 1.39989, 1.39876, 1.41294, 1.39669, 1.3965, 1.39573, 1.39571, 1.39368, 1.40911, 1.41387, 1.40735, 1.38849, 1.38996, 1.38814, 1.38847, 1.39945, 1.389, 1.39294, 1.38435, 1.38743, 1.3883, 1.38823, 1.39352, 1.37879, 1.37886, 1.38886, 1.43531, 1.46135, 1.46938, 1.47246, 1.50092, 1.51121, 1.52203, 1.5248, 1.52041, 1.52495, 1.49633, 1.50125, 1.45154, 1.39849, 1.3547, 1.36388, 1.37481, 1.37023, 1.36131, 1.37591, 1.37241, 1.36402, 1.35524, 1.34365, 1.34239, 1.34091, 1.3419, 1.33842, 1.34035, 1.34052, 1.35835, 1.33974, 1.34775, 1.33555, 1.33734, 1.34443, 1.33462, 1.33675, 
1.6796, 1.7029, 1.68177, 1.67294, 1.6812, 1.67691, 1.66465, 1.67363, 1.65985, 1.66613, 1.66874, 1.65438, 1.65383, 1.65227, 1.65363, 1.65648, 1.64981, 1.66159, 1.65604, 1.64689, 1.62834, 1.63982, 1.66156, 1.6788, 1.69586, 1.74163, 1.77562, 1.80779, 1.83882, 1.87472, 1.89214, 1.85895, 1.81948, 1.68486, 1.65961, 1.59361, 1.5978, 1.61284, 1.61701, 1.61663, 1.6375, 1.60783, 1.5999, 1.59711, 1.6035, 1.59562, 1.59248, 1.60005, 1.59806, 1.59213, 1.58549, 1.58221, 1.57992, 1.57834, 1.57509, 1.57248, 1.57409, 1.5925, 1.56649, 1.56554, 1.56443, 1.56545, 1.5627, 1.55823, 1.56171, 1.55364, 1.551, 1.56738, 1.55075, 1.548, 1.55737, 1.55121, 1.56439, 1.55331, 1.56056, 1.54203, 1.53801, 1.53996, 1.54189, 1.53669, 1.54711, 1.53127, 1.54045, 1.5301, 1.52665, 1.53042, 1.52123, 1.51679, 1.52055, 1.52464, 1.52338, 1.51031, 1.51264, 1.51123, 1.52134, 1.5126, 1.5182, 1.51403, 1.51557, 1.51587, 1.51587, 1.47527, 1.48317, 1.51585, 1.58668, 1.63441, 1.60956, 1.64969, 1.64868, 1.64921, 1.65714, 1.6297, 1.59907, 1.58142, 1.55517, 1.52596, 1.50303, 1.45851, 1.47072, 1.47804, 1.49193, 1.48153, 1.4796, 1.48327, 1.47972, 1.48651, 1.47911, 1.47672, 1.47538, 1.46067, 1.46097, 1.46155, 1.44771, 1.4536, 1.46239, 1.44709, 1.46128, 1.44564, 1.45244, 1.44316, 1.47021, 1.48327, 1.4405, 1.43778, 1.43636, 1.43581, 1.44333, 1.43419, 1.43399, 1.43094, 1.43071, 1.42834, 1.42671, 1.42663, 1.43889, 1.42682, 1.42524, 1.42101, 1.41943, 1.41977, 1.41752, 1.41694, 1.41532, 1.41243, 1.41664, 1.40774, 1.40528, 1.40428, 1.40587, 1.40094, 1.39954, 1.39746, 1.40481, 1.39717, 1.39564, 1.39319, 1.39184, 1.39006, 1.39004, 1.39021, 1.38998, 1.38818, 1.38811, 1.38762, 1.39257, 1.38544, 1.38232, 1.40555, 1.40021, 1.37985, 1.37954, 1.38489, 1.37642, 1.37434, 1.37911, 1.37444, 1.38975, 1.37929, 1.37554, 1.35207, 1.33872, 1.39256, 1.40629, 1.42704, 1.45154, 1.465, 1.49066, 1.513, 1.5215, 1.52824, 1.55708, 1.56214, 1.52736, 1.51862, 1.45252, 1.38972, 1.36413, 1.34818, 1.36124, 1.36796, 1.35593, 1.35376, 1.36153, 1.3495, 1.36236, 1.34338, 1.34365, 1.35279, 1.35442, 1.35403, 1.33596, 1.3412, 1.33339, 1.33835, 1.354, 1.33661, 1.33317, 1.33266, 1.3279, 1.32589, 
1.66056, 1.65814, 1.65725, 1.65583, 1.65478, 1.65233, 1.65449, 1.66183, 1.64715, 1.64865, 1.65252, 1.6389, 1.63755, 1.63516, 1.63217, 1.63426, 1.62713, 1.62739, 1.63038, 1.63116, 1.6087, 1.59289, 1.61649, 1.70058, 1.74096, 1.7335, 1.74842, 1.81795, 1.84563, 1.87535, 1.8935, 1.89091, 1.84469, 1.74736, 1.65175, 1.63377, 1.56518, 1.59532, 1.596, 1.59499, 1.59253, 1.58888, 1.58875, 1.5842, 1.58178, 1.5799, 1.58617, 1.57412, 1.57295, 1.57138, 1.5699, 1.56802, 1.56527, 1.5638, 1.56228, 1.56392, 1.56068, 1.56069, 1.55981, 1.55722, 1.55436, 1.5519, 1.55067, 1.54905, 1.54451, 1.54274, 1.54178, 1.53847, 1.53457, 1.53203, 1.53028, 1.52933, 1.5303, 1.52857, 1.5488, 1.54192, 1.54421, 1.53483, 1.53834, 1.52893, 1.51995, 1.51893, 1.51657, 1.51751, 1.51349, 1.51291, 1.51252, 1.51133, 1.50948, 1.50917, 1.50825, 1.51452, 1.50406, 1.50326, 1.501, 1.49855, 1.49845, 1.49903, 1.50233, 1.50213, 1.50313, 1.49111, 1.47433, 1.49619, 1.51032, 1.54033, 1.57148, 1.60233, 1.62356, 1.62341, 1.62061, 1.65381, 1.60585, 1.59021, 1.58619, 1.54401, 1.51503, 1.45795, 1.44388, 1.46168, 1.46841, 1.47518, 1.46173, 1.47574, 1.45561, 1.45473, 1.45819, 1.47296, 1.47923, 1.46199, 1.45562, 1.44737, 1.44285, 1.44117, 1.4386, 1.43739, 1.43475, 1.43328, 1.44315, 1.42657, 1.42504, 1.42494, 1.42305, 1.42203, 1.41997, 1.41967, 1.41733, 1.41411, 1.41272, 1.41221, 1.41064, 1.4096, 1.40866, 1.40691, 1.40702, 1.40507, 1.40381, 1.40223, 1.40141, 1.40179, 1.39989, 1.39853, 1.39739, 1.39667, 1.39553, 1.39534, 1.39471, 1.3936, 1.3955, 1.38932, 1.38882, 1.38868, 1.38718, 1.38493, 1.38284, 1.38193, 1.38174, 1.37456, 1.37441, 1.37127, 1.37163, 1.37027, 1.36884, 1.37424, 1.36689, 1.36821, 1.36729, 1.36459, 1.3642, 1.36476, 1.36199, 1.36109, 1.3752, 1.35941, 1.35588, 1.35714, 1.3739, 1.36018, 1.36669, 1.35552, 1.33324, 1.39264, 1.43646, 1.45472, 1.46101, 1.46633, 1.49575, 1.51663, 1.53331, 1.55468, 1.53199, 1.52179, 1.506, 1.47202, 1.44299, 1.38186, 1.33508, 1.32698, 1.32596, 1.34059, 1.33447, 1.33908, 1.33117, 1.3445, 1.33295, 1.32411, 1.32198, 1.32077, 1.31911, 1.31829, 1.31809, 1.31625, 1.31502, 1.31683, 1.31768, 1.31594, 1.3159, 1.31551, 1.31241, 1.31222, 
1.661, 1.65828, 1.65816, 1.65997, 1.66584, 1.65412, 1.65306, 1.64842, 1.6437, 1.6501, 1.64344, 1.64024, 1.64019, 1.63586, 1.63374, 1.63474, 1.63511, 1.63712, 1.63177, 1.63198, 1.62858, 1.60165, 1.63484, 1.6749, 1.69552, 1.74048, 1.79256, 1.83551, 1.85923, 1.88329, 1.90356, 1.9124, 1.84723, 1.82086, 1.6635, 1.60766, 1.56164, 1.58591, 1.59891, 1.60489, 1.59618, 1.589, 1.58753, 1.58405, 1.58236, 1.58027, 1.57898, 1.5767, 1.57916, 1.57061, 1.56925, 1.56682, 1.56416, 1.56155, 1.55487, 1.55909, 1.55754, 1.55569, 1.55653, 1.55768, 1.55502, 1.55338, 1.55134, 1.54786, 1.54713, 1.54483, 1.54419, 1.54096, 1.53915, 1.53654, 1.53651, 1.54251, 1.53198, 1.53203, 1.52921, 1.52748, 1.53657, 1.544, 1.53366, 1.53474, 1.53066, 1.53039, 1.51626, 1.51676, 1.51226, 1.51959, 1.50786, 1.50594, 1.51606, 1.50996, 1.50261, 1.50184, 1.51723, 1.50538, 1.49544, 1.49317, 1.49269, 1.49326, 1.50047, 1.49541, 1.49509, 1.48454, 1.46033, 1.49659, 1.50101, 1.53257, 1.554, 1.55532, 1.58997, 1.59581, 1.59889, 1.5791, 1.59872, 1.5886, 1.58276, 1.5711, 1.52636, 1.44918, 1.43987, 1.44032, 1.46731, 1.45856, 1.46698, 1.45625, 1.45155, 1.4614, 1.44587, 1.44616, 1.45323, 1.45453, 1.48159, 1.45842, 1.46424, 1.45199, 1.43706, 1.43516, 1.4324, 1.43145, 1.43234, 1.42782, 1.42625, 1.42622, 1.42529, 1.42563, 1.42369, 1.42161, 1.4203, 1.41804, 1.41794, 1.41597, 1.41429, 1.41254, 1.41161, 1.41031, 1.40877, 1.40825, 1.40865, 1.4057, 1.40512, 1.40499, 1.40409, 1.40619, 1.40077, 1.39904, 1.39668, 1.39592, 1.39476, 1.39452, 1.39225, 1.39135, 1.38896, 1.3853, 1.38535, 1.38425, 1.38201, 1.38152, 1.38114, 1.37665, 1.37556, 1.37518, 1.37421, 1.37312, 1.37091, 1.37122, 1.37013, 1.37052, 1.3687, 1.36812, 1.36866, 1.37584, 1.36801, 1.3783, 1.36474, 1.3645, 1.36484, 1.37512, 1.36411, 1.38579, 1.37341, 1.36545, 1.35147, 1.34882, 1.39169, 1.42006, 1.45855, 1.45216, 1.49336, 1.51613, 1.54175, 1.54838, 1.55009, 1.53738, 1.50314, 1.48872, 1.45001, 1.42218, 1.36777, 1.32121, 1.34247, 1.34177, 1.34941, 1.35715, 1.34147, 1.32998, 1.32738, 1.32717, 1.32715, 1.32854, 1.32584, 1.32623, 1.3228, 1.32088, 1.3214, 1.31958, 1.32126, 1.31928, 1.32328, 1.32356, 1.34466, 1.31258, 
1.66393, 1.66136, 1.66072, 1.65884, 1.65572, 1.65437, 1.6547, 1.65179, 1.6481, 1.64715, 1.65933, 1.64127, 1.64141, 1.64114, 1.63727, 1.64591, 1.63496, 1.63357, 1.64446, 1.64066, 1.63416, 1.59748, 1.60283, 1.64425, 1.67573, 1.6974, 1.70696, 1.76872, 1.78725, 1.86976, 1.92029, 2.04148, 2.0252, 1.83478, 1.69696, 1.58812, 1.57481, 1.59309, 1.597, 1.59869, 1.59143, 1.58941, 1.58485, 1.58256, 1.58245, 1.57808, 1.57544, 1.57421, 1.57276, 1.57146, 1.58913, 1.57346, 1.5713, 1.56676, 1.56747, 1.56097, 1.55895, 1.55914, 1.55834, 1.55609, 1.5544, 1.55279, 1.55117, 1.55038, 1.54976, 1.54702, 1.54469, 1.54219, 1.54066, 1.53882, 1.53666, 1.53429, 1.53249, 1.53103, 1.52911, 1.52639, 1.52486, 1.52451, 1.53433, 1.52572, 1.53457, 1.53026, 1.53938, 1.53623, 1.52384, 1.5109, 1.51619, 1.50943, 1.5074, 1.50614, 1.50411, 1.50318, 1.50203, 1.50065, 1.49967, 1.49903, 1.49845, 1.5078, 1.5016, 1.49688, 1.49878, 1.48552, 1.46302, 1.46433, 1.48933, 1.52437, 1.57072, 1.57497, 1.58673, 1.59193, 1.5719, 1.5955, 1.59107, 1.58431, 1.60931, 1.55028, 1.51959, 1.46767, 1.46544, 1.45563, 1.47252, 1.46451, 1.47431, 1.46009, 1.47148, 1.45104, 1.44733, 1.44693, 1.44539, 1.44497, 1.46148, 1.4506, 1.45715, 1.4573, 1.46263, 1.46802, 1.44715, 1.43449, 1.43146, 1.42784, 1.42641, 1.42538, 1.42456, 1.42197, 1.42245, 1.41977, 1.41868, 1.41878, 1.41893, 1.4201, 1.41559, 1.41437, 1.41284, 1.41251, 1.41212, 1.41026, 1.40894, 1.40811, 1.40654, 1.40496, 1.4041, 1.40227, 1.40027, 1.3988, 1.39762, 1.39555, 1.39478, 1.39175, 1.3917, 1.38963, 1.388, 1.38534, 1.38442, 1.38333, 1.38133, 1.37941, 1.37924, 1.37801, 1.37817, 1.3773, 1.37598, 1.37394, 1.37376, 1.37204, 1.3721, 1.37102, 1.36994, 1.36935, 1.36886, 1.36694, 1.36606, 1.36364, 1.36402, 1.36191, 1.35895, 1.35701, 1.35685, 1.35836, 1.38201, 1.3688, 1.37297, 1.33535, 1.38277, 1.38194, 1.45771, 1.45036, 1.53061, 1.50299, 1.54022, 1.57495, 1.57813, 1.49165, 1.52454, 1.50529, 1.44418, 1.39351, 1.36705, 1.32736, 1.35949, 1.35782, 1.35671, 1.35246, 1.34278, 1.34809, 1.33839, 1.33709, 1.33469, 1.33274, 1.33072, 1.33253, 1.33104, 1.32985, 1.32714, 1.32643, 1.32491, 1.32413, 1.32208, 1.32229, 1.31952, 1.31858, 
1.66418, 1.66155, 1.65866, 1.65599, 1.65753, 1.65205, 1.6495, 1.64759, 1.64552, 1.64399, 1.64214, 1.63798, 1.64477, 1.63779, 1.65393, 1.65812, 1.64472, 1.63273, 1.63387, 1.63835, 1.63099, 1.60668, 1.60895, 1.61886, 1.72445, 1.72102, 1.75537, 1.77943, 1.80105, 1.91051, 1.95258, 2.02782, 1.97378, 1.91318, 1.72955, 1.61267, 1.58159, 1.58653, 1.60873, 1.60699, 1.60271, 1.59011, 1.58848, 1.58522, 1.58307, 1.58041, 1.57976, 1.57602, 1.57599, 1.573, 1.56964, 1.56783, 1.56518, 1.56422, 1.56103, 1.56, 1.55961, 1.55893, 1.55763, 1.55601, 1.55485, 1.55218, 1.55076, 1.55005, 1.54793, 1.54386, 1.5463, 1.54416, 1.54248, 1.5412, 1.53632, 1.53395, 1.53287, 1.52968, 1.52857, 1.52736, 1.52652, 1.52372, 1.5229, 1.52163, 1.52006, 1.53381, 1.53044, 1.53669, 1.5599, 1.52777, 1.53214, 1.52017, 1.51273, 1.51176, 1.51066, 1.50902, 1.50803, 1.50333, 1.5015, 1.49841, 1.49657, 1.49606, 1.49662, 1.50568, 1.4917, 1.50196, 1.46871, 1.47468, 1.51149, 1.56159, 1.53335, 1.56898, 1.56754, 1.57314, 1.57087, 1.57438, 1.5778, 1.57521, 1.55874, 1.51614, 1.50524, 1.50144, 1.45468, 1.45977, 1.46137, 1.47156, 1.46533, 1.47254, 1.46089, 1.45344, 1.47546, 1.45713, 1.44831, 1.44745, 1.4449, 1.4434, 1.45409, 1.45052, 1.45138, 1.45796, 1.4552, 1.45781, 1.43333, 1.42861, 1.42693, 1.42595, 1.42384, 1.44548, 1.42132, 1.42177, 1.42178, 1.42156, 1.42072, 1.41963, 1.41877, 1.41713, 1.41679, 1.41613, 1.41362, 1.41261, 1.41077, 1.40988, 1.40853, 1.40763, 1.40552, 1.4041, 1.40323, 1.40178, 1.40178, 1.39947, 1.39831, 1.39659, 1.39474, 1.39321, 1.39138, 1.38972, 1.38853, 1.38746, 1.38448, 1.381, 1.37654, 1.37605, 1.37285, 1.37097, 1.36986, 1.36969, 1.36775, 1.3678, 1.36526, 1.36692, 1.36708, 1.36547, 1.3654, 1.3656, 1.36613, 1.36709, 1.36732, 1.36595, 1.36536, 1.37937, 1.36446, 1.36611, 1.36606, 1.37288, 1.37757, 1.34692, 1.37923, 1.36493, 1.40645, 1.45136, 1.46911, 1.52618, 1.54755, 1.57115, 1.59581, 1.59482, 1.56285, 1.50054, 1.45771, 1.40942, 1.3671, 1.33395, 1.32645, 1.34013, 1.34419, 1.35187, 1.33735, 1.3308, 1.33074, 1.32863, 1.32687, 1.32833, 1.32763, 1.32695, 1.32663, 1.32689, 1.32577, 1.32853, 1.32385, 1.35737, 1.31937, 1.31983, 1.31681, 1.31691, 
1.66177, 1.66022, 1.65766, 1.65541, 1.65364, 1.64945, 1.64849, 1.64458, 1.64342, 1.64036, 1.63804, 1.63479, 1.63874, 1.63519, 1.63351, 1.63352, 1.63332, 1.63786, 1.63155, 1.63809, 1.62947, 1.63266, 1.60618, 1.61636, 1.62186, 1.68605, 1.73398, 1.71379, 1.81262, 1.84627, 2.00169, 1.83224, 2.12339, 1.90984, 1.73766, 1.59537, 1.55462, 1.59421, 1.59685, 1.60705, 1.60351, 1.58881, 1.58639, 1.58387, 1.58202, 1.57982, 1.57743, 1.57526, 1.57269, 1.57147, 1.56877, 1.56784, 1.57391, 1.57459, 1.56203, 1.5579, 1.5584, 1.55719, 1.55675, 1.55444, 1.55337, 1.5522, 1.55189, 1.54808, 1.54567, 1.54514, 1.54306, 1.54042, 1.53837, 1.53663, 1.53435, 1.53264, 1.53281, 1.52715, 1.52649, 1.52401, 1.52219, 1.5198, 1.51615, 1.5154, 1.51497, 1.51412, 1.5136, 1.52731, 1.52353, 1.5125, 1.53172, 1.52691, 1.5375, 1.51686, 1.5135, 1.50658, 1.50557, 1.50325, 1.50244, 1.52086, 1.5023, 1.49378, 1.49567, 1.50601, 1.50904, 1.50148, 1.4753, 1.48386, 1.48554, 1.52011, 1.54796, 1.57546, 1.59485, 1.59284, 1.60592, 1.56104, 1.55858, 1.55786, 1.54304, 1.53693, 1.51118, 1.48457, 1.45782, 1.45008, 1.46248, 1.46144, 1.46133, 1.47175, 1.45763, 1.45132, 1.44844, 1.44652, 1.44581, 1.44568, 1.44307, 1.44147, 1.44244, 1.44854, 1.44993, 1.43669, 1.41906, 1.45836, 1.45225, 1.45022, 1.40875, 1.43382, 1.42061, 1.41909, 1.41976, 1.41881, 1.4158, 1.4168, 1.41524, 1.41426, 1.41273, 1.4121, 1.41059, 1.40877, 1.40767, 1.40576, 1.40533, 1.40473, 1.40201, 1.40222, 1.4011, 1.40154, 1.39964, 1.40008, 1.39967, 1.39848, 1.3973, 1.3953, 1.39468, 1.39378, 1.3921, 1.39201, 1.39104, 1.38909, 1.3882, 1.3864, 1.38418, 1.3845, 1.38429, 1.38083, 1.37993, 1.37969, 1.37799, 1.3761, 1.3752, 1.37505, 1.3741, 1.37117, 1.37008, 1.3703, 1.36805, 1.36669, 1.36467, 1.36401, 1.36317, 1.36398, 1.36218, 1.36241, 1.36362, 1.36494, 1.36477, 1.36603, 1.34307, 1.39073, 1.41015, 1.44464, 1.4848, 1.51678, 1.55, 1.58572, 1.59938, 1.59922, 1.57121, 1.51319, 1.46691, 1.37965, 1.35027, 1.31263, 1.34111, 1.34387, 1.3438, 1.34748, 1.34498, 1.33382, 1.33157, 1.33089, 1.32852, 1.3297, 1.32756, 1.32562, 1.32701, 1.32324, 1.32491, 1.32377, 1.34697, 1.31708, 1.31737, 1.31657, 1.31527, 1.31454, 
1.65834, 1.65582, 1.65407, 1.65053, 1.64806, 1.64602, 1.64496, 1.64836, 1.64465, 1.64254, 1.64227, 1.63692, 1.63426, 1.63364, 1.64735, 1.63378, 1.63113, 1.63053, 1.62967, 1.6276, 1.63175, 1.6278, 1.63353, 1.6086, 1.63495, 1.69372, 1.70892, 1.74523, 1.76906, 1.90764, 1.91559, 1.95814, 1.95791, 1.91859, 1.83049, 1.60933, 1.55782, 1.56817, 1.5928, 1.59311, 1.59077, 1.58547, 1.59232, 1.58109, 1.57878, 1.5766, 1.58918, 1.57138, 1.57223, 1.57026, 1.56819, 1.57966, 1.56526, 1.56362, 1.56183, 1.56014, 1.55907, 1.55649, 1.55517, 1.55294, 1.55017, 1.54786, 1.54716, 1.5461, 1.54006, 1.53975, 1.53785, 1.53556, 1.53292, 1.5319, 1.53067, 1.53005, 1.52945, 1.52627, 1.52602, 1.52306, 1.52201, 1.52146, 1.52148, 1.519, 1.51661, 1.51535, 1.51466, 1.51331, 1.51119, 1.51037, 1.52012, 1.51012, 1.51794, 1.5429, 1.54158, 1.53067, 1.51382, 1.51434, 1.50782, 1.49719, 1.50639, 1.50648, 1.4993, 1.50179, 1.49703, 1.48845, 1.48301, 1.49415, 1.5161, 1.50696, 1.5282, 1.55992, 1.57172, 1.569, 1.56155, 1.54383, 1.55059, 1.55252, 1.54832, 1.54153, 1.5401, 1.5411, 1.49946, 1.45826, 1.44639, 1.4578, 1.46192, 1.4612, 1.45678, 1.45668, 1.46246, 1.45176, 1.44661, 1.43877, 1.4802, 1.46454, 1.46873, 1.49806, 1.51546, 1.48312, 1.46049, 1.45498, 1.44089, 1.43587, 1.42859, 1.4302, 1.42164, 1.42135, 1.41944, 1.41951, 1.41929, 1.41573, 1.41379, 1.41365, 1.4125, 1.41092, 1.40898, 1.40766, 1.40635, 1.40599, 1.40454, 1.40372, 1.40196, 1.40085, 1.39875, 1.39966, 1.39802, 1.39782, 1.39518, 1.39377, 1.39186, 1.39064, 1.38857, 1.38769, 1.38907, 1.38396, 1.38373, 1.3817, 1.3811, 1.38124, 1.37901, 1.37885, 1.37791, 1.37686, 1.37589, 1.37491, 1.37438, 1.37508, 1.37476, 1.37191, 1.37214, 1.37084, 1.37099, 1.37118, 1.36812, 1.36637, 1.36461, 1.36159, 1.36146, 1.36176, 1.35883, 1.36812, 1.37452, 1.37462, 1.37451, 1.36129, 1.36907, 1.34743, 1.37517, 1.43439, 1.48248, 1.4866, 1.55113, 1.57592, 1.6124, 1.61073, 1.60424, 1.5612, 1.49333, 1.42002, 1.35096, 1.32792, 1.3435, 1.34438, 1.34997, 1.3533, 1.34331, 1.33975, 1.33183, 1.33264, 1.33056, 1.32989, 1.32912, 1.32774, 1.32578, 1.3256, 1.32396, 1.32256, 1.32069, 1.32018, 1.31949, 1.31923, 1.31651, 1.31715, 
1.65968, 1.65861, 1.65531, 1.65538, 1.65459, 1.65297, 1.65166, 1.64855, 1.64871, 1.6469, 1.64501, 1.64175, 1.63758, 1.63789, 1.63456, 1.63144, 1.62962, 1.63402, 1.62468, 1.62426, 1.62382, 1.64114, 1.62539, 1.63462, 1.60444, 1.70649, 1.67358, 1.70387, 1.7369, 1.7883, 1.82218, 1.85081, 1.86518, 1.85458, 1.7167, 1.66074, 1.56551, 1.59509, 1.61301, 1.60298, 1.60387, 1.60179, 1.59053, 1.59672, 1.59198, 1.58304, 1.58223, 1.57974, 1.57733, 1.57589, 1.57238, 1.56973, 1.56778, 1.56661, 1.56173, 1.55768, 1.55689, 1.55511, 1.56118, 1.55029, 1.54906, 1.54745, 1.54523, 1.54335, 1.5405, 1.53949, 1.5366, 1.53695, 1.53223, 1.52987, 1.52756, 1.52692, 1.52356, 1.52355, 1.5233, 1.52244, 1.52133, 1.51903, 1.51858, 1.51716, 1.51615, 1.52428, 1.5135, 1.51222, 1.51113, 1.51044, 1.51577, 1.51298, 1.50575, 1.50954, 1.51527, 1.53542, 1.53229, 1.52436, 1.52868, 1.55117, 1.52573, 1.50055, 1.49412, 1.48648, 1.50965, 1.4965, 1.48648, 1.47537, 1.4762, 1.51046, 1.53057, 1.55168, 1.56408, 1.55738, 1.55498, 1.54302, 1.52692, 1.50874, 1.535, 1.54515, 1.57692, 1.51547, 1.49472, 1.47923, 1.47397, 1.46899, 1.46814, 1.46452, 1.46236, 1.47026, 1.46302, 1.45838, 1.44465, 1.46187, 1.4484, 1.44866, 1.45369, 1.45848, 1.44381, 1.44019, 1.43672, 1.44489, 1.43302, 1.43157, 1.42964, 1.42732, 1.42574, 1.42469, 1.4233, 1.42232, 1.42243, 1.41959, 1.41944, 1.41657, 1.41413, 1.41313, 1.4123, 1.41203, 1.40917, 1.40865, 1.40578, 1.40479, 1.40266, 1.40248, 1.39942, 1.39858, 1.39833, 1.39804, 1.39595, 1.39286, 1.39259, 1.39249, 1.39197, 1.39168, 1.38985, 1.38933, 1.38873, 1.38767, 1.38704, 1.38436, 1.38332, 1.38079, 1.3811, 1.37945, 1.3822, 1.37655, 1.3751, 1.37431, 1.37312, 1.37117, 1.37012, 1.36724, 1.3669, 1.3663, 1.36462, 1.36381, 1.36844, 1.36138, 1.35965, 1.37168, 1.35685, 1.35594, 1.35606, 1.35631, 1.36427, 1.36125, 1.33643, 1.33675, 1.40089, 1.44748, 1.46012, 1.48638, 1.55419, 1.58504, 1.62008, 1.63338, 1.6484, 1.60269, 1.52306, 1.43723, 1.34824, 1.306, 1.31275, 1.33922, 1.34023, 1.35035, 1.34087, 1.33146, 1.33057, 1.3305, 1.32761, 1.32819, 1.32578, 1.32576, 1.32327, 1.32244, 1.32477, 1.32202, 1.3199, 1.31989, 1.31862, 1.31617, 1.31918, 1.31656, 
1.65482, 1.65397, 1.65421, 1.65401, 1.65461, 1.65198, 1.6514, 1.64864, 1.64849, 1.64593, 1.64377, 1.642, 1.64475, 1.63621, 1.63168, 1.63173, 1.62974, 1.62809, 1.62745, 1.62636, 1.62416, 1.62964, 1.62384, 1.62724, 1.60303, 1.60659, 1.66598, 1.72119, 1.75102, 1.87459, 1.88298, 1.92181, 1.96426, 1.96276, 1.78213, 1.67658, 1.57286, 1.59276, 1.58138, 1.58606, 1.59291, 1.59703, 1.5973, 1.60556, 1.59936, 1.6001, 1.60108, 1.59637, 1.58574, 1.58004, 1.58533, 1.57167, 1.56538, 1.56197, 1.55998, 1.55814, 1.55572, 1.55349, 1.55189, 1.55023, 1.54816, 1.54674, 1.54551, 1.54215, 1.54039, 1.53876, 1.53738, 1.53483, 1.53349, 1.53254, 1.53156, 1.53064, 1.52718, 1.52466, 1.52215, 1.51961, 1.51776, 1.51558, 1.51677, 1.51493, 1.51244, 1.51242, 1.51099, 1.50949, 1.50655, 1.5055, 1.50436, 1.50216, 1.50169, 1.50063, 1.49858, 1.49752, 1.49628, 1.49583, 1.49419, 1.49374, 1.49304, 1.49918, 1.49549, 1.49923, 1.48957, 1.51066, 1.5025, 1.48376, 1.49532, 1.51862, 1.53192, 1.57248, 1.5587, 1.54697, 1.53248, 1.51701, 1.57248, 1.49387, 1.51699, 1.52678, 1.54433, 1.52668, 1.50304, 1.47569, 1.47154, 1.46602, 1.47368, 1.47251, 1.46247, 1.45887, 1.45485, 1.4524, 1.44967, 1.44701, 1.44622, 1.44472, 1.44291, 1.44026, 1.43889, 1.43548, 1.43386, 1.43194, 1.42981, 1.42729, 1.42667, 1.42625, 1.42599, 1.42359, 1.42213, 1.4199, 1.41871, 1.4174, 1.41529, 1.4143, 1.41387, 1.41316, 1.41213, 1.41246, 1.40941, 1.4089, 1.40951, 1.40673, 1.40533, 1.40354, 1.40253, 1.40059, 1.39962, 1.39675, 1.39627, 1.39445, 1.3925, 1.39122, 1.39085, 1.38892, 1.38917, 1.38582, 1.38473, 1.38436, 1.38545, 1.38134, 1.3803, 1.43205, 1.37863, 1.37763, 1.37712, 1.37587, 1.37275, 1.37165, 1.37037, 1.37064, 1.3699, 1.37065, 1.36792, 1.36777, 1.3635, 1.36253, 1.36441, 1.36137, 1.36049, 1.36032, 1.35807, 1.35805, 1.35853, 1.35854, 1.37431, 1.36076, 1.37187, 1.34012, 1.3762, 1.42137, 1.43915, 1.51399, 1.51394, 1.54427, 1.64171, 1.65573, 1.66847, 1.65208, 1.63686, 1.50985, 1.39778, 1.31625, 1.33646, 1.33965, 1.34745, 1.34647, 1.33491, 1.33087, 1.3308, 1.34806, 1.32724, 1.32487, 1.33396, 1.32627, 1.32575, 1.32537, 1.3239, 1.3267, 1.32272, 1.32279, 1.32353, 1.32575, 1.3202, 1.31873, 
1.65103, 1.64964, 1.64905, 1.64809, 1.64558, 1.64504, 1.64423, 1.64052, 1.63856, 1.63786, 1.63574, 1.63328, 1.63, 1.62916, 1.62642, 1.64073, 1.62656, 1.61987, 1.62045, 1.61962, 1.62025, 1.61865, 1.61803, 1.62305, 1.6269, 1.6209, 1.64333, 1.66384, 1.74096, 1.77259, 1.79712, 1.85064, 2.02185, 2.05223, 1.92875, 1.81842, 1.55783, 1.5606, 1.56875, 1.58967, 1.65803, 1.70371, 1.80985, 1.78673, 1.74075, 1.6903, 1.6342, 1.63784, 1.60346, 1.6074, 1.59051, 1.58861, 1.5839, 1.57353, 1.56613, 1.5594, 1.56553, 1.55165, 1.56009, 1.56175, 1.54585, 1.56306, 1.54101, 1.53978, 1.53807, 1.53743, 1.53473, 1.53304, 1.5325, 1.53086, 1.53095, 1.52875, 1.52593, 1.52395, 1.52267, 1.52174, 1.51894, 1.51703, 1.5155, 1.51311, 1.51024, 1.51018, 1.507, 1.50616, 1.50507, 1.50377, 1.50223, 1.50055, 1.50056, 1.49744, 1.49806, 1.50271, 1.49243, 1.49067, 1.49004, 1.48802, 1.48629, 1.4852, 1.49313, 1.49524, 1.49124, 1.49303, 1.49334, 1.48587, 1.49367, 1.51648, 1.5457, 1.57915, 1.53714, 1.53386, 1.55227, 1.50066, 1.48712, 1.48781, 1.52253, 1.53071, 1.53619, 1.51527, 1.51356, 1.50293, 1.4738, 1.46819, 1.46961, 1.47152, 1.45675, 1.45387, 1.44766, 1.45199, 1.45702, 1.43777, 1.43653, 1.43294, 1.43063, 1.42944, 1.42855, 1.42815, 1.42618, 1.42509, 1.42374, 1.42266, 1.42229, 1.42225, 1.42359, 1.42286, 1.42223, 1.42059, 1.41987, 1.41939, 1.41847, 1.41645, 1.41366, 1.41203, 1.40844, 1.40665, 1.40446, 1.40255, 1.40168, 1.40013, 1.39896, 1.39791, 1.39565, 1.3952, 1.39296, 1.39359, 1.39207, 1.38992, 1.38918, 1.38759, 1.38603, 1.38513, 1.38301, 1.38267, 1.3816, 1.38043, 1.38024, 1.37917, 1.37757, 1.37732, 1.37611, 1.37722, 1.37219, 1.37162, 1.36937, 1.36883, 1.36978, 1.36912, 1.36852, 1.36793, 1.36767, 1.36335, 1.36463, 1.36375, 1.36222, 1.36037, 1.36032, 1.3599, 1.36032, 1.35986, 1.35755, 1.36492, 1.36474, 1.35827, 1.35809, 1.33033, 1.35933, 1.38718, 1.42201, 1.45182, 1.51431, 1.55441, 1.62101, 1.65815, 1.64849, 1.62449, 1.56149, 1.47843, 1.40783, 1.33757, 1.33646, 1.35109, 1.34211, 1.3404, 1.34692, 1.33961, 1.33035, 1.34042, 1.32751, 1.3242, 1.32604, 1.32289, 1.32338, 1.32256, 1.32005, 1.31866, 1.31823, 1.31673, 1.31604, 1.31329, 1.31537, 1.31387, 
1.64123, 1.63882, 1.63975, 1.63732, 1.63536, 1.63405, 1.63288, 1.63292, 1.63151, 1.63019, 1.62799, 1.62466, 1.62347, 1.62239, 1.62186, 1.6179, 1.61575, 1.61386, 1.61137, 1.60943, 1.60915, 1.61698, 1.60954, 1.61086, 1.60282, 1.60081, 1.60715, 1.6834, 1.69042, 1.72631, 1.82092, 1.85835, 1.9278, 2.1503, 1.72048, 1.72513, 1.56066, 1.54059, 1.55819, 1.58264, 1.57772, 1.57682, 1.57533, 1.58532, 1.58239, 1.57456, 1.57452, 1.57967, 1.5695, 1.56477, 1.5619, 1.56012, 1.55459, 1.55184, 1.55084, 1.54697, 1.54471, 1.54152, 1.5398, 1.53906, 1.54793, 1.53574, 1.53281, 1.53077, 1.52842, 1.52663, 1.52559, 1.52274, 1.52168, 1.52086, 1.51938, 1.51692, 1.51578, 1.5148, 1.51335, 1.51244, 1.51151, 1.51044, 1.50794, 1.50635, 1.50458, 1.50024, 1.49911, 1.49643, 1.49162, 1.4896, 1.49535, 1.48394, 1.48525, 1.48417, 1.48441, 1.48315, 1.48122, 1.48067, 1.48107, 1.48025, 1.47816, 1.47813, 1.47689, 1.47787, 1.48094, 1.4819, 1.50184, 1.48807, 1.5015, 1.50281, 1.53685, 1.54209, 1.52868, 1.52931, 1.52431, 1.49637, 1.48353, 1.483, 1.51369, 1.48725, 1.50097, 1.5062, 1.53859, 1.49641, 1.463, 1.45267, 1.45227, 1.45773, 1.45267, 1.44956, 1.44377, 1.44108, 1.44148, 1.43671, 1.43386, 1.43271, 1.43139, 1.42791, 1.42734, 1.42474, 1.42322, 1.42155, 1.42008, 1.41912, 1.41713, 1.41561, 1.41383, 1.41247, 1.41099, 1.40873, 1.4071, 1.40578, 1.40295, 1.40273, 1.40002, 1.39962, 1.39585, 1.39845, 1.39313, 1.39255, 1.39165, 1.39085, 1.39187, 1.38804, 1.38863, 1.38716, 1.38741, 1.38796, 1.38965, 1.38826, 1.3871, 1.38597, 1.38559, 1.38464, 1.38282, 1.38079, 1.37858, 1.37555, 1.37384, 1.37065, 1.379, 1.36719, 1.36504, 1.36365, 1.36407, 1.36383, 1.36158, 1.36158, 1.36133, 1.36195, 1.35968, 1.35782, 1.35504, 1.35652, 1.35666, 1.35472, 1.35286, 1.35421, 1.35312, 1.35073, 1.34718, 1.34732, 1.34994, 1.34647, 1.34567, 1.34719, 1.36166, 1.34423, 1.32981, 1.37446, 1.38948, 1.4474, 1.50078, 1.53007, 1.58993, 1.68565, 1.68546, 1.67692, 1.61635, 1.49594, 1.39331, 1.37476, 1.30533, 1.33048, 1.33597, 1.32983, 1.32613, 1.32058, 1.32224, 1.31933, 1.31872, 1.31998, 1.31928, 1.31854, 1.31892, 1.31589, 1.3163, 1.31264, 1.31062, 1.31212, 1.31019, 1.3065, 1.30856, 1.30347, 
1.63651, 1.63777, 1.63547, 1.63706, 1.63724, 1.63477, 1.63281, 1.63681, 1.62988, 1.62962, 1.62924, 1.62708, 1.62257, 1.62118, 1.61993, 1.62876, 1.61631, 1.62337, 1.61124, 1.60901, 1.61079, 1.60765, 1.60858, 1.62594, 1.60824, 1.6174, 1.60061, 1.62024, 1.67537, 1.79014, 1.87299, 1.95188, 1.75277, 1.74453, 1.78948, 1.78163, 1.56491, 1.5695, 1.57264, 1.59012, 1.5859, 1.58333, 1.57914, 1.5815, 1.57495, 1.58044, 1.5689, 1.56848, 1.56556, 1.57027, 1.55913, 1.5675, 1.55601, 1.55231, 1.5499, 1.54719, 1.5442, 1.54487, 1.54364, 1.54382, 1.5423, 1.53943, 1.53502, 1.53371, 1.53104, 1.52998, 1.52803, 1.52504, 1.52355, 1.52336, 1.52121, 1.52113, 1.51773, 1.51884, 1.51431, 1.51237, 1.51035, 1.50728, 1.50671, 1.50534, 1.50297, 1.50065, 1.50072, 1.50197, 1.49895, 1.49402, 1.49935, 1.49182, 1.48996, 1.48829, 1.48659, 1.4867, 1.48482, 1.48447, 1.48349, 1.48222, 1.48043, 1.47972, 1.47996, 1.48671, 1.48165, 1.48315, 1.48645, 1.48376, 1.4893, 1.52024, 1.52018, 1.50827, 1.53036, 1.51269, 1.51749, 1.48713, 1.48534, 1.46925, 1.47263, 1.47592, 1.51141, 1.51523, 1.49608, 1.48597, 1.48179, 1.47149, 1.45196, 1.45405, 1.44733, 1.45412, 1.45042, 1.43597, 1.43216, 1.45789, 1.42719, 1.42748, 1.42696, 1.44046, 1.42413, 1.42363, 1.42153, 1.42074, 1.42049, 1.41782, 1.41693, 1.41516, 1.41275, 1.41191, 1.41103, 1.40858, 1.40779, 1.40505, 1.4038, 1.40403, 1.40077, 1.40177, 1.39964, 1.39821, 1.39663, 1.39591, 1.39485, 1.39442, 1.38744, 1.39151, 1.39037, 1.38627, 1.38487, 1.38312, 1.38247, 1.38253, 1.38166, 1.38064, 1.37803, 1.37443, 1.37382, 1.3721, 1.36967, 1.36767, 1.3646, 1.36399, 1.36166, 1.37234, 1.36109, 1.35866, 1.35893, 1.35893, 1.36033, 1.3606, 1.35878, 1.36183, 1.36071, 1.36787, 1.35576, 1.35376, 1.37209, 1.35202, 1.34996, 1.34854, 1.34758, 1.34745, 1.34664, 1.34476, 1.34567, 1.34997, 1.344, 1.34462, 1.34644, 1.34478, 1.34673, 1.31654, 1.37536, 1.40823, 1.44993, 1.51281, 1.5492, 1.60635, 1.6693, 1.71562, 1.58995, 1.48893, 1.37545, 1.30355, 1.30618, 1.32871, 1.32277, 1.32297, 1.33139, 1.32611, 1.31862, 1.32009, 1.32305, 1.31866, 1.31943, 1.32973, 1.31578, 1.31571, 1.31487, 1.32807, 1.31386, 1.31225, 1.30913, 1.31122, 1.31184, 1.3078, 
1.63189, 1.63129, 1.6305, 1.62548, 1.62365, 1.62354, 1.61991, 1.61793, 1.61848, 1.61518, 1.61101, 1.61034, 1.60809, 1.60629, 1.60659, 1.60279, 1.60022, 1.59874, 1.59586, 1.59633, 1.59111, 1.58712, 1.58697, 1.59626, 1.59244, 1.588, 1.58113, 1.58513, 1.63525, 1.70347, 1.73366, 1.82203, 1.95975, 2.00413, 1.94582, 1.89819, 1.66744, 1.54844, 1.56044, 1.57188, 1.57918, 1.57655, 1.56368, 1.55986, 1.56024, 1.55435, 1.55117, 1.55444, 1.54862, 1.54222, 1.54215, 1.53788, 1.53522, 1.53082, 1.52881, 1.52752, 1.52619, 1.52334, 1.52262, 1.52012, 1.52138, 1.51949, 1.52138, 1.51788, 1.5184, 1.517, 1.51598, 1.5139, 1.51337, 1.51123, 1.51128, 1.50865, 1.50709, 1.50372, 1.50251, 1.49937, 1.49851, 1.49707, 1.49852, 1.49509, 1.49354, 1.49099, 1.48962, 1.48786, 1.48358, 1.47887, 1.47804, 1.47714, 1.4765, 1.4745, 1.47405, 1.47456, 1.47259, 1.47002, 1.46776, 1.46682, 1.46511, 1.46448, 1.46396, 1.46618, 1.47121, 1.46898, 1.46991, 1.46974, 1.48247, 1.47894, 1.48611, 1.48286, 1.48518, 1.48664, 1.49377, 1.49962, 1.49128, 1.47245, 1.48156, 1.47599, 1.48489, 1.49945, 1.48648, 1.49733, 1.47744, 1.47047, 1.44877, 1.43966, 1.4397, 1.43292, 1.44385, 1.42392, 1.42007, 1.41652, 1.41526, 1.41439, 1.4128, 1.41296, 1.41077, 1.41373, 1.41761, 1.40772, 1.40701, 1.40565, 1.40501, 1.40492, 1.40235, 1.4022, 1.4026, 1.39626, 1.39268, 1.39089, 1.38874, 1.38717, 1.38497, 1.38435, 1.38167, 1.3812, 1.37996, 1.38041, 1.37967, 1.37961, 1.3789, 1.37519, 1.37949, 1.3776, 1.37501, 1.37579, 1.37122, 1.36818, 1.36558, 1.36638, 1.36301, 1.36102, 1.36076, 1.35908, 1.35697, 1.35459, 1.35336, 1.35299, 1.35384, 1.35012, 1.34658, 1.34769, 1.34688, 1.34975, 1.3487, 1.37287, 1.35073, 1.34881, 1.34732, 1.3463, 1.3473, 1.34421, 1.34205, 1.34226, 1.33849, 1.34238, 1.33744, 1.33515, 1.33324, 1.33159, 1.33021, 1.32883, 1.32734, 1.32841, 1.33194, 1.32777, 1.32737, 1.29528, 1.33372, 1.36823, 1.43949, 1.4858, 1.53458, 1.55902, 1.66285, 1.84436, 1.84957, 1.51957, 1.37772, 1.30148, 1.30328, 1.32773, 1.31979, 1.32055, 1.30591, 1.31216, 1.30615, 1.30555, 1.30612, 1.30512, 1.30585, 1.3029, 1.30008, 1.29945, 1.298, 1.29492, 1.29546, 1.29333, 1.291, 1.29119, 1.2915, 1.29089, 
1.62793, 1.62992, 1.63938, 1.63027, 1.6218, 1.61987, 1.61801, 1.61607, 1.61354, 1.60994, 1.61031, 1.60813, 1.60271, 1.60224, 1.60007, 1.59976, 1.59967, 1.60055, 1.5986, 1.59829, 1.60585, 1.60379, 1.60577, 1.60277, 1.60199, 1.60609, 1.59128, 1.59362, 1.60723, 1.78961, 1.78245, 1.7817, 2.01113, 2.03569, 2.03477, 1.81741, 1.71934, 1.56477, 1.53523, 1.56476, 1.57176, 1.56831, 1.57084, 1.56464, 1.55327, 1.55148, 1.55018, 1.54796, 1.55693, 1.54568, 1.54514, 1.5412, 1.54101, 1.54383, 1.54519, 1.5332, 1.52986, 1.52845, 1.52513, 1.52466, 1.52182, 1.51959, 1.51734, 1.51516, 1.51419, 1.51217, 1.51448, 1.51475, 1.51128, 1.50988, 1.52998, 1.507, 1.50933, 1.50424, 1.50233, 1.49965, 1.49875, 1.49515, 1.49342, 1.49143, 1.49059, 1.48729, 1.48687, 1.48398, 1.48159, 1.48164, 1.47862, 1.47599, 1.47422, 1.47326, 1.47136, 1.47033, 1.46926, 1.46842, 1.46644, 1.46464, 1.46255, 1.46263, 1.46353, 1.46251, 1.47155, 1.46882, 1.46697, 1.46787, 1.4856, 1.47469, 1.46758, 1.48502, 1.48497, 1.47524, 1.48466, 1.48196, 1.47535, 1.46668, 1.47131, 1.4776, 1.46605, 1.47453, 1.47415, 1.48094, 1.4781, 1.46803, 1.46205, 1.44785, 1.45379, 1.45129, 1.43367, 1.42762, 1.41969, 1.41343, 1.41188, 1.41205, 1.40879, 1.40859, 1.40905, 1.40739, 1.40584, 1.41694, 1.40472, 1.40299, 1.40233, 1.4021, 1.40063, 1.39894, 1.39712, 1.39504, 1.40323, 1.39189, 1.38917, 1.38776, 1.38537, 1.38356, 1.38234, 1.3807, 1.37885, 1.3781, 1.37741, 1.37603, 1.37445, 1.37517, 1.37277, 1.37286, 1.37199, 1.36917, 1.36928, 1.36814, 1.36686, 1.36543, 1.36384, 1.3641, 1.36317, 1.36294, 1.36228, 1.36077, 1.36095, 1.36015, 1.35722, 1.35964, 1.35631, 1.35654, 1.3519, 1.35133, 1.3501, 1.34801, 1.34952, 1.34826, 1.34711, 1.34558, 1.34624, 1.3432, 1.34349, 1.34627, 1.34145, 1.3407, 1.33899, 1.33999, 1.33961, 1.33929, 1.33671, 1.33735, 1.35339, 1.34569, 1.34671, 1.34995, 1.34246, 1.35187, 1.32384, 1.31521, 1.44768, 1.46867, 1.48451, 1.65741, 1.71609, 1.75154, 1.71995, 1.48719, 1.46537, 1.32263, 1.32092, 1.32342, 1.32019, 1.3169, 1.31345, 1.31832, 1.30876, 1.3087, 1.30742, 1.30894, 1.30591, 1.30456, 1.30783, 1.3082, 1.30864, 1.30148, 1.32295, 1.30892, 1.29916, 1.31903, 1.29672, 1.29866, 
1.59963, 1.59735, 1.5979, 1.5939, 1.59462, 1.59226, 1.59052, 1.58814, 1.58499, 1.58248, 1.57976, 1.57831, 1.57452, 1.57276, 1.57357, 1.57188, 1.57104, 1.56713, 1.56437, 1.56392, 1.56374, 1.56292, 1.56429, 1.56821, 1.5655, 1.56668, 1.56934, 1.53018, 1.56919, 1.60957, 1.67982, 1.67965, 1.85089, 1.94133, 1.9414, 1.96629, 1.56509, 1.52421, 1.50457, 1.52609, 1.53083, 1.52839, 1.52658, 1.52352, 1.51903, 1.51774, 1.51608, 1.51331, 1.51102, 1.51169, 1.51016, 1.51026, 1.50972, 1.50994, 1.51051, 1.50939, 1.50885, 1.50907, 1.50622, 1.50404, 1.50001, 1.49817, 1.49678, 1.49499, 1.49307, 1.49134, 1.48813, 1.4842, 1.48267, 1.48207, 1.47846, 1.47622, 1.47396, 1.47357, 1.47121, 1.47037, 1.46892, 1.47104, 1.4675, 1.46583, 1.46144, 1.45757, 1.4606, 1.46043, 1.46026, 1.45591, 1.45138, 1.45283, 1.45377, 1.45188, 1.4448, 1.44465, 1.44621, 1.44303, 1.441, 1.43826, 1.43672, 1.43464, 1.43602, 1.4337, 1.43392, 1.44474, 1.45451, 1.44777, 1.4573, 1.44183, 1.45076, 1.46038, 1.45615, 1.45111, 1.46212, 1.4483, 1.44848, 1.45114, 1.43002, 1.43787, 1.45167, 1.43643, 1.45002, 1.44612, 1.45325, 1.44748, 1.41392, 1.42419, 1.40686, 1.4027, 1.40068, 1.40982, 1.40862, 1.39227, 1.38976, 1.3844, 1.38185, 1.38074, 1.38263, 1.37753, 1.37751, 1.37454, 1.37608, 1.38123, 1.38569, 1.38592, 1.38458, 1.40322, 1.37494, 1.36537, 1.36505, 1.36343, 1.36394, 1.36387, 1.36078, 1.35891, 1.35663, 1.35663, 1.35414, 1.35266, 1.35337, 1.35235, 1.35084, 1.35057, 1.34872, 1.34767, 1.34626, 1.34464, 1.34291, 1.34006, 1.33871, 1.33694, 1.33613, 1.33372, 1.33346, 1.33329, 1.32727, 1.32716, 1.32445, 1.32929, 1.32993, 1.33551, 1.33347, 1.32705, 1.3205, 1.3172, 1.31726, 1.31493, 1.31565, 1.31879, 1.31275, 1.31329, 1.31543, 1.3156, 1.31632, 1.318, 1.31708, 1.31229, 1.31116, 1.30759, 1.3071, 1.30548, 1.30404, 1.30049, 1.30232, 1.30104, 1.2985, 1.3024, 1.30576, 1.31897, 1.28705, 1.2822, 1.38184, 1.47865, 1.48912, 1.52603, 1.58512, 1.76226, 1.84686, 1.57983, 1.33095, 1.33228, 1.2664, 1.2956, 1.29278, 1.29178, 1.29251, 1.29034, 1.2903, 1.29069, 1.28542, 1.28151, 1.27406, 1.27439, 1.27486, 1.27154, 1.27278, 1.28847, 1.26753, 1.2666, 1.26365, 1.26139, 1.26026, 1.25812, 
1.61628, 1.6143, 1.61297, 1.61294, 1.61023, 1.60774, 1.60736, 1.60519, 1.60361, 1.60037, 1.6, 1.59713, 1.59528, 1.59424, 1.59017, 1.60314, 1.58751, 1.59274, 1.58338, 1.58355, 1.58229, 1.58278, 1.58744, 1.59295, 1.58537, 1.58195, 1.57625, 1.58689, 1.56384, 1.60276, 1.66731, 1.75045, 1.87623, 1.94569, 2.01476, 1.8128, 1.80445, 1.52824, 1.53, 1.55343, 1.55275, 1.55765, 1.54843, 1.537, 1.54304, 1.5397, 1.53345, 1.53277, 1.53335, 1.53186, 1.54748, 1.52969, 1.52797, 1.52602, 1.52269, 1.52659, 1.52324, 1.51381, 1.51001, 1.50777, 1.50271, 1.50239, 1.51555, 1.50399, 1.50341, 1.50303, 1.50204, 1.50059, 1.49907, 1.49883, 1.49786, 1.49538, 1.49374, 1.49258, 1.48963, 1.51589, 1.48544, 1.48426, 1.47994, 1.47602, 1.4747, 1.4719, 1.47159, 1.47021, 1.46975, 1.46778, 1.46717, 1.46242, 1.4621, 1.45793, 1.45905, 1.45869, 1.4576, 1.46583, 1.46372, 1.45802, 1.47118, 1.45184, 1.45108, 1.45767, 1.4547, 1.4519, 1.46505, 1.46602, 1.45756, 1.46521, 1.46769, 1.45691, 1.45509, 1.47626, 1.4676, 1.46864, 1.4673, 1.46489, 1.45531, 1.4507, 1.45154, 1.44808, 1.4617, 1.47159, 1.45166, 1.44439, 1.43743, 1.45061, 1.43094, 1.42778, 1.4344, 1.41915, 1.41323, 1.41628, 1.40701, 1.40442, 1.40393, 1.40285, 1.40268, 1.40008, 1.39928, 1.39741, 1.39652, 1.39452, 1.39374, 1.3926, 1.38993, 1.38719, 1.38594, 1.38481, 1.38438, 1.38252, 1.38254, 1.37942, 1.37831, 1.37584, 1.374, 1.37366, 1.3729, 1.37452, 1.37253, 1.37075, 1.37157, 1.39864, 1.36802, 1.36496, 1.36212, 1.36045, 1.36467, 1.3576, 1.35676, 1.35491, 1.35411, 1.35275, 1.35414, 1.35129, 1.34912, 1.34797, 1.34789, 1.35151, 1.34533, 1.34636, 1.34519, 1.34123, 1.34183, 1.33929, 1.33781, 1.33791, 1.34451, 1.33511, 1.3385, 1.33122, 1.33247, 1.32933, 1.32994, 1.33399, 1.34264, 1.32957, 1.33721, 1.34406, 1.32554, 1.32626, 1.34116, 1.32432, 1.33698, 1.31929, 1.32541, 1.34035, 1.32513, 1.32429, 1.31737, 1.3089, 1.34084, 1.43977, 1.45965, 1.5094, 1.68188, 1.65242, 1.62608, 1.62058, 1.62511, 1.38671, 1.32, 1.33967, 1.31591, 1.30799, 1.31309, 1.31595, 1.30249, 1.30898, 1.2999, 1.30213, 1.29583, 1.30924, 1.29666, 1.30908, 1.29297, 1.29125, 1.31233, 1.30698, 1.28491, 1.28613, 1.28637, 1.28279, 
1.59581, 1.59505, 1.60213, 1.60251, 1.60336, 1.6059, 1.60434, 1.60121, 1.59635, 1.59448, 1.59509, 1.58801, 1.58579, 1.58426, 1.58437, 1.58382, 1.5829, 1.58243, 1.58094, 1.57909, 1.57624, 1.5859, 1.58654, 1.59183, 1.57777, 1.57483, 1.58224, 1.57751, 1.55257, 1.63763, 1.6326, 1.70699, 1.75864, 1.75913, 2.1918, 1.98879, 1.7316, 1.5595, 1.51469, 1.54884, 1.54173, 1.548, 1.55799, 1.55554, 1.55058, 1.53059, 1.53015, 1.52781, 1.52527, 1.54033, 1.53328, 1.52462, 1.51928, 1.51762, 1.53474, 1.53078, 1.51029, 1.51081, 1.50749, 1.50558, 1.50302, 1.50145, 1.50143, 1.49916, 1.49689, 1.49263, 1.4985, 1.49104, 1.49073, 1.48916, 1.48784, 1.48634, 1.48558, 1.48457, 1.48291, 1.48222, 1.47934, 1.47759, 1.47755, 1.47062, 1.46839, 1.4662, 1.46641, 1.4641, 1.46475, 1.46242, 1.46158, 1.46095, 1.45872, 1.46426, 1.45508, 1.46416, 1.45778, 1.45102, 1.45037, 1.45074, 1.45784, 1.44782, 1.44723, 1.44757, 1.4472, 1.45005, 1.45079, 1.45252, 1.45892, 1.46167, 1.47175, 1.4636, 1.46376, 1.45175, 1.46123, 1.46403, 1.45741, 1.45211, 1.45824, 1.44367, 1.45163, 1.45624, 1.44403, 1.43688, 1.44059, 1.43408, 1.44063, 1.42373, 1.42344, 1.42967, 1.42327, 1.41055, 1.41632, 1.40036, 1.40407, 1.39912, 1.39827, 1.39634, 1.39508, 1.3911, 1.3876, 1.40227, 1.38239, 1.38481, 1.38227, 1.38273, 1.38006, 1.37843, 1.37598, 1.37585, 1.37635, 1.37359, 1.37477, 1.37217, 1.37823, 1.3699, 1.36696, 1.36581, 1.36798, 1.36555, 1.36165, 1.36362, 1.36057, 1.36073, 1.35864, 1.35882, 1.35615, 1.35576, 1.35464, 1.35308, 1.35094, 1.34841, 1.34754, 1.34917, 1.34931, 1.34921, 1.34987, 1.35266, 1.34957, 1.34366, 1.34292, 1.34041, 1.33878, 1.33687, 1.34563, 1.33276, 1.33044, 1.32788, 1.32663, 1.32583, 1.32465, 1.32416, 1.32311, 1.32212, 1.32383, 1.32333, 1.3212, 1.31975, 1.32065, 1.31629, 1.31774, 1.31522, 1.3091, 1.30873, 1.30821, 1.31012, 1.31157, 1.31582, 1.32391, 1.30954, 1.30584, 1.30851, 1.28862, 1.41144, 1.43391, 1.47548, 1.62678, 1.69694, 1.98574, 1.97751, 1.60655, 1.53307, 1.47272, 1.43545, 1.43422, 1.41275, 1.37415, 1.32961, 1.28796, 1.28814, 1.29558, 1.2843, 1.2883, 1.28488, 1.28429, 1.28183, 1.28325, 1.28147, 1.2817, 1.28266, 1.27647, 1.27575, 1.27389, 1.2714, 
1.59941, 1.59806, 1.5962, 1.59563, 1.59605, 1.59396, 1.59218, 1.59107, 1.58934, 1.58923, 1.58416, 1.58318, 1.57977, 1.57848, 1.57768, 1.57635, 1.57443, 1.58459, 1.58098, 1.56816, 1.57798, 1.56803, 1.56658, 1.56811, 1.56115, 1.56781, 1.57262, 1.55871, 1.53366, 1.55798, 1.6068, 1.64406, 1.66673, 1.69962, 1.69588, 1.77166, 1.73971, 1.77899, 1.60371, 1.52658, 1.53756, 1.53939, 1.52832, 1.52766, 1.52153, 1.5202, 1.51769, 1.5178, 1.5277, 1.51454, 1.52936, 1.51562, 1.53758, 1.51297, 1.51231, 1.5091, 1.50687, 1.50641, 1.50466, 1.50224, 1.49998, 1.4993, 1.49889, 1.49508, 1.494, 1.49155, 1.4885, 1.48609, 1.48414, 1.48567, 1.4854, 1.47993, 1.47667, 1.48572, 1.4726, 1.47147, 1.47193, 1.47372, 1.47069, 1.46988, 1.468, 1.46564, 1.46379, 1.46216, 1.46831, 1.47221, 1.46072, 1.46055, 1.45763, 1.4565, 1.47083, 1.45231, 1.46195, 1.44725, 1.45053, 1.44543, 1.44209, 1.44168, 1.44705, 1.44165, 1.4469, 1.44197, 1.44869, 1.44722, 1.44541, 1.45052, 1.45885, 1.44792, 1.45415, 1.47123, 1.45895, 1.46537, 1.45418, 1.45762, 1.45684, 1.43706, 1.44158, 1.43484, 1.43953, 1.43324, 1.44629, 1.4269, 1.42425, 1.42109, 1.41779, 1.4161, 1.40578, 1.40884, 1.39557, 1.39161, 1.38704, 1.38825, 1.38156, 1.3888, 1.37989, 1.38106, 1.38057, 1.3812, 1.37882, 1.37898, 1.41961, 1.38168, 1.3894, 1.39422, 1.37214, 1.37129, 1.37141, 1.37068, 1.37468, 1.36983, 1.37075, 1.36727, 1.36577, 1.41336, 1.36326, 1.36068, 1.35924, 1.3584, 1.35781, 1.3614, 1.353, 1.35075, 1.34492, 1.34155, 1.33691, 1.3384, 1.33776, 1.33818, 1.33719, 1.33796, 1.3409, 1.33876, 1.33804, 1.33927, 1.33715, 1.33665, 1.33609, 1.33402, 1.33384, 1.33334, 1.33156, 1.33092, 1.33008, 1.33204, 1.32842, 1.32843, 1.32826, 1.32961, 1.32384, 1.32281, 1.3238, 1.32247, 1.32132, 1.32243, 1.31934, 1.31935, 1.31484, 1.31299, 1.31529, 1.32867, 1.30954, 1.3159, 1.30606, 1.31072, 1.31015, 1.30692, 1.30648, 1.29798, 1.28218, 1.29551, 1.37541, 1.4212, 1.53405, 1.57877, 1.61002, 1.54979, 1.4877, 1.4068, 1.29162, 1.25925, 1.29891, 1.28856, 1.29253, 1.28787, 1.28632, 1.28875, 1.28899, 1.28434, 1.28635, 1.28267, 1.28137, 1.29589, 1.27465, 1.27293, 1.2716, 1.27057, 1.27759, 1.26245, 1.26772, 1.26428, 
1.59426, 1.5941, 1.59203, 1.58994, 1.58494, 1.58506, 1.58004, 1.57964, 1.57517, 1.5716, 1.56474, 1.55665, 1.56043, 1.54985, 1.55025, 1.58131, 1.56133, 1.55325, 1.56245, 1.54466, 1.54239, 1.543, 1.54206, 1.54116, 1.53893, 1.53891, 1.54708, 1.54583, 1.54683, 1.5091, 1.57101, 1.60726, 1.68942, 1.83161, 1.75477, 1.76778, 1.66038, 1.62644, 1.50299, 1.48253, 1.52263, 1.51206, 1.50593, 1.51541, 1.5192, 1.51555, 1.52349, 1.51521, 1.51409, 1.5124, 1.51145, 1.51924, 1.50882, 1.50577, 1.50588, 1.49711, 1.4914, 1.4878, 1.47681, 1.47795, 1.47441, 1.47473, 1.47326, 1.47122, 1.46902, 1.46901, 1.47393, 1.46711, 1.46519, 1.46226, 1.45885, 1.45725, 1.45517, 1.45291, 1.45084, 1.44866, 1.44729, 1.44432, 1.44409, 1.44319, 1.44192, 1.43868, 1.43712, 1.43383, 1.43259, 1.43303, 1.43237, 1.43374, 1.43682, 1.43694, 1.43712, 1.43662, 1.44012, 1.4293, 1.42569, 1.43025, 1.42202, 1.42359, 1.41972, 1.42074, 1.42034, 1.42685, 1.42545, 1.43668, 1.45646, 1.42701, 1.43746, 1.43804, 1.46332, 1.4561, 1.47181, 1.43797, 1.43476, 1.44771, 1.43622, 1.419, 1.43134, 1.42973, 1.42375, 1.43063, 1.42775, 1.41279, 1.41531, 1.39982, 1.41659, 1.41566, 1.41669, 1.40986, 1.39708, 1.39429, 1.38852, 1.3854, 1.38196, 1.37627, 1.37371, 1.36863, 1.36093, 1.35861, 1.35578, 1.35595, 1.3567, 1.35587, 1.35399, 1.35317, 1.38151, 1.35247, 1.35082, 1.35204, 1.3501, 1.34742, 1.34465, 1.34568, 1.3442, 1.34272, 1.34261, 1.33944, 1.33502, 1.33478, 1.33347, 1.3318, 1.32924, 1.32777, 1.32715, 1.32665, 1.32294, 1.32039, 1.32084, 1.31857, 1.31633, 1.31542, 1.31351, 1.31408, 1.3152, 1.31103, 1.31118, 1.31552, 1.31021, 1.30916, 1.31205, 1.31209, 1.30918, 1.3086, 1.30494, 1.3051, 1.30508, 1.30507, 1.30303, 1.2999, 1.29918, 1.29855, 1.29429, 1.29579, 1.29454, 1.29555, 1.29292, 1.29183, 1.29175, 1.29158, 1.29728, 1.29664, 1.28283, 1.28207, 1.28262, 1.2846, 1.30115, 1.28475, 1.31297, 1.3017, 1.31242, 1.27207, 1.35407, 1.39718, 1.5115, 1.61494, 1.81671, 1.7976, 1.8007, 1.37796, 1.35775, 1.34045, 1.27539, 1.26803, 1.27368, 1.27443, 1.25526, 1.25246, 1.252, 1.2513, 1.24894, 1.24834, 1.24463, 1.247, 1.26714, 1.25786, 1.25767, 1.25346, 1.25533, 1.25924, 1.25986, 1.25797, 
