1.65179, 1.67147, 1.64711, 1.62988, 1.63454, 1.62001, 1.61864, 1.62236, 1.61117, 1.661, 1.69259, 1.74465, 1.73312, 1.66247, 1.58795, 1.58955, 1.57547, 1.56296, 1.57438, 1.56036, 1.56593, 1.5445, 1.53878, 1.53862, 1.53119, 1.5263, 1.52323, 1.5196, 1.5206, 1.50659, 1.50424, 1.50217, 1.49989, 1.49729, 1.49573, 1.49049, 1.48929, 1.49436, 1.45547, 1.50334, 1.68047, 1.72314, 1.64018, 1.54692, 1.46184, 1.4689, 1.45064, 1.44439, 1.44343, 1.42979, 1.42453, 1.42273, 1.41735, 1.41367, 1.41007, 1.40648, 1.40299, 1.40275, 1.40203, 1.39716, 1.39501, 1.38718, 1.37929, 1.37629, 1.36997, 1.36539, 1.3598, 1.35934, 1.35955, 1.35538, 1.35341, 1.35314, 1.35199, 1.35468, 1.35828, 1.35475, 1.37701, 1.38848, 1.41654, 1.41639, 1.4245, 1.34142, 1.3258, 1.3259, 1.32041, 1.32432, 1.31514, 1.30594, 1.30545, 1.31163
1.65455, 1.6491, 1.63804, 1.63979, 1.62669, 1.62304, 1.62129, 1.62614, 1.59965, 1.6598, 1.71489, 1.73453, 1.71807, 1.66961, 1.58054, 1.58893, 1.57456, 1.5662, 1.55868, 1.55937, 1.57591, 1.56134, 1.54123, 1.54132, 1.53389, 1.52764, 1.52316, 1.51952, 1.51452, 1.50873, 1.50802, 1.50176, 1.50191, 1.50167, 1.49536, 1.50377, 1.48208, 1.49093, 1.47536, 1.53036, 1.6758, 1.71553, 1.69315, 1.54735, 1.45405, 1.48956, 1.45418, 1.43927, 1.4368, 1.43243, 1.4257, 1.42361, 1.41914, 1.41534, 1.41585, 1.40994, 1.40387, 1.40247, 1.40174, 1.39971, 1.39622, 1.38898, 1.38225, 1.37442, 1.37071, 1.37001, 1.36319, 1.35948, 1.36075, 1.35627, 1.35401, 1.35237, 1.36195, 1.35226, 1.3556, 1.36036, 1.37162, 1.38571, 1.39648, 1.40105, 1.42291, 1.34193, 1.33209, 1.33589, 1.3201, 1.31421, 1.30897, 1.30636, 1.30733, 1.33461
1.64721, 1.65464, 1.64834, 1.63497, 1.62817, 1.62235, 1.62481, 1.61948, 1.63151, 1.67349, 1.68325, 1.73754, 1.74494, 1.6367, 1.58133, 1.58467, 1.57207, 1.57886, 1.55783, 1.55633, 1.57469, 1.55916, 1.54474, 1.54244, 1.53667, 1.52853, 1.52434, 1.52087, 1.51633, 1.51038, 1.50552, 1.50233, 1.50274, 1.4998, 1.49498, 1.49241, 1.48286, 1.49192, 1.46908, 1.53263, 1.61385, 1.71622, 1.64831, 1.47256, 1.45477, 1.45849, 1.45437, 1.43997, 1.43731, 1.43264, 1.42783, 1.42498, 1.42136, 1.41878, 1.41457, 1.40913, 1.40624, 1.40594, 1.40283, 1.39915, 1.39842, 1.39205, 1.38605, 1.38113, 1.37257, 1.37068, 1.36452, 1.36225, 1.3603, 1.35735, 1.35666, 1.35427, 1.35252, 1.35257, 1.35692, 1.34622, 1.38283, 1.3884, 1.40068, 1.42561, 1.37981, 1.30964, 1.33416, 1.32855, 1.32172, 1.31608, 1.31078, 1.30736, 1.30735, 1.30998
1.66143, 1.66633, 1.6479, 1.63434, 1.6283, 1.63028, 1.62355, 1.63663, 1.63855, 1.70988, 1.68238, 1.73783, 1.7382, 1.58732, 1.59352, 1.58475, 1.57544, 1.56776, 1.56511, 1.56126, 1.56164, 1.56757, 1.54571, 1.54525, 1.5343, 1.53413, 1.52501, 1.52235, 1.5156, 1.50958, 1.5045, 1.50344, 1.50272, 1.49678, 1.49463, 1.49552, 1.4862, 1.4836, 1.47088, 1.51708, 1.62817, 1.71454, 1.68365, 1.48949, 1.43663, 1.45793, 1.44671, 1.44819, 1.43545, 1.43107, 1.42801, 1.42565, 1.42309, 1.4198, 1.41792, 1.40889, 1.40839, 1.40569, 1.4058, 1.40135, 1.40012, 1.39371, 1.38823, 1.38135, 1.37304, 1.37146, 1.36771, 1.36461, 1.36126, 1.35774, 1.35652, 1.35504, 1.35385, 1.35562, 1.3669, 1.36206, 1.37139, 1.38998, 1.40699, 1.42339, 1.39752, 1.34197, 1.3439, 1.33156, 1.32701, 1.32031, 1.33054, 1.3091, 1.31263, 1.31596
1.64706, 1.65755, 1.64286, 1.63732, 1.64439, 1.63402, 1.63008, 1.62425, 1.62639, 1.66455, 1.66802, 1.74666, 1.74554, 1.60345, 1.6035, 1.59546, 1.58143, 1.57065, 1.56503, 1.55521, 1.57094, 1.55546, 1.54839, 1.54505, 1.53663, 1.53407, 1.52586, 1.52196, 1.51609, 1.50935, 1.50659, 1.51316, 1.50293, 1.49757, 1.49592, 1.48886, 1.48626, 1.49876, 1.45836, 1.49385, 1.63456, 1.73442, 1.74105, 1.45755, 1.43787, 1.46973, 1.44524, 1.44746, 1.43341, 1.43163, 1.42773, 1.4263, 1.42447, 1.42069, 1.41711, 1.41052, 1.40674, 1.40307, 1.40334, 1.40292, 1.40055, 1.39542, 1.39496, 1.37647, 1.37465, 1.37348, 1.37074, 1.36499, 1.36127, 1.35935, 1.35916, 1.35786, 1.35293, 1.36026, 1.36355, 1.36448, 1.38807, 1.39226, 1.39916, 1.39992, 1.40398, 1.34745, 1.33435, 1.33255, 1.32409, 1.3177, 1.31446, 1.30901, 1.30817, 1.31626
1.65113, 1.6526, 1.65492, 1.63406, 1.63136, 1.63026, 1.62636, 1.63223, 1.59912, 1.66426, 1.67283, 1.74755, 1.74212, 1.6226, 1.59667, 1.59058, 1.57347, 1.56808, 1.56098, 1.55877, 1.56305, 1.559, 1.54883, 1.54974, 1.54005, 1.53066, 1.52798, 1.52299, 1.51682, 1.51172, 1.50667, 1.50612, 1.50127, 1.49865, 1.49365, 1.50253, 1.49725, 1.48652, 1.46262, 1.49656, 1.64338, 1.72802, 1.72478, 1.45801, 1.45328, 1.45556, 1.46344, 1.44843, 1.43577, 1.43015, 1.4295, 1.42714, 1.42334, 1.42141, 1.4166, 1.41146, 1.40687, 1.40428, 1.40503, 1.40174, 1.4021, 1.39843, 1.39033, 1.38287, 1.37522, 1.37293, 1.37393, 1.3649, 1.36425, 1.36424, 1.36432, 1.35797, 1.35432, 1.35108, 1.35673, 1.35207, 1.37102, 1.39846, 1.40385, 1.4069, 1.40537, 1.33236, 1.33456, 1.33675, 1.33649, 1.31719, 1.33075, 1.3165, 1.31721, 1.3068
1.64811, 1.65411, 1.64519, 1.63787, 1.64475, 1.64336, 1.63385, 1.61725, 1.60338, 1.68119, 1.71812, 1.75158, 1.69897, 1.60019, 1.57072, 1.59213, 1.586, 1.56812, 1.56901, 1.56367, 1.56669, 1.56853, 1.5547, 1.55077, 1.53828, 1.53157, 1.53055, 1.5247, 1.51915, 1.51229, 1.50751, 1.50383, 1.50065, 1.49594, 1.49493, 1.49051, 1.50205, 1.48925, 1.45365, 1.53417, 1.61289, 1.73122, 1.70368, 1.45381, 1.44206, 1.45744, 1.45772, 1.45085, 1.43776, 1.43156, 1.42935, 1.42719, 1.42237, 1.4201, 1.41681, 1.4118, 1.40611, 1.40299, 1.40312, 1.40295, 1.40151, 1.39599, 1.39156, 1.38475, 1.37847, 1.37455, 1.37132, 1.36682, 1.36359, 1.36423, 1.36151, 1.35702, 1.36122, 1.35968, 1.36415, 1.35979, 1.36781, 1.3961, 1.44067, 1.40685, 1.39917, 1.34852, 1.337, 1.33957, 1.32279, 1.31857, 1.31455, 1.30692, 1.30708, 1.30548
1.65223, 1.64313, 1.66548, 1.64091, 1.64073, 1.63292, 1.63294, 1.62759, 1.60017, 1.6997, 1.67884, 1.82647, 1.78004, 1.7114, 1.58835, 1.60005, 1.57312, 1.56523, 1.5612, 1.55465, 1.5555, 1.56599, 1.55603, 1.54501, 1.53992, 1.5479, 1.52997, 1.52374, 1.52057, 1.51257, 1.50741, 1.50324, 1.50011, 1.49825, 1.49823, 1.49338, 1.48575, 1.48544, 1.47226, 1.55327, 1.66293, 1.70747, 1.69712, 1.579, 1.4316, 1.4537, 1.4467, 1.44346, 1.43766, 1.43109, 1.42878, 1.42906, 1.42303, 1.41985, 1.41778, 1.41477, 1.40555, 1.402, 1.40182, 1.40246, 1.40156, 1.39849, 1.38991, 1.38685, 1.38029, 1.37829, 1.37156, 1.36835, 1.36563, 1.36556, 1.36161, 1.358, 1.35374, 1.35748, 1.35594, 1.35378, 1.36598, 1.38185, 1.40705, 1.41597, 1.39534, 1.34683, 1.33631, 1.33606, 1.32062, 1.31902, 1.31383, 1.31014, 1.30728, 1.3026
1.64824, 1.6518, 1.66, 1.64501, 1.63668, 1.63135, 1.62649, 1.62107, 1.61078, 1.67518, 1.69502, 1.7653, 1.75763, 1.67128, 1.57628, 1.58632, 1.57409, 1.56521, 1.56248, 1.55489, 1.56204, 1.56814, 1.54912, 1.55161, 1.53915, 1.53455, 1.53014, 1.52528, 1.52151, 1.513, 1.50661, 1.5044, 1.49994, 1.52003, 1.49691, 1.49153, 1.48671, 1.48437, 1.48477, 1.48533, 1.59708, 1.72004, 1.64573, 1.48872, 1.45062, 1.45836, 1.44657, 1.45233, 1.43683, 1.4319, 1.42922, 1.42815, 1.42312, 1.42109, 1.41754, 1.4135, 1.40637, 1.40169, 1.40185, 1.40238, 1.40428, 1.39956, 1.39258, 1.38784, 1.38141, 1.37772, 1.37196, 1.37038, 1.36662, 1.36477, 1.36465, 1.35933, 1.36082, 1.35222, 1.35391, 1.35029, 1.36687, 1.37936, 1.40154, 1.41455, 1.40272, 1.35723, 1.33728, 1.33073, 1.32975, 1.31909, 1.3169, 1.32565, 1.30654, 1.30974
1.6527, 1.66035, 1.66997, 1.66567, 1.64214, 1.63114, 1.63436, 1.63445, 1.61075, 1.68884, 1.69363, 1.76212, 1.76773, 1.68547, 1.60188, 1.58873, 1.57657, 1.57256, 1.57509, 1.55432, 1.5536, 1.57462, 1.54996, 1.56045, 1.54238, 1.53429, 1.53224, 1.52901, 1.52051, 1.51054, 1.50926, 1.50548, 1.50141, 1.499, 1.50077, 1.49143, 1.48528, 1.48505, 1.46821, 1.53574, 1.64884, 1.71823, 1.68303, 1.57241, 1.46116, 1.4591, 1.44969, 1.45427, 1.44363, 1.43264, 1.4296, 1.42823, 1.42201, 1.42023, 1.41626, 1.4129, 1.40688, 1.40211, 1.40211, 1.40264, 1.40294, 1.39998, 1.39294, 1.38653, 1.38385, 1.38079, 1.37355, 1.37061, 1.36882, 1.36744, 1.36441, 1.35951, 1.35366, 1.35353, 1.36389, 1.35842, 1.37444, 1.39078, 1.39706, 1.41759, 1.42395, 1.33601, 1.3516, 1.33385, 1.32371, 1.32041, 1.31392, 1.31319, 1.30652, 1.3038
1.65182, 1.64749, 1.67112, 1.66921, 1.63702, 1.64097, 1.62643, 1.6266, 1.63799, 1.66207, 1.74079, 1.75531, 1.73773, 1.67225, 1.59304, 1.59141, 1.58625, 1.56775, 1.56095, 1.55618, 1.55031, 1.56984, 1.56223, 1.54829, 1.53782, 1.5342, 1.53251, 1.52142, 1.51635, 1.51139, 1.5073, 1.50657, 1.50264, 1.50474, 1.49645, 1.48966, 1.48741, 1.48466, 1.47915, 1.51327, 1.6512, 1.70269, 1.61246, 1.459, 1.42936, 1.45455, 1.45451, 1.44119, 1.43323, 1.43095, 1.42881, 1.42725, 1.42103, 1.41983, 1.41761, 1.41244, 1.40378, 1.40229, 1.40169, 1.40267, 1.40277, 1.39814, 1.39176, 1.38879, 1.3863, 1.38137, 1.37427, 1.37252, 1.37025, 1.36953, 1.36571, 1.35945, 1.35458, 1.35116, 1.36417, 1.3478, 1.37687, 1.38987, 1.41739, 1.42035, 1.41265, 1.36055, 1.33649, 1.34396, 1.3267, 1.32263, 1.31429, 1.31167, 1.30962, 1.30605
1.65382, 1.65124, 1.65814, 1.65549, 1.64127, 1.62764, 1.62673, 1.63173, 1.61615, 1.69345, 1.71708, 1.75127, 1.73469, 1.68002, 1.58159, 1.60342, 1.57449, 1.56737, 1.56258, 1.57682, 1.54903, 1.57363, 1.54597, 1.546, 1.54081, 1.53621, 1.53321, 1.52393, 1.51985, 1.51327, 1.50933, 1.50586, 1.50427, 1.49917, 1.49486, 1.50338, 1.486, 1.48499, 1.47317, 1.54083, 1.60593, 1.69061, 1.6423, 1.4505, 1.43639, 1.45764, 1.44774, 1.43865, 1.43734, 1.43059, 1.42745, 1.42602, 1.42196, 1.42072, 1.41448, 1.40965, 1.40554, 1.40226, 1.40135, 1.40183, 1.4024, 1.39805, 1.39581, 1.38934, 1.38598, 1.38138, 1.37399, 1.37107, 1.37204, 1.37126, 1.37008, 1.3663, 1.3716, 1.3534, 1.36085, 1.35193, 1.35864, 1.39526, 1.39933, 1.46549, 1.41627, 1.3716, 1.33204, 1.33958, 1.32286, 1.33086, 1.31381, 1.31011, 1.31616, 1.30334
1.65592, 1.65433, 1.65006, 1.67514, 1.63735, 1.62987, 1.62649, 1.62425, 1.61829, 1.65316, 1.71318, 1.75999, 1.73521, 1.68414, 1.57216, 1.59629, 1.57938, 1.56734, 1.56358, 1.55404, 1.54874, 1.55813, 1.54787, 1.54442, 1.53706, 1.53326, 1.53269, 1.52473, 1.51929, 1.51224, 1.51308, 1.50607, 1.50583, 1.49973, 1.49603, 1.489, 1.4879, 1.48607, 1.47613, 1.5105, 1.62891, 1.67731, 1.66487, 1.46831, 1.45454, 1.4686, 1.4481, 1.43909, 1.43363, 1.43157, 1.42687, 1.4242, 1.42436, 1.42056, 1.41295, 1.41014, 1.40521, 1.40348, 1.40127, 1.40144, 1.39893, 1.39741, 1.39237, 1.39303, 1.40178, 1.38096, 1.37636, 1.37269, 1.37456, 1.37195, 1.37431, 1.36421, 1.35606, 1.35469, 1.36454, 1.34986, 1.37579, 1.39608, 1.42739, 1.42445, 1.42004, 1.33615, 1.351, 1.32991, 1.32392, 1.31933, 1.31554, 1.31105, 1.30528, 1.30801
1.65663, 1.65443, 1.66627, 1.65787, 1.65478, 1.63731, 1.62821, 1.6236, 1.61046, 1.67406, 1.71222, 1.72147, 1.73246, 1.63948, 1.57451, 1.5896, 1.5781, 1.57191, 1.56435, 1.55871, 1.55018, 1.56581, 1.56529, 1.54926, 1.53732, 1.53438, 1.52962, 1.52415, 1.52042, 1.51279, 1.51117, 1.50723, 1.50289, 1.49918, 1.49559, 1.49464, 1.48375, 1.48375, 1.46983, 1.46933, 1.64304, 1.69099, 1.64511, 1.49319, 1.4185, 1.46911, 1.45708, 1.45904, 1.43682, 1.43098, 1.42763, 1.42301, 1.4216, 1.41913, 1.4144, 1.40854, 1.40554, 1.40836, 1.40149, 1.40123, 1.39991, 1.39881, 1.39377, 1.39163, 1.38638, 1.381, 1.37623, 1.37464, 1.37546, 1.37351, 1.37031, 1.36438, 1.35945, 1.35459, 1.35422, 1.35195, 1.38124, 1.39346, 1.41164, 1.42689, 1.41266, 1.3171, 1.35468, 1.33527, 1.33646, 1.32252, 1.31606, 1.31343, 1.31007, 1.30728
1.66828, 1.65626, 1.67246, 1.67615, 1.63779, 1.63699, 1.6316, 1.63767, 1.60003, 1.715, 1.71028, 1.78043, 1.78291, 1.6993, 1.57535, 1.59769, 1.58426, 1.57186, 1.57155, 1.55553, 1.54927, 1.54842, 1.5785, 1.54461, 1.54749, 1.53669, 1.53596, 1.52852, 1.52302, 1.51601, 1.51525, 1.50914, 1.50453, 1.5052, 1.49948, 1.49379, 1.49167, 1.48867, 1.48498, 1.54741, 1.64615, 1.70333, 1.69898, 1.47342, 1.42706, 1.45616, 1.44594, 1.44559, 1.44514, 1.43103, 1.4281, 1.42359, 1.42074, 1.41938, 1.41447, 1.41033, 1.40732, 1.4053, 1.40209, 1.40171, 1.39881, 1.3985, 1.39505, 1.39237, 1.38803, 1.38266, 1.37527, 1.37546, 1.37514, 1.37427, 1.37101, 1.36517, 1.36824, 1.35496, 1.35532, 1.36885, 1.39316, 1.43118, 1.40892, 1.44032, 1.41828, 1.32794, 1.34789, 1.34393, 1.32351, 1.32804, 1.3173, 1.31455, 1.32083, 1.31301
1.66727, 1.6755, 1.65895, 1.66756, 1.6437, 1.63576, 1.63268, 1.62702, 1.61943, 1.6897, 1.70995, 1.74392, 1.78261, 1.7374, 1.56949, 1.60216, 1.58563, 1.57371, 1.56826, 1.56525, 1.55333, 1.56529, 1.55753, 1.55063, 1.54246, 1.5374, 1.53374, 1.53088, 1.52506, 1.51797, 1.51598, 1.51198, 1.50626, 1.50194, 1.49803, 1.49113, 1.48834, 1.48689, 1.48445, 1.50321, 1.61348, 1.69594, 1.69203, 1.51801, 1.43771, 1.45721, 1.44481, 1.44222, 1.45006, 1.43019, 1.42706, 1.42424, 1.42269, 1.4226, 1.41598, 1.41932, 1.40977, 1.40337, 1.40206, 1.39956, 1.39639, 1.39543, 1.39438, 1.39355, 1.38837, 1.38425, 1.37531, 1.37631, 1.37547, 1.37438, 1.37215, 1.36782, 1.36782, 1.36554, 1.36743, 1.36946, 1.37222, 1.39486, 1.4071, 1.42617, 1.42728, 1.33992, 1.32981, 1.35777, 1.328, 1.32978, 1.3269, 1.31682, 1.31343, 1.31833
1.67546, 1.66016, 1.67092, 1.67203, 1.64237, 1.63822, 1.62846, 1.63544, 1.62161, 1.6922, 1.73338, 1.77583, 1.75264, 1.66148, 1.57622, 1.59402, 1.58488, 1.58316, 1.56829, 1.58253, 1.55167, 1.5583, 1.55928, 1.555, 1.55441, 1.54025, 1.53661, 1.52791, 1.52645, 1.52067, 1.51739, 1.51427, 1.50882, 1.50321, 1.49994, 1.49991, 1.48887, 1.49181, 1.47848, 1.48988, 1.6516, 1.69556, 1.69034, 1.47555, 1.43655, 1.45909, 1.46052, 1.44013, 1.44396, 1.43149, 1.42874, 1.42442, 1.42382, 1.43096, 1.41847, 1.41293, 1.41039, 1.40441, 1.40179, 1.40154, 1.399, 1.39741, 1.39357, 1.39213, 1.38896, 1.38023, 1.37607, 1.37715, 1.37595, 1.37513, 1.3722, 1.36743, 1.37342, 1.36673, 1.36025, 1.3443, 1.38084, 1.38989, 1.40535, 1.42728, 1.4155, 1.41607, 1.35482, 1.34431, 1.32562, 1.3445, 1.3197, 1.31681, 1.31902, 1.31357
1.66582, 1.65932, 1.66873, 1.6617, 1.65759, 1.63535, 1.62651, 1.6272, 1.63716, 1.68461, 1.73688, 1.75609, 1.76286, 1.70131, 1.59687, 1.60248, 1.58459, 1.58199, 1.56798, 1.57011, 1.56054, 1.54907, 1.55902, 1.56141, 1.54981, 1.54103, 1.53416, 1.53309, 1.52407, 1.52092, 1.51636, 1.5147, 1.50789, 1.50275, 1.49611, 1.51268, 1.48824, 1.48805, 1.48487, 1.52178, 1.64046, 1.69559, 1.68725, 1.53565, 1.43699, 1.46801, 1.44173, 1.4395, 1.43615, 1.43398, 1.42648, 1.4257, 1.42314, 1.42238, 1.41688, 1.41574, 1.40888, 1.40679, 1.40173, 1.39923, 1.39947, 1.3967, 1.39325, 1.39257, 1.38542, 1.38312, 1.37678, 1.37589, 1.37256, 1.37292, 1.37133, 1.37045, 1.36733, 1.36026, 1.37572, 1.37184, 1.35461, 1.39532, 1.40298, 1.45896, 1.41693, 1.38122, 1.33619, 1.34442, 1.32705, 1.32616, 1.3223, 1.3158, 1.31326, 1.31267
1.67657, 1.67133, 1.65576, 1.65548, 1.65374, 1.63721, 1.62624, 1.62468, 1.63834, 1.69976, 1.72185, 1.74765, 1.76408, 1.67183, 1.6242, 1.58972, 1.58888, 1.58139, 1.57009, 1.57794, 1.55414, 1.56177, 1.56595, 1.55816, 1.54089, 1.53811, 1.53561, 1.53127, 1.54529, 1.52188, 1.51788, 1.51373, 1.51262, 1.50331, 1.49675, 1.5133, 1.4918, 1.48818, 1.4869, 1.50554, 1.59966, 1.69895, 1.68715, 1.36252, 1.44159, 1.45775, 1.45833, 1.43931, 1.43519, 1.43357, 1.42899, 1.4235, 1.42506, 1.42244, 1.41756, 1.41257, 1.41042, 1.40593, 1.40158, 1.40055, 1.3988, 1.3974, 1.39273, 1.39222, 1.38725, 1.38059, 1.37895, 1.37496, 1.37415, 1.37195, 1.37128, 1.36913, 1.36685, 1.36179, 1.36734, 1.35449, 1.37138, 1.38282, 1.40549, 1.43662, 1.42835, 1.37272, 1.341, 1.33987, 1.32377, 1.32558, 1.31595, 1.31481, 1.31253, 1.33026
1.6644, 1.65993, 1.67921, 1.66834, 1.65516, 1.64047, 1.63422, 1.63349, 1.65775, 1.67946, 1.74967, 1.7937, 1.76017, 1.69604, 1.57111, 1.5991, 1.58219, 1.57514, 1.57895, 1.5754, 1.5589, 1.55804, 1.57856, 1.55468, 1.54656, 1.53841, 1.53522, 1.53156, 1.5267, 1.52145, 1.51735, 1.51772, 1.51029, 1.50215, 1.50025, 1.51068, 1.48907, 1.49465, 1.48464, 1.47493, 1.56831, 1.68677, 1.68772, 1.48339, 1.44061, 1.46332, 1.45012, 1.43921, 1.43751, 1.43399, 1.4279, 1.42442, 1.42374, 1.42325, 1.41962, 1.41371, 1.41096, 1.40569, 1.40269, 1.40094, 1.39966, 1.39866, 1.39744, 1.39506, 1.38726, 1.38161, 1.37882, 1.37715, 1.37606, 1.37159, 1.37149, 1.36841, 1.36727, 1.36317, 1.36116, 1.34864, 1.39922, 1.44815, 1.46216, 1.43663, 1.45804, 1.41425, 1.36116, 1.33842, 1.33069, 1.32143, 1.31575, 1.31628, 1.31173, 1.3192
1.66524, 1.65833, 1.66428, 1.66244, 1.64853, 1.63848, 1.62686, 1.63038, 1.60213, 1.72023, 1.71603, 1.74748, 1.72347, 1.68211, 1.58175, 1.60904, 1.59592, 1.58851, 1.57371, 1.57679, 1.55862, 1.55319, 1.56533, 1.54652, 1.54426, 1.53953, 1.53483, 1.5322, 1.52655, 1.52344, 1.52056, 1.51601, 1.5095, 1.50422, 1.49987, 1.49833, 1.49039, 1.48919, 1.49618, 1.53175, 1.59164, 1.67762, 1.67294, 1.5484, 1.43213, 1.45649, 1.44321, 1.44105, 1.43984, 1.43482, 1.43109, 1.42604, 1.425, 1.42258, 1.42258, 1.41349, 1.41099, 1.40626, 1.4037, 1.40143, 1.40208, 1.40079, 1.39791, 1.39336, 1.38624, 1.3844, 1.37875, 1.37893, 1.376, 1.37274, 1.37239, 1.36873, 1.37386, 1.36744, 1.37018, 1.35478, 1.36883, 1.40264, 1.43076, 1.461, 1.47397, 1.39224, 1.34845, 1.34628, 1.33113, 1.32338, 1.31628, 1.31559, 1.3145, 1.31244
1.66238, 1.65838, 1.66042, 1.66531, 1.66457, 1.63766, 1.62872, 1.63808, 1.59604, 1.69015, 1.70281, 1.74115, 1.74764, 1.65854, 1.56565, 1.59596, 1.60266, 1.58129, 1.57307, 1.56615, 1.56211, 1.55947, 1.56867, 1.54969, 1.5441, 1.54058, 1.5346, 1.53307, 1.52891, 1.5232, 1.52036, 1.51339, 1.50934, 1.51011, 1.49995, 1.49656, 1.49216, 1.49168, 1.45416, 1.53403, 1.63118, 1.69282, 1.68175, 1.56524, 1.4393, 1.45412, 1.45303, 1.44153, 1.44032, 1.43621, 1.43132, 1.42599, 1.4254, 1.42555, 1.42038, 1.41541, 1.41127, 1.40912, 1.40509, 1.40188, 1.39974, 1.40087, 1.3977, 1.39619, 1.38912, 1.38311, 1.3794, 1.37681, 1.37446, 1.3754, 1.37183, 1.36807, 1.36938, 1.36706, 1.36872, 1.3717, 1.37588, 1.40889, 1.44431, 1.45332, 1.48489, 1.42179, 1.35149, 1.34594, 1.32297, 1.31966, 1.31894, 1.31295, 1.3167, 1.30947
1.66284, 1.65931, 1.65378, 1.67028, 1.66597, 1.63564, 1.63039, 1.64032, 1.60662, 1.67684, 1.723, 1.72765, 1.72216, 1.66494, 1.58815, 1.59948, 1.58647, 1.58501, 1.57618, 1.58174, 1.56796, 1.56816, 1.56482, 1.56512, 1.54559, 1.54048, 1.53406, 1.53266, 1.52973, 1.52326, 1.52019, 1.51476, 1.50942, 1.50571, 1.50292, 1.50063, 1.49322, 1.49329, 1.48904, 1.52814, 1.62032, 1.69454, 1.7025, 1.56135, 1.43197, 1.45501, 1.45404, 1.4405, 1.44288, 1.43757, 1.43387, 1.42916, 1.42733, 1.42328, 1.41974, 1.41612, 1.41313, 1.40819, 1.40434, 1.40456, 1.40277, 1.40027, 1.39831, 1.39552, 1.38924, 1.38484, 1.38106, 1.37816, 1.37485, 1.37558, 1.37247, 1.36864, 1.3684, 1.36739, 1.36776, 1.35528, 1.37151, 1.42312, 1.4403, 1.45116, 1.45787, 1.41188, 1.35052, 1.36058, 1.32737, 1.3226, 1.31546, 1.31342, 1.3195, 1.30861
1.66133, 1.65508, 1.65694, 1.65732, 1.64832, 1.64735, 1.63715, 1.62922, 1.61411, 1.67168, 1.71448, 1.73184, 1.7925, 1.70673, 1.58427, 1.59637, 1.58811, 1.58477, 1.57898, 1.57217, 1.56313, 1.56621, 1.56691, 1.5566, 1.5438, 1.53862, 1.53426, 1.53391, 1.53058, 1.52484, 1.52013, 1.51437, 1.50967, 1.50827, 1.50095, 1.49876, 1.49576, 1.49673, 1.49925, 1.47253, 1.54396, 1.70064, 1.69003, 1.51295, 1.44027, 1.46958, 1.46229, 1.4649, 1.44267, 1.4386, 1.4337, 1.43104, 1.42906, 1.42562, 1.42536, 1.41815, 1.41432, 1.4094, 1.40595, 1.40666, 1.40351, 1.39907, 1.39905, 1.39616, 1.38888, 1.38505, 1.38122, 1.38121, 1.37519, 1.37449, 1.37278, 1.36821, 1.36847, 1.36751, 1.36821, 1.37053, 1.3736, 1.39977, 1.4513, 1.46029, 1.4548, 1.3538, 1.35491, 1.34966, 1.32879, 1.31982, 1.32268, 1.31457, 1.31481, 1.31002
1.66135, 1.66504, 1.65199, 1.66273, 1.66944, 1.64546, 1.63676, 1.6346, 1.62581, 1.66682, 1.73035, 1.75767, 1.77467, 1.69751, 1.61327, 1.60294, 1.59076, 1.58832, 1.58017, 1.57367, 1.56749, 1.56423, 1.57593, 1.56546, 1.54789, 1.54178, 1.53538, 1.53297, 1.53301, 1.52501, 1.53672, 1.51701, 1.51301, 1.50833, 1.50075, 1.49717, 1.49709, 1.49584, 1.48954, 1.53623, 1.64066, 1.70693, 1.69408, 1.52597, 1.43761, 1.47247, 1.48686, 1.44751, 1.44229, 1.43986, 1.43724, 1.43113, 1.4295, 1.43033, 1.42618, 1.42164, 1.41555, 1.41354, 1.41004, 1.40927, 1.4051, 1.40276, 1.39917, 1.39666, 1.38989, 1.38661, 1.38262, 1.37971, 1.37849, 1.37615, 1.3758, 1.37088, 1.37013, 1.36838, 1.3688, 1.3816, 1.38216, 1.4077, 1.45052, 1.44761, 1.44551, 1.40557, 1.33051, 1.35825, 1.33733, 1.32438, 1.31905, 1.31609, 1.31533, 1.31248
1.66158, 1.65466, 1.65085, 1.65524, 1.6745, 1.64734, 1.64426, 1.63369, 1.62363, 1.65076, 1.61056, 1.76509, 1.77168, 1.7656, 1.57626, 1.59785, 1.60635, 1.58638, 1.58315, 1.57656, 1.56493, 1.57158, 1.57899, 1.5656, 1.55798, 1.5418, 1.53719, 1.53446, 1.53097, 1.52953, 1.52331, 1.51922, 1.52011, 1.50713, 1.51739, 1.50407, 1.49935, 1.49501, 1.49676, 1.5202, 1.61701, 1.71106, 1.70526, 1.55851, 1.44492, 1.45869, 1.45232, 1.44971, 1.44459, 1.44117, 1.43694, 1.43286, 1.43176, 1.42892, 1.42935, 1.42443, 1.41707, 1.41441, 1.41237, 1.40988, 1.40517, 1.40328, 1.39843, 1.39806, 1.39208, 1.3888, 1.38523, 1.38111, 1.38146, 1.37709, 1.37721, 1.38563, 1.37, 1.36795, 1.37444, 1.36714, 1.37423, 1.40603, 1.45835, 1.45137, 1.45532, 1.388, 1.35441, 1.34993, 1.33144, 1.32492, 1.3219, 1.31624, 1.31502, 1.31608
1.66508, 1.65919, 1.65684, 1.66532, 1.67976, 1.65479, 1.63898, 1.63827, 1.61314, 1.67335, 1.76512, 1.78893, 1.78593, 1.75168, 1.58874, 1.60636, 1.5982, 1.5861, 1.58209, 1.58898, 1.57459, 1.56316, 1.57265, 1.56234, 1.55281, 1.56195, 1.54097, 1.5361, 1.53466, 1.52723, 1.52381, 1.51955, 1.51337, 1.51031, 1.51264, 1.50228, 1.49927, 1.49723, 1.50693, 1.50386, 1.54958, 1.70245, 1.69374, 1.61529, 1.43787, 1.46408, 1.45429, 1.45156, 1.44627, 1.44192, 1.43735, 1.43653, 1.43125, 1.42903, 1.42751, 1.4248, 1.42069, 1.41508, 1.41317, 1.4119, 1.40758, 1.40543, 1.39837, 1.39682, 1.39222, 1.38824, 1.38823, 1.38347, 1.38831, 1.37803, 1.37758, 1.37579, 1.3719, 1.36753, 1.37821, 1.37458, 1.37832, 1.40335, 1.43417, 1.45484, 1.44911, 1.35991, 1.35458, 1.3557, 1.34005, 1.33771, 1.32619, 1.32312, 1.31663, 1.31457
1.65902, 1.66278, 1.65647, 1.65253, 1.66179, 1.66285, 1.64167, 1.65094, 1.62639, 1.73738, 1.73567, 1.74524, 1.79721, 1.70723, 1.5808, 1.61228, 1.60752, 1.58728, 1.58507, 1.58488, 1.57189, 1.56576, 1.56898, 1.58293, 1.55406, 1.54727, 1.5436, 1.53502, 1.53024, 1.52716, 1.52465, 1.51741, 1.51651, 1.53775, 1.50652, 1.50192, 1.50196, 1.49749, 1.49769, 1.46891, 1.54814, 1.68123, 1.6853, 1.57584, 1.42789, 1.47905, 1.47452, 1.45224, 1.4475, 1.44121, 1.43823, 1.43395, 1.43264, 1.43075, 1.42956, 1.42579, 1.42161, 1.41772, 1.41251, 1.41023, 1.40852, 1.40457, 1.40195, 1.39891, 1.39337, 1.38789, 1.38615, 1.38986, 1.3824, 1.37757, 1.37658, 1.37252, 1.37749, 1.36938, 1.37203, 1.3614, 1.38238, 1.40573, 1.43512, 1.45152, 1.44872, 1.38894, 1.35744, 1.35091, 1.33327, 1.33041, 1.32666, 1.3215, 1.31749, 1.3163
1.66264, 1.66685, 1.66072, 1.64928, 1.67113, 1.65085, 1.6572, 1.64517, 1.63576, 1.68013, 1.74493, 1.80009, 1.79208, 1.75515, 1.613, 1.60472, 1.59541, 1.6023, 1.59327, 1.57669, 1.57187, 1.576, 1.58106, 1.5713, 1.55778, 1.54833, 1.54443, 1.53597, 1.53149, 1.52626, 1.52345, 1.51665, 1.51192, 1.50811, 1.50396, 1.51256, 1.4991, 1.4973, 1.4948, 1.48628, 1.61326, 1.66764, 1.68594, 1.54365, 1.46819, 1.47817, 1.46517, 1.45568, 1.45374, 1.44332, 1.43971, 1.43593, 1.43175, 1.43005, 1.42976, 1.42541, 1.42125, 1.41712, 1.4138, 1.4118, 1.40679, 1.40693, 1.40191, 1.39708, 1.39346, 1.38941, 1.38665, 1.38215, 1.38118, 1.37427, 1.37591, 1.37474, 1.37062, 1.38292, 1.36875, 1.34935, 1.37724, 1.42457, 1.43127, 1.44719, 1.44826, 1.36287, 1.35834, 1.34653, 1.33498, 1.32985, 1.32669, 1.32379, 1.32167, 1.32372
1.66481, 1.66797, 1.65221, 1.65441, 1.67333, 1.65194, 1.65098, 1.64887, 1.63039, 1.72163, 1.7446, 1.78367, 1.78975, 1.75853, 1.59569, 1.60471, 1.60432, 1.58933, 1.5831, 1.58824, 1.57315, 1.57006, 1.58301, 1.56917, 1.55384, 1.55702, 1.53814, 1.5341, 1.53163, 1.52645, 1.52297, 1.51677, 1.51447, 1.5084, 1.5065, 1.50254, 1.50119, 1.5019, 1.50282, 1.45241, 1.54329, 1.6963, 1.70265, 1.64377, 1.45857, 1.47127, 1.46596, 1.45952, 1.44934, 1.44992, 1.44132, 1.43742, 1.43158, 1.43061, 1.42959, 1.42614, 1.42125, 1.41748, 1.4153, 1.41326, 1.40962, 1.40771, 1.40165, 1.39684, 1.39275, 1.38931, 1.3861, 1.38228, 1.38037, 1.37489, 1.37428, 1.36952, 1.36938, 1.36827, 1.37119, 1.36757, 1.37936, 1.40382, 1.43603, 1.43946, 1.44999, 1.39232, 1.3473, 1.34874, 1.33729, 1.32859, 1.32595, 1.32507, 1.32225, 1.31938
1.66872, 1.66089, 1.65601, 1.65269, 1.67847, 1.66818, 1.64733, 1.64704, 1.6362, 1.72468, 1.72067, 1.77007, 1.75366, 1.6607, 1.59996, 1.61617, 1.59685, 1.58565, 1.58916, 1.57881, 1.57929, 1.56974, 1.56747, 1.57905, 1.56787, 1.54869, 1.54021, 1.54184, 1.53201, 1.52632, 1.52319, 1.52039, 1.51463, 1.51028, 1.51378, 1.50268, 1.49871, 1.50011, 1.49291, 1.5146, 1.62593, 1.69557, 1.69537, 1.6484, 1.46519, 1.47197, 1.46826, 1.4575, 1.45363, 1.44551, 1.44035, 1.43753, 1.43246, 1.43007, 1.4297, 1.42645, 1.4233, 1.41962, 1.41628, 1.41439, 1.41214, 1.40856, 1.40145, 1.3968, 1.38968, 1.38845, 1.38533, 1.38249, 1.37826, 1.37582, 1.37204, 1.37075, 1.36906, 1.36585, 1.36741, 1.38458, 1.38308, 1.42814, 1.44299, 1.46167, 1.47793, 1.39512, 1.34393, 1.35926, 1.33575, 1.32901, 1.32641, 1.32362, 1.32343, 1.32234
1.66891, 1.66244, 1.65791, 1.66211, 1.66767, 1.66372, 1.65797, 1.65138, 1.62991, 1.70952, 1.68661, 1.76238, 1.75229, 1.71027, 1.61097, 1.60655, 1.60204, 1.58734, 1.58205, 1.57912, 1.57366, 1.57014, 1.56841, 1.58191, 1.56656, 1.54576, 1.54118, 1.54448, 1.53034, 1.52525, 1.52327, 1.51905, 1.51876, 1.51432, 1.50644, 1.50243, 1.49865, 1.50175, 1.49787, 1.47922, 1.54315, 1.70551, 1.70954, 1.52766, 1.45012, 1.47995, 1.47421, 1.46077, 1.45334, 1.44756, 1.44073, 1.43543, 1.43235, 1.43148, 1.42943, 1.42615, 1.42478, 1.42095, 1.41863, 1.41386, 1.4119, 1.40825, 1.40059, 1.40147, 1.39163, 1.38766, 1.38271, 1.38132, 1.37858, 1.37461, 1.37193, 1.372, 1.36856, 1.36755, 1.38096, 1.36115, 1.40696, 1.4574, 1.483, 1.45997, 1.43221, 1.39152, 1.33308, 1.35519, 1.33738, 1.3292, 1.32856, 1.32527, 1.32008, 1.31992
1.67105, 1.66434, 1.65948, 1.65616, 1.66306, 1.68339, 1.64914, 1.65026, 1.62253, 1.64828, 1.70776, 1.808, 1.78133, 1.73658, 1.58123, 1.60646, 1.60369, 1.58908, 1.58269, 1.57997, 1.57836, 1.57228, 1.5681, 1.58061, 1.56126, 1.55003, 1.54219, 1.53694, 1.5329, 1.52703, 1.52515, 1.52114, 1.51652, 1.51355, 1.51651, 1.50506, 1.50016, 1.50001, 1.49932, 1.5103, 1.64854, 1.70699, 1.70692, 1.62769, 1.45453, 1.47345, 1.46798, 1.46503, 1.45285, 1.44835, 1.44132, 1.43539, 1.43211, 1.42954, 1.43098, 1.4244, 1.4263, 1.42422, 1.41723, 1.41367, 1.41197, 1.4063, 1.40139, 1.39644, 1.3953, 1.38659, 1.38489, 1.38034, 1.37561, 1.37415, 1.37135, 1.37157, 1.36898, 1.36552, 1.3777, 1.39143, 1.3788, 1.42748, 1.45674, 1.4696, 1.46175, 1.45291, 1.35033, 1.35314, 1.33354, 1.32806, 1.32965, 1.33387, 1.32142, 1.32046
1.66909, 1.66564, 1.66132, 1.65799, 1.66602, 1.68945, 1.65047, 1.65139, 1.63753, 1.69326, 1.71439, 1.80235, 1.7561, 1.70244, 1.63325, 1.61035, 1.60356, 1.59222, 1.58504, 1.57988, 1.57568, 1.57255, 1.57304, 1.57956, 1.55755, 1.54916, 1.54198, 1.53586, 1.53229, 1.5285, 1.52733, 1.52105, 1.51724, 1.51325, 1.51643, 1.50634, 1.50334, 1.5001, 1.50212, 1.48814, 1.56483, 1.70284, 1.70263, 1.61105, 1.45834, 1.47558, 1.47123, 1.46371, 1.45535, 1.44713, 1.44336, 1.43787, 1.43197, 1.43137, 1.42917, 1.42611, 1.42495, 1.42106, 1.4187, 1.41429, 1.41246, 1.41107, 1.40646, 1.39411, 1.39275, 1.38481, 1.38398, 1.3793, 1.37515, 1.37328, 1.37114, 1.37121, 1.36728, 1.36539, 1.37846, 1.37713, 1.40442, 1.45776, 1.45425, 1.46442, 1.46398, 1.44046, 1.35787, 1.3448, 1.34435, 1.32881, 1.3269, 1.32645, 1.32144, 1.31853
1.67179, 1.66761, 1.66249, 1.65891, 1.67776, 1.67091, 1.65255, 1.64939, 1.64137, 1.69017, 1.7168, 1.7431, 1.7632, 1.7438, 1.60681, 1.61125, 1.61032, 1.58701, 1.58379, 1.58063, 1.57511, 1.57242, 1.58015, 1.57895, 1.57226, 1.55248, 1.54154, 1.53868, 1.53293, 1.5301, 1.52652, 1.5214, 1.51819, 1.51607, 1.5096, 1.50586, 1.50158, 1.5006, 1.50048, 1.50552, 1.59269, 1.56821, 1.69031, 1.56756, 1.45192, 1.48272, 1.48219, 1.481, 1.45438, 1.44865, 1.44399, 1.43878, 1.43427, 1.43068, 1.42903, 1.43037, 1.42152, 1.42077, 1.41862, 1.41652, 1.41394, 1.41338, 1.40083, 1.39666, 1.39177, 1.38564, 1.38323, 1.37949, 1.37575, 1.37464, 1.36899, 1.3697, 1.37558, 1.36535, 1.37241, 1.38182, 1.37922, 1.43483, 1.45211, 1.46626, 1.49875, 1.37088, 1.32936, 1.35296, 1.33318, 1.32825, 1.32401, 1.32609, 1.32193, 1.32991
1.6763, 1.67055, 1.66498, 1.66416, 1.66818, 1.67307, 1.64964, 1.65251, 1.64376, 1.6559, 1.73257, 1.68997, 1.77458, 1.71666, 1.6229, 1.61313, 1.60248, 1.589, 1.58158, 1.57864, 1.58048, 1.57309, 1.57179, 1.57197, 1.56657, 1.55221, 1.55414, 1.53852, 1.53337, 1.53072, 1.52829, 1.52292, 1.51935, 1.5159, 1.51007, 1.50779, 1.50235, 1.50146, 1.49971, 1.48274, 1.58953, 1.66773, 1.67805, 1.61002, 1.47139, 1.47636, 1.47445, 1.46816, 1.46163, 1.44935, 1.4487, 1.43971, 1.43671, 1.43207, 1.43029, 1.42941, 1.42604, 1.42304, 1.42092, 1.41822, 1.4121, 1.40904, 1.40263, 1.39886, 1.39225, 1.38754, 1.38497, 1.37945, 1.37689, 1.37505, 1.37342, 1.36761, 1.36907, 1.37536, 1.37488, 1.37876, 1.35904, 1.4721, 1.45085, 1.46514, 1.46478, 1.39518, 1.35033, 1.34711, 1.33375, 1.33304, 1.32951, 1.32549, 1.32362, 1.32415
1.67887, 1.66789, 1.66923, 1.65835, 1.67802, 1.67248, 1.65723, 1.65553, 1.63664, 1.68515, 1.68539, 1.76393, 1.76908, 1.68925, 1.60693, 1.60969, 1.60468, 1.58855, 1.6008, 1.57836, 1.57324, 1.57209, 1.56932, 1.56965, 1.56757, 1.56652, 1.54315, 1.5394, 1.53486, 1.53172, 1.53096, 1.52449, 1.52048, 1.51707, 1.51027, 1.50841, 1.50688, 1.50477, 1.50214, 1.53394, 1.63043, 1.67218, 1.67874, 1.62251, 1.46839, 1.4779, 1.47649, 1.4623, 1.46202, 1.45104, 1.4453, 1.44168, 1.43797, 1.43394, 1.43238, 1.42841, 1.42463, 1.42341, 1.42274, 1.41892, 1.41572, 1.40974, 1.40383, 1.40167, 1.3971, 1.39111, 1.38664, 1.3824, 1.37724, 1.37413, 1.37101, 1.36813, 1.37365, 1.36791, 1.3717, 1.37928, 1.37256, 1.44782, 1.45176, 1.50563, 1.45035, 1.41593, 1.34529, 1.36043, 1.33457, 1.33153, 1.32735, 1.33654, 1.32377, 1.32598
1.6746, 1.66892, 1.66524, 1.66838, 1.66132, 1.67911, 1.66091, 1.65408, 1.6283, 1.67518, 1.69872, 1.83701, 1.81027, 1.71334, 1.58598, 1.60288, 1.6108, 1.59542, 1.58303, 1.58017, 1.57832, 1.59516, 1.57682, 1.5821, 1.57671, 1.55116, 1.54549, 1.54194, 1.53657, 1.53418, 1.53092, 1.52448, 1.5198, 1.51751, 1.51194, 1.50914, 1.5018, 1.50707, 1.50356, 1.55165, 1.6169, 1.66965, 1.6802, 1.59825, 1.46405, 1.5025, 1.47555, 1.47415, 1.45871, 1.45258, 1.44549, 1.44111, 1.43643, 1.43482, 1.43342, 1.43028, 1.42681, 1.42349, 1.42345, 1.42002, 1.41418, 1.41152, 1.40623, 1.40186, 1.39765, 1.38991, 1.38494, 1.38414, 1.37904, 1.37527, 1.37225, 1.36906, 1.36932, 1.37193, 1.37947, 1.38187, 1.38467, 1.4382, 1.47506, 1.46317, 1.47187, 1.42942, 1.35152, 1.35003, 1.33928, 1.33704, 1.33021, 1.32719, 1.32385, 1.32627
1.67551, 1.67496, 1.66805, 1.66522, 1.66563, 1.66979, 1.65491, 1.65411, 1.63114, 1.67922, 1.74391, 1.77499, 1.79693, 1.73362, 1.59587, 1.61987, 1.59933, 1.58562, 1.58188, 1.57827, 1.57459, 1.57725, 1.57996, 1.57429, 1.57252, 1.57292, 1.54663, 1.54329, 1.54, 1.53322, 1.53048, 1.52473, 1.51959, 1.51669, 1.5264, 1.511, 1.50404, 1.52682, 1.50232, 1.5258, 1.63231, 1.66978, 1.70515, 1.65437, 1.45127, 1.48649, 1.48948, 1.46583, 1.45936, 1.45165, 1.44804, 1.44084, 1.43661, 1.43538, 1.43412, 1.43076, 1.42632, 1.42112, 1.42246, 1.41879, 1.41577, 1.41024, 1.40841, 1.4012, 1.39779, 1.39214, 1.38659, 1.38173, 1.38137, 1.37524, 1.37297, 1.37182, 1.37195, 1.37085, 1.3737, 1.36384, 1.39817, 1.44157, 1.47006, 1.46521, 1.51277, 1.43958, 1.32472, 1.35782, 1.33862, 1.33339, 1.33022, 1.32551, 1.32456, 1.33715
1.67327, 1.67444, 1.66582, 1.65882, 1.66328, 1.68191, 1.64498, 1.6617, 1.6404, 1.63374, 1.7134, 1.77942, 1.78521, 1.70702, 1.59205, 1.60992, 1.60991, 1.58528, 1.58207, 1.57805, 1.57628, 1.57206, 1.5658, 1.58543, 1.58678, 1.56309, 1.5676, 1.54205, 1.53964, 1.5346, 1.53204, 1.52961, 1.51997, 1.51788, 1.51634, 1.51339, 1.50622, 1.51031, 1.50387, 1.48406, 1.67891, 1.68318, 1.69531, 1.6343, 1.44394, 1.48232, 1.47844, 1.47416, 1.46086, 1.45532, 1.4532, 1.4435, 1.44002, 1.43521, 1.43526, 1.43175, 1.42822, 1.42323, 1.4211, 1.41914, 1.41664, 1.41568, 1.40763, 1.40441, 1.3978, 1.39261, 1.38788, 1.38355, 1.38014, 1.37706, 1.37536, 1.37123, 1.3716, 1.37379, 1.37813, 1.39532, 1.40624, 1.48936, 1.45611, 1.46494, 1.45843, 1.4123, 1.35818, 1.35375, 1.34749, 1.33525, 1.33154, 1.35233, 1.33248, 1.33994
1.67554, 1.67025, 1.66498, 1.67505, 1.65979, 1.69374, 1.65412, 1.65519, 1.64736, 1.64462, 1.78583, 1.76665, 1.82011, 1.77982, 1.58895, 1.61014, 1.6018, 1.59076, 1.59249, 1.58863, 1.57714, 1.57243, 1.58881, 1.5871, 1.60204, 1.55517, 1.55704, 1.54723, 1.53988, 1.53476, 1.53078, 1.52498, 1.52094, 1.5201, 1.51173, 1.50687, 1.50396, 1.51672, 1.50577, 1.47441, 1.58802, 1.57273, 1.69977, 1.61263, 1.47993, 1.47948, 1.49231, 1.476, 1.46439, 1.45516, 1.45317, 1.44524, 1.4431, 1.43681, 1.43579, 1.43645, 1.42727, 1.42601, 1.42273, 1.41905, 1.4155, 1.41224, 1.40858, 1.4033, 1.40062, 1.39673, 1.3904, 1.38714, 1.38332, 1.37795, 1.37801, 1.37431, 1.37338, 1.38187, 1.38191, 1.37542, 1.41173, 1.44474, 1.48126, 1.46781, 1.46123, 1.43774, 1.34099, 1.34819, 1.33846, 1.33426, 1.33397, 1.3265, 1.3265, 1.32804
1.67854, 1.66989, 1.66561, 1.66106, 1.66415, 1.66333, 1.65177, 1.65777, 1.63718, 1.64237, 1.73022, 1.80338, 1.81291, 1.71914, 1.58321, 1.61026, 1.60051, 1.58854, 1.58233, 1.58138, 1.57889, 1.57239, 1.59371, 1.60718, 1.59312, 1.56956, 1.55099, 1.54387, 1.54179, 1.53735, 1.53205, 1.52712, 1.52251, 1.51922, 1.5202, 1.5069, 1.51194, 1.50512, 1.51415, 1.48396, 1.57606, 1.6965, 1.706, 1.54196, 1.50724, 1.47084, 1.48717, 1.47108, 1.46447, 1.45711, 1.4545, 1.45072, 1.44576, 1.43698, 1.43499, 1.43207, 1.42774, 1.42459, 1.42221, 1.42322, 1.41645, 1.41211, 1.40766, 1.40388, 1.40044, 1.39621, 1.3898, 1.38582, 1.38305, 1.38146, 1.37781, 1.37547, 1.38384, 1.37497, 1.38034, 1.38638, 1.37227, 1.43713, 1.46313, 1.46973, 1.45816, 1.41373, 1.33247, 1.34453, 1.33778, 1.33434, 1.33439, 1.32737, 1.32619, 1.32565
1.67656, 1.67226, 1.66499, 1.66068, 1.6628, 1.68609, 1.66473, 1.66459, 1.6341, 1.64729, 1.74428, 1.79672, 1.80011, 1.7643, 1.59814, 1.60687, 1.60048, 1.59008, 1.58338, 1.5823, 1.57897, 1.57802, 1.57993, 1.60852, 1.59043, 1.55392, 1.55168, 1.54562, 1.54427, 1.53694, 1.53224, 1.52698, 1.52563, 1.53823, 1.51479, 1.50916, 1.50783, 1.50939, 1.51957, 1.51694, 1.573, 1.6758, 1.69048, 1.61858, 1.50578, 1.48521, 1.48336, 1.47621, 1.46599, 1.46087, 1.45741, 1.44835, 1.44053, 1.44027, 1.43772, 1.43556, 1.43074, 1.42515, 1.42333, 1.42126, 1.41664, 1.41011, 1.40749, 1.40454, 1.40092, 1.39611, 1.38941, 1.38824, 1.38641, 1.38216, 1.37967, 1.37601, 1.3768, 1.37904, 1.38144, 1.38168, 1.38439, 1.44721, 1.46452, 1.4931, 1.47272, 1.44308, 1.34177, 1.34054, 1.35059, 1.3342, 1.33113, 1.327, 1.33062, 1.32737
1.67845, 1.67359, 1.66607, 1.66099, 1.65831, 1.67951, 1.6727, 1.65492, 1.63054, 1.65755, 1.67721, 1.77046, 1.82266, 1.73904, 1.62067, 1.60801, 1.60465, 1.59065, 1.58459, 1.58219, 1.57895, 1.57551, 1.57068, 1.61438, 1.58127, 1.55422, 1.55118, 1.54545, 1.54263, 1.53815, 1.53471, 1.53012, 1.52522, 1.51999, 1.51551, 1.51059, 1.50886, 1.50888, 1.51927, 1.49225, 1.56854, 1.61008, 1.68126, 1.55245, 1.48225, 1.47748, 1.48164, 1.47373, 1.46684, 1.46231, 1.45641, 1.4523, 1.44205, 1.44195, 1.43962, 1.43681, 1.42979, 1.42671, 1.42314, 1.42199, 1.41682, 1.4121, 1.40926, 1.4047, 1.40285, 1.39864, 1.39031, 1.38922, 1.38534, 1.3878, 1.37838, 1.37765, 1.37815, 1.38027, 1.39178, 1.39159, 1.36106, 1.46121, 1.45816, 1.4693, 1.48133, 1.45709, 1.36146, 1.34084, 1.3363, 1.33638, 1.33429, 1.33196, 1.32887, 1.32853
1.6795, 1.67352, 1.66602, 1.66185, 1.65869, 1.70695, 1.68793, 1.65194, 1.62801, 1.62934, 1.78685, 1.78675, 1.82433, 1.79148, 1.59082, 1.60914, 1.60018, 1.5938, 1.58493, 1.58302, 1.5795, 1.57497, 1.57241, 1.61537, 1.57985, 1.55809, 1.55129, 1.54668, 1.55512, 1.54735, 1.53556, 1.53048, 1.52918, 1.521, 1.51746, 1.52464, 1.50969, 1.51288, 1.50973, 1.48671, 1.57311, 1.62681, 1.66615, 1.60572, 1.45931, 1.48206, 1.47469, 1.47502, 1.46827, 1.46411, 1.45859, 1.4513, 1.44513, 1.44296, 1.44135, 1.43606, 1.4312, 1.42845, 1.42587, 1.41966, 1.4179, 1.41469, 1.41232, 1.40899, 1.40203, 1.39683, 1.39458, 1.38885, 1.38672, 1.38303, 1.37798, 1.37827, 1.37872, 1.38137, 1.39615, 1.37979, 1.39608, 1.492, 1.47392, 1.46781, 1.46849, 1.41569, 1.33393, 1.35899, 1.33773, 1.33738, 1.33601, 1.33084, 1.33069, 1.32803
1.6803, 1.67242, 1.66729, 1.66128, 1.66741, 1.6839, 1.67016, 1.65313, 1.63246, 1.64782, 1.66491, 1.81637, 1.82968, 1.81315, 1.60353, 1.60767, 1.61071, 1.59571, 1.58945, 1.58936, 1.58532, 1.5767, 1.5734, 1.60049, 1.58803, 1.55609, 1.55608, 1.54812, 1.54435, 1.54052, 1.53911, 1.53257, 1.5718, 1.52122, 1.51934, 1.52763, 1.51983, 1.51657, 1.5164, 1.48188, 1.57662, 1.66869, 1.66469, 1.60565, 1.45634, 1.48227, 1.47656, 1.47289, 1.46658, 1.46404, 1.45888, 1.45547, 1.44812, 1.44502, 1.44266, 1.43835, 1.43363, 1.43087, 1.42655, 1.42111, 1.41742, 1.41575, 1.40954, 1.41227, 1.40176, 1.39921, 1.39287, 1.39085, 1.38657, 1.38491, 1.3821, 1.37957, 1.38085, 1.3808, 1.38222, 1.38325, 1.4024, 1.47814, 1.47082, 1.5052, 1.46555, 1.42557, 1.3465, 1.3442, 1.33897, 1.33899, 1.33829, 1.33183, 1.33168, 1.33144
1.681, 1.6735, 1.67235, 1.66094, 1.67419, 1.68198, 1.67818, 1.65979, 1.64789, 1.66832, 1.68297, 1.76109, 1.8426, 1.79617, 1.59215, 1.62253, 1.60581, 1.59796, 1.59054, 1.58657, 1.58131, 1.57696, 1.57658, 1.57033, 1.57228, 1.57453, 1.56839, 1.54904, 1.54769, 1.54421, 1.53834, 1.53445, 1.53023, 1.52675, 1.51927, 1.53293, 1.51618, 1.51335, 1.51075, 1.51672, 1.65777, 1.68638, 1.69575, 1.66193, 1.46102, 1.48572, 1.49239, 1.47862, 1.46783, 1.46257, 1.45837, 1.45267, 1.44891, 1.4476, 1.44341, 1.44013, 1.43676, 1.42989, 1.42483, 1.42233, 1.41984, 1.41633, 1.4135, 1.40708, 1.40303, 1.39708, 1.39557, 1.3897, 1.38797, 1.38577, 1.38334, 1.3819, 1.38183, 1.38113, 1.3875, 1.39713, 1.38618, 1.45043, 1.47454, 1.50989, 1.46956, 1.43973, 1.34015, 1.3479, 1.3432, 1.33733, 1.33806, 1.33461, 1.33131, 1.33181
1.6796, 1.67349, 1.66875, 1.66312, 1.67433, 1.67048, 1.66127, 1.65721, 1.64833, 1.66252, 1.72718, 1.82247, 1.84009, 1.73755, 1.59275, 1.61237, 1.60597, 1.60115, 1.59254, 1.59228, 1.58357, 1.5795, 1.58275, 1.57107, 1.58978, 1.57921, 1.56515, 1.54966, 1.54691, 1.54726, 1.53856, 1.53477, 1.52707, 1.5239, 1.51959, 1.51625, 1.51379, 1.52337, 1.51147, 1.50027, 1.58164, 1.66858, 1.69089, 1.56764, 1.45904, 1.4917, 1.4748, 1.47049, 1.47977, 1.46108, 1.45808, 1.45336, 1.4516, 1.44723, 1.44297, 1.43847, 1.43444, 1.43082, 1.42747, 1.42628, 1.42023, 1.41614, 1.41282, 1.4098, 1.40235, 1.39873, 1.39697, 1.39119, 1.38934, 1.38621, 1.38489, 1.38211, 1.38185, 1.38192, 1.39682, 1.38958, 1.42344, 1.45697, 1.46189, 1.48171, 1.48124, 1.42833, 1.35227, 1.35917, 1.34448, 1.33771, 1.34026, 1.33479, 1.33594, 1.33193
1.6812, 1.67133, 1.66672, 1.67931, 1.67187, 1.67268, 1.66865, 1.66542, 1.63969, 1.65008, 1.7755, 1.83651, 1.82395, 1.75249, 1.59135, 1.62325, 1.60417, 1.59851, 1.59056, 1.58623, 1.58254, 1.5782, 1.57588, 1.57195, 1.57915, 1.57139, 1.55263, 1.5491, 1.5454, 1.54177, 1.53992, 1.53381, 1.53374, 1.52406, 1.52084, 1.51647, 1.5227, 1.51183, 1.51584, 1.48278, 1.58082, 1.68649, 1.68753, 1.64725, 1.50217, 1.48433, 1.47779, 1.47791, 1.46507, 1.46446, 1.47542, 1.4524, 1.45014, 1.44706, 1.44682, 1.44044, 1.43579, 1.42977, 1.42704, 1.42581, 1.42038, 1.41765, 1.41675, 1.4126, 1.40302, 1.40131, 1.39583, 1.39473, 1.39071, 1.4131, 1.38538, 1.38414, 1.38434, 1.38471, 1.39199, 1.39307, 1.41726, 1.42023, 1.47111, 1.48162, 1.47855, 1.42122, 1.3367, 1.35707, 1.34449, 1.33946, 1.33845, 1.33819, 1.33561, 1.33575
1.67681, 1.67371, 1.66805, 1.66171, 1.66412, 1.668, 1.67662, 1.65794, 1.64113, 1.70138, 1.75515, 1.81799, 1.82484, 1.72824, 1.5898, 1.61289, 1.60247, 1.59849, 1.59869, 1.58614, 1.58258, 1.57919, 1.5755, 1.57254, 1.5803, 1.56729, 1.55127, 1.54806, 1.54504, 1.5439, 1.53688, 1.53433, 1.52645, 1.52487, 1.52149, 1.51433, 1.51716, 1.51206, 1.52429, 1.49246, 1.63682, 1.68312, 1.69057, 1.56495, 1.49264, 1.49186, 1.47935, 1.48211, 1.47574, 1.46075, 1.45545, 1.45026, 1.44907, 1.44518, 1.44306, 1.44059, 1.43686, 1.43119, 1.4319, 1.42501, 1.42102, 1.41917, 1.4169, 1.4097, 1.40587, 1.40131, 1.39688, 1.39516, 1.39028, 1.38793, 1.38557, 1.38211, 1.38235, 1.38239, 1.41247, 1.40198, 1.41389, 1.47765, 1.50146, 1.48747, 1.49025, 1.45494, 1.33634, 1.35138, 1.34701, 1.33827, 1.34095, 1.33621, 1.33531, 1.33564
1.67793, 1.67229, 1.67224, 1.66077, 1.657, 1.67479, 1.67643, 1.65842, 1.6093, 1.70247, 1.76177, 1.79997, 1.8144, 1.79328, 1.60399, 1.61537, 1.60325, 1.5977, 1.59089, 1.58622, 1.58488, 1.57535, 1.57505, 1.56885, 1.57533, 1.57719, 1.55239, 1.54854, 1.54684, 1.54196, 1.53941, 1.53114, 1.52461, 1.52296, 1.5194, 1.51391, 1.51223, 1.51025, 1.51335, 1.50342, 1.56484, 1.68032, 1.69345, 1.65223, 1.45125, 1.48378, 1.48547, 1.46865, 1.48218, 1.45873, 1.45465, 1.45156, 1.44689, 1.4451, 1.44286, 1.43927, 1.44029, 1.4334, 1.42933, 1.42487, 1.42196, 1.41991, 1.4165, 1.41199, 1.40727, 1.40104, 1.39612, 1.39442, 1.39208, 1.38854, 1.38566, 1.38137, 1.3815, 1.38069, 1.38683, 1.38583, 1.35961, 1.45427, 1.47127, 1.48251, 1.49346, 1.44628, 1.3363, 1.35543, 1.34191, 1.34115, 1.34128, 1.34008, 1.33643, 1.3334
1.67732, 1.67486, 1.66453, 1.66407, 1.65795, 1.6568, 1.67766, 1.64809, 1.62626, 1.70831, 1.75032, 1.80091, 1.80617, 1.68186, 1.59153, 1.61002, 1.60555, 1.59575, 1.5907, 1.58567, 1.58855, 1.57749, 1.57444, 1.57867, 1.57409, 1.58149, 1.55398, 1.54761, 1.54669, 1.54154, 1.53801, 1.53176, 1.52725, 1.52147, 1.52711, 1.51169, 1.50903, 1.50927, 1.51183, 1.51713, 1.59647, 1.66869, 1.68848, 1.42878, 1.43991, 1.47582, 1.47669, 1.47526, 1.46648, 1.45719, 1.45252, 1.45756, 1.44698, 1.44294, 1.43986, 1.43762, 1.43417, 1.43188, 1.42981, 1.4238, 1.42149, 1.42081, 1.41618, 1.41172, 1.456, 1.40338, 1.39959, 1.39634, 1.39209, 1.38847, 1.38772, 1.38475, 1.38167, 1.38134, 1.39923, 1.38967, 1.36713, 1.46305, 1.48153, 1.48221, 1.50631, 1.44336, 1.34323, 1.3654, 1.34334, 1.34099, 1.3424, 1.33946, 1.33783, 1.33362
1.67734, 1.67287, 1.66385, 1.67484, 1.65774, 1.66151, 1.68347, 1.66533, 1.63971, 1.6371, 1.76481, 1.81688, 1.81839, 1.7348, 1.59235, 1.60646, 1.61003, 1.59572, 1.59189, 1.58501, 1.582, 1.57645, 1.57447, 1.5673, 1.56588, 1.57809, 1.5543, 1.54801, 1.54534, 1.54202, 1.53896, 1.53072, 1.52663, 1.51939, 1.51307, 1.51132, 1.50836, 1.50895, 1.50974, 1.50692, 1.60053, 1.68214, 1.69206, 1.57231, 1.43836, 1.48737, 1.47136, 1.46777, 1.45867, 1.45623, 1.45137, 1.44704, 1.44611, 1.44171, 1.4419, 1.43568, 1.43351, 1.43132, 1.42734, 1.42588, 1.42309, 1.41756, 1.41546, 1.41701, 1.40953, 1.41958, 1.40164, 1.39637, 1.39037, 1.38903, 1.38541, 1.38433, 1.38207, 1.38328, 1.3855, 1.38461, 1.38227, 1.46877, 1.48347, 1.48468, 1.48585, 1.46117, 1.3583, 1.35315, 1.34543, 1.34592, 1.34338, 1.33704, 1.33586, 1.33259
1.67585, 1.6722, 1.66602, 1.65959, 1.65467, 1.66326, 1.68545, 1.65288, 1.62674, 1.71387, 1.72679, 1.81393, 1.82165, 1.78774, 1.59191, 1.61323, 1.60041, 1.596, 1.5908, 1.58572, 1.58064, 1.57598, 1.5723, 1.585, 1.57123, 1.59224, 1.56097, 1.54783, 1.54425, 1.54228, 1.53681, 1.53259, 1.5238, 1.51838, 1.51354, 1.50867, 1.50733, 1.51069, 1.5108, 1.49258, 1.63051, 1.65863, 1.68297, 1.66971, 1.50627, 1.49505, 1.48205, 1.46696, 1.45608, 1.46049, 1.44836, 1.4452, 1.44239, 1.44022, 1.43832, 1.43379, 1.43198, 1.43089, 1.42677, 1.42497, 1.42194, 1.4275, 1.41233, 1.41326, 1.40802, 1.40655, 1.41248, 1.39697, 1.39155, 1.38795, 1.38472, 1.38554, 1.38106, 1.38033, 1.38909, 1.3876, 1.39322, 1.44893, 1.45115, 1.49272, 1.48854, 1.47575, 1.33987, 1.36115, 1.34748, 1.34421, 1.34367, 1.34767, 1.33612, 1.33368
1.67547, 1.67829, 1.66606, 1.65907, 1.66072, 1.65827, 1.68075, 1.66205, 1.63516, 1.68665, 1.72936, 1.8194, 1.84124, 1.82777, 1.60109, 1.62606, 1.60825, 1.59248, 1.59513, 1.5841, 1.57856, 1.57604, 1.57441, 1.5667, 1.57217, 1.57625, 1.57235, 1.55328, 1.54478, 1.54082, 1.53377, 1.52747, 1.52367, 1.51568, 1.51226, 1.52702, 1.51993, 1.5173, 1.51308, 1.47714, 1.61692, 1.63743, 1.69933, 1.66164, 1.49159, 1.48588, 1.4678, 1.46974, 1.46588, 1.45202, 1.44786, 1.44555, 1.44191, 1.43888, 1.43664, 1.43409, 1.43004, 1.43253, 1.42714, 1.42408, 1.42146, 1.41962, 1.41462, 1.41927, 1.40782, 1.40619, 1.40153, 1.40413, 1.39185, 1.39105, 1.39543, 1.38549, 1.38867, 1.38545, 1.38614, 1.38198, 1.38948, 1.46481, 1.49382, 1.48471, 1.49391, 1.42689, 1.33087, 1.35118, 1.3459, 1.34445, 1.35031, 1.33692, 1.33766, 1.33153
1.67865, 1.67203, 1.67228, 1.66082, 1.66465, 1.65191, 1.68529, 1.6539, 1.6231, 1.65809, 1.78891, 1.81205, 1.84833, 1.79146, 1.6127, 1.61663, 1.61891, 1.5929, 1.59377, 1.58389, 1.58887, 1.57528, 1.59163, 1.57537, 1.57228, 1.58172, 1.55907, 1.55897, 1.54178, 1.53909, 1.53176, 1.52845, 1.52267, 1.52258, 1.51379, 1.50677, 1.50357, 1.51018, 1.50603, 1.48471, 1.62057, 1.69417, 1.69964, 1.60595, 1.52093, 1.4766, 1.46728, 1.47419, 1.45795, 1.45114, 1.44898, 1.44405, 1.44266, 1.43901, 1.43609, 1.43107, 1.43106, 1.4283, 1.43699, 1.42738, 1.42427, 1.41863, 1.41573, 1.41369, 1.41157, 1.40695, 1.40233, 1.3993, 1.3937, 1.38859, 1.38534, 1.3939, 1.38432, 1.37948, 1.38474, 1.38592, 1.38679, 1.45102, 1.46767, 1.4915, 1.4984, 1.49182, 1.33603, 1.3584, 1.35301, 1.36239, 1.35423, 1.36065, 1.33544, 1.33144
1.6794, 1.67422, 1.67093, 1.65908, 1.65581, 1.66643, 1.67159, 1.64054, 1.64819, 1.671, 1.70205, 1.81682, 1.84622, 1.74185, 1.65303, 1.62439, 1.60808, 1.59871, 1.59965, 1.58878, 1.57967, 1.57826, 1.57249, 1.57901, 1.57911, 1.57856, 1.56183, 1.54572, 1.54972, 1.5416, 1.54383, 1.52731, 1.52382, 1.51859, 1.51722, 1.50648, 1.50441, 1.51045, 1.51472, 1.46657, 1.62365, 1.69746, 1.70396, 1.63716, 1.51822, 1.46164, 1.47801, 1.4653, 1.46171, 1.45875, 1.4475, 1.44338, 1.44162, 1.44096, 1.43347, 1.43313, 1.42899, 1.42987, 1.42743, 1.42285, 1.42018, 1.41677, 1.41615, 1.41411, 1.41041, 1.40902, 1.40396, 1.40248, 1.39122, 1.38842, 1.38757, 1.38337, 1.38375, 1.38553, 1.38164, 1.39459, 1.39319, 1.39488, 1.46506, 1.49363, 1.48526, 1.45452, 1.37127, 1.35942, 1.34733, 1.35693, 1.34151, 1.33997, 1.33358, 1.35752
1.68165, 1.67502, 1.66532, 1.6655, 1.66844, 1.66376, 1.67028, 1.6576, 1.64073, 1.63681, 1.70868, 1.82426, 1.8385, 1.74143, 1.6349, 1.61213, 1.60133, 1.6061, 1.5856, 1.59261, 1.57869, 1.57473, 1.57386, 1.57302, 1.57168, 1.57099, 1.55773, 1.54667, 1.5415, 1.54019, 1.53458, 1.52857, 1.52585, 1.51432, 1.51675, 1.52211, 1.50464, 1.5139, 1.50907, 1.48653, 1.56838, 1.68851, 1.69266, 1.63365, 1.47678, 1.4786, 1.4682, 1.46818, 1.46143, 1.45103, 1.44596, 1.44528, 1.4417, 1.44393, 1.43393, 1.43071, 1.43157, 1.42944, 1.42822, 1.42602, 1.42011, 1.41748, 1.41864, 1.41433, 1.41045, 1.40586, 1.40506, 1.39792, 1.40177, 1.3887, 1.38967, 1.38189, 1.38489, 1.37752, 1.38859, 1.40094, 1.37302, 1.40563, 1.48297, 1.51659, 1.50319, 1.48206, 1.3617, 1.35511, 1.35127, 1.34364, 1.34352, 1.33685, 1.33317, 1.33097
1.69275, 1.67576, 1.67049, 1.65992, 1.65491, 1.6689, 1.66891, 1.68225, 1.63429, 1.66534, 1.71689, 1.83554, 1.82727, 1.77687, 1.65424, 1.60813, 1.59395, 1.59976, 1.59476, 1.58305, 1.57482, 1.57781, 1.57207, 1.57376, 1.56274, 1.56928, 1.56852, 1.54369, 1.54771, 1.54112, 1.54393, 1.53973, 1.5264, 1.51143, 1.50917, 1.51694, 1.50197, 1.50557, 1.50577, 1.5164, 1.55052, 1.6678, 1.63789, 1.6279, 1.52798, 1.48038, 1.47602, 1.46411, 1.45232, 1.44802, 1.44442, 1.44516, 1.44443, 1.44059, 1.43414, 1.43022, 1.43165, 1.43006, 1.42622, 1.42279, 1.42012, 1.41662, 1.4154, 1.41512, 1.40873, 1.40501, 1.40147, 1.39619, 1.38975, 1.38781, 1.38884, 1.38247, 1.38011, 1.38234, 1.39627, 1.38145, 1.36149, 1.41999, 1.47164, 1.48914, 1.51583, 1.46235, 1.36893, 1.3614, 1.35857, 1.34492, 1.34094, 1.33804, 1.33299, 1.33058
1.67891, 1.67826, 1.66867, 1.66572, 1.66165, 1.65248, 1.66535, 1.6732, 1.64812, 1.6719, 1.73385, 1.81244, 1.83105, 1.80674, 1.60494, 1.61907, 1.60237, 1.59178, 1.58867, 1.59952, 1.5762, 1.57163, 1.56925, 1.56394, 1.56262, 1.57435, 1.55577, 1.54075, 1.54692, 1.54049, 1.53902, 1.52714, 1.5465, 1.51042, 1.50294, 1.50038, 1.50209, 1.50703, 1.43817, 1.49663, 1.56099, 1.67777, 1.63092, 1.64149, 1.54084, 1.4704, 1.47235, 1.46063, 1.45678, 1.44997, 1.44486, 1.44303, 1.44055, 1.43887, 1.43225, 1.4292, 1.43054, 1.43027, 1.42377, 1.42105, 1.41879, 1.41583, 1.41594, 1.41338, 1.4085, 1.40412, 1.39909, 1.39631, 1.3915, 1.38698, 1.3855, 1.38129, 1.38028, 1.37573, 1.3751, 1.3773, 1.39852, 1.47589, 1.47647, 1.51704, 1.51972, 1.48229, 1.32509, 1.35806, 1.35386, 1.34415, 1.34109, 1.33548, 1.33245, 1.33005
1.68062, 1.67302, 1.66877, 1.65946, 1.65682, 1.65083, 1.66062, 1.67498, 1.63038, 1.64095, 1.78607, 1.83402, 1.82756, 1.74882, 1.60663, 1.61276, 1.60595, 1.58896, 1.58653, 1.58489, 1.57674, 1.57236, 1.57498, 1.5612, 1.55527, 1.56908, 1.57516, 1.53962, 1.54019, 1.54127, 1.52392, 1.53049, 1.52024, 1.52056, 1.50227, 1.50027, 1.49931, 1.5006, 1.51536, 1.50309, 1.56135, 1.67153, 1.67681, 1.60557, 1.4603, 1.47518, 1.46856, 1.46206, 1.46225, 1.45059, 1.44675, 1.44333, 1.44061, 1.43847, 1.43295, 1.42847, 1.42717, 1.42915, 1.42606, 1.42036, 1.4175, 1.41563, 1.41339, 1.4093, 1.40897, 1.40178, 1.39839, 1.39064, 1.39163, 1.38515, 1.38395, 1.3806, 1.38895, 1.38045, 1.37544, 1.38296, 1.39137, 1.44414, 1.48563, 1.51256, 1.51889, 1.46214, 1.32122, 1.35233, 1.34825, 1.34176, 1.34052, 1.3347, 1.33005, 1.32957
1.67936, 1.67329, 1.67155, 1.66212, 1.66218, 1.65288, 1.67262, 1.66909, 1.63432, 1.64979, 1.72737, 1.85368, 1.83207, 1.74857, 1.59163, 1.60708, 1.60402, 1.59242, 1.5898, 1.5857, 1.57797, 1.57493, 1.56936, 1.56407, 1.55752, 1.55489, 1.5755, 1.54051, 1.54088, 1.54158, 1.5378, 1.52779, 1.52091, 1.5156, 1.49956, 1.49815, 1.50027, 1.50649, 1.50688, 1.49605, 1.60587, 1.68545, 1.63313, 1.6309, 1.506, 1.47823, 1.47777, 1.46119, 1.46488, 1.45011, 1.44741, 1.44449, 1.44085, 1.4376, 1.43435, 1.42858, 1.4335, 1.4295, 1.42748, 1.42119, 1.42225, 1.41611, 1.41308, 1.4085, 1.40512, 1.40106, 1.39588, 1.39196, 1.38773, 1.38476, 1.38513, 1.38096, 1.37973, 1.37687, 1.37395, 1.37748, 1.36399, 1.42299, 1.48574, 1.49757, 1.50145, 1.46418, 1.35668, 1.35713, 1.35151, 1.34324, 1.33795, 1.33555, 1.33198, 1.32941
1.68072, 1.67522, 1.67247, 1.66551, 1.65843, 1.65569, 1.65473, 1.65906, 1.65124, 1.63903, 1.68692, 1.81959, 1.82696, 1.79169, 1.58759, 1.61255, 1.60051, 1.59173, 1.59093, 1.59833, 1.58044, 1.57786, 1.57333, 1.56549, 1.5622, 1.57652, 1.57459, 1.54922, 1.54312, 1.54322, 1.54034, 1.53614, 1.51946, 1.51455, 1.50484, 1.50291, 1.50926, 1.50568, 1.51362, 1.48831, 1.55894, 1.67543, 1.61715, 1.64465, 1.50923, 1.4727, 1.48182, 1.47526, 1.46471, 1.45188, 1.45168, 1.44669, 1.44371, 1.43989, 1.43424, 1.43099, 1.42937, 1.43228, 1.42728, 1.42436, 1.42065, 1.41968, 1.41427, 1.40948, 1.40568, 1.403, 1.39711, 1.39795, 1.38984, 1.38812, 1.38734, 1.38172, 1.39501, 1.37916, 1.37716, 1.38865, 1.36563, 1.45042, 1.48567, 1.51898, 1.50541, 1.47493, 1.39813, 1.35854, 1.36209, 1.34412, 1.34219, 1.33927, 1.33355, 1.33141
1.68228, 1.67675, 1.67502, 1.6673, 1.67164, 1.65913, 1.6658, 1.68322, 1.65166, 1.64982, 1.74167, 1.81354, 1.83068, 1.80033, 1.63714, 1.62693, 1.6134, 1.59572, 1.59646, 1.59896, 1.5842, 1.58167, 1.57675, 1.56554, 1.56173, 1.56503, 1.57515, 1.55164, 1.54801, 1.54621, 1.54118, 1.53031, 1.52108, 1.51602, 1.51209, 1.5033, 1.50414, 1.51012, 1.51398, 1.5046, 1.60569, 1.66221, 1.66902, 1.63803, 1.47757, 1.46089, 1.48872, 1.47292, 1.46802, 1.45615, 1.45343, 1.45045, 1.44626, 1.44062, 1.43508, 1.43101, 1.43323, 1.43428, 1.43013, 1.42636, 1.42278, 1.42078, 1.41585, 1.40954, 1.40517, 1.40148, 1.40033, 1.39989, 1.39463, 1.39031, 1.39188, 1.38331, 1.38066, 1.39469, 1.37892, 1.38164, 1.3994, 1.45079, 1.50115, 1.5161, 1.50722, 1.49927, 1.33051, 1.37142, 1.35777, 1.35761, 1.34375, 1.3432, 1.33773, 1.33499
1.68771, 1.67911, 1.67816, 1.67202, 1.66877, 1.66505, 1.66808, 1.68254, 1.64901, 1.6368, 1.70088, 1.82377, 1.89542, 1.82263, 1.59991, 1.61497, 1.60579, 1.60567, 1.59236, 1.59046, 1.58562, 1.58487, 1.58141, 1.57009, 1.56277, 1.5586, 1.56308, 1.55519, 1.55859, 1.54591, 1.54387, 1.53939, 1.52291, 1.5197, 1.51635, 1.52583, 1.5202, 1.51061, 1.52162, 1.5056, 1.61295, 1.65373, 1.66319, 1.61337, 1.48482, 1.46583, 1.49, 1.48498, 1.47176, 1.45848, 1.45547, 1.45265, 1.44677, 1.44347, 1.43483, 1.43262, 1.43602, 1.43808, 1.43225, 1.42578, 1.42268, 1.42352, 1.42006, 1.41549, 1.40546, 1.40406, 1.40289, 1.40174, 1.39242, 1.39256, 1.39166, 1.38419, 1.38204, 1.38542, 1.37948, 1.38617, 1.37244, 1.45889, 1.47894, 1.50924, 1.50947, 1.46947, 1.34692, 1.37397, 1.35053, 1.34529, 1.34477, 1.34627, 1.34128, 1.33603
1.69258, 1.68595, 1.68188, 1.67556, 1.67229, 1.67639, 1.66628, 1.6814, 1.6594, 1.62157, 1.64009, 1.83802, 1.85544, 1.79417, 1.58954, 1.61438, 1.60707, 1.60624, 1.60967, 1.59345, 1.58824, 1.59228, 1.58254, 1.5766, 1.56463, 1.57434, 1.58122, 1.57161, 1.55257, 1.54959, 1.54394, 1.54118, 1.53116, 1.52427, 1.52606, 1.52931, 1.518, 1.52789, 1.52441, 1.50677, 1.58213, 1.62489, 1.65724, 1.62589, 1.50184, 1.46158, 1.4956, 1.4882, 1.4655, 1.45928, 1.46461, 1.45558, 1.45335, 1.4417, 1.4367, 1.43408, 1.43885, 1.44212, 1.43784, 1.42869, 1.42544, 1.42579, 1.42125, 1.41861, 1.40747, 1.40634, 1.40667, 1.40579, 1.40068, 1.39604, 1.38967, 1.38478, 1.38505, 1.38548, 1.38493, 1.39094, 1.3779, 1.45206, 1.47534, 1.51794, 1.52139, 1.4664, 1.36005, 1.36179, 1.37114, 1.34652, 1.3496, 1.34936, 1.34504, 1.33687
1.69354, 1.68864, 1.68313, 1.6878, 1.6739, 1.68956, 1.66817, 1.67465, 1.67777, 1.61932, 1.72237, 1.87672, 1.8523, 1.83105, 1.60069, 1.62035, 1.60815, 1.60809, 1.61191, 1.59435, 1.59023, 1.58938, 1.58706, 1.57959, 1.57054, 1.57463, 1.56269, 1.56303, 1.55775, 1.54771, 1.54344, 1.54173, 1.53162, 1.53112, 1.52792, 1.52233, 1.51825, 1.53371, 1.5385, 1.50212, 1.58809, 1.64383, 1.65168, 1.62511, 1.58198, 1.46825, 1.50944, 1.48863, 1.48198, 1.465, 1.46272, 1.46172, 1.45702, 1.44354, 1.43957, 1.43796, 1.44168, 1.44441, 1.43623, 1.43058, 1.42785, 1.43001, 1.42519, 1.41924, 1.41198, 1.40878, 1.40915, 1.41244, 1.40157, 1.4017, 1.39865, 1.39446, 1.39166, 1.38806, 1.3844, 1.39506, 1.38943, 1.46029, 1.50539, 1.51354, 1.53039, 1.47562, 1.37333, 1.36869, 1.36519, 1.34643, 1.35013, 1.35439, 1.34377, 1.34287
1.69495, 1.68922, 1.68298, 1.68103, 1.67705, 1.67365, 1.66877, 1.67454, 1.6712, 1.65002, 1.75476, 1.8383, 1.87337, 1.84011, 1.66914, 1.62573, 1.6125, 1.60783, 1.60427, 1.59598, 1.59059, 1.58947, 1.5897, 1.57775, 1.57727, 1.56871, 1.58237, 1.56324, 1.55833, 1.55474, 1.54973, 1.54345, 1.53655, 1.52874, 1.52664, 1.52483, 1.52643, 1.52083, 1.53096, 1.52406, 1.59594, 1.63345, 1.66032, 1.6266, 1.51204, 1.47484, 1.49639, 1.49587, 1.48078, 1.47921, 1.4642, 1.46809, 1.45813, 1.44908, 1.44286, 1.44013, 1.44491, 1.44653, 1.43914, 1.43319, 1.42969, 1.429, 1.42518, 1.41993, 1.41903, 1.41258, 1.41075, 1.40798, 1.402, 1.39888, 1.39398, 1.39143, 1.38829, 1.3872, 1.39201, 1.38644, 1.38834, 1.47242, 1.52729, 1.53017, 1.52801, 1.50229, 1.34002, 1.37954, 1.36893, 1.35037, 1.35141, 1.35208, 1.34313, 1.36116
1.69389, 1.68621, 1.68253, 1.68543, 1.67582, 1.67131, 1.66851, 1.65964, 1.65497, 1.64038, 1.67812, 1.83575, 1.84637, 1.72647, 1.59942, 1.62671, 1.61827, 1.61458, 1.60205, 1.59382, 1.58928, 1.58905, 1.58642, 1.57514, 1.57107, 1.56992, 1.56496, 1.56077, 1.55799, 1.55178, 1.54107, 1.54162, 1.54069, 1.53871, 1.52768, 1.52472, 1.53802, 1.5262, 1.53006, 1.52799, 1.57323, 1.65932, 1.66892, 1.64965, 1.55175, 1.45261, 1.4793, 1.48653, 1.48117, 1.47742, 1.46532, 1.46394, 1.45982, 1.45178, 1.44331, 1.44317, 1.4465, 1.44554, 1.43755, 1.43277, 1.43017, 1.42961, 1.42459, 1.41882, 1.41572, 1.41202, 1.41055, 1.40573, 1.40097, 1.39835, 1.40514, 1.3892, 1.39716, 1.38629, 1.38633, 1.39612, 1.37858, 1.47242, 1.51777, 1.52385, 1.5237, 1.46627, 1.4132, 1.37094, 1.35656, 1.35011, 1.35068, 1.34682, 1.34295, 1.33713
1.69285, 1.68971, 1.68061, 1.68515, 1.67562, 1.67882, 1.66823, 1.67215, 1.67076, 1.66473, 1.70681, 1.76403, 1.84713, 1.8344, 1.6279, 1.6174, 1.60988, 1.6161, 1.61305, 1.5911, 1.58623, 1.59271, 1.57784, 1.57344, 1.57003, 1.58232, 1.58523, 1.57623, 1.56642, 1.54725, 1.54094, 1.54031, 1.53225, 1.55176, 1.5598, 1.52436, 1.5276, 1.52971, 1.53592, 1.50401, 1.6037, 1.67143, 1.66957, 1.64332, 1.52416, 1.45698, 1.49275, 1.48939, 1.47341, 1.4677, 1.48884, 1.46589, 1.46205, 1.4478, 1.44356, 1.44073, 1.44493, 1.44443, 1.43855, 1.43267, 1.4269, 1.42645, 1.42042, 1.4184, 1.41329, 1.40989, 1.40685, 1.40342, 1.40065, 1.40672, 1.38996, 1.38847, 1.40209, 1.38635, 1.38927, 1.39533, 1.43016, 1.49855, 1.50632, 1.52199, 1.51522, 1.46814, 1.36938, 1.35895, 1.36155, 1.35137, 1.35034, 1.34846, 1.36129, 1.33622
1.68713, 1.68045, 1.67481, 1.69554, 1.67257, 1.6862, 1.67074, 1.66908, 1.66377, 1.67224, 1.71494, 1.77726, 1.85058, 1.82372, 1.61566, 1.62125, 1.60458, 1.61023, 1.62052, 1.59306, 1.58407, 1.58159, 1.58199, 1.5751, 1.56792, 1.56815, 1.57445, 1.57979, 1.5524, 1.54166, 1.53972, 1.54881, 1.53506, 1.54404, 1.53705, 1.52652, 1.52108, 1.5213, 1.52294, 1.49413, 1.58834, 1.68739, 1.6829, 1.62221, 1.50791, 1.47073, 1.48468, 1.49553, 1.47678, 1.47381, 1.4675, 1.46238, 1.46013, 1.45416, 1.44144, 1.43692, 1.4431, 1.44301, 1.43972, 1.42477, 1.42424, 1.42312, 1.4208, 1.41481, 1.41244, 1.40614, 1.40094, 1.39929, 1.39648, 1.42006, 1.38779, 1.3817, 1.38295, 1.39942, 1.38275, 1.39519, 1.35559, 1.45697, 1.5192, 1.52413, 1.54432, 1.46211, 1.34117, 1.35829, 1.35813, 1.34872, 1.35789, 1.34187, 1.33568, 1.3279
1.68917, 1.67687, 1.66846, 1.69618, 1.66827, 1.66966, 1.67474, 1.65544, 1.64241, 1.7137, 1.71698, 1.83024, 1.89291, 1.82081, 1.58841, 1.62064, 1.60406, 1.60195, 1.60397, 1.57196, 1.58209, 1.58266, 1.57164, 1.58267, 1.56763, 1.56594, 1.56895, 1.5797, 1.55734, 1.54029, 1.54034, 1.53792, 1.5345, 1.52146, 1.52034, 1.52465, 1.51447, 1.52286, 1.51904, 1.48145, 1.53841, 1.62118, 1.65549, 1.63013, 1.51287, 1.46906, 1.48929, 1.49375, 1.475, 1.464, 1.46636, 1.46476, 1.45769, 1.45323, 1.43276, 1.4301, 1.44187, 1.44039, 1.42418, 1.41949, 1.42381, 1.41913, 1.41554, 1.41219, 1.41011, 1.40162, 1.39585, 1.39521, 1.39168, 1.39272, 1.38553, 1.37807, 1.37729, 1.3782, 1.38559, 1.392, 1.38497, 1.4146, 1.54115, 1.51998, 1.51586, 1.45995, 1.32929, 1.35763, 1.34875, 1.3477, 1.3475, 1.33971, 1.32947, 1.32255
1.69219, 1.67112, 1.66288, 1.65947, 1.67111, 1.66961, 1.6678, 1.66536, 1.66037, 1.68273, 1.72897, 1.8283, 1.85419, 1.76132, 1.58926, 1.61452, 1.61223, 1.61013, 1.59248, 1.56836, 1.57188, 1.58237, 1.57527, 1.558, 1.56256, 1.5777, 1.56484, 1.57263, 1.55416, 1.53987, 1.54014, 1.54037, 1.53523, 1.51342, 1.51556, 1.51768, 1.51326, 1.50788, 1.51705, 1.51041, 1.53021, 1.63172, 1.65759, 1.62815, 1.56234, 1.47131, 1.49255, 1.50341, 1.47388, 1.47149, 1.46584, 1.47506, 1.45333, 1.44761, 1.43176, 1.42625, 1.44214, 1.44033, 1.43036, 1.41065, 1.4111, 1.41444, 1.41288, 1.4233, 1.40547, 1.399, 1.38778, 1.38817, 1.39075, 1.3911, 1.38768, 1.39818, 1.37149, 1.386, 1.37339, 1.38252, 1.38647, 1.41912, 1.49579, 1.50057, 1.50181, 1.472, 1.32759, 1.35855, 1.35719, 1.34999, 1.34781, 1.35059, 1.32062, 1.3187
1.68698, 1.66171, 1.65885, 1.65675, 1.6647, 1.66799, 1.66326, 1.66043, 1.64852, 1.64143, 1.7621, 1.83068, 1.86207, 1.75511, 1.61676, 1.61734, 1.61314, 1.61757, 1.58237, 1.5749, 1.57615, 1.58115, 1.56983, 1.55466, 1.56139, 1.56033, 1.55981, 1.55489, 1.55403, 1.54127, 1.54244, 1.54012, 1.53812, 1.52044, 1.5138, 1.51938, 1.51339, 1.50969, 1.51885, 1.49596, 1.50671, 1.63145, 1.6521, 1.64716, 1.52049, 1.45121, 1.4862, 1.48292, 1.47143, 1.46214, 1.46597, 1.46763, 1.44911, 1.44404, 1.42747, 1.42484, 1.4414, 1.4428, 1.4256, 1.4103, 1.40628, 1.40946, 1.41349, 1.40431, 1.3998, 1.38598, 1.38453, 1.38591, 1.38795, 1.39192, 1.38928, 1.37738, 1.37128, 1.37038, 1.38913, 1.38437, 1.37931, 1.4271, 1.51911, 1.51343, 1.52058, 1.45884, 1.37912, 1.35792, 1.37224, 1.34826, 1.34716, 1.36451, 1.31978, 1.31785
1.69028, 1.67214, 1.66208, 1.65804, 1.66059, 1.66703, 1.65909, 1.64683, 1.65527, 1.62689, 1.74863, 1.7925, 1.84374, 1.77858, 1.59969, 1.62965, 1.61126, 1.60628, 1.61026, 1.57196, 1.58858, 1.58151, 1.57558, 1.55525, 1.55518, 1.55624, 1.55582, 1.566, 1.55332, 1.55943, 1.54391, 1.54122, 1.54664, 1.53321, 1.51348, 1.5208, 1.51063, 1.52094, 1.51557, 1.48536, 1.54835, 1.62269, 1.65045, 1.64001, 1.56047, 1.47174, 1.47377, 1.50047, 1.48501, 1.46529, 1.46819, 1.46402, 1.44618, 1.44867, 1.43678, 1.42761, 1.44152, 1.44127, 1.42065, 1.40987, 1.40507, 1.40516, 1.40361, 1.39914, 1.39742, 1.38564, 1.38303, 1.38372, 1.38859, 1.39574, 1.39519, 1.3823, 1.36755, 1.3681, 1.38993, 1.38322, 1.35833, 1.50337, 1.49337, 1.51927, 1.54055, 1.43384, 1.35648, 1.36791, 1.36219, 1.35041, 1.35029, 1.3614, 1.32341, 1.32314
1.68872, 1.66814, 1.67651, 1.66154, 1.68229, 1.66904, 1.66129, 1.66334, 1.6594, 1.64847, 1.75135, 1.76186, 1.88531, 1.81996, 1.59124, 1.62316, 1.61487, 1.61087, 1.60976, 1.59527, 1.5889, 1.58293, 1.5821, 1.5592, 1.56054, 1.5559, 1.56232, 1.5731, 1.5523, 1.54691, 1.54632, 1.54256, 1.53657, 1.52325, 1.52702, 1.52398, 1.51882, 1.5214, 1.52668, 1.50827, 1.53718, 1.65117, 1.68687, 1.66196, 1.56268, 1.4713, 1.46778, 1.47934, 1.48889, 1.46812, 1.47107, 1.45524, 1.44654, 1.44355, 1.43049, 1.43074, 1.44402, 1.44073, 1.43169, 1.41622, 1.40697, 1.40542, 1.40279, 1.3969, 1.39744, 1.39056, 1.38578, 1.39069, 1.39206, 1.4018, 1.41602, 1.38844, 1.37315, 1.37143, 1.38204, 1.38254, 1.36509, 1.44391, 1.48281, 1.53225, 1.52542, 1.4371, 1.36232, 1.36906, 1.35638, 1.35151, 1.34177, 1.33386, 1.32605, 1.32432
1.68625, 1.67696, 1.67502, 1.67693, 1.69552, 1.67254, 1.67767, 1.65896, 1.64493, 1.63048, 1.7233, 1.749, 1.87864, 1.86892, 1.61589, 1.62274, 1.62416, 1.6132, 1.60627, 1.5857, 1.58188, 1.58541, 1.57963, 1.56661, 1.56126, 1.55922, 1.5748, 1.5686, 1.55133, 1.56128, 1.55021, 1.54206, 1.54025, 1.56443, 1.52729, 1.52688, 1.52084, 1.53097, 1.52744, 1.51135, 1.63017, 1.65415, 1.67183, 1.66899, 1.57684, 1.47452, 1.48085, 1.49928, 1.50266, 1.48269, 1.47897, 1.45543, 1.45015, 1.44701, 1.43645, 1.43438, 1.44692, 1.44709, 1.43433, 1.42242, 1.41375, 1.41005, 1.40776, 1.40215, 1.40318, 1.39869, 1.39265, 1.39564, 1.39869, 1.40409, 1.40114, 1.40599, 1.38127, 1.39271, 1.40181, 1.39283, 1.37505, 1.42338, 1.45872, 1.50563, 1.51625, 1.45331, 1.38371, 1.37823, 1.35869, 1.36335, 1.34427, 1.33339, 1.34203, 1.33798
1.69351, 1.68966, 1.69857, 1.67422, 1.67569, 1.69, 1.68251, 1.65042, 1.64733, 1.64907, 1.73037, 1.83347, 1.89049, 1.85977, 1.61676, 1.6274, 1.63386, 1.61996, 1.59643, 1.60283, 1.59029, 1.59198, 1.57947, 1.57171, 1.59092, 1.56486, 1.57306, 1.57581, 1.56443, 1.55846, 1.56821, 1.54142, 1.53717, 1.54287, 1.53142, 1.52988, 1.52317, 1.51845, 1.53063, 1.49912, 1.60085, 1.64468, 1.68737, 1.65488, 1.56838, 1.47515, 1.48614, 1.49558, 1.50076, 1.4808, 1.47689, 1.46356, 1.45515, 1.44783, 1.44057, 1.44214, 1.4478, 1.44589, 1.43764, 1.43313, 1.42355, 1.41792, 1.41276, 1.41022, 1.40823, 1.40837, 1.40236, 1.40304, 1.40406, 1.40491, 1.39977, 1.39463, 1.38665, 1.38423, 1.39233, 1.39607, 1.37923, 1.41382, 1.45988, 1.51534, 1.52931, 1.44502, 1.34414, 1.36803, 1.37041, 1.36101, 1.35232, 1.35594, 1.34432, 1.33986
1.68995, 1.69207, 1.68198, 1.67968, 1.69317, 1.6754, 1.67766, 1.65498, 1.67529, 1.67549, 1.7294, 1.904, 1.8978, 1.8897, 1.6341, 1.63027, 1.62222, 1.61354, 1.60801, 1.60577, 1.59261, 1.59122, 1.58382, 1.57888, 1.58416, 1.57012, 1.57538, 1.5822, 1.57233, 1.56717, 1.55069, 1.54675, 1.54005, 1.53757, 1.53353, 1.53031, 1.5246, 1.53068, 1.53278, 1.53767, 1.52431, 1.64512, 1.67321, 1.66464, 1.56978, 1.47306, 1.50173, 1.50044, 1.50085, 1.48898, 1.48054, 1.46718, 1.45567, 1.44995, 1.44549, 1.47796, 1.44853, 1.44619, 1.44237, 1.43215, 1.42714, 1.42365, 1.4196, 1.41858, 1.4147, 1.41038, 1.4057, 1.4059, 1.40504, 1.40526, 1.40353, 1.41683, 1.3923, 1.38978, 1.39167, 1.39564, 1.37532, 1.43842, 1.48651, 1.52925, 1.59184, 1.46312, 1.36515, 1.36773, 1.35938, 1.37042, 1.35716, 1.34697, 1.34417, 1.34152
1.69394, 1.68604, 1.68358, 1.67656, 1.69649, 1.67191, 1.679, 1.66826, 1.65124, 1.62656, 1.69511, 1.87878, 1.89736, 1.77479, 1.66523, 1.63207, 1.62725, 1.61749, 1.61699, 1.59674, 1.59976, 1.59063, 1.58522, 1.58152, 1.5775, 1.57165, 1.57914, 1.57542, 1.57125, 1.56207, 1.54861, 1.54246, 1.53948, 1.53962, 1.53413, 1.53332, 1.52595, 1.52749, 1.53485, 1.52334, 1.59484, 1.67549, 1.67793, 1.65086, 1.57564, 1.48566, 1.4848, 1.50065, 1.49869, 1.47964, 1.47485, 1.46774, 1.45758, 1.44949, 1.44989, 1.44845, 1.44697, 1.45056, 1.43684, 1.43488, 1.43167, 1.4271, 1.42253, 1.42084, 1.41967, 1.41194, 1.40977, 1.40845, 1.40457, 1.4039, 1.40157, 1.40697, 1.41186, 1.39024, 1.39553, 1.39164, 1.40187, 1.39303, 1.47345, 1.51744, 1.549, 1.49602, 1.33535, 1.37828, 1.3727, 1.36119, 1.36245, 1.35613, 1.34652, 1.37468
1.6907, 1.68416, 1.67997, 1.67536, 1.68823, 1.67628, 1.66494, 1.64854, 1.65806, 1.66221, 1.74912, 1.81203, 1.87262, 1.86532, 1.61546, 1.62461, 1.62721, 1.6129, 1.6054, 1.59263, 1.59034, 1.58835, 1.5848, 1.57874, 1.57501, 1.57651, 1.56682, 1.58094, 1.56858, 1.55913, 1.54821, 1.54149, 1.56205, 1.55064, 1.5301, 1.52477, 1.53043, 1.51937, 1.528, 1.51176, 1.57582, 1.67875, 1.6812, 1.6231, 1.56116, 1.46696, 1.49259, 1.50953, 1.50891, 1.47996, 1.46877, 1.46829, 1.47269, 1.44988, 1.44832, 1.45082, 1.44502, 1.4416, 1.43407, 1.44249, 1.43221, 1.42882, 1.42376, 1.42291, 1.41462, 1.4116, 1.4079, 1.40687, 1.40188, 1.40366, 1.39639, 1.39358, 1.39178, 1.38822, 1.40277, 1.40457, 1.37861, 1.42548, 1.47923, 1.54051, 1.54029, 1.48604, 1.4116, 1.36868, 1.36375, 1.35207, 1.3496, 1.34397, 1.35779, 1.34208
1.69725, 1.68408, 1.67953, 1.67302, 1.66829, 1.66876, 1.66563, 1.65119, 1.64714, 1.63211, 1.74936, 1.79583, 1.87157, 1.75924, 1.63141, 1.62083, 1.63071, 1.60664, 1.60092, 1.59611, 1.5869, 1.58494, 1.58288, 1.57641, 1.56866, 1.58526, 1.57253, 1.56764, 1.57248, 1.55547, 1.54369, 1.54374, 1.53221, 1.53003, 1.52538, 1.52385, 1.53865, 1.52067, 1.52554, 1.50817, 1.58096, 1.65419, 1.65612, 1.63907, 1.5743, 1.47034, 1.48713, 1.48883, 1.49968, 1.47428, 1.47526, 1.46806, 1.45318, 1.44701, 1.44655, 1.44228, 1.4404, 1.44166, 1.43055, 1.43102, 1.42887, 1.42702, 1.42311, 1.41789, 1.41498, 1.40739, 1.40317, 1.39972, 1.39853, 1.39659, 1.39348, 1.38958, 1.41171, 1.39494, 1.40514, 1.39126, 1.39501, 1.40508, 1.48914, 1.52982, 1.5248, 1.49685, 1.35411, 1.36435, 1.36088, 1.36198, 1.35152, 1.33786, 1.34066, 1.33728
1.68429, 1.67782, 1.67414, 1.66913, 1.6669, 1.66074, 1.65489, 1.65951, 1.64742, 1.64355, 1.7385, 1.83337, 1.87645, 1.86744, 1.70598, 1.62019, 1.61121, 1.60482, 1.61343, 1.60833, 1.59278, 1.58147, 1.57876, 1.57509, 1.57116, 1.56579, 1.56128, 1.56139, 1.55962, 1.55431, 1.54709, 1.53486, 1.54775, 1.5291, 1.53371, 1.52826, 1.51563, 1.51441, 1.51433, 1.49721, 1.58961, 1.65772, 1.65299, 1.62656, 1.54388, 1.45486, 1.47947, 1.49933, 1.49037, 1.47505, 1.46413, 1.45889, 1.44244, 1.44357, 1.44183, 1.44122, 1.43769, 1.43449, 1.43046, 1.42976, 1.42584, 1.42473, 1.41957, 1.41502, 1.4109, 1.4032, 1.39754, 1.39726, 1.39361, 1.3926, 1.39133, 1.40679, 1.39655, 1.38224, 1.38445, 1.38731, 1.36805, 1.45091, 1.47335, 1.51554, 1.51568, 1.49467, 1.3646, 1.38529, 1.36385, 1.34695, 1.34028, 1.33839, 1.33637, 1.33669
1.68372, 1.67756, 1.67338, 1.67121, 1.66828, 1.66176, 1.66765, 1.65248, 1.65114, 1.62815, 1.71569, 1.82137, 1.85769, 1.86193, 1.70689, 1.61613, 1.62368, 1.60508, 1.6074, 1.58621, 1.58937, 1.57795, 1.57616, 1.5753, 1.56876, 1.56336, 1.55961, 1.56382, 1.57341, 1.55832, 1.53717, 1.53195, 1.5303, 1.52675, 1.52466, 1.52286, 1.5144, 1.51339, 1.52169, 1.50422, 1.58197, 1.62542, 1.66106, 1.64066, 1.55878, 1.45061, 1.48888, 1.48424, 1.4798, 1.47202, 1.45522, 1.44694, 1.44127, 1.44122, 1.44233, 1.43994, 1.43636, 1.43311, 1.43127, 1.4265, 1.42254, 1.42355, 1.41841, 1.41223, 1.4052, 1.40168, 1.39834, 1.39237, 1.39179, 1.3894, 1.38838, 1.38736, 1.39342, 1.37904, 1.39163, 1.38367, 1.3716, 1.42334, 1.49589, 1.51704, 1.52661, 1.50267, 1.38199, 1.35537, 1.38167, 1.34416, 1.3377, 1.3351, 1.35101, 1.33733
1.67949, 1.67658, 1.67308, 1.67076, 1.66803, 1.66522, 1.65217, 1.64928, 1.65926, 1.62891, 1.73554, 1.81016, 1.8649, 1.86851, 1.65014, 1.61706, 1.62053, 1.60228, 1.58993, 1.58203, 1.57738, 1.57226, 1.57116, 1.5721, 1.56602, 1.56056, 1.55975, 1.57155, 1.57184, 1.54638, 1.53586, 1.53064, 1.53769, 1.53044, 1.52324, 1.52245, 1.51542, 1.51561, 1.52262, 1.49314, 1.57166, 1.61275, 1.64426, 1.63562, 1.58303, 1.46151, 1.48269, 1.47288, 1.49643, 1.46918, 1.45211, 1.46156, 1.43913, 1.4403, 1.44232, 1.44011, 1.43536, 1.43358, 1.43112, 1.42292, 1.41827, 1.41804, 1.41202, 1.4073, 1.40023, 1.39906, 1.39627, 1.38934, 1.38924, 1.38577, 1.38485, 1.38588, 1.38103, 1.38164, 1.37599, 1.38244, 1.35764, 1.4023, 1.49701, 1.52046, 1.53658, 1.51591, 1.37341, 1.37074, 1.3567, 1.34153, 1.33805, 1.33288, 1.33527, 1.33136
1.67964, 1.67224, 1.67172, 1.67137, 1.66739, 1.65701, 1.65207, 1.64695, 1.6497, 1.64103, 1.68948, 1.81883, 1.86208, 1.8372, 1.60686, 1.61381, 1.60764, 1.60231, 1.59608, 1.59379, 1.57492, 1.58235, 1.57244, 1.56947, 1.56391, 1.55768, 1.55865, 1.56556, 1.56683, 1.55061, 1.54196, 1.52869, 1.52616, 1.52343, 1.52046, 1.51933, 1.50896, 1.5047, 1.50814, 1.48914, 1.62293, 1.63673, 1.63562, 1.62761, 1.58119, 1.46612, 1.47782, 1.47505, 1.47382, 1.47421, 1.4509, 1.44737, 1.43886, 1.43819, 1.44328, 1.44184, 1.43638, 1.42858, 1.42867, 1.4219, 1.41597, 1.4173, 1.40979, 1.40566, 1.39884, 1.39893, 1.41199, 1.38846, 1.38795, 1.38428, 1.38491, 1.38694, 1.37758, 1.37428, 1.37327, 1.38233, 1.3793, 1.45441, 1.50565, 1.51566, 1.53997, 1.50331, 1.44649, 1.35164, 1.35101, 1.33781, 1.33536, 1.33278, 1.33098, 1.33165
1.67613, 1.67128, 1.66865, 1.66806, 1.66767, 1.66121, 1.64782, 1.64473, 1.65415, 1.63211, 1.72813, 1.81309, 1.8482, 1.84548, 1.68542, 1.60966, 1.60946, 1.6033, 1.60188, 1.59406, 1.57521, 1.56619, 1.56874, 1.56558, 1.55772, 1.55496, 1.55729, 1.55116, 1.56788, 1.54185, 1.53457, 1.53367, 1.53489, 1.52069, 1.51617, 1.52301, 1.50657, 1.50246, 1.51441, 1.48492, 1.57492, 1.59335, 1.63776, 1.62711, 1.56995, 1.44819, 1.47746, 1.47215, 1.47182, 1.47618, 1.45348, 1.44695, 1.43969, 1.43774, 1.44166, 1.44049, 1.43023, 1.42716, 1.42438, 1.41863, 1.41566, 1.41788, 1.40714, 1.40303, 1.39862, 1.39697, 1.3927, 1.38492, 1.38725, 1.38339, 1.38503, 1.38133, 1.38567, 1.37169, 1.38746, 1.37983, 1.35686, 1.45588, 1.45773, 1.52226, 1.53966, 1.51532, 1.36039, 1.36202, 1.35116, 1.34044, 1.33634, 1.33072, 1.3302, 1.32985
1.67333, 1.66897, 1.66558, 1.66242, 1.65881, 1.65216, 1.64644, 1.6458, 1.64748, 1.61286, 1.68511, 1.74986, 1.86804, 1.8701, 1.58201, 1.60646, 1.61278, 1.60601, 1.5922, 1.5792, 1.57202, 1.56542, 1.56151, 1.56686, 1.55667, 1.56161, 1.55659, 1.55704, 1.55782, 1.53835, 1.53975, 1.52644, 1.52296, 1.51835, 1.5134, 1.52511, 1.50264, 1.507, 1.50564, 1.47551, 1.58615, 1.59263, 1.63437, 1.61652, 1.57135, 1.46105, 1.47493, 1.475, 1.49504, 1.47068, 1.44797, 1.45177, 1.43818, 1.43757, 1.43843, 1.43726, 1.43147, 1.42756, 1.42044, 1.41782, 1.41709, 1.41823, 1.40704, 1.4004, 1.39569, 1.3945, 1.38826, 1.38417, 1.38277, 1.38151, 1.38138, 1.38084, 1.37335, 1.39234, 1.37433, 1.38466, 1.34722, 1.41021, 1.49183, 1.52988, 1.55802, 1.44668, 1.38248, 1.36778, 1.35949, 1.33557, 1.33271, 1.33021, 1.33081, 1.32855
1.67431, 1.67057, 1.66495, 1.66209, 1.67212, 1.64934, 1.64609, 1.64723, 1.65346, 1.64543, 1.64701, 1.76642, 1.88175, 1.87586, 1.57745, 1.61046, 1.59554, 1.59221, 1.58442, 1.5863, 1.56988, 1.56519, 1.56136, 1.55839, 1.55643, 1.55311, 1.56357, 1.5493, 1.55886, 1.54262, 1.53688, 1.52566, 1.52294, 1.51976, 1.5159, 1.50718, 1.50162, 1.49952, 1.52372, 1.47245, 1.58156, 1.59, 1.63775, 1.62981, 1.57146, 1.45679, 1.47508, 1.47094, 1.48608, 1.4564, 1.44811, 1.45607, 1.43815, 1.43928, 1.43775, 1.43476, 1.43154, 1.42558, 1.4206, 1.41604, 1.42282, 1.42193, 1.4126, 1.40074, 1.39545, 1.39154, 1.38675, 1.3858, 1.382, 1.38104, 1.37962, 1.37888, 1.37406, 1.36772, 1.38256, 1.39241, 1.3897, 1.43069, 1.44043, 1.519, 1.54808, 1.51816, 1.4022, 1.36811, 1.36097, 1.33333, 1.33051, 1.32993, 1.36083, 1.32724
1.67388, 1.66993, 1.68601, 1.66186, 1.65578, 1.65098, 1.64846, 1.64837, 1.64924, 1.61509, 1.70358, 1.79239, 1.84634, 1.88384, 1.75728, 1.60938, 1.60084, 1.59657, 1.58637, 1.58905, 1.60195, 1.56902, 1.56314, 1.56041, 1.56217, 1.55538, 1.56061, 1.54986, 1.55569, 1.55205, 1.53511, 1.53055, 1.52477, 1.52208, 1.52991, 1.50769, 1.50214, 1.50345, 1.51348, 1.50334, 1.54498, 1.59939, 1.63914, 1.6297, 1.58643, 1.45478, 1.47736, 1.47075, 1.50294, 1.46894, 1.45081, 1.44013, 1.44779, 1.44026, 1.44115, 1.43651, 1.43389, 1.42846, 1.43015, 1.41963, 1.42133, 1.42303, 1.41137, 1.40929, 1.40066, 1.39905, 1.39978, 1.38877, 1.38451, 1.38344, 1.38625, 1.39024, 1.39284, 1.38264, 1.38917, 1.39258, 1.35776, 1.46399, 1.4549, 1.56517, 1.56056, 1.48686, 1.39206, 1.36866, 1.3674, 1.34523, 1.33322, 1.36135, 1.35388, 1.3295
1.68011, 1.67592, 1.68804, 1.66675, 1.68299, 1.65447, 1.65399, 1.66462, 1.64548, 1.61616, 1.69739, 1.79472, 1.85812, 1.87337, 1.70693, 1.61756, 1.61003, 1.60599, 1.59013, 1.59295, 1.58204, 1.57758, 1.56702, 1.56363, 1.56264, 1.55924, 1.56733, 1.56771, 1.55885, 1.55654, 1.53992, 1.5369, 1.52794, 1.53961, 1.53122, 1.51964, 1.50528, 1.50719, 1.51304, 1.47143, 1.55008, 1.62646, 1.64096, 1.62341, 1.54526, 1.45842, 1.49186, 1.47098, 1.47612, 1.45872, 1.45053, 1.44531, 1.45722, 1.44172, 1.44107, 1.43744, 1.43408, 1.43737, 1.42551, 1.43423, 1.42008, 1.42114, 1.41389, 1.41067, 1.40213, 1.40067, 1.39289, 1.38932, 1.38765, 1.3954, 1.3857, 1.38483, 1.39324, 1.38868, 1.38063, 1.39592, 1.36063, 1.42216, 1.47526, 1.57699, 1.55161, 1.52724, 1.38054, 1.37485, 1.35023, 1.3583, 1.33759, 1.34376, 1.34887, 1.33111
1.68828, 1.67949, 1.67902, 1.66778, 1.67191, 1.66866, 1.66184, 1.65688, 1.66293, 1.64481, 1.67512, 1.78182, 1.86894, 1.75741, 1.65746, 1.62363, 1.61145, 1.59687, 1.5935, 1.61375, 1.59654, 1.58865, 1.56899, 1.5646, 1.56189, 1.56592, 1.56258, 1.54832, 1.55545, 1.5544, 1.54771, 1.54141, 1.5301, 1.5269, 1.51694, 1.51149, 1.5139, 1.51353, 1.51306, 1.47291, 1.58573, 1.63941, 1.64699, 1.62673, 1.575, 1.45614, 1.49583, 1.47387, 1.47463, 1.45351, 1.44908, 1.45744, 1.44715, 1.44449, 1.44303, 1.43983, 1.43384, 1.44817, 1.43258, 1.42445, 1.42204, 1.42, 1.41453, 1.40706, 1.41712, 1.40695, 1.39807, 1.39181, 1.39934, 1.39887, 1.39197, 1.3824, 1.38288, 1.38818, 1.38232, 1.39239, 1.33367, 1.42183, 1.49186, 1.51962, 1.55875, 1.47055, 1.36969, 1.36792, 1.3696, 1.35975, 1.36057, 1.34513, 1.33311, 1.34441
1.68423, 1.68081, 1.68283, 1.67479, 1.66511, 1.67136, 1.65167, 1.65979, 1.65435, 1.65486, 1.70108, 1.77143, 1.83893, 1.82587, 1.66495, 1.62269, 1.61831, 1.61736, 1.59424, 1.59555, 1.59037, 1.59929, 1.57202, 1.56537, 1.55928, 1.55486, 1.55239, 1.55796, 1.55462, 1.56381, 1.55429, 1.54474, 1.52982, 1.52634, 1.53695, 1.51013, 1.50812, 1.51628, 1.51904, 1.50578, 1.52116, 1.66783, 1.65316, 1.62368, 1.55232, 1.46224, 1.47609, 1.48165, 1.48878, 1.47084, 1.45579, 1.45479, 1.4502, 1.44507, 1.43879, 1.43507, 1.43221, 1.42963, 1.42594, 1.42169, 1.4212, 1.41654, 1.41481, 1.41466, 1.40322, 1.39812, 1.39398, 1.39205, 1.39137, 1.38654, 1.38508, 1.3835, 1.38093, 1.3746, 1.38913, 1.38933, 1.3341, 1.4227, 1.48017, 1.51715, 1.5564, 1.51446, 1.40824, 1.37612, 1.35719, 1.34415, 1.35039, 1.35789, 1.33073, 1.32902
1.68278, 1.68131, 1.67346, 1.66888, 1.66921, 1.65729, 1.6491, 1.64522, 1.65114, 1.64989, 1.67883, 1.81335, 1.86977, 1.83406, 1.69905, 1.6189, 1.61326, 1.60955, 1.58917, 1.60026, 1.5991, 1.57588, 1.569, 1.56227, 1.55793, 1.57543, 1.54665, 1.55274, 1.54131, 1.55665, 1.54474, 1.54053, 1.53472, 1.52356, 1.53092, 1.51713, 1.50713, 1.50348, 1.50569, 1.49911, 1.55364, 1.62402, 1.65472, 1.60761, 1.56252, 1.47852, 1.47225, 1.47069, 1.48268, 1.46902, 1.44934, 1.451, 1.45121, 1.44041, 1.43569, 1.43079, 1.42795, 1.42729, 1.4246, 1.4264, 1.41591, 1.41544, 1.41582, 1.40534, 1.39874, 1.39555, 1.39085, 1.38818, 1.38533, 1.38533, 1.38962, 1.3762, 1.37214, 1.37117, 1.37459, 1.38079, 1.33344, 1.41158, 1.45822, 1.50894, 1.56867, 1.52136, 1.36573, 1.36035, 1.36778, 1.34828, 1.34113, 1.33782, 1.3284, 1.33234
1.68299, 1.67248, 1.66595, 1.66142, 1.67486, 1.64501, 1.6604, 1.66164, 1.64429, 1.59935, 1.70607, 1.76151, 1.86083, 1.76526, 1.57378, 1.62196, 1.61997, 1.60669, 1.58562, 1.59193, 1.58237, 1.56954, 1.56442, 1.55771, 1.55262, 1.54789, 1.54684, 1.53851, 1.54821, 1.56449, 1.53766, 1.53829, 1.52391, 1.52983, 1.50572, 1.50308, 1.50448, 1.49739, 1.50475, 1.49206, 1.51027, 1.62597, 1.65069, 1.61696, 1.56103, 1.45523, 1.47212, 1.46809, 1.4827, 1.46833, 1.44215, 1.44893, 1.45157, 1.43756, 1.43416, 1.44418, 1.42181, 1.42373, 1.41945, 1.41892, 1.41131, 1.40738, 1.40314, 1.40081, 1.39489, 1.38894, 1.38451, 1.38199, 1.38044, 1.37771, 1.38294, 1.37065, 1.36727, 1.37459, 1.3713, 1.3643, 1.33009, 1.35137, 1.44242, 1.53545, 1.55817, 1.51935, 1.34071, 1.36169, 1.3532, 1.34463, 1.34561, 1.33226, 1.32479, 1.32211
1.6744, 1.6704, 1.66882, 1.67539, 1.64889, 1.65224, 1.6375, 1.63355, 1.63229, 1.62502, 1.7089, 1.79373, 1.82781, 1.85866, 1.59004, 1.59833, 1.59904, 1.60363, 1.58471, 1.57615, 1.57135, 1.56643, 1.56182, 1.55609, 1.55368, 1.54686, 1.53951, 1.53694, 1.53056, 1.55857, 1.5275, 1.52244, 1.53039, 1.51529, 1.50472, 1.50236, 1.49581, 1.49361, 1.49645, 1.47272, 1.5396, 1.59695, 1.62571, 1.62119, 1.53624, 1.46482, 1.4712, 1.46469, 1.48205, 1.47436, 1.43994, 1.43712, 1.44094, 1.44071, 1.42754, 1.42401, 1.41862, 1.41701, 1.41567, 1.41221, 1.40589, 1.40202, 1.41105, 1.39494, 1.38874, 1.38566, 1.38215, 1.37956, 1.37522, 1.37399, 1.37057, 1.36756, 1.36273, 1.37874, 1.35976, 1.36162, 1.32688, 1.4028, 1.39041, 1.51669, 1.553, 1.52278, 1.40571, 1.33961, 1.34246, 1.32984, 1.32743, 1.32146, 1.31888, 1.31535
1.67509, 1.66896, 1.66902, 1.65768, 1.6521, 1.64676, 1.64112, 1.64277, 1.6268, 1.59428, 1.69105, 1.72069, 1.90303, 1.88035, 1.58783, 1.60897, 1.59576, 1.60065, 1.58821, 1.57478, 1.5703, 1.56715, 1.56243, 1.5585, 1.55414, 1.54729, 1.54203, 1.53425, 1.53089, 1.54119, 1.5411, 1.51919, 1.51346, 1.51138, 1.50527, 1.50433, 1.49676, 1.5009, 1.50049, 1.49519, 1.52611, 1.63561, 1.63327, 1.62689, 1.58424, 1.46898, 1.46514, 1.46878, 1.46207, 1.47751, 1.44461, 1.43736, 1.43455, 1.42962, 1.42666, 1.42349, 1.41594, 1.41291, 1.4096, 1.40606, 1.40251, 1.39674, 1.39504, 1.39065, 1.38877, 1.38542, 1.38324, 1.38077, 1.37846, 1.37189, 1.36868, 1.36597, 1.36115, 1.35819, 1.35878, 1.36004, 1.35166, 1.36779, 1.45912, 1.50905, 1.54658, 1.49793, 1.32435, 1.35182, 1.34716, 1.32729, 1.32256, 1.32084, 1.31633, 1.31412
1.67323, 1.66613, 1.65867, 1.6576, 1.65328, 1.64731, 1.638, 1.64321, 1.626, 1.60251, 1.71773, 1.77912, 1.88629, 1.90012, 1.73367, 1.59068, 1.59223, 1.58514, 1.58021, 1.57504, 1.57146, 1.56827, 1.56693, 1.56234, 1.55563, 1.55097, 1.54323, 1.53483, 1.5313, 1.55762, 1.53017, 1.52031, 1.51345, 1.50965, 1.50573, 1.50025, 1.5024, 1.50239, 1.49954, 1.49596, 1.55089, 1.63937, 1.64898, 1.63725, 1.56888, 1.47162, 1.47495, 1.47194, 1.47006, 1.47202, 1.44941, 1.43672, 1.43463, 1.43093, 1.42933, 1.42352, 1.41534, 1.41298, 1.40919, 1.4081, 1.40216, 1.39509, 1.39315, 1.39111, 1.38886, 1.38658, 1.38181, 1.37812, 1.37585, 1.37167, 1.36775, 1.36591, 1.36088, 1.35852, 1.36475, 1.36146, 1.34105, 1.4094, 1.46813, 1.51058, 1.52429, 1.51977, 1.38871, 1.34667, 1.35779, 1.32553, 1.32194, 1.34436, 1.31634, 1.31486
1.67243, 1.66702, 1.66355, 1.65477, 1.6475, 1.64047, 1.64677, 1.62504, 1.62498, 1.58988, 1.65633, 1.8025, 1.8693, 1.78876, 1.70079, 1.60125, 1.61092, 1.58726, 1.58535, 1.57563, 1.57169, 1.56838, 1.56451, 1.56034, 1.55661, 1.54813, 1.53821, 1.53669, 1.52895, 1.54383, 1.54388, 1.52802, 1.52407, 1.50803, 1.50539, 1.50281, 1.49835, 1.50386, 1.50919, 1.46613, 1.55133, 1.56429, 1.64697, 1.63481, 1.56308, 1.44151, 1.47133, 1.464, 1.45516, 1.47644, 1.44776, 1.4369, 1.44681, 1.42691, 1.42591, 1.41713, 1.41374, 1.41099, 1.41603, 1.40628, 1.39759, 1.39207, 1.39156, 1.3912, 1.39019, 1.38967, 1.38196, 1.37848, 1.37569, 1.37326, 1.36735, 1.3625, 1.36064, 1.36117, 1.37036, 1.36143, 1.34477, 1.44199, 1.49658, 1.48899, 1.53986, 1.53925, 1.35519, 1.35434, 1.3473, 1.33579, 1.32846, 1.3168, 1.3167, 1.31332
1.67118, 1.66614, 1.6623, 1.65477, 1.64912, 1.64435, 1.63275, 1.64302, 1.62781, 1.60924, 1.65653, 1.76158, 1.86344, 1.77012, 1.68925, 1.60772, 1.59971, 1.60111, 1.57898, 1.57454, 1.56911, 1.56474, 1.56209, 1.55953, 1.55447, 1.54459, 1.54457, 1.54302, 1.52315, 1.5312, 1.54058, 1.53742, 1.5194, 1.50917, 1.50638, 1.50252, 1.49971, 1.51946, 1.49822, 1.47943, 1.53858, 1.62086, 1.64761, 1.63784, 1.55908, 1.46142, 1.46615, 1.46127, 1.45254, 1.46795, 1.43882, 1.43659, 1.43115, 1.42847, 1.42497, 1.41711, 1.41342, 1.41005, 1.40742, 1.40527, 1.39865, 1.393, 1.39144, 1.39204, 1.38975, 1.38843, 1.38117, 1.37623, 1.37534, 1.37089, 1.37004, 1.36293, 1.36075, 1.35731, 1.35379, 1.36453, 1.36061, 1.42949, 1.4848, 1.54609, 1.54715, 1.49525, 1.33555, 1.33601, 1.33528, 1.32178, 1.31931, 1.31933, 1.31666, 1.31432
1.6707, 1.66558, 1.66031, 1.65961, 1.65173, 1.64457, 1.63219, 1.63716, 1.62654, 1.60342, 1.60698, 1.79548, 1.8634, 1.86227, 1.72336, 1.59585, 1.6078, 1.58574, 1.58571, 1.57276, 1.57011, 1.56466, 1.55986, 1.55808, 1.55193, 1.54685, 1.54236, 1.53781, 1.52836, 1.54755, 1.52985, 1.52806, 1.52277, 1.509, 1.50612, 1.50581, 1.50037, 1.4984, 1.50635, 1.49864, 1.54731, 1.58228, 1.70853, 1.62729, 1.56466, 1.44812, 1.46589, 1.46174, 1.4534, 1.46856, 1.43801, 1.44096, 1.4316, 1.42901, 1.4236, 1.41726, 1.41293, 1.41035, 1.40556, 1.40357, 1.40033, 1.39401, 1.39473, 1.39201, 1.39053, 1.38438, 1.38084, 1.37782, 1.37345, 1.36994, 1.3667, 1.36347, 1.35835, 1.35632, 1.35652, 1.35691, 1.34126, 1.38038, 1.51412, 1.55365, 1.55462, 1.49588, 1.40366, 1.34912, 1.33426, 1.324, 1.32, 1.31663, 1.31224, 1.3136
1.69894, 1.66767, 1.65822, 1.65526, 1.65086, 1.63994, 1.63645, 1.63469, 1.64383, 1.61232, 1.63359, 1.79605, 1.8685, 1.78455, 1.73669, 1.60351, 1.60284, 1.58498, 1.58009, 1.57561, 1.56925, 1.56471, 1.56277, 1.55888, 1.55176, 1.54446, 1.53984, 1.53517, 1.54128, 1.53877, 1.53627, 1.52523, 1.51562, 1.51213, 1.52408, 1.50685, 1.50268, 1.4984, 1.51517, 1.49094, 1.51678, 1.57975, 1.63632, 1.61227, 1.55829, 1.44134, 1.46596, 1.4748, 1.45548, 1.47357, 1.45329, 1.44362, 1.44887, 1.4467, 1.42326, 1.42029, 1.41384, 1.41301, 1.40782, 1.40381, 1.40163, 1.39894, 1.3966, 1.39107, 1.38956, 1.38548, 1.38126, 1.37905, 1.37266, 1.36933, 1.36555, 1.36452, 1.35777, 1.35729, 1.35531, 1.35669, 1.33957, 1.45482, 1.52282, 1.55092, 1.54301, 1.50153, 1.31767, 1.34477, 1.32577, 1.32213, 1.32039, 1.3161, 1.31307, 1.31531
1.66587, 1.6604, 1.65484, 1.65365, 1.64716, 1.63851, 1.64071, 1.62902, 1.62878, 1.60436, 1.71399, 1.76944, 1.88981, 1.88718, 1.61214, 1.59628, 1.59403, 1.585, 1.57839, 1.58934, 1.57044, 1.56447, 1.56089, 1.55861, 1.5543, 1.54452, 1.53918, 1.53279, 1.52857, 1.53037, 1.53976, 1.52286, 1.5163, 1.51406, 1.51018, 1.50856, 1.50225, 1.49844, 1.50039, 1.49712, 1.50515, 1.56641, 1.61973, 1.62075, 1.55571, 1.45434, 1.46796, 1.47477, 1.45448, 1.46247, 1.46704, 1.44128, 1.44021, 1.46335, 1.42321, 1.42054, 1.41491, 1.41266, 1.40906, 1.40652, 1.40359, 1.40149, 1.39797, 1.39554, 1.39359, 1.39026, 1.38526, 1.38173, 1.37394, 1.37061, 1.36839, 1.37472, 1.36187, 1.36078, 1.35696, 1.3641, 1.35915, 1.44797, 1.49643, 1.50737, 1.53046, 1.5035, 1.30157, 1.34112, 1.33754, 1.32586, 1.31974, 1.31856, 1.31553, 1.31425
1.66467, 1.66034, 1.65434, 1.64902, 1.64314, 1.63853, 1.63325, 1.6302, 1.63482, 1.61, 1.71569, 1.76848, 1.84868, 1.91187, 1.59011, 1.59934, 1.59948, 1.58542, 1.5817, 1.57611, 1.56853, 1.56534, 1.56027, 1.55815, 1.55436, 1.5445, 1.5446, 1.53423, 1.52999, 1.53606, 1.53999, 1.52761, 1.51861, 1.51593, 1.51099, 1.50915, 1.50682, 1.49964, 1.50282, 1.46462, 1.50257, 1.71481, 1.62756, 1.62701, 1.58171, 1.49338, 1.47289, 1.46748, 1.45554, 1.46955, 1.46072, 1.44118, 1.44157, 1.43105, 1.42633, 1.42343, 1.41648, 1.41464, 1.41252, 1.40897, 1.40536, 1.4036, 1.39903, 1.3975, 1.39514, 1.39194, 1.38897, 1.38318, 1.37445, 1.3736, 1.37441, 1.36868, 1.36492, 1.3619, 1.35794, 1.37379, 1.35391, 1.35049, 1.4812, 1.50293, 1.52854, 1.50215, 1.39845, 1.33327, 1.33599, 1.32666, 1.33004, 1.32466, 1.31683, 1.31861
1.66779, 1.6607, 1.65274, 1.64854, 1.64534, 1.64469, 1.63541, 1.6318, 1.63348, 1.62187, 1.71726, 1.8152, 1.8868, 1.89534, 1.6088, 1.59934, 1.59235, 1.5869, 1.60287, 1.57286, 1.56743, 1.56275, 1.55818, 1.55776, 1.55349, 1.54584, 1.54035, 1.53491, 1.53377, 1.54524, 1.54725, 1.52176, 1.51822, 1.51532, 1.5124, 1.5111, 1.5106, 1.49913, 1.51181, 1.50294, 1.53597, 1.58591, 1.6192, 1.60122, 1.55858, 1.46294, 1.47181, 1.47152, 1.45731, 1.48285, 1.4652, 1.44253, 1.43503, 1.43017, 1.43154, 1.42329, 1.45123, 1.41743, 1.41335, 1.40932, 1.40745, 1.40499, 1.40246, 1.40155, 1.39595, 1.39222, 1.38686, 1.38219, 1.37715, 1.37548, 1.37165, 1.37022, 1.36505, 1.3624, 1.36067, 1.37843, 1.36748, 1.39677, 1.46835, 1.4921, 1.53346, 1.50582, 1.33891, 1.35403, 1.34761, 1.33573, 1.32533, 1.34119, 1.32178, 1.31922
1.66797, 1.6605, 1.64985, 1.6443, 1.64298, 1.63618, 1.63408, 1.63361, 1.64507, 1.61565, 1.67652, 1.81478, 1.8691, 1.81688, 1.60294, 1.61016, 1.60094, 1.58989, 1.58507, 1.57571, 1.56598, 1.56283, 1.55379, 1.55742, 1.55278, 1.54758, 1.55367, 1.53865, 1.53657, 1.52908, 1.53623, 1.52331, 1.51827, 1.51944, 1.51301, 1.5125, 1.50569, 1.49975, 1.50648, 1.5073, 1.50237, 1.61379, 1.63796, 1.61726, 1.57701, 1.48394, 1.46764, 1.47281, 1.45503, 1.4743, 1.46417, 1.44745, 1.4463, 1.45408, 1.42889, 1.42442, 1.42081, 1.41648, 1.41232, 1.41025, 1.40885, 1.40647, 1.40303, 1.40102, 1.39769, 1.39217, 1.38874, 1.37819, 1.37999, 1.37794, 1.37329, 1.37285, 1.37652, 1.3734, 1.36175, 1.36521, 1.35418, 1.35981, 1.46898, 1.5233, 1.53188, 1.50325, 1.34224, 1.3439, 1.34521, 1.32426, 1.32371, 1.32362, 1.32007, 1.31828
1.66527, 1.65572, 1.65177, 1.64657, 1.64157, 1.64089, 1.63486, 1.63449, 1.63687, 1.62245, 1.69171, 1.77927, 1.90073, 1.86556, 1.65881, 1.56973, 1.60495, 1.59987, 1.59293, 1.57232, 1.56887, 1.55986, 1.55102, 1.55491, 1.5524, 1.55035, 1.53991, 1.53949, 1.53372, 1.53131, 1.5481, 1.52746, 1.52417, 1.5158, 1.51668, 1.50943, 1.50371, 1.50489, 1.50038, 1.472, 1.54447, 1.59763, 1.61997, 1.61927, 1.55185, 1.51241, 1.46942, 1.45858, 1.45168, 1.45888, 1.45397, 1.44632, 1.45045, 1.43053, 1.42666, 1.42934, 1.4203, 1.41835, 1.41632, 1.41228, 1.40966, 1.40744, 1.40617, 1.39985, 1.39815, 1.39545, 1.38884, 1.38483, 1.37997, 1.37768, 1.37521, 1.37007, 1.36788, 1.36506, 1.36458, 1.37488, 1.36569, 1.38277, 1.46189, 1.50721, 1.55655, 1.56249, 1.34048, 1.33403, 1.32902, 1.32496, 1.322, 1.32326, 1.32075, 1.31733
1.66162, 1.65497, 1.64866, 1.64352, 1.63912, 1.63665, 1.63616, 1.63524, 1.64543, 1.62841, 1.69351, 1.73057, 1.88403, 1.88992, 1.60149, 1.58118, 1.60376, 1.59653, 1.57986, 1.58577, 1.56778, 1.55859, 1.55207, 1.55538, 1.54952, 1.54556, 1.53702, 1.53457, 1.53024, 1.53147, 1.55753, 1.53699, 1.51433, 1.52113, 1.50976, 1.50226, 1.50145, 1.49611, 1.51193, 1.49544, 1.4953, 1.57693, 1.61517, 1.60049, 1.55694, 1.45059, 1.46459, 1.46087, 1.45779, 1.4583, 1.4708, 1.43893, 1.4324, 1.42611, 1.4236, 1.42414, 1.42324, 1.41939, 1.41141, 1.41286, 1.40871, 1.40752, 1.40367, 1.39808, 1.39661, 1.39326, 1.38604, 1.38335, 1.37855, 1.3773, 1.3752, 1.37165, 1.36779, 1.37028, 1.36208, 1.37904, 1.38507, 1.41301, 1.4645, 1.53091, 1.55463, 1.4944, 1.3355, 1.33271, 1.32782, 1.32486, 1.32318, 1.3209, 1.32513, 1.31881
1.66439, 1.65543, 1.64968, 1.65614, 1.63778, 1.65143, 1.64481, 1.63647, 1.64415, 1.62017, 1.63203, 1.73809, 1.88252, 1.87973, 1.72538, 1.58976, 1.61301, 1.58181, 1.57622, 1.57117, 1.56267, 1.61297, 1.5519, 1.55544, 1.55548, 1.54598, 1.54032, 1.53637, 1.53064, 1.53055, 1.54035, 1.51698, 1.51275, 1.51977, 1.50239, 1.50306, 1.4983, 1.49572, 1.51358, 1.46951, 1.52359, 1.56873, 1.61195, 1.60619, 1.58611, 1.45814, 1.46022, 1.46746, 1.44757, 1.46074, 1.46224, 1.43409, 1.43172, 1.42822, 1.42513, 1.42632, 1.42216, 1.41872, 1.41236, 1.41558, 1.40857, 1.40722, 1.40473, 1.4009, 1.39485, 1.39112, 1.38809, 1.38151, 1.37761, 1.37477, 1.37153, 1.37138, 1.36593, 1.36762, 1.37559, 1.36239, 1.36577, 1.43823, 1.47957, 1.5408, 1.54819, 1.45922, 1.37111, 1.32335, 1.3617, 1.32666, 1.32384, 1.32197, 1.34687, 1.3191
1.66042, 1.65698, 1.65264, 1.65899, 1.63705, 1.63788, 1.63314, 1.63509, 1.63117, 1.61627, 1.70051, 1.75814, 1.88497, 1.88315, 1.59214, 1.59786, 1.59703, 1.5823, 1.57771, 1.57132, 1.57337, 1.56256, 1.55361, 1.55758, 1.58125, 1.54489, 1.54, 1.53363, 1.53172, 1.52311, 1.5321, 1.52891, 1.51372, 1.51225, 1.50948, 1.50223, 1.49856, 1.49499, 1.49726, 1.49119, 1.51655, 1.60185, 1.61277, 1.61058, 1.57106, 1.5319, 1.46723, 1.45717, 1.44474, 1.45081, 1.47051, 1.43603, 1.43353, 1.44307, 1.4268, 1.42593, 1.42138, 1.41648, 1.41223, 1.41304, 1.40772, 1.40703, 1.40267, 1.39878, 1.39618, 1.38927, 1.38812, 1.38258, 1.37516, 1.3742, 1.37138, 1.37098, 1.36829, 1.36488, 1.36163, 1.37022, 1.34727, 1.43583, 1.48229, 1.51872, 1.55846, 1.54978, 1.39962, 1.35102, 1.34763, 1.32338, 1.32274, 1.32288, 1.32024, 1.31572
1.66312, 1.65752, 1.65569, 1.65062, 1.64334, 1.63926, 1.63347, 1.63398, 1.63221, 1.61828, 1.67944, 1.73897, 1.88267, 1.88855, 1.68133, 1.59823, 1.60358, 1.58532, 1.57645, 1.57492, 1.56627, 1.56053, 1.55331, 1.55583, 1.55298, 1.54833, 1.54031, 1.53639, 1.53175, 1.52807, 1.5365, 1.53581, 1.51678, 1.51196, 1.50265, 1.51244, 1.49929, 1.49245, 1.49498, 1.48976, 1.51822, 1.59258, 1.60795, 1.59986, 1.56234, 1.47011, 1.47102, 1.45721, 1.44483, 1.45806, 1.46059, 1.43547, 1.44149, 1.4442, 1.42485, 1.42558, 1.42028, 1.41544, 1.41225, 1.4094, 1.41036, 1.40361, 1.40142, 1.39967, 1.39284, 1.39256, 1.38382, 1.37927, 1.37602, 1.37384, 1.37379, 1.36738, 1.36596, 1.36715, 1.36285, 1.37306, 1.36776, 1.39506, 1.48037, 1.56532, 1.56818, 1.47955, 1.37771, 1.33716, 1.33433, 1.32453, 1.32274, 1.32205, 1.32395, 1.31723
1.66797, 1.65969, 1.65819, 1.65173, 1.64561, 1.64158, 1.63416, 1.63545, 1.63781, 1.62799, 1.69263, 1.82048, 1.89907, 1.90276, 1.74677, 1.60176, 1.59618, 1.58834, 1.58192, 1.57145, 1.56605, 1.56078, 1.55511, 1.55433, 1.55438, 1.5468, 1.5412, 1.53721, 1.53086, 1.52771, 1.53749, 1.52623, 1.51474, 1.51057, 1.51315, 1.50175, 1.49299, 1.49345, 1.49501, 1.48933, 1.51759, 1.54833, 1.60963, 1.58749, 1.57635, 1.50208, 1.46813, 1.46461, 1.44435, 1.45686, 1.45584, 1.43505, 1.43295, 1.42953, 1.42605, 1.42335, 1.42067, 1.41442, 1.41188, 1.40898, 1.4076, 1.40427, 1.39936, 1.39678, 1.39329, 1.3879, 1.38479, 1.37925, 1.37477, 1.37408, 1.37038, 1.36787, 1.36779, 1.36447, 1.36206, 1.37258, 1.35008, 1.41595, 1.45816, 1.53757, 1.5541, 1.53243, 1.29858, 1.33826, 1.35101, 1.32534, 1.32276, 1.32382, 1.31984, 1.31971
1.67194, 1.66304, 1.65998, 1.65445, 1.64433, 1.64138, 1.63695, 1.63442, 1.63287, 1.62775, 1.66839, 1.82108, 1.85926, 1.91298, 1.66292, 1.62343, 1.60614, 1.58406, 1.58058, 1.57924, 1.56902, 1.56149, 1.55836, 1.55669, 1.55282, 1.54719, 1.54324, 1.5374, 1.53152, 1.52739, 1.53049, 1.55041, 1.51626, 1.51318, 1.5142, 1.50239, 1.49934, 1.49216, 1.49425, 1.48526, 1.49943, 1.55453, 1.60283, 1.58855, 1.58501, 1.48294, 1.45793, 1.45619, 1.45028, 1.44425, 1.45766, 1.43684, 1.43221, 1.42804, 1.42485, 1.42437, 1.41957, 1.41664, 1.41167, 1.4087, 1.40489, 1.40406, 1.3991, 1.39439, 1.39172, 1.38644, 1.38247, 1.38063, 1.37583, 1.37236, 1.37008, 1.37038, 1.36791, 1.36346, 1.3629, 1.37543, 1.37228, 1.41407, 1.45125, 1.53756, 1.54689, 1.48541, 1.42288, 1.3501, 1.3397, 1.33334, 1.32633, 1.3246, 1.31938, 1.31899
1.66824, 1.66713, 1.66274, 1.6608, 1.64875, 1.64426, 1.64067, 1.63469, 1.63425, 1.60665, 1.70297, 1.80717, 1.89537, 1.90919, 1.72548, 1.59918, 1.60342, 1.58899, 1.5797, 1.57563, 1.56823, 1.5623, 1.56037, 1.55832, 1.55179, 1.54661, 1.54117, 1.53759, 1.53287, 1.52928, 1.52685, 1.54116, 1.51615, 1.51704, 1.50547, 1.50235, 1.4962, 1.49875, 1.49638, 1.4933, 1.5059, 1.55507, 1.68315, 1.59602, 1.55508, 1.4354, 1.45795, 1.45753, 1.44731, 1.45735, 1.46257, 1.44437, 1.43367, 1.45317, 1.4249, 1.42301, 1.4188, 1.41525, 1.41229, 1.40916, 1.40499, 1.40179, 1.39918, 1.3949, 1.39201, 1.38829, 1.38311, 1.37954, 1.37426, 1.3742, 1.37345, 1.36843, 1.36727, 1.36508, 1.36406, 1.37937, 1.36516, 1.40533, 1.45289, 1.50881, 1.55173, 1.4864, 1.3669, 1.34694, 1.33777, 1.33024, 1.32656, 1.32491, 1.32202, 1.31959
1.67403, 1.66825, 1.66547, 1.65749, 1.65633, 1.64642, 1.64079, 1.63468, 1.63753, 1.6275, 1.6509, 1.78161, 1.86929, 1.85028, 1.76736, 1.59876, 1.60104, 1.58894, 1.58555, 1.57807, 1.57131, 1.56427, 1.56177, 1.55837, 1.55145, 1.54686, 1.54348, 1.54732, 1.5327, 1.53375, 1.53675, 1.55183, 1.5258, 1.51658, 1.50622, 1.51049, 1.49657, 1.49564, 1.50538, 1.49435, 1.51632, 1.5561, 1.62732, 1.59553, 1.60023, 1.48706, 1.46896, 1.47427, 1.44803, 1.44588, 1.45912, 1.45058, 1.43433, 1.42774, 1.42567, 1.42272, 1.41841, 1.41465, 1.41275, 1.40748, 1.40417, 1.40235, 1.39942, 1.39575, 1.39131, 1.38621, 1.3833, 1.37907, 1.37546, 1.37279, 1.37063, 1.37028, 1.36799, 1.3714, 1.36324, 1.37196, 1.36287, 1.39913, 1.45435, 1.54416, 1.5711, 1.55607, 1.38044, 1.35716, 1.34415, 1.3365, 1.32691, 1.32367, 1.32293, 1.31962
1.67517, 1.67241, 1.6656, 1.65983, 1.65485, 1.65112, 1.6412, 1.64828, 1.63379, 1.63497, 1.65132, 1.73013, 1.88283, 1.8775, 1.60451, 1.58985, 1.60893, 1.59209, 1.58204, 1.59668, 1.56851, 1.56528, 1.56326, 1.55878, 1.55912, 1.54807, 1.54732, 1.53808, 1.53289, 1.53859, 1.5274, 1.54844, 1.52124, 1.5097, 1.50588, 1.50092, 1.49975, 1.49409, 1.49684, 1.46429, 1.48075, 1.56442, 1.61706, 1.60289, 1.57504, 1.46052, 1.47789, 1.47122, 1.4546, 1.45278, 1.4614, 1.44783, 1.43179, 1.44669, 1.42598, 1.42472, 1.42011, 1.4541, 1.41115, 1.40855, 1.40542, 1.40134, 1.39836, 1.39388, 1.39168, 1.38574, 1.38243, 1.38088, 1.37733, 1.37292, 1.37156, 1.36902, 1.3669, 1.36436, 1.36292, 1.36286, 1.3504, 1.41664, 1.49468, 1.52756, 1.57568, 1.55877, 1.30987, 1.34285, 1.34711, 1.33466, 1.32926, 1.32446, 1.32421, 1.32125
1.67488, 1.67142, 1.66279, 1.65847, 1.65375, 1.652, 1.64183, 1.64382, 1.63446, 1.62254, 1.65977, 1.73294, 1.87334, 1.86239, 1.69868, 1.59862, 1.59983, 1.58973, 1.58024, 1.57578, 1.58772, 1.5653, 1.56178, 1.56476, 1.5523, 1.54762, 1.54396, 1.53697, 1.53377, 1.52761, 1.52971, 1.53836, 1.52431, 1.51705, 1.51631, 1.50197, 1.50631, 1.50172, 1.50333, 1.46385, 1.47804, 1.55776, 1.59034, 1.60693, 1.57774, 1.49309, 1.47413, 1.47066, 1.46045, 1.44685, 1.45434, 1.45013, 1.43415, 1.42983, 1.42733, 1.42356, 1.42068, 1.41392, 1.41445, 1.40928, 1.40727, 1.40228, 1.39919, 1.39518, 1.39191, 1.38867, 1.38392, 1.3809, 1.37787, 1.3745, 1.37397, 1.37222, 1.36798, 1.37502, 1.36166, 1.37271, 1.37889, 1.40253, 1.452, 1.52758, 1.57194, 1.56581, 1.33224, 1.34326, 1.35455, 1.33323, 1.35877, 1.32918, 1.32305, 1.32135
1.67278, 1.66988, 1.66264, 1.65688, 1.65197, 1.66168, 1.63957, 1.6367, 1.64328, 1.60724, 1.67186, 1.73829, 1.87672, 1.89903, 1.60491, 1.57508, 1.60028, 1.59587, 1.57866, 1.58975, 1.57772, 1.56197, 1.55946, 1.55677, 1.55225, 1.55022, 1.54501, 1.53714, 1.53481, 1.5274, 1.53032, 1.54451, 1.52969, 1.50894, 1.51508, 1.50177, 1.49656, 1.50623, 1.5055, 1.4931, 1.51671, 1.51579, 1.6015, 1.66836, 1.57331, 1.4984, 1.47558, 1.46682, 1.45437, 1.44897, 1.44921, 1.45317, 1.43836, 1.43054, 1.42509, 1.4251, 1.41934, 1.41601, 1.41433, 1.40846, 1.40853, 1.40298, 1.39843, 1.39516, 1.39129, 1.38819, 1.39134, 1.37992, 1.37817, 1.37531, 1.37431, 1.37144, 1.3701, 1.36732, 1.37172, 1.35904, 1.36411, 1.42327, 1.48536, 1.52709, 1.56212, 1.53083, 1.35501, 1.35643, 1.36409, 1.34232, 1.33326, 1.36472, 1.32718, 1.32245
1.67006, 1.66859, 1.66456, 1.65709, 1.64795, 1.64772, 1.63868, 1.63349, 1.63189, 1.62246, 1.67929, 1.73219, 1.86176, 1.941, 1.62255, 1.59344, 1.5994, 1.60017, 1.5794, 1.57523, 1.564, 1.56491, 1.56004, 1.55617, 1.55182, 1.54928, 1.54393, 1.5382, 1.53264, 1.5273, 1.52463, 1.54147, 1.52573, 1.50908, 1.51281, 1.52686, 1.49498, 1.49532, 1.49657, 1.51694, 1.51435, 1.51892, 1.60444, 1.6174, 1.55228, 1.5016, 1.46861, 1.45649, 1.46912, 1.45384, 1.44978, 1.45908, 1.4413, 1.42619, 1.42135, 1.42062, 1.41865, 1.41673, 1.4095, 1.40672, 1.40712, 1.40176, 1.3988, 1.39396, 1.39026, 1.38896, 1.38433, 1.3813, 1.37948, 1.37776, 1.37143, 1.37035, 1.36899, 1.36773, 1.35752, 1.36122, 1.37015, 1.41731, 1.46112, 1.54111, 1.56535, 1.5387, 1.41315, 1.3522, 1.36327, 1.33744, 1.33355, 1.32744, 1.32349, 1.33635
