1.64165, 1.62685, 1.38051, 1.62106, 1.62298, 1.62356, 1.61723, 1.61629, 1.61296, 1.61117, 1.60876, 1.60837, 1.6047, 1.60281, 1.61325, 1.60342, 1.60816, 1.61273, 1.60909, 1.61324, 1.57786, 1.59016, 1.60657, 1.61442, 1.61539, 1.64652, 1.62257, 1.63066, 1.61762, 1.63113, 1.66025, 1.6863, 1.69201, 1.69413, 1.69762, 1.68613, 1.65919, 1.64798, 1.60185, 1.54221, 1.56964, 1.56531, 1.575, 1.57653, 1.57348, 1.5546, 1.55555, 1.55637, 1.55994, 1.5519, 1.58243, 1.56481, 1.55521, 1.55165, 1.54123, 1.54278, 1.5331, 1.53095, 1.53792, 1.53178, 1.52651, 1.52708, 1.52612, 1.52372, 1.5216, 1.52144, 1.52012, 1.51795, 1.5164, 1.51603, 1.51474, 1.51368, 1.51171, 1.51939, 1.50879, 1.51261, 1.5032, 1.50296, 1.50056, 1.49739, 1.49683, 1.50433, 1.4944, 1.49167, 1.49088, 1.49589, 1.48818, 1.48799, 1.48665, 1.48394, 1.48197, 1.47898, 1.47752, 1.47594, 1.4721, 1.46982, 1.46925, 1.48496, 1.47484, 1.46764, 1.46616, 1.46501, 1.46736, 1.47725, 1.47334, 1.47168, 1.48098, 1.48414, 1.44442, 1.43985, 1.47637, 1.52683, 1.56136, 1.58772, 1.65445, 1.75243, 1.80567, 1.7591, 1.7647, 1.72247, 1.62099, 1.53499, 1.44188, 1.43086, 1.43371, 1.43947, 1.43812, 1.43345, 1.43689, 1.43566, 1.42956, 1.4296, 1.42935, 1.42377, 1.42096, 1.42893, 1.41897, 1.41927, 1.44118, 1.41734, 1.41564, 1.41342, 1.41071, 1.40678, 1.40797, 1.40681, 1.40529, 1.40378, 1.40282, 1.39977, 1.39886, 1.39626, 1.39628, 1.39301, 1.39333, 1.3896, 1.38658, 1.38605, 1.38539, 1.38544, 1.3855, 1.38564, 1.38179, 1.37906, 1.3788, 1.3764, 1.37602, 1.37639, 1.37418, 1.372, 1.37902, 1.37129, 1.37421, 1.36951, 1.37745, 1.36753, 1.36565, 1.36564, 1.36458, 1.37088, 1.3616, 1.36473, 1.3622, 1.37252, 1.35779, 1.35688, 1.35128, 1.34894, 1.34947, 1.34852, 1.34858, 1.34636, 1.34709, 1.34449, 1.34348, 1.3449, 1.33994, 1.34817, 1.34067, 1.34739, 1.33417, 1.33304, 1.33302, 1.33152, 1.333, 1.33214, 1.33144, 1.33161, 1.34253, 1.33677, 1.35427, 1.33919, 1.34338, 1.34727, 1.35721, 1.35347, 1.35121, 1.35775, 1.35303, 1.37711, 1.38227, 1.37235, 1.36573, 1.39278, 1.36097, 1.39432, 1.38649, 1.37405, 1.35465, 1.34614, 1.31846, 1.31979, 1.32723, 1.33108, 1.32345, 1.31611, 1.31722, 1.30626, 1.30812, 1.29899, 1.29537, 1.29662, 1.29168, 1.29268, 1.29392, 1.29756, 1.29168, 1.30189, 1.29024, 1.29228, 1.29178, 1.29007, 1.29309, 1.30214, 1.31658, 1.31799, 
1.67296, 1.68601, 1.69311, 1.66929, 1.66549, 1.65186, 1.63099, 1.63016, 1.62716, 1.6252, 1.62988, 1.61934, 1.61883, 1.62225, 1.63222, 1.61768, 1.63323, 1.62273, 1.62403, 1.62795, 1.62306, 1.62508, 1.62034, 1.63365, 1.63885, 1.65462, 1.66073, 1.66779, 1.68637, 1.69235, 1.70057, 1.71077, 1.74451, 1.72388, 1.73315, 1.69338, 1.65439, 1.58956, 1.59094, 1.55254, 1.57446, 1.58509, 1.60007, 1.57735, 1.56702, 1.57477, 1.56574, 1.58273, 1.56157, 1.55795, 1.56754, 1.55851, 1.55433, 1.55182, 1.55262, 1.56106, 1.58524, 1.54404, 1.5505, 1.54691, 1.53735, 1.53719, 1.53861, 1.53985, 1.54637, 1.53009, 1.52788, 1.52855, 1.52335, 1.52123, 1.5199, 1.51856, 1.52282, 1.51584, 1.51263, 1.51342, 1.51249, 1.51302, 1.50946, 1.50938, 1.50967, 1.50655, 1.5053, 1.50324, 1.50386, 1.5028, 1.50157, 1.4998, 1.49812, 1.49608, 1.49543, 1.49242, 1.49287, 1.48986, 1.48411, 1.48444, 1.48495, 1.48374, 1.48132, 1.48107, 1.48147, 1.4809, 1.47967, 1.47906, 1.47896, 1.48875, 1.49017, 1.48901, 1.46109, 1.4545, 1.47782, 1.50594, 1.53604, 1.56688, 1.64936, 1.66477, 1.72363, 1.75815, 1.76451, 1.72316, 1.62851, 1.55491, 1.45797, 1.47269, 1.42046, 1.46374, 1.45673, 1.47113, 1.45147, 1.44991, 1.44395, 1.44103, 1.43872, 1.43631, 1.44056, 1.43081, 1.43018, 1.42874, 1.42504, 1.4225, 1.42125, 1.41904, 1.41873, 1.41849, 1.41592, 1.41569, 1.41254, 1.41129, 1.40836, 1.40966, 1.40868, 1.40934, 1.40724, 1.40614, 1.40383, 1.40325, 1.40089, 1.4012, 1.39819, 1.3969, 1.39688, 1.39689, 1.39467, 1.39471, 1.39699, 1.39328, 1.39401, 1.38972, 1.38825, 1.38566, 1.38632, 1.38463, 1.38417, 1.38097, 1.38509, 1.37531, 1.37607, 1.37272, 1.37053, 1.36844, 1.37022, 1.36646, 1.36581, 1.36567, 1.36658, 1.36291, 1.36343, 1.36305, 1.36137, 1.36252, 1.36233, 1.36563, 1.36561, 1.36635, 1.36648, 1.36595, 1.36418, 1.36083, 1.36262, 1.36173, 1.36071, 1.36866, 1.35598, 1.35476, 1.35098, 1.35194, 1.35094, 1.34834, 1.36067, 1.35256, 1.35504, 1.36121, 1.35594, 1.35425, 1.3656, 1.3554, 1.36176, 1.35898, 1.38224, 1.40539, 1.39986, 1.36851, 1.37129, 1.40265, 1.43729, 1.40873, 1.3917, 1.37768, 1.3547, 1.34028, 1.32313, 1.32174, 1.34459, 1.3369, 1.33178, 1.32105, 1.32654, 1.31344, 1.31183, 1.31141, 1.30635, 1.30567, 1.30891, 1.30251, 1.31144, 1.30531, 1.30659, 1.32341, 1.30303, 1.30858, 1.30104, 1.31237, 1.29869, 1.29913, 1.29673, 1.29771, 
1.6615, 1.64966, 1.64551, 1.64657, 1.64558, 1.6604, 1.66555, 1.65199, 1.65371, 1.64426, 1.63774, 1.63683, 1.63498, 1.63374, 1.64375, 1.63866, 1.63743, 1.63541, 1.63879, 1.63803, 1.62309, 1.60325, 1.60579, 1.66835, 1.68555, 1.74427, 1.7079, 1.71325, 1.71694, 1.73792, 1.74413, 1.75064, 1.83883, 1.78233, 1.70848, 1.74806, 1.74791, 1.67018, 1.59984, 1.59778, 1.58983, 1.59427, 1.60675, 1.5997, 1.59193, 1.58383, 1.57695, 1.57478, 1.56839, 1.57579, 1.56674, 1.57181, 1.5594, 1.55877, 1.55796, 1.5687, 1.56475, 1.55858, 1.56715, 1.57658, 1.56807, 1.55485, 1.56235, 1.57505, 1.57821, 1.55126, 1.54846, 1.54485, 1.56437, 1.54122, 1.53745, 1.53649, 1.53452, 1.53357, 1.53177, 1.53106, 1.52947, 1.52677, 1.52682, 1.52386, 1.52167, 1.51942, 1.51692, 1.51582, 1.51331, 1.51192, 1.50969, 1.50935, 1.50895, 1.50558, 1.50553, 1.50277, 1.53413, 1.50702, 1.50056, 1.51097, 1.49919, 1.49913, 1.49674, 1.49654, 1.5105, 1.49042, 1.49033, 1.50553, 1.49551, 1.5025, 1.48888, 1.47547, 1.47891, 1.47289, 1.50338, 1.51739, 1.53835, 1.58618, 1.61622, 1.69064, 1.74705, 1.73795, 1.6597, 1.70778, 1.68228, 1.64076, 1.51604, 1.48021, 1.44736, 1.44693, 1.46542, 1.47041, 1.45974, 1.46829, 1.45758, 1.45134, 1.44931, 1.44656, 1.44474, 1.44306, 1.44037, 1.44673, 1.43683, 1.43507, 1.43581, 1.434, 1.43702, 1.43399, 1.43291, 1.42962, 1.43004, 1.42606, 1.42641, 1.42604, 1.42991, 1.42392, 1.4235, 1.42261, 1.42089, 1.41848, 1.41662, 1.41509, 1.41456, 1.41068, 1.41108, 1.41054, 1.40855, 1.40946, 1.40925, 1.40683, 1.40719, 1.4137, 1.40724, 1.40915, 1.40851, 1.40633, 1.404, 1.40527, 1.40145, 1.39927, 1.39574, 1.394, 1.39117, 1.39605, 1.38566, 1.3841, 1.38252, 1.38111, 1.38035, 1.37815, 1.37746, 1.37694, 1.37429, 1.37432, 1.37034, 1.37122, 1.37205, 1.37069, 1.37111, 1.36794, 1.36928, 1.37428, 1.36837, 1.3672, 1.36825, 1.36422, 1.36185, 1.37065, 1.36805, 1.3666, 1.37916, 1.35552, 1.36156, 1.35803, 1.36421, 1.37489, 1.36511, 1.36988, 1.35545, 1.36208, 1.37026, 1.38222, 1.39984, 1.40179, 1.40017, 1.41028, 1.41534, 1.42986, 1.41068, 1.4201, 1.41041, 1.41187, 1.44145, 1.38277, 1.34801, 1.33015, 1.32509, 1.33945, 1.34363, 1.34074, 1.33889, 1.34467, 1.33333, 1.32981, 1.33495, 1.32517, 1.32216, 1.31973, 1.32087, 1.31951, 1.32027, 1.31604, 1.31337, 1.32372, 1.31382, 1.31419, 1.32337, 1.31265, 1.31336, 1.31244, 
1.66217, 1.66277, 1.65995, 1.65888, 1.65807, 1.66769, 1.67062, 1.66283, 1.66239, 1.67903, 1.67466, 1.67872, 1.66236, 1.64784, 1.64151, 1.63695, 1.63458, 1.63581, 1.63192, 1.64438, 1.63399, 1.62339, 1.61415, 1.61287, 1.67702, 1.70967, 1.68667, 1.68871, 1.70597, 1.74202, 1.72685, 1.73323, 1.73292, 1.72525, 1.72538, 1.74079, 1.73176, 1.66615, 1.6357, 1.58902, 1.59324, 1.59961, 1.60978, 1.6066, 1.5918, 1.58927, 1.59167, 1.58674, 1.58645, 1.58281, 1.58333, 1.57885, 1.57811, 1.58232, 1.57272, 1.56972, 1.56926, 1.56594, 1.57038, 1.56859, 1.56569, 1.5684, 1.58115, 1.57356, 1.56771, 1.55897, 1.55445, 1.54988, 1.54728, 1.54944, 1.54472, 1.54306, 1.54227, 1.53866, 1.53762, 1.53739, 1.53685, 1.53633, 1.53508, 1.53346, 1.53175, 1.52904, 1.52715, 1.52632, 1.52586, 1.52321, 1.52079, 1.51988, 1.51743, 1.51689, 1.51486, 1.51331, 1.51315, 1.51098, 1.51715, 1.50756, 1.50603, 1.50544, 1.50323, 1.50257, 1.49563, 1.4987, 1.49724, 1.49634, 1.50644, 1.50913, 1.50307, 1.49486, 1.4933, 1.47208, 1.51456, 1.52935, 1.54289, 1.57344, 1.62034, 1.6556, 1.68041, 1.69856, 1.70957, 1.68334, 1.68323, 1.60471, 1.55079, 1.52663, 1.45211, 1.43055, 1.43095, 1.46114, 1.4693, 1.46144, 1.45672, 1.4489, 1.44649, 1.44707, 1.44413, 1.44479, 1.44599, 1.44495, 1.44374, 1.44312, 1.44048, 1.44008, 1.43836, 1.43509, 1.43428, 1.43002, 1.42935, 1.43139, 1.4325, 1.43147, 1.4305, 1.42856, 1.42697, 1.42588, 1.42497, 1.42289, 1.42054, 1.42033, 1.41849, 1.41676, 1.41719, 1.41565, 1.41428, 1.41026, 1.41066, 1.40885, 1.40938, 1.40789, 1.40726, 1.40768, 1.405, 1.40417, 1.40326, 1.40183, 1.40413, 1.40133, 1.40102, 1.39961, 1.40209, 1.40019, 1.39866, 1.39987, 1.39206, 1.39044, 1.38954, 1.38834, 1.38766, 1.38579, 1.38461, 1.38296, 1.38235, 1.3815, 1.38372, 1.38012, 1.37847, 1.38162, 1.37972, 1.37967, 1.37967, 1.37531, 1.37566, 1.37758, 1.37398, 1.3738, 1.37413, 1.37504, 1.37259, 1.37256, 1.37206, 1.37575, 1.36968, 1.37144, 1.37729, 1.36062, 1.34911, 1.36769, 1.38835, 1.37871, 1.43015, 1.42033, 1.42037, 1.4294, 1.44094, 1.44832, 1.45789, 1.46522, 1.49127, 1.45726, 1.43737, 1.42672, 1.4091, 1.34815, 1.32667, 1.33956, 1.34813, 1.35013, 1.35335, 1.34752, 1.34415, 1.3299, 1.32786, 1.32683, 1.33344, 1.32237, 1.32219, 1.32401, 1.32961, 1.3188, 1.33087, 1.32711, 1.31757, 1.33659, 1.31876, 1.31665, 1.32377, 1.33332, 
1.67708, 1.67476, 1.67457, 1.67299, 1.68639, 1.66819, 1.67432, 1.66758, 1.6615, 1.65836, 1.66016, 1.67068, 1.68157, 1.66856, 1.66227, 1.66286, 1.66537, 1.6579, 1.65188, 1.65921, 1.65616, 1.63305, 1.63421, 1.63443, 1.64377, 1.68139, 1.6834, 1.69564, 1.74895, 1.74255, 1.82001, 1.83417, 1.79618, 1.78956, 1.78676, 1.76878, 1.72069, 1.73479, 1.64068, 1.60875, 1.59931, 1.62468, 1.61761, 1.60708, 1.61255, 1.60516, 1.59291, 1.59381, 1.58845, 1.58707, 1.58598, 1.60273, 1.60046, 1.58321, 1.58023, 1.58538, 1.57817, 1.57934, 1.57578, 1.57529, 1.576, 1.57288, 1.57579, 1.56969, 1.55847, 1.56577, 1.60158, 1.57987, 1.57834, 1.56528, 1.56219, 1.57485, 1.55205, 1.55094, 1.5481, 1.5545, 1.54488, 1.54408, 1.55291, 1.54114, 1.54051, 1.53727, 1.5361, 1.53556, 1.53399, 1.53307, 1.53328, 1.53088, 1.52802, 1.52777, 1.52492, 1.52258, 1.52273, 1.52051, 1.51992, 1.52053, 1.51693, 1.52637, 1.51432, 1.51321, 1.51302, 1.50959, 1.50778, 1.52158, 1.51936, 1.51683, 1.51443, 1.51567, 1.50661, 1.48979, 1.48079, 1.53052, 1.57246, 1.58489, 1.63727, 1.65779, 1.66788, 1.67785, 1.70992, 1.6919, 1.68206, 1.64403, 1.60359, 1.58922, 1.52835, 1.48309, 1.4602, 1.49315, 1.48529, 1.48437, 1.48792, 1.49636, 1.47382, 1.47911, 1.47406, 1.46567, 1.48216, 1.45968, 1.45917, 1.4564, 1.45393, 1.45228, 1.45215, 1.44819, 1.44907, 1.44423, 1.44368, 1.44384, 1.44043, 1.43936, 1.43951, 1.43832, 1.44185, 1.4373, 1.43634, 1.4371, 1.43652, 1.4327, 1.43289, 1.43085, 1.42871, 1.42959, 1.4281, 1.42796, 1.42651, 1.42441, 1.42375, 1.42402, 1.42119, 1.42174, 1.4198, 1.41918, 1.41663, 1.41639, 1.41481, 1.41302, 1.41033, 1.41, 1.40748, 1.40579, 1.40495, 1.40279, 1.40064, 1.39869, 1.39724, 1.39523, 1.39252, 1.39234, 1.38869, 1.3882, 1.38811, 1.38585, 1.38329, 1.38555, 1.38403, 1.38168, 1.38013, 1.37973, 1.37589, 1.37712, 1.37747, 1.37629, 1.37421, 1.37702, 1.38652, 1.3748, 1.37562, 1.38538, 1.37798, 1.37662, 1.37876, 1.38589, 1.3801, 1.38545, 1.38205, 1.43297, 1.41343, 1.40233, 1.42148, 1.43691, 1.45368, 1.45669, 1.50378, 1.48789, 1.48647, 1.46397, 1.46825, 1.47145, 1.4518, 1.46905, 1.4157, 1.39301, 1.34072, 1.33305, 1.35547, 1.35646, 1.34981, 1.35965, 1.34185, 1.34219, 1.34281, 1.33825, 1.34683, 1.33818, 1.3336, 1.33373, 1.33292, 1.33456, 1.33189, 1.34887, 1.32991, 1.33013, 1.32962, 1.33693, 1.35228, 1.33776, 
1.67824, 1.67846, 1.67355, 1.67183, 1.66931, 1.6693, 1.66846, 1.68008, 1.66211, 1.66767, 1.65702, 1.65742, 1.65515, 1.66113, 1.6616, 1.68246, 1.68352, 1.69339, 1.67386, 1.66234, 1.65908, 1.6409, 1.62889, 1.62382, 1.66827, 1.68976, 1.70677, 1.74208, 1.73117, 1.74751, 1.78726, 1.82307, 1.84838, 1.83711, 1.86941, 1.80942, 1.77764, 1.75814, 1.66501, 1.66141, 1.59418, 1.60291, 1.61677, 1.61296, 1.61793, 1.62076, 1.61082, 1.6075, 1.60933, 1.59674, 1.60407, 1.60076, 1.59143, 1.589, 1.60576, 1.58515, 1.58905, 1.58655, 1.58076, 1.58489, 1.60416, 1.5782, 1.58667, 1.58874, 1.58834, 1.57105, 1.58649, 1.57097, 1.57575, 1.57172, 1.58207, 1.58162, 1.57863, 1.56588, 1.55759, 1.55351, 1.55131, 1.55068, 1.5491, 1.5468, 1.54821, 1.54663, 1.54472, 1.54149, 1.5419, 1.54036, 1.53692, 1.53475, 1.53253, 1.5308, 1.52899, 1.52696, 1.52524, 1.5227, 1.52007, 1.51777, 1.5158, 1.52111, 1.52279, 1.51367, 1.51338, 1.51013, 1.51773, 1.50778, 1.51697, 1.50918, 1.5145, 1.51636, 1.511, 1.48289, 1.51417, 1.52463, 1.57914, 1.48726, 1.61463, 1.6417, 1.65898, 1.67218, 1.68725, 1.69017, 1.68772, 1.69756, 1.63729, 1.59006, 1.54796, 1.51021, 1.45863, 1.47057, 1.50602, 1.49549, 1.48593, 1.48431, 1.47903, 1.47087, 1.46839, 1.48244, 1.47027, 1.45825, 1.46468, 1.45919, 1.45576, 1.45487, 1.45361, 1.45133, 1.4507, 1.44878, 1.44819, 1.44942, 1.44528, 1.44746, 1.44419, 1.44516, 1.44465, 1.44352, 1.44138, 1.44184, 1.43784, 1.4372, 1.43593, 1.43301, 1.43444, 1.4336, 1.43629, 1.43552, 1.43501, 1.43198, 1.43209, 1.43106, 1.43017, 1.42774, 1.42623, 1.42816, 1.42631, 1.42335, 1.42572, 1.42204, 1.42346, 1.42408, 1.41892, 1.41671, 1.41519, 1.41316, 1.41359, 1.41132, 1.41028, 1.44523, 1.4083, 1.41707, 1.40845, 1.40359, 1.40127, 1.39955, 1.39835, 1.39851, 1.40181, 1.3983, 1.39215, 1.39122, 1.39267, 1.38771, 1.38906, 1.38943, 1.38946, 1.38823, 1.38731, 1.38581, 1.3848, 1.40372, 1.38604, 1.38355, 1.40624, 1.38589, 1.39214, 1.3917, 1.3656, 1.36338, 1.38623, 1.4261, 1.42432, 1.4463, 1.47307, 1.46116, 1.48123, 1.48196, 1.5055, 1.4889, 1.48851, 1.48086, 1.47935, 1.45918, 1.4195, 1.4159, 1.36078, 1.33358, 1.36406, 1.35744, 1.3576, 1.35692, 1.35084, 1.35158, 1.34985, 1.34882, 1.34895, 1.34863, 1.34825, 1.35103, 1.34162, 1.3442, 1.34278, 1.34837, 1.34204, 1.33843, 1.34003, 1.33725, 1.33648, 1.33507, 
1.68954, 1.68946, 1.69502, 1.68242, 1.68557, 1.67788, 1.68242, 1.67508, 1.67457, 1.71764, 1.67537, 1.69975, 1.6759, 1.6734, 1.69017, 1.67566, 1.67009, 1.67511, 1.66438, 1.66638, 1.66252, 1.66371, 1.64811, 1.62874, 1.64826, 1.68043, 1.68881, 1.71735, 1.71542, 1.74775, 1.78038, 1.8265, 1.84, 1.84906, 1.85003, 1.83178, 1.81582, 1.74464, 1.70586, 1.66326, 1.61274, 1.61126, 1.62046, 1.63028, 1.60992, 1.61644, 1.61375, 1.6161, 1.60905, 1.61072, 1.60365, 1.59939, 1.59373, 1.60057, 1.6006, 1.58698, 1.58702, 1.60324, 1.58823, 1.59031, 1.58795, 1.58517, 1.58254, 1.58575, 1.57461, 1.57421, 1.57265, 1.57164, 1.57283, 1.57286, 1.57492, 1.57647, 1.5812, 1.582, 1.57319, 1.58144, 1.58218, 1.56961, 1.56887, 1.56392, 1.56205, 1.56729, 1.55115, 1.54645, 1.54336, 1.54364, 1.54436, 1.54371, 1.54396, 1.54077, 1.54516, 1.55197, 1.53407, 1.53356, 1.53281, 1.52995, 1.52971, 1.52864, 1.53387, 1.53752, 1.52656, 1.52355, 1.52315, 1.53207, 1.52322, 1.53041, 1.53144, 1.53147, 1.53051, 1.51976, 1.52386, 1.5098, 1.50742, 1.56888, 1.60758, 1.6194, 1.63726, 1.6743, 1.6786, 1.67307, 1.66592, 1.64777, 1.64437, 1.63792, 1.50605, 1.51029, 1.48883, 1.4515, 1.47179, 1.48524, 1.49436, 1.48798, 1.48873, 1.48847, 1.49664, 1.49236, 1.49169, 1.47746, 1.48229, 1.47231, 1.48397, 1.47152, 1.47836, 1.47521, 1.48198, 1.46937, 1.46709, 1.46586, 1.46397, 1.46098, 1.45657, 1.47728, 1.44885, 1.4473, 1.44561, 1.45042, 1.44514, 1.44662, 1.46068, 1.45175, 1.44992, 1.4484, 1.44809, 1.44422, 1.46716, 1.44033, 1.43697, 1.43625, 1.45498, 1.43513, 1.43139, 1.43207, 1.43199, 1.43099, 1.43113, 1.42926, 1.43073, 1.42555, 1.42566, 1.4228, 1.45547, 1.42055, 1.41998, 1.41682, 1.41692, 1.41322, 1.41999, 1.41134, 1.42281, 1.41304, 1.40836, 1.43692, 1.40661, 1.4061, 1.41534, 1.41546, 1.40152, 1.4094, 1.39837, 1.39597, 1.39663, 1.39449, 1.39349, 1.39218, 1.39523, 1.39025, 1.39029, 1.39197, 1.39237, 1.39519, 1.39157, 1.40092, 1.4003, 1.39596, 1.41285, 1.36381, 1.3728, 1.43289, 1.45023, 1.46604, 1.48168, 1.50325, 1.51807, 1.52743, 1.49951, 1.52299, 1.52751, 1.55866, 1.52597, 1.49885, 1.48422, 1.44167, 1.40483, 1.36345, 1.35723, 1.37471, 1.37571, 1.37473, 1.36113, 1.36915, 1.35807, 1.3555, 1.35637, 1.35408, 1.35645, 1.36168, 1.354, 1.35229, 1.36115, 1.34744, 1.36072, 1.34631, 1.34267, 1.34116, 1.34209, 1.34804, 
1.6796, 1.68121, 1.67502, 1.67302, 1.67201, 1.67446, 1.674, 1.70079, 1.66869, 1.67659, 1.66777, 1.66808, 1.66153, 1.65885, 1.65514, 1.66903, 1.65103, 1.6479, 1.66453, 1.64879, 1.64975, 1.65116, 1.6569, 1.6436, 1.6134, 1.633, 1.68158, 1.69298, 1.74201, 1.76393, 1.79237, 1.80968, 1.82724, 1.85336, 1.85491, 1.8507, 1.80088, 1.75906, 1.71246, 1.62349, 1.58592, 1.60307, 1.61348, 1.62637, 1.61922, 1.61198, 1.61877, 1.60436, 1.60305, 1.60146, 1.59151, 1.59586, 1.58736, 1.5888, 1.58209, 1.58075, 1.59097, 1.59054, 1.57233, 1.56874, 1.56763, 1.5684, 1.56941, 1.57267, 1.57227, 1.57811, 1.57032, 1.56587, 1.56501, 1.57104, 1.55846, 1.56889, 1.56116, 1.56275, 1.5748, 1.55748, 1.56134, 1.55129, 1.57177, 1.5688, 1.56591, 1.55526, 1.55459, 1.55436, 1.54904, 1.54482, 1.53498, 1.53207, 1.53086, 1.52844, 1.52976, 1.5291, 1.52693, 1.52503, 1.52619, 1.52425, 1.52213, 1.52753, 1.5233, 1.52211, 1.51965, 1.51464, 1.51263, 1.51022, 1.50927, 1.51914, 1.52447, 1.51022, 1.51866, 1.52314, 1.49878, 1.49056, 1.51987, 1.55775, 1.57805, 1.6018, 1.60996, 1.63579, 1.63851, 1.64135, 1.6386, 1.63327, 1.62629, 1.60779, 1.57922, 1.53675, 1.51263, 1.49733, 1.47114, 1.47187, 1.48241, 1.47784, 1.48187, 1.47893, 1.49534, 1.49253, 1.49329, 1.49143, 1.48636, 1.46904, 1.47093, 1.45473, 1.45647, 1.45512, 1.45376, 1.45742, 1.44458, 1.44298, 1.44209, 1.44171, 1.44204, 1.44364, 1.44345, 1.44638, 1.44529, 1.44458, 1.44359, 1.44186, 1.44095, 1.43806, 1.4365, 1.43507, 1.43374, 1.43392, 1.43526, 1.4342, 1.43157, 1.42666, 1.4246, 1.42426, 1.42131, 1.42055, 1.42217, 1.42208, 1.42048, 1.41637, 1.41367, 1.41211, 1.41211, 1.40752, 1.40772, 1.40478, 1.40219, 1.40218, 1.40242, 1.40233, 1.40329, 1.40034, 1.39787, 1.3951, 1.39492, 1.39262, 1.39306, 1.39364, 1.39347, 1.39032, 1.39006, 1.38974, 1.38824, 1.39169, 1.39031, 1.391, 1.39019, 1.38658, 1.38516, 1.38447, 1.40028, 1.38302, 1.38123, 1.38529, 1.39595, 1.39186, 1.386, 1.3889, 1.38271, 1.37173, 1.38189, 1.39927, 1.44101, 1.47226, 1.4594, 1.47259, 1.50309, 1.50339, 1.5223, 1.52979, 1.53623, 1.5281, 1.51778, 1.50702, 1.46872, 1.45855, 1.41954, 1.34381, 1.33408, 1.35656, 1.35766, 1.37052, 1.36829, 1.35695, 1.35364, 1.34697, 1.34647, 1.34544, 1.34214, 1.34213, 1.33917, 1.33934, 1.34006, 1.33806, 1.3619, 1.3398, 1.33794, 1.34245, 1.33553, 1.34062, 
1.66752, 1.66722, 1.67511, 1.66085, 1.66071, 1.66677, 1.65745, 1.65668, 1.65453, 1.65377, 1.65837, 1.65002, 1.64525, 1.66104, 1.64073, 1.64114, 1.64134, 1.63373, 1.6301, 1.62775, 1.63368, 1.63412, 1.64472, 1.61281, 1.59893, 1.60064, 1.60561, 1.64565, 1.63641, 1.7264, 1.74185, 1.7974, 1.82522, 1.90367, 1.86933, 1.87966, 1.84965, 1.78569, 1.739, 1.65614, 1.62061, 1.5623, 1.60365, 1.60252, 1.59748, 1.59299, 1.60578, 1.59919, 1.58709, 1.58597, 1.58233, 1.57969, 1.57834, 1.57874, 1.57521, 1.57305, 1.57178, 1.57013, 1.56811, 1.56718, 1.56661, 1.56662, 1.56483, 1.56311, 1.56115, 1.56022, 1.55724, 1.55533, 1.55316, 1.54985, 1.54887, 1.54584, 1.54385, 1.54382, 1.5407, 1.53799, 1.5363, 1.5339, 1.53133, 1.53676, 1.53347, 1.54794, 1.54525, 1.53346, 1.55151, 1.54368, 1.52407, 1.53029, 1.52149, 1.53042, 1.5189, 1.51738, 1.51601, 1.51691, 1.51431, 1.53604, 1.51417, 1.51228, 1.51699, 1.50571, 1.5031, 1.5018, 1.50378, 1.5032, 1.50223, 1.50015, 1.50109, 1.51667, 1.51613, 1.50958, 1.49082, 1.47291, 1.49906, 1.49565, 1.55147, 1.57949, 1.58788, 1.62254, 1.66958, 1.64509, 1.63109, 1.61336, 1.60932, 1.59774, 1.60328, 1.56057, 1.50907, 1.47294, 1.45482, 1.44054, 1.47555, 1.46736, 1.47443, 1.46418, 1.46646, 1.46573, 1.46218, 1.47869, 1.4809, 1.47951, 1.47286, 1.45901, 1.44098, 1.44149, 1.44763, 1.4424, 1.43798, 1.43441, 1.4452, 1.43427, 1.43141, 1.42976, 1.42892, 1.42684, 1.42317, 1.42258, 1.42155, 1.41918, 1.4173, 1.41653, 1.41547, 1.41576, 1.41378, 1.41241, 1.40924, 1.40912, 1.40832, 1.40782, 1.40553, 1.40492, 1.40238, 1.40201, 1.39952, 1.39877, 1.39776, 1.39672, 1.3988, 1.39693, 1.39508, 1.395, 1.3953, 1.396, 1.39142, 1.39061, 1.38917, 1.38778, 1.38642, 1.38464, 1.38397, 1.38188, 1.37973, 1.37928, 1.37732, 1.37799, 1.37436, 1.37305, 1.37411, 1.37283, 1.37143, 1.36899, 1.36939, 1.36645, 1.36772, 1.36813, 1.36386, 1.36075, 1.36154, 1.36122, 1.35907, 1.3574, 1.35825, 1.36047, 1.36482, 1.36193, 1.35409, 1.35205, 1.35834, 1.38146, 1.39211, 1.39925, 1.48768, 1.49598, 1.51708, 1.53554, 1.55042, 1.56058, 1.55856, 1.55151, 1.53502, 1.52179, 1.4933, 1.45902, 1.41444, 1.31148, 1.30542, 1.35441, 1.34642, 1.34313, 1.33797, 1.33268, 1.33729, 1.32803, 1.32761, 1.32822, 1.32427, 1.32505, 1.32167, 1.32352, 1.32099, 1.32045, 1.31904, 1.3179, 1.31812, 1.31899, 1.31824, 1.31612, 
1.67213, 1.67113, 1.66816, 1.67, 1.66544, 1.66528, 1.67555, 1.65973, 1.65849, 1.65757, 1.6552, 1.65356, 1.65611, 1.65103, 1.6588, 1.64402, 1.64045, 1.63774, 1.63764, 1.63813, 1.6381, 1.64671, 1.63389, 1.64198, 1.61787, 1.60839, 1.61026, 1.63355, 1.67296, 1.6989, 1.74476, 1.77561, 1.83569, 1.88399, 1.87918, 1.89355, 1.88224, 1.88646, 1.75502, 1.67542, 1.61688, 1.57256, 1.58519, 1.61059, 1.61325, 1.60609, 1.60484, 1.60384, 1.59927, 1.59231, 1.60007, 1.58247, 1.57975, 1.59549, 1.58252, 1.5837, 1.56833, 1.59327, 1.56907, 1.56627, 1.56367, 1.56338, 1.56236, 1.56047, 1.55894, 1.55975, 1.55552, 1.55659, 1.55449, 1.55326, 1.55306, 1.55094, 1.54807, 1.54663, 1.5447, 1.54232, 1.54376, 1.53801, 1.53736, 1.53613, 1.53373, 1.53284, 1.531, 1.52807, 1.5325, 1.53316, 1.5438, 1.54483, 1.54256, 1.53846, 1.53024, 1.52115, 1.51601, 1.51375, 1.51277, 1.52271, 1.50767, 1.51464, 1.51368, 1.5036, 1.50251, 1.50081, 1.50176, 1.50883, 1.5137, 1.50742, 1.49878, 1.49904, 1.50835, 1.50768, 1.49835, 1.48604, 1.50293, 1.48116, 1.49407, 1.50711, 1.5476, 1.56932, 1.59584, 1.60892, 1.60964, 1.61171, 1.65111, 1.59548, 1.57835, 1.54016, 1.53303, 1.5272, 1.46735, 1.45228, 1.47529, 1.4717, 1.47213, 1.47337, 1.47221, 1.45142, 1.45018, 1.44956, 1.44872, 1.45751, 1.44913, 1.4496, 1.46726, 1.4702, 1.46149, 1.4477, 1.45075, 1.4378, 1.43687, 1.44501, 1.43363, 1.43126, 1.4306, 1.4293, 1.42957, 1.42624, 1.42723, 1.42607, 1.42392, 1.42445, 1.42256, 1.42138, 1.41792, 1.41755, 1.41683, 1.41563, 1.41411, 1.41289, 1.41101, 1.41, 1.40881, 1.40876, 1.40716, 1.40593, 1.40521, 1.40255, 1.40164, 1.40047, 1.39883, 1.39787, 1.39647, 1.39489, 1.39795, 1.39252, 1.39135, 1.3894, 1.38893, 1.3874, 1.38593, 1.38558, 1.38503, 1.38254, 1.38415, 1.3797, 1.37948, 1.3786, 1.37665, 1.37788, 1.37655, 1.37514, 1.38511, 1.37513, 1.38323, 1.38463, 1.37169, 1.37137, 1.38151, 1.36944, 1.38207, 1.37532, 1.36851, 1.36586, 1.37278, 1.37749, 1.3777, 1.36572, 1.34377, 1.36073, 1.41231, 1.43065, 1.42807, 1.45319, 1.49946, 1.50665, 1.5381, 1.58916, 1.57445, 1.58058, 1.57199, 1.54869, 1.51404, 1.46788, 1.42785, 1.3678, 1.33041, 1.34464, 1.34817, 1.34687, 1.35924, 1.34263, 1.36016, 1.35337, 1.34277, 1.33595, 1.3372, 1.33261, 1.3513, 1.33085, 1.33198, 1.32996, 1.32698, 1.32791, 1.32585, 1.32631, 1.3228, 1.32019, 
1.67167, 1.66742, 1.66542, 1.66424, 1.66124, 1.66027, 1.65704, 1.65337, 1.65396, 1.65064, 1.64889, 1.64751, 1.64535, 1.64547, 1.65821, 1.64041, 1.63896, 1.65321, 1.65822, 1.64773, 1.65027, 1.63449, 1.63609, 1.64289, 1.63236, 1.6088, 1.61178, 1.62031, 1.66561, 1.72317, 1.76878, 1.80366, 1.79438, 1.92063, 1.93178, 2.01084, 2.06309, 1.9762, 1.76126, 1.68953, 1.58255, 1.58241, 1.59531, 1.61354, 1.60044, 1.60023, 1.59175, 1.59029, 1.58896, 1.58533, 1.5841, 1.58187, 1.57989, 1.57802, 1.57495, 1.57459, 1.57134, 1.56843, 1.56681, 1.56505, 1.56295, 1.56166, 1.5626, 1.55959, 1.55755, 1.55639, 1.55689, 1.55599, 1.5543, 1.55226, 1.55077, 1.54856, 1.5475, 1.54833, 1.54632, 1.54402, 1.54722, 1.5375, 1.53564, 1.53599, 1.53323, 1.53093, 1.52874, 1.52938, 1.53331, 1.5251, 1.52886, 1.52516, 1.52786, 1.5222, 1.53301, 1.54214, 1.54467, 1.53983, 1.52798, 1.51627, 1.52277, 1.51232, 1.52025, 1.51234, 1.51209, 1.50805, 1.50508, 1.50288, 1.50084, 1.49884, 1.49821, 1.50565, 1.49841, 1.49926, 1.49597, 1.47184, 1.47884, 1.48221, 1.56878, 1.5315, 1.56082, 1.57673, 1.57863, 1.57571, 1.57463, 1.57596, 1.57977, 1.56832, 1.54508, 1.52936, 1.51851, 1.48833, 1.47855, 1.47035, 1.43631, 1.46175, 1.47567, 1.46632, 1.46575, 1.46133, 1.47143, 1.45447, 1.45294, 1.45122, 1.44929, 1.44765, 1.44682, 1.4449, 1.44351, 1.45625, 1.45709, 1.4485, 1.45205, 1.43345, 1.43735, 1.43158, 1.43058, 1.43675, 1.42522, 1.42391, 1.42417, 1.4242, 1.42438, 1.42635, 1.42342, 1.42267, 1.421, 1.4198, 1.41805, 1.4177, 1.41641, 1.41557, 1.41505, 1.41452, 1.41218, 1.41035, 1.40823, 1.4076, 1.40615, 1.40383, 1.40348, 1.4029, 1.40048, 1.40088, 1.40095, 1.39963, 1.39819, 1.39642, 1.39357, 1.39191, 1.39474, 1.38853, 1.38611, 1.38335, 1.38266, 1.38026, 1.37655, 1.37435, 1.3737, 1.37038, 1.37008, 1.36897, 1.36781, 1.36768, 1.36875, 1.36818, 1.36826, 1.36793, 1.36925, 1.36913, 1.37078, 1.37785, 1.36323, 1.36509, 1.36213, 1.36164, 1.36689, 1.36417, 1.36721, 1.36891, 1.37766, 1.34174, 1.34716, 1.39942, 1.41017, 1.48089, 1.47065, 1.52395, 1.56433, 1.60839, 1.63088, 1.62625, 1.63612, 1.59066, 1.52412, 1.48942, 1.39954, 1.36905, 1.32954, 1.32793, 1.36829, 1.3477, 1.33992, 1.33286, 1.33409, 1.33731, 1.33832, 1.33207, 1.33077, 1.33991, 1.33032, 1.32995, 1.3307, 1.33091, 1.32943, 1.32879, 1.32962, 1.32895, 1.32375, 1.32234, 
1.70929, 1.66836, 1.66244, 1.66121, 1.65535, 1.65226, 1.65195, 1.64804, 1.64575, 1.64531, 1.64623, 1.64388, 1.64304, 1.64859, 1.64022, 1.6393, 1.64107, 1.63727, 1.63703, 1.63624, 1.64497, 1.63105, 1.63069, 1.63665, 1.62969, 1.63099, 1.61745, 1.60051, 1.63313, 1.70928, 1.6969, 1.74715, 1.78318, 1.82311, 1.86179, 1.92927, 1.94852, 1.79368, 1.77128, 1.65829, 1.58838, 1.56931, 1.57509, 1.5923, 1.60182, 1.59745, 1.59306, 1.59368, 1.5896, 1.57908, 1.57882, 1.57673, 1.58185, 1.57389, 1.57122, 1.57091, 1.56905, 1.56774, 1.5677, 1.56529, 1.56515, 1.5625, 1.56131, 1.55993, 1.55778, 1.55692, 1.55515, 1.55477, 1.55204, 1.55197, 1.54956, 1.54777, 1.54659, 1.54506, 1.54358, 1.54108, 1.53987, 1.53972, 1.53716, 1.53666, 1.53265, 1.53024, 1.52909, 1.52553, 1.52345, 1.52287, 1.52263, 1.52008, 1.52354, 1.51649, 1.51461, 1.51312, 1.51974, 1.51329, 1.50686, 1.52788, 1.53451, 1.52737, 1.5269, 1.52049, 1.51612, 1.51074, 1.50354, 1.51295, 1.50002, 1.49406, 1.49518, 1.50031, 1.49975, 1.50702, 1.50223, 1.48041, 1.48875, 1.48655, 1.51976, 1.5336, 1.56072, 1.57277, 1.57356, 1.57432, 1.54371, 1.55597, 1.54958, 1.54769, 1.54851, 1.53791, 1.53137, 1.5061, 1.4781, 1.43618, 1.44164, 1.47508, 1.46535, 1.47461, 1.46018, 1.45702, 1.45504, 1.47184, 1.46426, 1.45385, 1.45274, 1.45398, 1.45199, 1.44996, 1.45268, 1.45458, 1.44423, 1.44623, 1.44828, 1.45895, 1.44424, 1.42759, 1.44086, 1.43745, 1.43646, 1.43283, 1.42135, 1.41978, 1.41907, 1.41938, 1.41792, 1.41685, 1.41535, 1.41437, 1.41218, 1.41273, 1.41332, 1.4089, 1.40704, 1.40543, 1.41359, 1.40293, 1.40243, 1.40167, 1.40209, 1.40189, 1.40269, 1.39927, 1.39902, 1.39816, 1.39658, 1.39571, 1.39464, 1.39321, 1.39168, 1.38923, 1.38792, 1.38762, 1.38558, 1.38519, 1.38449, 1.38314, 1.3827, 1.38136, 1.38208, 1.38165, 1.38105, 1.38046, 1.386, 1.37865, 1.37741, 1.3774, 1.37737, 1.37397, 1.37439, 1.37198, 1.37011, 1.36907, 1.36908, 1.36837, 1.36703, 1.36491, 1.38178, 1.38154, 1.38705, 1.37534, 1.37834, 1.36386, 1.3496, 1.36454, 1.39861, 1.43745, 1.47259, 1.51371, 1.54882, 1.6322, 1.60703, 1.61699, 1.61855, 1.60669, 1.54747, 1.50374, 1.43049, 1.35023, 1.31001, 1.34106, 1.34146, 1.35098, 1.34442, 1.34216, 1.356, 1.33353, 1.33299, 1.34589, 1.34576, 1.33163, 1.33023, 1.32883, 1.32787, 1.32641, 1.32488, 1.32494, 1.32327, 1.3231, 1.32036, 1.32067, 
1.66448, 1.66286, 1.66158, 1.65737, 1.65689, 1.65649, 1.6551, 1.65405, 1.65427, 1.65238, 1.65059, 1.65044, 1.65826, 1.6453, 1.64307, 1.64192, 1.64358, 1.63652, 1.63554, 1.63297, 1.65104, 1.63822, 1.63457, 1.62507, 1.63628, 1.62398, 1.62446, 1.61319, 1.61668, 1.66924, 1.69687, 1.71027, 1.74725, 1.76307, 1.80916, 1.85062, 1.92509, 1.95904, 1.81922, 1.72751, 1.6294, 1.56885, 1.58945, 1.62113, 1.6035, 1.59781, 1.60183, 1.59676, 1.59127, 1.58521, 1.5888, 1.58693, 1.58228, 1.5806, 1.57964, 1.57589, 1.57279, 1.57158, 1.56884, 1.56579, 1.56804, 1.55928, 1.55878, 1.56568, 1.55445, 1.55212, 1.5506, 1.54903, 1.5471, 1.54603, 1.54373, 1.54043, 1.53906, 1.53802, 1.53626, 1.53381, 1.53625, 1.52878, 1.52903, 1.5262, 1.52555, 1.52524, 1.5246, 1.52327, 1.52231, 1.52021, 1.51966, 1.51856, 1.5172, 1.5154, 1.5151, 1.51335, 1.51241, 1.5118, 1.51608, 1.51621, 1.5213, 1.51293, 1.5217, 1.51779, 1.5335, 1.54817, 1.52697, 1.53202, 1.55498, 1.52664, 1.49754, 1.49586, 1.48901, 1.51303, 1.4973, 1.49975, 1.47833, 1.46975, 1.48149, 1.5238, 1.55488, 1.55606, 1.55882, 1.55357, 1.54515, 1.5486, 1.52636, 1.51542, 1.53634, 1.58087, 1.58212, 1.53078, 1.51375, 1.48477, 1.47714, 1.47486, 1.47613, 1.48255, 1.46506, 1.4893, 1.47406, 1.47497, 1.47176, 1.44595, 1.45772, 1.45722, 1.45601, 1.4483, 1.44742, 1.44508, 1.44747, 1.44172, 1.43826, 1.43959, 1.43369, 1.43174, 1.43092, 1.42836, 1.42691, 1.42648, 1.42425, 1.42376, 1.42327, 1.42149, 1.42116, 1.41872, 1.4162, 1.41563, 1.41503, 1.4136, 1.413, 1.41048, 1.40941, 1.40707, 1.40639, 1.42, 1.40217, 1.40093, 1.40007, 1.40029, 1.3985, 1.39681, 1.39596, 1.41034, 1.39315, 1.39529, 1.39188, 1.39148, 1.39024, 1.38894, 1.38855, 1.38801, 1.38821, 1.38671, 1.38494, 1.3825, 1.38184, 1.3814, 1.38009, 1.41573, 1.37585, 1.37572, 1.37475, 1.3737, 1.37239, 1.37047, 1.3676, 1.36838, 1.36638, 1.36623, 1.36467, 1.36402, 1.36146, 1.36946, 1.35964, 1.35602, 1.35684, 1.35543, 1.35623, 1.37149, 1.36138, 1.37194, 1.35042, 1.36173, 1.39883, 1.41322, 1.45479, 1.51308, 1.54837, 1.56821, 1.62837, 1.63998, 1.64627, 1.68005, 1.56495, 1.4888, 1.36797, 1.32699, 1.3164, 1.34499, 1.34102, 1.34146, 1.33684, 1.33529, 1.33317, 1.33027, 1.33234, 1.33012, 1.33033, 1.32998, 1.32647, 1.32557, 1.3265, 1.32493, 1.32263, 1.3226, 1.3211, 1.31884, 1.3197, 1.31848, 
1.65848, 1.65529, 1.65389, 1.65134, 1.65047, 1.64895, 1.64699, 1.64865, 1.64688, 1.64232, 1.64138, 1.63798, 1.63869, 1.63896, 1.64316, 1.64436, 1.63383, 1.63152, 1.63128, 1.63009, 1.62789, 1.62545, 1.62516, 1.62102, 1.62137, 1.62078, 1.62086, 1.62105, 1.58976, 1.64489, 1.66202, 1.70979, 1.74412, 1.7997, 1.8447, 1.90734, 2.01822, 2.00961, 1.8622, 1.73434, 1.59823, 1.55544, 1.54977, 1.56451, 1.59562, 1.62873, 1.66749, 1.67222, 1.62727, 1.61658, 1.61752, 1.60602, 1.61312, 1.60959, 1.60697, 1.58564, 1.58811, 1.57569, 1.5725, 1.5708, 1.56122, 1.55572, 1.55279, 1.55045, 1.55797, 1.54881, 1.56458, 1.54637, 1.54458, 1.54335, 1.54083, 1.54069, 1.53922, 1.53782, 1.53596, 1.53579, 1.53274, 1.53854, 1.52952, 1.52805, 1.52622, 1.52367, 1.52286, 1.51974, 1.51696, 1.51691, 1.51481, 1.51469, 1.51241, 1.50948, 1.5098, 1.50908, 1.50904, 1.53308, 1.5059, 1.50329, 1.50089, 1.49972, 1.49588, 1.49458, 1.49421, 1.49212, 1.49154, 1.4904, 1.48908, 1.48973, 1.48983, 1.49664, 1.50436, 1.49381, 1.49815, 1.49312, 1.48324, 1.49681, 1.52621, 1.5299, 1.54364, 1.54342, 1.5478, 1.5163, 1.54448, 1.51687, 1.36525, 1.36384, 1.51107, 1.51339, 1.52745, 1.53126, 1.50923, 1.50856, 1.46104, 1.46029, 1.46694, 1.46418, 1.48162, 1.46484, 1.45441, 1.45087, 1.44871, 1.44642, 1.4463, 1.44343, 1.44105, 1.43851, 1.4442, 1.43403, 1.43344, 1.4332, 1.43038, 1.42969, 1.42661, 1.42623, 1.42394, 1.42388, 1.42336, 1.42254, 1.42312, 1.42159, 1.42262, 1.4204, 1.42011, 1.41724, 1.41571, 1.4156, 1.41274, 1.41253, 1.40843, 1.40746, 1.40849, 1.40821, 1.40664, 1.40496, 1.40241, 1.40141, 1.40104, 1.39853, 1.3982, 1.39653, 1.39564, 1.39606, 1.39381, 1.39253, 1.39194, 1.38811, 1.38784, 1.38572, 1.38396, 1.38602, 1.38118, 1.37989, 1.37739, 1.377, 1.37628, 1.37805, 1.37618, 1.37609, 1.37504, 1.37413, 1.36944, 1.3673, 1.36699, 1.36682, 1.36832, 1.36803, 1.36601, 1.36097, 1.36057, 1.36057, 1.35742, 1.37799, 1.35779, 1.35819, 1.3573, 1.35666, 1.35474, 1.35694, 1.37145, 1.36077, 1.36056, 1.33355, 1.35108, 1.39659, 1.42489, 1.43855, 1.48952, 1.52021, 1.55183, 1.5925, 1.65203, 1.61474, 1.53589, 1.49212, 1.46799, 1.40013, 1.30674, 1.32997, 1.35146, 1.34712, 1.34141, 1.3433, 1.33131, 1.33217, 1.33038, 1.33683, 1.3286, 1.32717, 1.32704, 1.3262, 1.32464, 1.32436, 1.32306, 1.32344, 1.32116, 1.32, 1.32334, 1.32141, 
1.6442, 1.64224, 1.64025, 1.6399, 1.63851, 1.63667, 1.63878, 1.63643, 1.63447, 1.63364, 1.63313, 1.63328, 1.63098, 1.62763, 1.62713, 1.62519, 1.62263, 1.62128, 1.61945, 1.61809, 1.62416, 1.61365, 1.61174, 1.61085, 1.60983, 1.61046, 1.62315, 1.60754, 1.59881, 1.58809, 1.61409, 1.66997, 1.71765, 1.77139, 1.81988, 1.85092, 1.92024, 2.08674, 1.91673, 1.72844, 1.64708, 1.56854, 1.56118, 1.5818, 1.57812, 1.57864, 1.57652, 1.58476, 1.57489, 1.57584, 1.57562, 1.57677, 1.57246, 1.58228, 1.56588, 1.56208, 1.56178, 1.56422, 1.55546, 1.55221, 1.55084, 1.54817, 1.54497, 1.54373, 1.54065, 1.55181, 1.53926, 1.53776, 1.53539, 1.53496, 1.53052, 1.52898, 1.52695, 1.52665, 1.52415, 1.52248, 1.52072, 1.51925, 1.51771, 1.51602, 1.51508, 1.51327, 1.51254, 1.51287, 1.51123, 1.50939, 1.5077, 1.50661, 1.50372, 1.50196, 1.49858, 1.49762, 1.49383, 1.49089, 1.48962, 1.4878, 1.48709, 1.48545, 1.48502, 1.48703, 1.48352, 1.489, 1.48209, 1.48164, 1.4804, 1.47937, 1.47918, 1.47882, 1.47876, 1.48241, 1.48946, 1.48474, 1.48106, 1.48672, 1.50405, 1.52324, 1.54408, 1.53119, 1.53091, 1.52337, 1.5124, 1.50783, 1.48518, 1.49853, 1.49869, 1.53715, 1.51386, 1.51351, 1.4956, 1.49015, 1.46797, 1.4681, 1.44936, 1.45807, 1.45906, 1.45144, 1.44884, 1.44514, 1.44253, 1.43968, 1.43756, 1.43509, 1.43353, 1.43074, 1.43098, 1.4274, 1.42585, 1.42355, 1.42343, 1.42247, 1.41978, 1.41937, 1.41792, 1.41651, 1.4142, 1.41276, 1.41588, 1.40895, 1.40875, 1.40655, 1.40471, 1.40382, 1.40269, 1.40166, 1.39809, 1.39736, 1.39581, 1.39532, 1.39344, 1.39224, 1.39238, 1.38959, 1.38916, 1.3892, 1.38841, 1.38868, 1.38931, 1.38963, 1.38987, 1.38856, 1.38772, 1.38748, 1.38673, 1.3849, 1.38403, 1.38206, 1.38062, 1.37709, 1.39856, 1.37246, 1.36971, 1.3681, 1.36634, 1.36533, 1.36434, 1.36311, 1.36287, 1.36365, 1.36373, 1.3636, 1.36248, 1.36077, 1.35981, 1.35693, 1.35687, 1.37462, 1.35706, 1.35455, 1.35545, 1.35371, 1.35225, 1.35856, 1.35091, 1.35073, 1.34757, 1.34743, 1.34761, 1.35381, 1.36796, 1.35835, 1.33359, 1.35805, 1.41757, 1.4314, 1.50287, 1.55092, 1.5882, 1.61376, 1.70106, 1.73294, 1.654, 1.45583, 1.46592, 1.37856, 1.2969, 1.31194, 1.32687, 1.34121, 1.32723, 1.32724, 1.32867, 1.3226, 1.32266, 1.32086, 1.32127, 1.32014, 1.31963, 1.32014, 1.31708, 1.3188, 1.31611, 1.31579, 1.31367, 1.31287, 1.31206, 1.31249, 
1.63806, 1.63534, 1.6325, 1.63101, 1.62899, 1.63017, 1.62703, 1.62626, 1.62413, 1.62394, 1.62364, 1.61987, 1.61945, 1.61413, 1.61439, 1.61429, 1.61069, 1.60928, 1.61376, 1.60606, 1.60486, 1.60304, 1.60222, 1.59857, 1.59708, 1.59446, 1.60247, 1.59439, 1.60617, 1.58246, 1.58214, 1.6453, 1.70379, 1.73074, 1.79319, 1.85148, 1.87607, 2.1548, 2.1756, 1.83808, 1.66934, 1.55555, 1.56724, 1.57242, 1.57882, 1.5735, 1.56953, 1.56853, 1.56706, 1.57231, 1.56838, 1.56062, 1.55745, 1.55618, 1.56451, 1.55027, 1.54795, 1.5453, 1.54137, 1.53866, 1.54378, 1.53315, 1.54224, 1.53713, 1.53074, 1.53113, 1.53138, 1.5297, 1.52868, 1.52791, 1.52643, 1.52632, 1.52469, 1.52353, 1.52101, 1.51992, 1.51728, 1.51497, 1.51071, 1.5089, 1.50652, 1.50626, 1.50544, 1.50473, 1.50306, 1.50121, 1.5002, 1.49689, 1.49554, 1.49387, 1.49223, 1.4898, 1.48916, 1.488, 1.48617, 1.48509, 1.48429, 1.47913, 1.47821, 1.47882, 1.47883, 1.47885, 1.47773, 1.47527, 1.47642, 1.47425, 1.47442, 1.47381, 1.47294, 1.4748, 1.47586, 1.47674, 1.47879, 1.49832, 1.49583, 1.49914, 1.50649, 1.49541, 1.49447, 1.49243, 1.49221, 1.50197, 1.47617, 1.49161, 1.49541, 1.47822, 1.48535, 1.50231, 1.48506, 1.4791, 1.4661, 1.45452, 1.43964, 1.43841, 1.4384, 1.43581, 1.43397, 1.42979, 1.42927, 1.42348, 1.42139, 1.43061, 1.4265, 1.42084, 1.41834, 1.41583, 1.41553, 1.41954, 1.41709, 1.41612, 1.41889, 1.41361, 1.41209, 1.41143, 1.40839, 1.40657, 1.40516, 1.40984, 1.4037, 1.40239, 1.39922, 1.39836, 1.39789, 1.39671, 1.39521, 1.39345, 1.39578, 1.39018, 1.38924, 1.3887, 1.38775, 1.38513, 1.3827, 1.38249, 1.3808, 1.37934, 1.37632, 1.37539, 1.37493, 1.37064, 1.36958, 1.36865, 1.36627, 1.36385, 1.3635, 1.36151, 1.36003, 1.35842, 1.35857, 1.35847, 1.36005, 1.35469, 1.35403, 1.35545, 1.356, 1.35331, 1.35521, 1.35542, 1.35454, 1.35418, 1.35568, 1.35447, 1.35088, 1.35029, 1.34869, 1.34968, 1.34976, 1.34679, 1.34649, 1.34089, 1.34791, 1.34169, 1.34262, 1.34052, 1.34006, 1.34291, 1.33939, 1.33804, 1.347, 1.35811, 1.34515, 1.34367, 1.35177, 1.38462, 1.41007, 1.5089, 1.56223, 1.5949, 1.69874, 1.71036, 1.70713, 1.58827, 1.45503, 1.34306, 1.3004, 1.30639, 1.31532, 1.33559, 1.3275, 1.31184, 1.31306, 1.31652, 1.31254, 1.31899, 1.31354, 1.31293, 1.31321, 1.31366, 1.31248, 1.31056, 1.306, 1.30478, 1.30307, 1.30277, 1.30289, 1.30014, 
1.63217, 1.63267, 1.63755, 1.62656, 1.62839, 1.62206, 1.62404, 1.61989, 1.61721, 1.61505, 1.6148, 1.61141, 1.60928, 1.60705, 1.6039, 1.62962, 1.60054, 1.60022, 1.60249, 1.5992, 1.5996, 1.60555, 1.61234, 1.59587, 1.61659, 1.59842, 1.60102, 1.5935, 1.59217, 1.59188, 1.59431, 1.58825, 1.63076, 1.6769, 1.79043, 1.84818, 1.93951, 2.00061, 1.93568, 1.80582, 1.71503, 1.55788, 1.53864, 1.56826, 1.57139, 1.56455, 1.56148, 1.55794, 1.5606, 1.56523, 1.5527, 1.55076, 1.55838, 1.54849, 1.55666, 1.55131, 1.54865, 1.54032, 1.54941, 1.53652, 1.53405, 1.53375, 1.53815, 1.52673, 1.52345, 1.52152, 1.51982, 1.51844, 1.51698, 1.51664, 1.51488, 1.51522, 1.51322, 1.51226, 1.51112, 1.51024, 1.50803, 1.5159, 1.50565, 1.50521, 1.50235, 1.50166, 1.49909, 1.49663, 1.49555, 1.49281, 1.49178, 1.49, 1.48888, 1.48639, 1.48547, 1.48369, 1.48148, 1.48014, 1.48922, 1.48225, 1.47437, 1.48544, 1.47201, 1.4697, 1.46887, 1.46785, 1.46788, 1.46564, 1.47074, 1.46348, 1.46353, 1.47163, 1.47157, 1.47401, 1.47565, 1.46764, 1.47531, 1.47596, 1.4801, 1.46836, 1.47267, 1.48789, 1.51019, 1.49969, 1.48845, 1.4992, 1.47309, 1.47083, 1.4589, 1.47845, 1.47169, 1.49812, 1.47477, 1.4698, 1.47312, 1.46136, 1.45743, 1.44057, 1.43976, 1.43825, 1.44376, 1.43061, 1.41921, 1.41931, 1.41307, 1.40946, 1.41077, 1.40951, 1.40752, 1.4062, 1.40495, 1.40718, 1.4166, 1.404, 1.40422, 1.41624, 1.40188, 1.40113, 1.4008, 1.40019, 1.39769, 1.39707, 1.39224, 1.39269, 1.39114, 1.38921, 1.38691, 1.38799, 1.3829, 1.38207, 1.3792, 1.37808, 1.37808, 1.37688, 1.3774, 1.37547, 1.37455, 1.37349, 1.37462, 1.37057, 1.37029, 1.36854, 1.36997, 1.36834, 1.36793, 1.36711, 1.36584, 1.36519, 1.36334, 1.37377, 1.36378, 1.36304, 1.36107, 1.36148, 1.35933, 1.35747, 1.35696, 1.35686, 1.35212, 1.35375, 1.35084, 1.35134, 1.35103, 1.35184, 1.34809, 1.34818, 1.3462, 1.34472, 1.34397, 1.34999, 1.34627, 1.34282, 1.33991, 1.34039, 1.3429, 1.34041, 1.34065, 1.3534, 1.33926, 1.33854, 1.34519, 1.33934, 1.34983, 1.34004, 1.34644, 1.33737, 1.3244, 1.31624, 1.40973, 1.45914, 1.47982, 1.59038, 1.71779, 1.73295, 1.7212, 1.68157, 1.48817, 1.37357, 1.32068, 1.30662, 1.32512, 1.32141, 1.31707, 1.31357, 1.31371, 1.30956, 1.30959, 1.30863, 1.30731, 1.30921, 1.30545, 1.30685, 1.30865, 1.3272, 1.30279, 1.3031, 1.3093, 1.30473, 1.30064, 1.32045, 
1.61908, 1.61976, 1.61728, 1.617, 1.61988, 1.61954, 1.6153, 1.61502, 1.61198, 1.61602, 1.60612, 1.60499, 1.61402, 1.6002, 1.6137, 1.59723, 1.59623, 1.60646, 1.58897, 1.61099, 1.58605, 1.58653, 1.58586, 1.5859, 1.58549, 1.58348, 1.58409, 1.58349, 1.58957, 1.58356, 1.58937, 1.54577, 1.57819, 1.60587, 1.64897, 1.73797, 1.84864, 1.95972, 1.76535, 1.74026, 1.64018, 1.59529, 1.51911, 1.55444, 1.5685, 1.55729, 1.55451, 1.55402, 1.55218, 1.55367, 1.55036, 1.535, 1.54079, 1.53044, 1.53205, 1.55135, 1.53029, 1.53038, 1.52705, 1.52774, 1.52598, 1.55825, 1.54405, 1.54025, 1.51772, 1.51465, 1.51221, 1.5113, 1.5103, 1.50912, 1.50845, 1.50742, 1.50367, 1.50098, 1.50006, 1.49917, 1.50527, 1.49674, 1.49622, 1.49539, 1.49252, 1.49172, 1.49099, 1.48844, 1.48656, 1.4842, 1.48415, 1.49642, 1.47983, 1.4781, 1.48153, 1.4731, 1.47147, 1.47156, 1.46696, 1.46415, 1.46159, 1.46168, 1.4608, 1.46118, 1.46093, 1.46013, 1.45739, 1.455, 1.45526, 1.45474, 1.45372, 1.44853, 1.45525, 1.45805, 1.45136, 1.45343, 1.46557, 1.4587, 1.46351, 1.47489, 1.47198, 1.46212, 1.46534, 1.47567, 1.47273, 1.47879, 1.46446, 1.47182, 1.46227, 1.45855, 1.46079, 1.45489, 1.45744, 1.46423, 1.44477, 1.44502, 1.43503, 1.43089, 1.43339, 1.44438, 1.42459, 1.42757, 1.43041, 1.41577, 1.41374, 1.41051, 1.4089, 1.4047, 1.41167, 1.40096, 1.39756, 1.39661, 1.40564, 1.39681, 1.41061, 1.39259, 1.39471, 1.38929, 1.38845, 1.38803, 1.38692, 1.3853, 1.38648, 1.38425, 1.38459, 1.38173, 1.37779, 1.37477, 1.37317, 1.37219, 1.37374, 1.38034, 1.37052, 1.3714, 1.37007, 1.36833, 1.37017, 1.36805, 1.37051, 1.36447, 1.3641, 1.36397, 1.36227, 1.36056, 1.35633, 1.35695, 1.35488, 1.35496, 1.35195, 1.35407, 1.35269, 1.34693, 1.34869, 1.34442, 1.34377, 1.34224, 1.34065, 1.33856, 1.34011, 1.33936, 1.33784, 1.33682, 1.33734, 1.3349, 1.33312, 1.33044, 1.33124, 1.35734, 1.33123, 1.33042, 1.33236, 1.3293, 1.3272, 1.33756, 1.33542, 1.32502, 1.33406, 1.3449, 1.32416, 1.32581, 1.34455, 1.33, 1.32105, 1.32975, 1.33022, 1.32678, 1.3012, 1.30844, 1.35795, 1.39189, 1.5221, 1.52232, 1.51693, 1.51356, 1.45478, 1.4946, 1.49956, 1.40244, 1.3544, 1.2857, 1.29559, 1.31319, 1.31483, 1.31674, 1.30716, 1.29841, 1.30538, 1.31285, 1.31937, 1.31676, 1.30096, 1.28945, 1.29041, 1.29066, 1.28858, 1.28938, 1.28552, 1.28353, 1.28122, 1.27602, 
1.6059, 1.60551, 1.59939, 1.59623, 1.59563, 1.59598, 1.59756, 1.60629, 1.59619, 1.59432, 1.59077, 1.59591, 1.5854, 1.58404, 1.58272, 1.58023, 1.58028, 1.57982, 1.58528, 1.58139, 1.58885, 1.57952, 1.57687, 1.57208, 1.57862, 1.59269, 1.57439, 1.58117, 1.56998, 1.56942, 1.57191, 1.57258, 1.53876, 1.63341, 1.71402, 1.7411, 1.83041, 1.83521, 1.94335, 2.44464, 1.72103, 1.55885, 1.54352, 1.52856, 1.54169, 1.53831, 1.53667, 1.53343, 1.52784, 1.52535, 1.52486, 1.53163, 1.5249, 1.52356, 1.51999, 1.54496, 1.52064, 1.51641, 1.51466, 1.53637, 1.51082, 1.52677, 1.54104, 1.50694, 1.50545, 1.50162, 1.50071, 1.49917, 1.49738, 1.49557, 1.49281, 1.49295, 1.49171, 1.48959, 1.48809, 1.48723, 1.48472, 1.48274, 1.48189, 1.48002, 1.47985, 1.47825, 1.47655, 1.47426, 1.47265, 1.47783, 1.46676, 1.4663, 1.46582, 1.46492, 1.47227, 1.46283, 1.46189, 1.4599, 1.45911, 1.46019, 1.45772, 1.45708, 1.47442, 1.45253, 1.45047, 1.45097, 1.44878, 1.44797, 1.447, 1.44604, 1.44679, 1.44636, 1.45506, 1.46128, 1.45005, 1.45035, 1.45803, 1.45233, 1.45894, 1.46574, 1.47442, 1.46183, 1.47772, 1.46912, 1.45906, 1.44723, 1.47162, 1.45845, 1.45572, 1.44936, 1.44203, 1.44026, 1.43162, 1.44762, 1.44895, 1.44271, 1.43956, 1.43976, 1.43219, 1.41657, 1.41433, 1.42976, 1.40651, 1.40472, 1.40559, 1.3981, 1.40321, 1.39477, 1.39259, 1.39106, 1.3886, 1.38606, 1.39259, 1.38335, 1.38339, 1.38273, 1.38549, 1.38202, 1.37951, 1.37962, 1.37722, 1.3778, 1.37484, 1.39721, 1.373, 1.37237, 1.37119, 1.36943, 1.3674, 1.36598, 1.36828, 1.36435, 1.36735, 1.36137, 1.36098, 1.35824, 1.36036, 1.35899, 1.35699, 1.35451, 1.35328, 1.35151, 1.35029, 1.34745, 1.34716, 1.33458, 1.34647, 1.34747, 1.34766, 1.34877, 1.34789, 1.34633, 1.34385, 1.34097, 1.34029, 1.33947, 1.33647, 1.33562, 1.33287, 1.3303, 1.34361, 1.32562, 1.32527, 1.32392, 1.32461, 1.32235, 1.324, 1.32143, 1.32301, 1.32401, 1.32057, 1.32031, 1.32189, 1.31785, 1.32205, 1.31261, 1.31045, 1.30845, 1.30796, 1.30723, 1.30326, 1.30677, 1.30308, 1.31571, 1.32357, 1.30431, 1.312, 1.28098, 1.29242, 1.37181, 1.44158, 1.57998, 1.64399, 1.705, 1.98598, 1.99825, 1.58698, 1.53734, 1.47943, 1.43906, 1.42106, 1.39033, 1.38747, 1.3637, 1.32669, 1.28957, 1.28754, 1.28461, 1.28291, 1.29463, 1.28928, 1.29289, 1.28077, 1.28369, 1.28214, 1.28202, 1.28219, 1.28039, 1.27583, 1.27537, 
1.59936, 1.59808, 1.59288, 1.59577, 1.59106, 1.58879, 1.58658, 1.60211, 1.58387, 1.5824, 1.57775, 1.57251, 1.57173, 1.56827, 1.56782, 1.568, 1.57816, 1.56132, 1.56187, 1.56147, 1.56021, 1.57609, 1.56837, 1.56102, 1.5521, 1.5515, 1.5449, 1.54724, 1.56391, 1.55295, 1.55765, 1.53247, 1.53074, 1.52851, 1.62598, 1.78925, 1.71423, 1.69804, 1.68599, 1.6968, 1.709, 1.59489, 1.51008, 1.52691, 1.53347, 1.51439, 1.52015, 1.52369, 1.51752, 1.52337, 1.51774, 1.52052, 1.52369, 1.5234, 1.51599, 1.51315, 1.51121, 1.50975, 1.50817, 1.50498, 1.50618, 1.49874, 1.49327, 1.51093, 1.48533, 1.48242, 1.51587, 1.47819, 1.47987, 1.47896, 1.47603, 1.47569, 1.47318, 1.47051, 1.46774, 1.46754, 1.46444, 1.46517, 1.46245, 1.45876, 1.45679, 1.45406, 1.45425, 1.45349, 1.45137, 1.45199, 1.44829, 1.45211, 1.45206, 1.44442, 1.44875, 1.45162, 1.44099, 1.44006, 1.44079, 1.44323, 1.45048, 1.46967, 1.44251, 1.45662, 1.43634, 1.43348, 1.42977, 1.43768, 1.42751, 1.42586, 1.43508, 1.43037, 1.42463, 1.43915, 1.44392, 1.4405, 1.44293, 1.44312, 1.43638, 1.45059, 1.44154, 1.45762, 1.46517, 1.46191, 1.4606, 1.45851, 1.4614, 1.44128, 1.42837, 1.42729, 1.45148, 1.42142, 1.42317, 1.41967, 1.42399, 1.42942, 1.44446, 1.41207, 1.40964, 1.40877, 1.40703, 1.40212, 1.39622, 1.39371, 1.40235, 1.38516, 1.38373, 1.38679, 1.40558, 1.3776, 1.37185, 1.38021, 1.3869, 1.37552, 1.38158, 1.38378, 1.36518, 1.36894, 1.3608, 1.37281, 1.35953, 1.35875, 1.35863, 1.35945, 1.35828, 1.35679, 1.37942, 1.35812, 1.35671, 1.35356, 1.35434, 1.3489, 1.34882, 1.3466, 1.35537, 1.34433, 1.34313, 1.34386, 1.34145, 1.34116, 1.34832, 1.3385, 1.336, 1.33649, 1.3436, 1.33264, 1.32765, 1.32792, 1.32413, 1.32659, 1.32286, 1.32676, 1.32157, 1.32006, 1.32367, 1.31931, 1.3272, 1.31946, 1.32028, 1.31964, 1.31669, 1.31419, 1.31343, 1.31429, 1.31981, 1.31396, 1.31112, 1.31211, 1.33034, 1.31058, 1.30992, 1.32061, 1.30893, 1.30581, 1.32655, 1.31282, 1.30503, 1.31258, 1.30241, 1.30199, 1.29943, 1.30974, 1.31518, 1.30393, 1.30573, 1.3057, 1.31222, 1.30226, 1.32504, 1.30942, 1.3682, 1.43661, 1.68462, 1.72125, 1.82798, 1.83091, 1.47287, 1.47449, 1.3959, 1.34434, 1.32733, 1.28161, 1.29553, 1.27956, 1.27735, 1.26933, 1.28367, 1.26605, 1.27919, 1.28416, 1.26404, 1.26142, 1.26009, 1.25791, 1.26068, 1.27095, 1.28427, 1.2588, 1.26121, 1.25782, 
