1.6794, 1.68868, 1.67894, 1.6715, 1.64644, 1.63134, 1.63677, 1.63701, 1.62695, 1.63864, 1.62119, 1.62646, 1.61812, 1.64443, 1.62447, 1.63413, 1.62089, 1.6241, 1.63043, 1.59915, 1.60119, 1.64755, 1.63313, 1.68264, 1.66373, 1.67787, 1.6767, 1.67111, 1.70734, 1.7057, 1.70717, 1.71354, 1.71471, 1.72155, 1.76289, 1.71314, 1.63985, 1.60846, 1.56247, 1.57257, 1.58479, 1.5825, 1.58275, 1.58268, 1.57218, 1.56948, 1.56466, 1.56381, 1.56202, 1.5589, 1.56878, 1.55769, 1.56701, 1.55836, 1.56166, 1.56504, 1.56806, 1.56272, 1.56071, 1.54829, 1.54781, 1.55446, 1.53528, 1.55135, 1.53594, 1.54436, 1.53637, 1.53517, 1.53321, 1.53152, 1.52815, 1.5274, 1.52445, 1.52432, 1.52102, 1.52024, 1.51916, 1.51799, 1.51692, 1.51615, 1.51408, 1.51104, 1.52853, 1.50996, 1.50709, 1.50689, 1.50795, 1.506, 1.50251, 1.50299, 1.50007, 1.53779, 1.49799, 1.49749, 1.49675, 1.49576, 1.50402, 1.49342, 1.49328, 1.49185, 1.49203, 1.49133, 1.5071, 1.49256, 1.48335, 1.48187, 1.48046, 1.48208, 1.48838, 1.48725, 1.48828, 1.47165, 1.46498, 1.48188, 1.52752, 1.5403, 1.61582, 1.6555, 1.7045, 1.74115, 1.73933, 1.75129, 1.74818, 1.71645, 1.62341, 1.56394, 1.50029, 1.44735, 1.43552, 1.44817, 1.46043, 1.47197, 1.45483, 1.45563, 1.45783, 1.45268, 1.44059, 1.43851, 1.44389, 1.43532, 1.43665, 1.44511, 1.43265, 1.43325, 1.43003, 1.42923, 1.42469, 1.42241, 1.42337, 1.42264, 1.42259, 1.42212, 1.42077, 1.41749, 1.41823, 1.41576, 1.41573, 1.41234, 1.43002, 1.41018, 1.41715, 1.40696, 1.40582, 1.40399, 1.40297, 1.4042, 1.4052, 1.40106, 1.39963, 1.3999, 1.399, 1.40032, 1.39807, 1.39724, 1.41306, 1.39365, 1.39691, 1.39224, 1.39137, 1.40024, 1.38809, 1.38225, 1.38162, 1.3801, 1.38159, 1.38087, 1.37243, 1.3725, 1.37013, 1.36768, 1.36585, 1.36545, 1.36213, 1.36185, 1.36188, 1.36024, 1.36104, 1.36075, 1.36156, 1.35984, 1.35889, 1.35845, 1.3601, 1.3582, 1.38202, 1.35488, 1.35574, 1.35676, 1.35715, 1.35468, 1.35446, 1.35897, 1.35235, 1.36424, 1.35063, 1.35117, 1.35313, 1.35471, 1.35324, 1.36557, 1.36184, 1.37131, 1.3653, 1.3894, 1.35971, 1.36358, 1.37255, 1.37608, 1.37547, 1.38769, 1.39908, 1.39345, 1.39561, 1.39668, 1.41136, 1.43409, 1.39236, 1.38137, 1.37213, 1.37841, 1.32988, 1.31451, 1.35675, 1.32759, 1.331, 1.33477, 1.32314, 1.32312, 1.34099, 1.32235, 1.31607, 1.32997, 1.31273, 1.31168, 1.31223, 1.31318, 1.30871, 1.30896, 1.30912, 1.31214, 1.31071, 1.32072, 1.31031, 1.30909, 1.31445, 1.30975, 1.31006, 1.3186, 1.31376, 1.33454
1.67451, 1.68166, 1.67506, 1.64743, 1.65021, 1.64288, 1.6435, 1.64718, 1.62502, 1.62354, 1.62796, 1.62809, 1.61815, 1.62221, 1.63501, 1.62484, 1.62466, 1.62155, 1.6141, 1.60255, 1.61313, 1.70267, 1.6545, 1.66537, 1.66427, 1.66528, 1.69934, 1.70025, 1.69555, 1.7054, 1.75024, 1.73872, 1.75166, 1.71511, 1.68267, 1.65762, 1.66657, 1.5963, 1.56516, 1.57767, 1.58773, 1.58549, 1.5822, 1.58249, 1.57867, 1.57143, 1.56758, 1.56507, 1.56166, 1.56106, 1.5597, 1.56145, 1.55747, 1.55464, 1.55979, 1.55748, 1.56477, 1.57317, 1.57464, 1.55998, 1.55488, 1.54178, 1.53854, 1.53812, 1.53773, 1.53849, 1.53779, 1.53738, 1.53649, 1.5337, 1.52961, 1.53728, 1.52668, 1.52671, 1.52595, 1.52169, 1.52109, 1.52003, 1.52006, 1.51614, 1.51493, 1.51358, 1.51112, 1.51003, 1.50805, 1.50957, 1.50601, 1.50452, 1.50301, 1.50266, 1.50277, 1.50091, 1.50089, 1.49974, 1.49868, 1.50031, 1.49806, 1.4969, 1.49709, 1.49445, 1.49302, 1.49978, 1.49006, 1.487, 1.48484, 1.48882, 1.48886, 1.48304, 1.49989, 1.48274, 1.48561, 1.45759, 1.45592, 1.47844, 1.50651, 1.5538, 1.59341, 1.63421, 1.68568, 1.71728, 1.72207, 1.72398, 1.70998, 1.6403, 1.61373, 1.57397, 1.53891, 1.47958, 1.43787, 1.45395, 1.48129, 1.4664, 1.46931, 1.45993, 1.44997, 1.45826, 1.44163, 1.44027, 1.43806, 1.43972, 1.4457, 1.43519, 1.43461, 1.43572, 1.43042, 1.4269, 1.42688, 1.42568, 1.4238, 1.4234, 1.42354, 1.42175, 1.41972, 1.42026, 1.41145, 1.48025, 1.41447, 1.41419, 1.414, 1.41225, 1.41337, 1.40699, 1.40715, 1.40668, 1.40653, 1.40344, 1.40295, 1.40363, 1.40168, 1.40127, 1.40032, 1.40114, 1.40076, 1.39852, 1.39913, 1.39728, 1.39585, 1.39351, 1.39177, 1.38916, 1.38867, 1.38514, 1.38285, 1.38378, 1.38031, 1.37795, 1.37417, 1.37243, 1.37045, 1.37124, 1.36877, 1.36792, 1.37151, 1.36476, 1.36275, 1.36341, 1.36112, 1.36524, 1.36035, 1.36151, 1.35867, 1.36476, 1.35778, 1.38467, 1.35715, 1.35418, 1.35719, 1.35357, 1.35491, 1.35399, 1.35428, 1.35338, 1.36174, 1.35347, 1.35187, 1.35124, 1.35409, 1.35468, 1.35663, 1.35726, 1.35553, 1.369, 1.37393, 1.35278, 1.38429, 1.37485, 1.37669, 1.3826, 1.39322, 1.38277, 1.42336, 1.44757, 1.3948, 1.39546, 1.40309, 1.42285, 1.41758, 1.37729, 1.37069, 1.34367, 1.32713, 1.31975, 1.3336, 1.34126, 1.33641, 1.33459, 1.3378, 1.32408, 1.32282, 1.32033, 1.32327, 1.32981, 1.31485, 1.31012, 1.31467, 1.3095, 1.30701, 1.31062, 1.33415, 1.32296, 1.3083, 1.3069, 1.30944, 1.30977, 1.31993, 1.31237, 1.3095, 1.31468, 1.31951, 1.29929
1.65168, 1.68234, 1.64829, 1.65468, 1.6524, 1.63457, 1.63263, 1.63233, 1.63072, 1.62809, 1.62741, 1.62456, 1.62276, 1.62236, 1.62144, 1.62348, 1.63778, 1.62721, 1.61273, 1.5949, 1.61358, 1.6129, 1.64119, 1.65545, 1.66123, 1.68579, 1.67844, 1.67879, 1.69736, 1.69992, 1.7132, 1.7297, 1.75819, 1.74222, 1.70295, 1.68862, 1.66942, 1.6022, 1.58213, 1.57097, 1.5751, 1.58339, 1.5923, 1.59231, 1.58456, 1.57233, 1.57076, 1.56799, 1.56467, 1.562, 1.56016, 1.56048, 1.5584, 1.55799, 1.55504, 1.55955, 1.55185, 1.56578, 1.57641, 1.56222, 1.55431, 1.54596, 1.54415, 1.54406, 1.54211, 1.54293, 1.54206, 1.54073, 1.53894, 1.53566, 1.53359, 1.54449, 1.53113, 1.52844, 1.52688, 1.52579, 1.52492, 1.52272, 1.52108, 1.52005, 1.51733, 1.51698, 1.51486, 1.51262, 1.5115, 1.51082, 1.50821, 1.50799, 1.50498, 1.50512, 1.50191, 1.5022, 1.50297, 1.50341, 1.50321, 1.50245, 1.50108, 1.49962, 1.49722, 1.495, 1.49446, 1.49208, 1.48771, 1.48595, 1.48332, 1.49068, 1.48462, 1.4819, 1.48707, 1.49797, 1.47901, 1.45543, 1.45776, 1.47266, 1.50101, 1.54529, 1.56995, 1.62697, 1.66251, 1.686, 1.71948, 1.71417, 1.69436, 1.65817, 1.62464, 1.58853, 1.53872, 1.47222, 1.44408, 1.44044, 1.4575, 1.45984, 1.46308, 1.45424, 1.46382, 1.45381, 1.44403, 1.44148, 1.44097, 1.43952, 1.43855, 1.43633, 1.43608, 1.43572, 1.4331, 1.431, 1.42952, 1.42792, 1.42684, 1.42567, 1.42375, 1.42462, 1.42224, 1.42085, 1.41923, 1.41556, 1.41657, 1.41884, 1.41605, 1.41451, 1.41301, 1.41016, 1.40998, 1.40712, 1.40634, 1.40616, 1.40905, 1.40308, 1.40419, 1.40525, 1.40313, 1.40166, 1.40165, 1.40047, 1.4009, 1.40023, 1.39915, 1.39815, 1.39723, 1.39477, 1.38998, 1.38891, 1.38586, 1.38399, 1.38116, 1.37926, 1.37574, 1.37425, 1.37282, 1.37232, 1.37094, 1.36879, 1.36575, 1.36727, 1.36516, 1.36268, 1.36409, 1.36197, 1.36156, 1.36101, 1.35949, 1.35887, 1.35868, 1.35513, 1.37567, 1.35733, 1.35666, 1.35596, 1.35571, 1.35532, 1.35358, 1.35792, 1.35865, 1.35264, 1.35178, 1.35353, 1.35282, 1.35343, 1.36574, 1.35753, 1.35823, 1.35022, 1.34731, 1.34799, 1.36993, 1.36776, 1.40932, 1.38994, 1.38777, 1.38681, 1.39877, 1.41775, 1.40623, 1.40203, 1.41175, 1.42041, 1.41351, 1.42317, 1.39809, 1.34176, 1.35607, 1.34406, 1.35023, 1.34359, 1.3402, 1.34578, 1.32974, 1.33084, 1.32342, 1.32475, 1.32029, 1.31933, 1.31742, 1.31578, 1.31234, 1.3096, 1.31204, 1.30786, 1.30811, 1.30723, 1.30943, 1.30949, 1.3113, 1.31038, 1.31146, 1.31176, 1.31217, 1.32512, 1.33639, 1.33579
1.65723, 1.63406, 1.65071, 1.64771, 1.66501, 1.63473, 1.63422, 1.64115, 1.63565, 1.62848, 1.62987, 1.62905, 1.6313, 1.62386, 1.63966, 1.62324, 1.63329, 1.63659, 1.63481, 1.6206, 1.61671, 1.61948, 1.67009, 1.66933, 1.70751, 1.66996, 1.67971, 1.67979, 1.7008, 1.74701, 1.73866, 1.73906, 1.74144, 1.73095, 1.72962, 1.70323, 1.66138, 1.58804, 1.60649, 1.55742, 1.59555, 1.59267, 1.597, 1.58589, 1.58107, 1.57512, 1.57341, 1.56966, 1.56698, 1.56523, 1.56608, 1.5609, 1.5586, 1.55757, 1.55641, 1.56845, 1.55664, 1.57719, 1.57553, 1.56902, 1.55906, 1.55857, 1.55527, 1.54648, 1.54571, 1.54793, 1.54525, 1.54237, 1.53916, 1.54396, 1.53506, 1.53093, 1.52976, 1.52886, 1.52789, 1.52506, 1.52448, 1.52357, 1.52257, 1.52246, 1.52148, 1.51736, 1.5151, 1.51333, 1.51081, 1.50864, 1.50678, 1.50482, 1.5036, 1.50426, 1.50408, 1.50441, 1.50324, 1.50302, 1.50303, 1.50185, 1.49928, 1.49734, 1.49672, 1.4951, 1.49305, 1.49277, 1.48839, 1.48688, 1.50226, 1.48921, 1.49549, 1.48446, 1.48976, 1.48919, 1.49295, 1.48231, 1.46839, 1.49795, 1.51643, 1.5468, 1.59423, 1.62639, 1.65704, 1.69654, 1.71465, 1.71855, 1.72049, 1.68431, 1.68381, 1.62449, 1.49096, 1.44736, 1.43588, 1.43718, 1.46079, 1.45862, 1.45856, 1.4553, 1.45127, 1.45803, 1.44517, 1.44451, 1.44778, 1.44064, 1.43716, 1.44009, 1.43688, 1.43482, 1.4332, 1.43065, 1.42921, 1.42938, 1.42708, 1.42762, 1.42613, 1.42609, 1.42359, 1.42399, 1.42353, 1.42078, 1.42087, 1.42069, 1.41871, 1.41863, 1.41721, 1.41361, 1.40946, 1.41066, 1.40694, 1.40886, 1.40937, 1.40622, 1.40838, 1.40618, 1.40656, 1.40628, 1.40495, 1.40425, 1.40389, 1.39994, 1.40075, 1.40143, 1.39875, 1.39793, 1.39452, 1.39199, 1.3893, 1.38808, 1.38585, 1.38231, 1.37822, 1.37775, 1.37732, 1.3759, 1.37415, 1.37374, 1.37135, 1.37004, 1.36631, 1.36856, 1.36757, 1.3659, 1.36531, 1.36114, 1.36259, 1.3622, 1.36099, 1.36072, 1.36909, 1.35859, 1.35805, 1.35714, 1.35798, 1.35586, 1.35657, 1.35657, 1.35617, 1.35544, 1.35536, 1.35386, 1.35202, 1.35673, 1.36188, 1.35798, 1.36475, 1.36523, 1.35709, 1.35305, 1.35872, 1.37189, 1.37674, 1.38984, 1.38933, 1.41223, 1.40848, 1.40024, 1.40435, 1.40268, 1.41311, 1.41265, 1.44104, 1.42025, 1.38814, 1.3442, 1.3245, 1.34007, 1.34354, 1.3541, 1.34152, 1.3335, 1.33145, 1.32782, 1.32914, 1.32402, 1.32081, 1.32002, 1.32358, 1.31793, 1.31339, 1.31302, 1.3188, 1.31019, 1.34473, 1.33047, 1.30771, 1.30914, 1.31839, 1.31786, 1.30964, 1.30976, 1.31144, 1.34096, 1.34743, 1.33465
1.65445, 1.64861, 1.66388, 1.66395, 1.66464, 1.64782, 1.63464, 1.64421, 1.64159, 1.632, 1.63109, 1.63724, 1.63324, 1.633, 1.63743, 1.63429, 1.63793, 1.63687, 1.62441, 1.62624, 1.60991, 1.6113, 1.61397, 1.68636, 1.66082, 1.66391, 1.67189, 1.67134, 1.72331, 1.78673, 1.74134, 1.74697, 1.75093, 1.72512, 1.71166, 1.73467, 1.66272, 1.62256, 1.57365, 1.59261, 1.58193, 1.58868, 1.59632, 1.59169, 1.57931, 1.57697, 1.5755, 1.57338, 1.56929, 1.56811, 1.56415, 1.56152, 1.56755, 1.58259, 1.55795, 1.56442, 1.56518, 1.57453, 1.56136, 1.57173, 1.5662, 1.55061, 1.57174, 1.54945, 1.54736, 1.54793, 1.55126, 1.54356, 1.54863, 1.54069, 1.55162, 1.54165, 1.53313, 1.53351, 1.52991, 1.52827, 1.52582, 1.52437, 1.52354, 1.52393, 1.52024, 1.52939, 1.51521, 1.51335, 1.51236, 1.51151, 1.50887, 1.50895, 1.50569, 1.50554, 1.52313, 1.50228, 1.5028, 1.50218, 1.50059, 1.49934, 1.49726, 1.49678, 1.49537, 1.51474, 1.50082, 1.49567, 1.49234, 1.49915, 1.4899, 1.48632, 1.4947, 1.49613, 1.48833, 1.48812, 1.48833, 1.45812, 1.44355, 1.47503, 1.48471, 1.5766, 1.60327, 1.65504, 1.65523, 1.70458, 1.7324, 1.73468, 1.72925, 1.71374, 1.66484, 1.62432, 1.50941, 1.482, 1.42731, 1.44406, 1.45689, 1.4658, 1.45874, 1.45495, 1.46027, 1.46426, 1.4708, 1.4589, 1.4504, 1.45067, 1.44683, 1.43671, 1.43492, 1.4358, 1.43182, 1.46941, 1.42935, 1.42942, 1.43001, 1.42847, 1.42669, 1.42729, 1.42413, 1.42249, 1.42556, 1.42056, 1.4225, 1.41935, 1.41995, 1.41801, 1.41606, 1.41561, 1.41296, 1.40944, 1.40866, 1.40757, 1.40668, 1.40644, 1.40575, 1.40572, 1.40468, 1.40481, 1.4053, 1.40499, 1.40206, 1.40458, 1.40153, 1.40145, 1.40009, 1.40023, 1.399, 1.3965, 1.39239, 1.39089, 1.3869, 1.38662, 1.38441, 1.3804, 1.3784, 1.37489, 1.37477, 1.37454, 1.3741, 1.37225, 1.37384, 1.37027, 1.37051, 1.37012, 1.36637, 1.36656, 1.36579, 1.36481, 1.36388, 1.3621, 1.36341, 1.36403, 1.37307, 1.36042, 1.36092, 1.36165, 1.35787, 1.35877, 1.35719, 1.36834, 1.35378, 1.355, 1.36379, 1.35369, 1.35743, 1.38545, 1.36141, 1.35427, 1.36797, 1.35257, 1.36149, 1.36453, 1.38786, 1.383, 1.38655, 1.39037, 1.39429, 1.40212, 1.39805, 1.40371, 1.46972, 1.43882, 1.40729, 1.42327, 1.38013, 1.37961, 1.34406, 1.31331, 1.33002, 1.33785, 1.35166, 1.33524, 1.33249, 1.32992, 1.33447, 1.32344, 1.32089, 1.32776, 1.32603, 1.3201, 1.31931, 1.31494, 1.31386, 1.31303, 1.31182, 1.31238, 1.31899, 1.31167, 1.31203, 1.31181, 1.31209, 1.30793, 1.30761, 1.31408, 1.31517, 1.31307
1.6418, 1.65079, 1.64448, 1.65783, 1.64306, 1.6478, 1.65094, 1.63516, 1.63556, 1.63734, 1.64373, 1.63769, 1.63466, 1.63371, 1.62992, 1.63325, 1.62397, 1.62462, 1.61352, 1.6169, 1.60235, 1.60967, 1.69021, 1.69601, 1.7162, 1.64915, 1.66904, 1.67914, 1.73546, 1.73805, 1.75434, 1.75095, 1.78093, 1.77034, 1.70483, 1.74311, 1.69663, 1.61304, 1.59381, 1.60695, 1.5994, 1.58999, 1.60172, 1.58924, 1.5888, 1.57556, 1.57556, 1.57214, 1.56562, 1.56783, 1.56361, 1.57396, 1.55798, 1.57602, 1.55552, 1.57129, 1.56185, 1.55441, 1.55765, 1.56369, 1.56729, 1.55357, 1.57061, 1.55946, 1.5723, 1.57427, 1.56046, 1.5538, 1.54116, 1.54706, 1.53698, 1.53475, 1.53332, 1.53122, 1.52944, 1.52938, 1.5288, 1.52731, 1.52398, 1.52382, 1.52163, 1.52082, 1.51727, 1.51588, 1.51382, 1.51298, 1.50962, 1.50934, 1.50648, 1.50567, 1.50438, 1.50329, 1.50174, 1.50224, 1.5, 1.50458, 1.50062, 1.49473, 1.49734, 1.49543, 1.496, 1.49488, 1.50152, 1.50398, 1.48736, 1.48628, 1.4862, 1.50857, 1.49618, 1.4931, 1.4808, 1.46904, 1.45824, 1.46809, 1.49654, 1.53514, 1.57869, 1.61714, 1.66537, 1.69342, 1.73073, 1.64046, 1.6318, 1.70365, 1.66921, 1.60206, 1.57102, 1.46163, 1.42208, 1.44719, 1.45738, 1.45759, 1.45997, 1.45308, 1.4508, 1.46853, 1.44552, 1.44498, 1.44336, 1.44657, 1.4369, 1.43598, 1.43306, 1.43162, 1.43135, 1.42968, 1.43042, 1.42943, 1.42945, 1.42917, 1.43707, 1.42567, 1.42368, 1.42339, 1.42273, 1.42206, 1.42247, 1.42017, 1.41844, 1.4186, 1.41828, 1.41455, 1.41236, 1.41209, 1.40964, 1.40563, 1.40346, 1.40318, 1.4023, 1.40323, 1.40264, 1.40326, 1.40156, 1.40169, 1.40363, 1.4028, 1.4021, 1.40137, 1.40241, 1.39998, 1.3993, 1.39864, 1.39607, 1.39269, 1.39, 1.38785, 1.3851, 1.38416, 1.38313, 1.38175, 1.3817, 1.37547, 1.3759, 1.37485, 1.37267, 1.37291, 1.37153, 1.36824, 1.3685, 1.36788, 1.36671, 1.36714, 1.3656, 1.36489, 1.36657, 1.36573, 1.36228, 1.36672, 1.36122, 1.35902, 1.35891, 1.35532, 1.35523, 1.35341, 1.35114, 1.36079, 1.34933, 1.3629, 1.35483, 1.36549, 1.36383, 1.35517, 1.3542, 1.3668, 1.35558, 1.38396, 1.37881, 1.37617, 1.3882, 1.39794, 1.39213, 1.468, 1.41596, 1.43394, 1.43361, 1.41053, 1.40256, 1.394, 1.40154, 1.37641, 1.34649, 1.33712, 1.3309, 1.34037, 1.33979, 1.33471, 1.33225, 1.33286, 1.32397, 1.33127, 1.32277, 1.32152, 1.32188, 1.3169, 1.31537, 1.31341, 1.31308, 1.31227, 1.31291, 1.30846, 1.3086, 1.31002, 1.30818, 1.30673, 1.30411, 1.30752, 1.30576, 1.30456, 1.34688, 1.33902
1.65286, 1.64464, 1.66129, 1.67697, 1.67333, 1.65443, 1.65485, 1.63826, 1.63771, 1.6355, 1.63996, 1.63631, 1.62804, 1.62974, 1.62752, 1.62604, 1.62767, 1.62514, 1.62006, 1.59993, 1.61327, 1.61463, 1.69311, 1.68941, 1.67217, 1.67612, 1.68, 1.69422, 1.74086, 1.76792, 1.75891, 1.76504, 1.7578, 1.76477, 1.75559, 1.71705, 1.67204, 1.64286, 1.58588, 1.57374, 1.57631, 1.58501, 1.59153, 1.59432, 1.58065, 1.58808, 1.57398, 1.5698, 1.5662, 1.56476, 1.56272, 1.56233, 1.56551, 1.55643, 1.55422, 1.55271, 1.55127, 1.5618, 1.56347, 1.578, 1.57515, 1.55275, 1.55037, 1.56391, 1.56508, 1.5496, 1.55127, 1.55373, 1.54175, 1.54035, 1.53914, 1.53748, 1.53377, 1.53348, 1.53211, 1.53205, 1.52944, 1.52786, 1.52663, 1.52462, 1.52385, 1.52118, 1.51939, 1.51522, 1.51403, 1.51277, 1.50988, 1.51216, 1.50601, 1.50556, 1.50502, 1.50436, 1.5002, 1.50092, 1.50098, 1.49926, 1.49832, 1.51965, 1.51626, 1.49768, 1.49588, 1.50371, 1.49918, 1.51105, 1.48742, 1.48686, 1.48836, 1.48784, 1.48493, 1.48484, 1.48489, 1.48153, 1.45323, 1.48567, 1.52701, 1.54815, 1.56784, 1.58695, 1.66165, 1.69439, 1.71753, 1.72079, 1.63269, 1.69204, 1.68296, 1.56344, 1.50253, 1.48295, 1.43024, 1.41852, 1.46268, 1.45718, 1.45827, 1.45032, 1.46944, 1.44768, 1.44454, 1.44387, 1.45641, 1.43843, 1.44488, 1.44501, 1.43582, 1.43311, 1.43221, 1.44476, 1.42974, 1.43048, 1.42987, 1.42986, 1.42819, 1.42924, 1.424, 1.42313, 1.42295, 1.42404, 1.42065, 1.42161, 1.4191, 1.41946, 1.41626, 1.41622, 1.41344, 1.41166, 1.40836, 1.40564, 1.40545, 1.4021, 1.40206, 1.40348, 1.40228, 1.40289, 1.40218, 1.40306, 1.40367, 1.40462, 1.40445, 1.40612, 1.40211, 1.40181, 1.39913, 1.39921, 1.3967, 1.39343, 1.39252, 1.39144, 1.39184, 1.38664, 1.38333, 1.38404, 1.38359, 1.41273, 1.3792, 1.37547, 1.37792, 1.37502, 1.37339, 1.37195, 1.37092, 1.36805, 1.36851, 1.36915, 1.36767, 1.36723, 1.3673, 1.37002, 1.366, 1.36482, 1.3638, 1.36074, 1.36049, 1.36152, 1.35886, 1.35571, 1.37491, 1.35174, 1.35279, 1.362, 1.35493, 1.37553, 1.36093, 1.36149, 1.34789, 1.34564, 1.36155, 1.36359, 1.37095, 1.37603, 1.38593, 1.38021, 1.39371, 1.3975, 1.403, 1.40635, 1.41544, 1.41706, 1.43003, 1.40614, 1.36814, 1.37341, 1.35067, 1.317, 1.32379, 1.33278, 1.33657, 1.33693, 1.33329, 1.32979, 1.32914, 1.3233, 1.32058, 1.32295, 1.31979, 1.31686, 1.31686, 1.31604, 1.31186, 1.33281, 1.32363, 1.31172, 1.3069, 1.33426, 1.30874, 1.30626, 1.30349, 1.31211, 1.3064, 1.30509, 1.31673, 1.3343
1.65415, 1.64905, 1.64177, 1.66107, 1.66863, 1.67416, 1.66589, 1.65611, 1.6438, 1.6373, 1.6352, 1.63201, 1.63715, 1.62951, 1.62724, 1.62635, 1.62912, 1.63298, 1.62581, 1.60817, 1.60961, 1.64368, 1.64986, 1.66166, 1.66646, 1.67913, 1.73359, 1.69671, 1.70401, 1.79758, 1.76198, 1.75751, 1.74699, 1.72652, 1.73356, 1.70693, 1.67586, 1.60007, 1.57394, 1.57128, 1.58593, 1.58943, 1.59904, 1.58531, 1.58711, 1.58573, 1.57214, 1.57894, 1.56627, 1.56606, 1.56401, 1.5614, 1.56514, 1.55898, 1.56469, 1.55229, 1.55059, 1.55165, 1.55211, 1.55897, 1.56437, 1.57473, 1.56925, 1.5518, 1.54958, 1.54893, 1.55203, 1.54432, 1.54201, 1.53883, 1.53853, 1.53658, 1.53622, 1.53357, 1.53295, 1.53317, 1.53263, 1.53069, 1.52775, 1.5216, 1.52062, 1.51854, 1.51604, 1.51569, 1.51617, 1.51197, 1.51112, 1.51016, 1.50795, 1.50812, 1.50527, 1.5031, 1.50211, 1.50182, 1.50004, 1.50233, 1.49689, 1.50897, 1.49643, 1.49664, 1.49325, 1.49898, 1.49152, 1.50549, 1.4888, 1.4885, 1.4856, 1.48496, 1.48519, 1.48576, 1.49364, 1.46351, 1.45915, 1.48999, 1.51245, 1.53732, 1.57388, 1.61676, 1.63732, 1.67898, 1.70432, 1.70969, 1.70304, 1.69913, 1.61048, 1.58593, 1.55131, 1.44081, 1.43093, 1.44066, 1.45793, 1.47257, 1.47508, 1.45825, 1.4482, 1.44699, 1.44741, 1.45236, 1.44732, 1.45105, 1.43671, 1.44133, 1.43432, 1.43413, 1.43157, 1.43159, 1.42963, 1.42944, 1.42984, 1.4292, 1.42668, 1.4248, 1.42291, 1.4234, 1.42238, 1.42282, 1.42163, 1.42067, 1.41883, 1.41848, 1.41669, 1.41256, 1.41416, 1.41041, 1.40793, 1.40433, 1.40382, 1.40539, 1.40388, 1.40205, 1.40244, 1.40171, 1.40196, 1.402, 1.4027, 1.40303, 1.40305, 1.40332, 1.40199, 1.40216, 1.39928, 1.39865, 1.39623, 1.39318, 1.39178, 1.39025, 1.39017, 1.38753, 1.38697, 1.38507, 1.38421, 1.38265, 1.37951, 1.37728, 1.37585, 1.37328, 1.37216, 1.37147, 1.37198, 1.36938, 1.36975, 1.36904, 1.37035, 1.36837, 1.36871, 1.37063, 1.37095, 1.36787, 1.36624, 1.37857, 1.36324, 1.36117, 1.3581, 1.35527, 1.35241, 1.35123, 1.35067, 1.35352, 1.37114, 1.35497, 1.36743, 1.36485, 1.34093, 1.34197, 1.36846, 1.3794, 1.40643, 1.39466, 1.38972, 1.39462, 1.39837, 1.39185, 1.41624, 1.40663, 1.41414, 1.4156, 1.41528, 1.40562, 1.3973, 1.38454, 1.35294, 1.31288, 1.33277, 1.33615, 1.34201, 1.34371, 1.3388, 1.33223, 1.3254, 1.324, 1.32375, 1.32277, 1.3232, 1.32307, 1.31558, 1.31444, 1.32404, 1.3152, 1.31136, 1.33731, 1.3104, 1.30629, 1.30812, 1.31795, 1.32302, 1.31366, 1.30859, 1.30662, 1.32225, 1.33108
1.65127, 1.65098, 1.65805, 1.63505, 1.65702, 1.66102, 1.65532, 1.65095, 1.64334, 1.63823, 1.63911, 1.63823, 1.63022, 1.62761, 1.62676, 1.63395, 1.63124, 1.6243, 1.62013, 1.61847, 1.59708, 1.61198, 1.67305, 1.65194, 1.6779, 1.67553, 1.67701, 1.69908, 1.7209, 1.75261, 1.75019, 1.75117, 1.74157, 1.72881, 1.71354, 1.6964, 1.68622, 1.62752, 1.58367, 1.57193, 1.58089, 1.59232, 1.58722, 1.58308, 1.57915, 1.5766, 1.57326, 1.57061, 1.56835, 1.56726, 1.564, 1.56319, 1.56173, 1.55688, 1.57166, 1.55875, 1.55834, 1.55053, 1.55036, 1.55074, 1.56913, 1.58242, 1.56399, 1.55518, 1.55269, 1.5541, 1.56418, 1.55134, 1.55391, 1.5421, 1.53737, 1.53706, 1.53519, 1.53365, 1.53347, 1.53349, 1.53078, 1.52712, 1.52457, 1.52415, 1.52288, 1.52019, 1.51595, 1.51362, 1.51338, 1.51185, 1.51248, 1.51043, 1.50928, 1.50969, 1.50668, 1.50592, 1.50526, 1.50433, 1.50274, 1.4996, 1.49969, 1.49951, 1.49861, 1.49591, 1.49508, 1.49882, 1.50329, 1.49014, 1.48832, 1.4889, 1.48647, 1.48594, 1.48506, 1.48612, 1.48357, 1.47084, 1.45867, 1.49628, 1.50984, 1.51931, 1.5658, 1.60016, 1.64162, 1.6608, 1.68984, 1.69505, 1.67843, 1.64268, 1.61391, 1.59851, 1.5708, 1.4931, 1.44072, 1.43139, 1.45123, 1.46424, 1.46044, 1.459, 1.45198, 1.44954, 1.44388, 1.44451, 1.44542, 1.43657, 1.43564, 1.44321, 1.43435, 1.43481, 1.43464, 1.43127, 1.42964, 1.42823, 1.42775, 1.42694, 1.42769, 1.4263, 1.42323, 1.42275, 1.42319, 1.42341, 1.42049, 1.41911, 1.41887, 1.41788, 1.41465, 1.4156, 1.41209, 1.4092, 1.40788, 1.40715, 1.40562, 1.40408, 1.4018, 1.4018, 1.40052, 1.40185, 1.402, 1.40153, 1.40186, 1.40179, 1.4008, 1.40073, 1.39927, 1.39838, 1.39897, 1.39708, 1.39671, 1.39323, 1.39242, 1.39484, 1.39138, 1.39183, 1.38911, 1.38794, 1.38572, 1.38497, 1.38222, 1.38064, 1.37818, 1.37568, 1.37369, 1.37313, 1.37457, 1.37459, 1.37682, 1.37544, 1.37403, 1.37435, 1.37307, 1.37397, 1.37262, 1.37064, 1.36844, 1.36682, 1.36287, 1.3595, 1.35788, 1.35446, 1.35672, 1.3535, 1.35458, 1.36448, 1.35654, 1.35419, 1.35447, 1.35838, 1.35855, 1.35783, 1.36085, 1.36474, 1.41024, 1.38628, 1.38846, 1.39672, 1.41457, 1.40159, 1.43135, 1.42109, 1.45236, 1.48322, 1.41703, 1.41874, 1.43198, 1.3847, 1.37924, 1.31638, 1.32289, 1.33882, 1.33534, 1.33317, 1.33229, 1.32763, 1.32708, 1.32666, 1.32413, 1.3231, 1.32296, 1.32279, 1.31535, 1.31675, 1.31707, 1.31628, 1.31351, 1.31186, 1.31993, 1.30613, 1.30757, 1.30699, 1.30586, 1.30286, 1.30622, 1.30274, 1.31115, 1.31576
1.656, 1.65387, 1.66635, 1.67108, 1.65846, 1.65903, 1.65768, 1.65753, 1.65688, 1.6377, 1.64454, 1.6342, 1.63081, 1.62694, 1.62994, 1.62443, 1.63823, 1.63319, 1.61822, 1.60218, 1.60471, 1.60738, 1.64775, 1.67312, 1.65777, 1.66904, 1.75749, 1.70887, 1.71877, 1.72141, 1.72372, 1.73444, 1.7337, 1.76932, 1.74999, 1.73458, 1.69183, 1.64176, 1.59707, 1.57504, 1.57519, 1.59775, 1.58918, 1.58611, 1.59684, 1.57717, 1.57594, 1.57773, 1.57217, 1.56732, 1.56624, 1.56316, 1.56124, 1.5605, 1.55831, 1.56179, 1.55211, 1.55104, 1.54853, 1.55821, 1.55753, 1.56486, 1.57106, 1.56079, 1.55514, 1.5506, 1.55032, 1.54128, 1.55224, 1.5468, 1.53764, 1.53734, 1.53569, 1.53467, 1.54791, 1.53248, 1.52976, 1.52827, 1.52671, 1.52405, 1.52313, 1.52067, 1.51938, 1.51405, 1.51354, 1.51384, 1.51267, 1.51109, 1.51184, 1.51215, 1.50683, 1.50601, 1.50443, 1.50248, 1.50176, 1.50033, 1.5002, 1.4989, 1.49781, 1.49854, 1.49534, 1.49275, 1.49031, 1.48711, 1.49508, 1.48526, 1.49288, 1.49611, 1.4978, 1.48485, 1.48397, 1.47281, 1.45226, 1.46954, 1.52619, 1.55148, 1.58714, 1.6184, 1.65035, 1.65477, 1.69269, 1.69091, 1.69022, 1.6713, 1.64464, 1.58565, 1.55134, 1.49592, 1.46063, 1.41789, 1.4349, 1.45417, 1.46213, 1.46386, 1.44753, 1.45852, 1.44444, 1.44789, 1.44003, 1.4571, 1.43686, 1.43481, 1.43839, 1.4359, 1.44517, 1.43099, 1.42986, 1.42709, 1.42771, 1.42547, 1.42414, 1.42326, 1.43011, 1.42131, 1.42119, 1.42087, 1.41927, 1.4192, 1.41606, 1.41928, 1.41359, 1.41313, 1.4108, 1.40915, 1.40718, 1.40627, 1.40524, 1.41275, 1.4048, 1.40267, 1.40063, 1.40206, 1.40237, 1.40198, 1.39965, 1.40164, 1.39956, 1.39875, 1.40003, 1.39921, 1.39794, 1.39875, 1.39528, 1.39356, 1.39483, 1.39358, 1.39296, 1.39144, 1.39115, 1.38655, 1.38807, 1.38551, 1.38264, 1.38147, 1.37956, 1.37761, 1.37574, 1.37498, 1.37621, 1.37547, 1.37726, 1.37494, 1.37536, 1.37384, 1.37644, 1.37368, 1.37286, 1.37449, 1.36927, 1.37051, 1.36584, 1.36443, 1.36223, 1.36047, 1.35892, 1.35622, 1.35668, 1.36955, 1.35662, 1.3606, 1.35399, 1.35542, 1.34966, 1.35417, 1.37288, 1.36697, 1.38951, 1.39097, 1.44015, 1.45377, 1.40473, 1.40594, 1.41274, 1.42777, 1.4155, 1.426, 1.43265, 1.42682, 1.40645, 1.41371, 1.36133, 1.31776, 1.32321, 1.33803, 1.33716, 1.34175, 1.3377, 1.34022, 1.33672, 1.33917, 1.32377, 1.32485, 1.3229, 1.31954, 1.32164, 1.31761, 1.31642, 1.31508, 1.31234, 1.31273, 1.31254, 1.32175, 1.31206, 1.30857, 1.30887, 1.33398, 1.31576, 1.30368, 1.30561, 1.33298
1.65921, 1.6548, 1.65678, 1.6592, 1.67656, 1.66577, 1.66506, 1.65948, 1.648, 1.64763, 1.64559, 1.64171, 1.6419, 1.63368, 1.64192, 1.63492, 1.62759, 1.62369, 1.61062, 1.61895, 1.60044, 1.62761, 1.68121, 1.65185, 1.68252, 1.68618, 1.70558, 1.70969, 1.71529, 1.73947, 1.73949, 1.78946, 1.78045, 1.7852, 1.75075, 1.74174, 1.68617, 1.63392, 1.61626, 1.56735, 1.58208, 1.59032, 1.60275, 1.59552, 1.58959, 1.58861, 1.57831, 1.57573, 1.572, 1.57077, 1.58136, 1.58297, 1.56498, 1.56161, 1.5591, 1.55584, 1.56293, 1.5588, 1.55321, 1.5615, 1.55629, 1.56277, 1.56818, 1.56227, 1.55074, 1.55931, 1.56477, 1.55555, 1.5454, 1.5473, 1.54224, 1.5547, 1.53858, 1.53733, 1.5361, 1.53368, 1.53571, 1.53196, 1.53008, 1.52787, 1.5407, 1.52925, 1.52297, 1.52152, 1.51788, 1.51742, 1.51603, 1.51542, 1.51443, 1.51391, 1.51792, 1.51957, 1.50846, 1.50581, 1.50597, 1.50494, 1.50272, 1.50295, 1.50065, 1.49919, 1.51035, 1.49553, 1.50187, 1.49497, 1.48988, 1.4876, 1.49117, 1.48642, 1.48815, 1.49258, 1.48568, 1.48335, 1.46174, 1.46834, 1.52364, 1.57199, 1.58478, 1.62688, 1.66132, 1.68082, 1.69946, 1.69968, 1.69227, 1.66474, 1.62366, 1.53156, 1.53895, 1.49965, 1.44085, 1.42258, 1.45751, 1.47502, 1.47154, 1.45833, 1.4595, 1.4452, 1.45121, 1.44417, 1.45438, 1.43938, 1.44017, 1.43754, 1.45122, 1.43426, 1.43142, 1.43089, 1.42857, 1.42821, 1.42689, 1.42714, 1.42698, 1.42309, 1.4232, 1.42339, 1.42278, 1.42306, 1.42145, 1.41929, 1.41709, 1.41699, 1.41963, 1.4169, 1.41421, 1.4095, 1.40973, 1.44457, 1.41036, 1.41355, 1.40595, 1.40289, 1.40278, 1.40285, 1.40185, 1.40243, 1.40252, 1.39913, 1.39871, 1.40018, 1.39906, 1.39984, 1.39871, 1.39734, 1.39482, 1.39565, 1.39402, 1.3951, 1.39254, 1.39201, 1.39072, 1.39171, 1.38867, 1.38607, 1.38222, 1.37832, 1.37857, 1.37729, 1.37638, 1.37785, 1.37614, 1.37716, 1.37587, 1.3778, 1.3775, 1.37495, 1.37514, 1.37519, 1.3737, 1.37362, 1.3733, 1.37111, 1.36829, 1.3691, 1.36722, 1.36362, 1.36525, 1.35753, 1.36485, 1.3645, 1.35849, 1.35808, 1.36078, 1.35856, 1.35361, 1.35134, 1.35797, 1.37434, 1.3793, 1.39696, 1.39707, 1.40175, 1.40561, 1.41287, 1.41118, 1.44142, 1.4297, 1.47647, 1.41981, 1.43121, 1.3827, 1.3611, 1.37776, 1.3423, 1.31852, 1.34292, 1.33726, 1.35797, 1.351, 1.3298, 1.33364, 1.34947, 1.35336, 1.32659, 1.32239, 1.3222, 1.32778, 1.31984, 1.31942, 1.31802, 1.31655, 1.31443, 1.31538, 1.31463, 1.3136, 1.31214, 1.31766, 1.31232, 1.30856, 1.31046, 1.32685, 1.34309
1.65812, 1.66459, 1.6631, 1.65909, 1.65701, 1.67163, 1.66026, 1.6588, 1.65739, 1.65445, 1.63901, 1.63797, 1.6369, 1.62996, 1.62767, 1.62814, 1.64487, 1.62613, 1.63027, 1.61011, 1.60876, 1.61093, 1.6384, 1.7196, 1.68768, 1.70386, 1.70414, 1.71381, 1.73851, 1.74461, 1.75688, 1.77475, 1.77236, 1.76178, 1.73497, 1.73146, 1.69414, 1.67068, 1.58959, 1.56126, 1.5883, 1.59293, 1.6038, 1.5897, 1.59985, 1.59674, 1.57928, 1.57774, 1.57874, 1.57949, 1.57052, 1.56997, 1.5677, 1.56495, 1.58196, 1.5619, 1.56556, 1.56072, 1.54989, 1.54959, 1.56007, 1.56737, 1.57928, 1.56275, 1.55872, 1.54875, 1.56493, 1.55071, 1.54404, 1.54156, 1.54935, 1.54045, 1.53922, 1.54575, 1.53741, 1.53769, 1.53591, 1.53424, 1.53278, 1.53335, 1.52723, 1.52725, 1.52601, 1.5235, 1.53027, 1.51935, 1.51889, 1.5173, 1.51618, 1.51755, 1.51376, 1.51216, 1.51702, 1.50942, 1.50646, 1.50625, 1.50421, 1.50234, 1.5003, 1.49984, 1.49783, 1.49523, 1.52105, 1.49224, 1.49046, 1.48904, 1.49147, 1.48829, 1.48764, 1.48866, 1.49982, 1.48234, 1.45118, 1.47259, 1.51321, 1.52364, 1.56262, 1.59686, 1.62351, 1.67603, 1.70224, 1.70399, 1.6981, 1.6889, 1.64431, 1.37098, 1.58175, 1.50102, 1.45479, 1.43887, 1.43655, 1.46074, 1.47264, 1.45812, 1.45919, 1.46863, 1.44322, 1.44973, 1.44035, 1.44453, 1.44645, 1.43691, 1.45232, 1.43472, 1.43218, 1.43077, 1.42942, 1.42824, 1.42666, 1.42639, 1.42642, 1.42544, 1.42364, 1.42453, 1.42586, 1.42326, 1.42358, 1.42177, 1.41824, 1.41931, 1.41874, 1.41756, 1.41885, 1.41205, 1.41085, 1.40893, 1.4188, 1.40665, 1.40651, 1.40427, 1.40299, 1.40202, 1.40585, 1.40137, 1.40246, 1.40037, 1.3998, 1.39855, 1.39991, 1.39817, 1.39753, 1.39745, 1.39618, 1.40392, 1.39566, 1.39571, 1.39322, 1.39238, 1.38914, 1.38796, 1.3867, 1.38466, 1.37871, 1.38114, 1.37926, 1.3786, 1.37888, 1.37727, 1.37636, 1.3772, 1.37559, 1.37688, 1.37761, 1.37513, 1.37483, 1.37436, 1.37432, 1.37263, 1.37176, 1.37486, 1.37156, 1.37234, 1.36615, 1.36611, 1.36493, 1.36425, 1.36819, 1.3673, 1.35877, 1.36902, 1.36782, 1.36082, 1.36159, 1.3506, 1.35696, 1.37725, 1.37863, 1.3824, 1.38528, 1.40277, 1.40598, 1.405, 1.42617, 1.4126, 1.4505, 1.42996, 1.41662, 1.41445, 1.39966, 1.39546, 1.38105, 1.36418, 1.3162, 1.34226, 1.347, 1.34669, 1.35023, 1.33304, 1.33465, 1.32739, 1.32654, 1.32437, 1.32596, 1.32048, 1.32236, 1.32015, 1.31902, 1.31897, 1.31611, 1.31547, 1.31552, 1.31471, 1.31504, 1.31417, 1.31292, 1.31121, 1.30935, 1.3094, 1.3093, 1.33248
1.66677, 1.66175, 1.65893, 1.65566, 1.65807, 1.6659, 1.66202, 1.66848, 1.65557, 1.66129, 1.65154, 1.63769, 1.65226, 1.63701, 1.63037, 1.62621, 1.62749, 1.62947, 1.62446, 1.62038, 1.6384, 1.63116, 1.65351, 1.64377, 1.68225, 1.69653, 1.69876, 1.72314, 1.73019, 1.74102, 1.81651, 1.74874, 1.76386, 1.78064, 1.74775, 1.72226, 1.68243, 1.65805, 1.62434, 1.56722, 1.59285, 1.58976, 1.59895, 1.59081, 1.59014, 1.57969, 1.58555, 1.57668, 1.57987, 1.57438, 1.57185, 1.57358, 1.56803, 1.56651, 1.58905, 1.56181, 1.5666, 1.55925, 1.55328, 1.55249, 1.56226, 1.56246, 1.56167, 1.56039, 1.55366, 1.55664, 1.55667, 1.54533, 1.54675, 1.55205, 1.54136, 1.54674, 1.5377, 1.56235, 1.53923, 1.53554, 1.53725, 1.5324, 1.53157, 1.52995, 1.52688, 1.54456, 1.52998, 1.52372, 1.52338, 1.52136, 1.51941, 1.51822, 1.51689, 1.51676, 1.51536, 1.514, 1.51164, 1.50976, 1.51026, 1.50617, 1.51946, 1.50231, 1.502, 1.49947, 1.49669, 1.50454, 1.49554, 1.50273, 1.50004, 1.48899, 1.48894, 1.48866, 1.48825, 1.48881, 1.48922, 1.49137, 1.46483, 1.47382, 1.49904, 1.56867, 1.56681, 1.60366, 1.64829, 1.66813, 1.67978, 1.69888, 1.6956, 1.67604, 1.6198, 1.36272, 1.56853, 1.51254, 1.44811, 1.43767, 1.44214, 1.4571, 1.4561, 1.45959, 1.44795, 1.44796, 1.44169, 1.44116, 1.44729, 1.43886, 1.43755, 1.43776, 1.43736, 1.43626, 1.43464, 1.43123, 1.42989, 1.42951, 1.43038, 1.42631, 1.42454, 1.42353, 1.4261, 1.42588, 1.4256, 1.42557, 1.42306, 1.42224, 1.42039, 1.4196, 1.41961, 1.41553, 1.41492, 1.41266, 1.41138, 1.41225, 1.4095, 1.40771, 1.40743, 1.4054, 1.40487, 1.40288, 1.4026, 1.40296, 1.4019, 1.40094, 1.39948, 1.40091, 1.40037, 1.39905, 1.3968, 1.39857, 1.39679, 1.3914, 1.3958, 1.39543, 1.39441, 1.39212, 1.3951, 1.38841, 1.3868, 1.38271, 1.38459, 1.38106, 1.38026, 1.37933, 1.37997, 1.37633, 1.37824, 1.37691, 1.37711, 1.37613, 1.37498, 1.37248, 1.37458, 1.37462, 1.37197, 1.37257, 1.37188, 1.37002, 1.37063, 1.36977, 1.3678, 1.37011, 1.36612, 1.36748, 1.36485, 1.36313, 1.36674, 1.36189, 1.3688, 1.35888, 1.35149, 1.34205, 1.3574, 1.36505, 1.37256, 1.38206, 1.38474, 1.4431, 1.40937, 1.40562, 1.43354, 1.43366, 1.44951, 1.44781, 1.45094, 1.4296, 1.4546, 1.40567, 1.37151, 1.33417, 1.33034, 1.33724, 1.35961, 1.34321, 1.33731, 1.34013, 1.32904, 1.32679, 1.32391, 1.32549, 1.33284, 1.31962, 1.31957, 1.3269, 1.31748, 1.31663, 1.31626, 1.31715, 1.31523, 1.31301, 1.31521, 1.31317, 1.31166, 1.31171, 1.31015, 1.3083, 1.32293, 1.32632
1.65883, 1.65756, 1.65446, 1.65562, 1.65474, 1.66276, 1.6514, 1.66298, 1.66077, 1.66165, 1.64018, 1.63728, 1.64288, 1.64488, 1.62656, 1.62412, 1.62749, 1.63737, 1.62625, 1.6262, 1.60188, 1.62253, 1.63923, 1.67487, 1.70008, 1.76586, 1.73891, 1.77667, 1.7555, 1.7457, 1.75658, 1.76131, 1.75218, 1.73677, 1.72756, 1.68557, 1.70635, 1.66478, 1.57573, 1.56393, 1.59312, 1.59008, 1.60735, 1.59229, 1.59544, 1.58409, 1.57926, 1.57863, 1.5884, 1.58163, 1.5737, 1.5712, 1.575, 1.56997, 1.56658, 1.57281, 1.5596, 1.55908, 1.55595, 1.55587, 1.55579, 1.5695, 1.57546, 1.56439, 1.56165, 1.54786, 1.54716, 1.54637, 1.55766, 1.5463, 1.54999, 1.54211, 1.53982, 1.53819, 1.53562, 1.53603, 1.53478, 1.53371, 1.53429, 1.53156, 1.52967, 1.5264, 1.52512, 1.5233, 1.5224, 1.52185, 1.52099, 1.51987, 1.52343, 1.51613, 1.51435, 1.51326, 1.51375, 1.51126, 1.50931, 1.50616, 1.50352, 1.50458, 1.50361, 1.50191, 1.50138, 1.4972, 1.50375, 1.49289, 1.49032, 1.48918, 1.49039, 1.49039, 1.49221, 1.50675, 1.49619, 1.49496, 1.4639, 1.46577, 1.49525, 1.5195, 1.56378, 1.63083, 1.64491, 1.66656, 1.68873, 1.7006, 1.69703, 1.68866, 1.66175, 1.62139, 1.34006, 1.45925, 1.44203, 1.43729, 1.45058, 1.45344, 1.45474, 1.45225, 1.45564, 1.45012, 1.44223, 1.44098, 1.44051, 1.4398, 1.43987, 1.4394, 1.44046, 1.43763, 1.43659, 1.43374, 1.43252, 1.43221, 1.43191, 1.42838, 1.42488, 1.42576, 1.42496, 1.42569, 1.42389, 1.42361, 1.42244, 1.42232, 1.4221, 1.42075, 1.41911, 1.41761, 1.41493, 1.4117, 1.41331, 1.41367, 1.4101, 1.40928, 1.40702, 1.40617, 1.40681, 1.40499, 1.40404, 1.40274, 1.40184, 1.40241, 1.40222, 1.40326, 1.40118, 1.39982, 1.40138, 1.40146, 1.40125, 1.39945, 1.39754, 1.39641, 1.39571, 1.39478, 1.39178, 1.38865, 1.38587, 1.38754, 1.38582, 1.38424, 1.3844, 1.38085, 1.37929, 1.38101, 1.38115, 1.37777, 1.37819, 1.37757, 1.37662, 1.37518, 1.37469, 1.37296, 1.37394, 1.3721, 1.37044, 1.37097, 1.36788, 1.36941, 1.37103, 1.36913, 1.36798, 1.36799, 1.36711, 1.36556, 1.37773, 1.37206, 1.37765, 1.35891, 1.34864, 1.3577, 1.37071, 1.36769, 1.40682, 1.39119, 1.43256, 1.43469, 1.41737, 1.45409, 1.44399, 1.44549, 1.44274, 1.46332, 1.4545, 1.45086, 1.42955, 1.42362, 1.3924, 1.35307, 1.31945, 1.34856, 1.34545, 1.36137, 1.35111, 1.33905, 1.33325, 1.34423, 1.32865, 1.3235, 1.32268, 1.31973, 1.31815, 1.31762, 1.31672, 1.3159, 1.31629, 1.31565, 1.31572, 1.31494, 1.32032, 1.31148, 1.30992, 1.31161, 1.31098, 1.311, 1.31135, 1.31882
1.6619, 1.65453, 1.65494, 1.64839, 1.64673, 1.66561, 1.66777, 1.68009, 1.68879, 1.65355, 1.64705, 1.65129, 1.64355, 1.63249, 1.64428, 1.64693, 1.62987, 1.63761, 1.62531, 1.60607, 1.60259, 1.64434, 1.64118, 1.6751, 1.68956, 1.69061, 1.69683, 1.71979, 1.72079, 1.75023, 1.72382, 1.73007, 1.73003, 1.71538, 1.70539, 1.70113, 1.66454, 1.64979, 1.58836, 1.56804, 1.57962, 1.59691, 1.59467, 1.59898, 1.5936, 1.58479, 1.58596, 1.58369, 1.5884, 1.57994, 1.57698, 1.575, 1.57383, 1.5701, 1.5678, 1.56772, 1.56298, 1.56083, 1.57166, 1.56445, 1.55839, 1.57099, 1.56135, 1.58509, 1.58175, 1.57846, 1.55105, 1.54937, 1.54676, 1.5437, 1.54281, 1.54183, 1.54003, 1.54707, 1.53712, 1.53469, 1.53397, 1.53376, 1.53297, 1.53131, 1.53177, 1.5297, 1.54099, 1.53365, 1.52507, 1.52292, 1.52178, 1.52088, 1.51838, 1.51648, 1.51603, 1.51294, 1.51264, 1.50928, 1.50931, 1.50927, 1.50631, 1.50278, 1.5027, 1.50193, 1.50009, 1.49825, 1.49588, 1.49444, 1.49442, 1.49353, 1.49284, 1.49431, 1.49247, 1.49315, 1.49795, 1.49954, 1.47162, 1.4895, 1.56244, 1.52958, 1.57522, 1.59937, 1.61667, 1.65207, 1.68491, 1.69938, 1.69377, 1.68908, 1.6453, 1.57852, 1.33423, 1.5215, 1.46542, 1.4375, 1.4337, 1.44793, 1.45533, 1.46622, 1.44761, 1.45208, 1.44436, 1.45126, 1.44148, 1.44145, 1.44087, 1.44191, 1.44235, 1.43966, 1.43869, 1.43671, 1.43599, 1.43442, 1.43294, 1.43097, 1.42724, 1.4256, 1.42668, 1.43009, 1.42731, 1.42791, 1.42537, 1.42387, 1.42163, 1.42281, 1.42097, 1.4194, 1.41666, 1.41629, 1.41448, 1.41295, 1.41424, 1.41177, 1.41069, 1.40703, 1.40615, 1.40366, 1.40417, 1.40375, 1.4057, 1.40415, 1.40192, 1.40048, 1.40016, 1.39994, 1.39696, 1.39749, 1.39826, 1.39743, 1.39523, 1.39605, 1.39339, 1.39418, 1.38863, 1.38881, 1.38686, 1.3862, 1.38582, 1.3845, 1.38151, 1.38025, 1.38134, 1.37725, 1.37729, 1.37574, 1.37624, 1.37702, 1.37513, 1.37614, 1.37263, 1.37484, 1.37426, 1.37323, 1.37148, 1.36991, 1.36921, 1.36931, 1.36954, 1.37105, 1.37181, 1.36831, 1.3637, 1.36498, 1.37525, 1.37641, 1.37918, 1.37065, 1.34635, 1.3455, 1.37723, 1.40703, 1.40864, 1.39961, 1.46898, 1.41462, 1.41662, 1.43792, 1.44617, 1.4563, 1.45803, 1.47304, 1.4515, 1.47182, 1.44798, 1.40052, 1.39866, 1.34703, 1.32052, 1.33634, 1.35961, 1.35304, 1.35303, 1.34605, 1.35473, 1.3252, 1.32675, 1.32619, 1.32341, 1.32161, 1.3179, 1.31742, 1.31738, 1.31622, 1.31412, 1.31727, 1.31508, 1.31227, 1.3162, 1.31295, 1.30979, 1.31087, 1.31151, 1.30825, 1.3096, 1.3091
1.65562, 1.65346, 1.65383, 1.65248, 1.66097, 1.65808, 1.67799, 1.65898, 1.66565, 1.65386, 1.67156, 1.65508, 1.64463, 1.63439, 1.63824, 1.63841, 1.63129, 1.63978, 1.62754, 1.62971, 1.61577, 1.63834, 1.6367, 1.65061, 1.66429, 1.68512, 1.7243, 1.74199, 1.71595, 1.74039, 1.78651, 1.76277, 1.79331, 1.76856, 1.75304, 1.76209, 1.70629, 1.66831, 1.62655, 1.57942, 1.58581, 1.59559, 1.59544, 1.60388, 1.59009, 1.58864, 1.58809, 1.58497, 1.58445, 1.58235, 1.58027, 1.5798, 1.57748, 1.57401, 1.57144, 1.57938, 1.58487, 1.56441, 1.56344, 1.5683, 1.56054, 1.56886, 1.56755, 1.56847, 1.5754, 1.57191, 1.56901, 1.55401, 1.55714, 1.54556, 1.54335, 1.54132, 1.54028, 1.53791, 1.53664, 1.53714, 1.53391, 1.53456, 1.53348, 1.53213, 1.53187, 1.53159, 1.52803, 1.52741, 1.52401, 1.5231, 1.52264, 1.52069, 1.5211, 1.51758, 1.51549, 1.51444, 1.51367, 1.51052, 1.51008, 1.50898, 1.50773, 1.50628, 1.50353, 1.50144, 1.50089, 1.50036, 1.50039, 1.49821, 1.49747, 1.4982, 1.49499, 1.49708, 1.49568, 1.49584, 1.49469, 1.48773, 1.48215, 1.47414, 1.49391, 1.53563, 1.55709, 1.62359, 1.63061, 1.64142, 1.68975, 1.70441, 1.70507, 1.6932, 1.67965, 1.64167, 1.58576, 1.51563, 1.47554, 1.43057, 1.44044, 1.45891, 1.45882, 1.47094, 1.45847, 1.46209, 1.45396, 1.4474, 1.44471, 1.46539, 1.44299, 1.44498, 1.44237, 1.44107, 1.43974, 1.43852, 1.437, 1.43593, 1.43572, 1.43241, 1.43107, 1.42849, 1.42946, 1.42948, 1.42922, 1.42886, 1.42599, 1.42714, 1.42849, 1.42411, 1.42087, 1.41998, 1.42152, 1.4201, 1.41782, 1.41641, 1.41246, 1.41113, 1.41074, 1.41116, 1.40857, 1.40819, 1.40678, 1.40706, 1.40797, 1.40716, 1.40712, 1.40476, 1.403, 1.4008, 1.40042, 1.3993, 1.40136, 1.39958, 1.39793, 1.39727, 1.39664, 1.3959, 1.39483, 1.39101, 1.38872, 1.38774, 1.38535, 1.38329, 1.38322, 1.38305, 1.38156, 1.38198, 1.38279, 1.38012, 1.37793, 1.37614, 1.37665, 1.37526, 1.37618, 1.37893, 1.37424, 1.37239, 1.37421, 1.37186, 1.37117, 1.36857, 1.37044, 1.36916, 1.37009, 1.36919, 1.3682, 1.3671, 1.36669, 1.36774, 1.37131, 1.37094, 1.36773, 1.36368, 1.35717, 1.37362, 1.38485, 1.40275, 1.40023, 1.43076, 1.44476, 1.45028, 1.45026, 1.45204, 1.46159, 1.47821, 1.44819, 1.44779, 1.46927, 1.42301, 1.41552, 1.32568, 1.33576, 1.33675, 1.35577, 1.3611, 1.35114, 1.34126, 1.33458, 1.32972, 1.32887, 1.32074, 1.32039, 1.32025, 1.31907, 1.32246, 1.31822, 1.31672, 1.3186, 1.31554, 1.31666, 1.31522, 1.31582, 1.31134, 1.31066, 1.31147, 1.31284, 1.32024, 1.30678, 1.30741
1.65565, 1.65287, 1.65348, 1.6535, 1.65177, 1.64896, 1.65286, 1.67224, 1.67382, 1.68307, 1.65451, 1.64051, 1.65511, 1.64029, 1.64602, 1.641, 1.65762, 1.64766, 1.6375, 1.62277, 1.61126, 1.62068, 1.62455, 1.64923, 1.69958, 1.61044, 1.61007, 1.74786, 1.77866, 1.76476, 1.77361, 1.78254, 1.78292, 1.78454, 1.77111, 1.75605, 1.76882, 1.67901, 1.6193, 1.59102, 1.57564, 1.57766, 1.5975, 1.60278, 1.6043, 1.59247, 1.58741, 1.58856, 1.5869, 1.58545, 1.58409, 1.58237, 1.57987, 1.57749, 1.58073, 1.58943, 1.57521, 1.57178, 1.56613, 1.56768, 1.57055, 1.57944, 1.5683, 1.57714, 1.5806, 1.58251, 1.57778, 1.56113, 1.56098, 1.55483, 1.54641, 1.5484, 1.54545, 1.54054, 1.53803, 1.53724, 1.53541, 1.53384, 1.53452, 1.53359, 1.53342, 1.53117, 1.53083, 1.52822, 1.53074, 1.54561, 1.52373, 1.52367, 1.52289, 1.52196, 1.52025, 1.51759, 1.51636, 1.51434, 1.5141, 1.52995, 1.50772, 1.51251, 1.5032, 1.51575, 1.50361, 1.50812, 1.5019, 1.50235, 1.50092, 1.49894, 1.49809, 1.50469, 1.49576, 1.49619, 1.49878, 1.50571, 1.45363, 1.47514, 1.49326, 1.51933, 1.56957, 1.6264, 1.72054, 1.69615, 1.70932, 1.71004, 1.70453, 1.69825, 1.69221, 1.61295, 1.55836, 1.54121, 1.50212, 1.43411, 1.43586, 1.46463, 1.46806, 1.45852, 1.4659, 1.45278, 1.4649, 1.45172, 1.44967, 1.44743, 1.44701, 1.4444, 1.4441, 1.44243, 1.44364, 1.44134, 1.43792, 1.43747, 1.43755, 1.43635, 1.43231, 1.43377, 1.43134, 1.43095, 1.43003, 1.42943, 1.4296, 1.43001, 1.43019, 1.42827, 1.42738, 1.42932, 1.42362, 1.42263, 1.4209, 1.4205, 1.41632, 1.41731, 1.45712, 1.41525, 1.41385, 1.41391, 1.41201, 1.41156, 1.40858, 1.40709, 1.40934, 1.40683, 1.40523, 1.40312, 1.40342, 1.40264, 1.40048, 1.3988, 1.39913, 1.39863, 1.39713, 1.39659, 1.39495, 1.3948, 1.38986, 1.38943, 1.38748, 1.3865, 1.38471, 1.38441, 1.38466, 1.37935, 1.38853, 1.38366, 1.38096, 1.38002, 1.37865, 1.37759, 1.37884, 1.37766, 1.37615, 1.37589, 1.37763, 1.37447, 1.37309, 1.37223, 1.38357, 1.37146, 1.37126, 1.37297, 1.36729, 1.3683, 1.36947, 1.38214, 1.3811, 1.36602, 1.35438, 1.35169, 1.37602, 1.37589, 1.42007, 1.42283, 1.40324, 1.41362, 1.42672, 1.43452, 1.45106, 1.45406, 1.47295, 1.45428, 1.45671, 1.4661, 1.44583, 1.37854, 1.38826, 1.35386, 1.33365, 1.33434, 1.36385, 1.35267, 1.34587, 1.33963, 1.33412, 1.33246, 1.32933, 1.33011, 1.3409, 1.32553, 1.32135, 1.32054, 1.32251, 1.31652, 1.31685, 1.31939, 1.31595, 1.31589, 1.31439, 1.33412, 1.31908, 1.32666, 1.31569, 1.32618, 1.3262, 1.3283
1.65282, 1.65308, 1.65933, 1.6666, 1.6632, 1.65483, 1.6576, 1.6658, 1.6715, 1.6711, 1.67638, 1.67177, 1.64052, 1.65185, 1.64115, 1.64025, 1.65097, 1.65461, 1.6547, 1.6219, 1.61337, 1.63461, 1.66233, 1.67527, 1.68286, 1.69795, 1.75211, 1.74146, 1.76906, 1.74866, 1.80049, 1.78973, 1.79072, 1.79312, 1.77318, 1.74733, 1.71035, 1.66702, 1.65075, 1.57287, 1.58542, 1.60138, 1.623, 1.60607, 1.59951, 1.59492, 1.59137, 1.59682, 1.58862, 1.58849, 1.58596, 1.58282, 1.58163, 1.57816, 1.59169, 1.57478, 1.58272, 1.57841, 1.58298, 1.5702, 1.56627, 1.57119, 1.57929, 1.5826, 1.57573, 1.57477, 1.57638, 1.57502, 1.55495, 1.56471, 1.55437, 1.55824, 1.5542, 1.54192, 1.5399, 1.54999, 1.53741, 1.53825, 1.5371, 1.54458, 1.53323, 1.53753, 1.53054, 1.52913, 1.52756, 1.52511, 1.52455, 1.52976, 1.52216, 1.52187, 1.52018, 1.51754, 1.51656, 1.51616, 1.51257, 1.51168, 1.51555, 1.50765, 1.52439, 1.52022, 1.50417, 1.50367, 1.50329, 1.50282, 1.50174, 1.50169, 1.50855, 1.49865, 1.49902, 1.5045, 1.51329, 1.49535, 1.48209, 1.47054, 1.48922, 1.52621, 1.57192, 1.55133, 1.63757, 1.6405, 1.68685, 1.68173, 1.69665, 1.67861, 1.68668, 1.65275, 1.57897, 1.54963, 1.54084, 1.45291, 1.43928, 1.45271, 1.47722, 1.47587, 1.46897, 1.47651, 1.45582, 1.45502, 1.4514, 1.45243, 1.45039, 1.44533, 1.44991, 1.44461, 1.4442, 1.44149, 1.4401, 1.43857, 1.43703, 1.43862, 1.43636, 1.43437, 1.43367, 1.43434, 1.43255, 1.43046, 1.43005, 1.43028, 1.42916, 1.43037, 1.42769, 1.42983, 1.42957, 1.42599, 1.42357, 1.42273, 1.41924, 1.41862, 1.41645, 1.4141, 1.41447, 1.41324, 1.41288, 1.41215, 1.413, 1.41736, 1.40723, 1.4073, 1.40708, 1.40636, 1.40782, 1.40446, 1.40424, 1.40342, 1.41046, 1.40148, 1.39982, 1.39815, 1.39644, 1.39528, 1.39244, 1.39589, 1.38929, 1.39037, 1.39142, 1.38648, 1.38626, 1.42993, 1.38414, 1.38239, 1.38141, 1.38063, 1.38057, 1.38827, 1.38543, 1.37751, 1.37863, 1.37799, 1.40558, 1.37302, 1.37391, 1.37261, 1.37914, 1.37232, 1.37126, 1.37935, 1.3691, 1.3694, 1.36978, 1.37188, 1.38667, 1.39495, 1.39557, 1.35388, 1.35983, 1.38065, 1.38977, 1.39544, 1.40828, 1.41042, 1.42435, 1.434, 1.4432, 1.45078, 1.4526, 1.45293, 1.45018, 1.46845, 1.42466, 1.40902, 1.39167, 1.38057, 1.33028, 1.35982, 1.36053, 1.3462, 1.35513, 1.34366, 1.34195, 1.33335, 1.3539, 1.33222, 1.33007, 1.32781, 1.32963, 1.32625, 1.32364, 1.33229, 1.34754, 1.32339, 1.32264, 1.32096, 1.31721, 1.31755, 1.31967, 1.34083, 1.31996, 1.31967, 1.32747, 1.32566
1.6654, 1.65754, 1.6625, 1.65174, 1.65255, 1.66008, 1.65847, 1.66257, 1.67275, 1.66639, 1.6746, 1.65335, 1.65104, 1.64972, 1.65809, 1.66115, 1.65887, 1.64696, 1.65113, 1.63329, 1.6262, 1.63516, 1.64056, 1.67237, 1.71963, 1.72016, 1.71445, 1.75431, 1.75475, 1.76886, 1.81427, 1.79974, 1.79392, 1.8033, 1.76605, 1.75732, 1.74439, 1.6971, 1.61111, 1.63088, 1.61489, 1.60534, 1.61399, 1.60658, 1.59627, 1.6119, 1.59576, 1.59142, 1.58925, 1.58646, 1.58699, 1.58342, 1.58097, 1.57868, 1.57735, 1.57504, 1.57391, 1.58595, 1.57154, 1.56983, 1.57655, 1.57744, 1.58647, 1.56958, 1.58278, 1.57772, 1.56049, 1.57217, 1.55751, 1.55653, 1.55063, 1.55325, 1.54686, 1.54767, 1.54826, 1.54054, 1.53911, 1.53797, 1.53679, 1.53544, 1.53431, 1.53271, 1.53038, 1.52758, 1.52668, 1.52652, 1.52596, 1.52377, 1.52284, 1.52202, 1.51788, 1.5168, 1.54862, 1.51293, 1.51066, 1.51063, 1.50914, 1.50713, 1.50546, 1.50615, 1.5066, 1.50364, 1.50311, 1.50172, 1.50052, 1.49962, 1.49833, 1.50225, 1.49708, 1.50252, 1.49639, 1.49489, 1.48531, 1.4679, 1.47817, 1.55066, 1.56867, 1.58467, 1.55146, 1.63168, 1.66831, 1.68126, 1.68684, 1.69329, 1.67162, 1.64577, 1.61791, 1.57844, 1.50519, 1.43581, 1.43161, 1.46905, 1.47858, 1.46734, 1.46656, 1.46223, 1.46501, 1.45799, 1.45763, 1.45266, 1.45151, 1.45077, 1.45447, 1.44667, 1.44638, 1.44334, 1.44324, 1.44069, 1.43838, 1.43726, 1.43491, 1.43736, 1.4329, 1.43344, 1.43118, 1.43222, 1.43055, 1.43051, 1.43076, 1.4306, 1.42938, 1.42762, 1.42599, 1.4242, 1.42264, 1.42106, 1.42157, 1.41901, 1.41864, 1.41804, 1.41565, 1.41731, 1.41305, 1.41213, 1.41214, 1.41134, 1.41017, 1.41541, 1.40883, 1.40711, 1.40711, 1.40603, 1.40292, 1.40267, 1.40305, 1.40084, 1.39945, 1.39724, 1.39605, 1.39569, 1.39481, 1.39325, 1.38917, 1.38781, 1.38804, 1.38836, 1.3869, 1.38316, 1.38478, 1.38474, 1.38142, 1.38136, 1.37773, 1.38164, 1.37769, 1.37502, 1.37699, 1.37589, 1.3755, 1.37454, 1.37475, 1.37371, 1.37222, 1.37246, 1.37926, 1.37029, 1.38373, 1.37077, 1.36946, 1.37125, 1.38607, 1.36319, 1.35855, 1.35043, 1.35464, 1.37842, 1.3769, 1.39508, 1.40333, 1.41582, 1.43668, 1.43736, 1.44436, 1.44158, 1.41826, 1.44947, 1.4502, 1.43848, 1.43253, 1.42544, 1.34704, 1.36413, 1.3365, 1.33012, 1.34888, 1.35438, 1.34679, 1.33935, 1.33769, 1.33693, 1.33602, 1.33151, 1.33172, 1.32978, 1.32886, 1.32704, 1.32925, 1.32638, 1.32688, 1.32571, 1.32213, 1.32028, 1.32005, 1.31916, 1.32568, 1.3209, 1.32223, 1.3227, 1.32476, 1.32936
1.66792, 1.65675, 1.65588, 1.65527, 1.65445, 1.65283, 1.65763, 1.66631, 1.67275, 1.67953, 1.68445, 1.67556, 1.665, 1.65898, 1.65581, 1.65267, 1.64499, 1.65583, 1.64669, 1.64428, 1.62075, 1.62565, 1.64756, 1.66571, 1.69717, 1.70598, 1.71775, 1.72104, 1.74529, 1.78883, 1.77952, 1.77602, 1.78169, 1.7943, 1.75276, 1.75077, 1.73197, 1.68039, 1.63556, 1.58712, 1.58571, 1.59817, 1.60604, 1.606, 1.609, 1.59491, 1.59945, 1.6098, 1.59329, 1.58604, 1.58909, 1.58315, 1.58625, 1.57812, 1.57854, 1.58914, 1.57837, 1.5753, 1.58606, 1.57171, 1.56905, 1.57021, 1.57625, 1.56789, 1.57576, 1.57898, 1.58598, 1.578, 1.56573, 1.55592, 1.56089, 1.54976, 1.55116, 1.55315, 1.54184, 1.54102, 1.55039, 1.53798, 1.53539, 1.53504, 1.53358, 1.53156, 1.52986, 1.52721, 1.5256, 1.52644, 1.52734, 1.52419, 1.52242, 1.52049, 1.51972, 1.51645, 1.52062, 1.51469, 1.51474, 1.5341, 1.5106, 1.50931, 1.50768, 1.50648, 1.51884, 1.50607, 1.50347, 1.50283, 1.50384, 1.50927, 1.4996, 1.49864, 1.51042, 1.49885, 1.4991, 1.49631, 1.48928, 1.46878, 1.48325, 1.51329, 1.57509, 1.62623, 1.56391, 1.5632, 1.67946, 1.69788, 1.6966, 1.69888, 1.69029, 1.66813, 1.62422, 1.54857, 1.50157, 1.44718, 1.46485, 1.4749, 1.4724, 1.47131, 1.47088, 1.46646, 1.46473, 1.46021, 1.46148, 1.45723, 1.45813, 1.47241, 1.45285, 1.44933, 1.44776, 1.44525, 1.44337, 1.4424, 1.44047, 1.43884, 1.44695, 1.43581, 1.43472, 1.43233, 1.43219, 1.43186, 1.4318, 1.4308, 1.42976, 1.43031, 1.43018, 1.42808, 1.4268, 1.42621, 1.42601, 1.42376, 1.42202, 1.42099, 1.42002, 1.42025, 1.41837, 1.41654, 1.41566, 1.41603, 1.41432, 1.41369, 1.414, 1.41157, 1.4119, 1.4111, 1.41002, 1.40588, 1.40278, 1.40207, 1.40026, 1.39998, 1.39807, 1.39724, 1.39631, 1.39531, 1.39282, 1.39011, 1.38897, 1.38743, 1.38599, 1.38638, 1.38531, 1.38334, 1.3834, 1.38256, 1.38085, 1.3812, 1.37804, 1.37665, 1.37595, 1.37713, 1.37409, 1.37408, 1.37244, 1.37388, 1.37409, 1.37117, 1.3715, 1.37101, 1.36991, 1.37517, 1.36898, 1.36725, 1.36842, 1.37185, 1.36964, 1.37367, 1.38119, 1.36059, 1.3612, 1.3964, 1.38548, 1.43015, 1.43531, 1.42613, 1.44321, 1.43816, 1.44061, 1.45351, 1.48343, 1.46392, 1.48665, 1.44414, 1.44827, 1.39437, 1.38887, 1.39704, 1.32128, 1.34419, 1.34515, 1.36494, 1.35671, 1.34472, 1.34678, 1.33983, 1.33633, 1.33156, 1.33107, 1.33075, 1.32778, 1.32831, 1.33052, 1.32456, 1.326, 1.32424, 1.32611, 1.34028, 1.32028, 1.32641, 1.3231, 1.32361, 1.32455, 1.33054, 1.32702, 1.32709
1.66134, 1.66011, 1.65984, 1.65794, 1.658, 1.65532, 1.65936, 1.65643, 1.65365, 1.64767, 1.6626, 1.65923, 1.66471, 1.66069, 1.66276, 1.66503, 1.64873, 1.6488, 1.64802, 1.64135, 1.63199, 1.62777, 1.64128, 1.66034, 1.6655, 1.66243, 1.67852, 1.73309, 1.69375, 1.75124, 1.77666, 1.77479, 1.77968, 1.70964, 1.75254, 1.75133, 1.69621, 1.6768, 1.63604, 1.57898, 1.614, 1.61038, 1.61312, 1.60945, 1.61032, 1.61237, 1.60061, 1.58953, 1.58787, 1.58525, 1.5843, 1.58368, 1.58148, 1.57998, 1.57957, 1.5789, 1.57632, 1.57651, 1.57352, 1.57343, 1.5741, 1.57, 1.56859, 1.56866, 1.56974, 1.58476, 1.58213, 1.57889, 1.56956, 1.57133, 1.5533, 1.55701, 1.54756, 1.5451, 1.5437, 1.54425, 1.54619, 1.53834, 1.53687, 1.53428, 1.53292, 1.53087, 1.53015, 1.53083, 1.54425, 1.52796, 1.52695, 1.52488, 1.52325, 1.52098, 1.51955, 1.51958, 1.52433, 1.51721, 1.51559, 1.51514, 1.51411, 1.51266, 1.50959, 1.50883, 1.50682, 1.50608, 1.50826, 1.50306, 1.50267, 1.50169, 1.49968, 1.5005, 1.49773, 1.49939, 1.49992, 1.51099, 1.48818, 1.47123, 1.48122, 1.5335, 1.54309, 1.61722, 1.6434, 1.54951, 1.70957, 1.71039, 1.71032, 1.70538, 1.69735, 1.66058, 1.58461, 1.55884, 1.49703, 1.46196, 1.45895, 1.47573, 1.47512, 1.47874, 1.47137, 1.4675, 1.46598, 1.46567, 1.4598, 1.47426, 1.46171, 1.45469, 1.45168, 1.4503, 1.44588, 1.44512, 1.44441, 1.44285, 1.43971, 1.43775, 1.43569, 1.43635, 1.44, 1.43448, 1.43091, 1.42977, 1.43083, 1.43042, 1.43069, 1.42839, 1.42971, 1.43301, 1.42811, 1.42572, 1.4263, 1.42602, 1.4258, 1.42435, 1.42299, 1.41931, 1.41865, 1.41747, 1.41587, 1.41468, 1.41456, 1.41356, 1.41228, 1.41328, 1.41281, 1.41229, 1.40996, 1.40657, 1.40539, 1.40245, 1.39996, 1.3996, 1.39853, 1.39703, 1.39417, 1.39025, 1.39148, 1.38939, 1.38861, 1.38733, 1.38563, 1.38446, 1.38317, 1.38292, 1.37984, 1.38084, 1.38013, 1.37791, 1.37664, 1.37504, 1.37637, 1.37454, 1.37459, 1.3736, 1.37209, 1.37351, 1.37264, 1.3711, 1.37113, 1.37121, 1.37031, 1.36732, 1.36901, 1.36755, 1.38523, 1.37734, 1.37211, 1.37844, 1.36399, 1.34908, 1.39955, 1.39977, 1.39358, 1.42354, 1.42598, 1.48502, 1.46107, 1.45447, 1.5013, 1.47247, 1.49532, 1.47171, 1.46204, 1.45106, 1.43747, 1.43027, 1.40971, 1.36851, 1.32268, 1.33266, 1.35149, 1.35136, 1.34787, 1.33881, 1.33682, 1.33367, 1.33019, 1.34412, 1.32942, 1.33028, 1.33063, 1.3292, 1.32712, 1.33376, 1.32382, 1.32363, 1.32088, 1.32361, 1.31985, 1.3201, 1.33119, 1.32354, 1.3257, 1.32408, 1.32628, 1.34095
1.66411, 1.66296, 1.66237, 1.66081, 1.65868, 1.65808, 1.65716, 1.65871, 1.67965, 1.6854, 1.6851, 1.67668, 1.66973, 1.6688, 1.65417, 1.64852, 1.65046, 1.65098, 1.65115, 1.65484, 1.63763, 1.62338, 1.65809, 1.66113, 1.7168, 1.73765, 1.7131, 1.71639, 1.76475, 1.74135, 1.83007, 1.80126, 1.79462, 1.76666, 1.75459, 1.74889, 1.73034, 1.67273, 1.6324, 1.59543, 1.58346, 1.60896, 1.60441, 1.61475, 1.60334, 1.60894, 1.5957, 1.59576, 1.58809, 1.58702, 1.58613, 1.58431, 1.58969, 1.58131, 1.57928, 1.5845, 1.57887, 1.57577, 1.57543, 1.57337, 1.57188, 1.59829, 1.58225, 1.57778, 1.57146, 1.58932, 1.59309, 1.57457, 1.57428, 1.57508, 1.55422, 1.55431, 1.55497, 1.54885, 1.54496, 1.5439, 1.54192, 1.53827, 1.53745, 1.53596, 1.53453, 1.53194, 1.53183, 1.53065, 1.52982, 1.52882, 1.52813, 1.52664, 1.52589, 1.52257, 1.52285, 1.52015, 1.51915, 1.51845, 1.51628, 1.53015, 1.52726, 1.51314, 1.51713, 1.50965, 1.50899, 1.50815, 1.50623, 1.50499, 1.5048, 1.50278, 1.50185, 1.49991, 1.50074, 1.50239, 1.50104, 1.50756, 1.50847, 1.46472, 1.48969, 1.49267, 1.54381, 1.58597, 1.6378, 1.56542, 1.68646, 1.70462, 1.70812, 1.70119, 1.69008, 1.61351, 1.59524, 1.55956, 1.51074, 1.46459, 1.45825, 1.46204, 1.47625, 1.47671, 1.47079, 1.47959, 1.4676, 1.47176, 1.47648, 1.46269, 1.45866, 1.46517, 1.46645, 1.46284, 1.448, 1.44706, 1.44578, 1.4441, 1.44157, 1.43951, 1.43862, 1.43736, 1.4354, 1.4345, 1.43271, 1.43231, 1.43253, 1.43249, 1.43148, 1.42932, 1.42991, 1.46872, 1.42841, 1.42616, 1.42599, 1.42585, 1.42629, 1.42306, 1.4207, 1.41967, 1.41902, 1.41879, 1.41627, 1.41665, 1.41508, 1.41448, 1.41459, 1.41296, 1.41432, 1.41263, 1.41123, 1.40582, 1.40301, 1.39994, 1.39951, 1.39752, 1.39506, 1.39498, 1.39414, 1.39304, 1.39453, 1.38828, 1.3871, 1.38687, 1.38655, 1.38374, 1.383, 1.38149, 1.37987, 1.3784, 1.3775, 1.37755, 1.37833, 1.37557, 1.37433, 1.37402, 1.37229, 1.37158, 1.3717, 1.37125, 1.37238, 1.3779, 1.36884, 1.36881, 1.36876, 1.36761, 1.36602, 1.36619, 1.36801, 1.38, 1.37877, 1.38017, 1.37558, 1.34388, 1.36494, 1.3968, 1.4516, 1.42369, 1.4414, 1.4475, 1.44864, 1.45435, 1.48297, 1.45595, 1.4663, 1.46574, 1.50955, 1.45888, 1.43719, 1.441, 1.40115, 1.37599, 1.3444, 1.32966, 1.35061, 1.36414, 1.35277, 1.3469, 1.33714, 1.3412, 1.33245, 1.33065, 1.33216, 1.3482, 1.32874, 1.32584, 1.32758, 1.32653, 1.32594, 1.32293, 1.32409, 1.33444, 1.32363, 1.32224, 1.3377, 1.34466, 1.33086, 1.33297, 1.33979, 1.32752
1.66761, 1.6665, 1.66511, 1.66276, 1.662, 1.65844, 1.66773, 1.6642, 1.65495, 1.67676, 1.69241, 1.67502, 1.6752, 1.66935, 1.66266, 1.65524, 1.6506, 1.65116, 1.65149, 1.6528, 1.62389, 1.62746, 1.63771, 1.63853, 1.65882, 1.69927, 1.73058, 1.73859, 1.73702, 1.74218, 1.69355, 1.69002, 1.77447, 1.76537, 1.76444, 1.74942, 1.71648, 1.70337, 1.62399, 1.60271, 1.58406, 1.61239, 1.61255, 1.61362, 1.61053, 1.59949, 1.60507, 1.58997, 1.58831, 1.58612, 1.58433, 1.58201, 1.59349, 1.59148, 1.58022, 1.57815, 1.57757, 1.57628, 1.57449, 1.57415, 1.57825, 1.58478, 1.5692, 1.57845, 1.57426, 1.5752, 1.58185, 1.59238, 1.5742, 1.56679, 1.56154, 1.55718, 1.55185, 1.55306, 1.548, 1.55215, 1.5452, 1.54171, 1.54025, 1.53871, 1.53611, 1.53355, 1.53315, 1.53223, 1.53143, 1.53057, 1.52982, 1.52795, 1.5271, 1.52413, 1.53103, 1.52246, 1.5187, 1.52199, 1.51677, 1.5416, 1.51499, 1.51378, 1.5131, 1.51233, 1.50908, 1.50922, 1.50794, 1.50638, 1.50519, 1.50219, 1.5133, 1.5053, 1.50036, 1.50088, 1.50006, 1.49286, 1.49769, 1.48028, 1.49773, 1.52271, 1.56624, 1.57085, 1.69201, 1.67068, 1.66528, 1.67585, 1.69954, 1.6748, 1.6553, 1.62522, 1.59395, 1.57265, 1.52784, 1.48594, 1.43723, 1.46162, 1.48474, 1.47743, 1.48114, 1.47537, 1.47444, 1.4686, 1.48145, 1.48158, 1.46077, 1.46378, 1.46115, 1.46077, 1.45215, 1.44829, 1.44807, 1.44518, 1.44219, 1.44466, 1.44076, 1.43994, 1.43784, 1.43636, 1.435, 1.43366, 1.43272, 1.4334, 1.43124, 1.43096, 1.43081, 1.43071, 1.42908, 1.42878, 1.42653, 1.42545, 1.42613, 1.42382, 1.42252, 1.45061, 1.4214, 1.42147, 1.41999, 1.41975, 1.41735, 1.41708, 1.41651, 1.41555, 1.41231, 1.41247, 1.412, 1.40611, 1.40405, 1.40228, 1.40138, 1.40034, 1.39978, 1.39649, 1.39621, 1.3943, 1.39138, 1.39297, 1.38994, 1.38895, 1.38652, 1.38506, 1.38389, 1.38312, 1.38015, 1.37831, 1.37811, 1.37533, 1.3779, 1.37543, 1.3748, 1.37249, 1.37367, 1.37797, 1.36931, 1.37105, 1.37014, 1.36811, 1.36937, 1.36677, 1.37022, 1.37166, 1.3716, 1.3781, 1.37499, 1.38478, 1.38571, 1.37766, 1.37518, 1.35013, 1.35804, 1.35985, 1.40389, 1.40177, 1.40014, 1.47358, 1.46615, 1.44447, 1.45168, 1.45488, 1.46375, 1.46525, 1.49991, 1.46378, 1.42657, 1.42676, 1.39598, 1.34659, 1.35041, 1.32077, 1.34262, 1.35386, 1.34366, 1.35838, 1.33813, 1.33933, 1.33306, 1.33175, 1.33061, 1.33159, 1.32993, 1.33091, 1.33438, 1.32715, 1.32634, 1.32485, 1.33053, 1.32455, 1.32491, 1.33943, 1.33218, 1.33345, 1.34389, 1.33658, 1.32957, 1.332
1.68607, 1.67482, 1.66641, 1.67166, 1.66226, 1.66905, 1.66106, 1.66274, 1.66408, 1.6654, 1.67845, 1.66603, 1.67711, 1.66204, 1.65973, 1.65859, 1.65056, 1.654, 1.64876, 1.64179, 1.642, 1.61667, 1.64438, 1.67795, 1.66246, 1.69755, 1.6757, 1.6994, 1.73925, 1.74322, 1.76885, 1.8029, 1.78502, 1.76179, 1.76406, 1.76692, 1.72718, 1.68573, 1.66149, 1.59273, 1.58314, 1.6201, 1.61903, 1.61567, 1.6143, 1.60674, 1.59184, 1.58941, 1.58824, 1.58547, 1.5831, 1.58544, 1.58219, 1.59243, 1.57918, 1.59034, 1.57948, 1.57427, 1.57354, 1.57389, 1.57506, 1.57217, 1.56909, 1.57179, 1.56557, 1.55473, 1.59296, 1.58981, 1.58008, 1.58159, 1.56466, 1.56864, 1.55868, 1.55182, 1.54773, 1.54552, 1.54352, 1.54271, 1.54352, 1.54051, 1.53898, 1.53761, 1.53522, 1.53539, 1.53335, 1.53275, 1.53212, 1.53128, 1.5291, 1.5278, 1.52418, 1.5258, 1.52367, 1.52134, 1.51775, 1.5296, 1.51679, 1.5152, 1.51978, 1.51238, 1.52009, 1.51032, 1.51002, 1.50926, 1.50611, 1.50584, 1.50194, 1.51071, 1.50709, 1.52009, 1.50224, 1.50665, 1.496, 1.46899, 1.47597, 1.56085, 1.56716, 1.64598, 1.63721, 1.57504, 1.66233, 1.67472, 1.67979, 1.6856, 1.67133, 1.63775, 1.61459, 1.5623, 1.52336, 1.46803, 1.44598, 1.46308, 1.48519, 1.48208, 1.48317, 1.4827, 1.46897, 1.46837, 1.47188, 1.47897, 1.461, 1.45844, 1.45329, 1.45439, 1.45198, 1.45737, 1.44868, 1.44819, 1.44572, 1.44318, 1.44164, 1.46674, 1.44098, 1.438, 1.43676, 1.43488, 1.43369, 1.4348, 1.43257, 1.43143, 1.43394, 1.43346, 1.43147, 1.43039, 1.42734, 1.42598, 1.42545, 1.42513, 1.42344, 1.42303, 1.42305, 1.42145, 1.42048, 1.42121, 1.41923, 1.4192, 1.41657, 1.4157, 1.41451, 1.41315, 1.41222, 1.41601, 1.40678, 1.40691, 1.40525, 1.40544, 1.40269, 1.40061, 1.39965, 1.39783, 1.3957, 1.39503, 1.39138, 1.38879, 1.38903, 1.38531, 1.38491, 1.3845, 1.38473, 1.3818, 1.38071, 1.37907, 1.37606, 1.37747, 1.37734, 1.3744, 1.37226, 1.37299, 1.37131, 1.37075, 1.37274, 1.37163, 1.37141, 1.37079, 1.3712, 1.37208, 1.37183, 1.38182, 1.37946, 1.37784, 1.37475, 1.38128, 1.38198, 1.36493, 1.39586, 1.40998, 1.38246, 1.4278, 1.4206, 1.44459, 1.44522, 1.45117, 1.50264, 1.52473, 1.49079, 1.45915, 1.46465, 1.4528, 1.44649, 1.46594, 1.41047, 1.35942, 1.33577, 1.32956, 1.35587, 1.35394, 1.36718, 1.34105, 1.33658, 1.33697, 1.33733, 1.34036, 1.33373, 1.3338, 1.33995, 1.33736, 1.34088, 1.32784, 1.331, 1.32805, 1.34373, 1.32592, 1.32599, 1.32425, 1.33239, 1.34692, 1.32708, 1.3576, 1.33417, 1.34095
1.67093, 1.6688, 1.66783, 1.66564, 1.66246, 1.66429, 1.65825, 1.6551, 1.66199, 1.66687, 1.67965, 1.68609, 1.67677, 1.66918, 1.67213, 1.66188, 1.6541, 1.64824, 1.65365, 1.6453, 1.62955, 1.61898, 1.62993, 1.6411, 1.67896, 1.68078, 1.69259, 1.73389, 1.74873, 1.76467, 1.83102, 1.76875, 1.79073, 1.78341, 1.76773, 1.73629, 1.71016, 1.72021, 1.65097, 1.60663, 1.59618, 1.61975, 1.61503, 1.61756, 1.60942, 1.60304, 1.59171, 1.59525, 1.58685, 1.58573, 1.58249, 1.58254, 1.58918, 1.58013, 1.5784, 1.57712, 1.57593, 1.57593, 1.57279, 1.57567, 1.58607, 1.5716, 1.58331, 1.57758, 1.57488, 1.56458, 1.56902, 1.58721, 1.57881, 1.57419, 1.57178, 1.57183, 1.57095, 1.55116, 1.56048, 1.54696, 1.5505, 1.54471, 1.54244, 1.54339, 1.53873, 1.53805, 1.53995, 1.53408, 1.53426, 1.53172, 1.53046, 1.53142, 1.52912, 1.52843, 1.52665, 1.52457, 1.52261, 1.52061, 1.51954, 1.51915, 1.52357, 1.51575, 1.52113, 1.51288, 1.52511, 1.50963, 1.53066, 1.50759, 1.50889, 1.50433, 1.51916, 1.51194, 1.5174, 1.51358, 1.5018, 1.50496, 1.49954, 1.47922, 1.47833, 1.5259, 1.55117, 1.60157, 1.62276, 1.561, 1.6692, 1.67941, 1.70197, 1.70357, 1.68487, 1.66377, 1.63214, 1.56488, 1.5315, 1.44807, 1.44304, 1.48524, 1.47858, 1.48207, 1.47965, 1.47524, 1.47938, 1.47541, 1.46728, 1.46548, 1.46065, 1.46086, 1.47291, 1.46866, 1.45253, 1.4532, 1.45006, 1.4502, 1.4486, 1.45244, 1.44198, 1.44057, 1.4422, 1.43898, 1.43697, 1.43737, 1.43618, 1.43685, 1.43576, 1.43419, 1.43274, 1.43269, 1.43065, 1.42994, 1.42897, 1.42627, 1.42655, 1.42456, 1.42566, 1.42475, 1.42403, 1.42384, 1.42306, 1.42076, 1.41996, 1.41907, 1.4174, 1.4165, 1.41577, 1.41262, 1.41196, 1.41069, 1.40881, 1.409, 1.40602, 1.40424, 1.40869, 1.40097, 1.40106, 1.39925, 1.39787, 1.39361, 1.39192, 1.39172, 1.38933, 1.38895, 1.38662, 1.38508, 1.38378, 1.38002, 1.38098, 1.38109, 1.38082, 1.37872, 1.37718, 1.37536, 1.37552, 1.37327, 1.37504, 1.37192, 1.37144, 1.37177, 1.37897, 1.37342, 1.37158, 1.39637, 1.37136, 1.37709, 1.37561, 1.38597, 1.38271, 1.39277, 1.38033, 1.37447, 1.36634, 1.38806, 1.42986, 1.47284, 1.44884, 1.48533, 1.45237, 1.47147, 1.46831, 1.46127, 1.46523, 1.46585, 1.46353, 1.45397, 1.42422, 1.43015, 1.43103, 1.38225, 1.37761, 1.32554, 1.35224, 1.34716, 1.34837, 1.34773, 1.34933, 1.33976, 1.33936, 1.33658, 1.34941, 1.33397, 1.34993, 1.33017, 1.34784, 1.32707, 1.34129, 1.32496, 1.34813, 1.32521, 1.32673, 1.33758, 1.32575, 1.33065, 1.32804, 1.3462, 1.34814, 1.34702
1.67567, 1.67157, 1.66658, 1.66651, 1.66414, 1.67554, 1.67147, 1.65811, 1.65782, 1.66776, 1.67017, 1.68119, 1.67124, 1.67234, 1.65062, 1.64346, 1.66053, 1.6544, 1.64834, 1.64729, 1.63674, 1.62282, 1.62904, 1.64138, 1.72511, 1.74361, 1.78251, 1.79927, 1.79844, 1.77225, 1.77539, 1.80348, 1.79262, 1.82089, 1.78769, 1.78158, 1.70807, 1.7028, 1.63454, 1.61608, 1.5889, 1.60463, 1.61015, 1.62029, 1.60601, 1.59901, 1.59059, 1.5898, 1.58959, 1.60104, 1.59376, 1.58272, 1.59526, 1.58114, 1.59348, 1.57818, 1.57866, 1.57562, 1.57448, 1.57222, 1.57319, 1.59025, 1.58873, 1.56963, 1.58796, 1.58906, 1.58484, 1.60374, 1.6088, 1.60811, 1.58166, 1.55786, 1.56791, 1.56063, 1.55229, 1.55645, 1.54728, 1.54579, 1.54419, 1.54208, 1.55064, 1.55259, 1.53902, 1.53852, 1.53534, 1.53467, 1.53347, 1.53121, 1.5298, 1.52929, 1.52667, 1.52398, 1.5224, 1.52296, 1.52668, 1.53002, 1.5165, 1.51816, 1.51601, 1.53638, 1.51235, 1.53089, 1.50915, 1.50632, 1.50519, 1.52369, 1.52412, 1.5228, 1.51605, 1.51902, 1.50367, 1.51561, 1.52337, 1.47208, 1.47426, 1.53575, 1.55501, 1.57345, 1.6859, 1.57268, 1.67939, 1.69209, 1.6994, 1.7007, 1.71797, 1.66459, 1.6305, 1.55576, 1.51656, 1.48216, 1.45014, 1.46609, 1.48852, 1.48746, 1.486, 1.49162, 1.47891, 1.47531, 1.47059, 1.48257, 1.46353, 1.46512, 1.45861, 1.45799, 1.45525, 1.45478, 1.45352, 1.45115, 1.4501, 1.4479, 1.44256, 1.44501, 1.4421, 1.443, 1.44013, 1.43826, 1.43883, 1.43735, 1.43683, 1.43646, 1.44001, 1.43636, 1.43366, 1.43247, 1.43128, 1.4294, 1.42797, 1.42688, 1.42593, 1.42523, 1.42278, 1.42321, 1.42114, 1.42198, 1.42074, 1.41956, 1.41664, 1.41728, 1.41628, 1.41396, 1.4121, 1.41209, 1.41053, 1.40932, 1.40963, 1.41544, 1.40509, 1.40293, 1.40198, 1.40223, 1.39877, 1.39817, 1.39668, 1.39361, 1.39135, 1.39188, 1.39133, 1.38804, 1.38708, 1.38472, 1.38268, 1.38198, 1.38554, 1.38047, 1.37916, 1.37709, 1.37656, 1.37747, 1.37657, 1.37432, 1.37585, 1.37278, 1.37483, 1.37471, 1.37438, 1.37419, 1.37427, 1.38786, 1.38663, 1.38544, 1.37946, 1.39562, 1.37812, 1.34976, 1.37769, 1.39173, 1.44054, 1.42536, 1.45602, 1.44625, 1.45415, 1.48551, 1.48062, 1.47984, 1.46911, 1.46832, 1.46978, 1.44221, 1.4504, 1.39931, 1.40261, 1.38939, 1.36648, 1.34346, 1.34771, 1.35239, 1.35679, 1.34764, 1.34674, 1.34039, 1.33924, 1.3403, 1.33616, 1.33288, 1.33458, 1.33309, 1.33601, 1.34677, 1.35193, 1.32714, 1.32858, 1.32649, 1.32677, 1.32707, 1.32748, 1.32889, 1.32924, 1.32781, 1.33723, 1.33071
1.6704, 1.66835, 1.69261, 1.66484, 1.67463, 1.66946, 1.67249, 1.67298, 1.67575, 1.66511, 1.66251, 1.69338, 1.68312, 1.6788, 1.65881, 1.65587, 1.65384, 1.65173, 1.65136, 1.64527, 1.64486, 1.62753, 1.64195, 1.64001, 1.69312, 1.74463, 1.72733, 1.74029, 1.81106, 1.77407, 1.79576, 1.80793, 1.80807, 1.8005, 1.77866, 1.76868, 1.73792, 1.75397, 1.62334, 1.58724, 1.593, 1.59631, 1.61452, 1.61731, 1.60712, 1.60642, 1.5942, 1.5908, 1.61374, 1.5875, 1.58757, 1.58349, 1.58316, 1.58242, 1.58175, 1.58119, 1.57952, 1.57766, 1.57691, 1.57502, 1.57441, 1.57227, 1.57127, 1.58278, 1.59217, 1.59978, 1.60213, 1.5991, 1.60341, 1.58305, 1.58816, 1.56948, 1.55794, 1.55846, 1.5522, 1.55037, 1.54801, 1.5501, 1.54508, 1.54357, 1.54261, 1.54089, 1.54043, 1.54391, 1.53978, 1.53576, 1.53466, 1.53353, 1.53197, 1.53225, 1.52735, 1.52707, 1.52434, 1.52394, 1.52264, 1.52159, 1.51811, 1.51909, 1.53762, 1.53532, 1.51979, 1.50982, 1.50995, 1.51467, 1.50961, 1.50786, 1.50914, 1.5161, 1.51951, 1.50658, 1.50592, 1.50835, 1.50789, 1.48161, 1.50278, 1.52591, 1.54829, 1.56376, 1.59228, 1.56931, 1.69512, 1.69934, 1.71396, 1.69517, 1.69673, 1.65408, 1.61554, 1.56868, 1.51647, 1.48847, 1.46064, 1.47116, 1.47473, 1.49676, 1.48353, 1.47615, 1.47455, 1.47296, 1.4717, 1.4703, 1.46704, 1.46395, 1.46364, 1.46183, 1.46044, 1.45901, 1.45845, 1.45613, 1.45356, 1.45901, 1.44923, 1.44513, 1.44432, 1.44268, 1.44213, 1.43934, 1.43961, 1.44333, 1.43867, 1.43722, 1.43743, 1.4358, 1.43616, 1.43127, 1.43083, 1.42953, 1.4296, 1.427, 1.42476, 1.4256, 1.42354, 1.42521, 1.42354, 1.42153, 1.42278, 1.4209, 1.41925, 1.41787, 1.41639, 1.41472, 1.41298, 1.41089, 1.40996, 1.4102, 1.40856, 1.40818, 1.40753, 1.40441, 1.40307, 1.39977, 1.3989, 1.39881, 1.3971, 1.39458, 1.39297, 1.39223, 1.3897, 1.38925, 1.38771, 1.38647, 1.38552, 1.38468, 1.38527, 1.38521, 1.38325, 1.38211, 1.38043, 1.37917, 1.37753, 1.37653, 1.3767, 1.3788, 1.37861, 1.37726, 1.3762, 1.37726, 1.39077, 1.37881, 1.37761, 1.38329, 1.3843, 1.38136, 1.39569, 1.37455, 1.35444, 1.37387, 1.4433, 1.41727, 1.43324, 1.44023, 1.43942, 1.47591, 1.47122, 1.47105, 1.47568, 1.47185, 1.46514, 1.44905, 1.49611, 1.44, 1.43971, 1.37407, 1.35297, 1.34243, 1.33832, 1.34958, 1.34364, 1.35122, 1.33854, 1.33959, 1.33669, 1.34828, 1.33964, 1.33602, 1.3347, 1.34026, 1.33364, 1.33041, 1.34151, 1.32962, 1.34334, 1.3304, 1.32698, 1.33312, 1.3334, 1.32769, 1.3336, 1.33102, 1.33074, 1.33007
1.67598, 1.66938, 1.6678, 1.66615, 1.66547, 1.66185, 1.66115, 1.65839, 1.65849, 1.65893, 1.67552, 1.66642, 1.67931, 1.67852, 1.68671, 1.66516, 1.64178, 1.65515, 1.64894, 1.65465, 1.63214, 1.62939, 1.63041, 1.65033, 1.65868, 1.65885, 1.67926, 1.74626, 1.77235, 1.77187, 1.77655, 1.86878, 1.92496, 1.81244, 1.82534, 1.78349, 1.787, 1.71895, 1.64874, 1.60924, 1.58503, 1.60609, 1.60985, 1.60954, 1.60834, 1.60314, 1.59515, 1.60618, 1.58978, 1.58839, 1.58572, 1.58566, 1.58472, 1.58395, 1.58257, 1.58447, 1.59527, 1.57879, 1.57867, 1.58485, 1.57528, 1.57194, 1.57101, 1.57046, 1.59256, 1.60904, 1.60648, 1.60443, 1.59281, 1.59522, 1.58453, 1.56464, 1.5607, 1.55494, 1.55362, 1.55088, 1.55011, 1.54803, 1.54687, 1.54423, 1.5443, 1.54476, 1.54284, 1.54152, 1.53701, 1.53658, 1.53731, 1.53682, 1.53323, 1.53034, 1.53007, 1.52992, 1.52748, 1.52698, 1.52385, 1.52456, 1.52103, 1.51984, 1.51807, 1.52473, 1.51492, 1.52367, 1.53155, 1.5112, 1.51115, 1.51154, 1.50871, 1.52075, 1.50853, 1.51131, 1.5114, 1.51731, 1.50004, 1.50047, 1.48502, 1.52038, 1.53691, 1.57151, 1.55473, 1.62762, 1.60965, 1.62698, 1.68196, 1.67669, 1.65001, 1.62861, 1.62096, 1.55475, 1.52661, 1.50645, 1.47624, 1.48929, 1.48635, 1.48944, 1.48689, 1.48794, 1.48171, 1.47481, 1.4741, 1.47275, 1.46915, 1.46755, 1.4678, 1.46647, 1.46469, 1.46173, 1.4595, 1.45708, 1.45726, 1.45345, 1.45227, 1.44696, 1.44764, 1.44424, 1.44309, 1.44201, 1.44305, 1.44277, 1.44138, 1.43948, 1.43861, 1.43744, 1.43761, 1.43634, 1.43321, 1.43125, 1.43064, 1.43005, 1.42919, 1.4262, 1.42583, 1.42412, 1.42239, 1.42238, 1.42051, 1.4202, 1.4204, 1.41895, 1.41657, 1.41523, 1.41312, 1.41217, 1.413, 1.41108, 1.41246, 1.4074, 1.40617, 1.40449, 1.40375, 1.40215, 1.39968, 1.3979, 1.39719, 1.39443, 1.39227, 1.39201, 1.39023, 1.38947, 1.39022, 1.38824, 1.38524, 1.38563, 1.3848, 1.38419, 1.38314, 1.38125, 1.37942, 1.37969, 1.37771, 1.37814, 1.37783, 1.37961, 1.37929, 1.37814, 1.37675, 1.38059, 1.37879, 1.39965, 1.39311, 1.38582, 1.38812, 1.39871, 1.37771, 1.39086, 1.36184, 1.37836, 1.40948, 1.44011, 1.46074, 1.47929, 1.52459, 1.46108, 1.46802, 1.46684, 1.4724, 1.47381, 1.48243, 1.48802, 1.50965, 1.45845, 1.45796, 1.37904, 1.36089, 1.32558, 1.35314, 1.34499, 1.35178, 1.35747, 1.35153, 1.34049, 1.34682, 1.33543, 1.33634, 1.33653, 1.33624, 1.34638, 1.33391, 1.33357, 1.33224, 1.33094, 1.3317, 1.33262, 1.33728, 1.3288, 1.32965, 1.32914, 1.32668, 1.32952, 1.3331, 1.32785
1.67841, 1.67226, 1.67193, 1.66558, 1.66521, 1.67562, 1.66439, 1.65998, 1.65802, 1.66573, 1.67066, 1.68069, 1.68317, 1.70397, 1.6844, 1.66181, 1.64709, 1.66439, 1.65354, 1.6483, 1.63998, 1.63291, 1.63393, 1.6346, 1.64687, 1.68637, 1.66523, 1.75186, 1.7772, 1.78213, 1.80714, 1.83563, 1.83832, 1.82789, 1.83203, 1.81182, 1.81004, 1.71781, 1.69191, 1.64041, 1.59575, 1.60784, 1.61713, 1.60735, 1.61091, 1.6031, 1.5967, 1.61002, 1.59316, 1.59857, 1.59084, 1.58869, 1.58706, 1.58676, 1.58902, 1.58519, 1.58365, 1.58243, 1.58891, 1.57682, 1.58483, 1.57537, 1.57438, 1.57443, 1.5722, 1.58451, 1.59776, 1.60135, 1.58373, 1.5925, 1.58353, 1.58494, 1.57082, 1.5664, 1.55802, 1.56061, 1.55237, 1.55048, 1.54891, 1.54734, 1.54758, 1.54344, 1.54326, 1.54182, 1.54132, 1.54265, 1.53807, 1.5394, 1.53685, 1.53949, 1.53193, 1.53125, 1.53795, 1.52926, 1.52631, 1.52934, 1.52438, 1.52597, 1.52004, 1.51917, 1.51796, 1.51675, 1.51559, 1.51771, 1.52337, 1.52693, 1.51441, 1.51076, 1.50963, 1.51251, 1.51999, 1.51516, 1.51896, 1.48796, 1.48094, 1.532, 1.5749, 1.55078, 1.60181, 1.65519, 1.65865, 1.66885, 1.66688, 1.66373, 1.65181, 1.64106, 1.60584, 1.55473, 1.54193, 1.50291, 1.4571, 1.46868, 1.48771, 1.48273, 1.48427, 1.47828, 1.47538, 1.48508, 1.47423, 1.47187, 1.46845, 1.46884, 1.46711, 1.46538, 1.46424, 1.46373, 1.46225, 1.4597, 1.45824, 1.45589, 1.45337, 1.45178, 1.44952, 1.44887, 1.44766, 1.44798, 1.44636, 1.44381, 1.44427, 1.44361, 1.44271, 1.44156, 1.43954, 1.43815, 1.43615, 1.43486, 1.43145, 1.43175, 1.43002, 1.42929, 1.42969, 1.42745, 1.42371, 1.42345, 1.42011, 1.42024, 1.42129, 1.41816, 1.41739, 1.43068, 1.41374, 1.4135, 1.4138, 1.4129, 1.41118, 1.41091, 1.41223, 1.40859, 1.4069, 1.40501, 1.40165, 1.40002, 1.39897, 1.39904, 1.39489, 1.39347, 1.39263, 1.39107, 1.39086, 1.39199, 1.3861, 1.38888, 1.38625, 1.38478, 1.38355, 1.39197, 1.38255, 1.38203, 1.38038, 1.38069, 1.38003, 1.38096, 1.37984, 1.3807, 1.3806, 1.38187, 1.38127, 1.38268, 1.39013, 1.38219, 1.39716, 1.40602, 1.38888, 1.39249, 1.39587, 1.37828, 1.40231, 1.43473, 1.46904, 1.46835, 1.47201, 1.47091, 1.47224, 1.47564, 1.50616, 1.52006, 1.4693, 1.46997, 1.41671, 1.42698, 1.43418, 1.38836, 1.36081, 1.31988, 1.34673, 1.34659, 1.35801, 1.35879, 1.35113, 1.34429, 1.34364, 1.34252, 1.33963, 1.33986, 1.33907, 1.33838, 1.33648, 1.3365, 1.3314, 1.33318, 1.33415, 1.33836, 1.33328, 1.33107, 1.33106, 1.32944, 1.33022, 1.32725, 1.3299, 1.32761
1.67237, 1.6712, 1.67118, 1.66901, 1.66808, 1.66317, 1.66159, 1.67239, 1.66456, 1.67833, 1.6591, 1.67969, 1.68125, 1.6845, 1.67473, 1.65512, 1.65124, 1.67213, 1.66721, 1.65472, 1.63808, 1.62075, 1.63484, 1.66107, 1.66758, 1.68216, 1.68655, 1.75213, 1.74852, 1.77238, 1.81681, 1.82745, 1.83339, 1.8309, 1.81996, 1.78521, 1.7449, 1.70287, 1.68194, 1.62267, 1.59008, 1.60335, 1.6119, 1.61667, 1.61027, 1.6022, 1.61663, 1.59762, 1.5957, 1.60215, 1.59403, 1.59085, 1.60353, 1.58763, 1.59475, 1.58551, 1.58431, 1.58187, 1.58043, 1.57877, 1.5851, 1.57748, 1.58283, 1.57619, 1.57252, 1.57192, 1.57099, 1.59457, 1.58576, 1.58948, 1.58634, 1.58465, 1.58849, 1.561, 1.56078, 1.55497, 1.55404, 1.55007, 1.55723, 1.54903, 1.54752, 1.55023, 1.5464, 1.54551, 1.54421, 1.54131, 1.54151, 1.54036, 1.53898, 1.53728, 1.53661, 1.53417, 1.532, 1.52501, 1.51996, 1.53884, 1.53755, 1.52025, 1.51871, 1.51881, 1.52023, 1.51919, 1.52522, 1.52527, 1.52517, 1.51367, 1.52054, 1.5141, 1.52571, 1.52232, 1.52452, 1.52347, 1.50892, 1.4821, 1.50865, 1.51234, 1.56953, 1.59246, 1.67888, 1.6758, 1.72038, 1.722, 1.68523, 1.74094, 1.68362, 1.67051, 1.63891, 1.6041, 1.54465, 1.51664, 1.46112, 1.46732, 1.48739, 1.49097, 1.48556, 1.47862, 1.48203, 1.47329, 1.47111, 1.48097, 1.46646, 1.46687, 1.46516, 1.46384, 1.46284, 1.46186, 1.46135, 1.45891, 1.46823, 1.45834, 1.45397, 1.4596, 1.45216, 1.45182, 1.45008, 1.45037, 1.44762, 1.44658, 1.4473, 1.44416, 1.44377, 1.44228, 1.44119, 1.43799, 1.43666, 1.43563, 1.43371, 1.43285, 1.43823, 1.43132, 1.42906, 1.42888, 1.4258, 1.42573, 1.42302, 1.42175, 1.42428, 1.42115, 1.42647, 1.4199, 1.41652, 1.41648, 1.41776, 1.41545, 1.41267, 1.41142, 1.41055, 1.40868, 1.40573, 1.40293, 1.4018, 1.40043, 1.40121, 1.39798, 1.39695, 1.3956, 1.39482, 1.39373, 1.39227, 1.39304, 1.39183, 1.38947, 1.39511, 1.39012, 1.38861, 1.38677, 1.38876, 1.39224, 1.38268, 1.38468, 1.38389, 1.38321, 1.3827, 1.411, 1.39486, 1.38312, 1.38355, 1.38276, 1.38868, 1.38458, 1.40332, 1.3952, 1.4021, 1.39148, 1.36613, 1.39728, 1.47531, 1.44527, 1.4818, 1.46037, 1.53708, 1.47501, 1.45954, 1.47128, 1.48039, 1.48425, 1.48463, 1.47771, 1.45814, 1.44118, 1.41601, 1.40974, 1.35777, 1.33693, 1.33739, 1.36359, 1.36237, 1.36383, 1.35371, 1.35772, 1.34776, 1.33998, 1.33845, 1.33982, 1.33976, 1.34119, 1.34029, 1.33487, 1.34712, 1.34846, 1.33363, 1.34434, 1.33781, 1.3365, 1.33586, 1.33323, 1.33334, 1.33029, 1.3281, 1.3299
1.67108, 1.66963, 1.66827, 1.66628, 1.66551, 1.66268, 1.67969, 1.66025, 1.65906, 1.67152, 1.66932, 1.6759, 1.66721, 1.6755, 1.67796, 1.66108, 1.65599, 1.65843, 1.65487, 1.64926, 1.62645, 1.64106, 1.65745, 1.65198, 1.69539, 1.73321, 1.72743, 1.7732, 1.782, 1.85638, 1.83777, 1.83679, 1.83757, 1.81229, 1.80472, 1.75522, 1.73823, 1.68377, 1.62671, 1.59312, 1.59234, 1.61422, 1.61081, 1.61951, 1.62743, 1.60411, 1.61026, 1.59968, 1.59539, 1.59651, 1.59477, 1.59246, 1.59112, 1.59095, 1.58808, 1.58669, 1.58494, 1.58308, 1.58238, 1.58025, 1.60708, 1.57849, 1.57743, 1.57645, 1.57479, 1.57296, 1.57259, 1.58327, 1.57692, 1.58866, 1.58831, 1.57459, 1.56889, 1.55788, 1.55436, 1.55299, 1.55853, 1.55888, 1.5493, 1.54916, 1.54867, 1.54689, 1.54464, 1.54404, 1.54759, 1.54265, 1.54057, 1.53933, 1.53762, 1.53521, 1.53541, 1.53404, 1.54718, 1.53415, 1.53407, 1.54094, 1.52415, 1.52296, 1.52084, 1.52192, 1.51878, 1.51782, 1.51622, 1.51981, 1.51429, 1.51456, 1.51358, 1.51215, 1.5128, 1.53148, 1.52129, 1.51624, 1.51278, 1.48352, 1.48604, 1.50326, 1.57955, 1.5921, 1.641, 1.65498, 1.7038, 1.68727, 1.69096, 1.68865, 1.68614, 1.66526, 1.63891, 1.5663, 1.54462, 1.50917, 1.46425, 1.46725, 1.47595, 1.47421, 1.48525, 1.49175, 1.46496, 1.47677, 1.47959, 1.47614, 1.46976, 1.47475, 1.46383, 1.46223, 1.46203, 1.46683, 1.46112, 1.45829, 1.45745, 1.45805, 1.45612, 1.45763, 1.45079, 1.45169, 1.45004, 1.44854, 1.44796, 1.44643, 1.44515, 1.44371, 1.44379, 1.44158, 1.44112, 1.43867, 1.43769, 1.43642, 1.43527, 1.4339, 1.43151, 1.43001, 1.42891, 1.42967, 1.42668, 1.42671, 1.43037, 1.42478, 1.42266, 1.42139, 1.42178, 1.41992, 1.41932, 1.41751, 1.41592, 1.41651, 1.41602, 1.41131, 1.41035, 1.4072, 1.40626, 1.40971, 1.40203, 1.4018, 1.40176, 1.42007, 1.40276, 1.39959, 1.3965, 1.39539, 1.39247, 1.39275, 1.39174, 1.39037, 1.39043, 1.39005, 1.41662, 1.38817, 1.38618, 1.38683, 1.38556, 1.38411, 1.38416, 1.38678, 1.3842, 1.38359, 1.38206, 1.39849, 1.38211, 1.38519, 1.39519, 1.3903, 1.38787, 1.39399, 1.39895, 1.36134, 1.38292, 1.40488, 1.4172, 1.41544, 1.46236, 1.46879, 1.4724, 1.4738, 1.47395, 1.47572, 1.49919, 1.47906, 1.47957, 1.46755, 1.48235, 1.50987, 1.44079, 1.40646, 1.37835, 1.33475, 1.35426, 1.35318, 1.35718, 1.35754, 1.34559, 1.34217, 1.34029, 1.33995, 1.34091, 1.34059, 1.33976, 1.34036, 1.34078, 1.33728, 1.33672, 1.33717, 1.3335, 1.33676, 1.33644, 1.33728, 1.33625, 1.33328, 1.33299, 1.34663, 1.32704, 1.32782
1.67156, 1.67079, 1.66833, 1.67276, 1.66435, 1.66161, 1.66249, 1.67309, 1.66058, 1.65655, 1.65639, 1.66008, 1.67317, 1.67561, 1.69222, 1.67363, 1.67074, 1.65878, 1.65727, 1.64823, 1.65982, 1.61711, 1.65065, 1.66234, 1.68896, 1.74044, 1.77186, 1.75743, 1.78421, 1.79431, 1.79721, 1.79915, 1.7941, 1.78942, 1.77621, 1.79236, 1.7407, 1.68649, 1.64509, 1.60958, 1.5905, 1.60663, 1.61196, 1.611, 1.60558, 1.60386, 1.59991, 1.59938, 1.5974, 1.59658, 1.59612, 1.59285, 1.58979, 1.58858, 1.58852, 1.58728, 1.58461, 1.58339, 1.58086, 1.57824, 1.57606, 1.5931, 1.57688, 1.57528, 1.57453, 1.57286, 1.57157, 1.57029, 1.58689, 1.57435, 1.59631, 1.57986, 1.58285, 1.5658, 1.55503, 1.55259, 1.55246, 1.55066, 1.55001, 1.54817, 1.54741, 1.54672, 1.54732, 1.53721, 1.53465, 1.53367, 1.53923, 1.53851, 1.5375, 1.53728, 1.53202, 1.5309, 1.53355, 1.52626, 1.52462, 1.5587, 1.52287, 1.5226, 1.52132, 1.51903, 1.51948, 1.51615, 1.51383, 1.51282, 1.51197, 1.51346, 1.5125, 1.5106, 1.51927, 1.51125, 1.51299, 1.51354, 1.50635, 1.50432, 1.51309, 1.52474, 1.56259, 1.59555, 1.62444, 1.64426, 1.67938, 1.68166, 1.69042, 1.69292, 1.69716, 1.68573, 1.64501, 1.58326, 1.51996, 1.49328, 1.44559, 1.46026, 1.46602, 1.46979, 1.48522, 1.4758, 1.4722, 1.47207, 1.46968, 1.47944, 1.46863, 1.46469, 1.45955, 1.46421, 1.46037, 1.45815, 1.45667, 1.4548, 1.45359, 1.45129, 1.45363, 1.45072, 1.44999, 1.44769, 1.44825, 1.44842, 1.44557, 1.44522, 1.44383, 1.44433, 1.44368, 1.44298, 1.44035, 1.43943, 1.43668, 1.4367, 1.4358, 1.43516, 1.43549, 1.43247, 1.43116, 1.43134, 1.42988, 1.42848, 1.4257, 1.42423, 1.42392, 1.42266, 1.42086, 1.42077, 1.41932, 1.41927, 1.41976, 1.41711, 1.41511, 1.41297, 1.41215, 1.40966, 1.40887, 1.40709, 1.40458, 1.4062, 1.40279, 1.42917, 1.40045, 1.39824, 1.39668, 1.39529, 1.39527, 1.39498, 1.39255, 1.39117, 1.39272, 1.39842, 1.38878, 1.38896, 1.38701, 1.38476, 1.38446, 1.38324, 1.38506, 1.38226, 1.38363, 1.382, 1.3815, 1.38146, 1.38225, 1.38157, 1.39558, 1.38787, 1.39558, 1.38988, 1.38705, 1.38601, 1.3605, 1.36784, 1.43404, 1.43445, 1.446, 1.49182, 1.47489, 1.4774, 1.46826, 1.4832, 1.48852, 1.493, 1.49584, 1.49232, 1.50143, 1.44657, 1.44627, 1.41313, 1.35317, 1.32732, 1.33953, 1.34806, 1.35401, 1.36147, 1.34686, 1.36337, 1.34162, 1.34056, 1.34132, 1.34069, 1.3411, 1.3403, 1.35102, 1.34025, 1.33973, 1.33801, 1.33774, 1.33809, 1.3372, 1.3446, 1.33299, 1.33342, 1.33195, 1.3303, 1.32693, 1.32691
1.67497, 1.66962, 1.66727, 1.66783, 1.66404, 1.66212, 1.66113, 1.67274, 1.65761, 1.65847, 1.65683, 1.65768, 1.6667, 1.66809, 1.69462, 1.68561, 1.67927, 1.67129, 1.64528, 1.64452, 1.63824, 1.62246, 1.63038, 1.65055, 1.71992, 1.72885, 1.78261, 1.75211, 1.81402, 1.83105, 1.80818, 1.80998, 1.81087, 1.81625, 1.78482, 1.75443, 1.7268, 1.73116, 1.64264, 1.60896, 1.59215, 1.61965, 1.62689, 1.61209, 1.61091, 1.60509, 1.59989, 1.59811, 1.59693, 1.59593, 1.59444, 1.59164, 1.5919, 1.58946, 1.58638, 1.58955, 1.58311, 1.58349, 1.58173, 1.57837, 1.57564, 1.57647, 1.57532, 1.57437, 1.57396, 1.57145, 1.5707, 1.57568, 1.57188, 1.57691, 1.57692, 1.58458, 1.58639, 1.57753, 1.55724, 1.55601, 1.55191, 1.54961, 1.54949, 1.54821, 1.54808, 1.54684, 1.54637, 1.54426, 1.54229, 1.54174, 1.53989, 1.53962, 1.53721, 1.53563, 1.5334, 1.53107, 1.52882, 1.52617, 1.5239, 1.52299, 1.5212, 1.52003, 1.5174, 1.51611, 1.51434, 1.51427, 1.51247, 1.51125, 1.50934, 1.50843, 1.50872, 1.50895, 1.52839, 1.50999, 1.51236, 1.5105, 1.52098, 1.51117, 1.51287, 1.50603, 1.57191, 1.5779, 1.59295, 1.64813, 1.48195, 1.67621, 1.43059, 1.69227, 1.68336, 1.64136, 1.63992, 1.5872, 1.54724, 1.49971, 1.43941, 1.44059, 1.48974, 1.48936, 1.48026, 1.48642, 1.47548, 1.49339, 1.46826, 1.47067, 1.46571, 1.4606, 1.46893, 1.45775, 1.45825, 1.45665, 1.45365, 1.45314, 1.45188, 1.45689, 1.44834, 1.44772, 1.44772, 1.4468, 1.44615, 1.44084, 1.44112, 1.44151, 1.4427, 1.44375, 1.44086, 1.43912, 1.43763, 1.43752, 1.43536, 1.43624, 1.43567, 1.43277, 1.4319, 1.4327, 1.43135, 1.4296, 1.42792, 1.42615, 1.4257, 1.42392, 1.42424, 1.42378, 1.42288, 1.42191, 1.41952, 1.41838, 1.4168, 1.41694, 1.41609, 1.41536, 1.41243, 1.42037, 1.41038, 1.40751, 1.4078, 1.40573, 1.40594, 1.40674, 1.40201, 1.40149, 1.40132, 1.39987, 1.39756, 1.39469, 1.39347, 1.39273, 1.39037, 1.39025, 1.38867, 1.39024, 1.40529, 1.38555, 1.3866, 1.3952, 1.38427, 1.38471, 1.38328, 1.38217, 1.3813, 1.38252, 1.38122, 1.38142, 1.38542, 1.39733, 1.38912, 1.38306, 1.39075, 1.3616, 1.36246, 1.37203, 1.41395, 1.43736, 1.46495, 1.47526, 1.48784, 1.47893, 1.4807, 1.48408, 1.48868, 1.49152, 1.48529, 1.49062, 1.4711, 1.46444, 1.41959, 1.42516, 1.41981, 1.34339, 1.34518, 1.35417, 1.36093, 1.36257, 1.3574, 1.34744, 1.34472, 1.34325, 1.34575, 1.34205, 1.34635, 1.35055, 1.34179, 1.34087, 1.33934, 1.34096, 1.34024, 1.33484, 1.33667, 1.33673, 1.33129, 1.33262, 1.33175, 1.32963, 1.32622, 1.32813
1.67177, 1.66922, 1.66549, 1.66712, 1.66046, 1.65973, 1.66276, 1.65585, 1.65882, 1.66601, 1.65304, 1.6523, 1.66118, 1.66519, 1.67509, 1.67776, 1.67454, 1.66229, 1.64158, 1.64895, 1.64097, 1.60611, 1.62398, 1.62568, 1.68583, 1.71904, 1.71302, 1.72854, 1.76496, 1.87099, 1.81457, 1.82093, 1.82889, 1.84142, 1.83498, 1.78983, 1.82407, 1.73809, 1.66137, 1.61079, 1.59053, 1.60773, 1.61925, 1.61633, 1.6033, 1.61346, 1.60156, 1.60372, 1.60814, 1.59522, 1.59171, 1.5924, 1.5906, 1.59176, 1.58633, 1.58496, 1.58209, 1.58248, 1.58046, 1.57811, 1.5778, 1.57616, 1.57461, 1.58804, 1.5722, 1.57533, 1.57867, 1.57269, 1.56247, 1.56157, 1.5801, 1.57738, 1.57834, 1.56825, 1.5676, 1.55516, 1.55108, 1.55025, 1.54832, 1.54704, 1.54686, 1.54442, 1.5433, 1.54363, 1.54231, 1.54189, 1.53916, 1.53809, 1.53677, 1.53364, 1.532, 1.52901, 1.52638, 1.52524, 1.52257, 1.52072, 1.52014, 1.51686, 1.53047, 1.51541, 1.52132, 1.51033, 1.51028, 1.50894, 1.51258, 1.50734, 1.50447, 1.51278, 1.52207, 1.51039, 1.51114, 1.50908, 1.50716, 1.47892, 1.5021, 1.52209, 1.56115, 1.48956, 1.62831, 1.64418, 1.6568, 1.67621, 1.68513, 1.68679, 1.68396, 1.69564, 1.64207, 1.5862, 1.5505, 1.49823, 1.45745, 1.44106, 1.47946, 1.50486, 1.49267, 1.48883, 1.46722, 1.47726, 1.46794, 1.47894, 1.47192, 1.46306, 1.4548, 1.45478, 1.45718, 1.45452, 1.45107, 1.45123, 1.44788, 1.4477, 1.447, 1.44543, 1.44403, 1.44448, 1.44346, 1.44101, 1.43979, 1.44054, 1.44042, 1.43934, 1.43834, 1.43508, 1.43472, 1.43233, 1.43116, 1.43282, 1.43691, 1.42882, 1.4325, 1.43736, 1.43152, 1.43193, 1.42783, 1.42887, 1.42709, 1.42568, 1.42289, 1.42335, 1.42474, 1.42197, 1.41823, 1.41905, 1.41719, 1.41243, 1.41134, 1.41856, 1.41329, 1.41503, 1.41292, 1.40908, 1.40759, 1.4082, 1.44714, 1.44642, 1.40371, 1.40261, 1.40177, 1.40024, 1.39847, 1.39537, 1.39402, 1.39213, 1.39125, 1.39156, 1.38799, 1.38872, 1.38752, 1.38772, 1.3849, 1.39215, 1.38647, 1.39547, 1.3946, 1.38328, 1.38223, 1.38108, 1.37924, 1.37972, 1.39617, 1.39152, 1.39448, 1.39541, 1.38887, 1.37413, 1.35764, 1.38282, 1.41906, 1.44911, 1.43655, 1.45048, 1.44872, 1.44418, 1.47188, 1.47417, 1.48296, 1.4839, 1.48977, 1.49793, 1.49304, 1.46772, 1.41009, 1.42006, 1.34028, 1.35679, 1.32699, 1.35182, 1.36689, 1.35198, 1.34795, 1.34679, 1.3469, 1.34509, 1.34706, 1.34708, 1.34314, 1.34343, 1.3601, 1.34018, 1.34946, 1.34366, 1.33548, 1.33493, 1.33716, 1.33488, 1.34337, 1.33132, 1.33222, 1.34913, 1.32764, 1.32443
1.67041, 1.66724, 1.66826, 1.66613, 1.6788, 1.66058, 1.65884, 1.67929, 1.67227, 1.66854, 1.65334, 1.65864, 1.65738, 1.66986, 1.6828, 1.68205, 1.67846, 1.65806, 1.66546, 1.66166, 1.64852, 1.61652, 1.60949, 1.64512, 1.68385, 1.70283, 1.71648, 1.76828, 1.7383, 1.79722, 1.81088, 1.82648, 1.83952, 1.87001, 1.87145, 1.78326, 1.73486, 1.72697, 1.686, 1.61287, 1.58842, 1.61695, 1.61665, 1.61773, 1.62032, 1.61676, 1.61066, 1.61927, 1.59289, 1.5934, 1.61007, 1.58955, 1.59263, 1.58237, 1.58501, 1.58384, 1.59701, 1.58101, 1.57772, 1.57623, 1.57578, 1.57484, 1.57407, 1.57545, 1.57135, 1.5705, 1.56833, 1.58609, 1.56621, 1.5679, 1.58291, 1.58594, 1.57198, 1.5763, 1.56074, 1.56254, 1.57209, 1.56161, 1.54688, 1.54599, 1.54204, 1.54262, 1.54157, 1.55462, 1.54037, 1.53945, 1.53709, 1.53693, 1.53166, 1.53018, 1.5279, 1.52745, 1.52583, 1.52318, 1.52271, 1.53059, 1.52248, 1.51544, 1.51486, 1.51239, 1.52346, 1.50895, 1.51397, 1.50629, 1.51005, 1.51043, 1.50492, 1.50728, 1.51408, 1.50984, 1.51387, 1.50855, 1.50103, 1.47855, 1.46455, 1.49713, 1.56173, 1.60313, 1.62057, 1.66426, 1.66553, 1.69637, 1.70125, 1.70359, 1.69957, 1.71725, 1.64821, 1.58631, 1.54657, 1.48522, 1.45936, 1.44448, 1.45919, 1.49404, 1.48217, 1.47706, 1.46792, 1.47296, 1.47039, 1.46861, 1.45824, 1.46027, 1.46121, 1.45642, 1.45193, 1.45133, 1.45529, 1.44814, 1.44733, 1.4474, 1.44528, 1.44487, 1.44319, 1.44397, 1.4424, 1.44058, 1.44185, 1.43988, 1.43857, 1.43797, 1.4342, 1.43311, 1.43486, 1.42969, 1.43146, 1.43048, 1.4297, 1.43386, 1.42966, 1.42951, 1.44522, 1.42953, 1.42645, 1.42669, 1.42473, 1.42479, 1.42301, 1.42531, 1.42102, 1.42084, 1.42008, 1.4178, 1.41936, 1.41612, 1.41737, 1.41545, 1.4143, 1.41267, 1.41148, 1.41198, 1.40988, 1.40792, 1.40816, 1.40648, 1.40511, 1.40248, 1.40164, 1.40226, 1.39952, 1.40934, 1.39533, 1.39346, 1.39558, 1.39166, 1.41251, 1.38926, 1.38818, 1.39438, 1.38602, 1.38538, 1.38639, 1.40227, 1.39094, 1.39422, 1.38568, 1.38122, 1.3784, 1.37904, 1.38253, 1.37866, 1.39166, 1.38315, 1.3755, 1.36899, 1.38625, 1.37946, 1.44023, 1.42691, 1.43945, 1.46148, 1.46413, 1.47394, 1.48172, 1.49679, 1.51393, 1.49132, 1.49534, 1.49186, 1.48874, 1.47221, 1.44424, 1.39937, 1.38137, 1.35752, 1.33681, 1.35309, 1.36369, 1.35413, 1.3535, 1.35486, 1.35027, 1.35088, 1.34689, 1.3456, 1.37192, 1.36133, 1.35501, 1.34109, 1.34066, 1.33635, 1.3368, 1.33384, 1.33964, 1.34117, 1.33272, 1.33172, 1.3294, 1.32794, 1.32681, 1.32451
1.67284, 1.67104, 1.67913, 1.66699, 1.67336, 1.66665, 1.66137, 1.66922, 1.66819, 1.66953, 1.6602, 1.67231, 1.6583, 1.66202, 1.67274, 1.68936, 1.6819, 1.66412, 1.66275, 1.64874, 1.64581, 1.62331, 1.6244, 1.64891, 1.65198, 1.69778, 1.70489, 1.75191, 1.76522, 1.78207, 1.79689, 1.81142, 1.82019, 1.82923, 1.8207, 1.81747, 1.76809, 1.71046, 1.66323, 1.6399, 1.58428, 1.61718, 1.62563, 1.62951, 1.60985, 1.61477, 1.59966, 1.59491, 1.60385, 1.59036, 1.60426, 1.60923, 1.59558, 1.59407, 1.60915, 1.59259, 1.58181, 1.59017, 1.5856, 1.60314, 1.57711, 1.57892, 1.5728, 1.57521, 1.57118, 1.57571, 1.56561, 1.56754, 1.56776, 1.57134, 1.5782, 1.56168, 1.5728, 1.57219, 1.58171, 1.55342, 1.56413, 1.55891, 1.55229, 1.54519, 1.54433, 1.54386, 1.54981, 1.5484, 1.54194, 1.54461, 1.54713, 1.53559, 1.5408, 1.53108, 1.52852, 1.53998, 1.528, 1.52282, 1.52143, 1.51894, 1.51594, 1.51281, 1.51131, 1.5162, 1.50935, 1.51753, 1.5156, 1.51696, 1.51695, 1.50364, 1.50246, 1.50566, 1.50385, 1.50222, 1.5015, 1.51373, 1.44468, 1.46812, 1.49389, 1.49922, 1.54121, 1.58527, 1.6127, 1.63236, 1.67983, 1.72, 1.70386, 1.71968, 1.71492, 1.64245, 1.63841, 1.59978, 1.53285, 1.51996, 1.47212, 1.43854, 1.46316, 1.48997, 1.48761, 1.48859, 1.4763, 1.46566, 1.46574, 1.46094, 1.47673, 1.45711, 1.46207, 1.45225, 1.45185, 1.44926, 1.44816, 1.44927, 1.44612, 1.44647, 1.44471, 1.44315, 1.44391, 1.44316, 1.45386, 1.44233, 1.44089, 1.43876, 1.43891, 1.4409, 1.46865, 1.43273, 1.43135, 1.43151, 1.4307, 1.43097, 1.43163, 1.43136, 1.43004, 1.42984, 1.46154, 1.42675, 1.42659, 1.42612, 1.42588, 1.42405, 1.4259, 1.42125, 1.42001, 1.42001, 1.41928, 1.41839, 1.42776, 1.41861, 1.41738, 1.44768, 1.41551, 1.41378, 1.41027, 1.41131, 1.41104, 1.40949, 1.40813, 1.40955, 1.40603, 1.4018, 1.40087, 1.40017, 1.39949, 1.39913, 1.39423, 1.3947, 1.3918, 1.39014, 1.39059, 1.3895, 1.39051, 1.38792, 1.38639, 1.39777, 1.38466, 1.38479, 1.38382, 1.38424, 1.38135, 1.38025, 1.38554, 1.37724, 1.37811, 1.38919, 1.3965, 1.39178, 1.3806, 1.3918, 1.3533, 1.38848, 1.39813, 1.39678, 1.40346, 1.41793, 1.44219, 1.51687, 1.50904, 1.50086, 1.49786, 1.49912, 1.50554, 1.48932, 1.50118, 1.47319, 1.45092, 1.43121, 1.39265, 1.33996, 1.33806, 1.38485, 1.36409, 1.35152, 1.35639, 1.35745, 1.35525, 1.3618, 1.35155, 1.34547, 1.34349, 1.36462, 1.34158, 1.33821, 1.35478, 1.33709, 1.33664, 1.34945, 1.33373, 1.33075, 1.33398, 1.33333, 1.32827, 1.32933, 1.32788, 1.32472
1.6796, 1.6746, 1.66962, 1.6689, 1.66664, 1.67565, 1.66075, 1.66063, 1.6561, 1.65554, 1.65551, 1.65212, 1.65784, 1.65788, 1.65886, 1.67496, 1.67947, 1.67871, 1.67519, 1.64354, 1.63831, 1.63385, 1.61754, 1.65994, 1.66854, 1.68418, 1.70603, 1.74331, 1.78515, 1.8139, 1.81716, 1.8291, 1.83364, 1.82759, 1.80813, 1.76633, 1.74479, 1.7374, 1.6552, 1.61813, 1.61829, 1.60834, 1.62426, 1.60992, 1.6063, 1.61053, 1.60389, 1.59275, 1.59583, 1.59057, 1.58874, 1.59115, 1.58714, 1.60939, 1.58202, 1.58195, 1.57881, 1.57825, 1.57642, 1.60742, 1.5764, 1.5735, 1.5705, 1.57138, 1.57527, 1.57517, 1.56704, 1.56853, 1.56442, 1.5674, 1.56778, 1.56051, 1.56135, 1.56724, 1.57536, 1.57503, 1.54717, 1.54413, 1.55066, 1.54197, 1.54147, 1.54377, 1.54083, 1.56054, 1.54269, 1.54278, 1.55089, 1.54531, 1.56542, 1.52968, 1.52875, 1.54018, 1.52712, 1.52273, 1.51948, 1.51717, 1.51224, 1.51092, 1.50875, 1.50709, 1.51918, 1.51968, 1.51947, 1.50321, 1.50279, 1.50053, 1.51373, 1.52445, 1.51108, 1.50096, 1.5159, 1.44209, 1.4955, 1.46294, 1.48758, 1.49606, 1.54713, 1.54674, 1.63761, 1.6402, 1.66234, 1.6836, 1.68749, 1.63377, 1.61266, 1.61726, 1.63842, 1.60977, 1.56072, 1.49995, 1.45594, 1.4346, 1.45491, 1.48015, 1.47742, 1.47399, 1.47297, 1.47815, 1.4656, 1.47216, 1.46514, 1.45287, 1.45232, 1.45177, 1.47196, 1.44817, 1.45459, 1.44571, 1.4448, 1.44474, 1.44531, 1.44493, 1.44214, 1.44449, 1.44202, 1.44156, 1.44053, 1.44006, 1.43665, 1.43443, 1.43384, 1.43385, 1.42991, 1.4298, 1.43028, 1.43007, 1.4315, 1.43176, 1.43057, 1.4304, 1.42919, 1.42823, 1.426, 1.42956, 1.42399, 1.42336, 1.42333, 1.42022, 1.41943, 1.41768, 1.45173, 1.41615, 1.41612, 1.41642, 1.41524, 1.41395, 1.4159, 1.41691, 1.41121, 1.41869, 1.4102, 1.40791, 1.40583, 1.40537, 1.40419, 1.40549, 1.40073, 1.39775, 1.39661, 1.39818, 1.39177, 1.39055, 1.39134, 1.38894, 1.38825, 1.38809, 1.40572, 1.38771, 1.39195, 1.38272, 1.39224, 1.39552, 1.38186, 1.38182, 1.38132, 1.39941, 1.37891, 1.37517, 1.38151, 1.38821, 1.38914, 1.38746, 1.39883, 1.34441, 1.34694, 1.38577, 1.38161, 1.42283, 1.41421, 1.4494, 1.45217, 1.47011, 1.47576, 1.48912, 1.48971, 1.51198, 1.50956, 1.49546, 1.50746, 1.46589, 1.46369, 1.45392, 1.44366, 1.3461, 1.32185, 1.36731, 1.35473, 1.35934, 1.36091, 1.34807, 1.34824, 1.34592, 1.34849, 1.34445, 1.35097, 1.35177, 1.34318, 1.35967, 1.33658, 1.3372, 1.33436, 1.33514, 1.33272, 1.33424, 1.33267, 1.33099, 1.33107, 1.3297, 1.32856, 1.32586
1.67465, 1.67159, 1.66945, 1.66845, 1.66498, 1.66326, 1.65961, 1.65761, 1.66531, 1.6705, 1.6519, 1.67087, 1.64981, 1.65362, 1.65717, 1.6683, 1.6689, 1.67294, 1.67426, 1.64518, 1.65537, 1.61507, 1.61675, 1.64727, 1.66253, 1.69841, 1.70766, 1.74684, 1.79963, 1.83061, 1.82538, 1.8962, 1.82985, 1.83075, 1.84279, 1.78955, 1.78215, 1.7278, 1.65474, 1.61217, 1.60486, 1.59963, 1.61075, 1.61216, 1.60827, 1.59705, 1.59549, 1.59206, 1.59256, 1.59269, 1.58733, 1.58589, 1.5849, 1.58475, 1.58587, 1.58234, 1.58124, 1.57871, 1.57607, 1.57463, 1.57251, 1.57082, 1.56922, 1.59928, 1.56742, 1.56531, 1.56317, 1.56108, 1.55894, 1.55712, 1.55451, 1.58146, 1.56086, 1.59679, 1.57473, 1.57745, 1.55257, 1.5554, 1.551, 1.54062, 1.54008, 1.54076, 1.55632, 1.54502, 1.54138, 1.5419, 1.54103, 1.56157, 1.52439, 1.53034, 1.52763, 1.52429, 1.52348, 1.55737, 1.51803, 1.51461, 1.53813, 1.50937, 1.50523, 1.50144, 1.50688, 1.51208, 1.50591, 1.50044, 1.49923, 1.50742, 1.499, 1.50601, 1.50118, 1.50496, 1.51162, 1.50977, 1.51806, 1.50236, 1.48176, 1.51212, 1.54374, 1.58539, 1.6152, 1.63731, 1.65904, 1.66485, 1.67717, 1.61436, 1.62559, 1.67066, 1.60583, 1.5988, 1.5349, 1.53525, 1.46182, 1.45693, 1.49155, 1.46826, 1.47492, 1.46178, 1.47272, 1.46763, 1.46765, 1.45971, 1.46416, 1.46146, 1.45199, 1.45422, 1.45029, 1.44969, 1.44822, 1.44567, 1.44564, 1.44427, 1.44344, 1.44291, 1.44332, 1.44181, 1.4405, 1.43988, 1.43719, 1.43654, 1.43442, 1.43335, 1.43159, 1.4296, 1.42848, 1.42825, 1.42741, 1.4293, 1.4293, 1.42991, 1.43024, 1.42959, 1.42712, 1.42637, 1.42481, 1.42381, 1.42243, 1.42023, 1.42044, 1.41851, 1.41804, 1.41766, 1.41369, 1.41514, 1.41474, 1.41484, 1.41264, 1.41338, 1.41037, 1.40907, 1.40861, 1.4081, 1.40587, 1.40346, 1.40477, 1.40204, 1.40009, 1.39811, 1.39788, 1.39526, 1.39233, 1.39016, 1.39086, 1.38845, 1.38686, 1.38631, 1.38562, 1.38531, 1.38486, 1.3848, 1.38452, 1.38214, 1.38197, 1.38201, 1.38965, 1.37793, 1.37901, 1.3766, 1.38208, 1.37997, 1.37708, 1.38115, 1.37684, 1.38668, 1.38227, 1.37239, 1.3642, 1.38531, 1.41975, 1.42368, 1.46269, 1.51252, 1.49335, 1.48212, 1.48671, 1.53498, 1.51563, 1.51889, 1.51404, 1.52047, 1.47392, 1.47371, 1.46364, 1.50275, 1.40154, 1.32282, 1.32393, 1.35057, 1.35867, 1.35441, 1.35611, 1.35234, 1.34726, 1.34699, 1.34485, 1.3436, 1.34334, 1.34242, 1.33955, 1.33995, 1.33886, 1.33644, 1.33514, 1.33115, 1.33253, 1.33083, 1.33043, 1.33014, 1.32926, 1.32839, 1.32793, 1.3265
1.67411, 1.67246, 1.67149, 1.67022, 1.66798, 1.66542, 1.66359, 1.662, 1.65878, 1.67204, 1.65629, 1.65787, 1.6526, 1.66215, 1.65293, 1.6688, 1.67453, 1.67829, 1.67413, 1.64963, 1.64814, 1.62687, 1.63439, 1.64473, 1.6369, 1.65554, 1.67338, 1.71369, 1.76786, 1.77209, 1.79688, 1.81199, 1.82722, 1.82977, 1.82349, 1.80427, 1.79578, 1.68884, 1.62266, 1.62451, 1.59402, 1.59955, 1.62734, 1.60981, 1.60354, 1.6002, 1.59531, 1.56594, 1.56603, 1.59325, 1.59206, 1.58951, 1.58937, 1.58663, 1.58637, 1.58557, 1.58222, 1.58688, 1.57836, 1.57842, 1.57538, 1.57478, 1.57485, 1.57263, 1.57149, 1.56824, 1.56494, 1.56412, 1.56199, 1.56026, 1.55554, 1.5617, 1.56501, 1.56293, 1.57887, 1.57032, 1.56579, 1.55536, 1.54372, 1.5438, 1.54127, 1.54201, 1.54358, 1.54147, 1.54413, 1.54125, 1.54962, 1.53961, 1.53669, 1.53448, 1.5315, 1.52679, 1.5231, 1.5216, 1.51937, 1.51589, 1.51262, 1.51103, 1.50538, 1.51769, 1.50087, 1.49945, 1.49766, 1.49964, 1.51619, 1.5012, 1.50368, 1.51893, 1.50364, 1.51578, 1.51544, 1.51441, 1.50539, 1.50844, 1.49268, 1.51929, 1.56227, 1.5816, 1.61067, 1.6729, 1.66086, 1.67578, 1.68118, 1.62537, 1.62947, 1.64452, 1.62695, 1.57594, 1.55702, 1.50279, 1.46532, 1.43343, 1.45771, 1.47993, 1.49129, 1.47918, 1.47625, 1.48213, 1.47302, 1.46112, 1.46463, 1.45821, 1.45549, 1.45915, 1.45124, 1.45067, 1.45067, 1.45096, 1.44965, 1.44757, 1.44707, 1.44626, 1.44739, 1.44377, 1.44212, 1.44104, 1.43878, 1.43818, 1.43603, 1.43399, 1.43285, 1.43182, 1.4301, 1.4285, 1.4276, 1.42883, 1.43062, 1.43182, 1.43217, 1.43269, 1.42967, 1.42752, 1.42717, 1.42349, 1.42422, 1.42234, 1.42171, 1.42052, 1.42116, 1.42041, 1.419, 1.41713, 1.41567, 1.41405, 1.41462, 1.41176, 1.40912, 1.40929, 1.40679, 1.4087, 1.40492, 1.40307, 1.40205, 1.4007, 1.39848, 1.39696, 1.39598, 1.39558, 1.39284, 1.39289, 1.39045, 1.39536, 1.38854, 1.3884, 1.39087, 1.38836, 1.38657, 1.38573, 1.38411, 1.38275, 1.38265, 1.38229, 1.3819, 1.38184, 1.40239, 1.38099, 1.3829, 1.38106, 1.3773, 1.38522, 1.38536, 1.38821, 1.3918, 1.39856, 1.35321, 1.38244, 1.45345, 1.41691, 1.47544, 1.47809, 1.47988, 1.48509, 1.4921, 1.49616, 1.50259, 1.55704, 1.50428, 1.50027, 1.49964, 1.47639, 1.49905, 1.41224, 1.40219, 1.32133, 1.32303, 1.35175, 1.37576, 1.36407, 1.36078, 1.35889, 1.34801, 1.36366, 1.34662, 1.34388, 1.34124, 1.34173, 1.34123, 1.33832, 1.33618, 1.33511, 1.33375, 1.33292, 1.33265, 1.33326, 1.33153, 1.33102, 1.333, 1.33259, 1.32945, 1.32959
