0.465303368255927,0.46497221977658,0.464756535407545,0.464216459093158,0.46344170471029,0.463517304239463,0.463324324556586,0.463651627480222,0.46397149155058,0.465124422116237,0.464992731801232,0.467211694518127,0.468174709999434,0.468022044426953,0.468000067255359,0.468699411380426,0.469409681622245,0.471140297926489,0.472713213994899,0.474194937577713,0.475351207505529,0.475540895411673,0.475301881457353,0.47427709667729,0.473621846830623,0.474021019229146,0.474537225777904,0.475291464059567,0.476273515673076,0.477920717808212,0.479614871670641,0.480736049197832,0.481738715755684,0.482342218955144,0.482964014304521,0.483341943530117,0.483957150231696,0.484402198869695,0.484875432216234,0.484761878045666,0.485450565772845,0.484745475946996,0.485121173676683,0.486350779433403,0.487940909767924,0.488766403942832,0.490079260888659,0.492110769684433,0.495075252166,0.49835843568842,0.499106352499387,0.499134265766585,0.498641989911715,0.499320953416075,0.499488290548334,0.499689501044162,0.49947162304159,0.499446597194376,0.154810302426754,0.112692007559767,0.00177464731169479,0.000456733616451671,0.000283128058725287,0,0.00198127921051197,0.00297158205539798,0.00331818873658799,0.10344094996476,0.145770104039452,0.211562687844006,0.54756644386954,0.547662681635744,0.548307226925293,0.549283735351309,0.550621613399379,0.551948202823962,0.55341042547159,0.554867091648493,0.556547283398208,0.559844021647563,0.56480108422189,0.566558799113464,0.568286549314691,0.569594432105303,0.570905307348832,0.571879052128888,0.573120050639546,0.574378210747594,0.576051704386146,0.57867031608497,0.581363159404014,0.582807907524165,0.584368992439234,0.585624949503219,0.587173274827583,0.590028995319697,0.592763367998296,0.593985267579721,0.595053227294564,0.596141851513196,0.597032447805081,0.597550176342885,0.597641007208876,0.597479398860992,0.596026860506836,0.286578906382491,0.245418060779302,0.205182670509069,0.16571313143914,0.126786603737891,0.0865022600459015,0.62489617740566,0.625442550642081,0.625964054947792,0.627454511104413,0.629354351754464,0.633600728053865,0.635312928809707,0.637671339595728,0.639301843743946,0.642101269470679,0.64230187764457,0.171051367093614,0.12903588023559,0.08730959689489,0.156681687729272,0.666426495248783,0.666944564450513,0.668028571411762,0.668613862431549,0.676659011920455,0.677741357935442,0.679320797617211,0.680852836138203,0.682417958210458,0.683938211344525,0.685261650138877,0.686880715039259,0.687892928395877,0.690061776515263,0.690969842733031,0.693488364335458,0.6943928602349,0.184681096617869,0.142854668756609,0.100396996178767,0.016151257305239,0.0116458266925352,0.00844179128932802,0.00576519247675467,0.00343474466795276,0.00193461092570521,0.00136867846726148,0.00172852758474436,0.00314947666979079,0.00594722397237692,0.0104396708994289,0.0146767485419991,0.0162099752103184,0.124295589287303,0.164918116015065,0.206080887533522,0.164862956423568,0.124196576798686,0.0033318843649614,0.00326960398879282,0.00313367114619267,0.00271453567825189
0.463709290712971,0.4637943708213,0.463670304228755,0.463240820560686,0.462872701257936,0.462172413749914,0.461954765135686,0.461582356318196,0.461896972330288,0.462211012503084,0.462913113172979,0.464571217435964,0.466038602945255,0.465463752314858,0.466888119692426,0.466160430777758,0.466703056836633,0.468510800475103,0.470108100316315,0.473216925533049,0.475112889615721,0.475061552423331,0.474221317045154,0.472031862155336,0.469681247595594,0.471739257499014,0.471720855841974,0.473244075107202,0.47337454217491,0.476906742669594,0.479407417502705,0.480745647024635,0.482133306512835,0.482573954453164,0.483359002789131,0.483773768505536,0.48485620022781,0.484480729600145,0.484386236325994,0.483004918819153,0.480003046316054,0.482334245644809,0.48256602074485,0.485416839720897,0.48879164849377,0.488639098755902,0.489990886331155,0.491740619863918,0.495125111657534,0.49622995308026,0.496161005238012,0.497337127490519,0.497039045346942,0.498226113305972,0.498262046036489,0.499143379470878,0.499149447307086,0.499591849561627,0.49929787944651,0.154700187714971,0.00252366050818577,0.000590414864631006,0.517728999999825,0.139704820443011,0.518012999999825,0.00324165869994435,0.00349664553237276,0.00350956279096591,0.00349899879107262,0.169647401158043,0.547486232123021,0.547057702398781,0.548175733918244,0.548788318883728,0.550565521189221,0.550977249893574,0.552060155539915,0.553191206770794,0.553846791298952,0.556791716867357,0.566825235986786,0.566516697472555,0.568872355079123,0.570282675443974,0.571071575845687,0.572737497685208,0.573404474972426,0.575076212271042,0.574957279234088,0.579767135763615,0.58197828920139,0.583723677956051,0.584091452521108,0.586390414537533,0.586650533213136,0.591755160596281,0.595260827285717,0.595646462655621,0.596034558142602,0.597931496784625,0.599492076529971,0.599808996238186,0.600211545916035,0.600484299883733,0.601605547262025,0.60323980219696,0.603092516636083,0.607583903994684,0.611014131625783,0.168655958065719,0.0034845000000061,0.62524140053142,0.626528281582519,0.626635925065557,0.628231246484295,0.628563960868397,0.637719640918434,0.636317858199683,0.639717569753,0.639098698066413,0.642539244278398,0.640723421607124,0.00365636332830374,0.00403458247216029,0.00395875227032865,0.114088175360283,0.758402999999825,0.130250038892791,0.00337905613922633,0.151281565727439,0.677595092441371,0.678605402102034,0.680421594327311,0.681778858556149,0.683487001627371,0.684385077527551,0.685401323849519,0.686652273565625,0.68700930348461,0.688830517098549,0.688592377527188,0.692485369310198,0.695147058348867,0.133859141937542,0.00362338132317057,0.00353258618859507,0.00345508102415687,0.003414300514901,0.00337619734445361,0.00347378067992938,0.00354833214126077,0.00341043113676231,0.00338739440544146,0.00333759646070423,0.00342239452893905,0.00497077646273216,0.00339157999558373,0.0161921065504499,0.00353253999685617,0.0845483313854389,0.0035551300003009,0.247580909443907,0.720398999999825,0.165886030622145,0.00335308695223153,0.00336925653664974,0.0034956875902477,0.003008472432258
0.462883612157046,0.462513660279032,0.462044911672574,0.461895208708567,0.46147800870698,0.460224489024589,0.459320169680377,0.458804711061685,0.459098748899943,0.459040943247992,0.460751474695991,0.460573951385458,0.460274613243084,0.46100402299932,0.460979914326557,0.462355534829914,0.464150671491497,0.463883484330639,0.463278185711073,0.463670896485423,0.464625690715182,0.465679256951857,0.466565967937459,0.469719949766271,0.470328666087679,0.471322993660853,0.471668196569913,0.472464216751037,0.472805544507881,0.472454713097793,0.475257202182147,0.477170644900907,0.477053378235528,0.475853760972708,0.474687175456109,0.474225095175609,0.474602414755827,0.475556746615017,0.476613343034316,0.477290663356454,0.481467469042526,0.482092127499788,0.482598512039408,0.484078867479386,0.485495616715584,0.487017892880518,0.488981944160283,0.490001070839951,0.493698194855641,0.495438243597751,0.496272476779266,0.497179997252984,0.497862560977123,0.498516121193292,0.498964533757226,0.499579624185192,0.500084427923285,0.500563123368,0.5009837545844,0.196784722320121,0.154728586915764,0,0,0,0.00209201723871501,0.00304484683876643,0.00341864527624094,0.00349269001888536,0.00349416160857522,0.127963814452334,0.169926384719519,0.545370466438394,0.546813080998047,0.547627207479256,0.548836942778356,0.549669901213355,0.550884192682183,0.552184594438916,0.553607369881605,0.556845598951053,0.560221639469956,0.563476396075594,0.570024359257173,0.570960234327648,0.572383214660754,0.573521339035266,0.574927234298762,0.576626668864578,0.578537458760202,0.58085361566486,0.583203468720247,0.584809809706413,0.586741727173375,0.588289510277635,0.59029579766101,0.592909570000086,0.59553955568693,0.596807741587474,0.598053773529523,0.599703503150011,0.601214523312502,0.601818917787962,0.602227339507145,0.602757052546957,0.603352411276291,0.605210795906325,0.605601923961221,0.608808645161883,0.611604476415775,0.614915262399174,0.621501698903395,0.624943501411882,0.625691709735554,0.626513889057978,0.627839902568672,0.629262539500305,0.63262670371079,0.633536943285068,0.634891259994758,0.635513402027139,0.635785210840164,0.637538714576137,0.130892118878962,0.00424102172646656,0.0041180359227893,0.00416477304020246,0.00404628107294509,0.00400533991522504,0.0037603441844717,0.1085313568916,0.150763488285647,0.192968573043627,0.681221395751379,0.68218109571659,0.683409740277055,0.684383240988686,0.685086466336998,0.30208801820952,0.261588201755937,0.222667413411015,0.185245351931332,0.149383921635573,0.114585259382336,0.0789112998326508,0.00358260642090125,0.00351623276460236,0.00343627933937493,0.00341104912617703,0.00340044858221857,0.00348712999673811,0.00356694751366574,0.00363874679774271,0.00365886946047984,0.0036946092345108,0.00365547712103268,0.0962039085807715,0.128414000369919,0.161601829214427,0.196105632420787,0.232262130506894,0.270300893604636,0.310363215427531,0.382235384973603,0.353497810799026,0.356376555106633,0.358940477394835,0.359900848735692,0.35982284281937
0.46204489406506,0.461484141247014,0.459838881937657,0.46085467510892,0.46072368231647,0.458042277128072,0.456224176773515,0.455431313914682,0.453395946980981,0.454020495444881,0.451535246543311,0.453641228292531,0.455132534394315,0.45741056671011,0.458118873941348,0.458247183311132,0.456376930781798,0.456519269402496,0.457270391613665,0.455421149136194,0.454857444220152,0.459372095472498,0.464214960671804,0.458211754239359,0.00336873999981086,0.459834416315237,0.470994012693025,0.472012929508036,0.472481682931292,0.457615704615428,0.00321809999986247,0.0872116091156435,0.00336912022415787,0.00295056494193663,0.00333783941087721,0.00322612522145141,0.00348357548581569,0.0035330393840985,0.00361493142178908,0.138116934759171,0.482316715426672,0.482028084196671,0.481689584364504,0.482810258132349,0.482689443853845,0.483386398895524,0.481977470512687,0.485811559376924,0.494403919700606,0.490459934295991,0.00362111000036536,0.154271640946132,0.498858459033643,0.498984420346475,0.49965145901549,0.500099398856615,0.50112860678659,0.501590699735898,0.503111241572743,0.238857409189025,0.504294999999825,0.000211879612638492,0.00235338153354409,0.00183471372917678,0.00315258665737746,0.00327906744867724,0.00354627395738927,0.00351362558906291,0.0034828211271337,0.0866757989045501,0.0035823099999953,0.54300733424616,0.546775461566047,0.546645704567772,0.548014246950615,0.548305417527886,0.549910099360718,0.551206429467125,0.551692104905363,0.165226079458027,0.00345399000060069,0.16322235024513,0.570133274173185,0.571532675428897,0.573482668558163,0.574624448855802,0.575205678349128,0.578563134472866,0.581090099567347,0.582682922224141,0.58423898564039,0.58639648224733,0.588821156060038,0.59034577676883,0.592770779202893,0.594564503442792,0.596714275489467,0.598359650389032,0.599305755262118,0.601924811411921,0.603639032250881,0.604269428893197,0.604105246532071,0.605143313301197,0.603984904090678,0.608848940848419,0.613102106535525,0.610700500814057,0.00379195999981198,0.617843304476369,0.624102331266943,0.624500295634167,0.625365081331754,0.62632358277907,0.628038469282633,0.628658877036949,0.630692694787774,0.630949417465072,0.631964475612015,0.632625026056051,0.6344944420707,0.636049086770534,0.649017999328729,0.0041612904427293,0.00379982287010773,0.00394518283391092,0.003627241860897,0.00389124666560095,0.00370805662922928,0.0037173001769345,0.00351375509370349,0.131042268165635,0.680999216623169,0.133998054338798,0.0034286903951405,0.131548025007284,0.685263328009689,0.130704007039105,0.00356054223072218,0.00363374080092807,0.00355076885886701,0.0036245436259629,0.003608917611259,0.00363080451479102,0.00360115246286641,0.00350239012099994,0.00336153453041882,0.00338295809072069,0.00333138250266861,0.00348968288299016,0.00357688069110667,0.00368963280898554,0.00370240296959046,0.00384566571490155,0.00379504328032492,0.135656277257263,0.710729117579934,0.711368722976133,0.712271391838949,0.712968384761054,0.713862580482596,0.714715302973878,0.715880407323747,0.717314166747803,0.719118831595124,0.720724503735193,0.723234900577073,0.723629809997618
0.440235453194781,0.44316350679168,0.446540392008441,0.450412679267884,0.454587831597296,0.454938862175441,0.45383302045461,0.453244125328132,0.452509980451999,0.452306694283803,0.451603723381732,0.452249762305544,0.453332684520883,0.455272498855141,0.456313896530675,0.455967834071502,0.454663173285446,0.454733251891382,0.454657175550027,0.454068895500817,0.45313629311087,0.451099087514732,0.449081675924993,0.446417771749024,0.440557396566922,0.439038111075231,0.437773671928092,0.437349848094452,0.437106804173127,0.436695979830753,0.171237582489318,0.129148798344042,0.00298048708623249,0.00262016479699516,0.00283484538311948,0.00304031320278735,0.00335972457642112,0.00350641157067732,0.00359335990446186,0.0963435349878995,0.122166053681364,0.149013040496672,0.177448789249052,0.207984569374212,0.241044922557458,0.27695562612801,0.31593917001783,0.461848358513128,0.46747872059122,0.466660752691965,0.0805488573790605,0.112668810611986,0.13935021479908,0.167102045866146,0.196412502792744,0.227722993764822,0.261400636583682,0.297739352043404,0.336942935789865,0.1701974414211,0.128025361136408,0.00150312189695632,0.00229638499170211,0.0932361334900076,0.11737103030278,0.142769814379419,0.170011188855643,0.199600784159381,0.231949618606824,0.267380060513804,0.306121388464905,0.539774319089388,0.543453301075908,0.544986308930153,0.545982966387529,0.545868512208804,0.547485900187862,0.545616457158812,0.165226079458027,0.123424858874539,0.0823435659606169,0.121554907221186,0.161742057221468,0.202520186918184,0.243972486413494,0.575874841167823,0.578624189473108,0.580574211300996,0.582590095532117,0.583800192216658,0.585348951582514,0.586905625524913,0.588835590338838,0.590875509261732,0.59339513695118,0.595375204153562,0.597949633763097,0.600184195770132,0.602850261367286,0.604862490982721,0.606679318459632,0.607416716853108,0.608432248251136,0.609597787167504,0.611668486818553,0.613085159685743,0.615664122191503,0.618254809660063,0.619894182359347,0.620634298666396,0.623066273709242,0.624115265324071,0.625047676541428,0.625903652456947,0.626733891425732,0.62720221874742,0.627751493374658,0.628058430395181,0.628211961938189,0.628809143340329,0.628124908708719,0.627703494765036,0.132859933416638,0.00407501727825148,0.00392418240543517,0.0039402959179262,0.00386983899984815,0.0039850081013223,0.00390943282153014,0.00377423738892964,0.00353022643309704,0.00322967139506876,0.00314752622586748,0.00319958203984159,0.00349272607242744,0.00375091761181064,0.00384845223775723,0.00392290278045421,0.0037906966432697,0.00373491741793401,0.00364932115301741,0.00366994115233383,0.0036575907572582,0.00364619615320163,0.00358543226053552,0.00351987938715007,0.00344222388915097,0.00342855330821942,0.00343942987982649,0.00356460193050651,0.00365906212374338,0.00379598647160948,0.00386651095558617,0.00406825625159322,0.117846490850711,0.175737508660701,0.217198927283533,0.711017946290424,0.71236248880602,0.712832417819828,0.713569507979687,0.71449809754337,0.715787214675669,0.717043645773495,0.718493151196473,0.719903073229149,0.721397171236137,0.722549041968447
0.430629108484121,0.430518724047771,0.430867065452831,0.448031587956752,0.456782853223,0.453332474856316,0.450847260437552,0.45130588954586,0.451012365375477,0.450939000872908,0.450111701387253,0.450186796347414,0.450442818139851,0.453823351849644,0.45562531417286,0.454361173179922,0.451357654040726,0.45287830707559,0.452412700367375,0.45300849679375,0.452490086947103,0.45126364341954,0.450339595811712,0.444792890114701,0.442683995043654,0.439531600699369,0.43752776421079,0.437839115479413,0.437774198974057,0.436780204767,0.437135036698118,0.171237582489316,0.00340901695311738,0.135084391867155,0.447784782743121,0.13455136002884,0.00348410008263766,0.00354660978619701,0.00364215622961722,0.0710988473029736,0.0034443999970972,0.0778256097263244,0.0031579651714473,0.00255558092510665,0.00299179299377923,0.00257477042178551,0.00315452320600668,0.461998053282444,0.470118387207382,0.468018313554024,0.00363531999867262,0.077053836426781,0.00338191591412303,0.00354231768664568,0.00362605539361648,0.00358212749873814,0.00345054785665593,0.132823312126653,0.503857999999825,0.127384579348432,0.00327630953785389,0.00274655659752606,0.00318378925627028,0.129273247472863,0.523408565624146,0.524660428001474,0.526154973062267,0.526874914829035,0.527919754681435,0.529181054576831,0.530896302976194,0.53405035864134,0.00352328999981127,0.0880708375778579,0.00360263999981148,0.542689346515393,0.548880819827087,0.543893509103286,0.00382854669839615,0.00385472468773628,0.00362248881243359,0.00383370298649486,0.00369203207047145,0.0038604849314689,0.00348386823026027,0.574607100749051,0.582465418443138,0.582870963330641,0.584326289826453,0.585098600398496,0.585864691966217,0.587548345124045,0.58821224997919,0.591307876843305,0.594102286812053,0.595771095350381,0.599101223358739,0.601708425676794,0.608060527084932,0.608164559977465,0.610749579817515,0.610465363751918,0.612445338788182,0.612931055715285,0.616194079544829,0.615942828925677,0.618202748186597,0.619322910754565,0.621976888709877,0.621904966645123,0.623835681986166,0.624202835056379,0.625313190341092,0.625668668180304,0.626213918597587,0.625751337040037,0.625403300178581,0.625352576554864,0.62414718874272,0.626285842333419,0.627321403150683,0.627433592676537,0.0035628412008715,0.00382682331970493,0.0036735903288347,0.00381979529979804,0.00373640455382594,0.131416225792007,0.63903941072733,0.128569048852041,0.00361827926877928,0.0033229416696635,0.0033420425225155,0.00330396933146896,0.00361785987777433,0.00370223003117768,0.00357815315888131,0.00383769283145797,0.00380236861595726,0.00375971957145805,0.00358481302983835,0.00367353989118167,0.00365750499776281,0.00364955913269573,0.00354301543098301,0.12176442968026,0.679394999999825,0.122392016547543,0.00342314256185349,0.00361396530513693,0.00366062797932973,0.00382145209713219,0.00374504487843266,0.00419133711709394,0.701278973458772,0.217198927283533,0.00341810999981099,0.709067493675299,0.713301227712818,0.712433538513961,0.713287056609948,0.713858071278413,0.715991949475336,0.716479445190027,0.718178298377378,0.71888637767629,0.7201215970272,0.721130668651309
0.429166758994768,0.430148446606524,0.430959893450295,0.442625992713794,0.447192444345174,0.448789083059053,0.449304362352581,0.450036853184973,0.450280969373342,0.450116299146702,0.44929169009416,0.447783366068327,0.448058955417769,0.446176465729377,0.445043221774553,0.444704111923125,0.445705547708079,0.44523623437031,0.443986138660173,0.442140366230977,0.44046189535115,0.439449219056676,0.439409765245592,0.440223963642197,0.439785865422105,0.439259013070208,0.439581533620905,0.439194603815839,0.438894218129949,0.435946982133904,0.43591507235977,0.435270248995072,0.437513611777941,0.438028929380923,0.443255241332436,0.32040814274832,0.280652002869905,0.24319982273687,0.207837700101979,0.17425696094171,0.142068159313401,0.110818629032289,0.00270037635821086,0.00195204919032822,0.00209959490367758,0.0020192895128537,0.00268552627739198,0.462303316492684,0.469910602696657,0.468829458639196,0.160122149172121,0.118260773463269,0.0035601816412907,0.00360303827958349,0.00363619503838449,0.0036409221940142,0.0035962120148353,0.00359311551941521,0.00351398888937676,0.00343619417804296,0.00333163612256277,0.00317009283573006,0.00327641900681928,0.166207498722645,0.523602048914479,0.524448453736844,0.525532201131975,0.526647376831543,0.527916286592839,0.528989949716384,0.530481628399169,0.532370412071593,0.533993479901309,0.535197451596816,0.538222321266991,0.54049210600213,0.541293460484995,0.542276283961342,0.130493184164337,0.00399810553609644,0.00392254970634889,0.00400631409524518,0.00400048729724663,0.00416290545668802,0.134874542839141,0.573678348997801,0.583380141726088,0.583808908559602,0.584800384004581,0.586073994258633,0.587677688423557,0.588886373970697,0.590263125920157,0.591694050075392,0.593420539456865,0.594206988843602,0.603402087232987,0.604852256090349,0.607719723085126,0.609033787258067,0.610706546180289,0.611265837934734,0.612488845265025,0.613449059047056,0.615130561400613,0.616318360659125,0.618171470564924,0.619104663206721,0.620528546420762,0.621619415009066,0.6232989785582,0.624063174976538,0.625291270286357,0.625625939835751,0.625606585148069,0.624528989339364,0.623923720096242,0.624049203826106,0.624401195118063,0.625041061726603,0.625962546140448,0.627449463304239,0.630280079799001,0.632800600175531,0.634291059355754,0.636096747688321,0.637879898704065,0.638976717608188,0.639961854861467,0.332559729252903,0.293782355694418,0.258282523079475,0.22586235038134,0.196271283523554,0.169143007313045,0.14398003581152,0.120414893427303,0.0979392467100417,0.0735848535375269,0.00381910839566435,0.00373255420511664,0.00371987562206865,0.00367418728148713,0.00369298903627375,0.121909456008043,0.164104924660062,0.206813997668968,0.164562729986428,0.122390966483926,0.00375898094263422,0.00377837780627931,0.00394758718150025,0.00404929282918384,0.00435412020902025,0.694985574223009,0.695254105923927,0.701020896476955,0.706752336086238,0.711150436309579,0.710500717772836,0.71069747539269,0.712030242024768,0.713759961635612,0.715134522985103,0.716696992541693,0.717754452877787,0.718925159301022,0.719983935537312
0.0034501436295125,0.153094753925496,0.431967779979906,0.43791013877274,0.446435688644748,0.447557050166971,0.447610590472448,0.44917028930216,0.449753377075452,0.449680217058669,0.44894277564576,0.443557259867213,0.437932844505069,0.438115044418803,0.438186087027639,0.43831649692388,0.43768232898321,0.436617834822692,0.435895074669738,0.435840819006614,0.436206562456733,0.436290749342644,0.436506874022239,0.437535886503794,0.437185608446598,0.438572028764143,0.442706848771492,0.441043037402144,0.443165289790412,0.43290001422121,0.00343859999981105,0.433094834430186,0.439554090381166,0.437588405728199,0.449455329345825,0.444991839300807,1.09987999999982,0.445918218253219,0.447749195647133,0.447814642813631,0.449223380973436,0.152522951635995,0.00337661071377395,0.135609290329267,0.460494000010236,0.135899326931982,0.0032756396459014,0.462714222481859,0.471588293894459,0.469772747364295,1.09442999999982,0.160122149170716,0.00368177400573812,0.00365002511577529,0.00364657571747208,0.00369537796538134,0.00367144075523539,0.00363123422426388,0.0035238745531799,0.00350195798894539,0.00349324332476104,0.00340762209862601,0.00353004698549121,0.204260746797006,0.522974110789461,0.523996942336322,0.524995057031915,0.526302713254155,0.528360126770877,0.528613067553482,0.530154908222935,0.531578432178585,0.535212720310129,0.53421628993533,0.53968977796339,0.540428229030209,0.541523288215802,0.541877251508604,0.541966176040731,0.00402008444055279,0.0038835268474868,0.0040123526650085,0.00386567961584922,0.00422658161252123,0.572767442821406,0.573257257698963,0.583731196682971,0.584206164698945,0.584749560551186,0.586945286797487,0.589713278917218,0.590311451600359,0.592072664019246,0.59186879566561,0.00362110999981153,0.593260214967264,0.606229309477201,0.606664074382433,0.609010314425468,0.609698475400739,0.611888562031247,0.611617524388368,0.612895698741137,0.613442941489594,0.614807623100549,0.616332892171851,0.619368780903829,0.618849488115743,0.619929550389232,0.621346519281514,0.624239234071015,0.623902897733619,0.626553249862978,0.626094233907768,0.626332012276771,0.622959568060634,0.621966933945669,0.622569225610487,0.624568458856008,0.623616736411408,0.624260348637623,0.624908600443069,0.62610061413472,0.628002000187013,0.627794769747315,0.630044511911909,0.631050865370763,0.632273414263759,0.6327622892675,0.632031240863301,0.634045036870661,0.635688943077941,0.637266178288112,0.638466501915026,0.640171818213167,0.353934551842205,0.642180999999825,0.18783907828394,0.646106999999825,0.00382208117801227,0.00372003084817501,0.0036843300629373,0.00355388063114488,0.00364785768075544,0.670770999999825,0.206405005132983,0.671479999999825,0.206813816094112,0.678338999999825,0.00374451482411829,0.00362587706496998,0.00387631126670125,0.00384629480600621,0.00428454811290031,0.694252543399626,0.694958324720504,0.704612075279089,0.703947659350424,0.710215514211245,0.707813208342946,0.707312948498888,0.709684878612726,0.712352740984571,0.713448800647734,0.716088172664265,0.716380741362737,0.718280007834109,0.71860539411711
0.00372773560761388,0.11157192207382,0.146973339016925,0.183287613466725,0.220822026115315,0.259782736158783,0.300310483143434,0.432468665578762,0.437561606726348,0.437480877182647,0.437805072765104,0.439219179628368,0.438183990468178,0.437988275671817,0.437968497823363,0.437720000463058,0.437222062456943,0.436256738561867,0.435633970935681,0.435619081607292,0.436148069140021,0.436099464407577,0.436358910477206,0.436343067759689,0.436246079842714,0.435243171044794,0.433602451072906,0.431787324513137,0.43047044414862,0.430681641296562,0.430435787484727,0.431925225656255,0.434305876127402,0.435459332710277,0.437614387788699,0.441138006641635,0.442628542796178,0.444278593562392,0.445803566168712,0.446565981245353,0.447489226905412,0.447715322274229,0.44900559866747,0.4509488314447,0.455571407632441,0.459676208785117,0.461457667620209,0.462983358557505,0.463868722193575,0.464402815287299,0.464679185996418,0.217552563560677,0.175963444914594,0.134737408025845,0.0945428102485754,0.00375633029331557,0.00370836550484632,0.00370263461482419,0.00362209594570985,0.00358670681607825,0.00352845728590147,0.00349214644434553,0.129995647642222,0.243601472650783,0.523036657278338,0.523660809673672,0.524363851462077,0.525436653254276,0.526500657071835,0.527307785001349,0.528133112608399,0.529033646829536,0.528834457442196,0.529009038464325,0.25920573004035,0.217617815094483,0.176578653115524,0.136276748542249,0.0967470929521332,0.00397615366380048,0.00395092516391482,0.00406412417463726,0.00407547901332516,0.00423469976785012,0.133177863049487,0.573781882714872,0.584622549159494,0.58436688923552,0.58521333164005,0.587168962953241,0.589436171695943,0.59056015776108,0.591651342061715,0.59191006925265,0.592223295227794,0.592446098267001,0.605576709248028,0.606558948735346,0.607998767684353,0.608966771285516,0.609953581504039,0.610521705310638,0.611306081605305,0.612842267578644,0.614140258750203,0.615220729185046,0.615813834561092,0.617578250283522,0.618967177951651,0.620330030433304,0.621669904380185,0.621355318159877,0.619358900468627,0.618235356521923,0.617952922607525,0.619420161589709,0.619555960383714,0.619920837421387,0.620700275009557,0.620839291486932,0.621245083266501,0.621962192220868,0.622833044154929,0.623596757527832,0.62376008792675,0.62479101899348,0.625956254204198,0.628702178599456,0.629641943517503,0.629872828048067,0.634735655206642,0.635929647429642,0.637121921084888,0.638071081488554,0.63887649453572,0.313901200879315,0.187839078306794,0.145419892558195,0.102753275348295,0.0037887727671503,0.00370509486464599,0.00367470447902757,0.00360503237879524,0.00361317372136259,0.121975080565645,0.164147923182957,0.206569623147874,0.164195807395323,0.120638111929438,0.00372105993456399,0.00374870237637989,0.00390635353828464,0.00399379587675794,0.00419158751737226,0.133161897696256,0.205801907383715,0.696655275573107,0.698890957672326,0.700894160320465,0.70358448672509,0.705601934580756,0.7074821159451,0.709322073644722,0.710564898428442,0.712094730904613,0.713791454090363,0.715710609911836,0.716725833751105
0.00361786925330827,0.0773144602168685,0.00348174999964323,0.0877395625765217,0.00340049999981095,0.0882177709232329,0.00355281999981136,0.429134788444025,0.437749824492801,0.437349188766195,0.437008719564962,0.437549076337324,0.437564027615149,0.437578766319706,0.437803713660916,0.437244865305637,0.437087062028196,0.435695550690461,0.434865332701178,0.435221046054672,0.436757803248191,0.435800522231498,0.436420933964447,0.435323710878031,0.436254130795494,0.432618009087564,0.428927509414818,0.429684251733053,0.429049315691518,0.429542755237735,0.429269403018954,0.430665687885519,0.431115758559931,0.43303844571204,0.432926241186641,0.440173357230652,0.443107291297007,0.443140351786742,0.444766515997412,0.445321037823056,0.446642278950856,0.447092055056839,0.449046776525603,0.449568708550856,0.456280188297639,0.459776184213691,0.458705488317622,0.15315248265192,0.0036109250805003,0.132589368274053,0.472965999999064,0.259425130364734,0.473264999999825,0.176585631402674,0.475646999999825,0.00371358239954573,0.00361427745528634,0.00372697409377907,0.00364828652378799,0.00364874529775405,0.00357164613399915,0.0035618658055753,0.519858999999825,0.284332199913437,0.522508333390295,0.523224126278805,0.523533459982258,0.524573452472075,0.525204329776086,0.526061301015018,0.526326729990224,0.527618937655499,0.526768761444505,0.527704376439948,0.0036282890322932,0.00358385232405364,0.00352345479383867,0.00351960144234284,0.00338809654356436,0.00374202980897505,0.00368783088273207,0.0039474387581272,0.00385534267823158,0.00399431250820675,0.00364429233044074,0.57478753435852,0.585680218068022,0.583315395110134,0.584504491280861,0.5871496056277,0.590293930589899,0.590986970809561,0.592174379916933,0.592196278866178,0.592723914362538,0.592305947469051,0.603898253762922,0.605991637304429,0.607442620133885,0.608295957529726,0.608504237315146,0.609357293458248,0.609135070272486,0.601342708111623,0.00341982295854783,0.134311090256445,0.615319383243017,0.135520529999689,0.00348734558520158,0.00344649426657667,0.00347953491974818,0.0872920886185285,0.00364649999991597,0.613170746431685,0.616877536210011,0.617708914118357,0.617365360966944,0.61705417001633,0.617657688213967,0.618008078495953,0.618231959510333,0.619231397894327,0.620009017215804,0.620110428656261,0.619580633128798,0.620449018090122,0.00369829999981173,0.0880373625001131,0.00323388999981051,0.626323403984447,0.636103996280906,0.636389704436546,0.637355514581964,0.637940086707304,0.638473799990453,0.275908736903759,0.003418459999811,0.0877582139761771,0.00360105888897126,0.00368862360670603,0.0035548580706132,0.00360505620897649,0.00352585284742621,0.00350634607640161,0.00340360837139497,0.121599843400276,0.670738999999825,0.122024657636406,0.0035190923015671,0.00350985644504288,0.00361784661259148,0.00378949352890348,0.00380338161839478,0.00390805244648927,0.003671469012889,0.16419972364355,0.695026137430716,0.696393533562528,0.695684068135258,0.700261268623994,0.704364827615361,0.705276661339967,0.707249980830546,0.707405409170553,0.707540730751027,0.710948801365939,0.71450538430314,0.714490919685116
0.0910930144742423,0.123834995483805,0.158253096116149,0.193830663208205,0.230792199345094,0.269428552578119,0.30982480738332,0.420508999548731,0.425296403658548,0.42874536985605,0.435492518472433,0.436564393326729,0.4370293406156,0.436950668828099,0.436917278254509,0.436189977202474,0.436041453933211,0.434406484223009,0.433385941522993,0.433591750381059,0.434505733551084,0.433636007965759,0.434163059542928,0.432078000324914,0.430731110634645,0.429977229673649,0.428762336749679,0.428851044667864,0.429003057285321,0.429319625254142,0.429723377605162,0.430632802042585,0.431594668590853,0.432865196586141,0.434181451864676,0.437159989660483,0.439143177425681,0.440607425980156,0.442000397043329,0.44341556843797,0.444710879582277,0.445238510606796,0.29919461728982,0.258774814206145,0.220012341001982,0.182736456221495,0.146703204053568,0.111592519143252,0.00346431371522759,0.00300400859505169,0.00204577972324259,0,0.00124241882057931,0.00246299454209291,0.00318279543603392,0.00361917415528871,0.00371598355511773,0.00383623847341888,0.00377703815522667,0.00375514575897443,0.00366152826039444,0.00362243518179756,0.128988766708619,0.173508043223718,0.522897932047102,0.523284457058164,0.523700896210565,0.52434603070758,0.524920338802009,0.525716045814879,0.526598210850878,0.528551289553613,0.527465192184492,0.527419324800261,0.00355965902972211,0.00357408962289064,0.00357650327955887,0.00359531477202282,0.00361151743567077,0.00377949856662086,0.00384116559159527,0.00398369010821779,0.110089763040847,0.152295762717356,0.194505720655369,0.576050874057853,0.577618225437672,0.578664449632956,0.576740975879253,0.573770481295599,0.51985741293228,0.519376002771427,0.518639414201008,0.517994143818795,0.517744690442989,0.518010876891402,0.518671359100142,0.519419803479783,0.519907786437425,0.57816209524009,0.57967783460566,0.579721284644835,0.57950869318654,0.578379948955135,0.00270177916884411,0.00186830646401473,0.00241555321533801,0.00279282599856166,0.00326921237255127,0.00336562421718162,0.00337681406801038,0.128995344234201,0.1710028281411,0.604521624175457,0.605779790675982,0.607948972695507,0.611298619588231,0.613250801777301,0.614692266898555,0.615428081595054,0.616219394659514,0.617046795511857,0.617589950754116,0.617825492563242,0.617797314332485,0.617777897684514,0.616847416764317,0.616334528591678,0.616353276180106,0.622859131955658,0.622574849537298,0.622244670912557,0.622642614059167,0.621729591045694,0.280288317723898,0.239789263233993,0.182943446532538,0.141064215445932,0.100150846022434,0.0037224599988617,0.0036344120197616,0.00361336022851664,0.0035284729855775,0.00344384353468985,0.00331409779409284,0.00300965455171416,0.00290753008879586,0.00275850316359848,0.00307957328832863,0.00305801977461812,0.00350818402283818,0.00370816524889712,0.00377240544847793,0.00379871123284395,0.00370546976546947,0.123128762526874,0.164806599081421,0.691273629069198,0.6950257734508,0.697579238184719,0.698787883181012,0.70212615171524,0.703385321551438,0.704430662578755,0.706068424704765,0.708208411232288,0.709115423496819,0.711357497162678
0.407121999999825,0.17532977713998,0.408446999999825,0.257807671785151,0.410155827535581,0.409900558036214,0.410143428603483,0.410475132788599,0.411109066080397,0.425345460776303,0.435743447413853,0.436444021007468,0.437219301241109,0.436659287118022,0.436852403932521,0.434709970229019,0.436367782961097,0.432568888725262,0.430452724562676,0.431389343349573,0.433815283366822,0.429957608740495,0.425514514532407,0.428005957835181,0.427690323089966,0.427956755997662,0.427061629423966,0.428242240931164,0.428662984748007,0.429501390750263,0.429690320426425,0.430979949927045,0.431749670558746,0.433061472216431,0.433890704983329,0.435693342169394,0.435918974795033,0.438443957897224,0.439299708695993,0.44180946875989,0.443656230514402,0.444104549157595,0.00335322999981083,0.0881240483374988,0.0035325799998113,0.0878716428470969,0.00357780999974081,0.077695135607902,0.00365740398028331,0.00334525783633161,0.00301370324762984,0.00228627416504408,0.00297414916511207,0.00306104958708613,0.00347865270208661,0.00369496754786048,0.00364134090595318,0.0038880326794727,0.00374515578255872,0.0037851975844506,0.0036518571329815,0.00358405310433204,0.00335433542841945,0.131325565425601,0.522924575682993,0.523312072141413,0.523757065177405,0.524211361579395,0.524622037343717,0.525404805277689,0.525995000351448,0.53271566703065,0.904977999999825,0.533354180193949,0.00345482325958633,0.0035425468410763,0.00357306578738282,0.00360665894357114,0.00360083490031151,0.00377790386486798,0.00376590924932749,0.0039400490183331,0.573218999999825,0.281951692027805,0.574084664326164,0.575757259617047,0.577989036453554,0.57684011378146,0.577676795610477,0.570899264411619,0.00344670999981107,0.0879337232385567,0.00359465999981146,0.087933723238685,0.00316746999981033,0.0879432236317963,0.00360415999981148,0.0879432236322212,0.00329097999981066,0.577465525292553,0.581882979589924,0.580711921781837,0.581047186261686,0.577911314550607,0.00317604647151209,0.00255826470704811,0.00302878470558758,0.00304107344856209,0.00352014340322869,0.00338034090358392,0.00326417043079406,0.171002828139579,0.603423575252445,0.603549867345425,0.604775806518256,0.606018255728834,0.60581300961485,0.609658669850501,0.612267736536306,0.612935513096599,0.614260905014673,0.615204142809672,0.615781253398161,0.615960302606664,0.616532407652271,0.61634473033303,0.616983614096668,0.616272929274498,0.616942568480668,0.619888832805834,0.623217309180958,0.621907482295222,0.624259341644317,0.620858309145892,0.00334877999981081,0.206967679041822,0.635636999999825,0.182944078978881,0.638938999999825,0.00372337687373933,0.0035763982100608,0.00359373812676439,0.00349734916058428,0.00340339160094232,0.00342026223892283,0.00282922862747388,0.00290322540065362,0.00214428966261345,0.00285315592069476,0.00200348197686482,0.665901999999825,0.003604218778211,0.00368502465100039,0.00370074885898341,0.00359230187673114,0.0830099006010288,0.00336755000049686,0.686979476596848,0.694928357376428,0.696329815272096,0.696477125423661,0.696795170623603,0.69559807235318,0.700789587882591,0.70416007730083,0.706525351668341,0.707165361496081,0.70802674934854
0.0927944903163813,0.133039424745985,0.1743549126588,0.215976321151476,0.409510095789145,0.409502539439577,0.409689727944265,0.410614479642254,0.411754376412047,0.422185033453517,0.422842627864849,0.423812481516747,0.425134977056987,0.426510391341466,0.427396543247376,0.429398272829961,0.428513574392665,0.428813500221403,0.427850512057354,0.427499365429084,0.425941205573351,0.42665253126768,0.425915137042651,0.426344863146069,0.426369082735144,0.426727775688556,0.427008321409821,0.428080588157485,0.429306421019459,0.430144438632001,0.431123274734275,0.431724116358502,0.432526371426665,0.43362362172791,0.434844060078257,0.43590095281064,0.436802060064079,0.437992754165973,0.439013120440028,0.44089145344566,0.442543070804253,0.4433873064177,0.310566058210925,0.270303757447907,0.2318943063473,0.195212096788089,0.160018268442152,0.126072374375019,0.0932931085019517,0.00353549653945204,0.00333555706183043,0.00311734874332331,0.00325973482826464,0.00338675588624765,0.00361497667272885,0.00386160840276053,0.00398226427107438,0.00409281035909755,0.00400011241703038,0.00386989880597952,0.00371429942164462,0.00366630326512167,0.00359478803816179,0.0750234460140799,0.113209372903059,0.148573805010549,0.18508232792116,0.223076387976112,0.262214767900871,0.302762457980335,0.532594668522109,0.537190768816729,0.540593680954286,0.536864733975314,0.248205481464808,0.207046633597895,0.167840211892652,0.129531308727259,0.0932409072991105,0.00384898152558112,0.00381221846338035,0.00388395048759734,0.130601193701395,0.240669240320459,0.574277961524547,0.574877363790304,0.575075462858588,0.573018801081952,0.569101024828521,0.568341162415282,0.507274139753004,0.506810710859937,0.506106747679007,0.505503743777886,0.505301355568279,0.505615190306659,0.506319417201811,0.507102170852252,0.507609235834661,0.561485513640446,0.56378544668342,0.567773036259862,0.572612168536005,0.574961785526448,0.47905327514241,0.478621719312976,0.478013417222335,0.477627152499394,0.477825032312314,0.478754358792582,0.480252023817915,0.481883660610047,0.482497235587652,0.601628379421285,0.603961372997761,0.605149690297032,0.605752904291207,0.607238604494899,0.6086049706115,0.609863287832344,0.6113522793761,0.613739159813911,0.614531479909031,0.613925425088776,0.614449361392422,0.614515674024145,0.615143001888717,0.615304178783827,0.616327003471676,0.616938016734904,0.616719575843359,0.617435114189326,0.616984467717518,0.618549990965992,0.216655760393815,0.175413093819843,0.142932849619552,0.111407557073434,0.0817625986807411,0.00374819425137469,0.00366721483663855,0.00361227297496999,0.00350616029363175,0.00323303888064476,0.00286835909955918,0.00214224339351428,0.00106264150987974,0,0.000959477395624212,0,0.00226472286529572,0.00328004714678883,0.00358209230502905,0.00367233112436728,0.003671188767565,0.12381341204132,0.165515692356376,0.681704365971832,0.681799707072906,0.683377175545335,0.686027642958852,0.689667634604002,0.694010496761027,0.69678542463773,0.697248801400293,0.697017002610927,0.696465135366147,0.697758250508844
0.00358158518623893,0.00363313542395096,0.00364118273829391,0.133856827364743,0.40890278976899,0.40905193145228,0.408806020549336,0.410997661213964,0.413915434940652,0.418508638024902,0.422648881488352,0.423764319261365,0.425127267548946,0.425902095730283,0.425790970670744,0.426797525540929,0.427008760922805,0.426307138508601,0.424230704494546,0.424904578952655,0.42340245797863,0.424893030486251,0.424898411668839,0.425288413119402,0.424318430765329,0.425924094415273,0.425727832745103,0.428188467696535,0.429989915771731,0.431061527221782,0.43267224250808,0.432644019087,0.432819451822862,0.434355944978107,0.435861565699149,0.436561493117115,0.437355914752253,0.437924148808799,0.437846205855908,0.440289224144841,0.442128143769586,0.443396741534314,0.449763555226443,0.449907794299429,0.451399175609524,0.451768915953918,0.452532119396296,0.452794301655252,0.453661283662869,0.00367890419564102,0.00353398876879485,0.00348341889633734,0.00351555674017149,0.00355060025413679,0.00361091440805099,0.0996711698369286,0.483239999999825,0.362155647768305,0.484828999999825,0.00376128363432742,0.00358299842974629,0.00367702220751315,0.0037226829983571,0.00366469590861973,0.00349851339671283,0.00373517419444924,0.00383325824397757,0.00376045883660291,0.00343942202612101,0.200184754418933,0.547426964109874,0.542091737663213,0.54913928932137,0.544219123616011,0.556214999971103,0.248205481464821,0.557000999999825,0.170846110371135,0.562308999999825,0.0037967257124618,0.00362212738588981,0.00372622598756222,0.00360677967166463,0.200209851526124,0.573854838775356,0.574390009503802,0.574441216101206,0.57118810464637,0.566218256744084,0.565384448653646,0.563618714861819,0.562366402943381,0.56159031347808,0.561724884024416,0.562056755325106,0.562145915998428,0.56272444796809,0.561926930909404,0.562082751525495,0.560969837136328,0.00343772999981104,0.567726510977472,0.575803255155971,0.575059847629656,0.579217879712304,0.578050202720533,0.579986246429869,0.579631540081176,0.584525374787499,0.584685289453644,0.586067611806572,0.482497235587652,0.00350623999981123,0.597332248728675,0.604128649339789,0.604732673152451,0.604879726026868,0.605292339968602,0.605566972623579,0.60696882315694,0.607676677096802,0.604210716223025,0.00368928999981171,0.610682041709879,0.612989811772528,0.612110528637205,0.614094738142587,0.613520503479105,0.616333762535588,0.614701003907377,0.61489599521412,0.614984988407873,0.614943680731303,0.617616944916666,0.623943108549985,0.136059715569438,0.00366221657832024,0.00373981489227971,0.00364688064404813,0.00369414769707881,0.00361887899801914,0.00356503799572027,0.00360379951959223,0.131248669836183,0.643586504527127,0.644103704468516,0.645726843670335,0.646445591576112,0.651484641509731,0.152834989761778,0.00343049811007723,0.00347712356640905,0.00360750050175154,0.00368482329381414,0.00373907839479145,0.165515750816852,0.680457135355897,0.680944654584864,0.680590482648577,0.680763909504704,0.680638420804661,0.20453117499587,0.00344048873532612,0.00346686562028422,0.00351631996343284,0.147405462298392,0.694747598198946,0.696568543925138
0.00359437955183864,0.00364752781800512,0.00364422909017477,0.0670907188301014,0.0911319769772752,0.11358371367307,0.138005700360853,0.164172725985837,0.192097128421297,0.222385054851215,0.255431168607442,0.291385753573311,0.33039200084458,0.421800891416317,0.42418458827897,0.424782011340574,0.425260612113861,0.424833625071141,0.424328386939281,0.424141121584342,0.423949934453241,0.424315527561187,0.424754676912811,0.42518371367098,0.425710087033798,0.42643053673141,0.427281488213388,0.428517588648427,0.429843911073724,0.431081441512623,0.432327356604316,0.433082466042769,0.43386245211933,0.43491432389969,0.436072695480141,0.436996494587966,0.437876420104565,0.438431296121371,0.438879262807181,0.440245610105215,0.441583926219454,0.443613883789513,0.446516456104866,0.448658131388851,0.450636117967141,0.451416123249981,0.45216107588867,0.452201799443192,0.13387541358643,0.00372512452762963,0.00367244856136306,0.00366515156339958,0.00366637613793217,0.00364045110683514,0.00361175708641696,0.139818603091236,0.362155647768305,0.363761352110912,0.128715132522695,0.00370061559684935,0.00364881806450455,0.0036917899356166,0.00368970887281031,0.00372515030469031,0.00371325360197906,0.00379946657464139,0.00383582331247332,0.00391057697824457,0.112273046326093,0.158204143065046,0.199905171928799,0.241809597584539,0.311361849138984,0.270653428951445,0.23139776181164,0.19340509094022,0.156417895335025,0.12059590429422,0.0864715870130979,0.00378752431171857,0.00373533117772467,0.0036969297690043,0.00359209678588642,0.160984904739384,0.553915233073553,0.555054454886237,0.557124951968772,0.55992178737336,0.56311252185928,0.563563453504004,0.562915292916454,0.561906585171054,0.561639628003115,0.561532311263032,0.561858987140059,0.561702157286088,0.561783469547479,0.561147407305737,0.560851989989022,0.560398717944452,0.560959645741416,0.563499200481778,0.566777950832626,0.570759145053577,0.571999205701685,0.574985590602608,0.578046982563531,0.579125794692771,0.582626227345954,0.583503837817186,0.584643772118805,0.584167172949808,0.584639498958282,0.592832834062289,0.592385913787753,0.593217069717236,0.594553187532933,0.596426147038219,0.598176658050699,0.598743330985596,0.599001778006284,0.601279664838393,0.602462023621642,0.605220546434387,0.605030678729662,0.607101864881275,0.607178833322767,0.608688186644734,0.608935910757255,0.610871446752041,0.612403456989233,0.612757662367798,0.611571237445992,0.606968546910416,0.144559019951443,0.0970543086532926,0.00378259306608616,0.00381478050146766,0.00373326340619725,0.00365209613666423,0.00352094718046737,0.00335071850307074,0.130852308693035,0.17342063475849,0.641437701115123,0.642723481146747,0.645034507196066,0.6461358157232,0.647429249512841,0.389344145736934,0.393062474593347,0.394320657631535,0.394125128122155,0.393613005513294,0.393535060484168,0.394164985382214,0.394143302532504,0.394581872518138,0.394861946617931,0.393767131389174,0.389814487150975,0.162262807849019,0.00339537507811515,0.00346069944846227,0.00353263630241146,0.0882185911684603,0.13059710898843,0.171771613991626
0.00349701986213948,0.00359699471399327,0.00364552564468526,0.00350882210475784,0.00350638392166388,0.00298235017129785,0.00290752397601262,0.00176094008210009,0.0024290513611947,0.00163216149441385,0.00249175908477679,0.00183279747456601,0.00303492676622352,0.419311709781273,0.424255919931009,0.422980617181768,0.424329289332484,0.423575855330488,0.423773950485266,0.42359114250532,0.423582900413877,0.423898512043242,0.424197470781297,0.425310114915511,0.426445594712446,0.427181977944226,0.428005492633205,0.429138984907722,0.429390653982156,0.431462731440306,0.43215462353222,0.433844547830916,0.434385772972781,0.435688221404019,0.436346307035766,0.437747892787145,0.438610906969673,0.439253460325754,0.438942876574101,0.440310154300871,0.440262789598275,0.442889849345899,0.444034075047201,0.447633620025515,0.451181038555987,0.451158764707601,0.452541972863459,0.451719669365518,0.00331227637884207,0.00359562315904885,0.0036126207159638,0.00371245927385745,0.00376768162347022,0.00366413557982226,0.00353340541211678,0.180947933904201,0.484599999999825,0.367917937296732,0.00343239158002854,0.00358280257034668,0.00356722844335459,0.00365502082631866,0.00357972263420516,0.00373485421586804,0.00376390715734065,0.00379271289320758,0.00368515677680334,0.00395513545352707,0.535684999999825,0.116864398479508,0.00350315746083415,0.137966758131333,0.552659999999825,0.136731291426863,0.00343629123179034,0.00358537430049099,0.00353734707657525,0.0035888005993353,0.00356834736415917,0.00371161310904488,0.00375931686286841,0.00364193117876606,0.00341738652498506,0.122772793057782,0.553684173240728,0.549644626400832,0.00358735999981144,0.559849982179964,0.562916234235599,0.563008864147231,0.562634698408373,0.560784291900353,0.561490165797961,0.560985800189224,0.562091690387051,0.561166324996807,0.561579585710859,0.560314282717127,0.560112132838842,0.559605141870023,0.559683916663941,0.559468558124262,0.00351605999981125,0.569794746349719,0.570545706071511,0.571973095828138,0.00359770999981147,0.576179424148092,0.583400467689401,0.582152514989277,0.585019888024432,0.583562185839487,0.585553096115368,0.588679009780308,0.591067296896245,0.592615978094077,0.593686321856042,0.59455841450062,0.594516066715132,0.596628539557509,0.596849361660916,0.599583279546523,0.601171065941363,0.602717112827556,0.602826863317905,0.603963222564888,0.603986410099976,0.60514696225052,0.605233351013296,0.607573718386903,0.611213834597212,0.611930484906753,0.611788650026262,0.603104664165808,0.00354625554220231,0.00391477432913537,0.00374785422319738,0.003849616641784,0.00370887211779161,0.00354205533924246,0.00339256131341968,0.00289590581502793,0.633468498227891,0.633754947823802,0.637757896442062,0.640007153283101,0.645216643116729,0.645218118577342,0.646491545222681,0.646488037813125,0.64705844045801,0.647610277304485,0.648123301321412,0.649142170107374,0.650253867706563,0.395369486897826,0.00349550999981118,0.0878345725017604,0.0033808199998109,0.1862389106661,0.849285999999825,0.119879257407825,0.00330439514581711,0.003457864429276,0.00364886100845555,0.00352143807988829,0.00343238786387035,0.00346095167877989
0.00361575007369565,0.0036737078355036,0.00360157551441005,0.00348089661874338,0.00326087223005365,0.00274923784516208,0.00182579750142028,0,0,0,0,0,0.00199933367120427,0.416749295300271,0.416430418263377,0.418654064777496,0.419824806319683,0.42120441220572,0.422556167923402,0.42253178879043,0.422762482511051,0.423093426872073,0.423863157759305,0.425013582844129,0.426482683246687,0.427469018845974,0.428950238905336,0.43025184873084,0.431344314870618,0.432872786096729,0.434059299903609,0.43548739405519,0.436538549464614,0.436954084918914,0.437116642332826,0.43894923889855,0.440504667321164,0.44096688565029,0.441190755774817,0.441764998155894,0.442314659165612,0.443603780880122,0.444824204594025,0.446770389346908,0.448502518273864,0.449604304123334,0.450344444505986,0.450608696844385,0.37517840599318,0.367201738396338,0.367639683108802,0.368465730022031,0.36953051169701,0.370601293417348,0.371476212144597,0.372055628317902,0.37215864719522,0.371307818035016,0.141815747639779,0.0983337784850431,0.00359754522065707,0.00373402914670151,0.00378748511977858,0.0038120699256392,0.00375705232224771,0.0038237402183596,0.00386152143835881,0.00405050863486569,0.00415727900702279,0.00419479895946195,0.00401952476157576,0.00426743094778815,0.00432879130648837,0.00425860638118563,0.00385847341964324,0.00372613316501954,0.0036301799141704,0.00363867652100338,0.00365449532294855,0.00367829850011498,0.00365470410809994,0.00364655399921228,0.00360673848719894,0.0830584904405756,0.132940213776191,0.542029840941745,0.546544211673675,0.547488302543478,0.549143424583695,0.551496962247931,0.554139363576259,0.55714356465196,0.558280350292555,0.558730461977312,0.559239937296525,0.559165714186291,0.559118557560201,0.558463607278235,0.558118607732247,0.558736439004469,0.559272221488866,0.560156451594316,0.563569146641566,0.568761305742445,0.569614394255804,0.570613483033807,0.571470878492922,0.573414981496166,0.574299266320778,0.576914442927554,0.577075736727993,0.579775259360706,0.582045361498288,0.585410791120236,0.586804096123417,0.58867676763348,0.590906613108897,0.593340070546148,0.594584864375654,0.595955905875516,0.596841438040801,0.598936108203999,0.600577100748845,0.601707412008426,0.6020141050872,0.60193634686686,0.602917836892337,0.602638254635202,0.603463549263652,0.603066419202317,0.600012079076958,0.598707506888452,0.598899063086474,0.60027683359408,0.135970817085214,0.00418865268301601,0.00400243657633383,0.00395724270243527,0.0037173656329946,0.00334975498564414,0.00292339796902975,0.0021469181757774,0.632932428928986,0.633994818755825,0.636002954411491,0.637984549121848,0.639357679478832,0.642932663738622,0.644320552248928,0.645886869107806,0.646889725426758,0.647646157920781,0.648350623230325,0.649050401933518,0.649633615729605,0.39669086354483,0.260123749217737,0.219391184684092,0.181538893236828,0.145161921388783,0.110778293004869,0.0741022004191435,0.00338887738102962,0.00345295041725977,0.00349683682216761,0.00350738054463547,0.00349208991931578,0.00349504073558082
0.00374374096819732,0.00368431026224876,0.00373747588880065,0.00354276398520507,0.00350493714393289,0.00312232002412517,0.387346999999825,0.204841971921226,0.388733999999825,0.289666352917174,0.388328999999825,0.134007595698652,0.00294578239654181,0.414685984203805,0.4140808320811,0.415645829518825,0.415476754293133,0.419079652753382,0.422509466515869,0.421455963105242,0.421520000161037,0.422108560378192,0.422828015184762,0.42471174982347,0.426744256413494,0.427625590202237,0.429785787995259,0.431809725130775,0.432529451835264,0.434819652564893,0.435448266309198,0.437776308815249,0.439192812620515,0.438744109643741,0.43617577089013,0.440662355788147,0.44348376727445,0.443112326424518,0.443093322542218,0.443373052248208,0.443657180629075,0.444419339980108,0.444957549078253,0.446194836395516,0.446607709506508,0.448632418943954,0.448901180709916,0.450180642740433,0.472663298333098,0.472558447830675,0.474103060315424,0.474245200183314,0.475678806169786,0.47613101376418,0.476988273594163,0.372129280432838,0.00345964999981108,0.372643647935275,0.486997617610464,0.140895347235819,0.0034316664966596,0.00378025473645018,0.0039553400708198,0.00383367072519799,0.00353666219583452,0.00372991306987685,0.00372094365440078,0.00390860818327592,0.00360535663721296,0.00342546658217004,0.00332674602721074,0.00334844118794025,0.00357872777141005,0.00402111672255429,0.00381778475288983,0.0037321283439958,0.00357584507601689,0.00364748623273186,0.00370831155891309,0.00363728466954876,0.00350554970341178,0.00362619144501586,0.00372453312355069,0.00365391910033433,0.00363071849470192,0.536295154854855,0.550552487562597,0.547293138523356,0.00335215999981082,0.551533027201271,0.554051375140981,0.555605757848717,0.555769227879603,0.556590153591906,0.556826940146146,0.557228696256015,0.557132137776102,0.556505244770502,0.555344590117188,0.55281016759131,0.00347817999981115,0.55909357471443,0.567699661199501,0.567786132305554,0.569046182363007,0.569774615687987,0.570752404819662,0.571969870911683,0.572827078648426,0.574300267322714,0.574687316599563,0.57661777546269,0.576644833998276,0.576490777996421,0.576268273557881,0.575563629376291,0.00357790999981142,0.586698480727877,0.594118822650506,0.595202383077048,0.595038457540582,0.598196890433208,0.600150353910736,0.60120149213536,0.601486134933697,0.598778126530039,0.592819791790319,0.598380424370054,0.602791380168808,0.601463161147343,0.598742877754633,0.597890835689995,0.598549442185655,0.59971619990255,0.60126731604649,0.0042220477385351,0.00382041372441007,0.00399630637849436,0.626743999999825,0.00318131957645055,0.00302358593053863,0.00102932090781961,0.631205019438127,0.633148709105274,0.634120663197106,0.636456899148538,0.637228436614528,0.635305458525043,0.00302457119938123,0.134434411225355,0.64696909916402,0.647733019515164,0.648582345597426,0.649076604541133,0.649598268661483,0.397553998600627,0.652067999999825,0.260127879280822,0.651720999999825,0.0994907544422977,0.00322472934685357,0.00320109947578722,0.00344122584791307,0.00342450433408303,0.00344323742038121,0.00348579286470306,0.003562132840714,0.00350647351947045
0.00365719388995979,0.0037243811451438,0.00364273149454442,0.00360004760629121,0.00346281179098807,0.00333161842109319,0.12047365069131,0.162671916340571,0.289666352917174,0.248724804425642,0.210209835646998,0.172799259592383,0.21403112740116,0.413396856744089,0.413499064680759,0.414468628832978,0.415416508400518,0.41702200367701,0.418285823720193,0.419021679819075,0.419595897599313,0.420743375633722,0.422261298352301,0.4241306000904,0.425707034547521,0.426453222424403,0.433931012465647,0.434362696996507,0.435688024784715,0.438107038820754,0.439221282971399,0.440804684273826,0.441988591052525,0.442576134659738,0.444234496532787,0.444020027120793,0.444863316589006,0.444942515318666,0.444949516617229,0.445036870635173,0.445028493537338,0.445500637270647,0.445674713087232,0.446574153546585,0.447033466132803,0.449840517865579,0.451113514196604,0.451670504408885,0.470642093862107,0.470844185027164,0.471810195794322,0.472997694376173,0.475107319754913,0.476118771422608,0.477238648968728,0.478341760938446,0.480840928197216,0.484164804417986,0.485396208756536,0.182375251128461,0.124752074060975,0.00389966122748571,0.00388474060887619,0.00392099755152649,0.0143042556163356,0.0122937251424211,0.00892864004788618,0.00526213987447828,0.00235573892945267,0.000854366074739795,0.000241619814633118,0.000436160189731912,0.0013471874093425,0.00307664382126937,0.00558252443105356,0.00848445564372914,0.01207994278641,0.0162929386087885,0.00363472980037151,0.00363829641853126,0.00361753925511072,0.00360713861361401,0.00358114429724432,0.00359349703897755,0.00360039458713583,0.530416989124554,0.528513549276918,0.527364780125375,0.527485069628964,0.539940370114298,0.543881965731073,0.547832422727204,0.55460671386768,0.555052319164574,0.555310428533263,0.555577198477783,0.555369038837198,0.554928849276517,0.553744225085873,0.54982884492685,0.0880777638782603,0.558049609543003,0.565909690578444,0.566411682506924,0.567453686573565,0.569013587672683,0.570227696970919,0.571141117722127,0.571417262607673,0.572933664418806,0.574211265639753,0.575416016505372,0.575800101657159,0.575466526624821,0.575186456015331,0.574930101535298,0.574821083502234,0.575518974409707,0.576342009754974,0.577054249389544,0.578359136372068,0.580230550550969,0.582621294185875,0.58493396580734,0.586825865109333,0.588185576788061,0.590995542964235,0.593454457557221,0.594696192215662,0.595431752510977,0.596005046244152,0.596008883239899,0.596009004201813,0.59563097971975,0.129244117488152,0.00421933041630268,0.00402413458082937,0.00392324704797429,0.00358738027152008,0.00317057737146054,0.00249971170855878,0.000639620668430357,0.616954421164163,0.61705159359759,0.617200957186406,0.616352713337446,0.615339484045993,0.612816389736767,0.00197252043490855,0.00115206051297949,0.00135925966685948,0.00107663141551931,0.0012091898486493,0,0,0.000281066481402201,0.000740523494059572,0.000885447829378576,0.00111125122158943,0.00144644017763239,0.0025466396442091,0.00304465630482093,0.00332289600133636,0.0034368055139371,0.00344026547979814,0.00349796416723101,0.00350355750334801,0.00343627931365857
0.00362990156395951,0.00364203760425824,0.00365732610061536,0.0035915074112312,0.00355858133930031,0.0034496340908416,0.00339333533098443,0.120471160288404,0.386270999999825,0.129200031564785,0.00348396102908508,0.133741753037936,0.411228531489451,0.412223901867556,0.412125976772534,0.413534903562564,0.414639611169865,0.415444146301119,0.415222826084081,0.416894398533465,0.416884253823026,0.419158408421668,0.421284798486798,0.257289936325564,0.0035789399998698,0.171517715220085,0.437460305162985,0.435980339212466,0.442462440849177,0.442625102116813,0.444361302850948,0.444312736385304,0.445309324271554,0.445439956544447,0.44621427226215,0.446413077229471,0.447062998571731,0.446972450946443,0.446826779595956,0.446862406625053,0.446000003566788,0.446963026174388,0.445717403591452,0.447574124394851,0.445347181033172,0.45311941808666,0.454718480223527,0.454602194989656,0.468371325971004,0.468274243550913,0.469324301372184,0.471011287108652,0.475940944385118,0.47652798007548,0.478042302207107,0.47782221502769,0.489677942111937,0.48679463914792,0.491497820397657,0.22432407936023,0.492607999999825,0.00383873336228176,0.00362486880673404,0.00384709698718172,0.513785999999825,0.177891267894227,0.513922999999825,0.260081442563554,0.515879959156914,0.515835614716001,0.516285791632957,0.516235542559555,0.516969008415227,0.511487068524138,0.509851476307733,0.510677510090026,0.510132123363809,0.140124478283265,0.00354322660666345,0.0036335795270599,0.00370434007174752,0.00357077391753624,0.00338390818503068,0.00351842875705489,0.00356540983890985,0.527529926355384,0.528500841921179,0.527135672117875,0.528761894954657,0.527360296351267,0.0035333499998113,0.543199053070342,0.553211412942073,0.553945599416065,0.553760193207604,0.554359213011383,0.553599699940194,0.554045090693086,0.553453582856178,0.543979617053263,0.00348690999981117,0.556455240741845,0.564424707290916,0.565341234814205,0.565893597182302,0.170195201371049,0.00328132999990102,0.568756223524699,0.568861857389984,0.571864569969161,0.573821093004357,0.574923838420987,0.575529055122106,0.574139399851166,0.574020462469545,0.574163307410571,0.574841458838064,0.575125643498949,0.57693241567673,0.577118887123117,0.579000080603812,0.579428063454899,0.581420434157875,0.581156302847942,0.58285694931629,0.586578762273933,0.589313492931045,0.585013418159017,0.00364913999981161,0.592781893000015,0.594034770704043,0.594234249171844,0.593974581458896,0.594583969409165,0.00368158322036622,0.00399965501321288,0.00385047912409726,0.00381974267645582,0.00351204266992101,0.00338192947061026,0.0032673901816289,0.00232713088582259,0.617407390013557,0.617654378017703,0.61894107670069,0.617652486629639,0.618387150234648,0.612489880747572,0.0030062374894158,0.00218160026878458,0.00283692927786669,0.00228922264993898,0.00282305995655858,0.00201928423830456,0.00260914280031654,0.00204513750321741,0.00272289917234262,0.00206243724258874,0.00276035006026196,0.00231286914593555,0.00328960023235678,0.00324988776956333,0.00351728439720924,0.00344596792393397,0.00348504266847965,0.00346788608724707,0.00351920725823676,0.00326268619334011
0.00362437158057455,0.00372783456400039,0.00367705995038059,0.00368779058762704,0.0035807277271727,0.00360614981369462,0.00360262189379213,0.00368317396219064,0.00366938886480931,0.0036588295098095,0.00360065437272769,0.094185315421529,0.136912742651025,0.179068474124666,0.41188884679073,0.412880604918572,0.413914070584625,0.414761541405582,0.415371684126771,0.416268969407095,0.416863830527676,0.41757318535969,0.417199942462419,0.216114452312115,0.0875301064645412,0.129438825483708,0.171517715220085,0.297745432822668,0.445126506110976,0.445553509348144,0.446402045295805,0.446828323182131,0.447380894869398,0.447735724200944,0.448126021395549,0.44847215856745,0.448746470274909,0.449217324955973,0.449501066353415,0.449751627055823,0.44989253843788,0.450809584953132,0.452567607318178,0.452657653064629,0.454973078315419,0.455395445021379,0.456570312896179,0.458173367221625,0.462922618819227,0.464633673901392,0.465495392132641,0.465995679115216,0.464331844921919,0.46363783842021,0.463261893875136,0.462709773963968,0.260395732489341,0.218814457814666,0.177840016374492,0.137554339212979,0.0980907032718255,0.00381354038873712,0.00376047740562535,0.0038196585584947,0.0965138356485179,0.136222612976693,0.177062955563502,0.218348479212483,0.51546400617195,0.515332916781541,0.515237201591291,0.515404726790829,0.515216137295751,0.513285578899476,0.512277165079622,0.511872299170405,0.511596909973202,0.512187295117551,0.513143074007856,0.514277650745206,0.515469773462559,0.517706869356065,0.519505116657025,0.520957343462379,0.521398312480379,0.523964992096529,0.52308570580848,0.524505822953355,0.52556787006886,0.526515082706423,0.527795627201335,0.527835608079405,0.528381836331229,0.529056454426503,0.530196077082888,0.530828859837815,0.531927125625663,0.532959834277111,0.534974148588761,0.538376668294884,0.538633891899452,0.537105694722988,0.251546098876223,0.209972219585695,0.168921975815519,0.128260041974829,0.0870280795016573,0.547617959806738,0.549808307412954,0.552988601548748,0.557133321264982,0.561908725859984,0.566765461386191,0.571351154972055,0.572873500685508,0.572965420265353,0.572784024882264,0.573476534779343,0.574387912730112,0.575700721005232,0.577207774827012,0.577964955874178,0.578953808288354,0.579463717510694,0.580074265777749,0.579803085148597,0.580138873360913,0.581435871787822,0.0880033652893579,0.591703139326297,0.5923576505201,0.593065923952987,0.593664717851615,0.594061978032347,0.221037358234874,0.178151213954917,0.135171411737738,0.0928647358007865,0.00355233202336654,0.00348951878056545,0.00335489202020826,0.00309008711976123,0.119866823591925,0.162675573048648,0.205240266138383,0.611632827854451,0.611902725828542,0.608013878032712,0.00282166291100274,0.00259176163304675,0.00281707415721471,0.00272931089634777,0.00285185982399202,0.00273931950732067,0.00288852378557688,0.00273888423346967,0.0027968669719725,0.00261288554845115,0.00275772920210753,0.002792512191681,0.00315133584907586,0.00336976392129936,0.00346791959094555,0.00349388347571186,0.0034395571759108,0.00343023077774049,0.00334706563898657,0.00295740329273984
0.00365056398292112,0.00367918303411492,0.00380362744981296,0.00365656131530585,0.00358941941126693,0.00363681098538122,0.00376787700772845,0.003681777314661,0.00366425935418531,0.00364457680405999,0.00366290541737213,0.0036418615051757,0.00363144033597969,0.1367006524624,0.41067927767693,0.412290549010293,0.413336503059912,0.414414230549142,0.415150531697138,0.416005990367446,0.416571335613474,0.416939812503266,0.416528068171307,0.17580889818939,0.00327041911635987,0.00349692817585876,0.0034466021882201,0.257257274191969,0.447480360131431,0.448115607235442,0.449039929127728,0.449298569314696,0.449825222677379,0.450038531498082,0.450304461597496,0.450627566095864,0.450463892439067,0.451696787035686,0.452414165183116,0.452812632614014,0.453300057911748,0.454108784347808,0.455828441959353,0.455783814354137,0.457144269368321,0.45725274130744,0.458414978073983,0.459048508597657,0.460804004961683,0.461917572822859,0.462284305592164,0.463273469163232,0.463579603296118,0.463397715109861,0.463900113857531,0.462771285119532,0.00340710627714758,0.00344481162079397,0.00344610152232144,0.00348203417795826,0.00346554336446426,0.00366073516887908,0.00366971575317874,0.00367257026961933,0.00349750740187872,0.00357931374620168,0.00363723298617904,0.134415592840675,0.515190082507121,0.514792075864472,0.513862926437968,0.514857157197994,0.515215396707131,0.514184915304353,0.514008491836145,0.512684020995623,0.511926628808075,0.511405395412514,0.512451380049716,0.513394109284157,0.513372123328187,0.516622596570735,0.518072893742308,0.519814148615836,0.519681154686817,0.521359792201161,0.520882896431131,0.522632668877963,0.522929791975452,0.525908785299102,0.529756950727069,0.52830354922746,0.529244885268473,0.529743138683104,0.53190776775554,0.531837507661771,0.53335979758859,0.533302238139556,0.534552512314438,0.536851564010871,0.541633856488413,0.537099969888763,0.00357898999981142,0.0879180525294131,0.00353636999992733,0.0871009480730859,0.00351173000000663,0.546505305139039,0.549734216808082,0.546216209158036,0.00345960803023058,0.00341877299388401,0.00334564344865774,0.171213570150536,0.573091668354831,0.571992487065262,0.569940451383969,0.571554183692598,0.571637024016217,0.574127857735767,0.576328185381898,0.576395589834233,0.577238125094733,0.577917392537511,0.57838216871382,0.579000175203795,0.579515776421461,0.580016589547983,0.00347822999981115,0.590173352932935,0.590822664172305,0.591995331596322,0.593632840669366,0.593873127443017,0.594207736134854,0.594339932398224,0.594586951009318,0.143163674172594,0.00355782981097368,0.00352847850908296,0.00342653563321712,0.00337333903469934,0.00341689342973304,0.0898623410569379,0.00352510999981128,0.608764786035942,0.61690659351955,0.601250319489243,0.00330100741768428,0.00303910063538022,0.00344477431863994,0.00319300669819043,0.00328961608159288,0.00328014838522202,0.00361207290284595,0.00331112169968902,0.00337650892351072,0.00314816572544271,0.00332137043986537,0.00319839979384292,0.0034423416141654,0.00347223308770401,0.00366505016312769,0.0034854545993632,0.00347986095962681,0.00334246410744964,0.657492999999825,0.151163419237087
0.00367121223288715,0.00373010417799821,0.00364943012639884,0.00370023292423738,0.00362273234816839,0.00369649230393599,0.00367164701498926,0.00368785386898303,0.0036232976069862,0.00364471854849361,0.00360759547501181,0.00363493725578026,0.00361302045540153,0.0816786309384563,0.124127548647833,0.164574997244509,0.205698699507971,0.247523636280803,0.320250667212645,0.280112304354927,0.241916054542884,0.20543869821748,0.170339406279932,0.136293381237168,0.105531247641379,0.00363410974564203,0.00355791492586363,0.218258658125526,0.450128306697589,0.450550526704447,0.451339892853014,0.451692573108038,0.452187909462721,0.45254408497535,0.453020262737489,0.453554792939565,0.454217578193577,0.454945154707571,0.455791725816265,0.456011666949002,0.456501159749207,0.456794459580257,0.457599566046613,0.457669517278912,0.45830279931089,0.458310698354019,0.458897104978158,0.459188473804757,0.459987897315999,0.460204177501111,0.460377036034866,0.461499832002826,0.462743151827522,0.462739467060561,0.463100568917379,0.46228157469114,0.00349790238022224,0.0034804660873745,0.00346946902074102,0.00352285797226957,0.00357136409858176,0.00363101712472574,0.00361302073067425,0.00364533893914965,0.00359739518726048,0.00359574388357049,0.00357373547789906,0.0684967989102703,0.0973037466872916,0.124233441153935,0.152852080978775,0.183256251580927,0.215381436852787,0.249736873910898,0.286651745572642,0.326181886019586,0.505862658980385,0.508752455886912,0.51072986681283,0.512995330145172,0.51442933477105,0.516558942911374,0.518173531684159,0.519488450985216,0.519920557415677,0.520765276828025,0.521283670872679,0.522423771141938,0.52347851465551,0.524831667400416,0.525584795629117,0.527025462661322,0.527876515612622,0.529414287013596,0.53130241715119,0.532035066692153,0.532921452812093,0.532978075739495,0.533232753976006,0.533458790453295,0.532896418273916,0.533733385606443,0.533432066157343,0.533829503930706,0.534987006566115,0.536090636334833,0.53769768038451,0.543040887275132,0.542717057189203,0.543502689929634,0.00342326549365017,0.00344463699424681,0.00346183799268842,0.129132355384735,0.171213570150536,0.566253865828006,0.570320503852789,0.571149358097049,0.571749557550923,0.572985095145953,0.574022508676144,0.57422130354568,0.573895038264,0.573230544751257,0.573078694127716,0.576069231539481,0.578349981616794,0.579734593662079,0.581430939561537,0.588278145948566,0.588966015314932,0.590575194386063,0.592903331512613,0.593646159845573,0.594005913642769,0.594222977597038,0.594373428036747,0.567705283437181,0.567649848128986,0.567571197733778,0.567514950651328,0.567513480038302,0.567567031817329,0.567643660033163,0.567698022981587,0.592664181107694,0.593763539019749,0.596002015494201,0.150383817668516,0.102065615205235,0.00348563404197506,0.00344395186221794,0.00351914531365011,0.00356936418768244,0.00361674654693804,0.00362226904661566,0.00356214576741598,0.00349187459120178,0.00344288597996502,0.00348643905716884,0.00352696159869467,0.00358877484953392,0.00352512664748564,0.00350317610391575,0.00339279083837848,0.00320810927167967,0.00284767722192194,0.00243897500702168
0.00378158143309232,0.00364927924884149,0.00354085187475702,0.00362849489669908,0.00362670392798729,0.00365100446919161,0.00364532836390028,0.0036109700317318,0.00359933555065064,0.0035715207536301,0.00356038511016372,0.00358217928414925,0.00358210094112121,0.00354383653281562,0.00345716776199145,0.00355656075847265,0.00364006046120917,0.135367687238836,0.415900999999825,0.135765577675787,0.00362854385675532,0.00356700656548728,0.00348198366823857,0.094917201723475,0.425365999999825,0.00362629215534844,0.00343685290821494,0.180549385749558,0.452425312225563,0.452670656770487,0.454221053160001,0.453942762003045,0.454925685735085,0.454894770661402,0.45596874783817,0.456306871309218,0.458194688759068,0.458039437139979,0.460128432484374,0.458944260612937,0.460146590776122,0.459046308484558,0.460327307252292,0.459013898966118,0.460312139363866,0.458856820988667,0.459957156999695,0.45892490199795,0.460027568868887,0.458565522284396,0.457785284713118,0.459745115898889,0.463330772301837,0.461931827857065,0.463765218052112,0.461534761479124,0.00360615404200768,0.00350418043786882,0.00342870953142959,0.00353861708911394,0.00365669115235477,0.00359049560587488,0.00349986542930864,0.00359472616692527,0.00366740229652195,0.00357340421350177,0.00350763711719119,0.00353389235851233,0.00359731394529508,0.00350717867012295,0.00344703311669225,0.00350758789451679,0.00359490107993304,0.00346491959797949,0.00335564626318926,0.139123261689733,0.502670468862465,0.506693053087252,0.508433661823514,0.132817807148384,0.00340413837979797,0.00316073197979971,0.00326203782585266,0.139046234970562,0.519494319153781,0.520451443073884,0.521117167653727,0.522469014829255,0.523956011174907,0.307774164871306,0.00340254999981096,0.377716115271868,0.52626709526495,0.529226246817684,0.532251233205065,0.53257084497735,0.533662926449342,0.532891940391186,0.532315513935571,0.531315274612672,0.532045380838107,0.53237752902673,0.533323891574383,0.533744524754021,0.535690468239067,0.536359626352116,0.540036662348821,0.540761124105057,0.542405279099096,0.54246417514279,0.0033591209494945,0.00346633049245458,0.00358880303452973,0.0872169463171752,0.00325582999986746,0.563214283522203,0.569767256087723,0.570755890187462,0.571220264702363,0.571991461496811,0.572647746856172,0.572570892632218,0.570884022471105,0.571338802406494,0.569726545134314,0.152603278034135,0.00350765999756281,0.135357838986854,0.583559979739293,0.585993431005046,0.58637127272655,0.588467766874668,0.593847319122301,0.59380736203688,0.593968201839637,0.594165518554591,0.594297066867444,0.585160356677637,0.592168804209744,0.589541724669355,0.592276941564523,0.590138206263031,0.590696014025809,0.59155919581188,0.592876181514957,0.59274376870277,0.59367437339746,0.59411098570151,0.594029894253643,0.144404519331464,0.00362461806187477,0.00361785308639816,0.00381075728341103,0.00379331053535728,0.00365291885789177,0.0038601301023715,0.00379299178753595,0.003716734846542,0.00358945253626507,0.00364470374235024,0.00374429579340061,0.00364755678468372,0.003551299792903,0.00351481187299313,0.00360375322804122,0.0032826404519248,0.00323662869109139,0.00282989015508054
0.00365808359205454,0.00373009452761911,0.00367312381268179,0.00376419928997827,0.00371623653031618,0.00373289225266792,0.00363665765153308,0.00364018554214332,0.00354419208167939,0.00360485836695589,0.00356982674640686,0.003631530691223,0.00359880607276043,0.00360649644284543,0.00354859449007363,0.00357230823589548,0.003549941925157,0.00355296440336477,0.00354263440032063,0.0035713809505106,0.0035805749523008,0.00360760716753139,0.00360081119088806,0.00361899632755763,0.00357614084926643,0.00361848168084853,0.00356501416449495,0.144356805532632,0.452990530830256,0.453585020356263,0.454627545693731,0.455124278894785,0.455898502648247,0.456407306252225,0.457213270704376,0.457804061254374,0.458736862567156,0.459114033166326,0.459860638757219,0.459682384142314,0.459887851778618,0.45915560629833,0.458864176653146,0.457990397030784,0.457711859411258,0.457099367279336,0.457085073875267,0.456776785733249,0.45680288060242,0.456474999666046,0.456236813468328,0.456646650474903,0.456247781159742,0.458201686638345,0.458266593490221,0.459094494081219,0.140659335161866,0.0214553417127517,0.00350320571277058,0.00355502883063045,0.00359748369724224,0.0035840692566249,0.00353679145684496,0.00359442426860464,0.00357360666624889,0.00358443984892348,0.00352670568045948,0.00354000428021833,0.00350525600798968,0.00351312521556296,0.0034862206956219,0.00351444067807443,0.00350021203619272,0.00346442461647616,0.00339052421269303,0.00338750018357416,0.00333632917537011,0.00328087795737176,0.00314100918008226,0.00286073744914118,0.00293968489173824,0.00280733289648271,0.00301634729048695,0.0887041742789094,0.114864105287727,0.141955694348199,0.170455005945886,0.200797296417729,0.233354275053182,0.268426280598532,0.302130453551265,0.338840650478609,0.377716115271868,0.513993429978067,0.514569808248467,0.5159262914462,0.518031546656111,0.52082534150657,0.523974820152378,0.527686895899845,0.529968462150836,0.530745459398868,0.53177977370224,0.532532221772883,0.533962768650225,0.53473324805053,0.536419353171905,0.538187701286178,0.541457006181041,0.542140984794491,0.542985857853119,0.542698236023202,0.543106826908569,0.542510191219557,0.542573806051831,0.559015073152276,0.563641571637342,0.567325915807755,0.571160297918643,0.571169396512008,0.570345537974651,0.569380125581434,0.568171210507768,0.194539268689409,0.152413024727863,0.11022218703032,0.0673547237687601,0.0940968271025609,0.121665543489114,0.150162923191164,0.180559121270999,0.212803779003653,0.247136883560514,0.283947091117594,0.323411867924394,0.572863362075467,0.575294395741013,0.578181989498863,0.580855029389048,0.584237093847027,0.58448868977434,0.587383652186123,0.589890498873685,0.591062000078921,0.591848137463936,0.592310791643341,0.592903946401066,0.593190859484556,0.593204712248541,0.188639675542826,0.146465289003283,0.10409329649121,0.00387090753857902,0.00402332420588205,0.00408362758876108,0.00417242652634742,0.00409451161492002,0.0039705608497034,0.00381614502454298,0.00383645116412842,0.00377233137751432,0.00382373016887778,0.00368495455741597,0.0036141664765434,0.00345279333202533,0.00331243467654755,0.0031719829151436,0.00298322840664748
0.00359623722370849,0.00367950142713406,0.00378374345205852,0.00381677703452883,0.966329999999825,0.00373077479843713,0.00362432411237867,0.00357201898259873,0.00347465331385449,0.00354776814532779,0.00361358490123149,0.00360726408253672,0.00366946741046605,0.00360026445006594,0.00362538231854226,0.00353373599026199,0.00350369283194262,0.00350627099151639,0.00356630674786223,0.00354418250713413,0.003607917225292,0.00361272554975782,0.0037600465201311,0.00357601474793133,0.00343901261138769,0.00353495631363876,0.00354275204775681,0.109070069170703,0.453006623612165,0.454077359584515,0.455688704454684,0.456016142746972,0.45732598693108,0.457562934358934,0.458909821891812,0.458879400458386,0.460056079709692,0.459780809379602,0.460656732028115,0.460033540344157,0.460746844413258,0.458835821411158,0.458211936627356,0.456485307956063,0.455703624674532,0.454830803370966,0.454745313029679,0.454271184492892,0.454131964145328,0.454287100094354,0.45425765840209,0.454413627834032,0.454125310310536,0.456663696658142,0.457926574874017,0.457987582649322,0.457251496203655,0.022760909459823,0.00352663434027094,0.00356087257586264,0.00359868477735754,0.00355678617331606,0.00347784129344721,0.00356687728170246,0.00350844867754552,0.00355307645873952,0.00357919409979758,0.00350520540103005,0.00347962620467224,0.00348078476683948,0.00358429827541988,0.00349506849769286,0.00352555855316835,0.00344606595310618,0.00342299793166332,0.00338058580206838,0.0033439185579328,0.00324418928685303,0.00324918758058272,0.00245537513987219,0.00269290257025754,0.00212162392392299,0.00300205957922851,0.00279497487603889,0.00323600667059,0.041873741959761,0.00356064999756088,0.0880448778439701,0.00330329999981082,0.233178513677107,0.506853999999825,0.300980924786672,0.00336224999981085,0.513968673745106,0.514310773160452,0.514755538525047,0.00351958999981126,0.520609854526293,0.522453967249381,0.525614152777404,0.529493187264508,0.529177337777334,0.530760627564818,0.531041267573462,0.533250715834986,0.53266034186774,0.533213366843064,0.534721769937312,0.543647884734736,0.542338088388135,0.54465161536057,0.542712617423377,0.544873545879944,0.54285917130421,0.543654511394224,0.540472842476707,0.00338503999981091,0.556263014270354,0.708004999999825,0.557381189176426,0.00323475999981051,0.559875841406197,0.566757500385746,0.151161695812054,0.00354827607415536,0.00370057858067062,0.00374724384352735,0.0037718034589471,0.00361856744417065,0.00384113425867437,0.00374135723506383,0.0878132589325827,0.00337989999981094,0.0879761325040687,0.00363706999981158,0.570466273108503,0.574697036102293,0.57770496105553,0.579973502849681,0.581957707436119,0.581637168832404,0.584717549661004,0.590314809185047,0.590872316394027,0.591202185825767,0.592025430834455,0.592669260874038,0.592754997946674,0.592496071418064,0.465116809214959,0.593289999999825,0.147183801502172,0.00361944711646029,0.12929021052769,0.606870779128555,0.607015133966944,0.608477202187089,0.110904314787797,0.00379851553128665,0.0038868007168866,0.00368741986116302,0.00393998755100721,0.00384113262007217,0.00368268490792886,0.00347855092444645,0.00336322035197481,0.00342157105133925,0.00316361553144434
0.00363332205937615,0.00376292291948289,0.00377555787299512,0.00386963554939628,0.00385123790291084,0.00379925800823309,0.00365894716243659,0.0036704042657507,0.00358435433436642,0.00365192198077413,0.00361200092642823,0.00365684440190454,0.00359229875549501,0.00362917128128795,0.00356374450350045,0.00356802117997096,0.00347329658990275,0.00354777443066351,0.00352404954026526,0.0035943285464382,0.00356856667859582,0.00364036339920499,0.00361310332796576,0.00359027272519379,0.00347896228435092,0.0035374433193498,0.00352532733223154,0.0719363248866428,0.115432244367551,0.155848821107383,0.19743983348064,0.239374345726268,0.457227503353249,0.457764201983367,0.458502283590579,0.458919539976179,0.459366261845925,0.459448097469202,0.459255203043861,0.459190584239562,0.458364686256712,0.457411004464227,0.456233042285016,0.45434876226286,0.453782502526362,0.452091876152844,0.451500119927146,0.451634944222133,0.451986886055045,0.45243170594888,0.452486869748616,0.452667277834926,0.452323376367516,0.445188043870944,0.253477419184887,0.211572913660995,0.169967332338278,0.0249187407949544,0.0274186921583407,0.0295531667454907,0.031074531310297,0.0323078565951576,0.0345394577896141,0.00368867905726616,0.00361415859426625,0.00364245356296383,0.00358680044878677,0.0035826271606945,0.00349497874451626,0.0035279175749876,0.00348687487014501,0.003530424556714,0.00349049042160577,0.00350675760794847,0.00344112944281885,0.00344191064507962,0.00334090887116308,0.00312845893717441,0.00246192716460654,0.00115778657688455,0.000477957690099615,0,0.00172725295920879,0.00240119983771851,0.00294503090141108,0.0621360517177533,0.110747904445723,0.138222209001727,0.168421721467674,0.200426717851264,0.232028984912514,0.266146706837881,0.305463507545253,0.513918417215494,0.514733125053551,0.515413697830218,0.516718664385612,0.518921431706495,0.520735051030216,0.522764931208045,0.523922092642968,0.525759913853186,0.526861692754145,0.527855045484004,0.529261260796598,0.529781842100185,0.530919466388928,0.533322279546405,0.534918458417637,0.537101078372948,0.536862268031361,0.539196094235922,0.540952184662959,0.54117379192806,0.541598698313533,0.538444591928021,0.535872834409047,0.534861284625313,0.534939145339169,0.535962338310953,0.537524699805861,0.536489522256641,0.151162084160216,0.108880659594948,0.00366966649724818,0.00373743677470885,0.00375563856920246,0.0038180787014144,0.00380732880687319,0.00397191537284116,0.102189735182716,0.138727161012826,0.176934883870873,0.216048979514308,0.257176929417834,0.5660285185131,0.565645276620662,0.566751347020535,0.567820727583746,0.56893082624973,0.57015821451729,0.570786678668632,0.571183830142293,0.571389620460289,0.572540471300651,0.574644085464566,0.577303764053485,0.57639558366768,0.465116809215499,0.465048872246374,0.464858518854074,0.46465516373373,0.464856414614584,0.465044957064868,0.465112261098715,0.605762772591478,0.607545794724148,0.153074090448,0.00387786340342235,0.00408429837221237,0.00413365935470069,0.00421711424162744,0.00407167524677068,0.00383846250869558,0.0035390731290077,0.00344250928260455,0.00337334505606321,0.00329271747696847
0.00370145580128524,0.00370066974386303,0.00380337928432301,0.00379636187412041,0.00383941081035343,0.00373447947020858,0.00363425291995299,0.00364361137938045,0.00369230054764118,0.00364439648100344,0.00368565245224703,0.00359961547570124,0.00357100755564404,0.00355537867324598,0.0035987430861282,0.00350641020291666,0.00345952321236307,0.00349867399709911,0.00359212250483068,0.00355792816212785,0.00365235859855094,0.0035888305976414,0.00366669191021676,0.00352638948556835,0.0034875170392672,0.00347658460343471,0.00352939147134631,0.00348876376367981,0.00360582761761172,0.00334830673263514,0.00337323215191151,0.14141722149487,0.456652626588277,0.160326299124675,0.00304480378152165,0.159937232274078,0.459150101114632,0.140180554122366,0.00327838722236781,0.15232691480612,0.456229409043899,0.456256694710273,0.455190617194947,0.451100836840567,0.446933376649464,0.44844626998794,0.447801257931971,0.448837400870836,0.449882215076513,0.450941661503943,0.450563607987452,0.4513224200007,0.450559641362143,0.441180714485402,0.00338841999981091,0.0880852194890329,0.0035346699998113,0.024742782096438,0.452130999999825,0.145876184682909,0.452494999999825,0.150280011298512,0.453124999999825,0.0037531068366508,0.00364800675330784,0.0036802561274043,0.00368302687751013,0.00360644376364378,0.00358364046967231,0.00350312600349034,0.00351592592825478,0.00349630989172555,0.0035844236288299,0.00350762208737342,0.00352099048401257,0.00349786681634814,0.00349335569470137,0.00341916741032492,0.486775999999825,0.206175823512929,0.48130523497781,0.482525814341783,0.486952195760935,0.131682886198864,0.00345719218997287,0.0798982749166683,0.495095999999825,0.179012793595723,0.495466999999825,0.183032998530971,0.00326529999981059,0.228890099742836,0.512253213244718,0.513182262211992,0.515427871737227,0.515622411617504,0.515986576361616,0.517808006027853,0.518761226865467,0.520764949487076,0.521269022835974,0.523141706080749,0.523109504889155,0.524538496657599,0.523283217522169,0.526651416595733,0.527751659154698,0.201101415483388,0.00352158999981127,0.201072520418756,0.533801770590492,0.536851836221894,0.539191285154072,0.540008486125796,0.543857769663239,0.536804012861821,0.535181886152493,0.534701627368328,0.534957973191292,0.536608765536358,0.541425277226125,0.537147779785565,0.00351247213096724,0.00373318647747567,0.00365047463410785,0.00372336591854369,0.0036040803185306,0.00375387477524866,0.00360920089561638,0.00395222406132977,0.560335999999825,0.180127491051443,0.562111999999825,0.257176929417834,0.562632875273827,0.564270020387048,0.564133402619603,0.561455117431535,0.00329832999981068,0.566512363850456,0.570879562172132,0.571226015686281,0.571884687355351,0.567636158947812,0.00337855999981089,0.57473817526957,0.580252554427359,0.575833668363014,0.00335404224281192,0.00277876897203238,0.00338298291130135,0.464291909652984,0.596134025596824,0.465112261098715,0.00346895999981113,0.602859726660295,0.608498174012443,0.195292671891701,0.00357435593022419,0.124490885353598,0.617191999999825,0.478137472437263,0.618975999999825,0.121779369548721,0.00343214582972462,0.00345782106725921,0.00355502321136502,0.00339590339425764
0.00360249971286332,0.00371997739704988,0.00369739803610396,0.00378215376539159,0.00372267346752695,0.0037595629556913,0.00367168601191563,0.00372063127140477,0.00366405587070465,0.0037117431098075,0.00365002975337696,0.00365555489699153,0.00354704284831944,0.00360829570671197,0.0035548368225993,0.00360975447203975,0.00354570528127002,0.00362945478400774,0.00359047045617967,0.00364694772385008,0.00357214123549013,0.0036554917832164,0.00358063186781199,0.00359192861605646,0.00346048325965024,0.00351818040039221,0.0034652844539033,0.00345193764093511,0.00337602419275216,0.00321100580358145,0.00294360770265498,0.00213657635088855,0.000910480525204672,0,0.00102521082341609,0,0.00128037548283742,0.00131947261725004,0.00255367345109377,0.109776546413542,0.152008765419676,0.194178412951829,0.447054951486135,0.448030534067012,0.447138953522288,0.447091952920801,0.446451960836791,0.445483493185979,0.442026339198977,0.438983765354306,0.436411488737889,0.434198468180799,0.432387366552323,0.431784141005211,0.248613728039423,0.207073919998888,0.166812824696822,0.0246599402986137,0.0268333037207093,0.0287237373427447,0.0303096104325316,0.0321473031129768,0.035166058058388,0.00384780252124953,0.00373636952731831,0.0038012390774631,0.00373921392459073,0.00372522459872411,0.00358452002515629,0.00360173764334868,0.00354765858418123,0.0035724450518197,0.00352713192547695,0.003588329134476,0.00356927369506922,0.00362498931696416,0.00359324142554731,0.00361002945490164,0.121254874643612,0.163592784992166,0.482570943290303,0.483578933333479,0.485254006402061,0.195788693596577,0.154325016041052,0.093823691660011,0.114391287438573,0.133564153626562,0.15284152114237,0.173062482937087,0.184355064848892,0.196906508238696,0.231332770773822,0.270922378466474,0.515334290488821,0.515778406425716,0.516500920103464,0.517600713740451,0.51869295732686,0.520146768780987,0.521269153855514,0.52235993411514,0.52298974667782,0.523945995877364,0.524521879696757,0.52588047719697,0.526668476461172,0.158931883575338,0.0925420730026041,0.158900305665486,0.534563425136521,0.53563632284823,0.53646761484351,0.536328145946734,0.53457776987728,0.534866443952671,0.534585440319814,0.534405805720444,0.534566343446743,0.534902381075276,0.534655606417185,0.535090999077929,0.133636732855313,0.00389427312667552,0.00377823697934397,0.00379510450594069,0.00377074361942891,0.00381809644188108,0.00379654948401792,0.00394776666332587,0.0966264258988499,0.129387203555086,0.162968282215616,0.197700254843908,0.233915913402153,0.271949357690059,0.312005145850748,0.55922879032528,0.558759856054141,0.560192178241103,0.559600032128239,0.559668201752927,0.56097792386697,0.563414553710907,0.563683783473792,0.564288662303189,0.56707919471467,0.573350565665154,0.00261340442054241,0.00199309277957283,0.137309042696741,0.464076751607326,0.595664725298423,0.596306857950743,0.597741475221712,0.600264350600994,0.601287918060057,0.475375615601322,0.475462983407475,0.475609343021243,0.47677340925681,0.477783323742507,0.478137472437263,0.163949255263567,0.121778904172983,0.00348501331085919,0.00349781090731631,0.00346146986041573
0.00357157212841226,0.00360373476255603,0.00366863162700635,0.00364772054361978,0.00364373844974727,0.00365923418177599,0.0037168082611853,0.00366474556203809,0.00369055071182244,0.00365730705202943,0.00371330596411688,0.00359432217391249,0.00353459328649569,0.00354479717450681,0.00361029804253976,0.00358880799853747,0.00371720448375146,0.00362631420447862,0.00374487862582018,0.00361449053918201,0.00359312180516448,0.00363306161709917,0.0036629145231351,0.00358265702731962,0.00348063601841582,0.00350521784903648,0.00357663619760635,0.00343165908760474,0.00346117641900514,0.00325530190395797,0.00333934491993386,0.00272023641269732,0.00268364784058749,0.00177449682286498,0.430938999999825,0.00176932256608035,0.00272915359205877,0.00249607050848408,0.00330196777006935,0.00321247339100866,0.00325847180796425,0.146409165161759,0.446004378198671,0.446844583469205,0.446436611803219,0.446354829499042,0.445490453777246,0.441191709910423,0.00359227999981145,0.427391635792593,0.43045101203279,0.430952423512442,0.43173868268157,0.43199955925743,0.433026928149087,0.248613728039423,0.438406999999825,0.0225740231052924,0.00351441380445756,0.00361228572849626,0.00358430283988122,0.00379817012783651,0.00383804589915226,0.0038888854132356,0.00360177065979171,0.00386479520257022,0.00377848996059728,0.00378330638087307,0.00355706984181658,0.00361913632027636,0.00369342047955728,0.00356453864576796,0.00354446633167508,0.00359566118880353,0.00365291798497545,0.0036864375678241,0.0036553727393064,0.0037081694245768,0.00375801807648406,0.121411977216419,0.482749592551468,0.483852606878201,0.48516929806948,0.237585728500422,0.482412999999825,0.0832717950424242,0.00338070561603365,0.00343000731859935,0.00337858190403468,0.0970178485370879,0.500052999999825,0.109242547900541,0.00344143988338413,0.138146672323535,0.514890663899834,0.515763355451702,0.516699619454024,0.517503058663169,0.51824349889627,0.519882220401943,0.521258006689208,0.522038374449328,0.522504857849965,0.523802357868534,0.5249251620824,0.525732768630505,0.526363423395051,0.116747006107338,0.00343553997815975,0.116721896220593,0.534472998446126,0.534993459279321,0.535014222513807,0.534653036934144,0.5329059832508,0.533927960125598,0.53425008085991,0.534284387995242,0.534550851237963,0.534605626700281,0.534929635448466,0.534679071688381,0.53470270173995,0.0039160560385463,0.0036026089995444,0.00375336887570437,0.00373225104565899,0.00376195466588343,0.00359674149765093,0.00377690057016019,0.00359214798099907,0.0872198498200686,0.00339522999991157,0.0881327410778862,0.00379366999981198,0.0881327410703623,0.00343104999981103,0.558055238296283,0.558784031010852,0.558932163253888,0.559304244152172,0.559288610323937,0.560512707446451,0.561896061838056,0.56411890055408,0.564005535354452,0.567118954517685,0.572196421143142,0.00293689284672718,0.00203649437273603,0.59175342008494,0.589746460643663,0.594632648455829,0.595660050977662,0.596880369902964,0.599488682411173,0.602657890844372,0.602915168223246,0.604851199874369,0.47460180333104,0.00321615662627749,0.137055456095819,0.616344999999825,0.20616788695014,0.619380999999825,0.00340015749153576,0.00358088413733202,0.00346070421677072
