0.806264, 0.805436, 0.805868, 0.808794, 0.803411, 0.8058, 0.816321, 0.818509, 0.822628, 0.826416, 0.828685, 0.831807, 0.831942, 0.833007, 0.835914, 0.842025, 0.845975, 0.847881, 0.849078, 0.850709, 0.852664, 0.854179, 0.855752, 0.864989, 0.867273, 0.87543, 0.877775, 0.880077, 0.887451, 0.895563, 0.904128, 0.90903, 0.911013, 0.911923, 0.91467, 0.915964, 0.922841, 0.931668, 0.932804, 0.936652, 0.939087, 0.945046, 0.946255, 0.95324, 0.954886, 0.957567, 0.959119, 0.961397, 0.967963, 0.96951, 0.97208, 0.975074, 0.975369, 0.987028, 0.99417, 0.995766, 0.996674, 0.998996, 1.00125, 1.01275, 1.02265, 1.02503, 1.03082, 1.17521, 1.03999, 1.04928, 1.05371, 1.05675, 1.06242, 1.06369, 1.06458, 1.07077, 1.07402, 1.07428, 1.08818, 1.08961, 1.09734, 1.10392, 1.10529, 1.10972, 1.11607, 1.11953, 1.12698, 1.15924, 1.14307, 1.14655, 1.17158, 1.15762, 1.16781, 1.20168, 1.3095, 1.33868, 1.31602, 1.20587, 1.32255, 1.2163, 1.77905, 1.21048, 1.21182, 1.21318, 1.21492, 1.21917, 1.22077, 1.22158, 1.22273, 1.25846, 1.23909, 1.23975, 1.24876, 1.25781, 1.25869, 1.29834, 1.29539, 1.29367, 1.28403, 1.42411, 1.38023, 1.30659, 1.41655, 1.33327, 1.31274, 1.32092, 1.3259, 1.34776, 1.35035, 1.34504, 1.36454, 1.36787, 1.35915, 1.36001, 1.36142, 1.36982, 1.37228, 1.37434, 1.38155, 1.40519, 1.41866, 1.40675, 1.41172, 1.41681, 1.43298, 1.44476, 1.44281, 1.44518, 1.44606, 1.44185, 1.44116, 1.44316, 1.43907, 1.44902, 1.44853, 1.45045, 1.45116, 1.4579, 1.46044, 1.46585, 1.4666, 1.47106, 1.46776, 1.46915, 1.4907, 1.49205, 1.49321, 1.49032, 1.4948, 1.49737, 1.49854, 1.50334, 1.50703, 1.51287, 1.51149, 1.51525, 1.5134, 1.51876, 1.51941, 1.53137, 1.53031, 1.53061, 1.53283, 1.53249, 1.54503, 1.54609, 1.55049, 1.55291, 1.55681, 1.56117, 1.56224, 1.56719, 1.56972, 1.56934, 1.56596, 1.56373, 1.5619, 1.56813, 1.56939, 1.58125, 0.00380681, 1.60138, 1.60208, 1.63569, 1.63732, 1.63079, 1.62215, 1.77937, 1.64234, 1.64206, 1.63939, 1.63157, 1.61913, 1.61169, 1.60925, 1.60708, 1.60468, 1.60285, 1.60201, 1.60672, 1.60646, 1.59206, 1.59564, 1.57591, 1.57371, 1.574, 1.57436, 1.57355, 1.57075, 1.56636, 1.56545, 1.55981, 1.55818, 1.55863, 1.55562, 1.5655, 1.56542, 1.56532, 1.56094, 1.56238, 1.56411, 1.57036, 1.55811, 1.55225, 1.54896, 1.55356, 1.55344, 1.54842, 1.54963, 1.55007, 1.5546, 1.55469, 1.55486, 1.55289, 1.56035, 1.55864, 1.56019, 1.55585, 1.55402, 1.5607, 1.56286, 1.5708, 1.56971, 1.56722, 1.56805, 1.57183, 1.57606, 1.57863, 1.58383, 1.58763, 1.58346, 1.57654, 1.57698, 1.58901, 1.59577, 1.59602, 1.59649, 1.59495, 1.59579, 1.69992, 1.60727, 1.61148, 1.6186, 1.6236, 1.62118, 1.6234, 1.63424, 1.63351, 1.63786, 1.64217, 1.65077, 1.65983, 1.65776, 1.66628, 1.66771, 1.6655, 1.67519, 1.67759, 1.67596, 1.68148, 1.67951, 1.68586, 1.6942, 1.6987
0.807503, 0.804834, 0.807938, 0.80956, 0.813432, 0.811617, 0.810155, 0.812209, 0.822893, 0.82817, 0.829042, 0.829783, 0.832635, 0.83432, 0.83849, 0.839829, 0.843959, 0.84529, 0.847882, 0.848524, 0.84885, 0.849669, 0.854975, 0.857251, 0.859208, 0.86715, 0.870227, 0.879773, 0.88579, 0.89481, 0.896594, 0.905301, 0.90659, 0.911008, 0.911777, 0.914887, 0.915798, 0.924329, 0.924942, 0.932291, 0.935826, 0.940108, 0.945395, 0.943553, 0.945506, 0.94837, 0.951943, 0.952829, 0.961514, 0.964803, 0.969957, 0.971859, 0.977756, 0.980004, 0.982403, 0.988787, 0.993689, 0.994946, 1.00181, 1.00453, 1.00902, 1.01612, 1.02379, 1.033, 1.03467, 1.03853, 1.18314, 1.05351, 1.05487, 1.05762, 1.05965, 1.06214, 1.07428, 1.07692, 1.07903, 1.08601, 1.0951, 1.09775, 1.10017, 1.10284, 1.10472, 1.14812, 1.1159, 1.11988, 1.12535, 1.13378, 1.13921, 1.14079, 1.14691, 1.14792, 1.3048, 1.17014, 1.17069, 1.17321, 1.17506, 1.1801, 1.3239, 1.32541, 1.20123, 1.20902, 1.21003, 1.2127, 1.21551, 1.21717, 1.21328, 1.21368, 1.52007, 1.23635, 1.23649, 1.27544, 1.25917, 1.29032, 1.25845, 1.27808, 1.36762, 1.26933, 1.27469, 1.28942, 1.28944, 1.29821, 1.32032, 1.32021, 1.31471, 1.34329, 1.34614, 1.35566, 1.35587, 1.36218, 1.35068, 1.36159, 1.35784, 1.38611, 1.36252, 1.36956, 1.37092, 1.39792, 1.41764, 1.43171, 1.40372, 1.42912, 1.42687, 1.49399, 1.43259, 1.43482, 1.43377, 1.43329, 1.43724, 1.43345, 1.43265, 1.43376, 1.44417, 1.44633, 1.44494, 1.44598, 1.46475, 1.45499, 1.45532, 1.46126, 1.46964, 1.46852, 1.47085, 1.47026, 1.47591, 1.48806, 1.49107, 1.49022, 1.49005, 1.49605, 1.49802, 1.50685, 1.51189, 1.51066, 1.51602, 1.51961, 1.51926, 1.52615, 1.52466, 1.52815, 1.5315, 1.53622, 1.53662, 1.53601, 1.54802, 1.55253, 1.55087, 1.56128, 1.56474, 1.5679, 1.56682, 1.56735, 1.56247, 1.55716, 1.55491, 1.56146, 1.56823, 1.56682, 1.56624, 1.5735, 1.58426, 0.0039693, 1.59947, 0.00386344, 1.61932, 1.7664, 1.63247, 1.63406, 1.62996, 0.00380021, 1.63558, 1.61126, 1.60685, 1.67789, 1.58973, 1.58239, 1.584, 1.58249, 1.58535, 1.60146, 1.59053, 1.56852, 1.56758, 1.5794, 1.56173, 1.56006, 1.55865, 1.55515, 1.55915, 1.5576, 1.55515, 1.5549, 1.55198, 1.54975, 1.54984, 1.54452, 1.54218, 1.54373, 1.54558, 1.54629, 1.54539, 1.54622, 1.54521, 1.54582, 1.54172, 1.54189, 1.55121, 1.54834, 1.54742, 1.54935, 1.55284, 1.55102, 1.55194, 1.55, 1.5478, 1.5506, 1.55065, 1.55041, 1.5521, 1.5546, 1.5609, 1.55669, 1.55971, 1.56238, 1.56457, 1.57031, 1.57611, 1.57547, 1.57424, 1.56838, 1.57155, 1.57194, 1.57676, 1.58323, 1.58754, 1.59232, 1.59087, 1.59344, 1.60077, 1.60126, 1.60723, 1.61791, 1.62044, 1.6206, 1.6308, 1.62713, 1.62724, 1.62838, 1.63295, 1.64186, 1.76929, 1.65169, 1.66134, 1.65778, 1.66983, 1.66862, 1.67156, 1.67483, 1.67556, 1.68179, 1.67798, 1.69588
0.788131, 0.789313, 0.805022, 0.809537, 0.806506, 0.807427, 0.807687, 0.810017, 0.810972, 0.814619, 0.817702, 0.821717, 0.825479, 0.831478, 0.833578, 0.833895, 0.833566, 0.845545, 0.846704, 0.842636, 0.841689, 0.842182, 0.845623, 0.848722, 0.85367, 0.854405, 0.864665, 0.874412, 0.881057, 0.882281, 0.888216, 0.896625, 0.898407, 0.900878, 0.905947, 0.907667, 0.908269, 0.91613, 0.921509, 0.924348, 0.928242, 0.932409, 0.934125, 0.939971, 0.941168, 0.944491, 0.947545, 0.951833, 0.952576, 0.956698, 1.57538, 0.967026, 0.97169, 0.974561, 0.97658, 0.980854, 0.984899, 0.987295, 0.997949, 1.00122, 1.00315, 1.00508, 1.01602, 1.02248, 1.02422, 1.02891, 1.03257, 1.03636, 1.04095, 1.62214, 1.05109, 1.05383, 1.63165, 1.19794, 1.08465, 1.08422, 1.09005, 1.09247, 1.0932, 1.09308, 1.09599, 1.09822, 1.11124, 1.11249, 1.12407, 1.12721, 1.13084, 1.1332, 1.13939, 1.14176, 1.14121, 1.1504, 1.15628, 1.15787, 1.1634, 1.17015, 1.17223, 1.18573, 1.1908, 1.2, 1.20242, 1.21139, 1.2127, 1.21814, 1.21857, 1.21779, 1.21793, 1.2184, 1.25489, 1.23376, 1.2392, 1.24523, 1.24727, 1.25424, 1.25344, 1.26098, 1.26473, 1.26857, 1.28111, 1.28081, 1.30154, 1.29635, 1.30083, 1.30985, 1.31039, 1.31374, 1.33068, 1.35041, 1.33689, 1.36068, 1.34847, 1.38203, 1.37318, 1.39267, 1.37051, 1.3702, 1.40734, 1.38085, 1.38652, 1.38537, 1.39028, 1.39249, 1.39546, 1.41525, 1.4549, 1.41991, 1.42255, 1.42934, 1.43119, 1.43083, 1.43138, 1.43461, 1.44298, 1.44358, 1.44727, 1.4473, 1.44476, 1.44841, 1.45462, 1.46046, 1.46763, 1.46736, 1.46455, 1.476, 1.47902, 1.48, 1.47946, 1.48792, 1.48655, 1.493, 1.50575, 1.50729, 1.51994, 1.51336, 1.5183, 1.51949, 1.51774, 1.52475, 1.52861, 1.53056, 1.53376, 1.54057, 1.5385, 1.54796, 1.54842, 1.5509, 1.55937, 1.56522, 1.56713, 1.56563, 1.55776, 1.55447, 1.55333, 1.55403, 1.55406, 1.55905, 1.56924, 1.56511, 1.56367, 1.58523, 1.58474, 1.60237, 0.00386718, 1.70566, 0.00405464, 1.62001, 1.62171, 1.78994, 1.60744, 1.60563, 0.00402353, 1.58132, 1.57582, 1.57103, 1.57597, 1.56726, 1.56601, 1.55555, 1.65789, 1.54453, 1.54583, 1.55737, 1.55147, 1.553, 1.54699, 1.54688, 1.54599, 1.54769, 1.55113, 1.54103, 1.54223, 1.54284, 1.53772, 1.53782, 1.53892, 1.54159, 1.54276, 1.54542, 1.54435, 1.5413, 1.54238, 1.54008, 1.5415, 1.53953, 1.53669, 1.54263, 1.54316, 1.5409, 1.54375, 1.54719, 1.54612, 1.549, 1.5432, 1.54851, 1.54561, 1.54454, 1.54762, 1.5488, 1.54965, 1.55065, 1.55345, 1.55224, 1.55425, 1.55502, 1.55414, 1.55487, 1.56064, 1.55792, 1.56277, 1.56196, 1.56343, 1.57127, 1.57566, 1.58071, 1.57746, 1.58609, 1.59095, 1.59087, 1.59541, 1.59792, 1.60833, 1.61351, 1.61319, 1.62002, 1.62576, 1.62967, 1.62837, 1.63849, 1.6393, 1.63977, 1.64734, 1.64401, 1.65226, 1.66267, 1.66821, 1.66736, 1.66844, 1.67549, 1.67372, 1.68199
0.786919, 0.787818, 0.789498, 0.790583, 0.792545, 0.80238, 0.804182, 0.804422, 0.808288, 0.808615, 0.815398, 0.81587, 0.815933, 0.816652, 0.823894, 0.825443, 0.828104, 0.835997, 0.84045, 0.842217, 0.843994, 0.845266, 0.847916, 0.848075, 0.854553, 0.854871, 0.865737, 0.867253, 0.870079, 0.880402, 0.883169, 0.881256, 0.883168, 0.894333, 0.89996, 0.900503, 0.902019, 0.903479, 0.905722, 0.910752, 0.91752, 0.925237, 0.933322, 0.937038, 0.93734, 0.936002, 0.940335, 0.943335, 0.951728, 0.953138, 0.956427, 0.963046, 0.968638, 0.971108, 0.974131, 0.979833, 0.981805, 0.983133, 0.990567, 0.991354, 0.995437, 0.99811, 1.00079, 1.00628, 1.00951, 1.01186, 1.02201, 1.02627, 1.03311, 1.03701, 1.04102, 1.0465, 1.04922, 1.05359, 1.05636, 1.06452, 1.32952, 1.07713, 1.0788, 1.08178, 1.08183, 1.20726, 1.64466, 1.10645, 1.11497, 1.12256, 1.12167, 1.1258, 1.12698, 1.1323, 1.1333, 1.14323, 1.14897, 1.14934, 1.15026, 1.16082, 1.1911, 1.20034, 1.21157, 1.19256, 1.19261, 1.23555, 1.2095, 1.21161, 1.21367, 1.21538, 1.21519, 1.21512, 1.21447, 1.21624, 1.22203, 1.25801, 1.25009, 1.26197, 1.25233, 1.24439, 1.26129, 1.26081, 1.26252, 1.26443, 1.26797, 1.28745, 1.28499, 1.29767, 1.29549, 1.30384, 1.41286, 1.32212, 1.34074, 1.32612, 1.331, 1.33883, 1.38571, 1.37183, 1.38627, 1.3854, 1.38966, 1.48307, 1.38789, 1.37864, 1.3727, 1.38545, 1.38649, 1.38777, 1.56648, 1.42492, 1.43347, 1.41267, 1.41383, 1.41693, 1.41956, 1.42467, 1.43344, 1.43512, 1.43563, 1.43606, 1.44318, 1.45061, 1.44501, 1.45021, 1.45494, 1.45716, 1.45823, 1.46597, 1.46884, 1.4703, 1.47784, 1.47989, 1.48085, 1.48652, 1.4962, 1.49596, 1.50056, 1.51232, 1.51982, 1.51284, 1.51178, 1.52135, 1.52931, 1.5296, 1.53812, 1.53837, 1.53941, 1.54781, 1.54611, 1.54773, 1.5601, 1.56311, 1.5632, 1.56119, 1.56322, 1.54575, 1.54627, 1.54756, 1.5498, 1.54972, 1.55264, 1.55868, 1.55953, 1.56345, 1.5651, 1.5862, 0.00463837, 1.59001, 1.60024, 0.00393939, 1.61971, 0.00396633, 1.6054, 1.62296, 1.58947, 1.57173, 1.57042, 1.5701, 1.57063, 1.55938, 1.55578, 1.55367, 1.54874, 1.54937, 1.54541, 1.54563, 1.54668, 1.54632, 1.54543, 1.54262, 1.54337, 1.54309, 1.53877, 1.53674, 1.53454, 1.53323, 1.53361, 1.53629, 1.5365, 1.53593, 1.53118, 1.53486, 1.53562, 1.53747, 1.53632, 1.53695, 1.53541, 1.53411, 1.53137, 1.53388, 1.53488, 1.53111, 1.53172, 1.53494, 1.53357, 1.53374, 1.54061, 1.5399, 1.54151, 1.5339, 1.53579, 1.53821, 1.5435, 1.5443, 1.54072, 1.54408, 1.54567, 1.54171, 1.53805, 1.54453, 1.54173, 1.54064, 1.5473, 1.68166, 1.55843, 1.55596, 1.56468, 1.56815, 1.56975, 1.56847, 1.57903, 1.58588, 1.5915, 1.59686, 1.70211, 1.60338, 1.61038, 1.60967, 1.71806, 1.61777, 1.62501, 1.62537, 1.63846, 1.63814, 1.6391, 1.63892, 1.63927, 1.76214, 1.6569, 1.65524, 1.65186, 1.65825, 1.66434, 1.78563
0.782202, 0.786398, 0.788413, 0.790515, 0.790467, 0.792227, 0.793422, 0.798633, 0.801454, 0.804725, 0.808351, 0.809645, 0.815098, 0.816202, 0.812365, 0.812208, 0.818977, 0.820145, 0.824722, 0.828042, 0.832441, 0.840141, 0.845207, 0.849206, 0.852483, 0.851467, 0.853204, 0.859964, 0.870121, 0.871368, 0.873601, 0.875772, 0.883079, 0.886213, 0.885072, 0.890222, 0.893542, 0.90029, 0.90127, 0.904852, 0.908864, 0.91639, 0.921702, 0.923863, 0.928827, 0.929069, 0.93119, 0.935854, 0.944305, 0.947227, 0.951424, 0.953344, 0.966407, 0.966921, 0.971266, 0.97434, 0.979039, 0.979866, 0.980228, 0.987098, 0.990623, 0.994952, 0.998934, 1.00061, 1.00032, 0.999197, 1.03537, 1.01224, 1.01154, 1.02484, 1.0297, 1.03156, 1.03903, 1.04394, 1.04925, 1.05089, 1.05278, 1.06905, 1.07148, 1.07211, 1.07371, 1.07502, 1.08508, 1.20792, 1.10124, 1.60838, 1.10801, 1.10981, 1.14439, 1.15364, 1.16062, 1.16105, 1.13679, 1.1393, 1.13999, 1.1512, 1.15378, 1.17916, 1.19137, 1.22626, 1.20373, 1.25472, 1.20728, 1.20898, 1.20889, 1.20987, 1.20678, 1.20779, 1.20672, 1.20902, 1.20817, 1.21336, 1.21635, 1.21998, 1.22196, 1.4603, 1.23415, 1.26003, 1.35386, 1.26019, 0.00410216, 1.26464, 1.27132, 1.38258, 1.31219, 1.30846, 1.30882, 1.29813, 1.30867, 1.32706, 1.35699, 1.35548, 1.36652, 1.33043, 1.35825, 1.48239, 1.47146, 1.47072, 1.35154, 1.362, 1.36419, 1.38342, 1.38513, 1.38585, 1.39402, 1.39372, 1.39818, 1.39885, 1.39918, 1.41315, 1.41565, 1.41976, 1.42119, 1.51618, 1.43664, 1.43177, 1.43386, 1.4439, 1.43918, 1.4371, 1.44312, 1.44294, 1.44787, 1.45455, 1.46433, 1.46605, 1.46628, 1.4744, 1.48287, 1.47574, 1.48393, 1.49268, 1.4961, 1.49509, 1.50375, 1.50346, 1.51058, 1.51594, 1.5212, 1.52749, 1.52759, 1.53501, 1.53988, 1.54331, 1.54608, 1.54592, 1.5453, 1.55866, 1.56438, 1.56341, 1.56408, 1.54514, 1.54321, 1.54141, 1.54312, 1.54424, 1.54598, 1.55446, 1.55357, 1.56116, 1.56365, 1.56106, 1.56098, 1.60272, 0.00342946, 1.59912, 1.59448, 1.59541, 1.59456, 1.61428, 1.64471, 1.56092, 1.5579, 1.55704, 1.55112, 1.55582, 1.55336, 1.54779, 1.55057, 1.54803, 1.54407, 1.54355, 1.53743, 1.5359, 1.53736, 1.53778, 1.53769, 1.53512, 1.53282, 1.52643, 1.52601, 1.52375, 1.52261, 1.52636, 1.52641, 1.52944, 1.53398, 1.53492, 1.53175, 1.53449, 1.53509, 1.5362, 1.53396, 1.53269, 1.53376, 1.52914, 1.52764, 1.51642, 1.51734, 1.5176, 1.51984, 1.52296, 1.52076, 1.52998, 1.53123, 1.67245, 1.5264, 1.52716, 1.52633, 1.52401, 1.52905, 1.52514, 1.52794, 1.53662, 1.53803, 1.53727, 1.53721, 1.54244, 1.54207, 1.5465, 1.54678, 1.54725, 1.54898, 1.5483, 1.55369, 1.56425, 1.5711, 1.57196, 1.57016, 1.58581, 1.58711, 1.69941, 1.6005, 1.70417, 1.60833, 1.60978, 1.61636, 1.6136, 1.62246, 1.62649, 1.6314, 1.63334, 1.63127, 1.63689, 1.63725, 1.64232, 1.64865, 1.81443, 1.66527, 1.65793
0.775847, 0.776368, 0.783243, 0.783288, 0.784813, 0.789177, 0.789944, 0.790813, 0.791839, 0.798596, 0.801771, 0.803857, 0.804344, 0.807409, 0.808926, 0.806172, 0.802616, 0.804085, 0.80764, 0.00451421, 0.831895, 0.831424, 0.836423, 0.840854, 0.8458, 0.846435, 0.846282, 0.852603, 0.853627, 0.856848, 0.85984, 0.867727, 0.876388, 0.879379, 0.882311, 0.883639, 0.888911, 0.892672, 0.89372, 0.899349, 0.901499, 0.909056, 0.917357, 0.919607, 0.921021, 0.92532, 0.929098, 0.934958, 0.939183, 0.942333, 0.946558, 0.945877, 0.956759, 0.958, 0.966532, 0.968222, 0.972558, 0.976737, 0.978243, 0.980528, 0.982669, 0.983652, 0.987305, 0.986576, 0.988277, 0.991256, 0.98925, 0.991153, 0.00416258, 1.01775, 1.02, 1.02667, 1.02892, 1.03346, 1.03899, 1.04592, 1.04975, 1.4952, 1.06508, 1.06784, 1.06669, 1.06902, 1.07388, 1.07534, 1.07935, 1.08139, 1.11587, 1.13297, 1.18083, 1.29472, 1.14025, 1.14617, 1.14072, 1.14808, 1.12717, 1.13262, 1.33948, 1.16088, 1.17067, 1.19179, 1.17842, 0.00381893, 1.29734, 1.1956, 1.20229, 1.20084, 1.20117, 1.1989, 1.201, 1.20209, 1.20335, 1.20483, 1.20997, 1.21044, 1.21332, 1.21304, 1.21645, 1.24766, 1.25847, 1.25397, 1.26093, 1.27566, 1.28144, 1.28938, 1.30249, 1.27822, 1.29543, 1.30531, 1.2986, 1.30654, 1.30677, 1.31281, 1.31426, 1.31485, 1.32011, 1.32365, 1.32612, 1.36078, 1.35973, 1.34954, 1.36798, 1.45881, 1.38836, 1.39933, 0.00343152, 1.38714, 1.38568, 1.3917, 1.39139, 1.40858, 1.40271, 1.40994, 1.41217, 1.41613, 1.42454, 1.43036, 1.4282, 1.42548, 1.42791, 1.43082, 1.43468, 1.43932, 1.44373, 1.44706, 1.53372, 1.46353, 1.46507, 1.46552, 1.46966, 1.47546, 1.48135, 1.48739, 1.48634, 1.48555, 1.49678, 1.49953, 1.50184, 1.50927, 1.51461, 1.52025, 1.52862, 1.53321, 1.54325, 1.53813, 1.55011, 1.549, 1.54738, 1.55466, 1.56448, 1.56185, 1.57058, 1.54224, 1.54043, 1.54013, 1.54068, 1.5414, 1.54033, 1.54244, 1.55048, 1.54799, 1.54957, 1.5582, 1.56445, 1.56222, 1.56118, 0.00405747, 1.59201, 0.00403214, 1.58527, 1.5779, 1.65071, 1.57099, 1.54814, 1.54296, 1.53757, 1.53581, 1.5446, 1.54071, 1.53455, 1.53308, 1.53315, 1.53134, 1.53137, 1.53197, 1.53362, 1.53337, 1.5285, 1.52946, 1.52527, 1.52297, 1.52363, 1.52613, 1.52507, 1.52617, 1.52338, 1.52262, 1.52217, 1.52146, 1.53056, 1.51173, 1.51152, 1.51664, 1.51401, 1.51464, 1.51857, 1.51684, 1.51765, 1.5149, 1.51669, 1.51424, 1.51552, 1.52387, 1.52342, 1.51759, 1.5148, 1.51655, 1.51692, 1.51323, 1.51684, 1.52233, 1.5224, 1.52422, 1.52909, 1.52806, 1.53102, 1.53725, 1.53041, 1.53055, 1.53443, 1.53521, 1.53733, 1.53826, 1.53979, 1.5436, 1.54113, 1.55447, 1.55568, 1.55841, 1.55901, 1.5605, 1.57186, 1.58464, 1.58507, 1.58744, 1.59212, 1.59884, 1.60084, 1.59986, 1.61281, 1.60825, 1.614, 1.62002, 1.61808, 0.00381132, 1.64824, 1.63676, 1.63513, 1.63826, 1.63776, 0.00428273
0.770415, 0.770968, 0.771944, 0.771688, 0.771516, 0.775596, 0.775874, 0.77908, 0.782677, 0.787836, 0.789146, 0.790187, 0.791365, 0.793867, 0.80085, 0.801246, 0.801473, 0.800858, 0.801274, 0.801937, 0.800818, 0.81284, 0.812551, 0.825469, 0.835675, 0.836051, 0.843817, 0.848159, 0.849366, 0.851142, 0.856826, 0.856894, 0.859117, 0.859505, 0.868953, 0.873215, 0.88158, 0.886628, 0.885649, 0.892424, 0.900826, 0.905253, 0.906163, 0.906362, 1.03337, 0.921439, 0.921632, 0.928244, 0.934438, 0.934045, 0.932557, 0.931423, 0.937006, 0.939788, 0.947019, 0.953132, 0.953973, 0.95899, 0.959557, 0.962009, 0.96589, 0.966616, 0.00362016, 0.977813, 0.00374623, 0.978309, 0.982184, 0.983161, 1.1317, 0.995429, 0.996515, 1.01229, 1.01921, 1.02233, 1.53183, 1.56239, 1.56344, 1.04258, 1.56812, 1.05027, 1.05387, 1.05488, 1.05957, 1.06492, 1.07118, 1.07201, 1.07276, 1.07578, 1.07664, 1.60256, 1.60255, 1.13254, 1.11006, 1.11123, 1.11324, 1.11821, 1.16337, 1.1647, 1.16241, 1.16051, 1.63374, 1.17972, 1.18212, 1.18886, 1.18654, 1.18947, 1.19484, 1.19511, 1.19575, 1.19736, 1.19719, 1.19671, 1.19917, 1.20313, 1.20471, 1.21231, 1.21385, 1.21343, 1.21541, 1.21869, 1.21986, 1.22684, 1.22947, 1.28203, 1.28823, 1.28327, 1.29466, 1.30129, 1.29195, 1.30522, 1.3005, 1.30095, 1.30918, 1.30926, 1.3114, 1.33022, 1.33605, 1.33825, 1.33097, 1.33083, 1.34372, 1.38538, 1.37435, 1.36803, 1.36771, 1.36913, 1.36934, 1.4025, 1.40278, 1.40256, 1.40202, 1.40164, 1.40243, 1.4041, 1.40426, 1.41349, 1.41546, 1.41511, 1.42179, 1.4233, 1.426, 1.43977, 1.43769, 1.44426, 1.44396, 1.45495, 1.45973, 1.4595, 1.46981, 1.47915, 1.47879, 1.47345, 1.47632, 1.48317, 1.48806, 1.49813, 1.499, 1.50577, 1.54031, 1.52026, 1.52415, 1.52348, 1.53783, 1.53731, 1.54283, 1.54703, 1.55293, 1.55559, 1.56216, 1.5614, 1.56881, 1.53872, 1.53751, 1.53679, 1.54018, 1.54219, 1.54152, 1.5421, 1.54181, 1.54418, 1.54351, 1.56559, 1.56727, 1.55825, 1.55931, 1.54786, 1.54666, 1.58342, 0.00393747, 0.00377947, 1.55812, 1.55245, 1.55169, 1.54139, 1.53666, 1.5381, 1.53029, 1.5275, 1.52771, 1.5325, 1.52676, 1.52391, 1.52733, 1.5273, 1.52495, 1.52835, 1.52777, 1.52963, 1.52638, 1.52608, 1.52481, 1.52192, 1.52196, 1.51942, 1.51757, 1.50967, 1.50669, 1.50647, 1.50937, 1.51134, 1.51129, 1.50931, 1.51233, 1.51168, 1.51628, 1.51391, 1.51273, 1.51361, 1.51337, 1.51407, 1.5155, 1.50452, 1.50251, 1.50153, 1.50289, 1.4987, 1.50607, 1.5057, 1.51444, 1.51706, 1.52192, 1.52196, 1.5253, 1.52666, 1.52783, 1.52785, 1.5262, 1.52699, 1.52734, 1.5337, 1.52937, 1.52289, 1.72353, 1.61381, 1.61302, 1.54137, 1.54585, 1.54834, 1.55495, 1.55684, 1.5575, 1.55701, 1.56929, 1.57387, 1.5774, 1.57605, 1.57834, 1.59232, 1.59058, 1.59562, 1.59926, 1.59534, 1.60777, 1.60795, 1.62022, 1.62433, 1.62374, 1.63018, 1.63628, 1.64389
0.766751, 0.765389, 0.762851, 0.762826, 0.762573, 0.770143, 0.769713, 0.775125, 0.776076, 0.774571, 0.780787, 0.784036, 0.785852, 0.789029, 0.788909, 0.795708, 0.797258, 0.797101, 0.799229, 0.799794, 0.800235, 0.800328, 0.815217, 0.817171, 0.828979, 0.82614, 0.832867, 0.843415, 0.847536, 0.850276, 0.852662, 0.854282, 0.858973, 0.860411, 0.860917, 0.864695, 0.874496, 0.877043, 0.880016, 0.880821, 0.888599, 0.898249, 0.903864, 0.905611, 0.907996, 0.909493, 0.915119, 0.917582, 0.919898, 0.922548, 0.928563, 0.931989, 0.935337, 0.939842, 0.94107, 0.953081, 0.955162, 0.95909, 0.959078, 0.95696, 0.955415, 0.955652, 0.956879, 0.960943, 0.967853, 0.968959, 0.973301, 0.974208, 0.979416, 0.981133, 0.986369, 0.990266, 0.992557, 1.00898, 1.01094, 1.02339, 1.02839, 1.03398, 1.03693, 1.03917, 1.03993, 1.04348, 1.04906, 1.05122, 1.12587, 1.0652, 1.06784, 1.07035, 1.09609, 1.08047, 1.08791, 1.17354, 1.08879, 1.10117, 1.107, 1.10789, 1.11719, 1.15342, 1.21597, 1.30495, 1.16909, 1.16606, 1.2402, 1.18895, 1.18711, 1.17937, 1.18608, 1.19062, 1.18984, 1.18913, 1.19118, 1.1921, 1.19216, 1.19469, 1.20004, 1.20251, 1.20585, 1.21013, 1.20933, 1.21297, 1.21567, 1.2167, 1.24686, 1.26188, 1.27158, 1.27833, 1.28709, 1.30503, 1.27935, 1.28253, 1.28692, 1.28907, 1.29344, 1.29639, 1.29888, 1.30223, 1.30202, 1.40535, 1.32227, 1.32146, 1.33002, 1.32981, 1.33067, 1.449, 1.36059, 1.35935, 1.36189, 1.36192, 1.37095, 1.39822, 1.41318, 1.39048, 1.3939, 1.39626, 1.40148, 1.40131, 1.40252, 1.41221, 1.41391, 1.42418, 1.42642, 1.42488, 1.44469, 1.44124, 1.44175, 1.44381, 1.44584, 1.46615, 1.45892, 1.45817, 1.47963, 1.4755, 1.47961, 1.48138, 1.48643, 1.48817, 1.49653, 1.49721, 1.50708, 0.0039157, 1.52403, 1.52686, 1.52656, 1.55492, 1.54746, 1.54499, 1.54699, 1.546, 1.54872, 1.55621, 1.55602, 1.54036, 1.53572, 1.5323, 1.53196, 1.53675, 1.5337, 1.53239, 1.53038, 1.53111, 1.53797, 1.53983, 1.54741, 1.54511, 1.54465, 1.5447, 1.54856, 1.54833, 1.54852, 1.5434, 1.53951, 1.7209, 1.5639, 1.56023, 1.52818, 1.53336, 1.52514, 1.53935, 1.52085, 1.52167, 1.52807, 1.52681, 1.5252, 1.525, 1.5236, 1.52343, 1.52039, 1.51782, 1.52167, 1.51679, 1.5218, 1.51765, 1.51609, 1.51515, 1.5117, 1.50676, 1.50765, 1.50555, 1.50307, 1.50609, 1.50666, 1.50597, 1.50522, 1.50496, 1.50536, 1.50165, 1.50481, 1.49614, 1.49527, 1.50271, 1.49909, 1.49889, 1.49055, 1.49003, 1.4926, 1.50197, 1.50142, 1.50313, 1.50623, 1.50591, 1.51142, 1.51011, 1.52112, 1.5199, 1.52173, 1.52926, 1.51992, 1.52622, 1.52168, 1.52059, 1.51706, 1.51539, 1.51659, 1.5204, 1.52379, 1.5346, 1.53975, 1.54037, 1.5411, 1.54061, 1.71287, 1.58521, 1.55628, 1.5587, 1.56842, 1.5798, 1.57648, 1.57426, 1.57459, 1.58627, 1.58967, 1.58963, 2.50105, 0.00401936, 1.61338, 1.61225, 1.61557, 1.62366, 1.62492, 1.6324
0.755847, 0.753871, 0.752633, 0.760024, 0.761001, 0.759146, 0.761985, 0.766015, 0.765407, 0.764148, 0.764512, 0.767825, 0.778036, 0.781187, 0.783142, 0.785297, 0.785671, 0.792887, 0.795208, 0.796259, 0.796921, 0.797133, 0.791932, 0.00369678, 0.822474, 0.823861, 0.827578, 0.832112, 0.836383, 0.846624, 0.848534, 0.849446, 0.857724, 0.860581, 0.862356, 0.864953, 0.86496, 0.878535, 0.880725, 0.88099, 0.875525, 0.878867, 0.00360186, 0.906242, 0.907985, 0.91133, 0.911687, 0.913433, 0.91675, 0.918057, 0.918959, 0.929386, 0.932405, 0.939679, 0.945976, 0.948112, 0.949353, 0.95078, 0.955371, 0.952335, 0.952267, 0.952199, 0.954233, 0.955868, 0.958224, 0.964105, 0.969108, 0.969399, 0.973515, 0.977223, 0.984963, 0.987517, 0.994608, 0.9982, 1.00134, 1.00828, 1.01226, 1.01805, 1.01358, 1.01508, 1.04956, 1.05766, 1.03374, 1.03955, 1.04672, 1.05635, 1.05832, 1.06151, 1.06918, 1.07514, 1.08006, 1.08161, 1.08481, 1.08811, 1.09193, 1.10449, 1.10824, 1.11059, 1.12252, 1.12587, 1.12742, 1.12936, 1.13625, 1.17393, 1.15667, 1.1812, 1.18038, 1.19408, 1.1885, 1.18304, 1.18536, 1.18528, 1.18512, 1.18687, 1.19081, 1.19553, 1.19904, 1.20213, 1.20391, 1.20521, 1.20668, 1.21733, 1.21966, 1.25715, 1.24357, 1.26103, 1.28175, 1.27895, 1.2769, 1.27987, 1.28165, 1.28586, 1.28993, 1.2925, 1.29124, 1.29363, 1.29551, 1.3013, 1.32006, 1.3168, 1.3258, 1.32376, 1.33109, 1.45248, 1.34733, 1.35438, 1.35854, 1.36182, 1.36921, 1.36883, 1.37899, 1.38036, 1.3811, 1.39008, 1.39115, 1.39822, 1.4023, 1.40054, 1.40894, 1.40212, 1.40545, 1.42497, 1.42606, 1.4335, 1.43403, 1.43124, 1.43576, 1.44325, 1.45148, 1.45786, 1.47664, 1.45961, 1.47215, 1.48132, 1.47666, 1.50222, 1.49259, 1.4996, 1.50322, 1.5107, 1.50901, 1.51867, 1.5189, 1.55402, 0.00399786, 2.18276, 1.55486, 1.55482, 1.57895, 1.55809, 1.55638, 1.5477, 1.54397, 1.53832, 1.53835, 1.53527, 1.53279, 1.52856, 1.52681, 1.5268, 1.5281, 1.53308, 1.53687, 1.537, 1.53761, 1.54411, 1.54396, 1.54311, 1.54465, 1.54378, 1.53979, 1.52817, 1.51711, 1.51721, 1.51812, 1.5155, 1.51103, 1.51098, 1.50586, 1.55919, 1.51628, 1.51657, 1.51796, 1.52674, 1.51525, 1.51497, 1.60144, 1.51197, 1.51155, 1.50887, 1.50861, 1.50919, 1.5092, 1.50863, 1.50857, 1.50246, 1.50343, 1.49628, 1.50078, 1.49889, 1.49659, 1.49655, 1.49873, 1.49415, 1.49136, 1.49575, 1.48595, 1.48377, 1.48488, 1.48417, 1.48778, 1.48363, 1.48229, 1.48281, 1.48478, 1.47977, 1.48595, 1.49006, 1.49501, 1.48379, 1.56165, 1.50272, 1.5019, 1.50624, 1.50806, 1.51366, 1.52379, 1.5064, 1.50951, 1.51556, 1.51698, 1.52105, 1.52596, 1.52622, 1.52561, 1.5356, 1.53336, 1.53866, 1.53843, 1.5421, 1.54183, 1.54775, 1.55549, 1.5609, 1.55977, 1.56793, 1.56873, 1.57337, 1.57802, 1.57901, 1.57688, 1.58216, 1.59062, 1.59668, 1.60702, 1.60977, 1.61625, 1.61758, 1.62365, 1.62729
0.74873, 0.750613, 0.751012, 0.752087, 0.754602, 0.755836, 0.75766, 0.760739, 0.762406, 0.763976, 0.765154, 0.768677, 0.772482, 0.77653, 0.776841, 0.779516, 0.780948, 0.790491, 0.791124, 0.793621, 0.795282, 0.794488, 0.791921, 0.792265, 0.00453808, 0.823322, 0.824928, 0.824777, 0.826993, 0.836043, 0.836925, 0.842126, 0.842653, 0.862587, 0.864327, 0.866661, 0.871229, 0.87147, 0.877551, 0.877555, 0.876635, 0.8755, 0.88048, 0.881539, 1.40359, 0.907778, 0.907771, 0.907048, 0.908308, 0.911439, 0.91178, 0.919713, 0.91919, 0.00399537, 0.933794, 0.0038074, 0.00386637, 0.936689, 0.94335, 0.0037699, 0.939365, 0.945984, 0.950144, 0.954107, 0.957105, 0.958918, 0.961149, 0.965985, 0.971048, 0.97628, 0.979973, 0.983392, 0.984333, 0.987467, 0.987304, 1.01994, 1.23451, 1.00348, 1.11151, 1.26055, 1.26179, 1.11604, 1.11718, 1.02976, 1.0333, 1.12917, 1.13062, 1.25081, 1.25964, 1.06739, 1.07201, 1.25466, 1.08345, 1.08572, 1.62726, 1.0923, 1.0978, 1.10486, 1.14323, 1.11513, 1.1444, 1.22692, 1.227, 1.2735, 1.14046, 1.14669, 1.17349, 1.16792, 1.16801, 1.17697, 1.17956, 1.18347, 1.18377, 1.18447, 1.18575, 1.18894, 1.19156, 1.196, 1.19781, 1.20566, 1.20699, 1.22719, 1.22567, 1.23577, 1.23599, 1.24706, 1.24807, 1.35438, 1.2655, 1.26993, 1.26845, 1.27141, 1.27438, 1.33809, 1.27971, 1.28057, 1.28823, 1.29302, 1.29987, 1.30038, 1.36807, 1.32745, 1.3276, 1.3351, 1.34449, 1.34459, 1.37972, 1.36001, 1.36751, 1.36897, 1.36829, 1.37404, 1.38225, 1.3821, 1.38814, 1.38781, 1.39004, 1.39105, 1.39813, 1.39877, 1.39883, 1.40398, 1.40818, 1.41343, 1.42059, 1.42071, 1.43204, 1.45258, 1.45129, 1.45512, 1.4512, 1.45783, 1.46101, 1.4744, 1.48623, 1.48445, 1.4863, 1.50238, 1.50351, 1.50411, 1.51114, 1.51559, 1.5145, 1.52312, 0.00393081, 1.55112, 0.00430461, 1.56605, 1.56456, 1.56369, 1.56052, 1.56591, 1.80715, 1.53626, 1.53482, 1.52983, 1.5276, 1.52245, 1.52757, 1.52708, 1.52502, 1.52718, 1.52577, 1.52262, 1.61618, 1.53428, 1.53744, 0.00374572, 1.61277, 1.52016, 1.51683, 1.51638, 1.51227, 1.51225, 1.51205, 1.5107, 1.5074, 1.50603, 1.50406, 1.50292, 1.50806, 1.50842, 1.509, 1.51043, 1.49695, 1.49508, 1.49542, 1.50195, 1.50442, 1.50471, 1.50673, 1.50092, 1.4993, 1.49321, 1.503, 1.49634, 1.49815, 1.49601, 1.49454, 1.49468, 1.49603, 1.49438, 1.49431, 1.49191, 1.48878, 1.48472, 1.48502, 1.48332, 1.48064, 1.47777, 1.4732, 1.47501, 1.47749, 1.48059, 1.48221, 1.48158, 1.48083, 1.48026, 1.48302, 1.4816, 1.48039, 1.48699, 1.48991, 1.49563, 1.49573, 1.50218, 1.49963, 1.50084, 1.50815, 1.50976, 1.51381, 1.51407, 1.51836, 1.52722, 1.52635, 1.52828, 1.53066, 1.53049, 1.53495, 1.53395, 1.54398, 1.54529, 1.54877, 1.55016, 1.55541, 1.56203, 1.56146, 1.57408, 1.57159, 1.5745, 1.57574, 1.57894, 1.5919, 1.58997, 1.60077, 1.60013, 1.63502, 1.64701, 1.62148, 1.62089
0.743713, 0.744906, 0.746491, 0.750321, 0.752094, 0.75389, 0.754374, 0.756646, 0.759001, 0.758919, 0.755176, 0.763988, 0.76775, 0.773165, 0.775152, 0.775002, 0.775793, 0.784344, 0.787383, 0.791419, 0.790973, 0.791476, 0.792123, 0.793009, 0.792626, 0.790653, 0.822708, 0.82535, 0.825611, 0.827743, 0.838522, 0.840212, 0.842136, 0.844035, 0.85401, 0.866277, 0.8668, 0.867419, 0.868125, 0.872545, 0.873312, 0.876213, 0.875003, 0.880857, 0.884411, 0.887313, 1.05287, 0.898357, 1.37823, 0.899709, 0.899717, 1.45881, 0.903464, 0.908964, 0.908935, 1.36786, 0.925729, 0.925682, 1.42319, 1.42317, 0.928455, 1.53124, 0.942636, 0.945189, 0.949356, 0.949769, 0.957799, 0.957935, 0.964514, 0.966482, 0.971824, 0.97451, 0.976383, 0.979727, 0.978695, 0.980194, 0.983964, 0.98727, 0.994796, 0.997589, 1.00268, 1.00555, 1.01565, 1.019, 1.02001, 1.17559, 1.17784, 1.21007, 1.05405, 1.05678, 1.06171, 1.06991, 1.07155, 1.07847, 1.08317, 1.08469, 1.08632, 1.09172, 1.26419, 1.10103, 1.10391, 1.10548, 1.11217, 1.12153, 1.15415, 1.18146, 1.18718, 1.15056, 1.15762, 1.16129, 1.187, 1.17785, 1.18036, 1.18198, 1.18129, 1.18453, 1.18578, 1.19545, 1.19937, 1.20141, 1.23548, 1.23979, 1.24405, 1.23661, 1.23813, 1.24487, 1.24701, 1.24814, 1.25685, 1.26071, 1.26089, 1.26321, 1.26585, 1.26523, 1.27069, 1.27754, 1.27761, 1.28983, 1.29219, 1.29373, 1.29524, 1.4621, 1.39977, 1.39983, 1.48218, 1.34283, 1.34832, 1.35362, 1.35689, 1.35963, 1.36708, 1.36647, 1.39296, 1.37575, 1.3799, 1.3796, 1.38367, 1.38632, 1.38875, 1.3932, 1.39336, 1.39497, 1.39599, 1.39902, 1.41625, 1.41489, 1.42139, 1.42376, 1.44405, 1.45459, 1.49875, 1.49889, 1.45478, 1.47567, 1.4842, 1.47624, 1.49521, 1.49309, 1.49618, 1.49731, 1.563, 1.51084, 1.51474, 1.51609, 1.5263, 0.00375586, 1.5646, 1.55556, 1.56085, 1.56452, 1.56267, 1.5576, 1.56299, 1.53447, 1.53292, 1.52988, 1.52865, 1.52931, 1.52512, 1.5217, 1.52083, 1.52217, 1.52241, 1.52142, 1.52179, 1.52155, 1.52181, 1.51913, 1.51915, 1.51523, 1.51632, 1.50609, 1.50721, 1.50609, 1.5034, 1.50114, 1.50041, 1.50429, 1.50194, 1.5016, 1.49754, 1.50002, 1.49988, 1.49518, 1.49526, 1.49814, 1.49521, 1.494, 1.49454, 1.48706, 1.49209, 1.49135, 1.49187, 1.49193, 1.49238, 1.48912, 1.49266, 1.48643, 1.48515, 1.48897, 1.48784, 1.47956, 1.47318, 1.47117, 1.47055, 1.47847, 1.47722, 1.47879, 1.47672, 1.47521, 1.46601, 1.46688, 1.46743, 1.46595, 1.47035, 1.47285, 1.46945, 1.47069, 1.4704, 1.47293, 1.47176, 1.4809, 1.47983, 1.48336, 1.49084, 1.4914, 1.49225, 1.49925, 1.49996, 1.49989, 1.50372, 1.51056, 1.51218, 1.51489, 1.52116, 1.52639, 1.52589, 1.52655, 1.52667, 1.52664, 1.53353, 1.5377, 1.54827, 1.54994, 1.56454, 1.56034, 1.55851, 1.56838, 1.57194, 1.57294, 1.57341, 1.58349, 1.58849, 1.59686, 1.60549, 1.60535, 1.60732, 1.61924, 1.61996, 1.62644
0.735559, 0.73684, 0.742856, 0.746211, 0.748749, 0.75036, 0.752775, 0.752253, 0.753459, 0.753732, 0.75229, 0.755972, 0.76579, 0.76889, 0.773044, 0.775281, 0.777295, 0.778122, 0.784665, 0.786626, 0.788661, 0.790679, 0.790683, 0.795542, 0.794818, 0.796964, 0.797152, 0.820706, 0.823249, 0.826506, 0.829229, 0.835487, 0.836214, 0.843327, 0.84639, 0.851828, 0.854302, 0.860818, 0.867816, 0.872928, 0.873451, 0.871658, 0.871049, 0.868303, 0.869808, 0.873406, 0.875159, 1.46546, 0.887173, 0.886849, 0.888769, 0.890631, 1.39214, 0.897782, 0.900291, 0.900907, 0.901547, 0.905082, 0.905983, 0.913023, 0.915551, 0.922088, 0.929086, 0.933111, 0.940176, 0.943395, 1.52748, 1.52698, 0.952381, 0.954507, 0.965514, 0.966755, 0.97473, 0.975685, 0.977567, 0.979895, 0.981074, 0.98243, 0.988238, 0.994576, 0.996605, 1.00785, 1.00992, 1.01253, 1.01834, 1.02039, 1.02846, 1.03192, 1.03834, 1.0403, 1.23588, 1.23791, 1.08459, 1.08422, 1.09479, 1.0774, 1.07833, 1.08579, 1.08827, 1.08928, 1.09191, 1.09886, 1.10853, 1.1115, 1.11431, 1.28162, 1.12977, 1.179, 1.14991, 1.1824, 1.16783, 1.16826, 1.17258, 1.17722, 1.17667, 1.1784, 1.17923, 1.18462, 1.18829, 1.20743, 1.2194, 1.3459, 1.34618, 1.33685, 1.26061, 1.24025, 1.23987, 1.24024, 1.24633, 1.24982, 1.25226, 1.25235, 1.25458, 1.25973, 1.26188, 1.26741, 1.27418, 1.27305, 1.42658, 1.28258, 1.28889, 1.28998, 1.30205, 1.33984, 1.34674, 1.51766, 1.36592, 1.34948, 1.35506, 1.35817, 1.35939, 1.36275, 1.36377, 1.36517, 1.37188, 1.37214, 1.37447, 1.37533, 1.3781, 1.38196, 1.38702, 1.38867, 1.39815, 1.39408, 1.39451, 1.40777, 1.41223, 1.41273, 1.45117, 1.42613, 1.44077, 1.44936, 1.45003, 1.46224, 1.46779, 1.49313, 1.50267, 1.47965, 1.48816, 1.49542, 1.4894, 1.50543, 1.5184, 1.51381, 1.52213, 0.00398789, 1.55514, 1.56612, 1.56561, 1.56495, 1.56493, 1.5632, 1.57568, 1.54391, 1.54086, 1.53147, 1.53231, 1.52758, 1.52487, 1.52403, 1.52279, 1.52041, 1.51967, 1.52011, 1.51899, 1.51941, 1.50912, 1.50904, 1.50724, 1.50825, 1.50552, 1.50931, 1.50773, 1.50521, 1.50282, 1.49522, 1.49374, 1.48887, 1.48722, 1.48729, 1.49147, 1.49149, 1.49096, 1.48485, 1.4831, 1.48548, 1.4872, 1.48684, 1.48695, 1.49086, 1.49211, 1.48123, 1.48015, 1.48116, 1.47454, 1.47154, 1.4761, 1.47509, 1.4762, 1.4697, 1.46841, 1.47079, 1.46877, 1.46766, 1.47022, 1.46714, 1.46747, 1.4679, 1.47169, 1.45809, 1.45385, 1.4536, 1.45864, 1.46149, 1.46108, 1.46462, 1.46458, 1.46564, 1.46889, 1.46877, 1.47165, 1.46902, 1.46876, 1.46451, 1.61725, 1.575, 1.48834, 1.49112, 1.49822, 1.49671, 1.50363, 1.5033, 1.50704, 1.50927, 1.51685, 1.51767, 1.51688, 1.5264, 1.52543, 1.53053, 1.53168, 1.53102, 1.54652, 1.55751, 1.55757, 1.55906, 1.56216, 1.56658, 1.57308, 1.58158, 1.57916, 1.58214, 1.59404, 1.59396, 1.60109, 1.60721, 1.61212, 1.61184, 1.62086, 1.62178
0.731082, 0.73121, 0.730482, 0.738275, 0.736263, 0.740415, 0.7455, 0.743158, 0.748881, 0.748635, 0.749075, 0.749332, 0.750698, 0.752026, 0.752028, 0.773137, 0.773275, 0.774158, 0.77853, 0.782074, 0.786933, 0.789538, 0.790601, 0.791475, 0.795729, 0.796765, 0.798059, 0.799921, 0.80404, 0.943406, 0.82023, 0.829013, 0.834467, 0.837007, 0.843149, 0.84905, 0.853097, 0.852306, 0.854545, 0.852248, 0.00400442, 0.862624, 0.85824, 0.856439, 0.854833, 0.855554, 0.869668, 0.870874, 0.870748, 0.870427, 0.872991, 0.875818, 0.874927, 0.886685, 0.888274, 0.888695, 0.896553, 0.897914, 0.904293, 0.907096, 0.90766, 0.907126, 0.915257, 1.54855, 0.926874, 0.934018, 0.937485, 0.941092, 0.947121, 0.950781, 0.955495, 0.957399, 0.963585, 0.970069, 0.971187, 0.974634, 0.979033, 0.983722, 0.984084, 0.988525, 0.992809, 1.00253, 1.00691, 1.01039, 1.0124, 1.02084, 1.02511, 1.02991, 1.03231, 1.03518, 1.03885, 1.03969, 1.04577, 1.04765, 1.05379, 1.05848, 1.0647, 1.06682, 1.08432, 1.08476, 1.08305, 1.08584, 1.08676, 1.08801, 0.00348083, 1.10817, 1.1467, 1.29562, 1.2475, 1.30606, 0.00344148, 1.18711, 1.16723, 1.17138, 1.17475, 1.17838, 1.19509, 1.17326, 1.16946, 1.16654, 1.16714, 1.17063, 1.19256, 1.1913, 1.37144, 1.38877, 1.23005, 1.22763, 1.2292, 1.24371, 1.24874, 1.24797, 1.24407, 1.24588, 1.25123, 1.27185, 1.25478, 1.2564, 0.00387048, 1.28661, 1.28799, 1.27896, 1.29226, 1.29582, 1.51337, 1.50757, 1.36206, 1.35968, 1.37007, 1.35462, 1.35381, 1.35598, 1.36396, 1.36308, 1.36308, 1.36278, 1.36555, 1.36677, 1.36733, 1.37506, 1.37828, 1.37605, 1.37885, 1.38896, 0.00375448, 1.40213, 1.40172, 1.40727, 1.41103, 1.44434, 1.4434, 1.45185, 0.00363196, 1.46816, 1.45531, 1.45843, 0.00393076, 1.47565, 1.50097, 1.49016, 0.00375764, 1.52309, 1.51749, 1.5232, 1.53944, 1.54006, 0.00364513, 1.57091, 1.56904, 1.56534, 1.56143, 1.55803, 0.00394103, 1.54246, 1.5403, 1.53226, 1.53134, 1.52802, 1.52446, 1.52248, 1.51912, 1.51953, 1.51692, 1.50912, 1.50522, 1.50515, 1.50577, 1.50477, 1.50475, 1.5007, 1.49772, 1.49718, 1.49883, 1.48917, 1.48778, 1.48386, 1.48513, 1.48196, 1.48296, 1.4847, 1.48617, 1.47539, 1.47971, 1.47929, 1.4798, 1.47908, 1.48007, 1.47741, 1.47868, 1.47948, 1.47629, 1.47521, 1.47397, 1.47009, 1.47056, 1.47064, 1.46209, 1.46401, 1.46036, 1.46106, 1.45987, 1.46146, 1.46179, 1.46307, 1.45724, 1.4562, 1.4602, 1.45729, 1.45393, 1.45356, 1.44071, 1.44374, 1.4451, 1.45423, 1.45343, 1.45589, 1.46196, 1.46152, 1.46431, 1.46738, 1.46656, 1.4686, 1.46572, 1.46501, 1.46912, 1.46966, 1.4747, 1.48232, 1.48994, 1.49266, 1.49748, 1.4994, 1.5024, 1.5043, 1.51322, 1.52, 1.52261, 1.52137, 1.5234, 1.53195, 1.5348, 1.54062, 1.53975, 1.54925, 1.55783, 1.55899, 1.56233, 1.56202, 1.57184, 1.57308, 1.5818, 1.5786, 1.58634, 1.5872, 1.59916, 1.68965, 1.60159, 1.61459, 1.61414, 1.64159
0.724293, 0.726377, 0.727697, 0.730781, 0.733918, 0.738627, 0.738786, 0.740111, 0.739949, 0.742563, 0.74591, 0.747924, 0.749177, 0.752232, 0.753375, 0.753013, 0.759464, 0.765017, 1.31523, 1.31636, 0.783197, 0.784954, 0.785882, 0.785349, 0.795106, 0.796043, 0.799104, 0.801969, 0.801565, 0.809455, 0.815134, 0.816586, 0.81813, 0.823066, 0.825376, 0.827062, 1.37906, 0.835038, 0.833488, 1.01484, 1.36618, 1.36173, 0.850977, 0.850283, 0.853068, 0.853774, 0.877002, 0.861451, 0.863327, 0.865126, 0.867746, 0.870086, 0.872809, 0.875609, 0.879553, 0.884975, 0.888255, 0.890962, 0.891838, 0.892714, 0.903129, 0.906809, 0.9168, 0.92068, 0.925103, 0.929674, 0.933203, 0.938264, 0.94082, 0.946456, 0.951092, 0.953487, 0.957376, 0.964299, 0.965503, 0.969117, 0.974598, 0.977381, 0.983729, 0.985134, 0.988121, 0.993726, 0.997305, 1.00473, 1.01209, 1.21394, 1.21164, 1.21073, 1.0253, 1.03264, 1.03353, 1.03755, 1.0407, 1.04361, 1.046, 1.04796, 1.05332, 1.22231, 1.06305, 1.06889, 1.07472, 1.07633, 1.07793, 1.0816, 1.09127, 1.18959, 1.10002, 1.10663, 1.29881, 1.18537, 1.32063, 1.20192, 1.16739, 1.16619, 1.17111, 1.17161, 1.1589, 1.16121, 1.16634, 1.16686, 1.16494, 1.161, 1.17126, 1.17352, 1.18548, 1.27441, 1.21895, 1.22859, 1.22402, 1.22121, 1.21871, 1.21977, 1.23009, 1.22995, 1.23761, 1.37616, 1.24191, 1.24299, 1.25085, 1.25096, 1.45384, 1.33855, 1.26921, 0.0038448, 1.29965, 0.00407605, 1.46892, 1.31621, 1.35171, 1.34115, 1.34414, 1.37032, 1.35906, 1.35801, 1.35397, 1.3532, 1.35582, 1.35419, 1.35907, 1.36127, 1.36188, 1.36563, 1.37234, 1.37696, 1.40471, 1.40292, 1.39333, 1.39933, 1.41106, 1.4096, 1.41367, 1.44557, 1.44809, 0.00377168, 1.47162, 1.47048, 1.4643, 1.49714, 1.50403, 1.50966, 1.5168, 1.52575, 1.53443, 1.51449, 1.54159, 1.55749, 1.54446, 1.54384, 1.54278, 0.0036092, 1.70053, 1.55279, 1.54952, 1.55108, 1.53892, 1.53753, 1.52815, 1.5256, 1.52298, 1.51971, 1.50808, 1.50444, 1.50744, 1.50502, 1.5023, 1.50071, 1.49928, 1.49891, 1.50086, 1.49557, 1.49583, 1.49992, 1.48671, 1.4827, 1.48197, 1.4809, 1.47968, 1.4745, 1.47301, 1.47276, 1.47422, 1.47458, 1.47577, 1.47684, 1.47683, 1.46545, 1.46419, 1.46876, 1.47024, 1.46847, 1.4696, 1.46911, 1.46086, 1.4555, 1.45668, 1.45717, 1.45604, 1.45749, 1.45616, 1.45919, 1.4519, 1.4509, 1.44823, 1.45027, 1.45124, 1.44489, 1.45043, 1.44282, 1.4426, 1.44217, 1.44357, 1.44339, 1.44369, 1.44809, 1.45038, 1.45078, 1.4551, 1.45862, 1.46146, 1.46374, 1.46219, 1.46056, 1.45982, 1.46124, 1.4669, 1.46518, 1.47039, 1.47886, 1.48256, 1.48492, 1.51028, 1.4958, 1.4974, 1.50895, 1.50949, 1.51194, 1.5184, 1.52616, 1.52964, 1.52833, 1.53679, 1.53857, 1.53994, 1.54002, 1.54871, 1.55154, 1.56044, 1.56477, 1.56149, 1.56796, 1.56676, 1.56987, 1.57422, 1.58304, 1.58938, 1.58987, 1.59018, 1.59928, 1.5972, 1.74149
0.718973, 0.722092, 0.721632, 0.723668, 0.729499, 0.730669, 0.734284, 0.738644, 0.738469, 0.737877, 0.742337, 0.743938, 0.746298, 0.748936, 0.749935, 0.750956, 0.753035, 0.753902, 0.759462, 0.762483, 0.761665, 0.780126, 0.777084, 0.778985, 0.779676, 0.781413, 0.793468, 0.795102, 0.797014, 0.800666, 0.79968, 0.8173, 0.821071, 0.822029, 0.823355, 0.821678, 0.82106, 0.821805, 0.824912, 0.82839, 0.829816, 0.827108, 0.827763, 0.836021, 0.836331, 0.839029, 0.84017, 0.845567, 0.847354, 0.852435, 0.852745, 0.865388, 0.868473, 0.870119, 0.872124, 0.877563, 0.879146, 0.885915, 0.889658, 1.45228, 1.48191, 0.932462, 0.916916, 0.921751, 0.926531, 0.92928, 0.933442, 0.935199, 0.940523, 0.944462, 0.946307, 0.947218, 0.950306, 0.950369, 0.95769, 0.960919, 0.964806, 0.96873, 0.974195, 0.978067, 0.98082, 0.986801, 0.987871, 0.997859, 0.998721, 1.00101, 1.00656, 1.00792, 1.01425, 1.20555, 1.20615, 1.05435, 1.03427, 1.03682, 1.0395, 1.04536, 1.12722, 1.05274, 1.05448, 1.05654, 1.05992, 1.06155, 1.06834, 1.13002, 0.00421218, 1.07847, 1.11824, 1.09168, 1.20537, 1.12784, 1.11855, 1.11546, 1.13315, 1.12438, 1.12937, 1.21473, 1.25793, 1.16418, 1.14639, 1.14763, 1.14948, 1.15178, 1.15443, 1.15712, 1.19299, 1.17555, 1.18572, 1.19094, 1.19534, 1.21702, 1.21487, 1.20417, 0.00370596, 1.22686, 1.20832, 1.28987, 0.00354426, 1.30717, 1.23443, 0.00388164, 0.00376013, 1.25134, 1.25463, 1.26754, 1.26871, 0.00344681, 1.48447, 1.48507, 0.00369947, 1.34426, 1.33124, 1.33842, 1.3404, 1.34631, 1.34734, 1.34832, 1.34635, 1.35466, 1.35025, 1.35111, 1.3503, 1.38774, 1.36234, 1.36108, 1.39319, 1.39414, 1.38703, 1.39635, 1.40433, 1.40512, 1.4099, 1.41703, 1.41989, 1.41985, 1.52275, 1.46471, 1.46518, 1.48635, 1.49466, 1.50297, 1.51042, 0.00384633, 1.538, 1.53761, 1.53698, 1.53363, 1.54045, 1.54034, 1.5361, 1.53394, 1.53438, 1.53761, 1.56036, 1.54753, 1.52897, 1.52821, 1.52551, 1.51686, 1.51708, 1.51607, 1.50717, 1.50479, 1.50113, 1.50008, 1.50006, 1.49765, 1.49825, 1.49834, 1.49118, 1.49087, 1.48756, 1.48546, 1.48323, 1.48136, 1.47921, 1.46728, 1.46838, 1.46823, 1.46707, 1.46718, 1.46413, 1.46393, 1.4643, 1.46157, 1.46212, 1.46384, 1.45573, 1.45738, 1.45891, 1.46055, 1.45904, 1.45846, 1.4544, 1.45597, 1.45175, 1.45452, 1.44814, 1.44605, 1.44589, 1.44554, 1.44578, 1.43814, 1.43755, 1.43917, 1.43976, 1.44066, 1.43701, 1.43685, 1.431, 1.4352, 1.43844, 1.4396, 1.44235, 1.44254, 1.4509, 1.44972, 1.45424, 1.45396, 1.4534, 1.45371, 1.45243, 1.45379, 1.45299, 1.45545, 1.45996, 1.46472, 1.47001, 1.47268, 1.4789, 1.48076, 1.49173, 1.49159, 1.4987, 0.00338746, 1.51407, 1.51295, 1.53743, 1.52402, 1.52257, 1.52961, 1.53431, 1.53338, 1.5364, 1.53591, 1.53689, 1.54448, 1.54432, 1.54353, 1.54527, 1.56984, 1.55464, 1.8089, 1.5675, 1.5675, 1.57196, 1.57444, 1.57788, 1.58256, 1.58135, 1.58587
0.715142, 0.717478, 0.720832, 0.722283, 0.724248, 0.726446, 0.725332, 0.72637, 0.72787, 0.727967, 0.738235, 0.740525, 0.742226, 0.745156, 0.746002, 0.745804, 0.750783, 0.75546, 0.757161, 0.758434, 0.760642, 0.771876, 0.774424, 0.775491, 0.775855, 0.776917, 1.3752, 0.79419, 0.79627, 0.797044, 0.798164, 0.00363728, 0.812401, 0.817314, 0.817809, 0.818512, 0.816889, 0.815711, 0.817512, 0.817906, 0.825028, 0.826431, 0.827692, 0.826674, 0.829684, 0.830601, 0.82954, 0.00372731, 0.84634, 0.849177, 0.850375, 0.853068, 0.865177, 0.865066, 0.866409, 0.876839, 0.878843, 0.884753, 0.891428, 0.898414, 0.904806, 0.00388325, 0.920503, 0.92496, 0.931529, 0.932364, 0.934124, 0.935891, 0.937155, 0.938543, 0.939826, 0.9423, 0.943359, 0.944925, 0.94936, 0.95429, 0.954032, 0.960405, 0.964638, 1.04954, 0.970452, 0.977589, 0.980561, 0.98338, 0.98945, 0.989403, 0.99365, 0.993666, 0.996431, 0.999144, 1.16088, 1.16128, 1.21324, 1.21554, 1.21689, 1.03434, 1.07058, 1.04273, 1.0483, 1.04958, 1.05394, 1.05395, 1.05778, 1.05984, 1.0666, 1.07013, 1.07214, 1.17246, 1.11224, 1.10197, 1.1127, 1.10203, 1.16162, 1.11662, 1.11932, 1.11641, 1.11926, 1.11875, 1.12472, 0.00416753, 1.13453, 1.13845, 1.1402, 1.14032, 1.15026, 1.51872, 1.28663, 1.29352, 1.18367, 1.18524, 1.18801, 1.18588, 1.18722, 1.18797, 1.18805, 1.19535, 1.21691, 0.00344499, 1.21579, 1.22523, 1.22521, 1.2306, 1.37419, 0.00367816, 0.00344203, 0.0038714, 1.53753, 0.00384857, 1.33321, 1.33661, 1.33313, 0.00424845, 1.33132, 1.3325, 1.33298, 1.33571, 1.43641, 1.34323, 1.34601, 1.34846, 1.34794, 1.35351, 1.35699, 1.36137, 1.36355, 1.37127, 1.38798, 1.38591, 1.38996, 1.403, 1.40264, 1.41244, 1.41164, 1.41393, 1.42467, 1.429, 1.48335, 1.48622, 1.49514, 1.51037, 1.49264, 1.51821, 1.58485, 1.50674, 1.52805, 1.5338, 1.52488, 1.52516, 1.5342, 1.53002, 1.53171, 1.53347, 1.53184, 1.53229, 0.00347739, 1.51804, 1.5153, 1.51462, 1.51998, 1.50711, 1.50393, 1.50304, 1.50372, 1.50161, 1.49882, 1.49597, 1.49355, 1.49128, 1.48574, 1.48647, 1.48466, 1.48124, 1.47595, 1.47435, 1.46769, 1.46259, 1.46136, 1.46118, 1.45871, 1.45663, 1.45672, 1.45735, 1.45672, 1.45521, 1.46223, 1.46095, 1.45327, 1.45337, 1.45609, 1.45859, 1.45706, 1.45694, 1.45885, 1.4477, 1.49453, 1.44056, 1.4361, 1.43484, 1.43651, 1.43689, 1.43208, 1.43191, 1.43182, 1.43068, 1.43159, 1.43397, 1.42727, 1.42692, 1.42607, 1.42807, 1.42942, 1.43005, 1.43367, 1.4372, 1.44059, 1.44026, 1.44432, 1.44276, 1.44829, 1.44763, 1.43776, 1.44876, 1.4493, 1.45152, 1.45205, 1.46238, 1.50019, 1.47597, 1.47626, 1.47782, 1.48309, 1.49231, 1.50151, 1.50511, 1.50499, 1.51118, 1.51031, 1.51056, 1.51923, 1.51616, 1.52103, 1.52147, 1.521, 1.52299, 1.52191, 1.52871, 1.53363, 1.53088, 1.53693, 1.53887, 1.54749, 1.5511, 1.55251, 1.55252, 1.58283, 1.56154, 1.56299, 1.57221, 1.5682, 1.5721
0.710454, 0.704151, 0.70536, 0.706316, 0.707073, 0.721395, 0.722361, 0.724019, 0.724444, 0.725209, 0.731535, 0.73196, 0.736334, 0.736847, 0.737503, 0.735651, 0.733656, 0.740516, 0.743274, 0.743677, 0.760007, 0.767333, 0.769494, 0.776857, 0.777145, 0.778019, 0.78533, 0.78708, 0.787068, 0.78248, 0.786654, 0.78799, 0.790215, 0.790803, 0.793689, 0.804521, 0.802518, 0.804733, 0.805298, 0.815566, 0.818975, 0.82252, 0.822801, 0.824, 0.823411, 0.828876, 0.82718, 0.828677, 0.829819, 0.832551, 0.847372, 0.850936, 0.851062, 0.864309, 0.873929, 0.876974, 0.880415, 0.88637, 0.887791, 0.994444, 0.905772, 0.909624, 0.921991, 0.924195, 0.93017, 0.931839, 0.932095, 0.933448, 0.932492, 0.934989, 0.932661, 0.932419, 0.932483, 0.935813, 0.938334, 0.942553, 0.946129, 0.946893, 1.10494, 0.95413, 0.961974, 1.11191, 0.971512, 0.974583, 0.978034, 0.981794, 0.984602, 0.987266, 0.983691, 0.982269, 0.987409, 0.987266, 1.16786, 1.00176, 1.00324, 1.17819, 0.00373389, 1.18408, 0.00388462, 1.03644, 1.05823, 1.05362, 1.0515, 1.05225, 1.05444, 1.05971, 1.06019, 1.10953, 1.09148, 1.06862, 1.21109, 1.07953, 0.00405974, 1.11238, 1.5425, 1.54185, 1.10078, 1.10614, 1.11942, 1.11847, 1.1185, 1.12263, 1.12422, 1.12655, 1.12856, 1.15323, 1.17191, 0.00396379, 0.00377434, 1.17288, 1.17467, 1.17694, 1.17873, 1.18024, 1.18046, 1.18403, 1.18861, 1.19342, 1.1987, 1.30393, 1.21094, 1.30978, 0.00402971, 1.22679, 1.40192, 1.61659, 1.25822, 1.57204, 1.57256, 1.31266, 0.00374104, 1.35386, 1.43045, 1.32655, 1.32977, 1.32462, 1.32583, 1.38709, 1.33735, 1.3378, 1.34022, 1.35039, 1.34952, 1.35028, 1.35839, 1.36383, 1.37249, 1.37877, 1.39253, 1.40701, 1.39591, 1.40352, 1.42309, 1.43956, 1.42715, 1.4276, 1.42993, 1.4955, 0.00351849, 1.49279, 1.49059, 1.48814, 1.49302, 1.51298, 1.50851, 0.00369518, 0.00348065, 1.52912, 1.52774, 1.52641, 1.5271, 1.52719, 1.52674, 1.53214, 1.53183, 0.00390616, 1.51345, 1.51957, 1.50779, 1.50947, 1.50631, 1.5069, 1.50383, 1.50109, 1.4966, 1.49585, 1.48884, 1.48674, 1.48381, 1.48368, 1.48338, 1.48501, 1.47411, 1.46461, 1.45903, 1.45731, 1.45491, 1.45451, 1.44699, 1.44626, 1.45174, 1.44525, 1.45086, 1.45129, 1.45023, 1.45138, 1.45037, 1.44927, 1.4478, 1.44717, 1.44614, 1.44164, 1.43908, 1.43861, 1.43569, 1.43509, 1.43594, 1.436, 1.42637, 1.42463, 1.42724, 1.42692, 1.42733, 1.42748, 1.42798, 1.42952, 1.41994, 1.42366, 1.42333, 1.42225, 1.42029, 1.42653, 1.42927, 1.42674, 1.42813, 1.44107, 1.43958, 1.44481, 1.44747, 1.44761, 1.44758, 1.45469, 1.45477, 1.4809, 1.46794, 1.47178, 1.47197, 1.47795, 1.47644, 1.48302, 1.48675, 1.48621, 1.48985, 1.4915, 1.49806, 1.49831, 1.50249, 1.50687, 1.5076, 1.50651, 1.50982, 1.51651, 1.5151, 1.51751, 1.51736, 1.51339, 1.51496, 1.52362, 1.52527, 1.5278, 1.53741, 1.53406, 1.53803, 1.54391, 1.54134, 1.55231, 1.54987, 1.55583, 1.5621, 1.56457
0.706725, 0.705676, 0.706449, 0.707455, 0.708296, 0.704783, 0.695652, 0.732619, 0.00356418, 0.711472, 0.711806, 0.71774, 0.707984, 0.712487, 0.716534, 0.718833, 0.71913, 0.728781, 0.735554, 0.736244, 0.737405, 0.741253, 0.760461, 0.748902, 0.752391, 0.00371241, 0.765355, 0.765056, 0.765371, 0.776492, 0.782863, 0.783066, 0.787632, 0.789053, 0.789134, 0.789061, 0.790165, 0.789985, 0.79438, 0.800094, 0.801783, 0.814986, 0.81721, 0.819306, 0.820381, 0.824811, 0.827147, 0.828154, 0.831742, 0.833231, 0.833804, 0.846712, 0.858938, 0.861333, 0.861948, 0.862237, 0.878744, 0.880889, 0.885917, 0.892256, 0.00379543, 0.00354248, 1.35357, 0.00357327, 0.921655, 0.904604, 0.94392, 0.943923, 0.922235, 0.922535, 0.919281, 0.919931, 0.921062, 0.921479, 0.923046, 0.930039, 0.92951, 0.943004, 0.943287, 0.946699, 0.94371, 0.952217, 0.956612, 0.959922, 0.00335189, 0.975496, 0.978615, 0.974313, 0.975551, 0.978319, 0.98035, 0.982413, 0.986277, 0.988667, 1.20978, 0.00347395, 0.00352563, 1.08094, 1.01855, 1.01947, 1.13191, 1.03097, 1.03623, 1.03695, 1.03952, 1.16781, 1.04715, 1.04802, 1.05321, 1.06129, 1.06377, 1.06639, 1.07112, 1.07462, 1.08074, 1.08227, 1.0871, 1.09709, 1.10242, 1.10489, 1.31271, 1.10854, 1.11493, 1.11549, 1.11879, 1.12108, 1.21815, 0.00421803, 1.155, 1.15099, 1.36345, 0.00337402, 1.17318, 1.17344, 1.17414, 1.17484, 1.18184, 1.18367, 1.18603, 1.18861, 1.19449, 1.18987, 1.31076, 1.22786, 1.23189, 0.00377096, 1.25519, 1.25172, 1.25388, 1.28565, 1.28337, 1.28416, 1.33458, 1.31966, 1.32282, 1.32238, 1.32239, 1.32174, 1.33402, 1.33521, 1.33747, 1.34206, 1.34379, 1.34439, 1.34777, 1.35058, 1.35722, 1.36068, 1.39014, 1.40104, 1.38774, 1.39683, 1.39601, 1.54696, 1.5475, 1.50648, 1.47932, 1.47207, 0.00353662, 0.00383736, 1.49238, 1.49155, 1.47946, 1.64441, 1.64468, 1.52651, 0.00384538, 0.00355978, 1.52272, 1.52152, 1.52407, 1.52336, 1.52154, 1.53125, 1.52941, 1.54036, 0.00418997, 1.50753, 1.50422, 1.50162, 1.50238, 1.50191, 1.50043, 1.4975, 1.49546, 1.49271, 1.48863, 1.48749, 1.48801, 1.47987, 1.49203, 1.47599, 1.46624, 1.46593, 1.46093, 1.46024, 1.45469, 1.45446, 1.45166, 1.44927, 1.44541, 1.44481, 1.44856, 1.4497, 1.44858, 1.44466, 1.44702, 1.44265, 1.43681, 1.43618, 1.43708, 1.43367, 1.43488, 1.43279, 1.4317, 1.42831, 1.42658, 1.42683, 1.42493, 1.42353, 1.41955, 1.42197, 1.41751, 1.41693, 1.41788, 1.41627, 1.42174, 1.42008, 1.42005, 1.41705, 1.41854, 1.42102, 1.42748, 1.43088, 1.44093, 1.44036, 1.44496, 1.44418, 1.45073, 1.4497, 1.45592, 1.45737, 1.46188, 1.46177, 1.46696, 1.46575, 1.47341, 1.4822, 1.4834, 1.48317, 1.47962, 1.48427, 1.48356, 1.48473, 1.48869, 1.48767, 1.48988, 1.495, 1.49873, 1.49665, 1.49589, 1.50346, 1.50251, 1.5023, 1.50277, 1.50755, 1.50563, 1.5075, 1.51416, 1.51815, 1.51672, 1.52027, 1.52453, 1.55373, 1.53527, 1.53785, 1.53775, 1.54011, 1.5536, 1.54872
0.698377, 0.699358, 0.700049, 0.700105, 0.699641, 0.693126, 0.6871, 0.685711, 0.685435, 0.694812, 0.69599, 0.704295, 0.706729, 0.70958, 0.71454, 0.715577, 0.717285, 0.720147, 0.72606, 0.728688, 0.738385, 0.740211, 0.74377, 0.747027, 0.74999, 0.75174, 0.760436, 0.766664, 0.774556, 0.776681, 0.77816, 0.781384, 0.785637, 0.787289, 0.787553, 0.790079, 0.789698, 0.789442, 0.792492, 0.792721, 0.793326, 0.794718, 0.804138, 0.807215, 0.814631, 0.816418, 0.825811, 0.83279, 0.833215, 0.836628, 0.842595, 0.8434, 0.857181, 0.861233, 0.865146, 0.866042, 0.860617, 0.857435, 0.85393, 0.909171, 0.871002, 0.00338971, 0.898335, 1.03597, 0.909675, 0.00395556, 0.00370681, 0.968957, 0.00356121, 0.905587, 0.909743, 0.90601, 0.910989, 0.909421, 0.99781, 0.916072, 0.925843, 0.927375, 0.930458, 0.939392, 0.94073, 0.937979, 0.945694, 0.950418, 0.960301, 0.961204, 1.05877, 0.959509, 0.960153, 1.05458, 0.963397, 0.968829, 0.972524, 0.976487, 0.981111, 0.993876, 0.00355632, 0.992471, 1.00652, 1.1464, 1.14967, 1.01931, 1.02284, 1.02488, 1.02913, 1.03222, 1.0355, 1.03763, 1.04143, 1.04429, 1.05592, 1.05822, 1.0608, 1.06779, 1.07053, 1.0692, 0.00381122, 1.07371, 1.08516, 1.09083, 1.09341, 1.09685, 1.09831, 1.10528, 1.10557, 1.11542, 1.11862, 1.12068, 0.00397545, 1.14063, 1.14184, 1.23627, 1.15438, 1.15483, 1.16284, 1.24324, 0.00375287, 1.2909, 1.17623, 1.18219, 1.1864, 1.18956, 1.19246, 1.19447, 1.20914, 1.21281, 0.003855, 1.22765, 1.2459, 1.28189, 0.00358687, 1.27849, 0.00389116, 1.3036, 1.32975, 1.31885, 1.31587, 1.3179, 1.31829, 1.32953, 0.00353662, 1.34233, 1.34539, 1.34562, 1.34698, 1.34936, 1.35462, 1.35575, 1.36758, 1.38115, 1.38346, 1.40325, 1.40539, 1.41237, 1.40525, 1.40366, 1.44315, 1.44507, 0.00369118, 1.47123, 0.00390913, 1.48115, 0.00368376, 1.50252, 1.89011, 1.66486, 0.00367183, 1.53116, 0.00366492, 1.51691, 1.51663, 1.52362, 1.5246, 1.53325, 1.53229, 1.53164, 0.0035379, 1.51566, 1.50521, 1.49797, 1.49782, 1.50056, 1.49786, 1.49777, 1.49136, 1.48888, 1.48749, 1.48695, 1.47866, 1.47631, 1.46568, 1.46555, 1.46579, 1.46087, 1.4588, 1.45541, 1.45816, 1.45149, 1.45087, 1.45029, 1.44846, 1.44484, 1.44226, 1.44002, 1.4408, 1.43928, 1.43823, 1.43653, 1.43723, 1.43664, 1.43043, 1.42853, 1.43311, 1.43181, 1.4295, 1.42615, 1.42437, 1.41775, 1.4177, 1.41782, 1.41695, 1.41904, 1.41516, 1.41612, 1.41548, 1.41838, 1.41962, 1.4208, 1.42226, 1.42181, 1.42582, 1.43298, 1.43412, 1.44065, 1.43983, 1.44269, 1.44384, 1.44344, 1.44717, 1.44703, 1.45028, 1.44962, 1.4515, 1.45408, 1.46342, 1.46536, 1.47501, 1.47346, 1.47899, 1.47944, 1.4696, 1.47408, 1.47411, 1.47236, 1.47213, 1.4746, 1.47809, 1.48144, 1.49856, 1.48771, 0.00349235, 1.48759, 1.49007, 1.48807, 1.49024, 1.49163, 1.49954, 1.51303, 1.50591, 1.51006, 1.50972, 1.52107, 1.52236, 1.52024, 1.52692, 1.52522, 1.52591, 1.51706, 1.52385, 1.53788
0.697194, 0.698456, 0.692932, 0.694007, 0.684402, 0.685055, 0.687512, 0.687319, 0.685501, 0.685159, 0.684241, 0.703505, 0.708784, 0.710522, 0.711739, 0.715567, 0.719668, 0.720797, 0.726245, 0.72748, 0.728302, 0.73668, 0.738998, 0.743757, 0.744147, 0.752441, 0.00398959, 0.765724, 0.76969, 0.769883, 0.773428, 0.77344, 0.777046, 0.778215, 0.786513, 0.78649, 0.788427, 0.790418, 0.791429, 0.797674, 0.796981, 0.798953, 0.799224, 0.804536, 0.811747, 0.818556, 0.824089, 0.82497, 0.825726, 0.836183, 0.837867, 0.840276, 0.840454, 0.831407, 0.875888, 0.850233, 0.850817, 0.853738, 0.851274, 0.853257, 0.85389, 0.857184, 0.857479, 0.860017, 0.00392963, 0.00328871, 0.881292, 0.8844, 0.891802, 0.891502, 0.891958, 0.891857, 0.895002, 0.901362, 0.901069, 0.901509, 0.901791, 0.902461, 0.90848, 0.919389, 1.09442, 0.924824, 0.922417, 0.924607, 0.930345, 0.00339654, 0.945926, 1.09822, 0.944617, 0.948139, 0.952932, 0.953453, 0.95453, 0.967025, 0.973553, 0.974926, 0.973604, 0.979293, 0.98396, 0.990635, 0.00326771, 0.00373349, 1.00503, 1.01153, 1.01325, 1.02717, 1.02763, 1.02827, 1.03563, 1.03872, 1.03841, 1.22536, 1.05692, 1.06095, 1.06051, 1.06154, 1.06305, 1.06284, 1.06316, 1.10452, 1.10536, 1.08323, 1.10627, 1.10716, 1.09917, 0.00357609, 1.11188, 1.1097, 1.11064, 1.11165, 1.14558, 1.13792, 1.14278, 1.14707, 1.14492, 1.14653, 1.15635, 0.00412093, 1.2432, 0.00311182, 1.17383, 1.18006, 1.18952, 1.1891, 1.19404, 1.19997, 0.0036795, 1.24985, 1.26138, 1.35661, 1.26558, 0.00381208, 1.29563, 0.00354389, 1.30567, 1.30542, 1.30975, 1.31288, 1.31701, 1.31911, 1.31912, 1.32391, 1.33435, 1.33651, 1.33775, 1.36542, 1.34534, 1.37166, 1.37087, 1.38242, 1.37307, 1.3989, 1.40612, 1.41001, 1.39433, 1.4003, 1.43173, 1.43284, 1.41943, 0.00363855, 0.00404451, 0.00352568, 1.47864, 1.48768, 1.48907, 1.49737, 1.48576, 1.49351, 0.00329442, 1.50587, 1.50518, 0.00395687, 1.52979, 0.00395652, 1.52746, 1.52667, 1.5262, 1.9448, 1.50426, 1.49792, 1.49459, 1.49672, 1.49826, 1.49736, 1.49227, 1.48817, 1.48594, 1.48038, 1.47613, 1.47396, 1.46611, 1.46732, 1.46047, 1.45889, 1.4565, 1.4565, 1.45111, 1.44645, 1.44509, 1.44346, 1.44378, 1.43887, 1.43909, 1.43954, 1.43795, 1.43724, 1.43377, 1.43364, 1.43594, 1.43111, 1.43024, 1.42436, 1.42822, 1.43185, 1.43323, 1.42712, 1.42321, 1.41788, 1.41712, 1.41644, 1.41676, 1.41683, 1.41786, 1.41536, 1.41831, 1.42114, 1.42226, 1.42456, 1.42466, 1.43405, 1.43904, 1.43709, 1.43829, 1.44034, 1.43331, 1.43136, 1.43295, 1.43337, 1.43291, 1.43527, 1.43737, 1.44709, 1.4454, 1.44697, 1.4468, 1.45452, 1.45939, 1.46035, 1.45928, 1.46514, 1.46392, 1.45687, 1.46309, 1.50053, 1.46537, 1.46692, 1.46557, 1.46447, 1.46711, 1.46482, 1.46864, 1.47148, 1.47581, 1.47571, 1.48169, 1.48515, 1.4852, 1.49027, 1.49471, 1.5015, 1.49937, 1.49771, 1.50741, 1.59519, 1.51059, 1.5131, 1.51455, 1.51654, 1.52255, 1.52424
0.00400366, 0.689073, 0.68716, 0.685701, 0.682955, 0.681959, 0.679905, 0.680679, 0.680987, 0.683025, 0.68427, 0.686188, 0.701326, 0.70327, 0.705892, 0.706407, 0.717798, 0.722687, 0.724814, 0.728867, 0.729139, 0.73108, 0.733655, 0.73869, 0.742627, 0.746192, 0.760557, 0.761707, 0.769996, 0.77289, 0.772206, 0.773118, 0.774075, 0.776064, 0.778352, 0.779981, 0.787419, 0.791042, 0.791919, 0.79675, 0.798582, 0.801345, 0.808951, 0.810757, 0.811639, 0.811067, 0.808942, 0.819955, 0.821914, 0.822527, 0.832788, 0.833559, 0.825204, 0.828255, 0.828903, 0.829272, 0.836203, 0.84109, 0.844891, 0.846277, 0.847165, 0.849328, 0.851264, 0.851253, 0.851615, 0.865166, 0.866922, 0.873625, 0.877869, 0.880979, 0.883957, 0.884279, 0.885442, 0.886988, 0.889105, 0.888414, 0.894669, 0.894445, 0.895248, 0.899671, 0.903395, 0.907447, 0.921366, 0.923176, 0.922431, 0.923245, 0.928867, 0.935509, 0.93259, 0.9346, 0.936194, 0.943758, 0.94805, 0.950319, 0.958025, 0.959994, 0.00401332, 1.14032, 0.00371186, 1.07138, 0.00425122, 0.988549, 1.16568, 1.17834, 1.18419, 1.00166, 1.19529, 1.19755, 1.0219, 1.03321, 1.02908, 1.03217, 1.03574, 1.04206, 1.04759, 1.05297, 1.05629, 1.05755, 1.05954, 1.05815, 1.05922, 1.06155, 1.06314, 1.10573, 1.10683, 1.09138, 1.09749, 1.10248, 1.10111, 1.10018, 1.15394, 1.11312, 1.14753, 1.13149, 1.14593, 1.13619, 1.14096, 1.43966, 1.15561, 1.15821, 1.21343, 1.17498, 1.17468, 1.26006, 1.18465, 1.18943, 1.19317, 1.20753, 1.21425, 1.22281, 1.26506, 0.00417127, 1.29245, 1.29718, 1.41999, 1.41783, 1.3075, 1.31043, 1.31416, 1.31133, 1.31705, 1.32153, 1.32186, 1.32692, 1.33152, 1.33528, 1.37421, 1.34772, 1.35068, 1.35024, 1.35257, 1.36634, 1.36661, 1.44652, 1.4058, 1.40825, 1.38967, 1.39674, 1.42598, 1.4376, 1.52134, 1.42637, 0.00372464, 1.4748, 0.0038737, 1.49189, 1.506, 1.50594, 0.00362839, 0.00375441, 0.00343933, 0.00380809, 1.52595, 1.52872, 0.00369141, 1.52784, 1.52707, 1.52503, 0.00380854, 1.52602, 1.49647, 1.49509, 1.4924, 1.49206, 1.49005, 1.48787, 1.4816, 1.47861, 1.47478, 1.46938, 1.47024, 1.46473, 1.45735, 1.45633, 1.45407, 1.45813, 1.44026, 1.44005, 1.44088, 1.44173, 1.44042, 1.44097, 1.43751, 1.4348, 1.43959, 1.43543, 1.43436, 1.43197, 1.43218, 1.42696, 1.42506, 1.42674, 1.42524, 1.42295, 1.42664, 1.42736, 1.4247, 1.42034, 1.42271, 1.41803, 1.41913, 1.41963, 1.41858, 1.41938, 1.41747, 1.42196, 1.42251, 1.42363, 1.42614, 1.42714, 1.43267, 1.46151, 1.42686, 1.43253, 1.43219, 1.42822, 1.42791, 1.42468, 1.42667, 1.42189, 1.41798, 1.4307, 1.43187, 1.43666, 1.44261, 1.44337, 0.0037975, 1.44301, 1.44065, 1.44327, 1.45043, 1.4501, 1.44825, 1.45122, 1.45006, 1.45423, 1.45797, 1.45409, 1.46124, 1.46049, 1.46088, 1.46429, 1.46958, 1.46887, 1.46713, 1.47463, 1.48533, 1.48201, 1.4816, 1.48322, 1.49164, 1.49161, 1.48774, 1.49984, 1.49914, 1.5022, 1.50979, 1.50925, 1.51433, 1.51815
0.673522, 0.00389003, 0.00387757, 0.678091, 0.00409463, 0.66312, 0.672224, 0.672495, 0.676607, 0.677018, 0.683065, 0.685643, 0.691681, 0.693605, 0.706569, 0.00383441, 0.706054, 0.00412277, 0.723875, 0.728855, 0.731678, 0.734346, 0.739144, 0.741413, 0.749338, 0.752994, 0.756458, 0.75976, 0.765053, 0.764523, 0.771142, 0.772556, 0.773427, 0.776351, 0.779127, 0.783601, 0.786848, 0.789706, 0.791186, 0.80379, 0.805883, 0.806147, 0.807, 0.808955, 0.810037, 0.807973, 0.810749, 0.810749, 0.812599, 0.815096, 0.823844, 0.823131, 0.82554, 0.82578, 0.827189, 0.826484, 0.831602, 0.00370339, 0.835949, 0.836492, 0.838806, 0.840416, 0.843974, 0.844417, 0.848229, 0.853648, 0.85405, 0.00332063, 1.01339, 1.01437, 0.00332262, 0.868153, 0.870763, 0.873944, 0.873359, 0.872296, 0.874937, 0.880971, 0.882531, 0.88319, 0.884234, 0.894007, 0.908458, 0.00413624, 0.908739, 0.913839, 0.913916, 0.916624, 0.921468, 0.922798, 0.924974, 0.926834, 0.931865, 0.939609, 0.940453, 0.00374269, 0.948878, 0.949788, 0.957658, 0.960441, 0.963883, 0.968752, 0.978428, 0.981732, 0.982239, 0.99184, 0.00378975, 1.13989, 1.15413, 1.16034, 1.01918, 1.02182, 1.02426, 1.02677, 1.02839, 1.04053, 1.04057, 1.04265, 1.04489, 1.05124, 1.05114, 1.05432, 1.05523, 1.06062, 1.06597, 1.07072, 1.07962, 1.08067, 1.09453, 1.09485, 1.09303, 1.20418, 1.204, 1.13679, 1.14269, 1.12236, 1.13306, 1.13425, 1.15134, 1.16427, 1.14731, 1.2407, 1.24439, 0.0035973, 1.17026, 0.00346523, 1.18812, 0.00332629, 1.20547, 0.00355731, 1.22946, 1.24697, 1.24998, 1.28843, 1.29914, 1.53656, 1.31238, 1.32245, 1.30666, 1.3072, 1.31253, 1.31513, 1.31895, 1.32004, 1.32327, 1.32707, 1.35758, 1.33987, 1.34688, 1.34806, 1.35772, 1.35794, 1.36146, 1.36207, 1.37545, 1.38252, 1.38553, 1.40548, 1.41702, 1.41907, 1.40951, 1.44388, 1.42213, 1.44055, 0.003682, 0.00371202, 1.54084, 0.0037692, 1.50334, 1.50333, 1.49881, 1.52658, 1.50127, 1.49616, 1.51812, 0.0034863, 1.53733, 1.52316, 1.51999, 1.52119, 0.00440765, 1.49278, 1.49286, 1.48932, 1.48806, 1.48933, 1.47974, 1.47476, 1.47403, 1.46442, 1.46372, 1.45882, 1.45802, 1.4526, 1.45059, 1.44733, 1.44624, 1.43831, 1.43842, 1.44124, 1.44058, 1.43823, 1.43804, 1.43645, 1.43674, 1.43595, 1.43038, 1.42923, 1.42408, 1.42164, 1.42663, 1.42819, 1.41949, 1.4239, 1.42422, 1.42574, 1.42296, 1.42398, 1.42338, 1.42218, 1.421, 1.42027, 1.41384, 1.4157, 1.42087, 1.42035, 1.42032, 1.41829, 1.4166, 1.41727, 1.41683, 1.41609, 1.41238, 1.41255, 1.41239, 1.41272, 1.41292, 1.41495, 1.41689, 1.41709, 1.41669, 1.42164, 1.42075, 1.42208, 1.42511, 1.4303, 1.42872, 1.43422, 1.43503, 1.43536, 1.43669, 1.43732, 1.43174, 1.43396, 1.43086, 1.44063, 1.45064, 1.44827, 1.44808, 1.4493, 1.4492, 1.45394, 1.45528, 1.4554, 1.46033, 1.46369, 1.46284, 1.47498, 1.47634, 1.47838, 1.48309, 1.48267, 1.48342, 1.48692, 1.49384, 1.49667, 1.49864, 1.50868, 1.50652, 1.51362
0.00374274, 0.652293, 0.654757, 0.654329, 0.655228, 0.65447, 0.653956, 0.665506, 0.668557, 0.668997, 0.669631, 0.669827, 0.00416186, 0.693903, 0.695604, 0.696147, 0.703196, 0.721492, 0.00364161, 0.00388273, 0.00385674, 0.74218, 0.746149, 0.747598, 0.750046, 0.75852, 0.753901, 0.756123, 0.756075, 0.757644, 0.759534, 0.773872, 0.774807, 0.777343, 0.781374, 0.786622, 0.787039, 0.79366, 0.800708, 0.800552, 0.799003, 0.793379, 0.800506, 0.803375, 0.804152, 0.806012, 0.804283, 0.803151, 0.804183, 0.808838, 0.810885, 0.802293, 0.800882, 0.801806, 0.814332, 0.808436, 0.810343, 0.810322, 0.824939, 0.827104, 0.831062, 0.828963, 0.829815, 0.827505, 0.829751, 0.00408889, 0.00365522, 0.84711, 0.839489, 0.834994, 0.842182, 0.846845, 0.848804, 0.851705, 1.23345, 0.869242, 0.870367, 0.871389, 0.87919, 0.881185, 0.883697, 0.879278, 0.881193, 0.888623, 0.892936, 0.891925, 0.898333, 0.907836, 0.906345, 0.909548, 0.911185, 0.914628, 0.921997, 0.922382, 0.926228, 0.925671, 0.936584, 0.938722, 0.946079, 0.946536, 0.950491, 0.952948, 0.96292, 0.960612, 0.971326, 0.972046, 0.978423, 0.981279, 0.00390237, 0.00407915, 1.26064, 1.01035, 1.0149, 1.01498, 1.02195, 1.02223, 0.00343597, 1.03471, 1.04041, 1.03938, 1.03993, 1.04667, 1.04915, 1.05375, 1.05985, 1.06009, 1.06435, 1.07114, 1.07159, 1.08185, 1.08189, 1.08504, 1.08732, 1.09045, 1.09611, 1.13753, 1.13838, 1.11831, 1.12273, 1.13015, 1.13668, 1.13867, 1.14311, 1.15029, 1.16055, 1.16185, 0.00343982, 0.0039913, 1.19149, 1.51205, 0.00365509, 1.22684, 0.00366444, 1.25553, 1.29675, 1.32135, 0.00329855, 1.30929, 1.33286, 1.34064, 1.30525, 1.30481, 1.30572, 1.30801, 0.00371815, 1.33476, 1.32464, 1.32645, 1.32644, 1.34401, 1.4433, 1.34075, 1.36592, 1.35656, 1.37168, 1.38438, 1.38985, 1.38885, 1.3856, 0.00351759, 0.00380081, 1.41359, 0.00372435, 1.52039, 0.00363885, 0.00378769, 1.45431, 1.46422, 1.46047, 1.46059, 0.00407845, 1.49135, 1.49868, 1.4728, 1.47442, 1.50272, 0.0038979, 0.00410531, 1.51613, 1.5158, 1.51072, 1.50772, 0.00356493, 1.49521, 1.49166, 1.49173, 1.48217, 1.47677, 1.47312, 1.46595, 1.46469, 1.45801, 1.45623, 1.45524, 1.45041, 1.44566, 1.44528, 1.44676, 1.43874, 1.4409, 1.4379, 1.43677, 1.43356, 1.43313, 1.43633, 1.43412, 1.43004, 1.43067, 1.43038, 1.4283, 1.42769, 1.42794, 1.42893, 1.43265, 1.42981, 1.43026, 1.42957, 1.4267, 1.42303, 1.4226, 1.42009, 1.41753, 1.41529, 1.41358, 1.41323, 1.4133, 1.40887, 1.41288, 1.39766, 1.39866, 1.40364, 1.40849, 1.40822, 1.40468, 1.40329, 1.40438, 1.40348, 1.40581, 1.40843, 1.4075, 1.41109, 1.40848, 1.4122, 1.41565, 1.41605, 1.4158, 1.41293, 1.44195, 1.42017, 1.56741, 1.4199, 1.42001, 1.42407, 1.42315, 1.42666, 1.4296, 1.43092, 1.43143, 1.43727, 1.43179, 1.44025, 1.43956, 1.43984, 1.44829, 1.44651, 1.53307, 1.46095, 1.46409, 1.472, 1.46997, 1.46977, 1.47559, 1.47814, 1.48012, 1.47989, 1.48833, 1.4907, 1.49527, 0.00389482, 1.51595
0.649049, 0.65103, 0.651367, 0.651919, 0.652712, 0.653363, 0.654008, 0.653908, 0.658689, 0.660101, 0.6669, 0.66886, 0.670061, 0.00346071, 0.690585, 0.00369826, 0.00380326, 0.00368684, 0.00394144, 0.00400917, 0.00369655, 0.742551, 0.744221, 0.74533, 0.745196, 0.753017, 0.753157, 0.754001, 0.752149, 0.744341, 0.987124, 0.767083, 0.767383, 0.769819, 0.767758, 0.76733, 0.93976, 0.00383495, 0.00376236, 0.00369497, 0.790457, 0.787512, 0.788816, 0.786797, 0.786952, 0.789269, 0.00351553, 0.0036696, 0.793507, 0.794194, 0.796586, 0.798, 0.798463, 0.800461, 0.800338, 0.798979, 0.798104, 0.943347, 0.792789, 0.793729, 0.00402298, 0.0036277, 0.81815, 0.00363353, 0.818131, 0.817661, 0.816359, 0.960657, 0.00390307, 0.00376834, 0.00351165, 0.00355563, 0.00399504, 0.843414, 0.846162, 0.848699, 0.852793, 0.855689, 0.856431, 0.00369968, 0.00401476, 0.00380566, 1.00883, 0.00395198, 0.882446, 0.888069, 0.889708, 0.891234, 0.892464, 0.898109, 0.899456, 0.907597, 0.910434, 0.911969, 0.91622, 0.925196, 0.925578, 0.926755, 0.932536, 0.930936, 0.933429, 0.944259, 0.00348149, 0.953034, 0.954584, 0.954068, 0.961462, 0.968683, 0.988346, 0.00397816, 0.984863, 0.00378236, 0.996528, 1.00426, 1.00661, 0.00334268, 1.02909, 1.02723, 1.03216, 1.0351, 1.03748, 1.0394, 1.04207, 1.04947, 1.04976, 1.05579, 1.05707, 1.05904, 1.06212, 1.06557, 1.07226, 1.07088, 1.07241, 1.08839, 1.08814, 1.09478, 1.21502, 1.1304, 1.1168, 1.12249, 1.12379, 1.13264, 1.13296, 1.13448, 1.16472, 1.158, 1.16111, 1.16903, 1.19777, 0.00378728, 1.20414, 1.2036, 1.31855, 1.32293, 1.2403, 1.24698, 1.38141, 1.26707, 1.30184, 1.30666, 1.31715, 1.29379, 1.29522, 1.29932, 1.29805, 1.29865, 1.3096, 1.31167, 1.31022, 1.3131, 1.44833, 1.34047, 1.3382, 0.00332024, 1.35798, 1.36707, 1.36636, 1.36742, 1.37709, 0.00402833, 1.38447, 1.42013, 1.41935, 1.41385, 1.42439, 1.42277, 1.54129, 1.47291, 1.47917, 1.47053, 1.45727, 1.45739, 0.00362818, 1.46582, 1.46747, 1.46879, 1.48213, 0.00341052, 0.00370383, 1.52141, 1.50162, 1.50547, 1.50294, 1.50186, 1.495, 1.49308, 1.48605, 1.48152, 1.4786, 1.46784, 1.465, 1.45821, 1.45698, 1.45361, 1.4507, 1.44655, 1.44809, 1.44222, 1.43737, 1.43519, 1.43344, 1.43114, 1.43575, 1.43317, 1.42939, 1.42847, 1.43271, 1.43023, 1.43638, 1.43073, 1.43062, 1.43336, 1.43279, 1.43339, 1.4365, 1.43235, 1.42512, 1.42445, 1.4136, 1.41202, 1.41376, 1.40931, 1.40716, 1.41307, 1.40257, 1.40393, 1.40084, 1.3945, 1.39247, 1.39405, 1.3976, 1.39767, 1.40152, 1.3968, 1.40214, 1.4017, 1.39333, 1.39764, 1.3973, 1.39635, 1.39732, 1.39712, 1.40079, 1.40603, 1.40601, 1.40159, 1.40187, 1.40334, 1.40716, 1.40575, 1.4131, 1.4131, 1.41071, 1.41335, 1.41266, 1.5746, 1.41922, 1.42128, 1.42656, 1.42703, 1.42972, 1.42753, 1.42928, 1.43874, 1.44472, 1.44563, 1.44778, 1.4536, 1.47816, 1.47555, 1.45815, 0.00379991, 1.47262, 1.47575, 1.47793, 1.48164, 1.48034, 1.48172, 0.00372083, 1.49791
0.636891, 0.645925, 0.646059, 0.647288, 0.648684, 0.638687, 0.640427, 0.654444, 0.657117, 0.660583, 0.667769, 0.667445, 0.674239, 0.00370336, 0.00390131, 0.701025, 0.711666, 0.721556, 0.720228, 0.724459, 0.729434, 0.728883, 0.730738, 0.727059, 0.729481, 0.733227, 0.737081, 0.737875, 0.738847, 0.744896, 0.746229, 0.742349, 0.763194, 0.762282, 0.763697, 0.764566, 0.764659, 0.768051, 0.768373, 0.769921, 0.763448, 0.925555, 0.773006, 0.776174, 0.777541, 0.773202, 0.772064, 0.776497, 0.77273, 0.773102, 0.77561, 0.785454, 0.788119, 0.790608, 0.792537, 0.792232, 0.792653, 0.791683, 0.791203, 0.77806, 0.00351464, 0.794276, 0.00376115, 0.00419196, 0.00337673, 0.808423, 0.00365173, 1.20141, 1.20015, 0.812755, 0.815728, 0.819277, 0.824528, 0.821157, 0.827556, 0.00421567, 0.842732, 0.840219, 0.00378159, 0.840433, 0.00340863, 0.850443, 0.0033529, 0.875273, 0.867703, 0.871183, 0.877318, 0.887069, 0.887229, 0.893845, 0.896607, 0.897479, 0.896938, 0.899739, 0.901991, 0.90611, 0.913646, 0.915923, 0.918403, 0.920757, 0.931977, 0.933312, 0.937402, 0.9405, 0.944891, 0.94958, 0.950752, 0.959723, 0.963426, 0.963514, 0.972859, 0.975489, 0.00378673, 0.998141, 0.993855, 1.00153, 0.00355985, 1.02032, 1.02282, 1.02723, 1.0322, 1.03422, 1.03601, 1.04281, 1.04277, 1.04601, 1.04957, 1.05162, 1.05545, 1.06253, 1.06499, 1.06703, 1.06827, 1.0705, 1.07273, 1.11992, 0.00369947, 0.00399589, 1.12248, 1.11517, 1.11949, 1.12697, 1.13222, 1.13322, 1.13551, 1.15425, 1.15707, 1.16497, 1.26363, 1.20605, 1.20637, 1.18863, 1.19926, 1.31187, 1.31276, 1.23459, 0.00353021, 1.35124, 1.35349, 1.2787, 1.28225, 1.28825, 0.00355984, 1.28494, 1.28552, 1.29067, 1.28853, 1.29131, 1.29868, 1.30907, 1.31991, 1.31659, 0.00369348, 1.31638, 0.00376205, 1.35115, 1.36114, 1.35615, 1.44067, 1.4409, 1.38632, 1.39247, 1.48271, 1.41282, 0.0039857, 1.41817, 1.41868, 1.4275, 1.43311, 1.43492, 0.00394437, 1.44733, 1.44781, 0.00389466, 0.00375541, 1.47777, 0.0039442, 1.48089, 0.00368876, 1.51048, 0.00369815, 1.49094, 0.00377843, 1.50029, 1.4998, 1.4959, 1.49626, 1.48449, 1.47918, 1.47121, 1.46716, 1.45837, 1.45646, 1.45414, 1.44795, 1.4419, 1.4395, 1.43963, 1.43742, 1.43398, 1.43353, 1.43216, 1.43322, 1.4401, 1.43875, 1.43975, 1.44026, 1.43621, 1.43698, 1.43699, 1.43702, 1.43596, 1.43215, 1.42675, 1.42489, 1.42607, 1.42086, 1.41909, 1.41263, 1.41082, 1.40876, 1.40431, 1.4016, 1.39752, 1.39823, 1.39483, 1.38877, 1.38958, 1.38948, 1.39064, 1.39008, 1.39119, 1.38926, 1.38808, 1.38569, 1.38603, 1.38652, 1.38551, 1.38525, 1.38783, 1.38777, 1.38932, 1.38971, 1.3926, 1.39444, 1.39883, 1.39676, 1.39353, 1.39857, 1.39649, 1.39668, 1.39809, 1.40567, 1.40402, 1.40507, 1.40547, 1.40542, 1.41539, 1.41728, 1.42307, 1.4228, 1.42799, 1.42795, 1.42996, 1.43027, 0.00375079, 1.44066, 1.44374, 1.44506, 1.4445, 1.44903, 1.45055, 1.45088, 1.4644, 1.45931, 1.47047, 1.47501, 1.47435, 1.48398, 1.48233
0.634983, 0.635261, 0.635785, 0.635666, 0.636148, 0.633774, 0.632593, 0.641395, 0.64227, 0.00399143, 0.662696, 0.00360365, 0.686374, 0.687419, 0.687936, 0.696612, 0.69586, 0.718767, 0.719828, 0.72109, 0.716129, 0.718944, 0.718597, 0.726489, 0.72675, 0.722773, 0.733111, 0.732364, 0.731864, 0.732859, 0.738779, 0.0033594, 0.00417464, 0.00362367, 0.746199, 0.760909, 0.761016, 0.762781, 0.762555, 0.755378, 0.75128, 0.755964, 0.757685, 0.758993, 0.763726, 0.764912, 0.767807, 0.769522, 0.77104, 0.772032, 0.771948, 0.776145, 0.777704, 0.777724, 0.780648, 0.778143, 0.781532, 0.781959, 0.777158, 0.77761, 0.776046, 0.773595, 0.762921, 0.00376161, 0.780391, 0.791738, 0.792567, 0.798359, 0.794994, 0.799229, 0.804969, 0.804066, 0.00376904, 0.815657, 0.82054, 0.823955, 0.827865, 0.824031, 0.825203, 0.834012, 0.981729, 0.00356127, 0.847534, 0.844313, 0.850746, 0.854693, 0.859285, 0.872192, 0.876643, 0.880133, 0.87939, 0.882202, 0.887906, 0.885054, 0.889317, 0.895756, 0.897648, 0.899753, 0.901255, 0.906638, 0.906809, 0.920545, 0.918789, 0.922342, 0.928468, 0.937304, 0.937723, 0.944709, 0.953189, 0.959301, 0.961511, 0.963125, 0.964758, 1.16832, 0.976579, 0.00362853, 1.00216, 0.00368052, 0.0040478, 1.01495, 1.01929, 1.02167, 1.02275, 1.02692, 1.03015, 1.0327, 1.03667, 1.04413, 1.05082, 1.05285, 1.05768, 1.06115, 1.06404, 1.06894, 1.07197, 1.0729, 1.07534, 1.11456, 1.09865, 1.10547, 1.10723, 1.12014, 1.14374, 1.12807, 1.13137, 1.14378, 1.16827, 1.1629, 1.26546, 1.16995, 1.17767, 1.18144, 1.18761, 1.19178, 1.19327, 1.22673, 0.00393035, 0.0039265, 1.23491, 1.23701, 1.24085, 1.24611, 1.27977, 0.00369186, 1.27599, 1.27688, 1.46273, 1.29612, 1.30013, 1.30124, 1.30543, 1.30452, 1.31255, 1.31396, 1.31656, 1.48571, 1.35809, 1.35179, 1.35605, 1.3641, 1.36408, 1.3814, 1.40621, 0.00350507, 1.44009, 1.42238, 1.41589, 1.41391, 1.42626, 1.49383, 1.49538, 0.00327523, 0.00358907, 0.00375592, 0.00362521, 0.00357373, 1.4637, 1.47432, 1.47837, 0.00405792, 1.4799, 1.4782, 1.48969, 1.48802, 1.48822, 1.48987, 1.49183, 1.49199, 1.47714, 1.47389, 1.46684, 1.46065, 1.45736, 1.45424, 1.45059, 1.46899, 1.43615, 1.43677, 1.43941, 1.43969, 1.4361, 1.44029, 1.43775, 1.43769, 1.43977, 1.43909, 1.44206, 1.44306, 1.44912, 1.42652, 1.42558, 1.42509, 1.42705, 1.42741, 1.4182, 1.41824, 1.40857, 1.4054, 1.4046, 1.40509, 1.39699, 1.39653, 1.39119, 1.39166, 1.38452, 1.38294, 1.38243, 1.38145, 1.38168, 1.38073, 1.37702, 1.37601, 1.37753, 1.37753, 1.37755, 1.37781, 1.37686, 1.37944, 1.38188, 1.38327, 1.38232, 1.37892, 1.38026, 1.38363, 1.3837, 1.38449, 1.37872, 1.37797, 1.38587, 1.38457, 1.38517, 1.39238, 1.39275, 1.3912, 1.39774, 1.40037, 1.40037, 1.42916, 1.40632, 1.40367, 1.41239, 1.41635, 1.41591, 1.41736, 1.41973, 1.42384, 1.4313, 1.43184, 1.43657, 1.44157, 1.44065, 1.44247, 1.45013, 1.45518, 1.46076, 1.46218, 1.46219, 1.46786, 1.47005, 1.47451
0.621, 0.62147, 0.621461, 0.632052, 0.633076, 0.636099, 0.639738, 0.643006, 0.00374348, 0.656514, 0.675151, 0.676395, 0.6775, 0.684376, 0.685487, 0.695298, 0.696537, 0.696794, 0.700678, 0.701551, 0.698477, 0.712697, 0.713039, 0.703884, 0.701402, 0.810658, 0.705691, 0.707728, 0.725199, 0.725187, 0.00376611, 0.718552, 0.720492, 0.88803, 0.922403, 0.732933, 0.743211, 0.742595, 0.744419, 0.746032, 0.747517, 0.750339, 0.750885, 0.756574, 0.75699, 0.758659, 0.757626, 0.760967, 0.766267, 0.762046, 0.762501, 0.762729, 0.761471, 0.759146, 0.762578, 0.774226, 0.774199, 0.775282, 0.765062, 0.769321, 0.764909, 0.761967, 0.7636, 0.763311, 0.761511, 0.785632, 0.786932, 0.788735, 0.787782, 0.789947, 0.789379, 0.791854, 0.792653, 0.798324, 0.00410133, 0.814945, 0.00400082, 0.818205, 0.818768, 0.820914, 0.821807, 0.828174, 0.833742, 0.839697, 0.984793, 0.848079, 0.847929, 0.856174, 0.853845, 0.854275, 0.854248, 0.862801, 0.00353894, 0.878186, 0.878253, 0.880496, 0.888618, 0.889432, 0.89133, 0.894842, 0.898299, 1.64414, 0.911322, 0.918142, 0.920021, 0.919864, 0.928549, 1.62312, 0.939386, 0.947248, 0.954842, 0.958896, 0.962259, 0.966216, 0.968848, 0.977095, 0.00372611, 0.99799, 0.99991, 1.00807, 1.01075, 1.01429, 1.01741, 1.02313, 1.02809, 1.02935, 1.03201, 1.03424, 1.03847, 1.03948, 1.04372, 1.0523, 1.05495, 1.05945, 1.07035, 1.07195, 1.07743, 1.0798, 1.08112, 1.08134, 0.00390668, 1.10635, 1.11959, 1.1253, 1.126, 1.24361, 0.00382012, 1.26443, 1.22275, 1.23304, 1.16064, 1.1671, 1.33498, 1.3366, 0.00382016, 1.61049, 1.37003, 1.22632, 0.00383999, 1.22113, 1.22467, 1.27024, 1.23765, 1.24496, 1.24393, 1.25028, 1.27161, 1.26761, 1.27828, 1.27385, 0.00351315, 1.37967, 1.30878, 1.33134, 1.30933, 1.31775, 1.31784, 1.3523, 0.00374929, 1.38123, 0.00351794, 0.00369604, 1.90904, 1.88974, 1.88705, 1.39416, 1.39565, 1.42062, 1.41092, 1.49942, 1.41054, 1.40377, 1.4062, 1.41002, 1.41429, 0.00382182, 0.00403952, 0.00366787, 0.00369183, 1.475, 0.00344589, 1.4892, 1.48618, 1.4817, 1.50587, 1.48188, 1.48847, 1.48719, 1.4799, 1.47878, 1.48832, 1.47108, 1.46462, 1.45983, 1.45763, 1.45351, 1.44557, 1.4432, 1.44101, 1.43633, 1.44004, 1.43947, 1.43859, 1.43678, 1.43722, 1.43345, 1.43259, 1.43172, 1.42974, 1.42425, 1.42082, 1.41985, 1.41476, 1.4166, 1.42049, 1.48669, 1.4013, 1.40148, 1.39586, 1.3922, 1.39358, 1.38393, 1.38231, 1.37783, 1.37541, 1.37692, 1.37464, 1.37627, 1.37526, 1.3733, 1.37823, 1.3738, 1.36975, 1.36742, 1.36654, 1.36743, 1.36578, 1.37098, 1.37957, 1.38214, 1.3761, 1.37004, 1.37053, 1.3748, 1.37766, 1.37515, 1.37834, 1.37795, 1.37929, 1.38178, 1.38026, 1.38198, 1.38385, 1.3873, 1.3842, 1.39199, 1.39476, 1.39143, 1.39365, 1.39461, 1.39909, 1.40423, 1.40596, 1.40765, 1.40918, 1.41127, 1.42674, 0.0036652, 1.43661, 1.43474, 1.43466, 1.43881, 1.44054, 1.44381, 1.44703, 1.44613, 1.45396, 1.45433, 1.45763, 1.4626
0.614646, 0.619348, 0.621442, 0.627238, 0.897557, 0.635687, 0.648865, 0.650509, 0.651243, 0.654163, 0.674757, 0.67639, 0.676774, 0.68292, 0.684995, 0.686248, 0.685333, 0.688478, 0.689493, 0.698682, 0.691807, 0.690541, 0.700415, 0.701821, 0.702767, 0.702029, 0.70519, 0.700739, 0.708228, 0.712055, 0.712587, 0.713817, 0.713828, 0.716714, 0.718292, 0.719136, 0.723528, 0.72494, 0.7459, 0.73557, 0.738444, 0.739047, 0.742243, 0.744832, 0.74646, 0.746932, 0.748814, 0.752081, 0.755882, 0.755737, 0.756011, 0.757532, 0.757954, 0.757914, 0.757178, 0.759424, 0.759973, 0.762117, 0.761268, 0.762996, 0.76353, 0.7626, 0.759815, 0.759642, 0.760107, 0.754643, 0.764595, 0.766403, 0.766288, 0.00350824, 0.775179, 0.777141, 0.79172, 0.00371652, 0.793295, 0.00349671, 0.789502, 0.800647, 0.802223, 0.808137, 0.809374, 0.00362179, 0.820864, 0.831937, 0.83519, 0.838588, 0.832753, 0.842523, 0.843203, 0.845364, 0.840677, 0.843173, 0.842917, 0.842674, 0.856026, 0.85713, 0.866501, 0.869841, 0.884438, 0.888116, 0.894181, 0.894799, 0.901029, 0.00331758, 0.906264, 0.914448, 0.915331, 0.931309, 0.931994, 0.942424, 0.950234, 0.946334, 0.952368, 0.958028, 0.971724, 0.973495, 0.975742, 0.981221, 0.99461, 0.997211, 1.00597, 1.01048, 1.01752, 1.01574, 1.01991, 1.01994, 1.02701, 1.02931, 1.03358, 1.03864, 1.03991, 1.0441, 1.04917, 1.05632, 1.06086, 1.06792, 1.07169, 1.07605, 1.08082, 1.08076, 1.08192, 1.08384, 1.08414, 0.00346978, 0.00365758, 1.1424, 1.1256, 1.12929, 1.22324, 1.2301, 1.15082, 0.00353784, 1.16124, 1.16508, 1.60391, 1.60252, 1.18586, 1.1943, 1.20018, 1.20259, 1.21217, 0.00387776, 0.00384913, 1.23296, 1.2398, 1.2583, 1.24303, 1.25389, 1.25628, 0.00387056, 1.27882, 0.00367385, 1.38058, 1.31062, 1.32012, 1.32042, 1.41315, 1.32729, 1.32796, 0.00336107, 1.36022, 0.00366559, 1.44715, 1.37938, 1.37835, 1.38407, 1.38435, 1.38399, 1.38292, 0.00362842, 1.39187, 1.39129, 1.38933, 0.00378223, 1.40639, 1.40466, 1.43392, 0.0037489, 0.00425765, 0.0036808, 0.00398951, 0.00351395, 1.46772, 1.47157, 1.4759, 1.4748, 1.47855, 1.48202, 1.47981, 1.48235, 1.48358, 1.47826, 1.47192, 0.00356285, 1.46388, 1.45517, 1.45413, 1.44414, 1.44296, 1.44048, 1.4397, 1.43455, 1.43121, 1.43136, 1.42979, 1.42928, 1.43093, 1.42385, 1.42356, 1.41054, 1.41322, 1.41092, 1.4038, 1.40458, 1.40371, 1.39883, 1.39785, 1.39557, 1.39348, 1.3842, 1.38255, 1.38099, 1.37888, 1.3749, 1.3735, 1.37138, 1.36779, 1.36507, 1.36841, 1.36733, 1.36067, 1.36346, 1.36774, 1.36559, 1.36128, 1.36511, 1.36708, 1.36486, 1.36562, 1.36416, 1.36752, 1.36812, 1.36771, 1.37151, 1.37094, 1.37004, 1.36697, 1.36845, 1.36886, 1.36475, 1.36481, 1.36966, 1.37043, 1.37523, 1.37671, 1.37607, 1.38071, 1.38227, 1.38239, 1.3856, 1.38928, 1.39466, 1.40345, 1.40156, 1.39972, 1.404, 1.4047, 1.60977, 1.61211, 1.4251, 1.42647, 1.42974, 1.43059, 1.43707, 1.43745, 1.44127, 1.44182, 1.44211, 1.44551, 1.45069
0.615063, 0.615926, 0.621745, 0.971283, 0.645508, 0.646134, 0.65307, 0.653953, 0.6555, 0.655944, 0.660129, 0.66161, 0.674608, 0.675546, 0.00350063, 0.684533, 0.686496, 0.688016, 0.688827, 0.689667, 0.690997, 0.691454, 0.69308, 0.69096, 0.693538, 0.695417, 0.699925, 0.702417, 0.704469, 0.705569, 0.704474, 0.711598, 0.712398, 0.716164, 0.717511, 0.721879, 0.72328, 0.724787, 0.727982, 0.728855, 0.730515, 0.730971, 0.7315, 0.732069, 0.728999, 0.739313, 0.739326, 0.745956, 0.746445, 0.747976, 0.876757, 0.728045, 0.00377281, 0.749035, 0.00382456, 0.748839, 0.749537, 0.750314, 0.748564, 0.749558, 0.76014, 0.760617, 0.75904, 0.753282, 0.752901, 0.7535, 0.757233, 0.756031, 0.757594, 0.75845, 0.756952, 0.757546, 0.00385627, 0.777088, 0.87714, 0.783661, 0.782808, 0.787162, 0.787878, 0.797098, 0.798809, 0.00363839, 0.805417, 0.818231, 0.811718, 0.817253, 0.819414, 0.822207, 0.834996, 0.834037, 0.838368, 0.83839, 0.841974, 0.842363, 0.851423, 0.855325, 0.855632, 0.860285, 0.870107, 0.875374, 0.878009, 0.885291, 0.886016, 1.13181, 0.893309, 0.904596, 0.909552, 0.921018, 0.92553, 0.929401, 0.930483, 0.931138, 0.941422, 0.942468, 0.945721, 0.959834, 0.00370643, 1.06439, 0.986813, 0.988585, 0.996481, 1.00066, 1.00451, 1.00694, 1.01939, 1.01756, 1.01938, 1.02414, 1.03002, 1.0361, 1.03957, 1.04148, 1.04494, 1.0506, 1.05359, 1.05402, 1.17302, 1.17139, 1.18344, 1.07472, 1.07845, 1.08179, 1.08629, 1.0886, 1.09095, 1.09437, 1.10503, 1.15927, 1.11979, 1.15302, 1.13309, 1.13929, 1.14362, 1.15382, 1.34655, 1.17298, 1.30491, 1.3099, 1.18511, 1.38796, 1.39775, 1.21998, 1.21415, 1.21904, 1.22518, 1.25522, 1.25482, 1.24673, 1.24709, 1.2526, 1.26642, 1.2679, 1.27372, 1.34558, 1.34783, 0.00382075, 0.00376588, 1.33464, 1.32623, 1.32736, 1.32916, 1.45293, 0.0038056, 1.3644, 0.0037953, 0.0038416, 1.39417, 1.37888, 1.3784, 1.37551, 1.38058, 1.38004, 1.38015, 1.38526, 0.00320399, 1.40635, 1.41011, 0.0037203, 0.00344917, 0.00355215, 0.00357512, 0.00378832, 1.46802, 1.78933, 1.46654, 1.47235, 1.47504, 1.47664, 1.47662, 1.48231, 1.48146, 1.48243, 1.48235, 1.47703, 1.47223, 1.46294, 1.47169, 1.44868, 1.44831, 1.44646, 1.44167, 1.43977, 1.43496, 1.42828, 1.42934, 1.4281, 1.42128, 1.42303, 1.41775, 1.40332, 1.41177, 1.4066, 1.40497, 1.3919, 1.39185, 1.39469, 1.38586, 1.38381, 1.38313, 1.37563, 1.37257, 1.37074, 1.37173, 1.37066, 1.37424, 1.37518, 1.36755, 1.36165, 1.35932, 1.35896, 1.35973, 1.35841, 1.35751, 1.35893, 1.35802, 1.36163, 1.36044, 1.36262, 1.36139, 1.36346, 1.36062, 1.36062, 1.35997, 1.35787, 1.3593, 1.36075, 1.36026, 1.3603, 1.36253, 1.36309, 1.3601, 1.36345, 1.36561, 1.36769, 1.36816, 1.368, 1.37051, 1.3748, 1.37451, 1.37739, 1.37658, 1.37923, 1.3827, 1.44459, 1.39182, 1.39175, 1.40085, 1.40489, 1.40995, 1.41354, 1.42025, 1.42558, 1.42589, 1.4297, 1.43319, 1.43331, 1.43688, 1.43983, 1.44634, 1.44934
0.00436446, 0.00364752, 0.00364156, 0.00414844, 0.64354, 0.65169, 0.65329, 0.653281, 0.654464, 0.655657, 0.660299, 0.66246, 0.663745, 0.663985, 0.664059, 0.664062, 0.663156, 0.00353799, 0.677462, 0.00382911, 0.00342045, 0.676923, 0.684101, 0.684871, 0.684557, 0.682337, 0.683407, 0.681984, 0.682011, 0.691704, 0.694816, 0.701475, 0.701773, 0.702381, 0.717636, 0.718066, 0.719568, 0.721355, 0.726572, 0.727527, 0.728297, 0.724894, 0.722693, 0.721155, 0.722377, 0.72262, 0.716776, 0.720878, 0.719072, 0.722526, 0.724659, 0.723781, 0.725975, 0.722531, 0.725479, 0.727222, 0.72701, 0.742438, 0.739645, 0.740272, 0.742332, 0.74537, 0.750127, 0.750719, 0.735797, 0.737903, 0.735753, 0.735584, 0.749872, 0.752914, 0.757032, 0.758975, 0.759757, 0.758249, 0.757231, 0.757155, 0.757304, 0.782093, 0.78357, 0.785804, 0.784257, 0.00404021, 0.800419, 0.803847, 0.805246, 0.805467, 0.808322, 0.820154, 0.823718, 0.829364, 0.831996, 0.833422, 0.837062, 0.839579, 0.848877, 0.850632, 0.853736, 0.859092, 0.859065, 0.861037, 0.876085, 0.878957, 0.884448, 0.888488, 0.891662, 0.893098, 0.903444, 0.902894, 0.914979, 0.91692, 0.918722, 0.925231, 0.933717, 0.938536, 0.939986, 0.946259, 0.00378754, 0.966424, 0.970022, 0.984369, 0.986842, 0.986092, 0.998769, 1.00234, 1.00521, 0.00409794, 1.01635, 1.0197, 1.02665, 1.02697, 1.05589, 0.00366071, 1.02884, 1.14655, 1.15043, 1.04326, 1.04568, 1.18721, 0.00349768, 1.07123, 0.00358201, 1.07531, 1.0809, 1.08466, 1.09564, 1.09395, 1.09228, 1.09806, 1.10109, 1.15011, 1.14971, 0.00382479, 0.00353022, 1.23491, 1.23699, 1.14926, 1.15656, 1.1769, 0.00368747, 1.17502, 1.20329, 1.2088, 1.21165, 1.21598, 0.00363307, 1.36146, 1.29642, 0.00366287, 1.23859, 1.2378, 1.25673, 1.25273, 1.42009, 1.27024, 1.26821, 1.27069, 1.38981, 1.40245, 1.40561, 1.41968, 1.32591, 1.32569, 0.00341701, 0.00350139, 1.36371, 1.37522, 1.36295, 1.38501, 1.36857, 1.3675, 1.36758, 1.36402, 1.36414, 1.36416, 1.36462, 0.00356015, 1.40194, 1.4087, 1.41216, 0.00342704, 1.433, 0.00342219, 0.00343771, 0.00357662, 0.00431986, 0.00365509, 1.48961, 1.46767, 1.47124, 1.47482, 1.47357, 1.47787, 1.4755, 1.47212, 1.47015, 1.47228, 1.45951, 1.45892, 1.46541, 1.44894, 1.46124, 1.43837, 1.43659, 1.42837, 1.41983, 1.41831, 1.4035, 1.40586, 1.40566, 1.4019, 1.39803, 1.39532, 1.38478, 1.38547, 1.38645, 1.39603, 1.38183, 1.38186, 1.37557, 1.37071, 1.36718, 1.36773, 1.36984, 1.36769, 1.36751, 1.36137, 1.36171, 1.36166, 1.35926, 1.3598, 1.35926, 1.35556, 1.35065, 1.35099, 1.35258, 1.35284, 1.35367, 1.35574, 1.35616, 1.35478, 1.35239, 1.35292, 1.35328, 1.35314, 1.35598, 1.3565, 1.36018, 1.35725, 1.35568, 1.35546, 1.35801, 1.35583, 1.35775, 1.35528, 1.36189, 1.36125, 1.36416, 1.3643, 1.36409, 1.36345, 1.36793, 1.37064, 1.37834, 1.38097, 1.38041, 1.38627, 1.38799, 1.38999, 1.39239, 0.00386293, 1.42151, 1.42094, 1.42666, 1.42842, 1.42965, 0.00349466, 1.43746, 1.47064, 1.43242, 1.44123
0.00371846, 0.00386008, 0.00368131, 0.00391329, 0.00408414, 0.644199, 0.652741, 0.64628, 0.643479, 0.644738, 0.654803, 0.658397, 0.660186, 0.659503, 0.663791, 0.663472, 0.660631, 0.657685, 0.657683, 0.659107, 0.659224, 0.659656, 0.659324, 0.660873, 0.661861, 0.662786, 0.674265, 0.679733, 0.68018, 0.672365, 0.674301, 0.694992, 0.694539, 0.694417, 0.700865, 0.00381876, 0.714528, 0.715554, 0.715431, 0.708774, 0.710557, 0.708807, 0.71069, 0.713456, 0.71134, 0.71121, 0.711005, 0.712263, 0.715413, 0.714992, 0.718279, 0.720975, 0.722469, 0.719719, 0.725042, 0.725331, 0.729382, 0.7347, 0.733135, 0.729735, 0.731766, 0.73113, 0.731841, 0.735388, 0.737935, 0.737963, 0.736528, 0.734007, 0.736044, 0.736978, 0.746459, 0.750556, 0.753957, 0.753839, 0.753544, 0.753329, 0.757842, 0.759255, 0.763956, 0.00378587, 0.779166, 0.780434, 0.00396138, 0.791763, 0.800158, 0.804259, 0.807221, 0.816866, 0.818608, 0.818579, 0.821381, 0.830086, 0.833807, 0.834912, 0.83896, 0.840986, 0.846676, 0.850506, 0.853991, 0.861658, 0.861841, 0.862951, 0.880285, 0.881973, 0.887562, 0.891608, 0.89856, 0.90034, 0.904429, 0.908455, 0.917433, 0.921763, 0.925632, 0.932506, 0.935185, 0.938314, 0.939218, 0.0041436, 0.00364887, 0.977673, 0.978765, 0.983698, 0.983555, 0.991395, 0.99486, 1.01958, 0.00368172, 0.00365978, 1.00693, 1.0102, 1.01227, 1.01271, 1.1394, 1.0255, 1.03943, 1.03286, 1.03811, 1.03945, 1.0479, 1.05309, 1.05703, 1.06185, 1.15465, 1.07207, 1.08055, 1.08173, 1.0828, 1.08719, 0.00361349, 1.10015, 1.10499, 1.13589, 1.11985, 1.12308, 1.14971, 1.15498, 0.00368886, 1.59955, 1.14828, 0.00370901, 0.00379208, 0.00405919, 1.18432, 1.18417, 1.18756, 1.18784, 0.00384032, 1.21665, 1.22026, 1.22704, 1.23713, 1.24423, 0.00349359, 1.29906, 0.00364775, 1.26491, 1.26638, 1.2684, 1.47616, 1.31291, 1.31369, 1.31898, 0.00376317, 0.00378739, 0.00399331, 1.36612, 1.44071, 1.48972, 0.00361582, 1.35258, 1.35492, 1.35576, 1.35764, 1.35927, 1.36401, 1.36389, 1.39505, 1.3986, 1.38849, 1.39359, 0.00361951, 1.41996, 1.4412, 0.00393546, 0.00359769, 0.00374652, 1.48207, 1.46128, 1.46141, 1.46148, 1.45874, 1.49967, 1.4656, 1.46495, 1.46823, 1.4674, 1.46754, 1.47439, 1.47791, 1.45242, 1.44052, 1.43961, 1.43433, 1.44035, 1.43439, 1.43292, 1.40422, 1.40062, 1.39872, 1.39608, 1.39172, 1.38442, 1.38094, 1.3816, 1.3814, 1.3747, 1.37258, 1.37446, 1.36895, 1.36844, 1.36746, 1.36545, 1.36658, 1.36225, 1.36363, 1.35884, 1.35727, 1.35581, 1.35539, 1.35406, 1.34815, 1.34585, 1.33972, 1.34317, 1.35018, 1.34853, 1.35031, 1.34873, 1.3491, 1.34874, 1.34805, 1.34737, 1.34463, 1.34988, 1.35, 1.34737, 1.34817, 1.35083, 1.34974, 1.34849, 1.3508, 1.35266, 1.35355, 1.35587, 1.35631, 1.35396, 1.3573, 1.35874, 1.36027, 1.359, 1.36426, 1.36513, 1.36607, 1.36682, 1.37103, 1.37161, 1.39548, 1.38656, 1.38826, 1.39551, 1.39879, 1.40553, 1.41415, 1.4138, 1.41959, 1.418, 1.42337, 1.42281, 1.42212, 1.42554
0.00386603, 0.00363523, 0.00376953, 0.00360156, 0.00357239, 0.632671, 0.634494, 0.635657, 0.644046, 0.643508, 0.647551, 0.00332955, 0.003724, 0.649169, 0.648417, 0.643783, 0.648492, 0.653616, 0.657829, 0.659096, 0.655873, 0.656886, 0.65782, 0.661161, 0.662246, 0.662149, 0.667092, 0.667296, 0.66693, 0.670321, 0.670931, 0.671581, 0.673156, 0.00372915, 0.00386079, 0.00365236, 0.692078, 0.00367732, 0.00387574, 0.707538, 0.708371, 0.706049, 0.703726, 0.707615, 0.706625, 0.704466, 0.702285, 0.701349, 0.706245, 0.707567, 0.708421, 0.714395, 0.715935, 0.711122, 0.711719, 0.713072, 0.715895, 0.722149, 0.722393, 0.725836, 0.727922, 0.728881, 0.731184, 0.732444, 0.73648, 0.735698, 0.735895, 0.732645, 0.73279, 0.727307, 0.717978, 0.718713, 0.00377866, 0.745099, 0.749789, 0.753743, 0.755628, 0.758735, 0.759006, 0.756111, 0.755494, 0.75576, 0.772981, 0.00357026, 0.788715, 0.792169, 0.793673, 0.795478, 0.799651, 0.799024, 0.809232, 0.816608, 0.821813, 0.828716, 0.831706, 0.831799, 0.833166, 0.835606, 0.843354, 0.845086, 0.846444, 0.00379247, 0.863183, 0.00360454, 0.885062, 0.888208, 0.891599, 0.89799, 0.89909, 0.901652, 0.910413, 0.916079, 0.921427, 0.92399, 0.923585, 0.929948, 0.933417, 1.09212, 0.941804, 0.00391137, 1.13198, 0.973987, 1.15088, 0.971128, 0.00420418, 0.00365482, 0.991259, 0.997171, 0.998201, 0.998946, 1.00762, 1.00583, 1.01162, 1.01535, 1.01871, 1.0265, 1.03674, 0.0036912, 1.04472, 1.0484, 1.05133, 1.05692, 1.05778, 1.06656, 1.06886, 1.06677, 1.10482, 0.00368599, 1.08164, 1.09211, 0.00357728, 0.00368059, 0.00408443, 1.16537, 1.13175, 1.11554, 1.12233, 1.12347, 1.14752, 0.00335491, 0.00357838, 1.17957, 1.17278, 1.18369, 1.18204, 1.18385, 1.18618, 1.21583, 1.21039, 1.21275, 1.22945, 1.22222, 1.36781, 0.00400386, 1.38343, 0.00380625, 1.26348, 0.00350135, 1.43703, 0.00365319, 1.32554, 1.32477, 1.31859, 1.33461, 1.3397, 1.33966, 1.33779, 1.34139, 1.34943, 1.34804, 1.34998, 1.35095, 1.35305, 1.35558, 1.36194, 1.36299, 1.37447, 1.38239, 1.38818, 1.41771, 1.4236, 0.003779, 0.00370621, 0.00366474, 1.47146, 0.0036621, 1.44821, 1.45322, 1.45308, 1.45478, 1.45452, 1.46236, 1.45975, 1.46378, 1.46583, 1.46622, 1.4712, 1.47095, 1.47531, 0.00365355, 1.45118, 0.00386212, 1.43495, 1.42191, 1.41029, 1.43152, 1.39866, 1.39826, 1.39783, 1.38554, 1.37978, 1.38055, 1.38126, 1.37556, 1.37611, 1.37445, 1.37451, 1.36948, 1.3679, 1.36424, 1.36344, 1.36453, 1.3598, 1.36033, 1.35735, 1.35164, 1.35345, 1.35116, 1.34969, 1.34706, 1.33989, 1.34264, 1.343, 1.34239, 1.34409, 1.34366, 1.34398, 1.34318, 1.34351, 1.34091, 1.34536, 1.34652, 1.33981, 1.34007, 1.34592, 1.34394, 1.34141, 1.34568, 1.34802, 1.35023, 1.35047, 1.35152, 1.34418, 1.34755, 1.34977, 1.35245, 1.35152, 1.35438, 1.35938, 1.36019, 1.3546, 1.35356, 1.35872, 1.36241, 1.36414, 1.373, 1.37365, 1.37544, 1.85353, 1.40148, 1.39798, 1.397, 1.40513, 1.40625, 1.40805, 1.4065, 1.40629, 1.41068, 1.41546, 1.42066
