1.04346, 1.04939, 1.17262, 1.11216, 1.05659, 1.05703, 1.08191, 1.08133, 1.18612, 1.32994, 1.16054, 1.29483, 1.11213, 1.23705, 1.26769, 1.20551, 1.204, 1.20547, 1.39533, 1.23, 1.22535, 1.22616, 1.25987, 1.31245, 1.30111, 1.30558, 1.30625, 1.31008, 1.39667, 1.53434, 1.54471, 1.36412, 1.36751, 1.45064, 1.51751, 1.49906, 1.33937, 1.30064, 1.2996, 1.42341, 1.45871, 1.37418, 1.20196, 1.22438, 1.12512, 1.04907, 1.04898, 1.05025, 1.05278, 1.06298, 1.08167, 1.08418, 1.08408, 1.08957, 1.08572, 1.11153, 1.10133, 1.18457, 1.24226, 1.45401, 1.33797, 1.29276, 1.30467, 1.32942, 1.40438, 1.37533, 1.40031, 1.43631, 1.42638, 1.43033, 1.41638, 1.41608, 1.43074, 1.44026, 1.43985, 1.43121, 1.39469, 1.39945, 1.36195, 1.44057, 1.34996, 1.34638, 1.37458, 1.37342, 1.41718, 1.38206, 1.37513, 1.31868, 1.27716, 1.32086, 1.32586, 1.27269, 1.23233, 1.1953, 1.18534, 1.15023, 1.19004, 1.1777, 1.11885, 1.14264, 1.12517, 1.15742, 1.14245, 1.12857, 1.13101, 1.14792, 1.15029, 1.15955, 1.13609, 1.13647, 1.18331, 1.20446, 1.13869, 1.1383, 1.14616, 1.15078, 1.15534, 1.15723, 1.28698, 1.1707, 1.17585, 1.18862, 1.28332, 1.29613, 1.22607, 1.21249, 1.21272, 1.21526, 1.32019, 1.24562, 1.25334, 1.25987, 1.44705, 1.40181, 1.29183, 1.35413, 1.28505, 1.28216, 1.34031, 1.3026, 1.33295, 1.27918, 1.2812, 1.2815, 1.26673, 1.26833, 1.27017, 1.27011, 1.27537, 1.27432
1.13905, 1.15155, 1.18247, 1.11058, 1.05564, 1.24963, 1.34458, 1.03776, 1.15723, 1.1553, 1.15596, 1.3396, 1.20695, 1.24294, 1.40552, 1.20626, 1.20649, 1.2049, 1.20832, 1.25754, 1.22458, 1.2254, 1.23991, 1.49418, 1.45889, 1.5039, 1.5414, 1.3127, 1.31386, 1.38948, 1.45193, 1.36557, 1.36657, 1.49852, 1.3548, 1.46759, 1.33492, 1.33413, 1.30159, 1.42695, 1.43262, 1.31273, 1.21024, 1.24577, 1.17485, 1.05015, 1.04995, 1.04962, 1.05118, 1.05626, 1.1097, 1.11618, 1.11988, 1.18156, 1.10643, 1.17671, 1.14054, 1.25641, 1.25668, 1.41258, 1.31611, 1.30839, 1.33599, 1.35796, 1.37639, 1.3921, 1.45761, 1.43597, 1.44052, 1.5366, 1.41922, 1.42853, 1.42109, 1.4192, 1.44986, 1.42087, 1.46811, 1.44684, 1.41865, 1.37785, 1.35052, 1.35723, 1.36912, 1.3945, 1.3826, 1.38292, 1.36531, 1.33589, 1.27904, 1.30994, 1.38273, 1.2947, 1.2687, 1.20895, 1.19533, 1.17987, 1.16593, 1.17468, 1.12951, 1.13001, 1.139, 1.21975, 1.14097, 1.1306, 1.13137, 1.14623, 1.15088, 1.16743, 1.16715, 1.13852, 1.18427, 1.12872, 1.13549, 1.13588, 1.14668, 1.14639, 1.15357, 1.15572, 1.1626, 1.17025, 1.17559, 1.18232, 1.26369, 1.31025, 1.20897, 1.21209, 1.21477, 1.35097, 1.24328, 1.24585, 1.25239, 1.35274, 1.38391, 1.38373, 1.39564, 1.40253, 1.36019, 1.28505, 1.33969, 1.30433, 1.30558, 1.2804, 1.28246, 1.2695, 1.26724, 1.2686, 1.27212, 1.27046, 1.27517, 1.27368
1.31175, 1.06636, 1.10309, 1.1052, 1.12053, 1.12148, 1.04294, 1.12599, 1.21191, 1.20837, 1.19993, 1.22522, 1.3304, 1.24103, 1.28493, 1.32015, 1.207, 1.20548, 1.20872, 1.2639, 1.22324, 1.22769, 1.24981, 1.34777, 1.47234, 1.316, 1.31588, 1.48813, 1.31743, 1.32122, 1.39854, 1.52551, 1.36664, 1.36556, 1.47229, 1.50115, 1.35854, 1.3342, 1.44315, 1.45422, 1.42914, 1.31973, 1.25685, 1.2788, 1.05324, 1.05131, 1.07731, 1.09065, 1.05824, 1.09055, 1.11661, 1.21519, 1.13069, 1.12376, 1.11495, 1.14861, 1.17273, 1.20722, 1.27051, 1.36567, 1.37763, 1.32078, 1.32585, 1.36509, 1.37866, 1.36203, 1.40898, 1.42529, 1.42122, 1.43344, 1.40865, 1.41975, 1.42608, 1.44074, 1.45015, 1.42903, 1.40396, 1.39449, 1.39376, 1.45043, 1.37183, 1.38157, 1.39121, 1.46553, 1.40946, 1.38178, 1.37431, 1.35765, 1.29924, 1.3081, 1.37806, 1.36405, 1.28068, 1.23268, 1.21909, 1.24357, 1.17167, 1.16706, 1.21528, 1.12405, 1.13681, 1.13927, 1.13936, 1.13397, 1.13255, 1.14478, 1.14051, 1.14076, 1.14505, 1.13581, 1.18481, 1.20868, 1.21824, 1.13208, 1.13954, 1.14585, 1.15688, 1.1558, 1.15957, 1.16947, 1.17511, 1.29235, 1.49111, 1.38479, 1.31039, 1.31316, 1.33408, 1.23729, 1.24355, 1.24232, 1.24868, 1.3919, 1.28145, 1.3496, 1.30007, 1.42251, 1.42344, 1.30923, 1.36518, 1.30536, 1.30437, 1.28299, 1.28163, 1.26848, 1.26687, 1.26532, 1.27292, 1.27228, 1.27504, 1.27388
1.0349, 1.1981, 1.06821, 1.04466, 1.04716, 1.13551, 1.03889, 1.02403, 1.16319, 1.13351, 1.20245, 1.33403, 1.13339, 1.14323, 1.20915, 1.29087, 1.20504, 1.20544, 1.20718, 1.22275, 1.22264, 1.49859, 1.53696, 1.53611, 1.48205, 1.5359, 1.4773, 1.52274, 1.31966, 1.3201, 1.35208, 1.57478, 1.36485, 1.44629, 1.44727, 1.48897, 1.43984, 1.33736, 1.43365, 1.44742, 1.31654, 1.33458, 1.45491, 1.24756, 1.07697, 1.0218, 1.01399, 1.07354, 1.12644, 1.06946, 1.16098, 1.21551, 1.17329, 1.18982, 1.158, 1.15904, 1.1787, 1.21993, 1.35267, 1.33466, 1.33574, 1.35034, 1.3507, 1.37394, 1.37414, 1.40253, 1.41309, 1.41348, 1.4312, 1.4272, 1.43384, 1.43413, 1.428, 1.49294, 1.4503, 1.43018, 1.41632, 1.39608, 1.40939, 1.4504, 1.39609, 1.38768, 1.36217, 1.43811, 1.43607, 1.3948, 1.34406, 1.33821, 1.30973, 1.30703, 1.35111, 1.30637, 1.28439, 1.25116, 1.21945, 1.21245, 1.21544, 1.16786, 1.12587, 1.12225, 1.1326, 1.14189, 1.13273, 1.1303, 1.13035, 1.14933, 1.13551, 1.13632, 1.14728, 1.17121, 1.11076, 1.21285, 1.20627, 1.13163, 1.13675, 1.14248, 1.14845, 1.15605, 1.16013, 1.17008, 1.17353, 1.17853, 1.23631, 1.23767, 1.3065, 1.26124, 1.30857, 1.31997, 1.24226, 1.24538, 1.24714, 1.30823, 1.4022, 1.35969, 1.39527, 1.41305, 1.34532, 1.30971, 1.2944, 1.29958, 1.30438, 1.33803, 1.2851, 1.27413, 1.26242, 1.26517, 1.67574, 1.28545, 1.27073, 1.27049
1.19158, 1.20189, 1.07216, 1.08996, 1.08721, 1.13262, 1.02571, 1.02704, 1.16363, 1.21334, 1.22588, 1.22471, 1.23161, 1.23688, 0.00344005, 1.40652, 1.40047, 1.20291, 1.20627, 1.22248, 1.22186, 1.2243, 1.24614, 1.35103, 1.35075, 1.33042, 1.47877, 1.50665, 1.31999, 1.32049, 1.53484, 1.39831, 1.38516, 1.56396, 1.45794, 1.36519, 1.37905, 1.34306, 0.00443395, 1.34139, 1.33618, 1.26864, 1.18558, 1.071, 1.06793, 1.07389, 1.07297, 1.01853, 1.018, 1.07043, 1.11966, 1.22272, 1.14531, 1.176, 1.18832, 1.19864, 1.19835, 1.34718, 1.37824, 1.3784, 1.45356, 1.4367, 1.36225, 1.42132, 1.40358, 1.40899, 1.41676, 1.47955, 1.42097, 1.45126, 1.45843, 1.44964, 1.43806, 1.45133, 1.47199, 1.47149, 1.48197, 1.41291, 1.40477, 1.45055, 1.43364, 1.41069, 1.40861, 1.40633, 1.404, 1.40849, 1.3549, 1.36576, 1.31527, 1.34457, 1.32217, 1.32353, 1.31537, 1.31227, 1.30155, 1.27719, 1.21286, 1.16816, 1.13328, 1.13278, 1.13624, 1.1509, 1.13117, 1.12757, 1.12869, 1.14958, 1.13225, 1.13368, 1.15026, 1.14776, 1.19522, 1.14081, 1.21632, 1.21862, 1.1366, 1.14371, 1.1528, 1.1548, 1.15699, 1.17086, 1.17189, 1.17919, 1.24357, 1.25037, 1.2496, 1.30875, 1.31186, 1.24649, 1.24271, 1.24552, 1.25242, 1.27432, 1.27426, 1.30023, 1.30931, 1.3669, 1.51901, 1.48559, 1.35731, 1.29577, 1.29993, 1.36423, 1.34017, 1.28482, 1.26038, 1.26204, 1.29288, 1.26169, 1.25917, 1.27135
1.06087, 1.06219, 1.08019, 1.09193, 1.03537, 1.0753, 1.02574, 1.02628, 1.14973, 1.06204, 1.09435, 1.50082, 1.18924, 1.18406, 1.38019, 1.26209, 1.20164, 1.20121, 1.21114, 1.47332, 1.22045, 1.22609, 1.49856, 1.34778, 1.50644, 1.47225, 1.33109, 1.3347, 1.32065, 1.32169, 1.44296, 1.45839, 1.48096, 1.4378, 1.46601, 1.48193, 1.40191, 1.36075, 1.36614, 1.34326, 1.3491, 1.25517, 1.21607, 1.03444, 1.03065, 1.00033, 0.996614, 0.996395, 1.00793, 1.05412, 1.13631, 1.17537, 1.19103, 1.20012, 1.20185, 1.19898, 1.26203, 1.34781, 1.34659, 1.38479, 1.40816, 1.34953, 1.40563, 1.45393, 1.44721, 1.40913, 1.40967, 1.41744, 1.41799, 1.47075, 1.53022, 1.48143, 1.45222, 1.45886, 1.59331, 1.60243, 1.5989, 1.46926, 1.40438, 1.47173, 1.42066, 1.42961, 1.44075, 1.40664, 1.4053, 1.39585, 1.35554, 1.34271, 1.32368, 1.31944, 1.33082, 1.4241, 1.36427, 1.35575, 1.30146, 1.29832, 1.30118, 1.15147, 1.13458, 1.1337, 1.13651, 1.1476, 1.13267, 1.27754, 1.11566, 1.15768, 1.12778, 1.12774, 1.13361, 1.17937, 1.09191, 1.09208, 1.2165, 1.21844, 1.21801, 1.14152, 1.14904, 1.1535, 1.15895, 1.17095, 1.17677, 1.18226, 1.20228, 1.51808, 1.23571, 1.31175, 1.23637, 1.24246, 1.24235, 1.2497, 1.24868, 1.27455, 1.27414, 1.34378, 1.29987, 1.44928, 1.41545, 1.32295, 1.5137, 1.29722, 1.29667, 1.56672, 1.33323, 1.32688, 1.26052, 1.26006, 1.61093, 1.26033, 1.25884, 1.27787
1.03066, 1.02299, 1.02607, 1.03265, 1.01897, 1.14459, 1.17087, 1.13328, 1.16057, 1.17408, 1.23972, 1.08426, 1.11994, 1.1303, 1.34088, 1.34187, 1.36566, 1.19899, 1.29874, 1.30133, 1.21853, 1.22806, 1.60297, 1.33632, 1.48897, 1.47484, 1.47825, 1.48152, 1.32658, 1.32198, 1.32116, 1.3692, 0.00423868, 1.53231, 1.43494, 1.50712, 0.00450459, 0.00463031, 1.33247, 1.24421, 1.24241, 1.2431, 1.01551, 1.01363, 1.05512, 0.999788, 0.978648, 1.00582, 1.02191, 1.04669, 1.14535, 1.16082, 1.17269, 1.33044, 1.27176, 1.24008, 1.23449, 1.28379, 1.3514, 1.38099, 1.34762, 1.34807, 1.4067, 1.4862, 1.51, 1.42333, 1.40959, 1.42475, 1.4571, 1.57873, 1.49961, 1.48082, 1.46919, 1.47285, 1.49912, 1.60295, 1.60332, 1.43994, 1.49142, 1.42972, 1.42731, 1.42449, 1.44207, 1.41305, 1.42394, 1.39235, 1.37122, 1.33725, 1.31968, 1.33007, 1.46849, 1.35015, 1.35399, 1.32571, 1.47348, 1.4237, 1.29964, 1.18682, 1.13896, 1.13464, 1.13468, 1.15605, 1.12157, 1.13254, 1.11503, 1.11162, 1.12562, 1.1254, 1.12696, 1.15633, 1.10101, 1.09206, 1.20654, 1.2158, 1.22509, 1.20757, 1.14481, 1.15053, 1.16017, 1.16673, 1.18192, 1.18769, 1.26483, 1.24175, 1.23355, 1.23352, 1.23577, 1.2426, 1.24225, 1.24958, 1.25299, 1.37587, 1.27658, 1.31251, 1.2921, 1.29291, 1.44535, 1.32938, 1.49554, 1.42482, 1.29516, 1.29483, 1.3368, 1.34424, 1.25862, 1.26011, 1.26762, 1.26454, 1.26018, 1.25532
1.02152, 1.02146, 1.07795, 1.14808, 1.00465, 1.00758, 1.00928, 1.30696, 1.19925, 1.2579, 1.28557, 1.06769, 1.27831, 1.17159, 1.19862, 1.15812, 1.32518, 1.37923, 1.21033, 1.30589, 1.21917, 1.28834, 1.50989, 1.32613, 1.41597, 1.4759, 1.4775, 1.48186, 1.48315, 1.32585, 1.32488, 1.38761, 1.49655, 1.42684, 1.43737, 1.4103, 1.4061, 1.38257, 1.22862, 1.21269, 1.22897, 1.22767, 1.00863, 1.01146, 1.00316, 1.0047, 0.990402, 1.01464, 1.06042, 1.07302, 1.0782, 1.12257, 1.17863, 1.354, 1.33301, 1.27798, 1.2878, 1.35025, 1.34908, 1.35719, 1.35849, 1.40992, 1.40908, 1.49588, 1.51058, 1.43089, 1.43251, 1.42687, 1.44345, 1.55949, 1.50267, 1.51104, 1.49287, 1.47586, 1.48164, 1.58193, 1.65861, 1.5046, 1.49385, 1.43027, 1.42813, 1.45768, 1.47252, 1.47378, 1.44654, 1.4495, 1.36852, 1.37716, 1.37857, 1.37854, 1.38885, 1.35839, 1.35853, 1.37867, 1.40552, 1.40548, 1.34712, 1.20176, 1.16591, 1.15549, 1.14638, 1.18382, 1.11682, 1.12259, 1.1166, 1.12915, 1.12464, 1.12332, 1.1236, 1.14916, 1.10099, 1.10559, 1.21155, 1.21133, 1.1709, 1.21037, 1.14394, 1.25857, 1.16173, 1.16724, 1.26466, 1.23623, 1.48653, 1.24275, 1.51288, 1.2347, 1.23424, 1.23607, 1.2417, 1.2465, 1.25012, 1.31543, 1.27551, 1.38352, 1.29106, 1.41745, 1.42228, 1.37636, 1.33124, 1.60434, 1.34299, 1.29177, 1.36894, 1.38268, 1.26019, 1.25809, 1.26247, 1.26021, 1.25699, 1.25311
1.02326, 1.02106, 1.16051, 1.0044, 1.00383, 1.00397, 1.00831, 1.08511, 1.17146, 1.25207, 1.09841, 1.30524, 1.41413, 1.19576, 1.19293, 1.31976, 1.23989, 1.22279, 1.36794, 1.21626, 1.21286, 1.32133, 1.32216, 1.26153, 1.49225, 1.51726, 1.48042, 1.47244, 1.4827, 1.32636, 1.32557, 1.34084, 1.38407, 1.44459, 1.4363, 1.29927, 1.33368, 1.2427, 1.2168, 1.2431, 1.23359, 1.3466, 1.09048, 0.994384, 0.997554, 0.99219, 1.07304, 1.06329, 1.07122, 1.16006, 1.08127, 1.13509, 1.16556, 1.32671, 1.29852, 1.31242, 1.31041, 1.41202, 1.32386, 1.35742, 1.35778, 1.40632, 1.45242, 1.50661, 1.49875, 1.46596, 1.44796, 1.45857, 1.48111, 1.51234, 1.51675, 1.48841, 1.48792, 1.49221, 1.55891, 1.57945, 1.56894, 1.5061, 1.50558, 1.43629, 1.42577, 1.46556, 1.46596, 1.49257, 1.55471, 1.44358, 1.38716, 1.37369, 1.33331, 1.35055, 1.35854, 1.36131, 1.36083, 1.34777, 1.40596, 1.3782, 1.29498, 1.16983, 1.16872, 1.16391, 1.12363, 1.12301, 1.12184, 1.12145, 1.12095, 1.12808, 1.12867, 1.1206, 1.12184, 1.18386, 1.18409, 1.11539, 1.27078, 1.15678, 1.12686, 1.12985, 1.143, 1.14962, 1.16291, 1.1711, 1.27365, 1.22526, 1.24079, 1.24931, 1.22626, 1.22692, 1.23324, 1.2346, 1.23787, 1.24694, 1.24627, 1.31961, 1.31114, 1.38615, 1.28661, 1.46859, 1.41578, 1.37759, 1.33266, 1.33266, 0.00434283, 1.33709, 1.25395, 1.25277, 1.25435, 1.25433, 1.25675, 1.25577, 1.25228, 1.25042
1.07833, 1.17389, 1.00529, 1.00343, 1.00276, 1.00255, 1.06198, 1.14604, 1.19856, 1.1197, 1.11013, 1.28442, 1.41519, 1.39965, 1.35112, 1.31914, 1.23683, 1.19043, 1.19958, 1.21208, 1.21407, 1.32036, 1.32097, 1.25899, 1.57471, 1.48085, 1.48055, 1.48281, 1.56525, 1.36516, 1.32806, 1.33908, 1.52346, 1.43149, 1.45067, 1.28798, 1.27162, 1.34171, 1.46829, 1.21642, 1.31586, 1.19199, 1.00417, 1.00327, 1.01227, 0.994101, 1.06447, 1.09551, 1.14903, 1.14979, 1.11308, 1.1392, 1.18634, 1.30194, 1.31341, 1.31185, 1.31409, 1.36029, 1.34757, 1.41922, 1.35767, 1.40628, 1.46437, 1.49531, 1.49243, 1.457, 1.46399, 1.46044, 1.48833, 1.57868, 1.57911, 1.48812, 1.48584, 1.5041, 1.58841, 1.58904, 1.57604, 1.5164, 1.51349, 1.43342, 1.43442, 1.4606, 1.49042, 1.50378, 1.52999, 1.53657, 1.43342, 1.38809, 1.35714, 1.37501, 1.36269, 1.37042, 1.37865, 1.3496, 1.39921, 1.39915, 1.42949, 1.18609, 1.17125, 1.17352, 1.12604, 1.12252, 1.17828, 1.17818, 1.13149, 1.13211, 1.1283, 1.11514, 1.1193, 1.11826, 1.28485, 1.12881, 1.1943, 1.22187, 1.18124, 1.13161, 1.14434, 1.14923, 1.16221, 1.17121, 1.18226, 1.29902, 1.25192, 1.24526, 1.2271, 1.22937, 1.22982, 1.23271, 1.23539, 1.23973, 1.24863, 1.26101, 1.26201, 1.31322, 1.2871, 1.41595, 1.42221, 1.42824, 1.42183, 1.33493, 1.40441, 1.34654, 1.25001, 1.25058, 1.24705, 1.25323, 1.25422, 1.25089, 1.25028, 1.25117
1.2286, 1.00947, 1.00489, 1.00237, 1.00304, 1.00151, 1.00282, 1.00362, 1.12966, 1.13686, 1.27726, 1.16391, 1.19962, 1.14829, 1.12607, 1.27193, 1.23301, 1.24292, 1.19476, 1.21278, 1.21361, 1.32514, 1.32114, 1.28849, 1.32565, 1.49993, 1.49005, 1.48178, 1.4861, 1.62984, 1.52617, 1.33351, 1.3752, 1.2602, 1.46649, 1.47788, 1.19923, 1.17089, 1.31679, 1.24825, 1.18647, 1.06387, 1.01601, 1.00378, 0.993001, 0.994202, 1.04802, 1.13065, 1.12923, 1.13711, 1.12207, 1.13737, 1.24066, 1.30324, 1.35641, 1.32561, 1.3304, 1.3446, 1.36789, 1.35352, 1.35418, 1.41453, 1.46231, 1.49543, 1.51294, 1.55219, 1.46762, 1.46733, 1.51, 1.57499, 1.54416, 1.53902, 1.49887, 1.52758, 1.58936, 1.58833, 1.57559, 1.53464, 1.49273, 1.45, 1.4713, 1.56995, 1.49122, 1.48253, 1.57531, 1.5782, 1.46339, 1.42094, 1.42009, 1.38852, 1.38867, 1.38002, 1.41065, 1.34846, 1.42067, 1.42644, 1.45188, 1.22103, 1.17719, 1.17942, 1.13981, 1.1605, 1.13613, 1.17918, 1.12275, 1.12183, 1.13857, 1.1186, 1.11834, 1.11348, 1.18245, 1.12096, 1.11216, 1.2668, 1.12554, 1.133, 1.14826, 1.14993, 1.16741, 1.16859, 1.18363, 1.23653, 1.23005, 1.23806, 1.22118, 1.22613, 1.22953, 1.23166, 1.28292, 1.27298, 1.24356, 1.29, 1.26252, 1.27806, 1.27959, 1.41633, 1.41763, 1.31668, 1.32316, 1.32983, 1.47415, 1.35077, 1.25119, 1.24846, 1.24759, 1.25088, 1.25551, 1.24987, 1.24961, 1.25309
1.16199, 1.234, 1.18487, 1.1604, 1.00058, 0.999758, 1.00343, 1.00455, 1.13099, 1.11146, 1.10155, 1.3042, 1.28227, 1.10575, 1.4857, 1.46015, 1.2338, 1.24401, 1.30869, 1.33153, 1.21279, 1.21416, 1.2403, 1.3226, 1.48536, 1.33346, 1.47783, 1.48418, 1.46955, 1.48834, 1.52604, 1.33481, 1.38107, 1.1852, 1.20205, 1.43952, 1.44083, 1.19871, 1.3256, 1.08783, 1.18222, 1.02507, 1.02449, 1.00206, 0.992481, 1.00111, 1.10421, 1.13641, 1.16001, 1.13722, 1.1207, 1.19837, 1.22658, 1.29315, 1.45454, 1.47126, 1.33762, 1.33716, 1.35842, 1.35683, 1.38115, 1.43032, 1.55049, 1.46487, 1.54505, 1.52009, 1.54238, 1.46608, 1.50587, 1.50003, 1.65787, 1.55802, 1.52256, 1.57196, 1.58991, 1.64732, 1.64763, 1.50251, 1.47894, 1.46604, 1.46391, 1.47732, 1.50946, 1.48552, 1.62415, 1.58138, 1.42356, 1.47542, 1.42314, 1.41369, 1.41089, 1.40026, 1.38852, 1.37195, 1.35424, 1.43604, 1.25262, 1.21155, 1.21643, 1.18039, 1.16832, 1.19161, 1.1755, 1.17024, 1.10547, 1.2052, 1.13303, 1.13412, 1.11551, 1.11235, 1.12133, 1.12173, 1.11021, 1.15038, 1.12183, 1.13228, 1.23856, 1.15635, 1.16477, 1.16748, 1.25642, 1.23177, 1.23341, 1.53406, 1.53304, 1.30145, 1.22427, 1.2407, 1.28547, 1.29169, 1.27295, 1.32967, 1.32302, 1.32105, 1.27559, 1.46568, 1.37679, 1.3127, 1.478, 1.34294, 1.46559, 0.00440333, 1.43064, 1.24733, 1.24651, 1.24885, 1.25113, 1.25039, 1.24999, 1.25356
1.00005, 1.23692, 1.01895, 0.997971, 0.999588, 0.998974, 0.999157, 1.19484, 1.12731, 1.15683, 1.12986, 1.30304, 1.28004, 1.31529, 1.34134, 1.45919, 1.16993, 1.25543, 1.25012, 1.20533, 1.21522, 1.21575, 1.24157, 1.24307, 1.52093, 1.32874, 1.48144, 1.48687, 1.47233, 1.45768, 1.37068, 1.37143, 1.38151, 1.14002, 1.12305, 1.12355, 1.14706, 1.14441, 1.08143, 1.08712, 1.03607, 1.10808, 1.10791, 1.00453, 0.99662, 1.03533, 1.1035, 1.13257, 1.16458, 1.16556, 1.18373, 1.16038, 1.21326, 1.35457, 1.46093, 1.45973, 1.3967, 1.43766, 1.35669, 1.35699, 1.37555, 1.41985, 1.47746, 1.55503, 1.51068, 1.54568, 1.51721, 1.47437, 1.47535, 1.52094, 1.63228, 1.54176, 1.53641, 1.64381, 1.80923, 1.63587, 1.62594, 1.51355, 1.4673, 1.48257, 1.49715, 1.4896, 1.54045, 1.4875, 1.57919, 1.57694, 1.56404, 1.43518, 1.43329, 1.4395, 1.42996, 1.49544, 1.5132, 1.38979, 1.37944, 1.41919, 1.41884, 1.22732, 1.21859, 1.20202, 1.20161, 1.21882, 1.21377, 1.10715, 1.10272, 1.20184, 1.17426, 1.13659, 1.11244, 1.10305, 1.12114, 1.12193, 1.10879, 1.10921, 1.16061, 1.13317, 1.15409, 1.15393, 1.16398, 1.36689, 1.22562, 1.22729, 1.22686, 1.53415, 1.25635, 1.23713, 1.21788, 1.28486, 1.25065, 1.22826, 1.23154, 1.31394, 1.31264, 1.31141, 1.27476, 1.27596, 1.30382, 1.30919, 1.31034, 1.36426, 1.42362, 1.44038, 1.2487, 1.24576, 1.24443, 1.24409, 1.24653, 1.24736, 1.24985, 1.25139
1.00051, 1.00033, 1.01975, 0.996569, 0.998126, 0.998264, 0.999433, 1.02042, 1.14297, 1.07806, 1.43644, 1.29534, 1.28123, 1.313, 1.57366, 1.13073, 1.13336, 1.13697, 1.2553, 1.28689, 1.30176, 1.21859, 1.34111, 1.33024, 1.33371, 1.37048, 1.45588, 1.48841, 1.41036, 1.37841, 1.52031, 1.3968, 1.35162, 1.12349, 1.10844, 1.21035, 1.08875, 1.22299, 1.21649, 1.16179, 1.10205, 1.10785, 1.10855, 1.07687, 1.01297, 1.04063, 1.1235, 1.18461, 1.17271, 1.15095, 1.17484, 1.1774, 1.32062, 1.34745, 1.4079, 1.45807, 1.37701, 1.3454, 1.35926, 1.36125, 1.39931, 1.4348, 1.46893, 1.55644, 1.50584, 1.50274, 1.50106, 1.47157, 1.47605, 1.49864, 1.69157, 1.6936, 1.7381, 1.79904, 1.79578, 1.60681, 1.62082, 1.51013, 1.5038, 1.47789, 1.49759, 1.52077, 1.5072, 1.49642, 1.58121, 1.58215, 1.56833, 1.43738, 1.46957, 1.44176, 1.41799, 1.49524, 1.4744, 1.47425, 1.3426, 1.34359, 1.30206, 1.25898, 1.25127, 1.24781, 1.20253, 1.21061, 1.12665, 1.10103, 1.17124, 1.10172, 1.22291, 1.11579, 1.11485, 1.10896, 1.1048, 1.12184, 1.11065, 1.11176, 1.12561, 1.13328, 1.14714, 1.16019, 1.16517, 1.16558, 1.22179, 1.22348, 1.505, 1.3665, 1.23379, 1.21466, 1.21408, 1.23448, 1.30648, 1.22598, 1.26723, 1.2275, 1.24832, 1.33783, 1.33985, 1.30198, 1.30247, 1.37481, 1.31161, 1.31229, 1.42914, 1.40806, 1.24463, 1.24461, 1.24389, 1.2448, 1.24759, 1.24631, 1.25084, 1.24876
1.00641, 0.993744, 0.992611, 0.994789, 0.996264, 0.997511, 1.05004, 1.1024, 1.05135, 1.13796, 1.43655, 1.10847, 1.30621, 1.26053, 1.1361, 1.1305, 1.18532, 1.14035, 1.15986, 1.18504, 1.40357, 1.22627, 1.39765, 1.33616, 1.33319, 1.32757, 1.45434, 1.48889, 1.38022, 1.37987, 1.63411, 1.63336, 1.21058, 1.3188, 1.29161, 1.29622, 1.2328, 1.18804, 1.0635, 1.06397, 1.01763, 1.02401, 1.02536, 1.0431, 1.04628, 1.06378, 1.19866, 1.18236, 1.22704, 1.15813, 1.17595, 1.19243, 1.24734, 1.31141, 1.33614, 1.35901, 1.37891, 1.3473, 1.35976, 1.43735, 1.42572, 1.4832, 1.4683, 1.51879, 1.50634, 1.50755, 1.50202, 1.52248, 1.50663, 1.51037, 1.69516, 1.69377, 1.78914, 1.78294, 1.80682, 1.62265, 1.51267, 1.5033, 1.51684, 1.50072, 1.51302, 1.57934, 1.5212, 1.48572, 1.46881, 1.48728, 1.56938, 1.44189, 1.45364, 1.41946, 1.41786, 1.50183, 1.51536, 1.5055, 1.35502, 1.34357, 1.2931, 1.29365, 1.27399, 1.25713, 1.23038, 1.23732, 1.15128, 1.09768, 1.09224, 1.10432, 1.11527, 1.11185, 1.10965, 1.10562, 1.11844, 1.12392, 1.12405, 1.11217, 1.12439, 1.23728, 1.14318, 1.24286, 1.16407, 1.16459, 1.21867, 1.21941, 1.52598, 1.30014, 1.29901, 1.2163, 1.20973, 1.2165, 1.31558, 1.28194, 1.22232, 1.22242, 1.29717, 1.33093, 1.34184, 1.3326, 1.29284, 1.48962, 1.43764, 1.37074, 1.38836, 1.35432, 1.24383, 1.24362, 1.24581, 1.24374, 1.24513, 1.24523, 1.24846, 1.2475
0.994852, 0.994304, 0.99215, 0.995849, 0.996492, 1.0227, 1.20953, 1.10242, 1.19189, 1.1857, 1.09129, 1.10143, 1.24397, 1.25133, 1.14351, 1.3063, 1.38539, 1.2725, 1.16658, 1.1669, 1.38171, 1.40532, 1.4042, 1.5497, 1.26752, 1.3384, 1.45154, 1.49578, 1.38482, 1.38172, 1.38363, 1.45036, 1.2465, 1.24725, 1.26141, 1.19451, 1.19016, 1.18781, 1.05776, 1.02632, 1.02014, 1.02263, 1.04084, 1.03701, 1.05341, 1.07918, 1.12244, 1.2297, 1.25641, 1.23908, 1.17998, 1.23248, 1.23338, 1.53646, 1.32786, 1.41665, 1.36594, 1.35789, 1.36128, 1.40966, 1.42935, 1.47973, 1.45115, 1.45092, 1.50666, 1.51368, 1.51294, 1.50369, 1.50346, 1.55448, 1.71089, 1.70918, 0.00470316, 1.84212, 1.80095, 1.59417, 1.62278, 1.50445, 1.53738, 1.55729, 1.51119, 1.53045, 1.54104, 1.51419, 1.48651, 1.48007, 1.44116, 1.4536, 1.45457, 1.41802, 1.41695, 1.50202, 1.51236, 1.40383, 1.35057, 1.29668, 1.29694, 1.3096, 1.2802, 1.29402, 1.26241, 1.15369, 1.13088, 1.09699, 1.09534, 1.1235, 1.10859, 1.10975, 1.10184, 1.1061, 1.10939, 1.12328, 1.12414, 1.11725, 1.12626, 1.13533, 1.24424, 1.20906, 1.16379, 1.22779, 1.22849, 1.21304, 1.21382, 1.20639, 1.20855, 1.22652, 1.23403, 1.23569, 1.2376, 1.27414, 1.21477, 1.29955, 1.22445, 1.2309, 1.32389, 1.30551, 1.29413, 1.4048, 1.42396, 1.31263, 1.4626, 1.35093, 1.24044, 1.23843, 1.23959, 1.23976, 1.24395, 1.24614, 1.24827, 1.24597
0.996611, 0.993691, 0.99358, 0.99449, 1.00002, 1.00233, 1.21155, 1.04215, 1.17907, 1.21364, 1.188, 1.09833, 1.20338, 1.20852, 1.15581, 1.1476, 1.41284, 1.25788, 1.1767, 1.18512, 1.28462, 1.40463, 1.2302, 1.35336, 1.34489, 1.36116, 1.50971, 1.51288, 1.4836, 1.39139, 1.39123, 1.38893, 1.2191, 1.17764, 1.16079, 1.14735, 1.18198, 1.19477, 1.07919, 1.03489, 1.01231, 1.05003, 1.04622, 1.15842, 1.08692, 1.11275, 1.22151, 1.24162, 1.27378, 1.22328, 1.24466, 1.23899, 1.35475, 1.54181, 1.31626, 1.43732, 1.35685, 1.35275, 1.39683, 1.45691, 1.46123, 1.47789, 1.47098, 1.45283, 1.4746, 1.51553, 1.57799, 1.53993, 1.53732, 1.63858, 1.71925, 1.71809, 0.00371616, 1.84829, 1.80165, 1.80063, 1.56109, 1.55285, 1.53788, 1.5812, 1.57573, 0.00449817, 1.54089, 1.51184, 1.57943, 1.46125, 1.44019, 1.43955, 1.45005, 1.47087, 1.4778, 1.50917, 1.50809, 1.40319, 1.40599, 1.34031, 1.28743, 1.28101, 1.28104, 1.2823, 1.22794, 1.16565, 1.15999, 1.1313, 1.09218, 1.09212, 1.10925, 1.09261, 1.09147, 1.0927, 1.25699, 1.12382, 1.12381, 1.11892, 1.12246, 1.13349, 1.19629, 1.1584, 1.15895, 1.22659, 1.20579, 1.18501, 1.20705, 1.20863, 1.30684, 1.40737, 1.22706, 1.20749, 1.20771, 1.27747, 1.20854, 1.21539, 1.21489, 1.25422, 1.3387, 1.31173, 1.36559, 1.31183, 1.31195, 1.34636, 1.38216, 1.2847, 1.42194, 1.2329, 1.2371, 1.23644, 1.24286, 1.24675, 1.24686, 1.24606
0.998143, 0.994278, 0.993927, 0.994707, 1.00005, 1.00076, 1.2123, 1.426, 1.16055, 1.13206, 1.08507, 1.10191, 1.10598, 1.27696, 1.15048, 1.15166, 1.6176, 1.16284, 1.16371, 1.33314, 1.33865, 1.38177, 1.40293, 1.35132, 1.34944, 1.34716, 1.53701, 1.51356, 1.50303, 1.39012, 1.38938, 1.25397, 1.12852, 1.13199, 1.1578, 1.12546, 1.11707, 1.184, 1.04616, 1.03519, 1.00975, 1.10226, 1.10515, 1.10931, 1.12584, 1.11831, 1.19404, 1.21954, 1.26766, 1.26797, 1.25814, 1.27176, 1.38276, 1.38132, 1.34726, 1.36144, 1.36378, 1.47073, 1.38934, 1.62085, 1.46017, 1.45841, 1.46734, 1.48662, 1.49351, 1.597, 1.53966, 1.55434, 1.56137, 1.59707, 1.71949, 1.71856, 1.78471, 1.84957, 1.80312, 1.59398, 1.64363, 1.56059, 1.57293, 1.57142, 1.58752, 1.74314, 1.56654, 1.56794, 1.52636, 1.48149, 1.45817, 1.44011, 1.44933, 1.44724, 1.42664, 1.42992, 1.45062, 1.38254, 1.35768, 1.33719, 1.31913, 1.28338, 1.28156, 1.32993, 1.22255, 1.16664, 1.16705, 1.11254, 1.09468, 1.10276, 1.16075, 1.08744, 1.10372, 1.1059, 1.10825, 1.19552, 1.12456, 1.12492, 1.12366, 1.16455, 1.21404, 1.15707, 1.16025, 1.31589, 1.42373, 1.20326, 1.20625, 1.20318, 1.20448, 1.19702, 1.19619, 1.20386, 1.20411, 1.20357, 1.20571, 1.21146, 1.20741, 1.32602, 1.35537, 1.31051, 1.35653, 1.31513, 1.38861, 1.39466, 1.28187, 1.28279, 1.2931, 1.23276, 1.23457, 1.23591, 1.23696, 1.24267, 1.24401, 1.24659
0.999429, 0.994957, 0.994135, 0.996473, 0.999614, 1.22987, 1.2132, 1.0434, 1.15489, 1.07522, 1.0762, 1.07958, 1.27848, 1.22458, 1.16364, 1.15778, 1.16687, 1.16193, 1.19445, 1.32408, 1.22328, 1.40769, 1.39644, 1.36081, 1.35523, 1.3593, 1.36178, 1.57944, 1.5135, 1.39522, 1.38821, 1.20227, 1.13705, 1.15981, 1.08922, 1.20172, 1.07352, 1.0021, 1.04889, 1.02592, 1.07198, 1.08568, 1.1666, 1.16771, 1.18922, 1.12874, 1.22606, 1.24527, 1.31407, 1.31526, 1.30213, 1.35789, 1.32646, 1.3367, 1.34339, 1.36365, 1.36654, 1.37496, 1.46098, 1.64385, 1.46994, 1.45901, 1.4745, 1.47276, 1.48818, 1.64356, 1.59984, 1.63347, 1.5624, 1.56818, 1.6023, 1.74061, 1.74088, 1.83518, 1.83369, 1.80859, 1.63461, 1.64611, 1.69977, 1.64448, 1.74619, 1.92659, 1.56825, 1.56805, 1.53061, 1.48566, 1.4499, 1.44775, 1.44702, 1.43521, 1.43461, 1.44615, 1.43047, 1.3916, 1.35692, 1.32669, 1.33638, 1.30195, 1.31517, 1.28768, 1.28754, 1.16388, 1.12967, 1.12031, 1.09313, 1.07459, 1.07889, 1.08346, 1.08957, 1.09429, 1.1051, 1.11158, 1.44682, 1.29754, 1.12532, 1.12888, 1.17476, 1.21343, 1.15681, 1.20342, 1.19826, 1.52322, 1.20857, 1.30494, 1.20213, 1.19455, 1.19775, 1.19879, 1.20122, 1.19941, 1.20211, 1.20627, 1.20653, 1.31797, 1.19008, 1.30921, 1.30867, 1.38443, 1.3887, 1.31381, 1.28209, 1.28264, 1.30216, 1.29958, 1.23648, 1.23328, 1.23649, 1.23775, 1.23939, 1.24372
0.999537, 0.989418, 0.989548, 0.996033, 1.01847, 1.02026, 1.21308, 1.38602, 1.20645, 1.07975, 1.08029, 1.08133, 1.14916, 1.18706, 0.0041525, 1.15977, 1.27098, 1.23362, 1.1528, 1.15393, 1.36153, 1.24068, 1.24739, 0.00401717, 1.27155, 1.29859, 1.27239, 1.3484, 1.53085, 1.39488, 1.17809, 1.1771, 1.1576, 1.06792, 1.24338, 1.17369, 0.977688, 0.977822, 1.0467, 1.04245, 1.10415, 1.09253, 1.1326, 1.13586, 1.15323, 1.1645, 1.2012, 1.29314, 1.30616, 1.3201, 1.34712, 1.38132, 1.37933, 1.33777, 1.34112, 1.37446, 1.39259, 1.37913, 1.37839, 1.47567, 1.49553, 1.45414, 1.46212, 1.47725, 1.50263, 1.65622, 1.61686, 1.61644, 1.54727, 1.57902, 1.66026, 1.73601, 1.73348, 1.80225, 1.79415, 1.71744, 1.71926, 1.64818, 1.68607, 1.7549, 1.71754, 1.7658, 1.58573, 1.53342, 1.52507, 1.45043, 1.44979, 1.45754, 1.44521, 1.45136, 1.44741, 1.43948, 1.40632, 1.39121, 1.36931, 1.37103, 1.36235, 1.3186, 1.32091, 1.33695, 1.28987, 1.27699, 1.14752, 1.12051, 1.09897, 1.08208, 1.08201, 1.11518, 1.07241, 1.10162, 1.09949, 1.11006, 1.41988, 1.12693, 1.12873, 1.12835, 1.13271, 1.2144, 1.41772, 1.19316, 1.24717, 1.38849, 1.25723, 1.19614, 1.19264, 1.19187, 1.1943, 1.19791, 1.19874, 1.19891, 1.19954, 1.20358, 1.24057, 1.2331, 1.18718, 1.31071, 1.27051, 1.33, 1.34838, 1.38509, 1.37262, 1.29347, 1.29202, 1.38474, 1.41728, 1.2334, 1.23395, 1.24336, 1.23772, 1.23947
0.999665, 0.998107, 0.990211, 1.06444, 1.03222, 1.20501, 1.04253, 1.04603, 1.20531, 1.41324, 1.08912, 1.08772, 1.08818, 1.15486, 1.12623, 1.14911, 1.15645, 1.18829, 1.1127, 1.11223, 1.2035, 1.22441, 0.00385714, 0.00461614, 0.00446658, 1.37485, 1.29303, 1.27882, 1.53329, 1.25155, 1.12783, 1.14568, 1.13775, 1.13237, 1.13002, 1.06497, 0.976769, 0.977323, 1.00802, 0.998129, 1.10522, 1.11916, 1.12683, 1.13971, 1.17201, 1.18221, 1.23957, 1.36805, 1.31723, 1.31471, 1.33537, 1.38253, 1.35768, 1.37009, 1.34977, 1.40015, 1.38495, 1.40226, 1.38087, 1.43351, 1.50648, 1.45215, 1.48529, 1.48632, 1.50169, 1.66094, 1.66142, 1.63521, 1.54732, 1.56746, 1.68959, 1.73519, 1.73528, 1.6841, 1.66986, 1.7135, 1.72037, 1.821, 1.86382, 1.88624, 1.82203, 1.77951, 1.59838, 1.57511, 0.00469627, 1.49514, 1.51093, 1.45037, 1.44733, 1.43378, 1.4182, 1.40267, 1.38901, 1.38708, 1.4017, 1.36079, 1.34649, 1.34769, 1.33145, 1.34071, 1.25189, 1.21725, 1.16974, 1.16041, 1.1529, 1.09245, 1.12179, 1.08153, 1.08041, 1.07711, 1.10099, 1.10617, 1.19114, 1.4472, 1.12901, 1.12528, 1.13303, 1.21248, 1.20567, 1.19303, 1.24984, 1.19041, 1.19103, 1.19359, 1.19413, 1.19074, 1.19589, 1.19446, 1.19785, 1.19868, 1.19958, 1.20037, 1.1998, 1.1851, 1.18506, 1.31174, 1.34718, 1.34697, 1.38673, 1.46795, 1.28872, 1.29275, 1.2922, 1.38564, 1.25886, 1.23509, 1.23549, 1.22842, 1.23643, 1.2364
1.00555, 1.07225, 1.06676, 1.05073, 1.24362, 1.4446, 1.21548, 1.04653, 1.21342, 1.08339, 1.0913, 1.09139, 1.09116, 1.08967, 1.09192, 1.16035, 1.16439, 1.16264, 1.11388, 1.11161, 1.11509, 0.00433168, 1.23209, 1.32431, 1.63781, 1.22061, 1.27978, 1.29115, 1.21928, 1.16881, 1.10235, 1.34459, 1.14818, 1.16451, 1.18633, 1.04414, 0.99359, 0.977499, 1.00319, 0.983686, 1.10725, 1.13707, 1.12303, 1.12404, 1.18451, 1.21665, 1.24982, 1.29161, 1.36124, 1.37506, 1.42481, 1.42059, 1.37187, 1.38811, 1.37153, 1.39256, 1.42595, 1.40266, 1.38242, 1.43706, 1.55735, 1.56853, 1.48151, 1.51693, 1.66115, 1.66157, 1.5892, 1.58836, 1.56235, 1.56184, 1.60301, 1.65188, 1.65028, 1.69589, 1.69225, 1.71116, 1.72449, 1.86263, 1.88329, 1.8859, 1.8562, 0.00453746, 1.60071, 1.54046, 1.54096, 1.58545, 1.52781, 1.45708, 1.45886, 1.43287, 1.40325, 1.39836, 1.39083, 1.39163, 1.38158, 1.37523, 1.3757, 1.3544, 1.38958, 1.3499, 1.24674, 1.22014, 1.17106, 1.16834, 1.13917, 1.13905, 1.14993, 1.09111, 1.0943, 1.07674, 1.09957, 1.10339, 1.20157, 1.14752, 1.12731, 1.12582, 1.13161, 1.1329, 1.16555, 1.18412, 1.31614, 1.24958, 1.18896, 1.19148, 1.19153, 1.19156, 1.20202, 1.19346, 1.20113, 1.20003, 1.197, 1.20145, 1.20079, 1.18146, 1.18156, 1.34638, 1.34644, 1.34688, 1.32218, 1.2645, 1.27383, 1.46422, 1.29103, 1.29199, 1.27353, 1.23555, 1.24502, 1.23094, 1.23411, 1.23604
1.0126, 1.04756, 1.10526, 1.20637, 1.21018, 1.21479, 1.21244, 1.04799, 1.21555, 1.08593, 1.08911, 1.09157, 1.09176, 1.08983, 1.0939, 1.22981, 1.14355, 1.17773, 1.17601, 1.11515, 1.11575, 1.20729, 1.16562, 1.18826, 0.00397341, 1.41576, 0.00426315, 1.21772, 1.17526, 1.11239, 1.08205, 1.1504, 1.08314, 1.16265, 1.03143, 0.94677, 0.947166, 0.978955, 0.989339, 1.01436, 1.09779, 1.17112, 1.177, 1.17689, 1.20013, 1.24369, 1.27285, 1.30566, 1.34824, 1.39229, 1.42599, 1.42755, 1.39272, 1.39872, 1.38685, 1.42075, 1.42689, 1.42412, 1.43399, 1.45329, 1.513, 1.51935, 1.5745, 1.52924, 1.5268, 1.67262, 1.70571, 1.59351, 1.5629, 1.56281, 1.62516, 1.65165, 1.65172, 1.69233, 1.70322, 1.72094, 0.00423621, 1.90033, 1.9003, 1.88734, 0.00419642, 1.83771, 1.6372, 1.59755, 1.52938, 1.50237, 1.50221, 1.4574, 1.44014, 1.4269, 1.40263, 1.40119, 1.39465, 1.40173, 1.37502, 1.38148, 1.38922, 1.34735, 1.34661, 1.35044, 1.29089, 1.22878, 1.17147, 1.1544, 1.13916, 1.14014, 1.11045, 1.09148, 1.08115, 1.09986, 1.09845, 1.10117, 1.2052, 1.20147, 1.12732, 1.12827, 1.12297, 1.28953, 1.21264, 1.17947, 1.32551, 1.2299, 1.18475, 1.22633, 1.19114, 1.18649, 1.18772, 1.19746, 1.19993, 1.20094, 1.19683, 1.24856, 1.23084, 1.18118, 1.17901, 1.34731, 1.19108, 1.32216, 1.47464, 1.26349, 1.27249, 1.28071, 1.29039, 1.29087, 1.30487, 1.23489, 1.23934, 1.23485, 1.23468, 1.2341
1.02269, 1.01778, 1.12063, 1.16126, 1.20268, 1.13343, 1.0513, 1.05358, 1.4235, 1.32641, 1.08637, 1.08687, 1.09072, 1.09162, 1.0913, 1.0951, 1.36553, 1.15705, 1.15847, 1.11555, 1.11491, 1.13249, 1.17593, 0.00413098, 1.19161, 1.1696, 1.1361, 1.19566, 1.18681, 1.08868, 1.09299, 1.19235, 1.13944, 1.01569, 1.01959, 0.933, 0.97956, 0.998314, 0.960952, 1.01826, 1.09938, 1.19109, 1.15169, 1.20031, 1.25042, 1.26119, 1.26289, 1.31276, 1.30141, 1.43026, 1.42981, 1.4218, 1.40198, 1.39459, 1.42927, 1.43965, 1.44809, 1.42593, 1.44447, 1.45805, 1.5311, 1.58581, 1.57826, 1.53815, 1.53831, 1.67425, 1.61975, 1.60141, 1.59804, 1.58905, 1.63057, 1.65203, 1.65209, 1.65492, 1.65451, 1.72476, 1.9163, 0.00440525, 1.88669, 1.89573, 1.88681, 0.00434787, 1.62601, 1.57484, 1.5441, 1.50303, 1.53785, 1.61414, 1.46747, 1.43201, 1.40513, 1.399, 1.40045, 1.40581, 1.38393, 1.39884, 1.49523, 1.39658, 1.34708, 1.32614, 1.26322, 1.24142, 1.28271, 1.16029, 1.13862, 1.12433, 1.14295, 1.0736, 1.07522, 1.076, 1.09866, 1.10031, 1.10466, 1.32566, 1.12574, 1.16776, 1.13673, 1.15117, 1.30912, 1.18058, 1.34712, 1.18005, 1.18341, 1.18524, 1.18902, 1.18528, 1.18705, 1.19428, 1.20604, 1.22802, 1.19447, 1.22162, 1.21931, 1.18503, 1.18407, 1.19083, 1.1931, 1.32646, 1.36148, 1.28544, 1.27137, 1.27831, 1.27995, 1.41565, 1.31529, 1.23465, 1.23962, 1.23667, 1.23369, 1.23392
1.42129, 1.09178, 1.03837, 1.14935, 1.05311, 1.0549, 1.05318, 1.21894, 1.05947, 1.08134, 1.08238, 1.34106, 1.80877, 1.31105, 1.08524, 1.08519, 1.15542, 1.09805, 1.15351, 1.13713, 1.11799, 1.12655, 1.16078, 1.21905, 1.23633, 1.13322, 1.13603, 1.12303, 1.19776, 1.09984, 1.28043, 1.27863, 1.12787, 1.13415, 1.12147, 0.93013, 0.936615, 0.967367, 1.01953, 1.03029, 1.08123, 1.15652, 1.17084, 1.26814, 1.20908, 1.25457, 1.28635, 1.28584, 1.30201, 1.41015, 1.42757, 1.43085, 1.55372, 1.3911, 1.40945, 1.48973, 1.45355, 1.45487, 1.46533, 1.4788, 1.54434, 1.57949, 1.57513, 1.53902, 1.58565, 1.59241, 1.59344, 1.67479, 1.688, 1.6871, 1.75095, 1.67869, 1.72673, 1.65503, 1.69348, 1.70341, 1.8664, 2.05518, 1.88934, 1.88565, 1.88488, 1.96964, 1.6181, 1.62062, 1.566, 1.53986, 1.55041, 1.66453, 1.47929, 1.43714, 1.41966, 1.43097, 1.47753, 1.39506, 1.39678, 1.4033, 1.50319, 1.40339, 1.36559, 1.28827, 1.27145, 1.24173, 1.25658, 1.25682, 1.18217, 1.18397, 1.10582, 1.07264, 1.09681, 1.07335, 1.0897, 1.09426, 1.09999, 1.1047, 1.33273, 1.33259, 1.13644, 1.22703, 1.22699, 1.21077, 1.37058, 1.17825, 1.18214, 1.18278, 1.18746, 1.18767, 1.18728, 1.19126, 1.19567, 1.19104, 1.19237, 1.21982, 1.2382, 1.18412, 1.18219, 1.19096, 1.19206, 1.33101, 1.25026, 1.25413, 1.31612, 1.27733, 1.27792, 1.46808, 1.34361, 1.23694, 1.23328, 1.23274, 1.23532, 1.23356
1.03277, 1.02926, 1.51293, 1.13728, 1.05484, 1.05585, 1.05653, 1.27498, 1.09931, 1.11251, 1.24837, 1.65075, 1.23661, 0.00449759, 0.00477922, 1.20102, 1.13862, 1.1385, 1.18448, 1.18544, 1.3848, 1.38902, 1.11628, 1.22333, 1.2015, 1.12515, 1.18198, 1.14169, 1.21627, 1.22614, 1.17904, 1.11694, 1.0199, 0.998143, 0.933751, 0.931925, 0.951067, 0.953495, 1.0184, 1.06674, 1.10482, 1.14045, 1.1844, 1.2252, 1.25609, 1.26867, 1.31724, 1.29288, 1.30199, 1.35401, 1.4271, 1.41653, 1.40558, 1.40232, 1.47542, 1.47473, 1.46685, 1.46407, 1.47461, 1.47848, 1.53842, 1.55047, 1.56457, 1.54118, 1.54765, 1.59311, 1.6589, 1.62145, 1.61487, 1.64042, 1.74619, 1.67271, 1.7236, 1.65832, 1.65757, 1.69325, 1.72317, 0.00407641, 1.88448, 1.88734, 1.90364, 1.88734, 1.62348, 1.66736, 1.58564, 1.54358, 1.5569, 1.61371, 1.49248, 1.41885, 1.41843, 1.42506, 1.42481, 1.40578, 1.40246, 1.42254, 1.41554, 1.38104, 1.39914, 1.28777, 1.26071, 1.24454, 1.30088, 1.19118, 1.19103, 1.11949, 1.12281, 1.05926, 1.04966, 1.05061, 1.08282, 1.0909, 1.10018, 1.10235, 1.15798, 1.12629, 1.13831, 1.13928, 1.15434, 1.20674, 1.18205, 1.24111, 1.40196, 1.18056, 1.18533, 1.18658, 1.19015, 1.19189, 1.18926, 1.23069, 1.23456, 1.22094, 1.23658, 1.18006, 1.18237, 1.19021, 1.19116, 1.33191, 1.24785, 1.31432, 1.3827, 1.3178, 1.28193, 1.28529, 1.3291, 1.23304, 1.23167, 1.23488, 1.22632, 1.23056
1.03568, 1.03827, 1.13599, 1.13302, 1.05386, 1.05501, 1.21202, 1.2117, 1.24465, 1.1369, 1.36792, 1.23977, 1.24291, 1.27449, 1.07683, 1.33678, 1.13581, 1.13711, 1.1203, 1.06073, 1.15431, 1.15794, 1.28543, 1.03799, 1.11212, 1.1107, 1.11009, 1.14671, 1.15757, 1.15044, 1.16824, 0.991006, 0.994053, 0.994589, 0.979665, 0.931039, 0.958015, 0.989368, 1.00158, 1.08134, 1.17074, 1.14995, 1.18511, 1.27469, 1.24792, 1.27551, 1.28419, 1.2946, 1.29836, 1.3206, 1.33807, 1.41873, 1.3995, 1.41092, 1.48983, 1.46233, 1.46803, 1.46184, 1.49218, 1.50235, 1.56886, 1.58901, 1.55175, 1.53712, 1.54496, 1.61195, 1.62347, 1.6237, 1.6133, 1.63014, 1.66467, 1.67478, 1.65718, 1.65837, 1.65753, 1.69396, 1.70282, 0.00427118, 1.88904, 1.88812, 1.88403, 1.8879, 1.65204, 1.60148, 1.66796, 1.58639, 1.58885, 1.60732, 1.63744, 1.41942, 1.42053, 1.43245, 1.45236, 1.41574, 1.44013, 1.42222, 1.3966, 1.34757, 1.33934, 1.38213, 1.28455, 1.25144, 1.26478, 1.19142, 1.18579, 1.13608, 1.0751, 1.06512, 1.07813, 1.07452, 1.07487, 1.08127, 1.09629, 1.09446, 1.20847, 1.12263, 1.1305, 1.34738, 1.14122, 1.43666, 1.18304, 1.25106, 1.40279, 1.18086, 1.18299, 1.1889, 1.18887, 1.18256, 1.1786, 1.17849, 1.23409, 1.1883, 1.2292, 1.17888, 1.18355, 1.19022, 1.34192, 1.23595, 1.24969, 1.25142, 1.36608, 1.32336, 1.28459, 1.28606, 1.28903, 1.3398, 1.23251, 1.23386, 1.23284, 1.23096
1.03712, 1.03609, 1.13751, 1.13685, 1.13739, 1.0726, 1.21207, 1.25076, 0.00418632, 1.28871, 1.16152, 0.998896, 1.24367, 1.2336, 1.07956, 1.08907, 1.10179, 1.1679, 1.12628, 1.05729, 1.05457, 1.12927, 1.0652, 1.43661, 1.15288, 1.02429, 1.11987, 1.09481, 1.03036, 1.14108, 1.0699, 1.19336, 0.980503, 1.14368, 0.976445, 0.906803, 0.926022, 0.981365, 0.983713, 1.0752, 1.1148, 1.17153, 1.24708, 1.27452, 1.28904, 1.27854, 1.28528, 1.29383, 1.30507, 1.32307, 1.3443, 1.37823, 1.40697, 1.41585, 1.39599, 1.49089, 1.45221, 1.48887, 1.49058, 1.50347, 1.50352, 1.56854, 1.58181, 1.53838, 1.55353, 1.59346, 1.62392, 1.62587, 1.62729, 1.65391, 1.76463, 1.67559, 1.6634, 1.66239, 1.66097, 1.67694, 1.6877, 1.82704, 1.8891, 1.88768, 1.93754, 1.98187, 1.68855, 1.59912, 1.59176, 1.58703, 1.59267, 1.59682, 1.50915, 1.5142, 1.43207, 1.43155, 1.5139, 1.41899, 1.50711, 1.40604, 1.3932, 1.32358, 1.29705, 1.27531, 1.26525, 1.24333, 1.20288, 1.20156, 1.16461, 1.1186, 1.0894, 1.06089, 1.07835, 1.07941, 1.0817, 1.14034, 1.09561, 1.0982, 1.10841, 1.16555, 1.12592, 1.13592, 1.13627, 1.18617, 1.20978, 1.18753, 1.1733, 1.17488, 1.18702, 1.18748, 1.18638, 1.18107, 1.17829, 1.17815, 1.1826, 1.18742, 1.18829, 1.17735, 1.1781, 1.19447, 1.21909, 1.21875, 1.24521, 1.24767, 1.33226, 1.36758, 1.28477, 1.2865, 1.42626, 1.33679, 1.23356, 1.23438, 1.23481, 1.22824
1.03797, 1.04429, 1.16508, 1.13681, 1.13273, 1.15842, 1.20887, 1.20806, 0.00437855, 1.28367, 0.00437467, 1.03531, 1.05824, 1.05836, 1.09219, 1.04988, 1.10745, 1.12566, 1.12561, 1.06485, 1.01942, 1.05009, 1.14992, 1.0771, 1.18165, 1.08814, 1.08816, 1.08472, 0.927178, 1.15413, 1.08902, 1.155, 1.1068, 0.977131, 0.903213, 0.952627, 0.924263, 0.959356, 0.987066, 1.06433, 1.11875, 1.14724, 1.25371, 1.28444, 1.27561, 1.27591, 1.31013, 1.28439, 1.30506, 1.30591, 1.30945, 1.35176, 1.37864, 1.39431, 1.40853, 1.49704, 1.49697, 1.46425, 1.48903, 1.49472, 1.56897, 1.56582, 1.69667, 1.57208, 1.54588, 1.54735, 1.69977, 1.61802, 1.62185, 1.65786, 1.76468, 1.66249, 1.66337, 1.66245, 1.72483, 1.852, 1.69988, 1.71646, 1.71484, 1.72032, 0.00369511, 1.68251, 1.64798, 1.58384, 1.58676, 1.58487, 1.62415, 1.57101, 1.5133, 1.50004, 1.46269, 1.46419, 1.46428, 1.41898, 1.50845, 1.45418, 1.39588, 1.32032, 1.27882, 1.26729, 1.27555, 1.23287, 1.23072, 1.18666, 1.1566, 1.13313, 1.14621, 1.10574, 1.07049, 1.0827, 1.0631, 1.06013, 1.09076, 1.09436, 1.09836, 1.2131, 1.17109, 1.29315, 1.42583, 1.18526, 1.18502, 1.26452, 1.24669, 1.17374, 1.18104, 1.18372, 1.18365, 1.17872, 1.1783, 1.1814, 1.1816, 1.18742, 1.18752, 1.18005, 1.18407, 1.19821, 1.21023, 1.39989, 1.40083, 1.24456, 1.2772, 1.36575, 1.28576, 1.28693, 1.42335, 1.24939, 1.4147, 1.23509, 1.23487, 1.2363
1.04169, 1.04381, 1.13464, 1.15055, 1.02236, 1.13736, 1.21987, 1.0985, 1.0454, 1.03765, 1.03577, 1.27319, 1.05017, 1.24975, 1.04008, 1.04282, 1.11433, 1.09787, 1.06399, 1.06566, 1.01803, 1.00505, 1.11935, 1.03555, 1.08804, 1.0979, 1.08127, 1.06509, 1.06547, 1.12706, 0.980044, 0.970741, 0.875593, 0.870988, 0.869478, 0.904992, 0.928171, 0.966125, 0.98729, 1.06448, 1.11897, 1.2009, 1.27366, 1.27797, 1.31479, 1.36198, 1.31085, 1.30841, 1.38968, 1.33716, 1.3383, 1.35574, 1.39252, 1.39574, 1.38457, 1.42723, 1.42972, 1.4513, 1.4968, 1.49359, 1.57014, 1.5658, 1.56398, 1.61787, 1.56146, 1.58763, 1.60453, 1.60504, 1.60484, 1.62713, 1.73083, 1.66654, 1.6626, 1.67832, 1.69008, 1.68899, 1.68969, 1.69026, 1.69056, 1.7195, 1.7171, 1.72096, 1.66141, 1.60792, 1.58895, 1.59254, 1.621, 1.56279, 1.53842, 1.46966, 1.45485, 1.52744, 1.45888, 1.4138, 1.45056, 1.44867, 1.34504, 1.29838, 1.27854, 1.25629, 1.25604, 1.23172, 1.20036, 1.19931, 1.14732, 1.12532, 1.12524, 1.06917, 1.07705, 1.06496, 1.08429, 1.06975, 1.08702, 1.09476, 1.09769, 1.10869, 1.2002, 1.33257, 1.36837, 1.30973, 1.16133, 1.19555, 1.24737, 1.17279, 1.28312, 1.24054, 1.19191, 1.20239, 1.17655, 1.18068, 1.18242, 1.18656, 1.18765, 1.18569, 1.18132, 1.1994, 1.20886, 1.28943, 1.23341, 1.24037, 1.27644, 1.35768, 1.28728, 1.29008, 1.37405, 1.24352, 1.24105, 1.24016, 1.2375, 1.23135
1.04047, 1.04231, 1.13895, 1.02021, 1.00569, 1.16231, 1.01639, 1.20842, 1.04009, 0.928714, 0.926471, 1.05703, 1.0117, 1.08909, 1.08819, 1.06804, 1.06327, 1.0642, 1.06829, 1.06929, 1.05787, 1.12086, 1.12117, 1.05419, 1.00879, 1.07609, 0.987184, 1.08805, 0.975193, 1.08593, 1.09161, 0.967669, 0.86912, 0.869723, 0.873157, 0.901525, 0.923578, 0.959162, 0.999076, 1.03582, 1.11045, 1.1465, 1.27091, 1.30061, 1.31353, 1.36543, 1.31956, 1.30977, 1.35977, 1.33375, 1.41009, 1.3753, 1.37051, 1.39181, 1.42035, 1.41443, 1.41453, 1.46727, 1.50938, 1.50954, 1.56031, 1.55927, 1.63022, 1.68024, 1.56761, 1.62437, 1.60536, 1.60465, 1.6063, 1.63359, 1.65991, 1.66599, 1.69312, 1.69193, 1.71019, 1.68586, 1.68449, 1.78207, 1.74059, 1.79842, 1.71668, 1.75518, 1.69888, 1.61089, 1.634, 1.59995, 1.69077, 1.56892, 1.56216, 1.50946, 1.48563, 1.50641, 1.43668, 1.41054, 1.4081, 1.46089, 1.32074, 1.31013, 1.27753, 1.26349, 1.25813, 1.23401, 1.22968, 1.20195, 1.17083, 1.14309, 1.10077, 1.07839, 1.09562, 1.06314, 1.08741, 1.07763, 1.07817, 1.14807, 1.09413, 1.17928, 1.19069, 1.13305, 1.12668, 1.18418, 1.16304, 1.29942, 1.20185, 1.24471, 1.22825, 1.25125, 1.36198, 1.2056, 1.20491, 1.1801, 1.18156, 1.18227, 1.18761, 1.18556, 1.28814, 1.20495, 1.20721, 1.22861, 1.23059, 1.31911, 1.32214, 1.28081, 1.28844, 1.29018, 1.36617, 1.24143, 1.24117, 1.23818, 1.23642, 1.22973
1.04158, 1.04258, 1.17079, 1.14945, 1.1523, 0.99645, 1.00232, 0.999644, 1.00889, 0.928815, 0.925993, 0.920601, 1.03183, 0.879195, 1.01948, 1.01617, 1.06769, 1.06476, 1.07333, 1.04787, 1.04095, 1.16172, 1.12901, 1.03281, 1.04747, 1.0628, 1.09716, 1.02338, 1.07251, 0.955977, 1.01466, 0.870253, 0.866645, 0.866559, 0.873313, 0.919217, 0.929208, 0.949313, 1.0057, 1.08442, 1.14101, 1.17197, 1.24639, 1.31658, 1.34673, 1.33948, 1.33573, 1.3406, 1.38881, 1.37482, 1.35849, 1.37778, 1.49525, 1.39689, 1.40628, 1.43351, 1.46376, 1.49201, 1.49171, 1.4857, 1.60249, 1.55556, 1.56416, 1.55954, 1.56193, 1.56936, 1.60573, 1.60415, 1.60877, 1.61675, 1.65134, 1.69904, 1.70298, 1.72106, 1.72696, 1.68608, 1.68522, 1.68387, 1.74129, 1.74099, 1.74869, 1.74801, 1.7492, 1.65453, 1.61761, 1.61806, 1.64249, 1.66246, 1.55218, 1.54899, 1.50913, 1.48828, 1.46077, 1.45457, 1.45067, 1.35147, 1.34113, 1.32726, 1.28342, 1.29059, 1.27062, 1.23749, 1.23931, 1.23988, 1.20577, 1.1514, 1.09732, 1.08736, 1.07375, 1.05019, 1.08266, 1.08182, 1.08356, 1.07439, 1.09398, 1.09445, 1.23763, 1.24716, 1.12667, 1.14426, 1.18904, 1.16881, 1.17031, 1.16498, 1.16439, 1.1691, 1.31961, 1.20144, 1.20175, 1.21068, 1.18093, 1.18133, 1.18831, 1.22601, 1.2329, 1.20612, 1.20661, 1.21931, 1.22932, 1.43405, 1.2635, 1.27569, 1.35666, 1.29266, 1.36114, 1.24652, 1.23653, 1.24253, 1.23434, 1.23141
1.14171, 1.21277, 1.23249, 1.15003, 1.13277, 1.09924, 0.994543, 1.05122, 0.925833, 0.925545, 0.925464, 1.04189, 1.03345, 0.874879, 0.875739, 1.10121, 1.04722, 1.06104, 0.997315, 1.02792, 1.04642, 1.04604, 1.14744, 0.946221, 0.94618, 1.07697, 1.0955, 0.873118, 0.874614, 1.13926, 0.981165, 0.870028, 0.857227, 0.91557, 0.901228, 0.916527, 0.98629, 0.973865, 1.01183, 1.03656, 1.14691, 1.21862, 1.23405, 1.4516, 1.33444, 1.33484, 1.33933, 1.39421, 1.40534, 1.36775, 1.37561, 1.43506, 1.40924, 1.39923, 1.42542, 1.43327, 1.48671, 1.48967, 1.52421, 1.5407, 1.57098, 1.55465, 1.56388, 1.5645, 1.57145, 1.56953, 1.60575, 1.60377, 1.69314, 1.66952, 1.68134, 1.70647, 1.75216, 1.72327, 1.72304, 1.68491, 1.68484, 1.71366, 1.74106, 1.76588, 1.81493, 1.82384, 1.73897, 1.67228, 1.61358, 1.62142, 1.64702, 1.638, 1.63997, 1.56009, 1.52901, 1.54393, 1.45519, 1.41368, 1.43503, 1.41085, 1.357, 1.34346, 1.28322, 1.28104, 1.29168, 1.3015, 1.30139, 1.27796, 1.21971, 1.17143, 1.12742, 1.08572, 1.06287, 1.05436, 1.05927, 1.08679, 1.08345, 1.07402, 1.16222, 1.09576, 1.10494, 1.24944, 1.12269, 1.12271, 1.18843, 1.18278, 1.19407, 1.16117, 1.16125, 1.33354, 1.20851, 1.32382, 1.20213, 1.23008, 1.23277, 1.17604, 1.1923, 1.19358, 1.22843, 1.32161, 1.2163, 1.21776, 1.22952, 1.43758, 1.26665, 1.27605, 1.27718, 1.28428, 1.41693, 1.39469, 1.23668, 1.23773, 1.23696, 1.22996
1.14204, 1.14313, 1.08883, 1.18084, 1.10561, 1.10458, 1.11348, 0.930428, 0.926428, 0.925105, 0.925986, 1.03561, 0.994663, 1.03914, 1.06206, 1.07776, 1.07295, 0.860115, 1.04509, 1.04053, 1.20452, 1.02456, 0.991907, 0.943626, 0.943811, 1.01163, 1.01554, 0.872587, 1.16516, 0.872073, 0.950329, 0.959379, 0.85594, 0.884554, 0.927616, 0.914619, 1.01472, 1.00059, 1.0231, 1.04133, 1.11662, 1.15473, 1.21159, 1.42987, 1.3772, 1.36737, 1.36214, 1.38431, 1.38423, 1.43295, 1.45648, 1.44688, 1.46113, 1.4754, 1.43454, 1.53772, 1.49047, 1.55552, 1.53332, 1.5587, 1.57201, 1.56326, 1.56453, 1.58461, 1.59273, 1.6432, 1.60355, 1.67169, 1.67824, 1.64236, 1.67093, 1.73282, 1.72654, 1.72331, 1.72375, 1.72339, 1.70674, 1.70547, 1.84127, 1.80954, 1.96193, 1.83111, 1.82774, 1.74789, 1.61397, 1.62291, 1.62193, 1.643, 1.56799, 1.63696, 1.53945, 1.55791, 1.51625, 1.45848, 1.38883, 1.38211, 1.35277, 1.32943, 1.30363, 1.28035, 1.34573, 1.33443, 1.33304, 1.27425, 1.20607, 1.17521, 1.12541, 1.08035, 1.05862, 1.05593, 1.0927, 1.06296, 1.08099, 1.07971, 1.07533, 1.08854, 1.42023, 1.25372, 1.12061, 1.38504, 1.34745, 1.19622, 1.34041, 1.17019, 1.16047, 1.39322, 1.32253, 1.5471, 1.24515, 1.23025, 1.2313, 1.17619, 1.17753, 1.19405, 1.2263, 1.22396, 1.21502, 1.2258, 1.22298, 1.23606, 1.29849, 1.27329, 1.28539, 1.33421, 1.37452, 1.28766, 1.23927, 1.23504, 1.23632, 1.45959
1.14546, 1.07769, 1.07498, 1.15292, 1.10515, 1.09728, 1.12346, 0.929153, 0.927365, 0.926064, 0.9161, 0.915796, 1.01163, 1.00796, 1.06757, 1.07549, 0.853554, 0.858504, 1.04282, 1.01932, 1.14533, 1.03623, 1.01269, 0.957323, 0.98179, 1.00783, 1.01866, 0.869127, 0.866295, 0.867533, 1.08162, 0.936792, 0.896892, 0.831519, 0.847756, 0.907384, 0.967447, 0.99823, 1.04004, 1.06818, 1.14499, 1.17824, 1.21653, 1.45343, 1.32763, 1.33546, 1.41182, 1.41668, 1.37771, 1.42364, 1.46149, 1.45812, 1.46143, 1.5128, 1.46284, 1.52831, 1.49379, 1.57582, 1.63242, 1.57769, 1.57005, 1.57618, 1.58639, 1.57917, 1.64755, 1.65783, 1.64744, 1.63567, 1.70916, 1.65706, 1.68987, 1.71953, 1.72679, 1.71108, 1.72509, 1.72466, 1.70734, 1.70685, 1.70554, 1.84179, 1.83145, 1.83133, 1.83022, 1.74797, 1.62054, 1.62019, 1.66147, 1.64832, 1.54773, 1.58114, 1.53141, 1.53037, 1.46462, 1.42611, 1.40034, 1.3823, 1.37958, 1.35665, 1.34651, 1.3232, 1.34962, 1.32938, 1.32878, 1.31162, 1.24612, 1.22277, 1.13376, 1.0736, 1.07844, 1.05899, 1.06668, 1.06354, 1.08127, 1.07738, 1.07269, 1.18617, 1.39038, 1.10236, 1.11511, 1.37882, 1.12714, 1.13062, 1.15356, 1.2765, 1.15347, 1.38946, 1.39206, 1.2063, 1.33826, 1.22218, 1.22343, 1.1775, 1.17729, 1.21566, 1.19838, 1.27491, 1.22871, 1.23129, 1.24285, 1.2596, 1.29961, 1.29951, 1.29963, 1.38581, 1.42998, 1.38789, 1.23594, 1.23268, 1.23382, 1.33416
1.14799, 1.11696, 1.0685, 1.08724, 1.16798, 1.10344, 1.03659, 0.928574, 0.927391, 0.927123, 0.916521, 0.915952, 1.06154, 1.05704, 1.06709, 0.855977, 0.855755, 0.856902, 0.858676, 1.19044, 1.14505, 1.04286, 1.01102, 1.03557, 1.01226, 0.903452, 1.02901, 0.866652, 0.864621, 0.864628, 0.932855, 0.844332, 0.855351, 0.845733, 0.853968, 0.901124, 1.01555, 1.08131, 1.07098, 1.11513, 1.14706, 1.17394, 1.21878, 1.27189, 1.33344, 1.32632, 1.37183, 1.37293, 1.37242, 1.43043, 1.4553, 1.46161, 1.49736, 1.47396, 1.55019, 1.50792, 1.56875, 1.6433, 1.61004, 1.59783, 1.62799, 1.67559, 1.59821, 1.58061, 1.60206, 1.64221, 1.68302, 1.6364, 1.64161, 1.65778, 1.65701, 1.70413, 1.75641, 1.70518, 1.72218, 1.79177, 1.7065, 1.69781, 1.70357, 1.75464, 1.91502, 1.83143, 1.82862, 1.69291, 1.61457, 1.62721, 1.60885, 1.6133, 1.54909, 1.58165, 1.51946, 1.53133, 1.46532, 1.41669, 1.39881, 1.39722, 1.42011, 1.48176, 1.38508, 1.42701, 1.34809, 1.33602, 1.27524, 1.31177, 1.18037, 1.20611, 1.14955, 1.07711, 1.07302, 1.07139, 1.05744, 1.06119, 1.07521, 1.07084, 1.06841, 1.11398, 1.08896, 1.22264, 1.2344, 1.11669, 1.13958, 1.14047, 1.16513, 1.19081, 1.15284, 1.15213, 1.62566, 1.21204, 1.22147, 1.22652, 1.23985, 1.22768, 1.21805, 1.2127, 1.18148, 1.24124, 1.2366, 1.23845, 1.24249, 1.26705, 1.29249, 1.29514, 1.2954, 1.30337, 1.32327, 1.3636, 1.23489, 1.23348, 1.23632, 1.38153
1.06649, 1.06574, 1.0671, 1.074, 1.03989, 1.39872, 1.01912, 0.928608, 0.927346, 0.931574, 1.04607, 1.17762, 1.06434, 1.03941, 1.06463, 0.887627, 0.855672, 0.852518, 0.855634, 1.04253, 1.13328, 1.06003, 1.0513, 1.05308, 1.02259, 0.9035, 1.0163, 1.04362, 0.864355, 0.864727, 0.932923, 0.881441, 0.859445, 0.830108, 0.86103, 0.890965, 0.994602, 1.07775, 1.11124, 1.11481, 1.15504, 1.2365, 1.23675, 1.28568, 1.31665, 1.31594, 1.34076, 1.34028, 1.41956, 1.41814, 1.45623, 1.4626, 1.45277, 1.48779, 1.49623, 1.50843, 1.50892, 1.64359, 1.60107, 1.59794, 1.59724, 1.60396, 1.60368, 1.57976, 1.58409, 1.64074, 1.63576, 1.63151, 1.64192, 1.65752, 1.66847, 1.66641, 1.75914, 1.70605, 1.70552, 1.7922, 1.71697, 1.69857, 1.71126, 1.77007, 0.00417959, 1.82976, 1.82836, 1.65431, 1.61595, 1.60229, 1.58572, 1.56737, 1.55421, 1.549, 1.51937, 1.55219, 1.45478, 1.4226, 1.39119, 1.43759, 1.4416, 1.44744, 1.3911, 1.3791, 1.36027, 1.29841, 1.22016, 1.19246, 1.27066, 1.19928, 1.1457, 1.0908, 1.0709, 1.07574, 1.07424, 1.07664, 1.08361, 1.19018, 1.06493, 1.26399, 1.08815, 1.12017, 1.11474, 1.11627, 1.12814, 1.12128, 1.14862, 1.18567, 1.15634, 1.17072, 1.36857, 1.21153, 1.21943, 1.22035, 1.22634, 1.2365, 1.16319, 1.23636, 1.17736, 1.17758, 1.18494, 1.18592, 1.18999, 1.19152, 1.29171, 1.32174, 1.29676, 1.30339, 1.32731, 1.34647, 1.23367, 1.23386, 1.23216, 1.39052
1.15624, 1.07115, 1.09335, 1.10994, 1.11422, 1.08767, 0.931588, 0.928964, 0.926903, 0.934033, 0.933203, 1.23727, 0.914368, 1.06114, 1.29687, 0.888002, 0.8566, 0.845509, 0.842301, 0.85262, 0.847796, 1.13962, 1.0502, 0.83468, 0.902143, 0.903221, 0.902712, 0.85634, 0.864045, 0.977123, 0.838292, 0.837809, 0.857751, 0.852828, 0.852474, 0.880492, 0.954354, 1.04699, 1.08595, 1.1339, 1.16496, 1.18771, 1.28274, 1.27392, 1.31278, 1.32004, 1.3139, 1.34368, 1.34951, 1.38018, 1.4419, 1.4608, 1.45166, 1.48809, 1.49874, 1.4981, 1.5095, 0.00413333, 1.60239, 1.60201, 1.59722, 1.60425, 1.64506, 1.61364, 1.58484, 1.63458, 1.62818, 1.63269, 1.6596, 1.67794, 1.68273, 1.70811, 1.72705, 1.70661, 1.71366, 1.7909, 1.71653, 1.69922, 1.77667, 1.77613, 1.77861, 1.82396, 1.67614, 1.63776, 1.61744, 1.61645, 1.73671, 1.56861, 1.53797, 1.5506, 1.54872, 1.47928, 1.4778, 1.42537, 1.447, 1.4402, 1.43735, 1.43353, 1.36821, 1.31823, 1.27849, 1.30119, 1.19545, 1.16458, 1.18883, 1.13171, 1.13047, 1.08984, 1.06791, 1.052, 1.10162, 1.09196, 1.10872, 1.06639, 1.06333, 1.07061, 1.08398, 1.08109, 1.125, 1.12166, 1.11346, 1.13765, 1.18225, 1.18846, 1.18207, 1.18474, 1.19739, 1.25544, 1.22914, 1.23244, 1.23409, 1.2323, 1.23395, 1.16617, 1.17031, 1.17575, 1.18233, 1.18405, 1.18659, 1.19067, 1.19852, 1.28752, 1.29644, 1.30238, 1.24612, 1.33245, 1.23239, 1.23073, 1.32218, 1.34003
1.18786, 1.126, 1.09849, 1.1, 1.11281, 0.983527, 0.929843, 0.927597, 0.928222, 0.934466, 0.933905, 1.23582, 0.914786, 1.04991, 1.02964, 1.02952, 0.89395, 0.841756, 0.841003, 0.846914, 0.846608, 0.835282, 0.831146, 0.827727, 0.828831, 0.903056, 0.988776, 0.842515, 0.841739, 1.00586, 0.842232, 0.837731, 0.816368, 0.815392, 0.858555, 0.956047, 0.977624, 1.04816, 1.09195, 1.16758, 1.20928, 1.28487, 1.28302, 1.36075, 1.2956, 1.29562, 1.29866, 1.32691, 1.36018, 1.35333, 1.41674, 1.4407, 1.47955, 1.49531, 1.49236, 1.49565, 1.50188, 1.52976, 1.60055, 1.6416, 1.63129, 1.62774, 1.6231, 1.61022, 1.58905, 1.60461, 1.63076, 1.6384, 1.67599, 1.67051, 1.68588, 1.6798, 1.68452, 1.70619, 1.80019, 1.79665, 1.72487, 1.68992, 1.69202, 1.84109, 1.7756, 1.70969, 1.78926, 1.65147, 1.61758, 1.6195, 1.59868, 1.59216, 1.53821, 1.53762, 1.52259, 1.4797, 1.5405, 1.44402, 1.40539, 1.45383, 1.43345, 1.4363, 1.32042, 1.29258, 1.28134, 1.2255, 1.18425, 1.16592, 1.14592, 1.12848, 1.12658, 1.07745, 1.07141, 1.04299, 1.08147, 1.06319, 1.0529, 1.06656, 1.06153, 1.06473, 1.08362, 1.08651, 1.09005, 1.12182, 1.10849, 1.13641, 1.1408, 1.18793, 1.17514, 1.19556, 1.19118, 1.13947, 1.15744, 1.23632, 1.2315, 1.23729, 1.23203, 1.16066, 1.17154, 1.17607, 1.17918, 1.18639, 1.18877, 1.19414, 1.20426, 1.21099, 1.21559, 1.29892, 1.30459, 1.3547, 1.2344, 1.23165, 1.23158, 1.34983
1.12489, 1.12654, 1.11169, 1.09918, 1.11714, 1.11299, 0.925364, 1.05043, 0.930507, 0.931914, 0.933806, 1.00923, 0.935671, 1.20166, 1.01476, 0.974882, 1.02584, 0.840569, 0.842438, 0.846353, 0.846563, 0.835111, 1.07349, 0.826221, 0.82864, 1.04357, 1.0192, 0.852147, 0.849002, 0.842622, 0.840824, 0.83866, 0.858343, 0.857778, 0.853517, 0.908183, 0.946053, 1.03913, 1.06744, 1.1718, 1.27068, 1.25161, 1.2997, 1.29967, 1.29914, 1.2897, 1.29812, 1.29959, 1.30808, 1.34442, 1.36405, 1.39568, 1.45874, 1.47554, 1.52831, 1.49601, 1.50035, 1.49606, 1.59493, 1.63802, 1.62464, 1.6573, 1.62293, 1.61066, 1.60633, 1.68632, 1.61088, 1.6508, 1.65084, 1.71034, 1.69619, 1.73027, 1.68574, 1.70249, 1.80673, 1.72421, 1.70237, 1.6913, 1.69113, 1.68856, 1.77054, 1.71069, 1.87808, 1.66224, 1.63362, 1.63602, 1.58648, 1.60363, 1.54764, 1.54671, 1.51673, 1.53116, 1.48983, 1.42886, 1.41607, 1.40535, 1.43149, 1.38878, 1.30663, 1.27174, 1.2349, 1.2202, 1.18, 1.16812, 1.13811, 1.12686, 1.10677, 1.09137, 1.07277, 1.03425, 1.04925, 1.05334, 1.03989, 1.06384, 1.06005, 1.06337, 1.074, 1.09059, 1.09127, 1.11897, 1.11778, 1.12836, 1.11198, 1.14575, 1.16875, 1.19281, 1.13018, 1.20529, 1.13838, 1.23571, 1.23363, 1.24039, 1.22718, 1.20012, 1.1737, 1.17509, 1.17761, 1.1872, 1.18955, 1.19856, 1.20227, 1.20775, 1.2156, 1.30028, 1.29638, 1.26763, 1.22827, 1.23594, 1.23141, 1.24808
0.960478, 0.959826, 1.10587, 1.09129, 0.946952, 0.963721, 1.00854, 0.921638, 0.930836, 0.932878, 1.15028, 0.934344, 0.931525, 0.955641, 0.997461, 0.973889, 1.00709, 1.02578, 0.843456, 0.843791, 0.84439, 1.07428, 0.818893, 0.826941, 0.826627, 0.827777, 1.05668, 1.07081, 0.839122, 1.00194, 0.833364, 0.832762, 0.917054, 0.804584, 0.888091, 0.910284, 0.959413, 0.975882, 1.10978, 1.17406, 1.28111, 1.25138, 1.3, 1.30675, 1.31335, 1.29897, 1.29897, 1.29866, 1.29582, 1.32617, 1.36151, 1.42847, 1.46442, 1.47059, 1.47443, 1.49256, 1.50986, 1.49743, 1.49544, 1.59592, 1.6038, 1.66474, 1.72003, 1.64436, 1.6101, 1.61269, 1.61123, 1.65195, 1.76949, 1.72254, 1.69295, 1.6888, 1.68769, 1.70284, 1.70702, 1.72414, 1.70433, 1.69229, 1.69201, 1.68679, 1.7436, 1.87908, 1.79692, 1.64459, 1.66883, 1.62829, 1.626, 1.6033, 1.57646, 1.55311, 1.51696, 1.49041, 1.46795, 1.42693, 1.42129, 1.44769, 1.38925, 1.37596, 1.28827, 1.24757, 1.22084, 1.20498, 1.18461, 1.17814, 1.14637, 1.13559, 1.12082, 1.12521, 1.05806, 1.02888, 1.01725, 1.01482, 1.04966, 1.05492, 1.04934, 1.06444, 1.07324, 1.0916, 1.09014, 1.13594, 1.15661, 1.16255, 1.11073, 1.11505, 1.11698, 1.12202, 1.12776, 1.13265, 1.13404, 1.23249, 1.23747, 1.23746, 1.23589, 1.23627, 1.23283, 1.17133, 1.17794, 1.1816, 1.24985, 1.19564, 1.20219, 1.20634, 1.30264, 1.23616, 1.23715, 1.23033, 1.22909, 1.23754, 1.23433, 1.24741
0.95933, 0.959547, 0.952385, 0.944107, 0.9457, 0.94255, 0.943033, 0.926611, 1.31173, 0.938999, 0.940691, 0.939095, 0.934826, 0.934895, 1.405, 0.965382, 1.7312, 0.00472129, 0.844184, 0.843413, 0.840427, 1.05076, 0.827661, 0.826543, 0.826994, 0.826825, 0.835387, 0.946929, 0.835792, 0.834752, 0.832449, 0.832857, 0.915159, 0.816794, 0.816934, 0.905866, 0.938395, 1.00891, 1.14629, 1.21601, 1.26417, 1.27728, 1.29938, 1.3009, 1.47088, 1.2989, 1.37428, 1.30205, 1.2963, 1.32679, 1.37816, 1.41557, 1.41386, 1.49008, 1.50667, 1.50172, 1.50265, 1.4984, 1.62233, 1.62181, 1.60197, 1.65504, 1.64908, 1.64596, 1.64195, 1.61663, 1.62087, 1.83931, 1.68303, 1.68996, 1.6935, 1.69892, 1.68704, 1.70361, 1.70761, 1.8266, 1.70489, 1.70441, 1.69273, 1.81046, 1.74272, 1.74202, 1.91739, 1.78197, 1.66797, 1.65202, 1.65115, 1.64219, 1.60198, 1.50705, 1.46438, 1.46231, 1.5627, 1.43085, 1.45113, 1.45053, 1.40954, 1.33792, 1.37101, 1.28525, 1.23317, 1.21503, 1.18236, 1.18133, 1.1596, 1.13774, 1.10338, 1.09181, 1.08792, 1.0362, 1.0578, 1.02942, 1.02648, 1.05556, 1.04952, 1.04973, 1.07057, 1.09226, 1.08506, 1.08733, 1.09022, 1.17902, 1.14416, 1.11523, 1.11493, 1.11566, 1.12689, 1.12804, 1.13225, 1.22632, 1.23787, 1.23877, 1.24127, 1.24256, 1.23764, 1.16733, 1.17468, 1.17897, 1.18397, 1.24877, 1.20114, 1.20849, 1.26191, 1.28815, 1.28995, 1.32917, 1.23149, 1.23635, 1.24243, 1.33703
0.955982, 0.954749, 0.948526, 0.944224, 0.94455, 0.943219, 0.94309, 0.935699, 0.943464, 0.944458, 0.943066, 0.940676, 0.935356, 0.934213, 0.941582, 1.40629, 0.966806, 0.973558, 1.00236, 0.842664, 0.839516, 0.839045, 0.828007, 0.826849, 0.826505, 0.825325, 0.847634, 0.847113, 0.82563, 0.831944, 0.831291, 0.832404, 0.830543, 0.911294, 0.905433, 0.898472, 0.942147, 1.00679, 1.13252, 1.25008, 1.24018, 1.24638, 1.29746, 1.35087, 1.3193, 1.32641, 1.32113, 1.33654, 1.33894, 1.33139, 1.3557, 1.39207, 1.46128, 1.46155, 1.4982, 1.52821, 1.51556, 1.51606, 1.62804, 1.61052, 1.62019, 1.66696, 1.65254, 1.65131, 1.64797, 1.6265, 1.62091, 1.66764, 1.69603, 1.72692, 1.67905, 1.70602, 1.70782, 1.69244, 1.70285, 1.70594, 1.70569, 1.70474, 1.70368, 1.7137, 1.8033, 1.7426, 1.73939, 1.73832, 1.69378, 1.6852, 1.69562, 1.70226, 1.63457, 1.55403, 1.46903, 1.43808, 1.50744, 1.43888, 1.46579, 1.45173, 1.34765, 1.3416, 1.31859, 1.3686, 1.25344, 1.22637, 1.18769, 1.17424, 1.15868, 1.15074, 1.14671, 1.13698, 1.05847, 1.03821, 1.09632, 1.01946, 1.02119, 1.05452, 1.04289, 1.0475, 1.06892, 1.07017, 1.08862, 1.09885, 1.20938, 1.14371, 1.20238, 1.11298, 1.1152, 1.11332, 1.20482, 1.12415, 1.21225, 1.21773, 1.23329, 1.19701, 1.25271, 1.24726, 1.15871, 1.16006, 1.16294, 1.17387, 1.17396, 1.24399, 1.24702, 1.25332, 1.25447, 1.26927, 1.28308, 1.23177, 1.23215, 1.34185, 1.34601, 1.36883
0.951218, 0.949891, 0.94645, 0.946022, 0.944798, 0.943428, 0.943004, 0.935995, 1.32082, 0.943324, 0.949316, 0.944499, 0.93524, 0.935626, 0.941992, 0.946014, 0.964576, 1.11343, 1.40536, 1.03659, 0.838881, 0.83984, 0.828415, 0.828207, 0.828447, 0.825176, 0.848668, 0.848586, 1.06725, 0.918265, 0.829362, 0.856332, 0.831441, 0.90644, 0.895981, 0.922059, 0.965058, 0.994772, 1.13175, 1.2126, 1.25653, 1.27989, 1.28061, 1.39417, 1.39159, 1.39046, 1.35915, 1.33804, 1.33812, 1.34907, 1.3894, 1.39929, 1.44721, 1.48276, 1.51662, 1.51336, 1.54907, 1.53819, 1.61465, 1.61306, 1.61114, 1.64844, 1.65433, 1.6529, 1.65407, 1.62644, 1.6349, 1.65546, 1.71106, 1.78137, 1.65756, 1.65782, 1.69207, 1.69156, 1.70536, 1.706, 1.7061, 1.70396, 1.70228, 1.79608, 1.95017, 1.91022, 1.73983, 1.87182, 1.69413, 1.69563, 1.7403, 1.65507, 1.64147, 1.53057, 1.50721, 1.43465, 1.51625, 1.44078, 1.44838, 1.45604, 1.34997, 1.31717, 1.31426, 1.32286, 1.27896, 1.24071, 1.20034, 1.19489, 1.17804, 1.14247, 1.11032, 1.1036, 1.08065, 1.03907, 1.09001, 1.01586, 1.02966, 1.05719, 1.04168, 1.04064, 1.05934, 1.2125, 1.1396, 1.08041, 1.06356, 1.15244, 1.2434, 1.1803, 1.12259, 1.10757, 1.11337, 1.20985, 1.21457, 1.22222, 1.23903, 1.18215, 1.23714, 1.18066, 1.15701, 1.1584, 1.16388, 1.16717, 1.2474, 1.24766, 1.25117, 1.25705, 1.205, 1.28571, 1.27702, 1.2893, 1.22974, 1.31925, 1.27199, 1.26362
1.03635, 0.948803, 0.94568, 0.946187, 0.945944, 0.945089, 0.945351, 0.937303, 0.943731, 0.946137, 0.950937, 0.957308, 0.937766, 0.937837, 0.946204, 0.945737, 0.959773, 1.11219, 0.967634, 0.998484, 1.0752, 1.18691, 0.828043, 0.82885, 0.835323, 0.831593, 0.848333, 0.849509, 1.02779, 0.807767, 0.868003, 0.775441, 0.826498, 0.826832, 0.874441, 0.947667, 0.975122, 1.11464, 1.11665, 1.18087, 1.24632, 1.25759, 1.28404, 1.36792, 1.37889, 1.39103, 1.36022, 1.36674, 1.35773, 1.34441, 1.37843, 1.42111, 1.47177, 1.48921, 1.51315, 1.52037, 1.51845, 1.54901, 1.62762, 1.61077, 1.62793, 1.63361, 1.64081, 1.65378, 1.72513, 1.72865, 1.62661, 1.66204, 1.67747, 1.68944, 1.66356, 1.70044, 1.6858, 1.68863, 1.70334, 1.70635, 1.70033, 1.69964, 1.7027, 1.7955, 0.00431801, 1.90339, 1.90352, 1.87168, 1.68907, 1.6955, 1.71317, 1.71267, 1.67665, 1.58662, 1.51631, 1.42873, 1.43637, 1.44334, 1.48954, 1.42599, 1.34802, 1.32673, 1.3194, 1.3269, 1.28118, 1.25486, 1.2097, 1.19478, 1.18121, 1.14366, 1.10756, 1.1091, 1.08524, 1.07657, 1.0393, 1.00971, 1.02308, 1.05069, 1.04755, 1.09062, 1.24632, 1.13543, 1.19592, 1.07524, 1.06297, 1.14505, 1.07853, 1.17789, 1.17255, 1.10819, 1.1095, 1.20156, 1.2101, 1.22553, 1.23384, 1.24763, 1.17023, 1.24367, 1.15391, 1.15421, 1.15973, 1.16024, 1.16217, 1.25495, 1.25209, 1.27501, 1.26008, 1.27767, 1.28617, 1.30564, 1.2249, 1.21784, 1.35137, 1.32076
0.932641, 0.949366, 0.946688, 0.94617, 0.944931, 0.944124, 0.943134, 0.940924, 0.943983, 0.953653, 0.953898, 0.945161, 0.944046, 0.937868, 0.944773, 0.946149, 0.953141, 0.929732, 0.930104, 1.16284, 1.18239, 1.01644, 1.02382, 0.836057, 0.837417, 0.831393, 0.839036, 0.849303, 1.06144, 1.03084, 1.08028, 0.77197, 0.84316, 0.851981, 0.876827, 0.898124, 0.888663, 1.11449, 1.11969, 1.20925, 1.23633, 1.26685, 1.27502, 1.35334, 1.37593, 1.44771, 1.35567, 1.45085, 1.37127, 1.36384, 1.38534, 1.52668, 1.51632, 1.56451, 1.52275, 1.51755, 1.51912, 1.54244, 1.57841, 1.60686, 1.61965, 1.63441, 1.64158, 1.64397, 1.63107, 1.65871, 1.65719, 1.65794, 1.6894, 1.67516, 1.66986, 1.67338, 1.68775, 1.68976, 1.71098, 1.70085, 1.6997, 1.69701, 1.84393, 1.84481, 1.85498, 0.00420519, 1.99935, 1.68559, 1.68501, 1.69875, 1.69709, 1.69651, 1.67631, 1.49294, 1.52031, 1.42797, 1.42651, 1.42345, 1.46177, 1.40494, 1.33566, 1.33701, 1.31348, 1.31018, 1.30859, 1.33006, 1.23625, 1.20838, 1.182, 1.17846, 1.13752, 1.08468, 1.08743, 1.08864, 1.03119, 1.03403, 1.03065, 1.05069, 1.04033, 1.2156, 1.13161, 1.1304, 1.13751, 1.14139, 1.05781, 1.1564, 1.15996, 1.16456, 1.1686, 1.18757, 1.18916, 1.69574, 1.11464, 1.21419, 1.47758, 1.24351, 1.24151, 1.24409, 1.15674, 1.15718, 1.15729, 1.15305, 1.24006, 1.16325, 1.1656, 1.2751, 1.18015, 1.27588, 1.28157, 1.29094, 1.22347, 1.22066, 1.31193, 1.24591
0.93644, 0.935754, 0.94678, 0.946384, 0.945865, 0.942823, 0.942313, 0.941669, 1.30902, 0.954547, 0.953882, 0.945373, 0.945434, 0.941468, 0.941976, 0.970622, 0.976575, 0.929607, 0.930498, 0.991471, 0.00431154, 1.02499, 1.05916, 0.850656, 0.835973, 0.834781, 0.842537, 0.844139, 1.0299, 0.731238, 0.730556, 0.769654, 0.814912, 0.860643, 0.878177, 0.917941, 0.912854, 1.13078, 1.17109, 1.20752, 1.22705, 1.26234, 1.28833, 1.35727, 1.37607, 1.41069, 1.38806, 1.43973, 1.44798, 1.42682, 1.38882, 1.52925, 1.608, 1.56448, 1.51394, 1.50895, 1.50933, 1.54199, 1.58361, 1.583, 1.60589, 1.60576, 1.64159, 1.69121, 1.63164, 1.63257, 1.62128, 1.67797, 1.70001, 1.67536, 1.67012, 1.76549, 1.76061, 1.69027, 1.69974, 1.73345, 1.70653, 1.74515, 1.81377, 1.7342, 1.71332, 1.72108, 1.78236, 1.68646, 1.69585, 1.69612, 1.77203, 1.58641, 1.56121, 1.50751, 1.49255, 1.56139, 1.47238, 1.47022, 1.43373, 1.46696, 1.35329, 1.36953, 1.3137, 1.30853, 1.29417, 1.31524, 1.24647, 1.20177, 1.19253, 1.1796, 1.18191, 1.09375, 1.07435, 1.0734, 1.0215, 1.01546, 1.01524, 1.09849, 1.04756, 1.11069, 1.12323, 1.12933, 1.45781, 1.0745, 1.05763, 1.11217, 1.1842, 1.11002, 1.10625, 1.09579, 1.09703, 1.19902, 1.2138, 1.23293, 1.23297, 1.24046, 1.24097, 1.24075, 1.15669, 1.15659, 1.15324, 1.15542, 1.15686, 1.16043, 1.16056, 1.25163, 1.28219, 1.17963, 1.29498, 1.31522, 1.34068, 1.21786, 1.31207, 1.35435
0.936136, 0.936583, 0.942918, 0.947228, 0.944055, 0.942171, 0.942692, 0.947495, 0.949673, 0.953594, 0.953945, 0.945565, 0.944414, 0.941286, 0.941915, 0.927988, 0.926015, 0.9285, 0.936971, 1.1471, 0.963619, 1.0598, 0.930527, 0.850299, 0.849871, 0.831585, 0.831746, 0.842686, 0.817431, 0.732281, 0.725851, 0.802027, 0.832318, 0.83107, 0.898157, 0.91654, 0.923117, 1.13045, 1.19574, 1.20612, 1.23752, 1.27031, 1.2842, 1.3516, 1.36154, 1.36569, 1.42614, 1.48549, 1.53143, 1.40259, 1.40266, 1.52052, 1.57746, 1.5266, 1.52599, 1.51037, 1.5093, 1.51567, 1.58569, 1.58273, 1.55819, 1.61041, 1.61607, 1.6899, 1.72619, 1.66996, 1.67248, 1.69048, 1.69965, 1.69938, 1.66119, 1.76939, 1.71792, 1.68234, 1.7167, 1.73415, 1.72994, 1.78822, 1.71271, 1.70462, 1.71447, 1.69968, 1.71232, 1.69226, 1.69225, 1.69926, 1.62881, 1.59339, 1.61414, 1.61285, 1.56475, 1.55803, 1.51766, 1.47252, 1.42981, 1.3959, 1.3393, 1.34745, 1.31322, 1.32005, 1.29934, 1.29715, 1.21031, 1.20131, 1.18531, 1.14695, 1.13442, 1.09045, 1.05517, 1.04038, 1.04895, 1.00406, 1.00906, 1.01242, 1.14262, 1.1222, 0.986248, 0.994885, 1.13637, 1.08071, 1.05387, 1.15629, 1.06836, 1.16404, 1.16388, 1.09722, 1.09621, 1.20094, 1.16129, 1.11302, 1.24049, 1.50155, 1.77776, 1.23077, 1.23328, 1.15582, 1.1528, 1.1533, 1.15747, 1.15685, 1.15783, 1.1598, 1.16633, 1.1778, 1.28406, 1.30494, 1.20852, 1.33208, 1.2238, 1.35854
0.933285, 0.934726, 0.944627, 0.947596, 0.945546, 0.945875, 0.946718, 0.947077, 0.949318, 1.11399, 0.944901, 0.945433, 0.942757, 0.940548, 0.924205, 0.924815, 0.925545, 1.22283, 1.14183, 0.94762, 1.15134, 0.0043278, 0.850841, 0.849153, 0.848673, 0.829222, 0.828891, 0.843129, 0.842819, 0.732239, 0.72595, 0.7869, 0.937068, 0.905469, 0.894608, 0.956433, 1.00562, 1.09506, 1.19585, 1.21937, 1.25783, 1.2827, 1.28437, 1.35867, 1.36423, 1.39874, 1.42219, 1.5097, 1.47039, 1.42869, 1.46095, 1.49338, 1.51175, 1.5111, 1.52564, 1.54136, 1.55209, 1.52733, 1.59248, 1.57426, 1.55898, 1.57772, 1.69277, 1.77223, 1.68696, 1.63339, 1.67005, 1.71503, 1.81834, 1.81668, 1.6578, 1.6609, 1.71795, 1.77442, 1.6663, 1.741, 1.72997, 1.72941, 1.71354, 1.69585, 1.69633, 1.69929, 1.71287, 1.71181, 1.69792, 1.69758, 1.63749, 1.58976, 1.56772, 1.54844, 1.50867, 1.49344, 1.45353, 1.48741, 1.4278, 1.39159, 1.35824, 1.36404, 1.34101, 1.34645, 1.31649, 1.27186, 1.27041, 1.2125, 1.18545, 1.13085, 1.09445, 1.08365, 1.05136, 1.04646, 1.0105, 1.00613, 1.01541, 1.01712, 1.15644, 0.982681, 0.984155, 1.27021, 1.0251, 1.19883, 1.08468, 1.05984, 1.06991, 1.07156, 1.16232, 1.09295, 1.09143, 1.23705, 1.21922, 1.18855, 1.23269, 1.2353, 1.2346, 1.2359, 1.23783, 1.15684, 1.15185, 1.15318, 1.15591, 1.15663, 1.1555, 1.16253, 1.16681, 1.17374, 1.18684, 1.35338, 1.34654, 1.19526, 1.37571, 1.35559
0.939236, 0.93363, 0.944282, 0.948876, 0.945256, 0.945603, 0.945936, 1.11585, 1.20894, 0.942485, 0.942125, 0.94415, 0.944821, 0.940729, 0.923601, 0.925015, 0.926749, 0.976925, 1.14317, 0.947944, 1.26876, 1.03592, 1.03446, 0.849789, 0.85367, 0.856214, 0.845246, 0.843888, 0.850244, 0.73066, 0.751984, 0.789266, 0.879707, 0.840018, 0.939783, 0.953615, 0.971837, 1.10175, 1.1886, 1.22728, 1.24934, 1.2573, 1.30323, 1.38125, 1.36489, 1.36175, 1.42493, 1.42106, 1.49546, 1.40914, 1.47502, 1.50888, 1.52621, 1.58854, 1.59184, 1.54607, 1.55044, 1.5508, 1.59309, 1.57992, 1.59843, 1.59186, 1.69224, 1.69249, 1.64761, 1.63162, 1.63059, 1.72727, 1.67504, 1.73843, 1.66839, 1.66318, 1.65383, 1.65716, 1.6563, 1.72147, 1.72791, 1.76457, 1.71929, 1.73081, 1.67875, 1.67858, 1.73368, 1.71179, 1.74339, 1.65829, 1.64117, 1.62187, 1.6024, 1.5562, 1.49797, 1.49196, 1.46262, 1.44731, 1.48229, 1.46717, 1.37856, 1.38878, 1.38429, 1.30152, 1.2855, 1.26902, 1.22992, 1.20314, 1.19933, 1.14695, 1.10665, 1.07876, 1.06427, 1.03769, 1.00184, 1.00572, 1.0156, 1.01937, 0.990383, 0.983438, 0.998193, 0.99928, 1.11748, 1.12972, 1.08481, 1.10841, 1.06917, 1.07004, 1.10497, 1.08815, 1.09119, 1.38519, 1.74526, 1.2064, 1.21907, 1.24081, 1.23494, 1.23736, 1.22357, 1.15665, 1.15212, 1.15102, 1.15369, 1.15619, 1.15332, 1.16349, 1.16668, 1.17377, 1.18415, 1.18784, 1.19099, 1.19174, 1.3571, 1.36032
0.940496, 0.940537, 0.940326, 0.944445, 1.08209, 1.09086, 0.942546, 0.940479, 0.940038, 0.940265, 0.940997, 0.942436, 0.944649, 0.945446, 0.96745, 0.925244, 0.922667, 0.984303, 0.977808, 0.973026, 0.957381, 0.960127, 1.04676, 1.01877, 1.0304, 0.853204, 0.845734, 0.844888, 0.843285, 0.730218, 0.752517, 0.908808, 0.783184, 0.880976, 0.882132, 0.889401, 0.985638, 0.98891, 1.22233, 1.21977, 1.23046, 1.25533, 1.32387, 1.36084, 1.3993, 1.34463, 1.3774, 1.45929, 1.41935, 1.42532, 1.47456, 1.46103, 1.49234, 1.58949, 1.46384, 1.48287, 1.48228, 1.57213, 1.59872, 1.57756, 1.57839, 1.5793, 1.71014, 1.71772, 1.6483, 1.64753, 1.63617, 1.66942, 1.67556, 1.66732, 1.66119, 1.66604, 1.66831, 1.69035, 1.70307, 1.73987, 1.76603, 1.765, 1.70667, 1.69615, 1.67154, 1.66472, 1.66876, 1.7107, 1.7099, 1.82744, 1.66741, 1.6342, 1.56295, 1.54224, 1.51951, 1.52024, 1.44882, 1.44742, 1.44492, 1.45866, 1.41295, 1.38853, 1.34067, 1.27191, 1.2437, 1.23333, 1.22691, 1.19896, 1.17406, 1.12659, 1.09943, 1.07156, 1.03404, 1.00585, 1.0009, 0.995988, 1.01379, 1.01625, 0.98732, 0.987073, 0.987934, 1.00833, 1.00894, 1.11018, 1.11631, 1.23738, 1.06322, 1.06373, 1.16001, 1.08745, 1.08938, 1.36079, 1.43729, 1.20592, 1.25092, 1.25501, 1.24498, 1.23575, 1.15199, 1.15589, 1.15513, 1.15662, 1.15707, 1.15969, 1.15485, 1.16419, 1.16769, 1.16788, 1.27923, 1.18561, 1.19084, 1.18964, 1.19325, 1.36216
0.940131, 0.941215, 0.93998, 0.977132, 0.935631, 0.936847, 0.936157, 0.932745, 0.938527, 0.938948, 0.94207, 0.940876, 0.941331, 0.947515, 0.977087, 1.31367, 0.937153, 1.07339, 0.957186, 0.95693, 0.993672, 1.29974, 1.03649, 1.02667, 1.01942, 0.98852, 0.844623, 0.844536, 0.739637, 0.737287, 0.798081, 0.794116, 0.784991, 0.788045, 0.888267, 0.939402, 0.988613, 1.0266, 1.13661, 1.23018, 1.24383, 1.25315, 1.33561, 1.33948, 1.40205, 1.35776, 1.34679, 1.44713, 1.41676, 1.40881, 1.43405, 1.47142, 1.4682, 1.46659, 1.46379, 1.48553, 1.56423, 1.57299, 1.6288, 1.57538, 1.58953, 1.57391, 1.71251, 1.71851, 1.66781, 1.64395, 1.64394, 1.66129, 1.66906, 1.66149, 1.67301, 1.67222, 1.66877, 1.69247, 1.69029, 1.77968, 1.73048, 1.73122, 1.66976, 1.68269, 1.6529, 1.6522, 1.7031, 1.70223, 1.82912, 1.82759, 1.66671, 1.6434, 1.65449, 1.58282, 1.50557, 1.50644, 1.4788, 1.50007, 1.41693, 1.40835, 1.41552, 1.42303, 1.32037, 1.25055, 1.21672, 1.2183, 1.23775, 1.20085, 1.14397, 1.14003, 1.12489, 1.06616, 1.02955, 1.08288, 1.00015, 1.00018, 1.23697, 1.09637, 1.10216, 1.00951, 1.19252, 1.00829, 1.12063, 1.03372, 1.0351, 1.08405, 1.18111, 1.16139, 1.16017, 1.27438, 1.37171, 1.36567, 1.12018, 1.20156, 1.24904, 1.25654, 1.24406, 1.14892, 1.1495, 1.15082, 1.15353, 1.15453, 1.23371, 1.15836, 1.16243, 1.16997, 1.16874, 1.16501, 1.29014, 1.18579, 1.18553, 1.1898, 1.18788, 1.37194
0.928455, 0.928182, 0.928248, 1.0718, 0.934842, 0.935015, 0.935443, 0.936093, 0.938727, 0.939753, 0.938692, 0.939039, 0.941211, 0.951282, 0.951396, 1.03055, 1.0333, 0.978074, 0.956747, 0.957428, 0.949454, 0.950143, 1.02861, 1.02046, 0.987369, 1.00582, 0.845069, 0.843321, 0.835494, 0.742027, 0.797002, 0.789186, 0.792644, 0.787291, 0.819493, 0.95397, 0.989677, 1.06201, 1.13204, 1.23065, 1.24077, 1.27544, 1.29734, 1.3392, 1.32546, 1.32436, 1.35404, 1.37144, 1.39938, 1.41942, 1.42581, 1.45451, 1.46277, 1.46308, 1.49319, 1.50233, 1.56556, 1.53699, 1.66479, 1.58558, 1.59006, 1.57419, 1.71271, 1.71278, 1.67874, 1.64772, 1.63628, 1.66346, 1.6751, 1.65471, 1.67517, 1.66784, 1.67017, 1.69305, 1.70371, 1.71067, 1.72883, 1.65918, 1.67026, 1.67195, 1.65413, 1.65217, 1.70638, 1.70271, 0.00415571, 1.82897, 1.82673, 1.63728, 1.62388, 1.57463, 1.52797, 1.49394, 1.46839, 1.43343, 1.41577, 1.41654, 1.42687, 1.44568, 1.3125, 1.25387, 1.21583, 1.23016, 1.22682, 1.17186, 1.14364, 1.11557, 1.08638, 1.09397, 1.06141, 1.02475, 1.00082, 1.03558, 1.02339, 1.02502, 1.02035, 1.19428, 1.04051, 1.00781, 1.05358, 1.02987, 1.11629, 1.07021, 1.26252, 1.1577, 1.16222, 1.08933, 1.17518, 1.17655, 1.17943, 1.17951, 1.25015, 1.25084, 1.2528, 1.25627, 1.1439, 1.14731, 1.23815, 1.1527, 1.23, 1.23977, 1.16419, 1.16747, 1.1705, 1.17234, 1.17833, 1.18603, 1.18487, 1.1904, 1.18932, 1.19939
0.952052, 0.924987, 0.925182, 0.926461, 0.933102, 0.933221, 1.31436, 0.936752, 0.936453, 0.939064, 0.937999, 0.939337, 0.964477, 0.95232, 0.948789, 0.948118, 1.03408, 1.03543, 0.954069, 0.949729, 0.947867, 0.950223, 0.947265, 1.264, 1.08773, 0.98439, 1.01576, 0.847354, 0.763137, 0.74929, 0.731163, 0.904645, 0.903182, 0.785697, 0.785089, 0.982657, 0.988855, 1.07053, 1.13329, 1.23819, 1.25336, 1.26855, 1.3014, 1.3291, 1.32912, 1.32482, 1.34773, 1.3534, 1.39184, 1.40148, 1.40536, 1.44064, 1.46493, 1.47969, 1.50242, 1.50141, 1.52407, 1.52376, 1.53071, 1.53057, 1.67591, 1.71278, 1.7484, 1.72661, 1.69419, 1.64924, 1.63638, 1.6645, 1.6819, 1.6575, 1.73126, 1.66676, 1.67613, 1.67587, 1.71638, 1.69802, 1.7275, 1.68873, 1.67135, 1.67064, 1.66283, 1.64477, 1.71787, 1.69825, 1.93138, 1.83043, 1.82979, 1.65418, 1.63731, 1.57421, 1.55414, 1.50075, 1.44965, 1.43122, 1.41575, 1.4014, 1.36205, 1.39369, 1.3087, 1.28986, 1.23783, 1.21157, 1.20671, 1.1715, 1.17104, 1.11, 1.08895, 1.04301, 1.03718, 1.09872, 1.00006, 1.00171, 1.02075, 1.02342, 1.02801, 1.00243, 1.00298, 1.26475, 1.02963, 1.0238, 1.08153, 1.08069, 1.12762, 1.15502, 1.16375, 1.08875, 1.09144, 1.10275, 1.10678, 1.11603, 1.11815, 1.20602, 1.25375, 1.25738, 1.14252, 1.14523, 1.14802, 1.14754, 1.14926, 1.29474, 1.15648, 1.23064, 1.17347, 1.17224, 1.17699, 1.1848, 1.19103, 1.1891, 1.19094, 1.20989
0.908248, 0.917143, 0.920448, 0.920409, 0.936863, 0.924582, 0.944566, 0.937223, 0.938685, 0.938827, 0.938631, 0.944853, 0.963073, 0.951565, 0.949206, 0.948314, 0.946522, 0.950676, 0.955727, 0.946942, 0.947736, 0.950466, 0.948095, 0.953666, 0.959836, 0.959779, 0.99781, 0.84627, 0.757398, 0.749222, 0.731792, 0.89193, 0.818149, 0.853936, 0.919429, 0.961742, 0.996826, 1.06322, 1.10808, 1.23202, 1.2562, 1.25122, 1.36184, 1.32747, 1.32598, 1.32969, 1.33491, 1.33559, 1.35799, 1.42725, 1.44114, 1.44093, 1.46573, 1.48019, 1.52383, 1.52446, 1.5129, 1.51546, 1.52738, 1.5301, 1.62294, 1.71067, 1.70723, 1.65892, 1.73372, 1.64281, 1.64818, 1.63998, 1.68661, 1.65639, 1.71384, 1.67297, 1.69503, 1.67652, 1.68378, 1.6752, 1.6891, 1.73563, 1.73684, 1.66528, 1.66823, 1.66263, 1.69349, 1.7415, 1.93035, 1.82967, 1.91125, 1.65489, 1.7583, 1.59231, 1.59711, 1.50319, 1.44451, 1.48084, 1.41079, 1.37654, 1.39816, 1.32882, 1.3731, 1.25344, 1.2545, 1.21192, 1.20242, 1.20423, 1.16801, 1.16555, 1.09264, 1.06183, 1.02935, 0.996584, 0.998799, 1.00691, 1.02026, 1.02819, 1.02751, 1.01461, 1.00483, 1.29484, 1.03241, 1.02296, 1.11177, 1.2861, 1.50177, 1.07514, 1.28265, 1.08766, 1.09285, 1.10487, 1.17536, 1.18246, 1.19648, 1.25673, 1.26046, 1.25315, 1.24182, 1.1456, 1.14835, 1.14772, 1.14862, 1.14982, 1.15655, 1.23005, 1.23373, 1.16698, 1.17464, 1.17926, 1.2538, 1.18935, 1.19022, 1.21172
0.912161, 0.914781, 0.915161, 0.917734, 0.925586, 0.924493, 0.925259, 0.941787, 0.938667, 0.939888, 0.943613, 0.946407, 0.949625, 0.950289, 0.950251, 0.946729, 0.946652, 0.949715, 0.950835, 0.94582, 0.946789, 0.950419, 1.28176, 0.942982, 1.0057, 0.959907, 0.981154, 1.00501, 0.849432, 0.843042, 0.749416, 0.916176, 0.822178, 0.805495, 0.909014, 0.967086, 0.974908, 1.10596, 1.18709, 1.23021, 1.22751, 1.23644, 1.36335, 1.34004, 1.36067, 1.34913, 1.36693, 1.3385, 1.36113, 1.40497, 1.49658, 1.45047, 1.45211, 1.55391, 1.52762, 1.5342, 1.51291, 1.51614, 1.52333, 1.52694, 1.76484, 1.69168, 1.6645, 1.65907, 1.66802, 1.74421, 1.64042, 1.63892, 1.65821, 1.67959, 1.68875, 1.66604, 1.67508, 1.66121, 1.66948, 1.67603, 1.6788, 1.75252, 1.67479, 1.74388, 1.75278, 1.75253, 1.70681, 0.00413261, 1.92819, 1.9266, 1.89248, 1.86844, 1.63334, 1.59248, 1.59178, 1.50808, 1.44486, 1.4784, 1.43976, 1.37858, 1.37644, 1.37761, 1.26359, 1.25776, 1.24404, 1.20676, 1.20462, 1.20373, 1.16047, 1.11866, 1.1041, 1.05022, 1.02712, 1.03515, 1.00188, 1.00902, 0.995374, 1.00292, 1.0237, 0.99798, 1.04895, 1.03315, 1.03437, 1.01712, 1.04718, 1.07467, 1.09833, 1.06483, 1.25451, 1.12019, 1.38903, 1.09984, 1.10111, 1.20794, 1.20564, 1.20836, 1.52431, 1.25467, 1.13099, 1.13585, 1.14257, 1.14218, 1.14637, 1.14761, 1.15279, 1.15586, 1.16156, 1.16035, 1.23956, 1.17096, 1.29979, 1.19261, 1.19514, 1.27213
0.914328, 0.914627, 0.91591, 0.917717, 0.925797, 0.92563, 1.13851, 0.938723, 0.938922, 0.941356, 0.945498, 0.945569, 0.945362, 0.948314, 0.947435, 0.946361, 0.947154, 0.953138, 0.95288, 0.945647, 0.948587, 0.952798, 0.953484, 0.943169, 0.941992, 0.95972, 0.964574, 1.0078, 0.849955, 0.748876, 0.84092, 0.917716, 0.810632, 0.899931, 1.02816, 1.01029, 1.02181, 1.0751, 1.19646, 1.22899, 1.22981, 1.26191, 1.29985, 1.32064, 1.3315, 1.38044, 1.36209, 1.35362, 1.36424, 1.37044, 1.44796, 1.47562, 1.48007, 1.5523, 1.50901, 1.61262, 1.5861, 1.55835, 1.53112, 1.53118, 1.64147, 1.68763, 1.6591, 1.66398, 1.68898, 1.69696, 1.63671, 1.63535, 1.63303, 1.68176, 1.67652, 1.67562, 1.67534, 1.66137, 1.66874, 1.67335, 1.68462, 1.74353, 1.67526, 1.74076, 1.69265, 1.79315, 1.71313, 1.7416, 1.81095, 1.81028, 0.00435444, 1.78383, 1.63557, 1.59228, 1.59242, 1.50877, 1.58529, 1.45601, 1.4092, 1.37922, 1.3778, 1.28046, 1.27396, 1.26137, 1.25522, 1.24337, 1.19758, 1.26112, 1.21882, 1.11398, 1.14331, 1.07705, 1.04223, 1.02642, 1.00438, 0.981703, 1.00573, 1.00662, 0.998216, 0.99767, 1.05192, 1.03281, 1.0347, 1.0379, 1.05791, 1.04732, 1.11229, 1.06525, 1.15818, 1.12572, 1.32248, 1.10115, 1.10187, 1.1055, 1.21349, 1.26723, 1.11849, 1.2293, 1.12919, 1.13435, 1.13324, 1.13711, 1.14146, 1.14331, 1.14962, 1.23098, 1.15755, 1.15767, 1.24045, 1.24513, 1.29469, 1.19431, 1.19531, 1.20346
0.917981, 0.917476, 0.90105, 0.918671, 1.1092, 0.93422, 0.935057, 0.938787, 0.940996, 0.942871, 0.946082, 0.945543, 0.944733, 0.944895, 0.944429, 0.943076, 0.945172, 0.953508, 0.949776, 0.949723, 0.948994, 0.954004, 0.953445, 0.940566, 0.935032, 1.01555, 0.973633, 1.05711, 0.850016, 0.851083, 0.984399, 0.922074, 0.811558, 0.900236, 1.03077, 0.971645, 1.03435, 1.09157, 1.22279, 1.22184, 1.30026, 1.26867, 1.2654, 1.33672, 1.34406, 1.34619, 1.38528, 1.3476, 1.38109, 1.39937, 1.43059, 1.5198, 1.56998, 1.55031, 1.50973, 1.61579, 1.5553, 1.53585, 1.53379, 1.64504, 1.64174, 1.68875, 1.68553, 1.68315, 1.68925, 1.6892, 1.7044, 1.67478, 1.6366, 1.63652, 1.60852, 1.63782, 1.70369, 1.68526, 1.68425, 1.6753, 1.68231, 1.70292, 1.71598, 1.74168, 1.69232, 1.70768, 1.70065, 1.74372, 1.81129, 1.81055, 1.86805, 1.62435, 1.59918, 1.5853, 1.56076, 1.54574, 1.5216, 1.45515, 1.45476, 1.38752, 1.29951, 1.30681, 1.25365, 1.25317, 1.26169, 1.27031, 1.24571, 1.18832, 1.26855, 1.11819, 1.05828, 1.02938, 1.05265, 1.00551, 1.00562, 1.0045, 1.001, 0.998676, 1.00097, 1.12178, 1.05953, 1.03246, 1.03393, 1.03903, 1.03752, 1.04078, 1.05781, 1.06611, 1.07155, 1.07977, 1.1338, 1.15075, 1.09824, 1.1038, 1.10618, 1.21635, 1.11514, 1.21708, 1.12422, 1.12867, 1.13174, 1.13373, 1.13642, 1.13741, 1.14902, 1.15, 1.15332, 1.15573, 1.15185, 1.15704, 1.29918, 1.19608, 1.19506, 1.31151
0.870243, 0.907287, 0.906879, 0.938179, 1.33068, 0.934403, 0.936257, 0.939249, 0.942297, 0.952907, 0.949323, 0.9444, 0.944474, 0.944418, 0.945561, 0.944636, 0.94558, 0.945006, 1.38192, 0.953628, 1.01471, 0.951651, 0.953532, 1.12914, 0.935503, 1.09367, 0.977222, 0.987444, 1.06691, 1.00719, 0.987343, 0.921487, 0.905943, 0.896233, 0.977731, 0.991117, 1.02675, 1.15486, 1.20085, 1.21482, 1.23358, 1.23681, 1.25883, 1.26412, 1.32456, 1.37105, 1.37607, 1.35427, 1.35474, 1.44753, 1.50332, 1.54594, 1.53759, 1.51216, 1.50847, 1.50848, 1.55267, 1.56057, 1.53257, 1.57915, 1.64406, 1.6866, 1.68522, 1.68423, 1.69866, 1.68772, 1.66653, 1.67711, 1.63693, 1.63566, 1.61139, 1.62335, 1.68919, 1.68858, 1.68457, 1.70139, 1.73103, 1.64043, 1.70615, 1.86826, 1.69288, 1.70988, 1.70977, 1.70394, 1.7372, 1.86492, 1.77962, 1.61343, 1.5825, 1.55111, 1.55701, 1.55116, 1.52281, 1.52094, 1.41605, 1.38784, 1.29828, 1.25018, 1.24951, 1.26064, 1.24371, 1.18851, 1.19538, 1.18137, 1.1442, 1.11575, 1.04074, 1.02242, 1.02, 1.00808, 1.0673, 1.01383, 1.00785, 1.00156, 1.1491, 1.01007, 1.04055, 1.21146, 1.03547, 1.28785, 1.28523, 1.40846, 1.40964, 1.09235, 1.10169, 1.07227, 1.13748, 1.14999, 1.09342, 1.16445, 1.19538, 1.1963, 1.21241, 1.10532, 1.27681, 1.12863, 1.13166, 1.13613, 1.13599, 1.13371, 1.13827, 1.15147, 1.1529, 1.14525, 1.14721, 1.15651, 1.23855, 1.29953, 1.19411, 1.29743
0.918859, 0.891131, 0.905473, 1.33446, 0.937258, 0.935339, 0.939054, 0.942339, 0.952498, 0.952731, 0.950427, 0.946699, 0.943672, 0.942712, 0.944348, 0.944583, 0.942575, 0.94189, 0.94634, 0.945711, 0.946094, 1.08443, 1.0301, 1.31373, 1.00852, 0.926201, 1.06364, 0.866898, 0.921697, 0.860321, 0.983687, 0.904119, 0.906821, 0.913388, 0.943641, 1.06458, 1.1008, 1.10235, 1.21309, 1.19905, 1.22316, 1.24989, 1.22791, 1.2844, 1.33129, 1.33173, 1.37809, 1.39307, 1.37459, 1.49816, 1.4977, 1.47184, 1.51292, 1.51172, 1.52088, 1.60646, 1.55755, 1.55635, 1.57984, 1.55933, 1.62635, 1.62054, 1.68547, 1.61284, 1.66927, 1.66952, 1.66702, 1.76028, 1.76612, 1.63375, 1.6126, 1.61295, 1.67886, 1.64659, 1.70039, 1.64, 1.73125, 1.76413, 1.65885, 1.86795, 1.73051, 1.75804, 1.74153, 1.77835, 1.72709, 1.66981, 1.62433, 1.59207, 1.60953, 1.57278, 1.5296, 1.52517, 1.52031, 1.52001, 1.40651, 1.36047, 1.29458, 1.25101, 1.24847, 1.25038, 1.25058, 1.19009, 1.17862, 1.15381, 1.10442, 1.09244, 1.03101, 1.00574, 0.994596, 0.997614, 1.07358, 1.0145, 1.02255, 1.00153, 1.00505, 1.01208, 1.00968, 1.00881, 1.03517, 1.04142, 1.04253, 1.40887, 1.08215, 1.05854, 1.06685, 1.07114, 1.07692, 1.08148, 1.08879, 1.09532, 1.19206, 1.10042, 1.10211, 1.10578, 1.27589, 1.12654, 1.13225, 1.1339, 1.1355, 1.13547, 1.13623, 1.13992, 1.1412, 1.14333, 1.14621, 1.15603, 1.16251, 1.31143, 1.25373, 1.26655
0.857771, 0.862562, 0.939864, 0.956894, 0.937665, 0.947962, 0.942252, 0.944639, 0.946064, 0.949776, 0.949153, 0.948383, 0.94631, 0.943813, 0.943729, 0.941238, 0.937824, 0.937887, 0.943469, 0.946048, 0.937653, 0.936709, 0.938644, 1.0386, 1.03292, 0.977283, 0.881354, 0.880109, 0.987138, 0.870343, 0.870079, 0.896997, 0.894651, 0.920115, 1.04266, 1.01177, 1.12907, 1.16498, 1.1811, 1.17801, 1.226, 1.22647, 1.22633, 1.25687, 1.31498, 1.38985, 1.36804, 1.36503, 1.38293, 1.49647, 1.51396, 1.4786, 1.52373, 1.5127, 1.52408, 1.52584, 1.61041, 1.56945, 1.63362, 1.65449, 1.62662, 1.62136, 1.67984, 1.61388, 1.61233, 1.67098, 1.66855, 1.7512, 1.76953, 1.76939, 1.66195, 1.6497, 1.6491, 1.68202, 1.64714, 1.6401, 1.63068, 1.65234, 1.65116, 1.87294, 1.81017, 1.70102, 1.70996, 1.64689, 1.65789, 1.63924, 1.70692, 1.60926, 1.58867, 1.52953, 1.52695, 1.49842, 1.50305, 1.60892, 1.36946, 1.36001, 1.30657, 1.25363, 1.24432, 1.251, 1.25661, 1.18588, 1.18595, 1.12975, 1.07939, 1.05289, 1.11728, 1.02594, 1.00313, 0.97373, 0.982853, 1.01661, 1.01873, 1.00209, 1.00445, 1.00068, 1.00537, 1.15138, 1.33744, 1.03921, 1.04368, 1.05129, 1.05753, 1.06088, 1.06076, 1.073, 1.07626, 1.08177, 1.08457, 1.08847, 1.18842, 1.09781, 1.09832, 1.21358, 1.20093, 1.12769, 1.12903, 1.14008, 1.13991, 1.13833, 1.13998, 1.14182, 1.13969, 1.14256, 1.1446, 1.23064, 1.16204, 1.23379, 1.29441, 1.29563
0.85546, 0.961955, 0.928868, 0.927738, 1.11517, 0.947436, 0.945562, 1.27002, 0.946062, 0.949521, 0.950057, 0.950259, 0.943638, 0.943465, 0.942274, 0.939248, 0.935659, 0.937265, 0.938586, 0.94096, 0.939704, 0.935045, 0.93845, 1.24559, 1.02148, 1.16814, 0.880314, 0.879963, 0.876671, 0.870943, 0.870419, 0.881594, 0.881323, 0.929729, 1.0436, 1.03053, 1.05135, 1.12727, 1.16802, 1.18009, 1.21565, 1.22342, 1.24044, 1.26352, 1.35366, 1.33869, 1.37064, 1.43412, 1.40614, 1.49694, 1.47856, 1.47849, 1.46767, 1.42687, 1.45508, 1.44572, 1.61066, 1.55463, 1.63444, 1.63336, 1.62123, 1.62298, 1.63841, 1.61329, 1.6241, 1.67253, 1.66872, 1.75209, 1.80361, 1.7637, 1.77819, 1.65058, 1.64897, 1.66809, 1.70605, 1.64021, 1.63075, 1.61024, 1.65444, 1.68381, 1.66272, 1.7318, 1.74083, 1.63871, 1.63761, 1.62842, 1.63172, 1.60584, 1.59019, 1.56211, 1.52761, 1.48564, 1.50765, 1.47102, 1.43303, 1.36264, 1.32683, 1.28788, 1.24412, 1.23478, 1.27956, 1.20841, 1.17501, 1.14373, 1.09122, 1.04365, 0.992876, 1.01076, 0.959874, 0.973369, 1.02502, 1.01308, 1.01911, 1.00309, 1.01933, 1.00159, 1.00085, 1.00172, 1.2268, 1.03577, 1.04622, 1.04767, 1.05825, 1.05821, 1.06172, 1.07066, 1.07341, 1.14687, 1.08352, 1.08774, 1.08859, 1.09092, 1.08611, 1.0898, 1.18943, 1.2943, 1.13353, 1.1341, 1.13917, 1.13681, 1.14075, 1.14065, 1.14001, 1.14199, 1.13999, 1.14284, 1.16052, 1.16346, 1.16709, 1.25364
0.946829, 0.963014, 0.927042, 0.928905, 0.945392, 0.949472, 0.949985, 1.27031, 0.947108, 0.950421, 0.951377, 0.950226, 0.954431, 1.16121, 0.936275, 0.932313, 0.932111, 0.934574, 0.938395, 0.94582, 0.946119, 0.934452, 0.934447, 0.933083, 0.936342, 1.08303, 0.95823, 0.887352, 0.883698, 0.871206, 0.872254, 0.88049, 0.880625, 0.901815, 0.983951, 0.951178, 1.02553, 1.11025, 1.15839, 1.16017, 1.20872, 1.23464, 1.2386, 1.29132, 1.37553, 1.41778, 1.37016, 1.4307, 1.42768, 1.49646, 1.4736, 1.46511, 1.41002, 1.41132, 1.41791, 1.43907, 1.56081, 1.56091, 1.57023, 1.59601, 1.67297, 1.68839, 1.70673, 1.61257, 1.65159, 1.67242, 1.67133, 1.7656, 1.74788, 1.76457, 1.76329, 1.68551, 1.65024, 1.68028, 1.65503, 1.69597, 1.62809, 1.61546, 1.61326, 1.61198, 1.64438, 1.63152, 1.61327, 1.63032, 1.62251, 1.62159, 1.64045, 1.6048, 1.61268, 1.53368, 1.52967, 1.51251, 1.50992, 1.47107, 1.46173, 1.45999, 1.3465, 1.29189, 1.25279, 1.20865, 1.23052, 1.18693, 1.14476, 1.11972, 1.09533, 1.04729, 1.01274, 0.994026, 0.974362, 0.972228, 1.04373, 1.01443, 1.01572, 1.00728, 0.987478, 0.991859, 0.999757, 1.01614, 1.01846, 1.0345, 1.03904, 1.04584, 1.05782, 1.06014, 1.06151, 1.06346, 1.07283, 1.07462, 1.15193, 1.08608, 1.17375, 1.09094, 1.09233, 1.10819, 1.10804, 1.11792, 1.12986, 1.13258, 1.13468, 1.13518, 1.14136, 1.14254, 1.14286, 1.14152, 1.13652, 1.14264, 1.14772, 1.16133, 1.16356, 1.16436
0.920888, 0.883539, 0.917693, 0.915836, 1.0954, 0.949756, 0.978236, 0.973743, 0.953222, 0.952425, 0.951211, 0.950247, 0.947322, 1.14896, 0.935159, 0.93201, 0.929072, 0.933166, 0.941727, 0.942137, 0.945635, 0.934948, 0.931877, 0.933137, 0.932179, 1.18467, 0.888302, 0.888308, 0.889273, 0.893304, 0.977759, 0.880085, 0.960551, 0.883799, 0.959349, 0.970483, 1.03347, 1.13401, 1.16472, 1.17706, 1.22206, 1.24474, 1.24353, 1.34654, 1.34499, 1.41487, 1.40542, 1.39, 1.42813, 1.48165, 1.49006, 1.42587, 1.44674, 1.37903, 1.41938, 1.43141, 1.6453, 1.56155, 1.5823, 1.64773, 1.65079, 1.64872, 1.64818, 1.661, 1.64468, 1.67175, 1.67111, 1.76582, 1.76253, 1.76468, 1.65489, 1.65188, 1.65203, 1.6512, 1.68993, 1.62256, 1.61633, 1.61125, 1.65917, 1.61147, 1.65025, 1.63225, 1.61338, 1.61274, 1.62168, 1.62162, 1.62765, 1.60853, 1.62332, 1.53748, 1.55268, 1.51359, 1.58348, 1.4814, 1.38211, 1.36432, 1.34394, 1.29806, 1.2097, 1.21186, 1.19577, 1.16684, 1.1397, 1.16751, 1.09154, 1.05337, 1.01314, 0.987516, 0.970254, 0.972229, 1.00665, 0.999902, 1.01389, 1.01471, 0.988914, 0.993231, 1.08755, 1.01659, 1.01957, 1.02787, 1.03924, 1.0546, 1.05852, 1.06017, 1.05995, 1.06321, 1.09944, 1.07772, 1.16123, 1.07778, 1.07919, 1.08752, 1.24304, 1.12143, 1.11197, 1.11857, 1.12767, 1.1292, 1.12864, 1.13543, 1.13678, 1.1418, 1.16829, 1.1384, 1.13752, 1.1377, 1.14967, 1.15612, 1.15448, 1.24701
0.91642, 0.883921, 0.904584, 0.900987, 1.11227, 1.10321, 1.25052, 1.14045, 0.953162, 0.952399, 0.951608, 0.950331, 0.944223, 0.94233, 0.938414, 0.929505, 0.931031, 0.933101, 0.933222, 0.931899, 0.950575, 0.932559, 0.929277, 0.930997, 0.930199, 0.943202, 0.887653, 0.891488, 0.893723, 0.894216, 0.894784, 0.979912, 0.892181, 0.911713, 0.960678, 0.9979, 1.07673, 1.14302, 1.15968, 1.27392, 1.22505, 1.24444, 1.25087, 1.27863, 1.32781, 1.34844, 1.39835, 1.37424, 1.38478, 1.40249, 1.44468, 1.40197, 1.39525, 1.39853, 1.39348, 1.43291, 1.5454, 1.5455, 1.56266, 1.56083, 1.61182, 1.58203, 1.70076, 1.6607, 1.62293, 1.70193, 1.69407, 1.80646, 1.77775, 1.77629, 1.66476, 1.66757, 1.67324, 1.67105, 1.67273, 1.69627, 1.62249, 1.64029, 1.71988, 1.67762, 1.61693, 1.6477, 1.63024, 1.63101, 1.64518, 1.68377, 1.72124, 1.63854, 1.57154, 1.539, 1.56062, 1.55123, 1.61923, 1.46769, 1.41308, 1.36486, 1.36399, 1.30281, 1.22643, 1.21005, 1.19814, 1.17404, 1.16041, 1.13223, 1.10195, 1.02876, 1.00679, 0.983274, 0.978721, 1.04255, 0.99088, 1.00127, 1.00086, 1.01426, 1.01468, 0.991519, 1.00136, 1.01068, 1.25395, 1.01689, 1.03278, 1.28601, 1.06335, 1.06566, 1.05973, 1.06116, 1.06378, 1.06625, 1.06873, 1.07905, 1.08167, 1.24669, 1.10235, 1.10862, 1.11183, 1.11838, 1.12693, 1.12902, 1.12863, 1.12765, 1.13403, 1.22558, 1.22466, 1.23398, 1.14018, 1.25012, 1.14706, 1.15013, 1.14953, 1.29131
0.955986, 0.884094, 0.96085, 1.05846, 1.07438, 1.10913, 1.00558, 1.14028, 1.17248, 0.960219, 0.949833, 0.94909, 0.949077, 0.940193, 0.938987, 1.19681, 0.936737, 0.933748, 0.933198, 0.933666, 0.952451, 0.929406, 0.928535, 0.923673, 0.927907, 1.05285, 0.887056, 0.889899, 0.892699, 0.894853, 0.89788, 0.901452, 0.990414, 0.998266, 0.99935, 1.00893, 1.0739, 1.11904, 1.23272, 1.26095, 1.24418, 1.24467, 1.24828, 1.29759, 1.34072, 1.36107, 1.40538, 1.3746, 1.39307, 1.3881, 1.38693, 1.37138, 1.37353, 1.38918, 1.39022, 1.42578, 1.58425, 1.54554, 1.56448, 1.56217, 1.63532, 1.5863, 1.63847, 1.62295, 1.68077, 1.68273, 1.7357, 1.73721, 1.7782, 1.77818, 1.66211, 1.6658, 1.66828, 1.66815, 1.67197, 1.65003, 1.64927, 1.65701, 1.64607, 1.67845, 1.61667, 1.62575, 1.61729, 1.65418, 1.69657, 1.68707, 1.68754, 1.67275, 1.57158, 1.63825, 1.56787, 1.53539, 1.58503, 1.48237, 1.37954, 1.34362, 1.33073, 1.30383, 1.26816, 1.19834, 1.17402, 1.16903, 1.2083, 1.14311, 1.16034, 1.06134, 1.00142, 1.00119, 0.976872, 1.05633, 1.03197, 1.00247, 1.00525, 0.998514, 1, 0.991848, 0.999067, 1.0043, 1.00529, 1.01589, 1.04059, 1.04534, 1.03581, 1.08149, 1.06748, 1.05839, 1.06093, 1.06666, 1.06778, 1.07569, 1.08472, 1.09316, 1.10313, 1.10502, 1.11368, 1.12024, 1.122, 1.1285, 1.12697, 1.12641, 1.12826, 1.22263, 1.22774, 1.20511, 1.23527, 1.14822, 1.14777, 1.14997, 1.15255, 1.28844
0.878617, 0.879471, 0.892197, 1.10183, 1.06478, 1.03205, 1.13642, 1.12198, 1.1182, 1.11502, 0.974599, 0.956618, 0.99253, 0.938726, 0.937394, 0.93539, 0.935601, 0.941906, 0.940878, 0.940708, 0.95359, 0.952497, 0.925242, 0.922995, 0.925208, 0.923753, 0.959622, 0.880376, 0.879263, 0.894068, 0.9567, 0.999513, 0.987803, 0.987489, 1.00076, 1.00826, 1.08565, 1.10034, 1.30543, 1.26554, 1.24896, 1.2434, 1.24889, 1.2974, 1.28577, 1.32586, 1.40464, 1.33632, 1.37165, 1.36736, 1.36795, 1.37306, 1.3757, 1.38066, 1.39225, 1.42274, 1.57993, 1.55933, 1.56488, 1.56257, 1.65042, 1.61328, 1.63149, 1.66824, 1.68046, 1.66445, 1.73767, 1.73707, 1.77665, 1.77617, 1.63682, 1.63716, 1.66923, 1.66651, 1.66956, 1.67648, 1.72167, 1.75008, 1.63001, 1.65143, 1.6175, 1.61386, 1.60205, 1.60108, 1.74096, 1.68748, 1.73779, 1.64467, 1.63879, 1.63679, 1.55471, 1.5569, 1.55083, 1.42637, 1.39544, 1.3909, 1.32618, 1.29159, 1.23343, 1.21243, 1.18507, 1.16982, 1.15311, 1.1404, 1.15863, 1.0635, 1.05393, 1.02391, 1.02776, 1.00314, 1.00822, 1.00402, 1.01179, 0.999692, 1.00505, 0.993611, 1.0009, 1.00301, 1.00985, 1.1907, 1.02631, 1.02311, 1.05016, 1.05497, 1.06512, 1.05956, 1.05679, 1.1817, 1.07056, 1.07909, 1.0875, 1.08935, 1.09847, 1.10404, 1.17461, 1.11586, 1.11989, 1.16024, 1.12544, 1.12576, 1.12504, 1.1584, 1.22882, 1.22915, 1.38119, 1.15003, 1.15298, 1.15133, 1.15309, 1.15602
0.877173, 0.970267, 0.964522, 1.01058, 1.23382, 1.03755, 1.08439, 1.27538, 1.34408, 1.01153, 1.12768, 1.04849, 1.1451, 0.939219, 0.936855, 0.935238, 0.937276, 0.939805, 0.941006, 0.940943, 0.952788, 0.953068, 0.925412, 0.921846, 0.924969, 0.935363, 0.873661, 0.984783, 0.879784, 0.87717, 0.99105, 0.964738, 0.966183, 0.957193, 0.974836, 1.00372, 1.0789, 1.30917, 1.31503, 1.2644, 1.24857, 1.24748, 1.25061, 1.28755, 1.28696, 1.44393, 1.355, 1.35333, 1.363, 1.35113, 1.3777, 1.38341, 1.38776, 1.40504, 1.41516, 1.6242, 1.57978, 1.56092, 1.55613, 1.58731, 1.5539, 1.56763, 1.60751, 1.61071, 1.69662, 1.69355, 1.73607, 1.73413, 1.74743, 1.7728, 1.63641, 1.63723, 1.68829, 1.74844, 1.75337, 1.64599, 1.6657, 1.66512, 1.67476, 1.63761, 1.62744, 1.66456, 1.60192, 1.60136, 1.67542, 1.69567, 1.73816, 1.64679, 1.62621, 1.55396, 1.55733, 1.55608, 1.43805, 1.39657, 1.39199, 1.39056, 1.31721, 1.26018, 1.22277, 1.2077, 1.18096, 1.18519, 1.1846, 1.16585, 1.07576, 1.05984, 1.0466, 0.9961, 0.974333, 1.00488, 0.993964, 0.990386, 1.02564, 1.00186, 1.00569, 0.994704, 0.998219, 1.00658, 1.00849, 1.01301, 1.02362, 1.02236, 1.04843, 1.0858, 1.09213, 1.05866, 1.06787, 1.18079, 1.07375, 1.07587, 1.32024, 1.08954, 1.09374, 1.0988, 1.11901, 1.11194, 1.13262, 1.13489, 1.12086, 1.1194, 1.12021, 1.11978, 1.22227, 1.2282, 1.24343, 1.15131, 1.15483, 1.15671, 1.15477, 1.15374
0.958337, 1.0582, 1.09774, 1.21512, 1.20901, 1.19232, 1.15411, 1.16202, 1.3225, 1.27892, 1.08796, 1.04642, 1.13605, 1.13292, 0.938891, 0.938237, 0.939721, 0.939284, 0.938973, 0.938981, 0.951234, 0.952457, 0.921209, 0.922371, 0.924921, 0.965517, 0.971206, 0.983931, 0.876012, 0.959886, 0.992786, 0.964801, 0.964492, 1.03033, 0.970811, 1.00494, 1.09648, 1.17, 1.20287, 1.17402, 1.26246, 1.26056, 1.25809, 1.28761, 1.28758, 1.44157, 1.44107, 1.34302, 1.34694, 1.362, 1.39913, 1.38503, 1.41294, 1.43069, 1.42029, 1.62382, 1.71362, 1.56093, 1.5605, 1.55111, 1.55308, 1.61655, 1.60025, 1.70113, 1.67195, 1.69411, 1.76448, 1.74098, 1.74117, 1.77146, 1.66482, 1.7066, 1.7276, 1.81065, 1.81168, 1.65411, 1.65406, 1.66445, 1.68893, 1.64112, 1.60435, 1.60115, 1.59437, 1.62712, 1.63703, 1.71431, 1.6646, 1.63749, 1.56248, 1.52092, 1.52164, 1.4893, 1.45844, 1.39842, 1.36899, 1.38122, 1.3211, 1.30802, 1.2229, 1.20821, 1.15841, 1.15614, 1.1297, 1.13612, 1.06511, 1.08765, 1.04, 1.00241, 0.967691, 1.02592, 0.988639, 0.995241, 0.995754, 0.99815, 1.00152, 0.991986, 1.00167, 1.00668, 1.11554, 1.026, 1.02339, 1.02592, 1.19626, 1.04485, 1.0965, 1.06357, 1.06363, 1.06805, 1.06986, 1.07636, 1.09535, 1.08752, 1.09072, 1.10454, 1.12116, 1.10488, 1.10921, 1.14347, 1.11523, 1.11829, 1.1197, 1.12073, 1.16681, 1.16774, 1.13674, 1.1468, 1.1532, 1.15629, 1.1632, 1.17486
