1.18696838661014,1.21241449513991,1.22872837628068,1.2557539725901,1.25593625418598,1.29687895428663,1.29926917081359,1.32639505314991,1.32811107191364,1.33736719821558,1.3384910633475,1.33640376302497,1.33749984422991,1.35152173645711,1.3782670300285,1.35513222638682,1.35400249399955,1.38381094921292,1.53141823507189,1.4226556165911,1.42063108943832,1.43477042966686,1.43211775383803,1.48419395163735,1.44644682992614,1.45401826456952,1.4573666384845,1.45633971083636,1.45718967134139,1.45779078410408,1.52176413204283,1.45897207353482,1.45405678781878,1.4319191754908,1.45208241707513,1.46344105961196,1.45975953867345,1.49376791983015,1.47743117164249,1.49187410215698,1.46953540739848,1.46954217669943,1.50032055574726,1.46016129765889,1.49229888826493,1.48659469454017,1.4859502318276,1.49111556613306,1.49672927453946,1.49878766110114,1.49930154683478,1.50907260757054,1.50288498956545,1.50219835698007,1.49969110389037,1.5002593607228,1.49985977192003,1.50063884762343,1.65475901426697,1.58184935811855,1.59452130287182,1.72446473753154,1.65321335134268,1.64947909149522,1.67303315940262,1.53439612327682,1.53386869485095,1.6521482469525,1.48932021283191,1.4931700398071,1.4953312032901,1.49520931971607,1.49492696429969,1.49730615738732,1.50149216220539,1.45496007399488,1.45512938751473,1.40111476581033,1.3993855260133,1.3931580834652,1.330103993769,1.28819776991509,1.33482667083956,1.29849177842037,1.26712566238388,1.26752306911228,1.27104464297587,1.27167168628644,1.37949946578659,1.23966958287609,1.23741613384579,1.2569369371654,1.20145998171986,1.19358306738982,1.17726023752173,1.18108213709022,1.15603292117657,1.15610203655238,1.16912333446778,1.16944362836903,1.11754833396455,1.10303224144991,1.09772969872339,1.08283967959471,1.0707810468381,1.08118863905728,1.05348027043875,1.05288046737122,1.05272303095332,1.04158428362916,1.03636911292991,1.00437173242845,1.00278854838043,0.974944065336153,0.975224048927388,0.9688265424856,0.954612046448414,0.94761321976137,0.928277468914907,0.935151724958822,0.912439891203938,0.912260202735424,0.939618308321872,0.890663056777812,0.902576140318195,0.900631354893267,0.89665159649106,0.921532793832967,0.922253598454964,0.913067687721123,0.913434101192537,0.954837819019143,0.95410974962432,1.06470394866936,1.06412433198692,1.06329271607524,1.12746339818127,0.999649412762638,0.957983516971023,0.933103747903903,0.93202910141918,0.932586082185487,0.968397256759757,1.0036608759667,1.0214192148492,1.0224842472273,1.09763357567878,1.02149706645361,1.15135721120464,0.983553514230676,0.972024808834295,0.971964424515624,0.97679829395083,0.976289396636455,0.975613283594476,1.49767196740605,1.05983141711731,1.06212652610349,1.06845010049864,1.16316740417101,1.0325060740749,1.08570581433695,1.09265110961147,1.0933689248574,1.08733523190602,1.07876579976963,1.08488331744431,1.08441431228006,1.09760797710919,1.07904905144732,1.01525473231801
1.1999235445134,1.21755495607416,1.2286251023742,1.26833097615591,1.28296487175967,1.29889034800595,1.30085302360125,1.3248001503569,1.3294074063708,1.33772489083387,1.33681546933133,1.33638956707439,1.33668656991559,1.34228104187368,1.36314075731042,1.3645237179321,1.36561146405325,1.40686078223954,1.41615092339167,1.41803724530837,1.41827309448747,1.43240593416501,1.43735727574684,1.43986586222386,1.44621210792889,1.44823297540615,1.44870081793214,1.45119243892041,1.4516667086014,1.45091855558159,1.45497863254441,1.45547890481997,1.45116206348082,1.45332188046297,1.45556853675245,1.45884014455576,1.46547397948922,1.48579760554082,1.4829890179916,1.48468237931184,1.46574249197684,1.46567941030888,1.48840052376026,1.47577564271413,1.48009201948928,1.48428800313342,1.48546197647568,1.48661854677824,1.48742324858719,1.49053246261261,1.49460538119948,1.49660013543809,1.49725187359197,1.49680482120589,1.49543443160349,1.49419605015322,1.49279481649592,1.52905267273469,1.61425078982947,1.60463207797415,1.61128360743289,1.62389228354898,1.62689789118055,1.62285000221468,1.62074636070207,1.55957172911577,1.55374149129958,1.52142213839414,1.48419769515828,1.48713755578574,1.49196569318211,1.49248098492795,1.49140555526893,1.49074706281637,1.49408348273665,1.49064104871105,1.47773773055619,1.44192479676733,1.42854338721756,1.40828033267789,1.32878406164931,1.30847052402662,1.32526157909202,1.28170650839411,1.26772569453948,1.26760904912618,1.26946973364614,1.27002351934575,1.27669823021654,1.27291242029323,1.26800359089456,1.26234302841825,1.23134197680733,1.20027540688561,1.17762079429632,1.179013800219,1.16197511539558,1.15862343367884,1.15707688767606,1.15445423133835,1.13398388386521,1.11211529088043,1.1040273321533,1.09252093505835,1.08393063535015,1.07023633108018,1.05489770475578,1.05318038756226,1.05214331683553,1.04251138772964,1.03472304817296,1.01204962808811,1.0062761577441,0.985463738097413,0.978641577187125,0.95828871506479,0.948320193409394,0.947430790441414,0.939616346790967,0.938537110049786,0.92704048562742,0.920285918583459,0.914864083911973,0.907433155285173,0.905281700209523,0.903096161009768,0.902223065927234,0.921593490433952,0.92197941180565,0.921920768938059,0.942888211949897,0.955806104938048,0.993523098231995,1.04542920399915,1.03438059681733,1.02528502249836,1.01595852734853,1.00937993982054,0.98058792347575,0.938938526262828,0.936270223580778,0.933702235098073,0.970389476405353,1.00701266920866,1.01797807385043,1.02094976585813,1.02266029871892,1.02441943738668,1.02818797860503,1.03033848195336,1.03266198198761,1.03753607309749,1.04002385262525,1.04160642133358,1.04223726850967,1.05688087953401,1.05817310292926,1.05959527386297,1.06799178000137,1.10188019978011,1.09904908174908,1.09727096610463,1.09407294207365,1.09295089121192,1.09034926022304,1.0894587294328,1.08702331163565,1.08409212702571,1.0832392337739,1.04961527355319,1.01576276034084
1.19736269077619,1.22162673527466,1.22852340239324,1.30413136387737,1.30301798430044,1.30491503063301,1.30470142942361,1.32441379225866,1.33060534275661,1.36618629169617,1.33387568328169,1.33529875503628,1.33690340231461,1.33599276675572,1.36363819574221,1.36466055860056,1.36636584042956,1.45359761356262,1.39291978360107,1.41699448636657,1.41598520168106,1.43087205137334,1.46784139725248,1.43593132242419,1.45258891095893,1.44574881579933,1.4473257029705,1.44959923921837,1.44927482108173,1.44882600089004,1.46071576165396,1.46131106618804,1.47402017261139,1.45835574637168,1.45887394914466,1.46057009765261,1.47446260972159,1.52280001708206,1.50781095849635,1.47450343670475,1.47246167262007,1.47064139058709,1.49517325733725,1.47565567398012,1.47586148581842,1.48748937051231,1.49060091117079,1.4889605398238,1.48896286999059,1.52466289167528,1.49964284102157,1.49938871135021,1.49901285151086,1.49899502816907,1.49778696382223,1.49704178379959,1.49600747113053,1.59002687366233,1.62898477481041,1.635498987202,1.63007597797394,1.61362062715267,1.73715249143247,1.73029931662738,1.66162991342665,1.84302532618423,1.76107721837288,1.48642961369167,1.48611350952049,1.48586671826598,1.49814406636222,1.4972316158985,1.4950520029478,1.54765450876034,1.49856778827303,1.4966904725534,1.47934481696485,1.48047332333744,1.43735075856588,1.41472210258977,1.32650125821055,1.28778369147052,1.34043334699012,1.25807545456772,1.25744007489598,1.26574602355748,1.26264135009752,1.26406826177834,1.28861638653669,1.28753414256361,1.2856512103069,1.29460943593968,1.26399917042512,1.20658512228793,1.17633121480713,1.17779885982449,1.16425985606728,1.16032084679333,1.15956521785218,1.15350011371563,1.15249320499806,1.12201042301932,1.12001666899897,1.17240820998971,1.09687559412874,1.06315981559749,1.05687313892863,1.06507326967835,1.05173101361653,1.04319323093977,1.03340734142902,1.02560745340367,1.00974057443254,1.00181597596547,0.981571386969073,0.953859114616716,0.943800230869226,0.945569546273311,0.987133413699938,0.938638007833704,0.958781542571807,0.938823237129792,0.884709001083994,0.908916175638922,0.886957610816864,0.886710380401527,0.906781696359905,0.921196303920525,0.921039404038316,0.920633691204567,0.978634644077455,0.957132876682108,1.06317325038202,1.13049753316837,0.996095832053133,0.949926795370784,0.938831583221117,1.13207634178084,0.999844304781745,0.940655793455836,0.950238502286663,0.932658959530331,0.972362807812719,1.01193196933836,0.944137320238556,0.98104335294283,1.02024122469047,1.03257908132826,0.983845702660154,1.02829308667009,1.03002409514406,1.04050310906947,1.04144824248322,1.04800616487853,1.04564839041304,1.05586135347249,1.05721310987666,0.978111620817527,1.06643158945728,1.10842406995122,1.30078331750569,1.29870579175784,1.09284882222951,1.02431806179617,1.09070246120273,1.0904827834,1.09012297338681,1.09816714637398,1.08535595033606,1.01133885758354,1.01652278791718
1.22156906790192,1.21908781722849,1.32152823921724,1.32120640059528,1.34753444644753,1.41677308430773,1.37757036816189,1.37922386875641,1.33875247817827,1.33197792426641,1.3318151491108,1.33007434785293,1.32881492589665,1.3285859364372,1.42161568151142,1.3616543321299,1.35549508015951,1.39547466805203,1.39303935972798,1.41871930310766,1.41805257469794,1.41800163593692,1.41227888319894,1.42302784766877,1.42608885114937,1.42587939493701,1.49557262113076,1.44946591208703,1.45887856107902,1.43664401182088,1.43646965656788,1.43599995467049,1.43618932974494,1.42673339697572,1.45918096627858,1.47419133862593,1.54546084657161,1.52603401992403,1.57160227653797,1.47483049046669,1.47419956648664,1.47265926620931,1.47187305680688,1.56248225241586,1.55324970175031,1.55256666924125,1.49094352750825,1.49057244653672,1.49217823452735,1.49290970704823,1.49888984663372,1.52756665700838,1.5703581138915,1.52053096216481,1.52305383111696,1.49765804761682,1.55764812829479,1.6018005052196,1.60249433692415,1.54453314926089,1.5208565738906,1.52663819152103,1.52724821092584,1.55135835531231,1.553222349118,1.52402989496134,1.53678993555461,1.56168580657835,1.48671706933168,1.49306788585732,1.49781650335132,1.49745821685211,1.5607284528901,1.55345072363897,1.421935760013,1.39827427029766,1.39899742957945,1.37565118539571,1.37551469757843,1.31824520115433,1.31661286321507,1.316434007702,1.29753533417129,1.32273022162365,1.25750391094084,1.28828970350122,1.30019489990457,1.2947433129404,1.25234172617602,1.25259214958222,1.2941064006652,1.29442134452711,1.19256050545401,1.1892549289186,1.1760730930631,1.20026909679595,1.20638692649831,1.1564165372028,1.15263581779563,1.15234114920663,1.17340532840746,1.13910011026915,1.13935172102041,1.15986885564438,1.10542391117943,1.09711153469981,1.09855825342236,1.05913716783559,1.0576151800033,1.04530400303039,1.02669857223436,1.01301111473383,1.00053565446201,0.980277555337196,0.975323670228301,0.94709246730325,0.946870701525428,0.971745891079294,0.944017275130117,0.944322094852713,0.956667209457481,0.947054254196518,0.907338288789269,0.871968957622213,0.889558464432261,0.919442135572727,0.924272336181332,0.921310289758944,0.919640175013477,0.968987237984963,0.970779098995072,0.977902686263553,0.876428071499526,0.875262673841257,0.976798177233977,0.989828275342907,0.989854651920103,1.07024701857868,0.99906812923228,0.939150807805641,0.927429619180592,0.928081377237216,0.935367648544537,0.973589191779411,0.971662537967442,0.979959396341775,1.10507820654639,1.12443348411147,1.12176979474787,0.970962520563324,0.968950652111211,0.961693248841342,0.961899920883634,0.962195662397627,1.04983137684406,1.04941317449093,1.49886268898529,1.18281871601554,0.999710049250252,1.0027677200582,1.30259371821804,1.08870841375449,1.09057483222761,1.01824572456508,1.08925852262535,1.08976434015568,1.08964976639963,1.09970420786893,1.09962425211891,1.01643513593572,1.01583478886753
1.2458807940608,1.29102389267851,1.34015793555793,1.3190577012372,1.32003801240127,1.32924610000176,1.38947544024333,1.38038079469455,1.34417779771059,1.34378193618239,1.33217802051867,1.3298961787773,1.328723482828,1.32740049121497,1.32437368743636,1.36819388591096,1.33447999919845,1.34409010161469,1.39231915331188,1.39208664845116,1.41083947875247,1.39777843004927,1.39799649859564,1.41100114904548,1.42010931555847,1.4261590263806,1.5280833951261,1.53094112745663,1.49359730078625,1.44451449164107,1.52302569988885,1.47801187127295,1.46424565631249,1.46576336594453,1.42463830920775,1.51430663896899,1.49126057206508,1.49981242079504,1.49971569975687,1.49903312937154,1.58422391389214,1.46413745639097,1.46363718838422,1.51648918272432,1.51091442522532,1.51243412024616,1.50365314184887,1.50502450519879,1.51280103110398,1.50273771098656,1.51365113192384,1.54206580932017,1.52953751809387,1.52883739947346,1.57261916244397,1.59515887513406,1.53268407879217,1.51140139023037,1.51066136397558,1.50883760836145,1.50115291578985,1.51509730961903,1.51183027079378,1.51105835542672,1.49934344042773,1.52438880433471,1.53804845585424,1.49305070760067,1.49282904600051,1.49246493772423,1.49971294382843,1.49896102245745,1.44655207375936,1.43940406077505,1.44306919785363,1.41263907897265,1.4088389301011,1.37567967880586,1.37535139364693,1.37186853985194,1.31660406163899,1.31594929274166,1.3154737843528,1.37805148759412,1.37906874602414,1.28283120861651,1.2984095223197,1.29771154946789,1.25969503652257,1.25971137365073,1.26580222928191,1.23222957145873,1.19963769658198,1.1724555157018,1.17165558757078,1.16198355240912,1.16093192595509,1.15516835470032,1.15404904743036,1.16240525551712,1.16619250829422,1.15689703597033,1.14174440022797,1.14194897131864,1.09313205593235,1.0672483064181,1.06653926680797,1.06729390815689,1.09354748992496,1.03598933101381,1.02775991869834,1.00757089851896,0.999833022734781,1.06668368472375,0.97399222955284,0.946182899938701,0.946546443339299,0.93280262550734,0.945029353400334,0.947286387416091,0.963516522407195,0.892456322868199,0.933752662524078,0.880316459729625,0.881386323045577,0.887010616454113,0.888531573912587,0.958227763081666,0.959415543892509,1.00409703619291,0.871217109530542,0.983988676234185,0.867539634218657,0.86867037977947,0.870353858981152,0.983136904884495,0.978102282305024,0.902196504988147,1.14625033865369,0.946885952377222,0.946639192190532,0.926221764990973,0.928291420160606,1.01423097566841,1.02139186999549,0.938690061131255,0.968373503244169,1.01954646834962,1.01870643919087,0.980710724049306,0.962235199621245,0.961998441700796,0.961410759301941,0.960094579986785,1.05271952948447,1.05197017319864,1.05425583273269,1.24972845128911,1.01827637676625,0.976507004862329,1.08102578728743,1.08914808205324,1.08978485853959,1.32288285705354,1.56899471863562,1.56886535629121,1.08861185960936,1.0902352554119,1.08216725782851,1.08584091134042,1.01446113542542
1.25958086581214,1.26135239823421,1.32183670913672,1.31708263304797,1.32327290457279,1.33130571682821,1.33104833297485,1.33080104847112,1.3436208149829,1.34254211018638,1.34009709618944,1.3831714324719,1.35822973866734,1.36445317602699,1.37441087861101,1.35285036745349,1.39597675780286,1.40445586674647,1.40441965359384,1.38546043465743,1.38503292423884,1.37908525888691,1.3790801378873,1.37808859640307,1.40080605077977,1.51020242040271,1.48997375864941,1.48912506459199,1.56235895744787,1.51485357679584,1.51514022998119,1.43968483523988,1.47689172707816,1.47977620045732,1.42184405010131,1.49400498876937,1.57301377281275,1.48862542702774,1.60295821549021,1.53375065128494,1.54652069532646,1.46191635555425,1.46190989850076,1.46470900925603,1.465673346339,1.51430005777234,1.51400950235726,1.50592755931199,1.46674163111307,1.5442687133677,1.52874511432289,1.53350314938207,1.53067123159703,1.52422488397346,1.57057439187482,1.57472225667236,1.5295479913381,1.60034536198257,1.58781608454718,1.52664752652551,1.49690922870987,1.49770556733992,1.48597543649283,1.47286192723849,1.49261132480452,1.56407814969951,1.52464319119188,1.5094787654983,1.52362892784116,1.49775159321672,1.50084082599533,1.49983915624772,1.4539157912079,1.43658241579532,1.43245362119713,1.41090397950953,1.38203136233542,1.38160706827355,1.41239765656786,1.34337868864415,1.33492624478914,1.3189922762499,1.33377502264834,1.3152855274972,1.30595310705337,1.28184277827164,1.28065056255795,1.29673389024748,1.25622313207474,1.25840870124095,1.28821880535242,1.28605260723868,1.22039227470445,1.2242461145325,1.20184025913629,1.17944170343257,1.17288670039667,1.19738644630015,1.17285054240533,1.14810791615203,1.13555639104071,1.13107917194661,1.10842683602903,1.1001222757223,1.08974585228295,1.08126001942901,1.05583722762299,1.06896137888008,1.04842966804262,1.03459980588917,1.02025867345294,0.993421359049103,1.01905083310913,0.987283687054251,0.95523240345046,0.954399332684028,0.92442398714427,0.924559760609747,0.947201304307777,0.917648286977119,0.898276083578744,0.910458182961902,0.881525166057138,0.882355196681452,0.892158933704229,0.892306464126175,0.891696653024722,0.892127026050895,0.917622354759911,1.0143963907424,0.865250346040414,0.865181709049773,0.865973404218274,0.989745419662361,1.11737313531721,0.979702775265581,1.03543306610146,1.04943222558614,0.922833818310324,0.947135077020272,0.927080974026809,0.92649106476906,0.928701325134576,1.0231291346146,1.09056866954459,0.938791527234448,0.939388477334335,0.974302973956188,1.01676579480094,1.0172521115849,0.960168833236815,0.959661714466084,0.95874308627249,0.958646051622847,0.968496396653815,1.02631469941353,1.06978502674585,1.54110243448877,1.06330162109942,1.04380284011729,1.04315602866614,1.08161994371934,1.08055375940619,1.08655023425756,1.0839286618874,1.0888554169547,1.0861126792955,1.08523636823266,1.07154447660957,1.08342116985377,1.01489550941688
1.26141456253367,1.26303725499118,1.29504619645271,1.32852178822958,1.33020934015264,1.33215448402377,1.33226526530327,1.33517307734945,1.33918652602595,1.33970409069096,1.3389279721273,1.35934294956898,1.35955560168758,1.359995789356,1.35648686890512,1.35432621639701,1.39811087393606,1.40257041133923,1.40381547113931,1.38804274755221,1.38715425385045,1.39517068287488,1.39665010075434,1.40088794055322,1.40526116792578,1.48115642111477,1.48438529241277,1.4850267680845,1.51960518369728,1.49760786747703,1.48364339944771,1.47342955360399,1.47334322342431,1.47856769258549,1.47659687538948,1.48502297261523,1.47989196120671,1.48106810698995,1.537432965447,1.5369846717682,1.54119949767427,1.46131645715501,1.4611382705417,1.46136488229929,1.49113052949745,1.49027189422929,1.4869425403918,1.48907056465696,1.4830970469044,1.51558612684114,1.52750793580805,1.53023290447526,1.52755653456815,1.52126089270748,1.57522807650772,1.57177948797381,1.52668639151882,1.5263754134405,1.52707699415281,1.52020590244816,1.51166473254232,1.48990310944933,1.49030288671216,1.48706727861533,1.51133557658775,1.51188672699175,1.51912959905236,1.50682037505629,1.50710036482898,1.5074212497058,1.50956094635751,1.4983867995887,1.46580297821625,1.46372668527499,1.45433617262189,1.44036196480912,1.42157445658098,1.40724353484263,1.39485988420371,1.34907308955106,1.3245744431565,1.31775435650955,1.31695272170184,1.31728575156684,1.29516235337225,1.2883558128296,1.28714651045073,1.28561596686584,1.28579821335971,1.28707356711467,1.28736818037281,1.28609985745645,1.2302964220963,1.22460387453006,1.20468476198973,1.19649218801954,1.19389563462205,1.19124031958457,1.17004390239641,1.14914070620782,1.12843120474672,1.12557650240089,1.11287442555929,1.11075690783938,1.07969247848605,1.07786255318008,1.06994526182273,1.05789754114122,1.04759812561794,1.02543415277345,1.0187755507736,1.0049937208578,1.00961907242607,0.983206745192625,0.958593510155742,0.953813046434638,0.924926439779547,0.92554744016497,0.912118057218562,0.905600600590669,0.894669581312542,0.891159474452339,0.887748486827469,0.884715356883797,0.889539229323576,0.891556622199713,0.892220964668458,0.893195657569092,0.895153268590074,0.878110590733102,0.867199662979362,0.866918556325252,0.867064855831335,0.905146690503107,0.91965999113099,0.932718872428762,0.942509176370327,0.949880993807372,0.944240158096676,0.940412457103612,0.932432588151101,0.926897679257093,0.927777925052704,0.97277795683925,0.990454654027751,0.939457296805766,0.939265504443903,0.996504395728905,1.01419599180268,1.01533388992482,0.988775727511582,0.958754442018662,0.957353376746691,0.995576268831986,1.01664127794402,1.04859939671734,1.07078639580274,1.10535424482419,1.06566359937025,1.06720879320223,1.06781307530442,1.07430923317906,1.07769315578842,1.08784835485207,1.08668314288253,1.0874159668306,1.08669059868257,1.08625573351627,1.08371740890667,1.08217689967182,1.01524231847023
1.24253801866458,1.2659485744377,1.27229686977165,1.3344094721114,1.35049756085585,1.34985758443323,1.34493571276317,1.40328113495839,1.40413795058353,1.40243439961315,1.33344456351537,1.35829769674759,1.36106931646507,1.36038379840411,1.35664594904869,1.35513425758962,1.43676814047427,1.40462316003398,1.40448618380272,1.39072101506957,1.38930552443646,1.41711135185349,1.40143754837155,1.41516911927884,1.41099091554369,1.48782230989306,1.4888373387182,1.48904094909924,1.60445764266406,1.45378219938164,1.4625882268685,1.46335228265708,1.43686171149146,1.48253065103768,1.48041338175026,1.48018254798078,1.47769897262551,1.47851771554859,1.53556982521242,1.53475611899532,1.54153664584592,1.46910049324467,1.4686014684836,1.46624795689508,1.49548721416341,1.49411023287597,1.4589682764383,1.45875491044536,1.46000676764231,1.49265980851045,1.50497248750055,1.53330851182422,1.5330292162736,1.52353249230719,1.57496647813791,1.56014370814969,1.51932633518088,1.50270924458105,1.49459879902255,1.49362868200334,1.52730583084081,1.48395164740409,1.49754480931081,1.46986037490805,1.51382590502544,1.51426321340522,1.52501871165086,1.50932903315081,1.50983164771007,1.53862392676,1.64241091580226,1.47185491636796,1.47075400596282,1.46732928995746,1.46488223422735,1.46174478493983,1.46083738318912,1.41254813873871,1.36949030991272,1.35542153038474,1.32009769485485,1.3189290546768,1.31711199056117,1.32094033871884,1.28955429604946,1.28925397958741,1.35845456350785,1.26998197192837,1.29448697476738,1.29764748557805,1.26962476160605,1.28331932132257,1.24581926299534,1.22511405956967,1.20659952206342,1.22215941209058,1.2275044915614,1.18191002100355,1.16743851828042,1.15025946013409,1.11956849130857,1.12032570247984,1.12016152965567,1.12362319047961,1.07374590180379,1.07357626601279,1.08597664177462,1.04678012676852,1.04739033047016,1.0214824397586,1.01783783692148,0.999909605236339,1.05273844326157,0.978848608657466,0.961425146066847,0.953303139150148,0.924451216140406,0.92681789743413,0.901452406812717,0.895752727734337,0.879698762649111,0.878623636839132,0.917328120881974,0.880716592516693,0.882761800263835,0.892077527011018,0.89204679406668,0.892507773281528,0.895704048924204,0.870765377420374,0.869406378779181,0.868256754291661,0.86833035639145,0.878140241008019,0.878615342929632,0.879335380826941,0.8860069174206,0.967563981809781,0.96675009200459,0.918269019595144,0.938313179896228,0.926447908492182,0.927430046508318,0.934877878734712,1.01870185870441,0.939966298109344,0.939395449418402,1.02167417731451,1.01137757530525,1.04537276790726,1.00565490555455,0.953456829155297,0.954636414302031,1.02426579279761,1.03336258762909,1.07628061629273,1.07176139169944,1.54039682170107,0.972228779452661,1.20052960234724,1.06752415224508,1.06941468082968,1.06062193931594,1.09213915092366,1.09338729705457,1.08742080356253,1.08663128781907,1.08685189750578,1.29666934467088,1.0781775403826,1.01615883826668
1.26011189215624,1.25628344502027,1.28069678368805,1.2805889413635,1.2801962866748,1.29466139840045,1.29559940468908,1.28856551259482,1.2869716392946,1.28801317944624,1.28836308414721,1.3067287514661,1.30600125733302,1.30557808833205,1.36204930279529,1.35488976306145,1.35581232737858,1.42908585165806,1.38697157872337,1.38664919338194,1.38691189473061,1.4027806673154,1.40242281618734,1.38475342441682,1.41229131491358,1.50912167024634,1.51370980546028,1.51497988947896,1.51517744425958,1.4396125976771,1.43954935004253,1.44806524878473,1.45003475009872,1.51078706893319,1.43969853250654,1.47331302818317,1.47326594419052,1.47872101074793,1.47825044484667,1.46658409537948,1.46588329902354,1.4651209172252,1.47086927556451,1.46937533141649,1.46969879444489,1.45965767065356,1.45871825455289,1.45927820330171,1.52565719355018,1.49289350863633,1.50015453034898,1.53463424515292,1.52589738062311,1.5200157844792,1.55677108033496,1.5573667239414,1.5573138778063,1.47335273881918,1.61156669150011,1.52657198861732,1.526772566705,1.52036772664801,1.46237187505606,1.4623046888638,1.49959734561083,1.50300024554261,1.50423145425889,1.50407720787921,1.51002751920336,1.63957871335637,1.67905824793516,1.61460952210808,1.47066665105892,1.47015627146434,1.47034858772534,1.45122241067756,1.46530373499454,1.42233836153556,1.39196220573032,1.35987381581461,1.34107480816979,1.34534397502052,1.33678812755098,1.33678186918843,1.30966196954488,1.32219811769003,1.27788000455957,1.28180245961707,1.2825845209861,1.26659027192414,1.26700101977013,1.26758886532799,1.27911616657481,1.24344441085151,1.24336228753067,1.20261850014508,1.22394549167242,1.18126847276583,1.14624737456087,1.13302375854597,1.11229121782353,1.1060181450063,1.09415889415027,1.07856243685007,1.07357202014235,1.07379907315752,1.05533866367861,1.05629860726151,1.05291985764515,1.01193174962664,1.00864049050681,0.998417485494653,0.980966206343901,0.95641880733557,0.947093944626843,0.932414587144543,0.919144326446157,0.902479057778499,0.901586485496588,0.949238576199709,0.94996182780542,0.877650395778199,0.877251416667182,0.877288509174756,0.884015536613325,0.960284634257126,0.893657486377275,0.893447350763215,0.903510772119181,0.93477808994645,0.881009074984231,0.870088677126158,0.869268213989459,1.03831825095474,1.09698974591263,0.886393009823424,0.886956320487868,0.966235517192069,0.923046751021307,0.928925070103841,0.977091044234033,0.97713808498054,1.12667828879154,1.08800211551251,1.03659778866099,0.933596572669714,0.933679220541327,1.02124331177785,1.01025155149175,1.01044522901157,1.01380108617016,1.00607732964261,1.02142576962424,1.2060102488412,1.1988366659444,1.01516832798159,1.26469125705591,1.04127831786872,1.02637694578344,1.02578422841719,0.996070597612182,1.30315216215784,1.09363390536447,1.08898192610739,1.09035644621313,1.08914469681194,1.09301641468172,1.00783813153453,1.0096555301254,1.01064885756962,1.01146685913785
1.23157544753613,1.23807313033397,1.28175425723632,1.28903774547257,1.29921945677845,1.29495270571127,1.28702352083492,1.28816500472408,1.28836995380205,1.31024841290022,1.31314160135785,1.30720056973237,1.30726969484362,1.38005303806928,1.38713751394567,1.36211724755063,1.37516505900621,1.46652861386241,1.45997384003385,1.38707205467279,1.4297277755312,1.40239243623158,1.40249132008494,1.38686917590194,1.38671859696173,1.5103206917252,1.5123595142593,1.5127166159763,1.4725692833367,1.47270453913844,1.44710348123828,1.44847583577,1.45094854173977,1.45028204493247,1.48060534921003,1.46661443867222,1.46600097247499,1.47332011591807,1.47710844249889,1.46029832800478,1.46591022211916,1.47648104273918,1.47647315659239,1.47471834395182,1.47163245967212,1.47102635093399,1.48036849163859,1.49553205674047,1.49282656945319,1.49262208980162,1.49291866343802,1.5092393435133,1.51092371072555,1.51935682639815,1.51920196713355,1.48653108174638,1.4782485405724,1.47315525237344,1.47313820690837,1.49014470157839,1.48142438668896,1.45849369806839,1.45811576646932,1.45785047007531,1.49883270008717,1.47808908571239,1.50382687447669,1.50211600220618,1.55664339962596,1.61558091350416,1.61512507740771,1.61467941074425,1.61437814428616,1.47002581221357,1.43901499430717,1.43917180217395,1.45233345967847,1.43674848868678,1.43364325095346,1.38987491526561,1.34257658731152,1.33074932342336,1.33069592285488,1.31660028757288,1.29665015290073,1.32055191511452,1.27707828137778,1.32374605738298,1.29477863581071,1.25221170080741,1.24649819845528,1.24731623220873,1.25750012858019,1.2556426490747,1.28116215707303,1.22811887373407,1.27342778763745,1.17952168851093,1.16223339773799,1.17041930843568,1.07143986512682,1.0713098533668,1.07189943906475,1.0727397307477,1.07207317239134,1.07409407373527,1.09712984940737,1.09004578077443,1.06728069835178,1.00967916995228,0.993256979255489,0.977599992089669,0.97567790801516,0.964729869737015,0.949431846822354,0.93282637135313,0.928726212540311,0.929191483014904,0.901208356717903,0.901258211562635,0.888951364948305,0.888997074054155,0.937299994442788,0.900083220239293,0.874765534184002,0.96059627994324,0.899662031077137,0.899782113756699,0.899841738529997,0.968188648269654,0.908696341577521,1.13917657045703,0.870976863877485,1.08702275158684,0.883614817623998,0.8857631806404,0.886467622351689,0.885659623412893,0.97550041492555,0.907088943654719,0.907312496880605,0.954180407343107,0.976082299867432,0.958709292170019,0.954940147722827,1.01050709745346,1.01843435887521,1.01901690109148,1.01838669043046,1.01893340634011,1.00377717902151,0.955076332251576,0.955880367751314,1.20666456672257,0.963002686967888,1.03535128210962,1.25252945013284,1.0366651082029,0.984261349850513,1.02752001941238,1.04686406236661,1.09751012998304,1.52672557393946,1.08925906820728,1.09200680770377,0.996836820137921,1.06263546466717,1.00830283060229,1.00766087087749,1.00518897873392,1.00775187046513
1.23121201527153,1.23781385972532,1.25989193263453,1.26079733138399,1.27495255681746,1.28588208876118,1.28679700099838,1.28675786915302,1.31161278266079,1.32263720622591,1.32213873249036,1.32246889359949,1.32178590313113,1.33461286537775,1.38937642790872,1.38671187881046,1.38612555115871,1.3464344493779,1.35150747023377,1.39629486486279,1.40010204929031,1.40212588342062,1.40250551724608,1.42044262435191,1.38665867991271,1.50970304717148,1.51461550948457,1.49808594379784,1.49743811108965,1.4970993446507,1.47760257554631,1.45339457853175,1.45214033756551,1.44315864713988,1.48840353731882,1.46939604103692,1.46716535343711,1.47788599140571,1.47788126846486,1.52673415380648,1.46525815011225,1.52550776466477,1.49444001731448,1.47175395929837,1.47068404800771,1.47080200530659,1.53731971420524,1.55685413292304,1.48222024467021,1.50914646142722,1.49475811060559,1.50093004460386,1.50175642125373,1.51874154902884,1.47637067502062,1.46254240990709,1.49249227054949,1.48374400265783,1.47480285395415,1.47514667177148,1.49368195723159,1.45914645237215,1.45922767689564,1.45119118013256,1.45087533375052,1.49787716294588,1.49800999700103,1.49856042967949,1.49891091606811,1.67579506265881,1.61597613706206,1.6155539961271,1.61477363679093,1.6139156525392,1.46511490956581,1.45089324256808,1.43920832227279,1.435425872018,1.42519805007352,1.39006683985479,1.38897729364331,1.36057173806357,1.32861629860451,1.32939760952673,1.3241223025489,1.28022290356028,1.3226390341244,1.24923880734597,1.24975174586107,1.25204270088834,1.23395423221642,1.2297397059377,1.21352586361658,1.19275744038134,1.19799505980038,1.19478910945809,1.20357626125832,1.15461439820761,1.13537262797529,1.13427663696309,1.08530297786554,1.0878896333585,1.0853760452013,1.06505047079472,1.06285546798817,1.07253682355012,1.07189396234659,1.0302041585162,1.02054420337678,1.01771620527197,1.00479687648975,0.957814734542197,0.956295280958649,0.956314094862373,0.950011541119532,0.961976606599706,0.914074590518091,0.91299425163081,0.91157717502724,0.961776004259642,0.87838490539954,0.878596906976819,0.877794599650338,0.901267763781437,0.895984528182883,0.897846965385003,0.897702823769171,0.900425443255399,0.897409175446498,0.90369325684115,0.888932688102822,0.889028042677009,0.879248272798406,1.02201912153861,1.04301844545419,1.11038756871902,0.978296351803245,0.954314376278351,0.904834615082053,0.905743292373204,0.972046961171302,0.934360507421558,1.00584993895814,0.926029301736502,0.993463444313438,1.10412525522821,0.959891276281711,1.01134969122654,1.0113134301047,1.05161607186083,1.20892639452083,0.954425679378207,0.956008024351456,0.957670970196944,1.13575434843671,0.9680246621113,0.968994744191573,1.0338431817607,1.01552162989223,0.978327162375785,0.97985535035186,1.03912108979022,1.05719726567467,0.989198562233185,1.09759967933634,1.10124247988938,1.10202905853057,1.10467013120098,1.09168063287119,1.00326224801889,1.00522279013077
1.23956349409113,1.24448627289726,1.25121207646398,1.25970952219319,1.27298708776354,1.28631310228213,1.29386975847227,1.30147550691168,1.30810340703008,1.32528649730007,1.32839493303917,1.33050836665561,1.33161084355678,1.33449447533133,1.33441371868249,1.33623655520685,1.33911480180884,1.3455530535367,1.34865329474949,1.37519814142604,1.39385188242695,1.4000445694692,1.42590943690814,1.44058634753332,1.46117666524776,1.5078022876248,1.50632153687112,1.50107825560716,1.49640679012377,1.49570141681325,1.48093844526724,1.44888892414524,1.44674821743687,1.44568777275076,1.46955173411299,1.47047128883995,1.46657012666262,1.47297349491216,1.47410215909394,1.46951463832301,1.46972871250613,1.48367645742598,1.48779273271837,1.48574938761551,1.49336737666351,1.49150458136201,1.49042354468001,1.49015777814179,1.49084710404847,1.49583535858633,1.4950593968358,1.49433493877442,1.49479726869356,1.48983205653611,1.48956591575037,1.49156091345829,1.49343609122068,1.49259209698505,1.49238282516475,1.48427136757308,1.4863644494308,1.47389862486466,1.47151088403562,1.48541147886989,1.49440166539918,1.49379061552789,1.49413815698852,1.49357836499949,1.52843330425614,1.61001080507553,1.60815231667592,1.60932388329471,1.61307243715074,1.61651589172414,1.45911466670484,1.45423265247634,1.45132175635783,1.45259522627261,1.436483173725,1.39124424681527,1.38847786581659,1.35469505702441,1.32787930395135,1.32934504941203,1.32677889891394,1.31250967996763,1.30959803800194,1.25945692748443,1.25217369906724,1.24805018629808,1.23255057641202,1.222464504089,1.20912763540688,1.19368190708322,1.19491369724633,1.19402335997295,1.19366291641809,1.17229473888111,1.13442386099468,1.13395091756198,1.09141744711649,1.09020381971228,1.07325326203064,1.06440604099765,1.06197757726151,1.05984114994076,1.05863409149324,1.03226060265781,1.02671109532029,1.02407116986544,1.00553374193552,0.971502912320576,0.954047227431317,0.950461700145716,0.948130006973196,0.934963420631703,0.915149740107318,0.914048116353164,0.912756642928122,0.939887383159292,0.878045451761656,0.878817326469739,0.879068473131621,0.887364541766695,0.897343108855398,0.897525225918688,0.898189943911032,0.899770964182712,0.90023302454616,0.902342153709081,0.893754544881044,0.888409590886673,0.886134974264688,0.931668321521806,0.959157389493609,0.987484489522699,0.948683129147721,0.933389924214051,0.906842662763351,0.906970101415104,0.962256612986535,0.965812822997247,0.970030260927936,0.960234036872976,0.993720707012746,0.991646860718078,0.975406568672504,0.994574976880256,1.00303182088068,1.03621827657526,1.06543007354426,0.955222769891857,0.956330438702989,0.957289443083484,0.965143769017187,0.967425393389852,0.968517847691623,0.98845802484316,0.995644592921049,0.979009977930418,0.97986500090514,1.02108865979933,1.0562922875795,1.05936025281845,1.09930881963753,1.1005375074115,1.10211533054652,1.10309111319401,1.06095658153753,1.04679782170279,1.02805130461795
1.25997472462734,1.27654355446866,1.2439487437119,1.25643843365696,1.27094521502707,1.28751777154285,1.30930898332604,1.30900405528742,1.3022471364454,1.3285504630818,1.34496021399393,1.34297209370721,1.34175978797808,1.33820747751903,1.33072363957555,1.33712936376215,1.33685025804632,1.34872594009792,1.34904583906946,1.34859986030593,1.34919233091533,1.39920684262853,1.54051334067509,1.51096844697313,1.51024894728297,1.50852031639384,1.46290056817073,1.54411836025077,1.52080300632414,1.49922176332711,1.48797667842644,1.44990370248334,1.44525482807212,1.45336308599635,1.45337797549833,1.47883736394702,1.50972828964712,1.47896414671066,1.47975518293075,1.46367779528954,1.46496879727803,1.46536603843433,1.48967364335493,1.48701425557784,1.51370576038336,1.51293337187107,1.48095977423355,1.48091531638272,1.48136404343211,1.50007341416699,1.49999684792996,1.48959092203966,1.49754705730257,1.48975627558929,1.48951544422472,1.53289116756459,1.53340218174956,1.53287094680725,1.53340829950533,1.48109469266706,1.50519590449643,1.47767454226916,1.45049030307576,1.52995683116768,1.52943938199774,1.49295977073673,1.4976891466114,1.49729364013114,1.53449612971343,1.7086371160933,1.61662946366907,1.61634840142439,1.61569118729806,1.65948656880535,1.4591238073136,1.4601897865898,1.55299204735732,1.52607357701027,1.44295178277862,1.39692954253267,1.4103743629364,1.34976846218481,1.32522907403205,1.33456429830978,1.32778432772777,1.31732335270274,1.30347441306585,1.2757886035458,1.25386617012316,1.24363310905558,1.23128968125858,1.214992324759,1.20351357102531,1.17361204030112,1.23353962560787,1.2334925822414,1.18853032649092,1.18825961307148,1.13398763120029,1.13319908480602,1.09104224384908,1.12598770831451,1.0681825291531,1.06749575408272,1.06292730868517,1.06081685302363,1.05897306870122,1.03297499220665,1.03365837991949,1.03402230690457,1.0055764741014,0.98740044354939,0.947314109607675,0.947768974606653,0.940693097900462,0.91610326127012,0.916516464073176,0.904138051796554,0.911385347013208,0.960682209113082,0.877695069160871,0.880503310403693,0.881463132439973,0.882914895668412,0.896278780123458,0.896190435166491,0.897954930019032,0.900432820411147,0.901207317126465,0.901585235324267,0.898766643860076,0.890205810479564,0.881461869913981,0.893147461941327,0.906656104489158,1.13447542525901,0.905289070003019,0.898380265502516,0.898649221601935,0.899128711861729,0.957499987205373,0.97413856861501,0.97308389572496,0.952932326773107,1.09721927870271,0.987495485144602,0.963576187938451,0.94401542423182,0.944750512793531,1.02092729163323,1.13294953760561,0.954522732935879,0.956813161224612,0.958667950248738,0.961343307025733,0.966944821677618,0.96883417971642,0.970569834220386,1.03724458575077,0.978365216636316,0.980264161557854,0.981356841154472,1.05433823082624,1.06232988208454,1.10405032413014,1.10599805220999,1.10258633732051,1.10244237692425,0.995708541674538,1.08948959294011,1.0908537772286
1.25518497840371,1.25299210059316,1.26391767454842,1.26904764117473,1.28848010140647,1.28832283881587,1.2885012279165,1.3072228663564,1.30617217320612,1.33420682745279,1.34193154198673,1.32653120264154,1.32688017282767,1.34109307108181,1.33148178858967,1.33629946383729,1.33616616020563,1.34304623850696,1.34278568784858,1.3461875423113,1.40909927471213,1.37358523002747,1.53978151235107,1.53973011836053,1.50847033512794,1.46458819449121,1.46398943609746,1.46410588707874,1.49950521450485,1.47072811462656,1.47093392103196,1.44945559911392,1.44796616500469,1.48924455800523,1.44687114488786,1.44452003476447,1.45427638947043,1.46052703920641,1.46566474182222,1.46515066064843,1.46535634105374,1.50940756753164,1.49119319195617,1.47325516553038,1.52114981864962,1.52918570096162,1.49687455087951,1.46634565814796,1.54200209482898,1.47348090592418,1.47754448633073,1.47807306998791,1.47793279472263,1.48255728252254,1.54804062837659,1.53381911635748,1.53445988620086,1.47919861180691,1.47988658421768,1.53982728088243,1.50294041903409,1.49282995473016,1.54971370955427,1.54935257924821,1.54822810979656,1.51527632738933,1.53230609209418,1.60235033789809,1.60217979632248,1.70308892205822,1.61595813121773,1.61641190034904,1.65561275547917,1.66258351005308,1.66276065418396,1.55503235900861,1.54947363502941,1.5601133029811,1.41898508898726,1.40377544806485,1.4060393836281,1.40911899858695,1.40922065597589,1.35327071602792,1.35336480814917,1.27430313286469,1.27387100286724,1.27512255791039,1.29593853903158,1.2412890803226,1.23985835450752,1.21428336120961,1.21288568601107,1.21202964515019,1.16997612172474,1.15035321442359,1.21471270535413,1.11800470396957,1.10870375994482,1.1089522509775,1.09700098123277,1.09787572233407,1.06646580123188,1.06562055581801,1.06178535548731,1.0613127641015,1.06201145207742,1.06242459359399,1.0634638521606,1.02043240121138,1.02091832149966,0.978462096225452,0.980032710938559,0.969712818814249,0.939659661337492,0.96483288201422,0.904222995737025,0.903748312907341,0.943391835319756,0.906997270711855,0.879942106895021,0.880032595997378,0.884986492944857,0.885313888420836,0.873570279950317,0.873745706541183,0.881309393648129,0.880933969231952,0.902043633190603,0.901747945042512,0.875295605093169,0.875786482613553,0.923047217388017,0.914911824974233,0.914478681448448,0.906787578880727,0.906187105433376,0.906616042791255,0.974777645379705,0.892206121535021,0.892538703164964,0.967813343946342,0.918593853107102,0.94449829878493,1.13131759671973,0.965159633402791,0.967853590347005,0.934536790290517,1.10170852892152,1.09846270975527,0.946393462181103,0.982362367585081,1.22208607167123,1.22335617468909,1.00857623801271,1.01709641072876,0.965984829391831,0.966949706959406,1.02282669040842,1.06215693278751,1.05953508838061,1.05862786814397,1.04919973050905,1.06117324021265,1.3435043921141,1.34371607595041,1.10257985298776,1.07610021915023,0.99315095878058,0.992424187028197,0.992565229708893
1.23527556257259,1.25241978297582,1.25879201474764,1.28575346704329,1.28661690395207,1.30251497019348,1.36942431029443,1.36848271733402,1.37056058705287,1.37062578271622,1.32913726300492,1.33266599045999,1.42081612885147,1.44654098831182,1.38617065247951,1.38642937806819,1.34314034701791,1.34367254508437,1.3498656403159,1.34909021423537,1.4514346594747,1.44972121425089,1.44948924841221,1.48940256850671,1.49328046983874,1.48682277864607,1.46529929154399,1.46713369811605,1.46788347774467,1.4941083450335,1.49285115369213,1.54192092195231,1.52435434369859,1.48049878823596,1.4487312864314,1.44264497483326,1.44090723275547,1.4407761706957,1.44388145175284,1.4751092851261,1.47539995301179,1.48963458003893,1.46888997288517,1.46924207983757,1.46162321361021,1.48099792134339,1.47204237022852,1.46650960737078,1.46636831597106,1.50876425638249,1.47528732537969,1.47798452566859,1.47884030989074,1.48276337172269,1.48250919685464,1.54580200801567,1.52478329866603,1.52475358886599,1.53036713291336,1.53288765971081,1.49343721522151,1.4929932043986,1.54987384150052,1.57838612136914,1.5758517943854,1.50133034396006,1.50251218101223,1.58562002676073,1.63237209331379,1.5978059587307,1.59736528519346,1.59691138500976,1.59708493515192,1.6646745451536,1.66870053810917,1.53160503059657,1.53422167761549,1.42514796597418,1.42857150399481,1.41634037934064,1.40824590008043,1.40935766133734,1.43878764725943,1.33000591405511,1.32920032934437,1.39470524603339,1.27504790692147,1.28297024372027,1.26699923477846,1.24252033062407,1.2533367681271,1.21469473178187,1.21320971528026,1.19751715106734,1.21292596388541,1.20290754330617,1.21391212421938,1.11889839681728,1.10634835126763,1.1201327068727,1.10635216547401,1.10579671907594,1.0634858487888,1.06233239721726,1.05439938828761,1.05522111926311,1.05398294999978,1.11179678443029,1.09429090458648,1.0741006580916,1.07455343902503,1.03250546096328,0.979489691474502,0.976149229151899,0.938871358582644,0.94167454318268,0.917116616198365,0.917041039691868,0.918973484688213,0.904693314774895,0.881798635013505,0.882377380417486,0.883832697390846,0.876891652755674,0.879888443349492,0.88187929500629,0.882828551986697,0.881109751183623,0.878848138679906,0.875607070823314,0.874244979414314,1.15756660105611,1.15618771606682,0.980792959167218,0.924301718110084,0.904938270749384,0.906186649684246,0.907100070691039,0.90934434075142,0.897246594148196,0.97739535442504,1.10316124227082,0.911513478111029,0.912626565808882,0.918972261964801,0.967894200266119,0.93349487285038,0.934603187626201,0.935560468589561,1.41569740179542,0.944285211599522,1.15843570502496,1.16039087090362,1.16186428938016,1.01429246127783,1.22990955479495,0.965126100401099,1.02017133830646,0.969162946175659,0.969792048045944,1.03681154109398,1.05074542734599,1.06313063123764,1.11269791805975,1.06206201078664,0.982029243122924,0.984187242231962,1.07838137218364,1.07968473728352,0.990519719875446,0.992639961012902
1.26412130070254,1.26381249948897,1.33864548759149,1.33818855877284,1.33852299571986,1.38278769343022,1.37092420922908,1.36426536903294,1.37350522186286,1.37283711035221,1.32919898331138,1.32958671621672,1.42259192381892,1.37323086373963,1.42757199005477,1.4274073459612,1.35300647937391,1.35210196341914,1.35038632933595,1.34872976271688,1.37695683402193,1.44900787061781,1.44885696911539,1.49200306954929,1.49374654004547,1.48336716534842,1.48243234781489,1.47168373239291,1.49716328031842,1.49493104969646,1.49329954441968,1.49226727323058,1.48838129294865,1.46883239141386,1.48799388993823,1.48048346680341,1.44593314222216,1.44580341852765,1.4448361649916,1.44422774867244,1.43812492289913,1.42000689232921,1.42029674060253,1.45853300569597,1.43260805775093,1.49010990797415,1.47384953946704,1.48934700196327,1.48799398481274,1.48662170191001,1.47517572077225,1.47794142246285,1.47912553445292,1.48043560144188,1.47897530833357,1.56134111060833,1.49888642194731,1.49832498579446,1.64631223984746,1.64604175494551,1.58266461185287,1.4931922677462,1.49282495613358,1.55271864707584,1.50564671788913,1.50108284375005,1.50162359389417,1.5010052878107,1.56965352531386,1.59806423303664,1.59733855218444,1.59654506800334,1.64058478757454,1.66824474841462,1.53947951971655,1.44861614389249,1.42499836803802,1.3934713990103,1.40997553273171,1.39296736686182,1.39251387607034,1.37188167702135,1.38847233965591,1.36256431737035,1.36627136268693,1.3412113788273,1.34075310572091,1.28224772945909,1.28056039102681,1.24538287137988,1.19564228376587,1.18217649338683,1.14483155049373,1.14434104728828,1.15932424819063,1.11055884588391,1.10036434291801,1.10144146091766,1.10453509107999,1.10395761500828,1.10357206079963,1.12568377928428,1.09722277971862,1.11726624062941,1.09853330098978,1.05476359307678,1.05444067826637,1.03964812861138,1.03232188111635,1.11749630422323,1.04922906120433,0.986547818578178,0.96523419306469,0.925211186740785,0.934998155712443,0.919990018304711,0.907474781894845,0.926924169860132,0.927234311590486,0.914413370255609,0.883018411902054,0.883599961085964,0.916136098675239,0.916306613218109,0.880009842715532,0.879583585256581,0.87723892515719,0.877163929370363,0.877447422259175,0.877440618295136,0.985335339739258,1.15555854466446,1.15539684173395,0.928773260580771,0.923701870691681,0.904128031181509,0.905402743287404,0.90608282236463,0.917238794243806,1.09957405274757,0.950897487328384,1.10968456878522,0.912115323274076,0.915329291974171,0.917020270208832,0.98595052480389,0.96892092955843,0.957416528057026,0.93522682907648,0.939525655410641,0.940777512348518,0.972244948614264,0.998788370335721,0.988202206976573,1.19534334835767,1.00939291604372,1.00382924871965,1.00362985256255,0.965156562652649,0.968251368987508,0.968758509022596,0.970467187370202,1.05360148874586,1.06800451255742,0.977327369839435,1.06812353961066,1.06816708377339,1.06634579922238,0.984823820850051,0.987652274704488,0.989977542794634
1.25818138755022,1.26216029812593,1.32734120013556,1.33626748814152,1.34741389268504,1.35360968587056,1.36201583833335,1.36325549526897,1.36681871144684,1.36989356107931,1.32926344336064,1.32933588804629,1.41025232393467,1.37019685940461,1.36923193667702,1.36831900875912,1.36651047515643,1.35025187864877,1.34981824198857,1.37261498493021,1.40836506125333,1.44573432941969,1.44523352143303,1.48380967790333,1.48343378821994,1.48386618292529,1.48314171817331,1.48274577377176,1.49393073564165,1.49250308843721,1.48907494211915,1.4884302300349,1.48919837031681,1.48036027837839,1.48507098550829,1.48010775862772,1.48068873156802,1.47621896623504,1.45623584052509,1.45440930805333,1.45128768296654,1.41805964216056,1.41811894855889,1.42250007294535,1.426728363577,1.4875217252552,1.4863021491875,1.48705243332711,1.48588619186276,1.4813595831749,1.48221290905213,1.48890907469117,1.48869183010409,1.48615442383894,1.48474195618288,1.49712238127177,1.49691605004701,1.50159763575537,1.60170126283571,1.59982255362613,1.59492753899711,1.51939762536875,1.51486983168714,1.51073473522001,1.50185778735095,1.50026078322685,1.49928537376881,1.49762517259987,1.52474479358098,1.53131110620154,1.59560002760939,1.59153583852954,1.58157777793806,1.58076956419522,1.46352199404911,1.44419693796603,1.41713127643147,1.3875235948331,1.38436896441825,1.38356972747744,1.38288774252188,1.36882500363411,1.36538143410556,1.36504019886754,1.36538602935104,1.3579072783409,1.34131959322046,1.30484547061482,1.28556337396853,1.24017047268447,1.19705406890859,1.18085278802121,1.15153951788873,1.14468096378275,1.13688858276391,1.10834506823251,1.10127585455665,1.10201584755855,1.10360180084847,1.10679092161351,1.11418349333398,1.11977369536316,1.10086969457998,1.08558486827511,1.06860835109679,1.05284081924582,1.04237989552798,1.03444041084985,1.02820475689968,1.02386889594873,1.00717971961479,0.985547237064582,0.955626408995637,0.921115935677873,0.917240139601307,0.913748405685828,0.906842310772673,0.90674946693964,0.905072670466518,0.901624925756359,0.898013081895492,0.89543861855806,0.89389097380996,0.892533490887379,0.88444572645142,0.881393509587925,0.879144926408608,0.878525781392283,0.884293176896452,0.885058107220639,0.886126036170293,0.886368970041136,0.887661930460346,0.890465141780168,0.89491054632191,0.900597593855695,0.904022662883959,0.90526002315502,0.919176444558532,0.932425818210479,0.941025824025752,0.983239250767695,0.944623206181762,0.95125153216936,0.958494224098719,0.967487027749451,0.968011488453313,0.967423359805807,0.965399199688687,0.966297173685498,0.966881936810857,0.98109154831015,0.99521362683872,0.990662515499297,1.00947089508572,1.00941224939189,1.00763994368725,0.985219740177537,0.967461389951623,0.968767733280081,1.00306962136223,1.01881550327948,1.04674450205059,1.04282450306402,1.00329485344575,1.01990338760984,1.0364005674301,1.05179110785358,1.04149860178172,1.02907777924866,1.01671711118531
1.25466367498086,1.25260575996739,1.31277160753505,1.29262395029301,1.55562520386315,1.33075017809108,1.35905140706651,1.33185014220287,1.33141699751344,1.41770839824036,1.32834042126959,1.32823521734016,1.41367062531491,1.37019361933955,1.37160823976602,1.37132375255644,1.41060879741142,1.34905345419994,1.34868955337828,1.37998766865366,1.45161367696503,1.44628542618854,1.44451315660407,1.48459373718259,1.48378684136861,1.48774248730797,1.48722005493416,1.48776951405147,1.49573700627269,1.49564850726404,1.43170858394245,1.44188835271843,1.48999427444213,1.47106042303778,1.48969753646928,1.49558685523923,1.48415101577336,1.48378648321637,1.46196391178475,1.46394823701212,1.46645370485126,1.42042502087541,1.42013685800332,1.42794816113832,1.42980842933386,1.49042783326506,1.48957802930452,1.49081171646814,1.49019752338532,1.51519216216895,1.523404814565,1.49762723558311,1.4984483167532,1.53601269924815,1.47384804021134,1.44871111411874,1.44935143137813,1.5081014953757,1.64683777488576,1.64667234798498,1.64601019188762,1.52473209940389,1.51936495066908,1.50767885907038,1.50728163220462,1.50327883199158,1.50231787391571,1.50102327123029,1.47782657173669,1.49598177918316,1.6366389366344,1.64482216074851,1.56338696559285,1.56432333136249,1.43283287990202,1.42527200402214,1.41558947152665,1.37714541504425,1.38412376552064,1.38072200901619,1.36946410942778,1.37249587637372,1.35025624367439,1.40213148812349,1.36437890235253,1.39679524743857,1.34143752350843,1.34045601294521,1.29156780778703,1.23410420485331,1.19870040560742,1.17943890129151,1.16172647183931,1.14597032340917,1.12751679045186,1.10513000368939,1.10245908095893,1.10115797825452,1.10295995572467,1.11078014022103,1.13351272254301,1.12440817465961,1.10732774389731,1.04767907257845,1.04842463536057,1.05106479313943,1.03076836899777,1.01120341837521,1.02037635539892,1.01820014345925,0.98514632119505,0.984568026497909,0.943389688574519,0.89721517888132,0.897811610269767,0.897842513551674,0.897393926223111,0.876310673349039,0.888932921572593,0.890143358237521,0.912813068047616,0.939169575356351,0.889681192693522,0.890790315911601,0.890715933715739,0.883959855114338,0.879438410962673,0.879322409993082,0.99102561488486,1.00994231634563,0.88447738725113,0.88620007832194,0.886900122155988,0.887879982188793,0.886036968749474,0.900270161087076,0.905422814363356,0.906523338891123,0.9183708466207,0.917074412513359,0.913109622942713,1.16125343055208,0.929089570979726,1.24044762795538,1.24132157989108,1.24088510788375,0.953544665118247,0.975440404087794,0.961660116209543,0.966914666719448,0.967097781598537,0.989711490184599,1.1829422036139,0.987648755133253,1.00794027157195,1.20411940740464,1.02813842157152,0.95836752381338,0.959110127485023,0.95970029467165,1.04487263568388,1.05133775806639,1.05208736982443,1.03595094462138,0.967718531620652,0.968187193126884,0.96837883215905,1.0622142098842,1.06104121880799,1.1218809762534,1.05969575210835
1.31883858045893,1.31900592800288,1.29477478595776,1.29461301083437,1.55250437940222,1.55152559356663,1.33142216742785,1.33124300654282,1.33134046176307,1.34116269514886,1.31294481110762,1.40804531393089,1.40981983507158,1.41231975732127,1.37136812808586,1.4055973256291,1.38930061987732,1.43860019273679,1.3912064812211,1.38994814424845,1.45966037209063,1.43776720779937,1.43756158250545,1.43035935414733,1.43003502134245,1.5420726222104,1.47846457956649,1.42206201133628,1.42209285981992,1.42167462187507,1.46433470772584,1.47332649189419,1.47258637092192,1.47122512771854,1.46996334787966,1.62535260133972,1.5605054714651,1.59742662580816,1.46028319756065,1.46112742323325,1.44877229318157,1.42047682104892,1.42162218534582,1.44391682799259,1.45452582822429,1.45449258807101,1.4519885047336,1.45288563639078,1.45263854075014,1.45074580870247,1.50109255773277,1.48051698046257,1.48026983879847,1.49275295721955,1.46243422556918,1.5571462460667,1.51545342188728,1.45952497767946,1.64692970988521,1.64802150576886,1.64813832378871,1.52456371025876,1.55047286113851,1.54954973583305,1.53606170109894,1.53882542348882,1.52517318792576,1.50209433472483,1.47814214399426,1.46610363095725,1.45808809708271,1.48761695516419,1.50917794558704,1.5257177411748,1.42829127642561,1.41866677643171,1.40820476767452,1.39470471808536,1.37686723826068,1.34884189648554,1.35883365756786,1.35873337352487,1.34414723898825,1.33515301414476,1.34901011080033,1.34127426248608,1.3408003445758,1.34018198124593,1.29889695143649,1.28470713009006,1.19962892436376,1.19544563257378,1.19523812039438,1.14147006411249,1.10501297457013,1.10520609581391,1.10250103588153,1.10038523288688,1.13386172232251,1.12357533680964,1.10401267577721,1.10574531838242,1.12015119249032,1.06564028837373,1.13589547021104,1.0319173278779,1.02314767822658,1.01957692329821,0.994437088975441,0.968743895920323,0.947051841070464,0.961545825979449,0.98351504316158,0.903414601662235,0.891348741736541,0.893471291125747,0.874825671486085,0.88065144071738,0.882844993100139,0.884487160848211,0.86653635422087,0.876664043125044,0.877038278169062,0.891097195722126,0.897484515508913,0.897776517065514,0.878879667010462,0.879953397182478,0.880618550295436,0.882729527025594,0.881735272178508,0.889185985955765,0.880787267509841,0.882363110140856,0.882887851422098,1.16686305221427,0.903217858182225,0.905981481712929,0.906781116601008,0.913173284324757,0.911615304634791,0.911629831593195,0.920746759611722,0.92196422129303,0.926767810141754,0.92707571504307,0.939309200265251,0.92849059556757,0.929431423000537,0.936415085136461,0.937773587833234,0.939149369784873,0.939857918338082,1.04233074846415,0.947767697862916,0.949552316588282,1.02675260329091,1.03362464388635,1.03513374629573,1.04279015762158,1.04363805831593,1.04091661397038,1.03984941087274,0.965482005088382,0.965832289275991,0.964256771884737,1.05995442781875,1.06150473564426,1.06230144282895,1.14287147549756,0.987379603282758
1.31827601988952,1.30167889335778,1.30172154801802,1.31467510839709,1.29230695013995,1.34161857001529,1.34093350593763,1.47492477516269,1.28418004958857,1.29995890387714,1.28792775907027,1.28874369628075,1.30810844714613,1.41883934804179,1.37074298765351,1.39935827445439,1.37965901811354,1.44053968264602,1.43933804933616,1.43897958440721,1.42975163250709,1.42938825270941,1.49938304280617,1.43170457703672,1.43272722242965,1.45373943786424,1.45152496414439,1.45065846564837,1.42282816559522,1.42252496716573,1.48700810081767,1.51242741647951,1.51352111658175,1.47113834169943,1.47246088902792,1.54472564458658,1.5444189602976,1.59673277278239,1.5645529608409,1.5645346326199,1.55655621657825,1.46567263721536,1.46269132201087,1.45572014116291,1.45544255809596,1.45562567345716,1.48284054631246,1.51441164947075,1.47136092604244,1.50455912887896,1.45414653287551,1.44702031486848,1.44418584484529,1.43828385359932,1.43796997220083,1.44631007012173,1.41924470698245,1.41912570438664,1.43058833596649,1.45497010448779,1.45196125263984,1.45617768885378,1.52332764259473,1.50465593029389,1.50310929502356,1.51386093547492,1.51484246437045,1.45362666556087,1.45376508828134,1.44545140572283,1.44847359213912,1.44792063536145,1.51388793892544,1.49590115799546,1.42914607922309,1.42174652664372,1.40794033850379,1.3995699956581,1.38707910179068,1.35491563416237,1.37115849461902,1.33447873706839,1.32344817791036,1.31576962944942,1.32458403448143,1.32228346475322,1.31712027512645,1.31236479044021,1.29669804614489,1.28758800612313,1.28261956601494,1.20073587107597,1.1850512913796,1.14902669452046,1.13635436518605,1.1068595914482,1.12319068049296,1.09741079415275,1.09567382939749,1.11179559384415,1.13001144935754,1.12431525864215,1.06675442073816,1.04610819935048,1.04565604320159,1.01476876098998,1.01645165459849,1.00570781220372,0.986747482215284,0.951956680868248,0.934301168466108,0.916559122026522,0.899028170706322,0.90030423802731,0.89915883331592,0.896796337640446,0.897719942307368,0.878193523656688,0.859657680035413,0.855915609059513,0.863448522645133,0.86208247204818,0.873041716194399,0.893122537715204,0.894305122223827,0.894538626999286,0.878888950560085,0.880114758684514,0.881398004384895,0.883973495960305,0.876630543867365,0.876515689463417,0.875561595836032,0.876619584975191,0.876563812648845,1.01084912194963,1.01376565514828,0.912333211610065,0.905717546168607,0.908586071364958,0.911100868105726,0.913883862122304,0.919409091382877,0.921023494219387,0.924322322519599,0.925196663551455,0.926353689028082,0.928260794564545,0.929224686169298,0.92997896590318,0.968916815684955,0.940569377245664,0.939575594540421,0.941520113915644,0.942441440473114,1.20395182436757,0.949912291265984,0.950435579768198,0.953233878025215,0.954117436352677,1.03313085130796,0.956600492669624,0.955978186555115,0.956584801651972,0.965102771854084,0.964402854064267,0.957097891534878,1.06175884360129,1.06248573837629,1.05149061942138,1.13675102649933
1.34975678851081,1.30175250994315,1.30188853127013,1.30320814489879,1.29694199884695,1.28815501127908,1.25363246537037,1.25586565475062,1.2493826455281,1.24953416196467,1.25796866105123,1.28537976042653,1.28494990857541,1.4182393875467,1.38824814338868,1.37410985932925,1.393772267897,1.3926318281901,1.4430514931081,1.43670647395292,1.4565534880596,1.43561757854612,1.44397845335273,1.44426996744617,1.45334773233517,1.481899349061,1.41968795686181,1.41945044840431,1.42587028782951,1.42479864797154,1.45052883718946,1.47618292329125,1.47594668407488,1.47598801973068,1.49240063976186,1.5620650588076,1.54417214423971,1.58908300940892,1.58984154878898,1.55807478120129,1.55752845879742,1.57935335454086,1.46250418832889,1.46615823269075,1.4539950514584,1.45369173635953,1.4903612505155,1.47090573226444,1.4616601367956,1.4616652324856,1.49602994499857,1.49524469746347,1.43395359616429,1.43385114191959,1.42764266727738,1.42568484967137,1.41999686973051,1.42799973417152,1.45338002811134,1.42026329169397,1.45053088169571,1.45634726953042,1.4736668977159,1.45591879129181,1.45645456507612,1.45475207336439,1.44325300688736,1.4653815983209,1.43643021472791,1.51420095359678,1.4282826210598,1.42811276328256,1.4455967836047,1.44524652682514,1.47475521300676,1.40760419426819,1.4088938174884,1.3988730565398,1.42301112540665,1.35441438977274,1.37174622837994,1.34357563184056,1.30914555545454,1.30964948908392,1.31998782600321,1.32042041328466,1.30299475316277,1.30285048901612,1.28930527460455,1.24886565712148,1.23603214783946,1.28614610979448,1.18463423873852,1.15778556109253,1.16639243675287,1.1389048185499,1.11405815090327,1.09544334414916,1.09784773429817,1.07215995991547,1.12571392696477,1.06710653760893,1.12662488818608,1.05713437843563,1.00726682652948,1.00807234708262,1.00480905944487,0.999537966452127,0.95343237292676,0.952578559500777,0.914864677137507,0.902823148530937,0.890690675214862,0.892298590842439,0.875643554398061,0.875541523557142,0.897924891893669,0.857726044463831,0.852217071247474,0.854852850104417,0.85581739678689,0.886075637023497,0.874918879271546,0.890290588360286,0.891964833625404,0.892458709721634,0.882708144168122,0.882018541025155,0.896362746677172,0.905131928829485,0.871026682546929,0.871496737500601,0.874266182741252,0.875943263603246,0.876475505030918,0.888853238345148,0.890264102091999,1.07977279389284,0.900848810632421,0.902333843112509,0.904630699707943,0.913403000095275,0.915118582782018,0.91692284855836,0.924363080229363,0.925273033335249,0.92629206791373,0.927428429273573,0.929122788740026,0.930132794376134,0.930967022193887,0.961428178463124,0.961681050989547,0.989752618435861,0.943506086565435,1.02828032060109,1.01074608124167,0.949716799028296,0.952369428108736,0.953239416309555,1.03291558278378,1.04296447532891,0.955658768020956,0.956690308769048,0.956993026622518,0.952829510220975,0.955732630909532,1.04520679901036,0.972982091575794,0.97829358390777,0.980087312431104
1.29893064260499,1.29951838974661,1.29999451726178,1.29989424807706,1.29298655086618,1.28663025748584,1.25436918600006,1.25333381840798,1.25101445945729,1.2507205957009,1.25400766226065,1.26846297710685,1.27303680908215,1.41361940566393,1.38074137271737,1.37711604398743,1.38247640983462,1.38675287721636,1.40953887819444,1.42288640736218,1.43639458781562,1.4388228468221,1.44125066070705,1.44263189880728,1.45368614269273,1.45337924766292,1.41890520114933,1.41923971960073,1.42183678144159,1.42511756693576,1.45143469004737,1.4724038893699,1.47202474679393,1.47180760850569,1.49025350003591,1.56490377150213,1.5666986011718,1.56967605241097,1.57288323451674,1.56188454867862,1.56193288837969,1.50150189252645,1.46109361152943,1.46087258676717,1.45402144758632,1.45333552478758,1.48274336534908,1.46536270842646,1.46185341949844,1.4611657498362,1.49151980352873,1.49231706103046,1.42815929507624,1.42758803135246,1.42317783339871,1.42212662031375,1.42036921397419,1.42138123630209,1.41903485870048,1.41801036343093,1.44643934875195,1.45307456841106,1.44963331079431,1.44927571980207,1.44655099783629,1.44366629682807,1.44034316209393,1.43533652206126,1.43498915751337,1.44926349058933,1.42576103215663,1.4255979240603,1.44101515975401,1.44135547197019,1.43967636972405,1.41904117035284,1.41621002148792,1.41662934934879,1.42008491186941,1.36107778240129,1.36444010145043,1.35900058567601,1.33137684914059,1.32799903863645,1.32555037370395,1.32329367023522,1.30216663368166,1.30167795000632,1.27932976327343,1.27272332879858,1.26425009947859,1.25837757804544,1.19227089086291,1.16527595570492,1.16559970019797,1.13771287492575,1.1148923599822,1.09469601067618,1.08469175541696,1.07054569396777,1.06973434771412,1.06691178008039,1.05209975306954,1.05008641648488,1.01291879610959,1.0076928697867,1.00349115793971,1.00157695736903,0.956435535622703,0.948958571076466,0.92864817746615,0.91195742618832,0.901283488230975,0.897909688665788,0.875652600587169,0.87559633655349,0.862731270466541,0.854442676989189,0.852466033616544,0.869004196492153,0.879086991962914,0.888625222923452,0.889992625337518,0.890724429416867,0.891613336588723,0.891838609712543,0.891589514490322,0.890820023143199,0.889859492897319,0.87904102770905,0.869895155040381,0.870569852358443,0.872023452949386,0.873246528618234,0.880851911972738,0.890565918972291,0.890778044010197,0.896500053031367,0.898984359094311,0.90093747633012,0.906137277754051,0.911719245857874,0.918284549515632,0.918734024002989,0.927030112874067,0.926758544332292,0.926774626061732,0.927181584104278,0.928287413062901,0.929346702992786,0.930210284369287,0.937982329567038,0.943170593550861,0.948686400229947,0.955395353983539,0.999563343673208,0.987683351870413,0.974767647057387,0.9624530016558,0.954536624931059,0.955447394808892,0.955927872696381,0.955549584106661,0.956348567461543,0.958311410094158,0.961418342878927,0.963209456861447,0.980988442212131,0.976779629062873,0.9777143703266,0.979406801582101
1.29828675716484,1.29786970979467,1.31242865549736,1.25520654590857,1.28545684795377,1.27649837836569,1.24562354017375,1.23747074028172,1.24941165823093,1.2490690474184,1.24699313338815,1.2593263888818,1.26507919090909,1.448984685055,1.37615284535112,1.37583161281121,1.37531218948649,1.3826088427515,1.38241119177007,1.39276765929651,1.39890610614777,1.44222762866673,1.44132219071626,1.44559316342014,1.4591827519646,1.45793952977569,1.41979575722589,1.41989882119924,1.42003684716086,1.43029505026856,1.45853559314264,1.47577813132332,1.47445086543799,1.47358321930367,1.49606402829629,1.56231308343805,1.56137793603375,1.56133581089504,1.57008863258129,1.558684607422,1.55917720998885,1.46653586382595,1.46567449595147,1.46494825223723,1.45875625498923,1.45762934767347,1.49051582172674,1.45731993356146,1.48473418482174,1.46123617242149,1.49099496220558,1.49246156339898,1.4285129750533,1.47665117640498,1.42044065113862,1.41976689782971,1.44653134248629,1.43895010688537,1.42112518511663,1.42055746290665,1.41996721829024,1.45771442758604,1.45050894724333,1.44468756757061,1.43848517003962,1.42528305150597,1.4243797181298,1.42392376451388,1.43590841621537,1.45761608594917,1.42866386221245,1.42806560801057,1.50813404981029,1.44338836025417,1.4432768040453,1.42275430694622,1.41515522501783,1.43305083596788,1.42520878901264,1.35717929832269,1.36836872042317,1.36830889519629,1.33462963522823,1.33470874008202,1.33401268153278,1.36758306406378,1.30169253069274,1.29969259170915,1.269087391092,1.318736462215,1.28782569763505,1.24158109838302,1.19747005583044,1.16613573550542,1.18252476536484,1.13709320111498,1.11540988370356,1.09376871829485,1.06802303317286,1.0692694000276,1.06931749817951,1.0654475643953,1.04530302328861,1.04463248411574,1.02308894383154,1.00672950251121,0.990020420489891,1.03093418884827,0.959445180671143,0.944922729292269,0.945090811226017,0.922907871970443,0.904710914820674,0.90299589467081,0.874134950969219,0.874484956987641,0.859780583374683,0.852023630862649,0.852508330647002,0.886350145261185,0.88676769602043,0.918778403681062,0.918841891637772,0.921868828852263,0.891989907799148,0.891770988753334,0.890949426639341,0.890311720563218,0.89069928957159,0.865998719320236,0.868712062711517,0.869740345870686,0.870519767315934,0.872030640884899,0.950336533842547,0.890487060193742,0.890758570059071,0.892629035654964,0.893504494483793,0.90102699041173,0.90789451047925,0.910156615429315,0.919456228159181,0.921408048996594,0.927689743902512,1.12733323941793,1.02308562388102,0.935498182088741,0.927873481168694,0.928899160976636,0.930246875228163,0.931074523519959,0.93769670799047,0.938733657078747,0.966492785145181,1.01232728623062,0.940790852025512,1.01855031812198,1.01618063507283,0.946026753233356,0.94607346332111,0.946925326641843,0.953920091802667,0.954733004720858,1.03783641045077,1.03295190390111,0.963908633984258,0.982950194817824,0.974696835525684,0.976112470577007,0.980451244173541
1.2972520065346,1.24152792718116,1.24275233041188,1.23527547785896,1.25206790349176,1.22102874970413,1.22125501815979,1.2417677025021,1.22630327542991,1.22511109416165,1.24843970890289,1.24499176471452,1.27347494782423,1.36880389028478,1.36181578648442,1.36179538512172,1.38482296340176,1.37461898952357,1.37462167481646,1.39448198346357,1.39393209636914,1.44142636617229,1.43510978621484,1.39459770859292,1.45929377005792,1.45920875924986,1.46592752701282,1.46590306773064,1.42535129423589,1.51532025016037,1.46788948084647,1.50561561870223,1.48206764029215,1.48080679434382,1.59356594887893,1.61247358638697,1.57558672489776,1.57009438024234,1.57035401729622,1.57091800098923,1.47834716467784,1.4930786214853,1.46854184430517,1.46029211742299,1.46027725466048,1.4591646756456,1.48304270474481,1.47160990807947,1.47454608351015,1.47518728337059,1.47516007060388,1.47582913569439,1.42891445939177,1.45420981363389,1.42198409621996,1.44687197752525,1.44835571007321,1.45619007111889,1.52420238140825,1.47707838121619,1.48418909956721,1.42698785351627,1.43480315599272,1.45426417909676,1.45348721748703,1.42766929559739,1.42466051800467,1.4484785580108,1.44848281743324,1.46202842698597,1.50035000402939,1.49116486230629,1.5206809334891,1.43288383692281,1.43409223091019,1.52397367753921,1.41602079550509,1.3869470132047,1.35803772154776,1.35766185577486,1.37814508705794,1.36746852122124,1.37806739053373,1.36274705289559,1.38815853770415,1.43025758554458,1.43203920504328,1.44810642108885,1.29081120143841,1.22565750700804,1.28487365584471,1.20625805222467,1.20696570773856,1.18609190460378,1.1611123973559,1.14838304547128,1.10330456001799,1.09592111505282,1.08500481852487,1.05908020004054,1.0565651234976,1.05350594394559,1.03717568221904,1.02851167894326,1.02041449058536,1.02128331051345,1.00804165510049,0.996516301418704,0.977670219871543,0.948989763684097,0.93517564193567,0.920949539441041,0.888560433957669,0.89897718814751,0.870254710662855,0.913952879816461,0.859926437987345,0.860656647345038,0.860052458899802,0.934713656005996,0.934455349562975,0.908229206291248,0.881163726104056,0.878889667472976,0.879446417797397,0.890638556416399,0.889860958247656,0.889257399651232,0.88927661907774,0.914718256758324,0.869172269944462,0.869855297918331,0.870281961838101,0.874870863648508,0.918442799992966,0.884317726346079,0.884902340150928,1.10301391508759,0.887808403641338,0.889219168018774,0.889096454891513,1.16757748516181,0.925279050484268,1.13070039416457,1.17514518230986,1.11348129583017,0.931281183510574,1.00555989101193,0.926930708384192,0.92750862999476,0.928865680103821,0.929687267973755,0.930071846703952,0.93195084442729,0.934001331301295,0.934693938939732,0.935677650229566,0.937201624762794,0.941651496254394,0.946071158072298,0.946840128899595,0.948519731800046,0.955581166446047,1.09568289088862,1.09631206229099,0.965836599327781,0.966010832590671,0.972097015651068,0.97431274264895,0.977084273855608,0.97971393140463
1.24687791924966,1.20696306750309,1.20922012407295,1.21931148490548,1.21786557725195,1.20036512097472,1.2314868734395,1.22340956824811,1.22905688844104,1.22506450034934,1.23090395217048,1.23110393863725,1.31927540899618,1.39806523954449,1.36222479242753,1.36164661332271,1.36068707437931,1.37917798072575,1.37840413867597,1.37548150378628,1.39515748346605,1.40933221454703,1.4096814649377,1.39722023418388,1.42151295279175,1.48200432628816,1.44486656584912,1.46598895169722,1.4319729513905,1.4845597356892,1.48389794092253,1.49175488273789,1.48150184506983,1.48052440686118,1.53247569301928,1.53272422079754,1.57120166434724,1.57139215521228,1.57074357989286,1.5704189277398,1.49339972727739,1.43201609909788,1.43196548203708,1.4611583252211,1.46092642429623,1.46037143625645,1.47293850758873,1.47171702355671,1.47283978611664,1.4739185497781,1.47428598965398,1.45377775491129,1.45412514966906,1.45379441437367,1.50512460976551,1.54533106930436,1.48624089900347,1.45185140331955,1.498200815027,1.47623739880401,1.48402458291063,1.42665010976292,1.42598474597123,1.48974206375545,1.43527253891497,1.42666809231663,1.44341143653502,1.44060233946037,1.45046627443201,1.44871049627508,1.48940143748472,1.48955357517328,1.48992540973924,1.51888417577697,1.51913702943024,1.45378324078122,1.41358824542281,1.38710225004396,1.38669301574375,1.35864454683795,1.40763236466448,1.38217178223762,1.35455593279884,1.35336816831363,1.40442164579936,1.37010704082189,1.37052528028005,1.37111009285856,1.21708342027925,1.21814317378971,1.18475380144712,1.18356551845364,1.19960822166123,1.17974163450624,1.17216843642645,1.14006025067316,1.11526172268773,1.11797278396372,1.08729788585613,1.06203000552191,1.04905325643328,1.03593874819874,1.03428784053702,1.03207422436166,1.0571771169852,1.05987019570514,1.00576925805847,1.00638770193492,1.0085035633674,0.992226808118,0.947176117570354,0.928243407854559,0.931828244929447,0.947573523593005,0.8808103402745,0.916781233208963,0.858823361114313,0.914894605658451,0.903041822728717,0.943579095611852,0.868808073025653,0.906437911426355,0.880712722745728,0.879860278142111,0.881842412179362,0.882999441984697,0.876383811504972,0.887499296647935,0.888909006812082,0.877257620547712,0.876282533086625,0.869488918774682,0.869750698455571,1.19414380661859,0.879439204622625,0.879389050308643,0.879417400585586,0.899563198928225,0.887186535210374,0.889190635115755,0.91583641071039,0.908322630705528,0.913400204676654,0.913318571017207,1.10857061311044,0.943330836488479,0.945309302538919,0.945856783430444,0.934049618589538,0.933925845572369,0.928243981119736,0.928073202084,0.927961935341386,0.93024913325773,0.93239418148082,0.934635489371407,0.935411608710168,0.936860717968785,0.94128146985292,0.945108248580678,1.07490406565773,0.950791945749443,1.00282450190419,0.957524827212079,0.961786768255868,0.966622526612205,0.967165407902945,0.969833767325648,1.13735961752871,0.977162793841623,0.979557220181367
1.20290552589472,1.20364668878186,1.19113973267706,1.20819498715211,1.20077461898539,1.20020869185304,1.20199515410658,1.21347182864846,1.22761466743488,1.23387210342735,1.25339194267263,1.25527196192787,1.40843619099412,1.50138525470131,1.37475376955352,1.3953363532654,1.371259893724,1.3710348312013,1.37820667712588,1.37785894499024,1.37423150423593,1.37464726103851,1.40611006635808,1.43177159874592,1.41845138791198,1.42197858816822,1.41768418471603,1.42797150358317,1.45067159620211,1.48299145453287,1.48224852409153,1.47234807701173,1.49020330265877,1.49560021859456,1.53250119403856,1.53259207157433,1.53201298235147,1.57037686514341,1.57161694831018,1.57219280663518,1.56382504993975,1.4658514025629,1.44066936955876,1.44076008812894,1.48074488320596,1.47295267625615,1.47214273876309,1.47158401102253,1.47236758057863,1.47396571225915,1.49565567337878,1.45183839748734,1.45327377551946,1.52051580840457,1.46604399488722,1.54485226072422,1.54536634994374,1.46322054889412,1.46212688251353,1.4469050304149,1.44883207330917,1.42533065681944,1.42356239214919,1.42212850805747,1.44310379982651,1.4356421899325,1.41044948671647,1.40959586197026,1.40951885889824,1.48178365114828,1.48951420554411,1.48882402512764,1.48858848389486,1.49031250259246,1.50233925793134,1.49296142164418,1.48654782474983,1.4760024294101,1.45293615922343,1.44712390110179,1.3719249119072,1.44364894747364,1.50770930931104,1.41330705220974,1.38668050336671,1.36832929618668,1.37021876501192,1.28902220274919,1.23326187263738,1.22560682535934,1.22641111572225,1.18383782504715,1.21681270937582,1.16647611090564,1.12772235220061,1.12895191435259,1.10912963024439,1.08615416268872,1.06556391908757,1.06062322852492,1.05439071410092,1.03747416870688,1.04538218124814,1.02921550609734,1.02929399515931,1.01477499496815,1.00511731259137,1.00426943338506,1.02099180767276,0.990545099483984,0.936277000307815,0.933546621589777,0.926612231749631,0.929469920789114,0.922808645653329,0.899239222198544,0.857375315398367,0.904371705825417,0.904129902441221,0.883142955877773,0.884909912997655,0.885973993067378,0.879163887455289,0.880057307355418,0.880239670646345,0.888311145523157,0.887733580470971,0.884810038106665,0.881623379756049,0.880671944870347,0.871341461436108,0.87074965405507,0.871018994709051,0.87520279234205,0.877675940451128,0.880190478451406,0.881691266546068,0.882681212805063,0.884392163978083,0.890858444840039,0.905389457512473,0.895610387287184,0.893967744072853,0.894157287413094,0.893869236391502,1.16125343055208,0.923067316647873,0.923696462574089,0.94839103286051,0.93985974787429,0.927141498020197,0.927455914668636,0.927871358659243,0.926858242338083,1.03442982081001,1.03619973288581,0.937321225030224,0.938163609647567,0.941253428033558,0.943673002378227,0.987760090384799,0.953199344859051,0.954326224936007,0.95785848213549,0.96070654894918,0.962805479171284,0.966575677180065,0.968069158699149,0.979455150944305,0.980138968950141,0.977946361766127
1.20398562164181,1.20385788417394,1.20387044182135,1.20412509185057,1.20107317667341,1.19960370946151,1.21058902384901,1.21908224460184,1.22710309979349,1.23807069112298,1.25898587411653,1.28467219097995,1.38770433110855,1.38862630314066,1.38886406384962,1.38613527945707,1.37134903904568,1.37179637879855,1.3758222791903,1.37518329866935,1.37421007755558,1.37399540725486,1.40970786813477,1.4100284165768,1.41448500721033,1.41807892861258,1.41638093160287,1.42547229530255,1.47284043411703,1.47377064993145,1.47614447318224,1.48066589186491,1.48516471026089,1.49133734730173,1.5321452145441,1.53336069340718,1.54853240543492,1.55816934081343,1.57132309302511,1.57220550991735,1.52002615042999,1.46203744456074,1.45932369309468,1.4783304002602,1.47923398631921,1.48160324103328,1.48129802758872,1.48137641177032,1.48319695045276,1.48646719233184,1.48819596133655,1.46159121067297,1.45782546903266,1.45870013857447,1.4605548270419,1.45761359611927,1.4565400179795,1.46221660781954,1.45421173561294,1.44641158673053,1.44713278179384,1.42427901039921,1.42189895013613,1.41790911744195,1.41427535778589,1.41516032116236,1.40872987437974,1.40888719925783,1.40928099095076,1.45934222830757,1.48425978360938,1.48406941005066,1.48396313521206,1.48412306278808,1.49603196016733,1.49259058742341,1.4735496627249,1.44201064263239,1.42423760860575,1.40905298676386,1.39677159206796,1.44060079330246,1.44151338876502,1.44395009174996,1.40402368437623,1.40350232036917,1.28962645722522,1.26497826179936,1.23429950186557,1.22406749435598,1.22450354951405,1.19129811362195,1.18911527024713,1.16796363683033,1.12971455590037,1.12002791249655,1.11479381413739,1.08803147630024,1.0646806560596,1.06177959255313,1.0596931475131,1.03658543906529,1.03423449677127,1.03105867624116,1.02957746469483,1.02534493462561,1.01831168016201,1.01525447814764,1.0121234490478,0.971288818549826,0.935082651212702,0.935183617056272,0.930261651736907,0.928891468056163,0.920634988449852,0.887810531158362,0.87516189680761,0.887116507637855,0.891795776856588,0.883218490320644,0.883273919395587,0.881649543558726,0.880767386134605,0.880601930832725,0.879918049093543,0.887538130945626,0.887971323929079,0.883702210640646,0.88204855540497,0.882061440018914,0.872237290500207,0.871931915697765,0.872891606394442,0.875196704429248,0.877910617704914,0.879876874341916,0.880822230364732,0.881127763776965,0.886190842032006,0.887938526121798,0.902228829267219,0.896622516354549,0.895391208717718,0.894907017207522,0.899637655971452,0.986054857407561,0.951022632119068,0.949415755808642,0.946977750175704,0.944788179453728,0.933939950613529,0.927762471423093,0.929718556706384,0.932253130981471,0.954068424987516,0.954656880155046,0.9459964904336,0.943236764774483,0.942470258669947,0.943212335239742,0.96531659535769,0.963033399976713,0.960734419167433,0.958186744595587,0.95913932947277,0.961324975457127,0.963673830268651,0.964993578327447,0.980712511625683,0.98116518535282,0.980817602979401
1.18899971081961,1.21354492484721,1.21434529397471,1.2430251151635,1.21659546130309,1.19854693668494,1.23439835348354,1.2253174985626,1.22554420946869,1.24312192780511,1.26397965556962,1.43026770914248,1.39182187144541,1.39211759759804,1.39149063880262,1.38396436878701,1.37193483860264,1.36991342307145,1.37744045975693,1.36583835106498,1.36703218981145,1.3678727190775,1.45058113398941,1.38058955210282,1.38629129019331,1.42137336868116,1.41484669006647,1.42391557230531,1.47385546362664,1.4715906132674,1.44476922901481,1.48828925511722,1.52617504614338,1.49769570176728,1.55148992856811,1.52346304277845,1.58099539564663,1.5344672689271,1.56529395423424,1.56566945006846,1.49578135739193,1.44089683006287,1.44141475817788,1.50649785890613,1.50794612051372,1.48661568622396,1.54005519558107,1.53657528431841,1.54168427553317,1.55147039714104,1.45877321251142,1.46908987340637,1.45327153801347,1.4658601802266,1.46643971849819,1.4661942630067,1.46572124879565,1.46666552782326,1.44599211129721,1.44764222746165,1.44896152696957,1.42751429070918,1.424576676602,1.46706555286048,1.41054668335972,1.41154634798079,1.41055190582889,1.41024710358508,1.4101687224745,1.42954930827859,1.47412410245974,1.50429424821606,1.51791241113603,1.48159196774729,1.52408091414596,1.52454544106572,1.44206618020016,1.40990049685993,1.39350931453578,1.37582302865277,1.36418572083021,1.45826860558207,1.44556403743754,1.49651649872456,1.41019673985888,1.40781092898139,1.26545889656528,1.2309965609092,1.23361013385405,1.22351196823463,1.22394650714297,1.19436727141855,1.18653510856096,1.16947706368202,1.13098024525714,1.11122090868125,1.14680421505438,1.09000631973083,1.06325833457342,1.06273962914419,1.06331267179439,1.02416526186341,1.02372416178204,1.03068678944294,1.04055952332256,1.03691913294891,1.01964924841654,1.0205931509039,1.00922611604437,0.953261414213796,0.934009079163598,0.937225749177957,0.933551892622813,0.926361959772337,0.920204381442358,0.875381452352735,0.860910331129706,0.846250596968331,0.92696258715847,0.882542973226104,0.883019297906953,0.871925640295578,0.872805018532411,0.871614738410751,0.870049494514036,0.902548992532345,0.889559649296551,0.876777337620336,0.880754915502288,0.882332712728049,0.874748521643045,0.87269507351346,0.872882186297983,0.874613053996506,0.879154812090678,0.880535473883966,0.880955657024069,0.880799376225486,0.981392728288004,0.887107256148925,1.03669513320397,0.895396598829858,0.895351139091633,0.895380067485924,0.91195942120853,1.16060955888331,0.95240113193372,0.951836739782225,0.922240453359821,0.955527397421867,0.945200031853794,0.927518582383732,0.931349974291541,0.933751697364554,0.951952573939832,0.951897307470433,1.146118036256,0.942327767444306,0.941752067109162,0.943213455414708,0.966875387646053,0.968034966660604,0.968998289056712,0.955546623240341,0.956980466037373,0.959292758851575,0.962479014200134,0.963463978609116,1.11533567839274,0.982734097059921,0.983125659919489
1.20547142258159,1.21317378822257,1.22827000071812,1.23382417704424,1.21900129221853,1.27362176253535,1.24951035718692,1.24856761549632,1.2704176087852,1.26045107260581,1.28294269707227,1.31601194985339,1.50958169651818,1.50973409192564,1.50380331396892,1.371248074979,1.37427190328535,1.37500001750883,1.38913745407629,1.36826453089868,1.43598354298985,1.36782341234601,1.37465001144276,1.3769564653367,1.37760005113517,1.4322847806613,1.40808379062328,1.43182433168046,1.49740474587772,1.47126337786313,1.50189834253208,1.49895196286907,1.49829012036857,1.49873099775749,1.49888393087199,1.53115666088913,1.53209753072227,1.53362578040515,1.56362748081328,1.56374611591582,1.46531114922843,1.45367151638733,1.45396727696925,1.50563927702982,1.53132108578751,1.51790282261259,1.52455727511304,1.59647520705244,1.55323267383117,1.59875931832321,1.55102511163549,1.45319107278088,1.44273926375937,1.50377552192492,1.54173733111646,1.46716782757064,1.46670098092647,1.5197053185197,1.44938701495122,1.44853694471452,1.43505748216471,1.41401750120751,1.41274486211834,1.41193360764505,1.4119340020158,1.41600277775104,1.39352904689297,1.39937241977742,1.41311587788797,1.43164927752629,1.46951285972712,1.51356551852923,1.46811050532252,1.46784863969781,1.46795555894323,1.56866531998285,1.48381531825703,1.37406207530629,1.39106239024265,1.33462899555323,1.34159932598735,1.35468012762011,1.32845923802235,1.31929077823421,1.29716297285771,1.27560770332121,1.25922215796468,1.28495724067413,1.20288277449089,1.23421046047775,1.18771242287608,1.24665829891247,1.1762585295876,1.16670957378733,1.15149809081081,1.1061409542543,1.10633600971932,1.08811296967679,1.08566865294577,1.06144276693314,1.04914378869921,1.05173040699969,1.02121728501492,1.0320936673742,0.997638309680421,0.988735628356602,0.967238133780684,0.966789096066326,0.961935104146466,0.95258494895164,0.93827528837794,0.938599818658422,0.914020122500105,0.916679615471369,0.918031776287254,0.917707799838339,0.849868470649964,0.857551099954958,0.857266943282833,0.889989686315886,0.929361990578618,0.866705301859126,0.864391798051802,0.917769548949482,0.916734650939681,0.872384731394889,0.86927954203605,0.889230319012808,0.888829863001771,0.874659744239918,0.867651190442674,0.868365579386774,0.870543708192546,0.876694727707306,0.877822046907674,0.881469698044082,0.955629038696979,1.08374148723832,1.05307413942661,1.04772073684828,0.893316462881771,0.894862021561417,0.896243310474035,0.897488185171302,1.0494079210868,1.04906687456323,0.958769418581485,0.957245355630484,1.23494586606713,0.91952414961086,0.952618121535395,0.953424614688466,0.931667796001453,0.930652079393008,0.934846983392756,0.934916134791796,0.936294725625142,0.937109933321719,0.939415871227249,0.940904776500673,0.944423836134647,1.16253235372978,0.957498075921533,0.957967308358283,0.96447939134217,1.10431047858498,1.03258493597555,0.971021051506977,0.982866700522952,0.982719218987174,0.982599062664254
1.23112657470168,1.34243793948145,1.3431665750571,1.41158343499986,1.4133357177269,1.3997081001707,1.24925544550089,1.2491607175613,1.2405730983313,1.24039506971862,1.25839534873397,1.25850285181274,1.25984964269474,1.33733232341373,1.33719708002859,1.37717285658642,1.3746087305931,1.37458936130205,1.44304283718501,1.44273707164602,1.36854979080987,1.43586880010461,1.37933220339489,1.37639468837929,1.46337649548606,1.4389373734431,1.42731163968737,1.48324142621189,1.43648872159217,1.44176297099663,1.47154477404173,1.49888036424972,1.49860788459807,1.56978924596301,1.57248167159974,1.53564968837719,1.53484623624035,1.56909830914186,1.54986947798357,1.54934337009555,1.54977353556278,1.45342893424247,1.45436319408861,1.45426097393895,1.51709051322109,1.69906678267736,1.69848344134591,1.69840561640609,1.57524993739262,1.49086909954324,1.48975299426421,1.4428041637002,1.44238479309395,1.44144647966686,1.48950607684879,1.49219547651266,1.4933728386299,1.52585132385323,1.44230444027352,1.4464585862683,1.41418575711809,1.41377501872116,1.41343562288113,1.4239428995624,1.41988152963606,1.39845898556233,1.39136258099822,1.40085499129317,1.47070860582635,1.3963285397849,1.44598132434819,1.44549807215605,1.47605387525539,1.47597249492774,1.47556638216157,1.49636407715257,1.44728254599256,1.32997373224754,1.32860057935547,1.33041238957429,1.30263576321055,1.31334853504273,1.31353546248714,1.28641584529284,1.27465234567255,1.28719310288531,1.27769640197793,1.27696659750734,1.21560448860861,1.18798033435069,1.18838256931656,1.21097849668426,1.16480351688475,1.15191232211533,1.13962131342902,1.10635362925072,1.1070343299874,1.09977830643241,1.08193939496963,1.05883613718089,1.06300725742557,1.03572244459552,1.03764039149234,1.00612438128774,0.990657525161406,0.960908561023476,0.949282853296214,0.934351120081747,0.93389216054817,0.948106055100431,0.938571583112796,0.911844076065399,0.889067195253953,0.918684073247727,0.932003552663292,0.932144045400937,0.836500122157779,0.84350456051565,0.857569060622157,0.867307105931364,0.867189078398512,0.865126598286415,0.865379473752479,0.854618665271187,0.854841728765008,0.866017289561709,0.867678093490738,0.888837678724742,0.888426834469205,0.866712459346888,0.867251632302345,0.867873672808626,0.869244271546195,1.12404999632079,0.87571962771397,0.953917930367074,1.09090383561875,0.966169129713194,0.887149336631867,0.888847732298166,0.891551759101376,0.893410889614249,0.895541487416924,0.896953078641,0.902467077052941,0.902787755968725,0.908087021709002,0.910193593697432,0.911877142690564,0.912663806242533,0.918848417871251,0.92270843850565,0.952955200645958,0.927409629811879,0.928979733620767,1.01203396359372,1.09119490089367,0.936871341382463,0.938027148688395,0.939350406573602,1.11748779739521,0.942407439543119,0.941242529807675,0.959299797932021,0.950340923794999,0.956251181365729,0.945815905212491,0.945536804143234,0.962791537197403,0.97056725593364,0.97006471766852
1.43325980873573,1.43076076344597,1.34256437809325,1.32769636709109,1.33389360926667,1.33378913317643,1.24889631236164,1.2486588343232,1.26631988150156,1.24524045412151,1.26069071819714,1.31428667942176,1.28669310424479,1.37311906446817,1.37954990925957,1.37849666691848,1.37524632852964,1.37831419649378,1.36338408219984,1.36281164826441,1.36246190255197,1.36070447358897,1.38961863611265,1.41184592342376,1.43850958863998,1.43831081742678,1.46793067024015,1.42190024216271,1.4217039169822,1.4625640098637,1.47050653901056,1.48913464779337,1.48928756640075,1.56859373374802,1.46850230601329,1.53624486348262,1.54393367363735,1.54151856119196,1.55134020178698,1.45552001688419,1.45471155696057,1.4526536809999,1.45314224257289,1.45342968156372,1.46603980415298,1.56217451577929,1.55917312214794,1.69845144681985,1.56052645493514,1.50109220273424,1.48764579244328,1.46707197616554,1.43797000477446,1.43795711558193,1.45178500913493,1.43747903491325,1.43190142429247,1.43110583449904,1.4592528995321,1.44545217110182,1.43705085382864,1.43811465857401,1.47598280376711,1.4294852377929,1.3499061474362,1.34939647505834,1.3503469700348,1.3512177007557,1.3902451698235,1.39017530839287,1.39646867129487,1.44677494250724,1.47573286269464,1.4751807903893,1.54270771423456,1.47025034591912,1.34682682286925,1.33182039113078,1.30485096633829,1.28897398127987,1.28733107626312,1.28657747507249,1.30996140280908,1.24576408445329,1.24618939433456,1.26673104161228,1.24825476845065,1.22629783834464,1.22373972662406,1.18688869580983,1.18772743529549,1.19722399563422,1.19819541112146,1.13624543417808,1.12864357452206,1.12454768628161,1.09833841476509,1.14153046522809,1.09031163953263,1.06685926544407,1.05124294971752,1.02667184690643,1.01568473646901,0.975000935404143,0.977628880983781,0.974874490977956,0.93231289377743,0.986304754925716,0.918476187539025,0.901476034264391,0.875314380498144,0.883260806468971,0.97789112750932,0.887224867481481,0.889106663433355,0.88965387040008,0.837301967020829,0.842811669943485,0.84135408852908,0.838893480224528,0.883772486229665,0.863380755883552,0.846068770941107,0.855260540720381,0.856193961595993,0.857966029034219,0.858575485397601,0.88235532012973,0.956960887942359,0.878340944198398,0.868197535195825,0.868650880517452,0.870773702488834,0.872720838054954,0.875210167438791,0.876302490745236,0.877423240276209,0.883161299066866,0.883791011310278,0.886530628877959,0.891856065910451,0.893160719269254,0.895386867601946,0.89770745356117,0.902528704592259,0.903485504451865,0.905286800457054,0.906701644610264,0.909302949482052,0.912793922063636,0.916206255060467,0.97149187279632,0.953213557728878,0.954029335044826,0.92887082468708,0.929124640312534,0.935746445460716,0.937003006759901,0.937467895159527,0.93777875909513,0.937679696738016,0.937890758854053,0.939632967212455,0.940454688334261,0.940734002969241,0.941842271354612,0.943641646448239,0.943732569609066,0.963238474735715,0.969033093735892,0.981137856545282
1.34923299566833,1.38425765159387,1.36216445122236,1.32888425200712,1.33062996205496,1.33177403544378,1.28426759991019,1.26104287493741,1.25937820163964,1.25358165678791,1.25579447249712,1.30677046343097,1.30048647212963,1.30781301864043,1.31789116802291,1.3723818371151,1.37393770898546,1.37455322128437,1.36094579087624,1.36166973022916,1.36281292857426,1.36515202247522,1.3909603341946,1.43313700356127,1.43485001447873,1.43612837224792,1.46382789529216,1.42102478057224,1.41988018038855,1.45818917466044,1.46892973588594,1.4716854654027,1.47116177056661,1.46901002726925,1.46831829973406,1.54170272389978,1.5431829109836,1.54102053045235,1.54100622332023,1.4544820584484,1.45341117313191,1.45180914275969,1.45131841952623,1.47055301682282,1.47461073158362,1.5626215396385,1.56116629363275,1.56556577191915,1.55188013959304,1.52463809604462,1.49983946758416,1.49328741052163,1.44212547137526,1.4371611926779,1.44363907817243,1.43793267672336,1.43017972799631,1.43069025907176,1.42779374945076,1.42807302242393,1.43334011282616,1.43469825704653,1.43194002909716,1.42207919457941,1.38093632842684,1.35492425660763,1.35344026132943,1.35208051886154,1.38102606038993,1.38853575453846,1.39830133602166,1.44304177500447,1.47099764508129,1.47088577645985,1.45335947373176,1.44777259803547,1.34557337391583,1.3328337456976,1.30058987715209,1.28896131943396,1.28828596245662,1.28782072632672,1.2809783505163,1.24653000091975,1.247476299778,1.25112764469207,1.23764160787601,1.22953794262375,1.22557944483903,1.21323981812612,1.17769015604481,1.1731644329862,1.16242992569818,1.13362255268907,1.12310085120099,1.11152606381612,1.09906743575058,1.10036163041217,1.09574719762626,1.08096891391083,1.04658016407415,1.03337496605612,1.00280266188156,0.981354718458037,0.97332062879559,0.969831853433286,0.942005090830172,0.930111887299336,0.912549135324812,0.887117463179382,0.879736791934012,0.882744554660287,0.884254731937327,0.886300995137653,0.888959147334502,0.866616473186808,0.840156099057506,0.841535213186807,0.841032653966012,0.840119372809232,0.870886847906293,0.85771308721399,0.853041587916737,0.854636045498827,0.855539590790234,0.856592727242708,0.857428604541309,0.872218996692219,0.871134734212352,0.869390367198477,0.868623606009084,0.869093262271953,0.870613544672697,0.872194949349873,0.87392826432056,0.875512662276484,0.877312136029939,0.880405854088867,0.883359968754647,0.884789839837259,0.892537511672982,0.893453916578718,0.895277722382178,0.897671838203941,0.900739301721396,0.902452629409318,0.904133796817754,0.905941709376564,0.908016993951184,0.909798883350786,0.922189404392636,0.930383521161037,0.93609638256747,0.940722963917398,0.935495149193598,0.930236342871332,0.933144397176489,0.935706797933423,0.936609949226712,0.937143345406141,0.937348359015666,0.937583779402322,0.938551904931709,0.939795614437477,0.940258919078342,0.940912258926229,0.941586245972888,0.94179715134328,0.951209457065699,0.958121337616252,0.964614427681972
