0.804036783507988,0.804568596555832,0.808135834845982,0.80840492315737,0.806135854153237,0.805479496853164,0.803755877128871,0.803473152585487,0.802062257114969,0.801543171216988,0.801029539811806,0.875731545932229,0.827428375873906,0.831130158319751,0.824050226667434,0.795371412615604,0.794812327103768,0.816046667567921,0.787696032166129,0.80010863961101,0.819284818125902,0.80065408889085,0.788070574004952,0.829177449897925,0.878959696586746,0.836583742036013,0.844600028285388,0.86890888452357,0.876660627872222,0.902096745955406,0.930645561262207,0.916009338919846,0.904980354481491,0.897231338379237,0.928863760281398,0.92020020755328,0.917209327335493,0.923454721589656,0.937063681121652,0.948509025176951,0.97884509595736,0.979545089199821,0.976690571301994,0.982545060238938,0.979508725914498,0.967963382824561,0.967599749971335,0.966227035950405,1.00737209329297,0.995454026528474,1.06165338745833,1.07947139726642,1.05498981542296,1.03437183264502,1.00474484592841,1.04544445302577,1.00179032899594,1.00283577344897,1.03580818241527,0.993817678688955,1.03399910897047,1.03945360176886,1.00816299474873,1.01367203247511,0.99679037726408,0.997663096111824,1.00466302853643,1.00666300922918,1.02903552052393,1.07323509383359,1.07375327064944,1.1374617465347,1.04662625979875,1.03266275823486,1.03251730509357,1.01092660443325,1.0890713045916,1.0999530177244,1.08742586593075,1.02314466830166,1.02347193786956,1.00546302081353,0.979281455381232,1.0068175531918,1.00461757442978,0.960008914160235,0.89080958219126,0.891118670116502,0.916727513804968,0.888493240916208,0.906752155558836,0.886845984091092,0.910018487662942,0.846799097965274,0.84554365553951,0.868306163069347,0.844098214947935,0.87382520069919,0.875605183515733,0.820527533401803,0.913927540835125,0.885212363497973,0.878840606827314,0.880426955149514,0.835461934683809,0.83548284357287,0.983526868942649,0.961263447503866,0.94503633142864,0.919709303201424,1.09896211819936,0.83827008939285,0.835092847337785,0.835558297389914,0.837540096439998,0.838069182241442,0.948281754643685,0.982499606132285,0.842454594451352,0.842698228463014,0.844920025196227,0.845639109163482,0.847219093910751,0.848070903869433,0.84709727690492,0.846389101923261,0.849632706974041,0.849651797698835,0.851474507375632,0.851560870178273,0.847463637004545,0.849053621655278,1.00478120921373,0.860428966386331,0.860596237498815,0.862810761574964,0.864137112407107,0.858872617774522,0.859631701355632,0.869151609453098,0.869019792543804,0.86966796810468,0.881960576707996,0.877645163822333,1.05878977873917,0.989926807159433,0.920354751515901,0.878540609723403,0.881647852454222,0.883936012183149,0.8851223643668,0.888749602077732,0.892741381724025,0.893420466077425,0.895708625806352,0.895246812082754,0.89564589913917,0.898422235973553,0.906950335463844,0.904151271576135,0.902962192146085,0.901838566629615,0.902599468374991,0.908045779434189,0.914663897362909,0.918427497393801,0.919600213345456,0.942345448314765,0.941700000000288,0.947736305363845,0.960790724794672,0.975890579024896
0.802103165810957,0.803692241379556,0.804796776171231,0.805231317430837,0.805645858883515,0.803754058964605,0.802729523400639,0.800491363189031,0.799779551878841,0.800075003572087,0.799941368498526,0.963563425300522,0.810783991099603,0.811627619319088,0.814319411515096,0.815448491524364,0.793762337240077,0.779628837317302,0.816373937135825,0.77766521990988,0.776760683187479,0.780419738773069,0.820985710796868,0.784602425667306,0.79859047244879,0.810165815249118,0.843575492721423,0.854413569911834,0.855756284222372,0.905792164826319,0.977217838939172,0.909982124377619,0.883230564447889,0.910945751438669,0.911563927289154,0.908758499826512,0.915936612349201,0.919327488705536,0.919563850060134,0.957308940225029,0.960854360543986,0.97953599837849,0.98216324574305,0.964554324825564,0.970654265938436,0.96628158087839,0.957408939259666,0.984681403251643,0.985799574275314,0.993554044870366,1.02381738908013,1.02328103062162,1.02290830694706,1.01739926922068,1.02083559968367,1.02210831466997,0.986054117272572,1.00505393385365,0.980545079546193,0.980454171332887,0.977336019616471,0.9774632911151,0.989899534695441,0.990954069969798,0.998708540564849,0.99249950959601,0.979681451519781,1.00508120631764,1.033326388192,1.0210810518596,1.0270991755805,1.01737199675669,1.01796290014318,1.00915389427378,1.1503616220029,1.01152659864108,1.12012555025713,1.07185328899133,1.08707132389885,1.01564474070387,1.00799935996478,0.985754120168661,0.962581616596811,1.02209922384863,0.916700241340976,0.893014106363945,0.888875964494229,0.893052287813533,0.878851515812911,0.859835335753439,0.860797144650223,0.897804060123069,0.851862685446451,0.845894561242874,0.868089801521677,0.868329799204807,0.864877105263422,0.847012732266545,0.813247603680212,0.807954927501502,0.810512175541816,0.892189568869254,0.832359237363656,0.83700101073509,0.835098301830583,0.844539119782472,1.00869935320724,0.960790724794672,1.00816299474873,0.969481549986781,0.845334566648905,0.839187353265114,0.835107392651914,0.835811022222907,0.836204654786524,0.834583761343268,0.83509739274845,0.867698896204459,0.842206415029025,0.843770945380032,0.844910934374896,0.844469120458226,0.845334566648905,0.846622736031459,0.848017268023582,0.847117276711847,0.850329063887969,0.85020179238934,0.851421780611914,0.853205399756989,0.849351800594923,0.850256337317324,1.05500799706562,0.858874435938788,0.861024415183489,0.86196167886268,0.863203485056448,0.863139849307133,0.859813517782245,0.869834330135031,0.869438879407147,0.867737986736181,0.867760713789507,0.873268842433753,0.875996997915084,0.992299511526735,0.917209327335493,0.87676062690686,0.879893323937405,0.882452390141985,0.883883285419431,0.888324151639458,0.891153215237559,0.892906834672243,0.893099560084453,0.894465910530451,0.896098622041437,0.897503153937024,0.899676769317184,0.904586721917873,0.903993091284981,0.901955838224781,0.906566702803691,0.907076697880341,0.913709361123189,0.915554797853313,1.27542405104877,0.91523661910674,0.939281841526333,1.09390762153951,1.0932530824037,0.907142151793921
0.803387698864979,0.802325890933558,0.800862268699322,0.803713150268617,0.803902239352294,0.804013147372528,0.801077721164859,0.799273193130723,0.799945913909192,0.800265910820031,0.800334091980011,0.800024094972635,0.810739446075083,0.811505802313257,0.815740306889078,0.81658302602643,0.781401547476781,0.787344217380632,0.841735510484097,0.776346141734801,0.783560617542812,0.784591516681709,0.821722067324652,0.766385328802798,0.82068389552869,0.82068389552869,0.801422263293291,0.818831186141502,0.850840877128885,0.852638132505956,0.891916844229334,0.888815055991313,0.894422274588064,0.902089473298341,0.909536674132417,0.968608831139038,0.914072993976416,0.913891177549803,0.969390641773475,0.93676368401774,0.930354654979626,0.942999987450572,0.949772649341913,0.934109164189188,0.933754622157292,0.927500137081799,0.951445360466754,0.953690793335427,0.973872416689489,1.0021630526705,1.00969025273229,1.06769878364322,1.02100832528896,0.970145179943919,0.953936245511355,0.970654265938436,0.962508890026166,0.966636122910285,0.967436115187383,0.97263606498852,0.961272538325196,0.982935965556156,0.970636084295775,0.953272615554217,0.953499886087483,0.979236001274578,0.978008740394939,0.973299694945658,0.986272296984508,1.06661697590487,1.0076175454689,1.02341739294158,1.01684472911951,1.14768892053169,1.13047999575275,1.00167214831864,1.00954479959099,1.00777208943152,1.08367135672119,1.0391081505583,1.01575383055983,0.973917870796143,0.98409049986515,1.01703563636746,0.902217653879104,0.899096774916288,0.876093360621189,0.875271550372898,0.875264277715833,0.882314209657759,0.914754805576215,0.843951852724512,0.843964579874375,0.840520067672188,0.864315292505188,0.863164394524726,0.901716749623784,0.814366683786016,0.815774852010135,0.815709398096554,0.816367573560894,0.829247449222171,0.832444691084164,0.844955479399417,0.880956950033092,0.837973728617471,1.01622655326903,0.859788063482519,0.861954406205615,0.850379972487421,0.844680027513098,0.843790036104826,0.8376473681317,0.836539197011492,0.834981030235418,0.834561943372074,0.833772860080573,0.934954610572939,0.84064824825295,0.841590057342807,0.841733692319831,0.846753643858621,0.846020014577237,0.846689099027173,0.847137276518775,0.847220912075017,0.849082712283536,0.849230892671225,0.85152723413935,0.852088137815451,0.850028157701924,0.850299064177578,0.892061388288491,1.03588999980724,0.857968081052122,0.861902588524031,0.863372574333198,0.864681652604813,0.863609844769929,0.865107103043088,0.866014367011888,0.867929803066258,0.867971620844379,0.868683432154569,0.877379711839477,1.09465306888862,0.914582079970933,0.876033361200407,0.877569710005288,0.879966959590183,0.883062384253272,0.884939638858053,0.888620512414837,0.890503221512416,0.891315940939377,0.894278639611039,0.894301366664366,0.895682262424493,0.90044948913029,0.900352217342052,0.901508569815312,0.903224916882541,0.903607640460561,0.905634893617298,0.907997598081136,0.931027375758094,0.910518482836128,0.911073022937298,0.911036659651976,0.909773035487014,0.910163940804232,0.906441249469328
0.800752269761221,0.801604079719904,0.800134093910736,0.800310455844551,0.800302274105353,0.799960459223321,0.801564989188182,0.802120438371485,0.800744997104156,0.799855005695885,0.800491363189031,0.80028954695549,0.795503229524899,0.920372933158562,0.861867134320841,0.818543916187453,0.803261336448483,0.760901745376145,0.763007179596325,0.776996135459943,0.77971701828421,0.782291538885052,0.7821279041011,0.767755315577329,0.759079944781481,0.759214488937175,0.782816988357964,0.806417669614488,0.810471266845828,0.82425658831164,0.907742146001745,0.86117895914611,0.896673161949535,0.872913391319725,0.9293092105266,0.889499594837512,0.893297739989461,0.897260429007495,0.901149482372751,0.906793973336957,0.901083119377037,0.898814959455038,0.930300110051642,0.935945510097981,0.913527544696576,0.918418406572471,0.926763780554015,0.932327363208379,0.936127326524594,0.974236049542716,0.974817862107878,0.947736305363845,0.976681480480663,0.95952710062971,0.952299897671836,0.95097263775756,0.938854572923792,0.958808925744588,0.958927106421886,0.958681654245959,0.946045412596343,0.956990761478456,0.956836217515835,0.937663675329475,0.943599981658396,0.942345448314765,0.95221808027986,1.04644444337214,1.04671716801206,1.05478981735368,1.01510838224536,1.03056277850748,1.19740662238906,1.02932642680651,1.06123520967712,0.998117637178357,0.993035868054518,1.00771754450353,1.01029933776144,0.998844902884809,0.975436037958363,0.974781498822555,0.983745048654585,0.985017763640877,0.985590485384709,0.897632243599919,0.879204239680541,0.869595241534034,0.872096126482099,0.891525029829983,0.856849910028451,0.838552813936234,0.839664621384973,0.840978245067253,0.828086551338246,0.858248987431239,0.815852123991445,0.822536604915879,0.839178262443783,0.829133813955538,0.816421209406745,0.825222942619088,0.84162369338173,0.845639109163482,0.841540966907621,0.840895518593144,1.01798108178585,0.859842608410504,0.859788972564653,0.847603635653037,0.845248203846264,0.84464820963844,0.835801931401576,0.83755555083626,0.834592852164598,0.834549216222211,0.835046484148998,0.839770074912409,0.840842791829426,0.84087642786835,0.847763634108457,0.842284596092469,0.844832753311453,0.846930914874569,0.847178185214763,0.847142731011573,0.847469091497344,0.848621807642071,0.849787250936662,0.850876331332075,0.849353618759189,0.850113611422432,1.0609624850372,1.04099904139507,0.857364450515766,0.858137170328872,0.85968442811935,0.862073495965047,0.864256202166538,0.86375257066482,0.86593800411271,0.867494352724519,0.868219800266706,0.868409798432516,0.868349799011734,0.867372535718688,0.91951839595348,0.8826287520758,0.876115178592383,0.877586982565816,0.880376955632196,0.881788760184847,0.884951456925783,0.887098708924085,0.89061685677905,0.8911241246093,0.892629564621658,0.893390466367034,0.897989512878214,0.901490388172651,0.900437671062561,0.900555851739859,0.90139220730228,0.906018526277452,0.907584874792725,0.910036669305603,0.906868518071869,0.91137302004121,0.94214545024549,0.943399983589121,0.902154927211922,0.904371269452337
0.802971339248035,0.799398646465086,0.798555018245601,0.797282303259308,0.79682321678211,0.795903225663448,0.799908641541736,0.799287738444852,0.798949559891351,0.799162285110489,0.798117749739596,0.796532310499529,0.792813255493157,0.793669610862505,0.79503505222637,0.798945014480686,0.804017692783194,0.794471421303869,0.757081782253002,0.843775490790697,0.767857132776232,0.768519853651237,0.771268008939495,0.772876175232889,0.762488093698345,0.766698962138706,0.773153445283474,0.77084528574762,0.77978247219779,0.794963234737857,0.812767608313953,0.898964958006994,0.914291173688352,0.846082741244418,0.845052751187655,0.847196366857424,0.856003554562566,0.867166174074482,0.852619041781162,0.853296307970296,0.904733084141297,0.873285205912149,0.878846061320113,0.886816893462834,0.893774099027188,0.88926777889358,0.896776797312704,0.919282034598883,0.918891129281665,0.942663627061338,0.951208999112157,0.942863625130612,0.925609246245022,0.938709119782501,0.93607278159661,0.939763655056858,0.97747238193643,0.93206372938979,0.944718152682066,0.94531814688989,0.942663627061338,0.936854592231047,0.92116383461433,0.954336241649904,0.950718094760301,0.97608148627284,1.02010833397722,1.04691716608133,0.971372440823558,0.97208152488735,0.960808906437333,1.0018085106386,0.975426947137032,0.971681528748801,0.972536065953883,0.985645030312693,1.08580769973389,1.09593487469625,1.02955369733977,1.04099904139507,1.0563352569799,0.970717901687751,0.979781450554418,0.980654169402161,0.995690387883071,0.89280229022694,0.87870878991802,0.870954319322968,0.870759775746492,0.86029533131277,0.86429529269826,0.848363628316281,0.846748189365823,0.838478269201322,0.82673565528851,0.826764745916768,0.840967336081657,0.833536498725976,0.835793749662379,0.834280127910824,0.845999105688176,0.846738189462359,0.838975537128109,0.83861099519275,0.83354377138304,0.834724669073893,0.841951872031767,0.859710791501209,0.860270786095177,0.860452602521791,0.838888265243335,0.838540086786371,0.835123756130309,0.835404662509426,0.831522881801235,0.831479245858848,0.83430285496415,0.837678276924224,0.83858735905729,0.839966436653151,0.842770955033659,0.843176405665007,0.845277294474522,0.845888197667942,0.847718180001804,0.847556363382118,0.846150922404398,0.847455455265348,0.846926369463903,0.84870453411618,0.850715423794522,0.850225428524799,0.850352700023429,1.04900805498738,0.855762647797304,0.857091725875846,0.858229896706445,0.85898170763049,0.85968442811935,0.864595289802172,0.866286182569674,0.867297990983777,0.868694341140166,0.869246153994937,0.866008912519089,0.879306965961577,1.0862258775151,1.08615315094446,0.938218215430646,0.876477902363476,0.878980605475806,0.878707880835887,0.882716933042707,0.885021456250029,0.887402342356529,0.888122335405917,0.889817773584085,0.891977752732249,0.894531364444031,0.896873160018809,0.900994029327997,0.899742223230765,0.900293127003403,0.903383097173694,0.905177625304366,0.90677397353003,0.90693124473905,0.904511268100829,1.02100832528896,0.902190381415112,0.901552205757699,0.903354006545436
0.802764977603829,0.799132285400098,0.797983205583902,0.797242303645454,0.795664137062451,0.794126879175437,0.793830518400057,0.794305968355651,0.797201394949466,0.798799561339395,0.795376867108402,0.796627764123501,0.795085960825821,0.793945971830957,0.794174151446356,0.796151405085775,0.779307022242197,0.795446866432649,0.793963244391485,0.79260962109535,0.767640771228562,0.771916184500371,0.766881687647452,0.772026183438472,0.750172758041701,0.74035467100459,0.754265445804764,0.757257235104684,0.792695074815858,0.793124161582665,0.819422998610128,0.879316056782908,0.880289683747421,0.832020149728022,0.811024897864866,0.828082915009714,0.828456547766404,0.826750200602639,0.839080081573412,0.838942810171319,0.880890587037378,0.878531518902072,0.823764774877651,0.845914561049801,0.858505348592764,0.892094115245282,0.883140565316716,0.891436848863075,0.931172828899385,0.947681760435861,0.931954639533822,0.904794901726345,0.905692165791681,0.911736652894436,0.907501239236482,0.907088515948071,0.917509324439405,0.96062709001072,0.910518482836128,0.925391066533086,0.931872822141846,0.959045287099185,0.920018391126667,0.94724540101199,0.943018169093233,0.951145363362842,0.941100005792464,0.944554517898115,0.954136243580629,0.944509063791461,1.00924480248708,1.06418063578825,1.06442608796418,0.972854244700456,0.973781508476183,1.06771696528588,0.991181340503064,1.11701648936204,1.03554454859668,1.03784452639334,1.05855341738458,0.983481414835996,0.999253989844689,0.89250865669796,0.892965015928759,0.894306821157164,0.880362410318067,0.845213658725207,0.847202730432355,0.910209394910886,0.911445746611855,0.848351810248551,0.853589941499276,0.848326355948825,0.889965044889642,0.839099172298206,0.840142798586966,0.83455467071501,0.83462012462859,0.848706352280446,0.844984570027675,0.85465265851283,0.840737338301991,0.841040971734435,0.838072818569975,0.841547330482552,0.842597320346244,1.03052641522216,0.85825807825257,0.859943516527274,1.03818088678257,0.838769175483903,0.835364662895572,0.836009202127915,0.831169248851472,0.831485609433779,0.836541015175759,0.837409188612837,0.835741022898661,0.835344663088644,0.841561875796682,0.84443457533717,0.845428202108611,0.845096387130042,0.845662745298942,0.84487638925384,0.844270940553218,0.845686381434401,0.846346375063007,0.84823908406405,0.849754523979871,0.85080087751503,0.85109723829041,0.852713586323001,0.853859938892797,0.858484439703703,0.859708973336943,0.859691700776415,0.859795336139584,0.863625299166191,0.863831660810397,0.866059821118541,0.866496180542413,0.866331636676328,0.879756961617445,0.879668780650537,1.10807112117268,1.10917111055369,1.11948010194265,1.12051645557435,0.877888797833994,0.879326965768505,0.880467863845502,0.884636005425609,0.885058728617485,0.886149627177164,0.887739611827896,0.891877753697612,0.894110459416422,0.895896805807896,0.898675869888679,0.899372226802607,0.902377652334523,0.903974000560187,0.904463086747776,0.904282179403296,0.905661256999157,0.904432177955252,0.899259500618107,0.899446771537519,0.900290399757004,0.901361298509755
0.798815015735658,0.797094123257764,0.796522310596065,0.79631322170546,0.793058707669084,0.792821437232354,0.792288715102378,0.794494148357195,0.796448674943287,0.796024133587145,0.796687763544283,0.795455957253979,0.797705026451184,0.79435324062657,0.795131414932475,0.793870518013912,0.79418415134982,0.780556101093029,0.759657211935978,0.799225920859803,0.767991676931926,0.763375357860217,0.763036270224584,0.812527610630823,0.766038059427967,0.750538209059194,0.751134566938485,0.777233405896673,0.788359662123267,0.785862413503735,0.784888786539221,0.872903391416261,0.823582958451038,0.827122015195063,0.831496518419376,0.824318405896688,0.811736709175056,0.82595293557194,0.8112485320696,0.791367814901582,0.819552088273024,0.845029115052195,0.846864551878855,0.848374537301877,0.839144626404859,0.844148214465254,0.866587997837852,0.862913487856,0.882066030235432,0.892431384716649,0.878658790400701,0.885683268042901,0.88395419382581,0.897021340406499,0.899794949994483,0.892847744333593,0.904319451770752,0.904126726358542,0.905381259702173,0.959272557632452,0.970463358690493,0.895532263872537,0.929291028883939,0.88882596497691,0.888374151156776,0.889447777155927,0.912636644206172,0.913872995907141,0.969572458200088,0.933518260802695,0.936163689809917,0.941872725605571,0.962908886164715,0.971563348071502,1.08365317507853,1.11140745260103,1.11109836467578,1.00217214349183,1.00203578117187,1.06479881163874,1.03628999594579,0.976445119126066,0.978954185813328,0.894090459609495,0.892467748001972,0.883413289956636,0.853261762849239,0.853254490192175,0.853352671062546,0.847100913233452,0.848740897401503,0.850040884851787,0.852130864675706,0.85039451780155,0.891607756304092,0.89228047708256,0.836827376047674,0.843168223925809,0.843566401900092,0.845241840271332,0.846906369656976,0.858532621056755,0.844101851276468,0.845983651291914,0.840803701297705,0.84121733366825,0.841114607387213,0.857030817372931,0.857421722690149,0.85843898559705,0.901168573097545,1.0326445765922,0.838340997799229,0.829222904004578,0.829709262945769,0.830251075897076,0.837197372475832,0.837672822431426,0.835075574777256,0.835186482797491,0.90363400384242,0.844841844132783,0.844472756786759,0.845881834093011,0.845842743561289,0.842215505850356,0.843510947889975,0.84396912528504,0.845452747326204,0.847054550044666,0.849539071514335,0.850477244275659,0.850946330656321,0.850772695968905,0.854223571746023,0.855138108371887,0.8573626323515,0.858490803278634,1.0199537900146,0.860060788122439,0.863099849693279,0.865269828744907,0.864841651060233,0.879132422192028,0.882194210816194,0.883306927347067,1.06767151117923,1.13147998609912,1.13578903540985,1.1339345078584,0.898142238676569,0.87578518177808,0.878742425956943,0.880518772444954,0.882875113333861,0.884716004653319,0.889623230007609,0.890030498803222,0.892537747326218,0.894077732459632,0.895100449859331,0.899438589798321,0.903703094084533,0.904716720662902,0.903418551376884,0.904748538537559,0.905441259122955,0.908151232961624,0.898699506024139,0.895909532957759,0.894476819516048,0.901215845368465
0.800010458740639,0.800048640190228,0.797544118913631,0.790302370641629,0.790311461462959,0.786801495347192,0.791849628432107,1.04101722303774,1.0365899930497,0.794181424103421,0.795999588369553,0.796759581032796,0.796340494169452,0.803244063887955,0.7940241528944,0.794152333475163,0.78956146870318,0.789848738657229,0.760675383925012,0.76336717612102,0.756843602734139,0.768786214716225,0.788454206665106,0.760729928852996,0.758978127582577,0.747555510580605,0.748049142178859,0.800296819612555,0.754485443680966,0.785327873209492,0.763715354577984,0.790396915183468,0.809895817855598,0.786164228771913,0.786664223945099,0.787366035351826,0.834130129358868,0.831840151465675,0.797704117369051,0.794893235413611,0.795076870004491,0.811864889755818,0.809748546550041,0.818892094644418,0.818567552322913,0.817656652025581,0.849794523593726,0.853159036568203,0.85967261005162,0.867204355524071,0.846855461057524,0.863806206510671,0.886397806599491,0.882026030621577,0.848715443101777,0.894338639031822,0.894285003185971,0.886075991524386,0.887255980133105,0.94849084353429,0.929872841449101,0.928272856894905,0.8854605429203,0.891349576978301,0.969990635981298,0.887988700332356,0.904382178437933,0.923091088736429,0.923672901301591,0.93165464242991,0.932390998957693,0.933163718770799,0.960508909333421,0.961627080357092,1.03298093698143,1.05303528883687,1.02713553886582,1.0076175454689,1.00840844692466,1.0088629879912,1.05213529752513,0.943545436730412,0.99485403232065,0.99153588253496,1.08151683206582,0.875765181971152,0.946718133374812,0.858957162412897,0.859653519326826,0.858532621056755,0.852349953469774,0.843843671950677,0.856506276982152,0.857041726358527,0.858490803278634,0.954899872572404,0.847977268409728,0.841814600629674,0.843847308279209,0.845404565973151,0.86822707292377,0.860470784164452,0.84670000801277,0.846926369463903,0.838535541375705,0.839467350562098,0.907599420106853,0.909245767849836,0.857154452543028,0.859837153917705,0.902144927308458,1.07639869965666,0.832494690601483,0.83014562236964,0.829348357338941,0.829082905356086,0.829200176951252,0.837481006101349,0.835436480384084,0.835222846082813,0.839430078194642,0.842223687589554,0.843790945186959,0.844880934664505,0.844067306155411,0.841790055412081,0.842397322276969,0.84418548683271,0.844084578715939,0.844307303838541,0.848079994690764,0.851749959261951,0.85195722998829,0.852883584681884,0.852293590377524,0.852843585068029,0.85321449057832,0.8566808207517,0.858151715643001,0.859497157199938,0.859771700004124,0.860074424354435,0.863437119164646,0.862774398289641,0.862687126404867,0.863579845059537,0.863517118392356,1.13182543730969,1.13296178997602,1.1334890576132,0.871277043480206,0.87080977526381,0.875278823029962,0.879968777754449,0.882551480094489,0.884747822527976,0.886266898772329,0.888922327683015,0.890836854655252,0.891499575530257,0.893843189269301,0.895480446190952,0.896522254315446,0.904071272348425,0.903267643742795,0.903428551280347,1.14986162682971,0.897628607271387,0.895587717882654,0.896102258369969,0.897550426207943,0.898312237035452
0.800349546376273,0.800514090242358,0.992172240028106,0.786837858632515,0.786179683168175,0.785395145287339,0.783571526528409,0.783687889041441,0.791313269973598,0.797079577943635,0.797725935340245,0.795932316291706,0.797487755821382,0.79751411920324,0.797094123257764,0.793793246032602,0.792444168147132,0.790674185234053,0.785768778044029,0.785308782484698,0.785156965768476,0.785800595918686,0.788657841062912,0.809157643163548,0.748019142468468,0.800531362802886,0.766317147642818,0.782616081206557,0.803638605533705,0.769171665540645,0.765430792563079,0.760209024790749,0.817348473182472,0.817684833571706,0.820116628277657,0.785148784029278,0.785406054272936,0.775833419411752,0.774947973414146,0.813403965807099,0.835870112561556,0.835591933428838,0.807889473587921,0.859677155462286,0.822575695447601,0.817788468934876,0.821177527126945,0.822276607425822,0.854603568077645,0.839500986601021,0.826405658474207,0.838562813839697,0.832966504228544,0.881331491871915,0.84949907190048,0.870737957775298,0.892208659594048,0.863121667664472,0.862975305441048,0.875703364386104,0.852098137718915,0.92807285882563,0.928536490713494,0.869584332548437,0.867309809051507,0.979626906591796,0.870630686083596,0.904401269162728,0.903743093698388,0.959372556667089,1.04933532455529,0.935209153570198,0.937700038614798,0.956372585627971,0.953545340194136,1.03088095725405,1.00505393385365,1.00455393868046,1.00111760821747,1.0362627234818,1.02329921226428,1.0292355185932,0.901828566726151,0.977545108507076,0.90747396677249,0.878028796482486,0.877282440051239,0.853384488937203,0.929809205699786,0.841218242750383,0.852155409893298,0.842901862860821,0.844069124319677,0.853191763524993,0.880456954859905,0.880345137757538,0.851910866799504,0.852602678302767,0.836035565509774,0.831608335521743,0.831681971174522,0.827248377611559,0.825874754508497,0.834257400857497,0.834553761632877,0.840410068734087,0.906755791887368,0.914454808472303,0.859409885315164,0.859662610148156,0.938718210603832,0.834699214774167,0.834707396513365,0.829926533575571,0.829140177530469,0.82969199038524,0.831011977642452,0.832495599683616,0.832610144032382,0.833011049253064,0.834286491485755,1.14264351469317,0.844471847704625,0.845154568386558,0.845192749836147,0.843955489053044,0.842576411457183,0.842278232517538,0.840767338012382,0.847020914005742,0.846987277966819,0.853514487682232,0.853373579951607,0.852684495694743,0.851931775688564,0.851495416264692,0.851140874232797,0.85111814717947,0.852012683998407,0.855629921805876,0.856489913503756,0.858067171004626,0.860519874599638,0.861870770649373,0.863118940418073,0.86270894437606,0.862815306985629,1.12642548943928,0.905234897478749,0.903757639012517,1.13865264412901,0.870909774298448,0.873907927173299,0.877013351739852,0.881625125400895,0.884460552573928,0.885320544271808,0.887972336853961,0.888765056473995,0.891508666351587,0.89233684017481,0.894687726570919,0.896163166872885,0.900837667201109,0.901841293876014,0.899694041877713,0.920227480017272,0.895971350542808,0.894514091883503,0.897338610070939,0.895643171892771,0.896579526489829
0.79225689722772,0.795745045372294,0.796681399969352,0.785859686257336,0.783587890006804,0.785508780553972,0.78406697629093,0.784533335425193,0.79254143993537,0.794529602560385,0.797400483936607,0.797405938429405,0.795952316098633,0.796752308375731,0.798445928389633,0.799985913523046,0.793041435108556,0.790516914025032,0.785941503649312,0.785603325095811,0.785406963355069,0.785580598042484,0.77654159439341,0.776687956616834,0.756575423504884,0.799683189172736,0.799671371105006,0.769636206510642,0.797712299108249,0.767179866587098,0.762051734274473,0.791317815384263,0.728687510908822,0.728657511198431,0.772836175619034,0.737733787214961,0.779672473259689,0.787962393231117,0.812823971406203,0.770850740240418,0.778063397884163,0.825991117021529,0.790716912094307,0.785263328378044,0.78471333368754,0.803327699444197,0.817291201008089,0.834267400760961,0.79111509006859,0.791090544850997,0.798135931382257,0.809631274954876,0.809712183264718,0.826389294995812,0.826572020504558,0.840427341294615,0.841764601112355,0.892512293026492,0.847483636811473,0.881034222014402,0.85281994893257,0.87870878991802,0.864769833571721,0.866078911843335,0.865481644881911,0.859336249662386,0.859710791501209,0.914872986253514,0.967899747075247,0.97373605436953,0.928545581534824,0.928381946750873,0.924181987296108,0.961345264895842,0.992408601382703,1.01270840541406,1.07090784357294,1.07132602135415,1.02578100648755,1.04515354674319,0.976554208982034,0.903482187126198,0.90361036770696,0.895907714793493,0.896896796154269,0.885024183496428,0.859086252075793,0.853918120149313,0.837295553346203,0.854116300054321,0.837411006777103,0.84485275311838,0.845750926265849,0.854841747596508,0.855089017936702,0.876096087867588,0.93579096613536,0.843051861412777,0.840661884484946,0.829644718114321,0.828262913272061,0.82842291172748,0.827236559543829,0.83157469948282,0.833415590802278,0.838778266305234,0.841060062459229,0.984117772329142,0.859949880102205,0.860116242132556,0.917509324439405,0.833711042495525,0.83403285757063,0.830200167297624,0.829402902266925,0.830254712225608,0.830719253195605,0.868101619589407,0.831466518708985,0.832818323840854,0.834366490713465,0.979163274703933,0.848035449666244,0.842318232131392,0.845345475634502,0.84502184239513,0.843501857068644,0.843096406437297,0.842256414546344,0.844282758620948,0.846140922500934,0.846980914391887,0.848901804939056,0.84980452349719,0.848975440591834,0.844205486639637,0.847747270630062,0.847737270726598,0.853751758118962,0.852919038885074,0.853908120245849,0.854385388365709,0.857234451770737,0.860930779723783,0.861971678766144,0.860802599143021,0.860267149766645,1.09979847376178,0.908783954126238,1.14225260937595,0.894293184925168,0.871676130536622,0.873971562922613,0.878396974746378,0.879905142005134,0.882232392265783,0.885990537803877,0.887938700815038,0.889225052033326,0.891095943063175,0.891120488280768,0.894062278063369,0.895900442136429,0.897304974032015,0.900396762366573,0.900061311059471,0.89885404998676,0.893974097096462,0.894277730528906,0.896065895084647,0.896329528903236,0.897274065239491
0.793906881299235,0.795777772329084,0.796101405568456,0.783366983048469,0.784160611750636,0.781786089219067,0.782654262656145,0.784283337838599,0.784598789338773,0.791162362339509,0.792076898965373,0.797282303259308,0.796676854558687,0.79546504807531,0.798009568965761,0.802901339923789,0.790811456636145,0.786692405491224,0.78728421795985,0.786965130131144,0.781249730760559,0.775436150519602,0.773614349924938,0.777353404738238,0.77769794686667,0.772977083349659,0.809675819979396,0.783853341989659,0.817089384774548,0.778752482141027,0.804089510271706,0.796375948372642,0.734691089315589,0.725965719002423,0.720283046588628,0.740883756806034,0.727001163551985,0.719485781557929,0.767474409198211,0.728233878924422,0.735760169904075,0.746284613758579,0.762639910414567,0.793844154632053,0.806801302274641,0.807111299282017,0.840699156852402,0.836937374985775,0.81437395644308,0.80661403135523,0.841328241688484,0.822910237672569,0.821037528478453,0.822265698440225,0.854161754160975,0.85455175039606,0.842090961598126,0.843070952137571,0.826104752288162,0.829833807197999,0.854559932135258,0.872525213248906,0.855753556975973,0.858964435069962,0.889550503436964,0.857772628393513,0.859695337104947,1.01462656871483,0.920682021083805,0.920282024945256,0.922663820133888,0.922572911920582,0.920991109009047,1.02137195814218,1.02047196683045,1.0666260667262,1.05996249469083,1.05921704734171,1.00224487006248,1.02148104799815,1.02407193207739,0.966445215662341,0.901041301598916,0.898681324381477,0.891690482778201,0.899114047476817,0.841769146523021,0.84211277956932,0.842714591941409,0.922509276171267,0.850680878673465,0.851068147662152,0.850496335000453,0.852165409796762,0.853307216955893,0.873201570355907,0.934063710082534,0.939472748774277,0.869211608873881,0.828810180716166,0.828392912017089,0.828198368440613,0.829869261401188,0.829692899467373,0.833890131675739,0.83782827547618,0.838619176931947,0.92710014094325,0.858725346468965,0.916091156311822,0.925545610495707,0.833502862687052,0.832527417558273,0.830991977835525,0.82823291356167,0.82842291172748,0.828819271537497,0.828630182453819,0.830081986620326,0.831477427694582,0.832509235915612,0.832493781519349,0.837591914121583,0.837993728424398,0.841953690196033,0.842805500154716,0.842547320828925,0.841880054543255,0.841096425744552,0.842209142275425,0.843319131559898,0.844162759779383,0.894808634494617,0.846630917770657,0.844336394466799,0.844471847704625,0.845067296501784,0.847116367629714,0.848599080588745,0.849130893636588,0.850438153743937,0.853459033672115,0.857131725489701,0.857099907615044,0.857189906746217,0.858679892362312,0.859239886956281,0.906803064158288,1.1431253282237,1.19997023400431,0.901145846044219,0.871081590821597,0.872216125323663,0.874953371626325,0.879001514364867,0.879576054272965,0.884608732961617,0.88530054446488,0.888873237247829,0.889162325366144,0.89064958373584,0.892663200660581,0.894033187435111,0.896989522531842,0.899961312024834,0.900339490192189,0.948672659960903,0.916127519597144,0.929781933235794,0.909791217129675,1.06444426960684,0.929981931305069
0.795038688554902,0.794948689423728,0.795466866239576,0.795095960729285,0.781954269413685,0.781327911824002,0.781707908155624,0.782544263718044,0.784155157257837,0.790663276248456,0.791665993841227,0.794032334633598,0.794524148067587,0.794072334247453,0.879063331949915,0.8371937361473,0.789252380777938,0.787719668301589,0.786382408483849,0.786647860466704,0.777797036819174,0.776062508109285,0.77546524114786,0.775327060663634,0.77928429518887,0.78012337799769,0.785296964416968,0.785196056300198,0.781474274047426,0.824007499807179,0.747420057342778,0.81201943371844,0.817790287099142,0.73491654168459,0.75500543866108,0.75177365167803,0.753997266575509,0.755244527262076,0.754233627930107,0.71926669276386,0.721373945148307,0.785620597656339,0.735451081978832,0.744381904854072,0.772466179190876,0.801149538653371,0.802182255956534,0.799326828976574,0.762030825385413,0.781781543808402,0.797907751766858,0.779670655095423,0.793230524192234,0.794475057632401,0.858601711298869,0.857704447233532,0.885043274221223,0.838143726976354,0.835376480963301,0.832884686836568,0.848408173340801,0.853522669421429,0.863245302834569,0.864003477333546,0.854466296675552,0.855226289338795,0.860749872379303,1.02971733212373,0.918218408503196,0.919109308993601,0.913554817160568,0.912109376568993,0.911873015214396,0.922736546704534,1.04404446654085,1.16134333417034,1.05177166467191,1.06508971792132,1.0043266681472,0.996108565664281,0.945663598100455,0.967045209870165,0.944872696644688,0.956745309302528,0.937445495617539,1.00772663532486,0.98988135305278,0.934372798007777,0.849071803297939,0.848599989670878,0.853446306522252,0.856303551666478,0.851453598486571,0.850511789396715,0.854312661795064,0.858179897189126,0.85780171902177,0.855051745569246,0.834779214001877,0.82898926989638,0.829663808839115,0.831241975422118,0.829301994150155,0.828762908445247,0.830021987199543,0.831535608951098,0.838070091323576,0.932463725528338,0.871715221068344,0.87577336371035,0.938263669537299,1.05104439896545,0.833095593891439,0.829994714735551,0.828519274433585,0.828700181778065,0.827998370371339,0.827916552979363,0.828652000425013,0.830649253871359,0.831228339190122,0.833963767328517,0.837403734120038,0.837707367552482,0.838975537128109,0.839050990945154,0.841932781306973,0.841165515986665,0.840587339750035,0.838697357995391,0.839308261188811,0.839238261864565,0.845316385006244,0.8442182137895,0.841772782851553,0.842450049040687,0.842163688168771,0.843747309244572,0.843689127988056,0.847146367340105,0.849941794899283,0.85012179316163,0.854113572807922,0.856764456307942,0.858023535062239,0.859079888500861,0.859694428022814,0.860848962331807,1.15575247905198,0.927363774761839,1.040117231726,0.871551586284392,0.872061581361042,0.873589748426726,0.877162441209675,0.879904232923001,0.883661469378963,0.883722377881878,1.17148869077535,1.08580769973389,1.08653496544034,0.890946853593353,0.894874088408197,0.896321347164038,0.899148592597873,0.898144056840835,1.3167963789246,1.31587820597021,0.9293092105266,0.927763770900388,0.929609207630512,0.920500204657191
0.797243212727587,0.796283221995069,0.796539583156594,0.795451411843314,0.781400638394648,0.780921552110522,0.781022460227292,0.783043349809098,0.782827897343561,0.782533354732448,0.783122439954674,0.784239701896212,0.784951513206403,0.794149606228764,0.793975062459215,0.792695983897991,0.788916929470836,0.786327863555865,0.787480579700592,0.781260639746155,0.779932470749746,0.778067034212695,0.774731611866476,0.77350526006897,0.784865150403762,0.784634243541963,0.781981541877677,0.779880653068161,0.778591574603474,0.769119847859061,0.750301847704597,0.748385502568094,0.740768303375135,0.735656534540905,0.735011086226429,0.725002091941373,0.755666341371818,0.756533605726763,0.741763748310842,0.709662240028019,0.724674822373469,0.757234508051357,0.735273810962885,0.73660379812356,0.735172902846114,0.754622715083059,0.736241074352467,0.737551970788348,0.802264982430643,0.737016521411972,0.746442794049732,0.747340967197201,0.795333231166015,0.798057750318814,0.777330677684912,0.808684920454354,0.808639466347701,0.798204112542237,0.806306761594254,0.807379478511271,0.868657977854843,0.842054598312803,0.863126213075137,0.864380746418768,0.865526189906431,0.860148969089347,0.865598916477077,0.870686140093713,0.874462467274469,0.875273368537164,0.940172742016737,0.905942163378274,0.948499934355621,1.02604464030614,1.06780787349919,1.06748969475261,1.06912604259213,1.00759936382623,0.998953992740777,1.00182669228127,0.944290884079526,0.936545504305804,0.932445543885677,0.928872851102728,0.932927357416202,0.973063333591061,0.948754477352879,0.938636393211856,0.944690880218075,0.844137305479657,0.949554469629977,0.855982645673506,0.852030865641068,0.851888139746177,0.854385388365709,0.85695354539162,0.851781777136608,0.853719940244305,0.834431035544913,0.833139229833826,0.83212923958399,0.832516508572676,0.828184732208617,0.828946543036126,0.829249267386437,0.828504729119456,0.82973926265616,0.896905886975599,0.844634573406444,0.844046397266351,0.898724960323864,0.935136426999552,0.832311056010603,0.831569244990021,0.830054714156334,0.828243822547266,0.826849290555143,0.825270214890008,0.827965643414548,0.828339276171238,0.829279267096828,0.829055632892094,0.836597378268009,0.907273968703216,1.02660827122864,0.84148733106177,0.842586411360647,0.841321878113552,0.841050062555765,0.837697367649018,0.8390055368385,0.839860983125715,0.843448221222793,0.843837308375746,0.843564583735826,0.842969134938668,0.843661855524064,0.844642755145642,0.84401367030956,0.848339992180821,0.849227256342693,0.851148146889861,0.852335408155645,0.855047200158581,0.856758092733011,0.858684437772978,0.860457147932456,0.860926234313118,0.920018391126667,0.925891061706272,0.931191010542046,0.869609786848163,0.872053399621844,0.874647010947481,0.875460639456575,0.879148785670424,0.880652407518515,0.880868769066184,0.882015121635981,0.87875333494254,1.0959803288029,0.889785046627294,0.891059579777853,0.894369547824346,0.894530455361898,0.895176812758508,0.89608771305584,0.890844127312316,0.889202324979999,0.91758205101005,0.922291096459331,0.926500146735426
0.801098630053919,0.799365010426162,0.865517099085101,0.986735928872372,0.780228831525126,0.780627918581542,0.77947702060108,0.7815615459322,0.781925178785427,0.781696999170027,0.783144257925868,0.785003330887988,0.784669697745152,0.792876891242471,0.790110554311552,0.787925120863661,0.786847858535978,0.787564215256834,0.786360590512655,0.786171501428977,0.780322466984831,0.779343385527519,0.777557948218178,0.774170708190375,0.773707985384644,0.787999665598573,0.79024055305658,0.771851639668923,0.771472552419435,0.77248799716207,0.750637299011698,0.804877684481074,0.740341943854727,0.740801030331925,0.725467541993503,0.724818457350494,0.736468344885733,0.74726642246229,0.743947363594466,0.719132148608167,0.708916792678905,0.737006521508508,0.721735759837267,0.759857210005252,0.732685654130046,0.744674629300919,0.760654475035951,0.761108107020351,0.72592026489577,0.737241973780972,0.745009171525887,0.75007457717133,0.775517058829445,0.775724329555784,0.775517058829445,0.806432214928617,0.838316452581636,0.781722453469753,0.782533354732448,0.842271868942606,0.81060217467299,0.816870295980479,0.822334788682338,0.822758420956347,0.860023515754983,0.859505338939136,0.869207063463215,0.870032510040039,0.872841573831213,0.873169752481249,0.891809572537632,0.947899940147797,1.02957187898244,1.02909915627324,1.06405336428963,1.07311691315629,1.00842662856732,1.0746623527825,0.993444955014398,0.992126785921453,0.994926758891295,0.934890974823624,0.935181881106205,0.929654661737165,0.930900104259465,0.933654623122655,0.945199966212592,0.902154927211922,0.854879019963964,0.847683634880747,0.847091822412121,0.846461828493907,0.845388202494756,0.847996359134522,0.860200786770931,0.859788972564653,0.854792657161322,0.853993573966358,0.83318195669408,0.833411045391613,0.832026513302954,0.829103814245147,0.82832200361071,0.828237458972335,0.829040178495832,0.828598364579162,0.827832008340988,0.993308592694438,0.843940034656782,0.842093688844525,0.84069552052387,0.838037364366785,0.832527417558273,0.831423791848731,0.829744717148958,0.829498355890897,0.821220253987199,0.824223861354849,0.82760746505412,0.828327458103508,0.827182014615846,0.825759301077597,0.832335601228196,0.915909339885209,0.923972898405503,0.838426451519737,0.839279170560553,0.905636711781564,0.84054734013618,0.840532794822051,0.838428269684004,0.838562813839697,0.84027734274266,0.840951881685394,0.843907307699992,0.842839136193639,0.846067286848156,0.844993660849005,0.843935489246117,0.847224548403549,0.848742715565769,0.850295427849046,0.851253600417297,0.853715394833639,0.854772657354395,0.856200825385442,0.859769881839858,0.860174423389072,0.91634569930908,0.929336482990592,0.866796177646324,0.86889433920944,0.871332497490323,0.873284296830016,0.874774282446111,0.877473347299183,0.878714244410818,0.879289693401049,0.879906051087268,0.880728770417692,0.879596054079892,0.889148689134148,0.889940499672049,0.891705937174463,0.894509546472838,0.894147731783878,0.89416318618014,0.954063517009984,0.888046881588872,0.917836594007308,0.922745637525864,0.924100169904132
0.95939073830975,1.03241730605893,0.79623594972415,0.793971426130683,0.780290649110174,0.780320648820565,0.780160650365146,0.781796089122531,0.783811524211538,0.783496981793497,0.781658817720438,0.784169702571966,0.784602425667306,0.788345116809138,0.786303318338272,0.787363308105427,0.788367843862464,0.787542397285641,0.787446943661669,0.786087865872735,0.782157903811491,0.780966097135042,0.780471556454654,0.780903370467861,0.780321557902698,0.790905092095851,0.790956000695303,0.770376199366958,0.770164383229953,0.777092498166048,0.750275484322738,0.803231336738092,0.803532242924136,0.740574668880792,0.72690480084588,0.725178453875188,0.727273888191905,0.726581167606509,0.735033813279755,0.712906754160932,0.706829540101386,0.762507184423139,0.739771040275162,0.73607016691145,0.735071085647211,0.736644706819548,0.734969268448307,0.755745431517395,0.756623604857937,0.765283521257522,0.749622763351196,0.764294439896747,0.816077576360446,0.776207052168442,0.779478838765346,0.780272467467513,0.787733304533584,0.781011551241695,0.780410647951739,0.847728179905267,0.801574989091646,0.801655897401489,0.816650298104277,0.817168474920125,0.851351781287668,0.851828140325395,0.954808964359098,0.872540667645168,0.871024318647214,0.907016698459558,0.982926874734826,0.972963334556424,0.94808175657441,0.995663115419079,1.07731687261106,0.998744903850172,0.995599479669764,0.988026825501325,0.976545118160703,0.973590601228239,0.928854669460067,0.929554662702528,0.960608908368058,0.945190875391261,0.926309239487483,0.938890936209114,0.937927309148065,0.950881729544253,0.964563415646895,0.845609109453091,0.844999115341804,0.84426275881402,0.844148214465254,0.844179123257778,0.845585473317631,0.927891042399017,0.844039124609286,0.8443336672204,0.833836495829888,0.833427408870008,0.830725616770536,0.828880180040412,0.828597455497029,0.82877563559511,0.828927452311332,0.825796573445053,0.827282922732616,1.01202659381426,0.843800945090423,0.842790954840587,0.841011881106177,0.840845519075826,0.835007393617277,0.831191066822666,0.829310175889353,0.828370184963763,0.828023824671064,0.823798410916574,0.825026580878346,0.827472011816293,0.827268377418487,0.825508394408871,0.827000198189232,1.03736271286281,0.917500233618074,0.837681913252756,0.837461006294421,0.915254800749401,0.838905537803863,0.83862008601408,0.839609167374856,0.838709176063121,0.838297361856842,0.837770094219664,0.838033728038253,0.84098915405285,0.842895499285889,0.844305485674275,0.845075478240981,0.84576001708718,0.849993612580868,0.84961179808498,0.85082451365049,0.852229045546077,0.855864464996207,0.857901718056408,0.857160816117959,0.859793517975318,0.861266231030885,0.932818267560234,0.926454692628773,0.868762522300146,0.870187963084793,0.872546122137966,0.874599738676562,0.876048815596669,0.875717909700233,0.87864060875804,0.878530609819939,0.881599671101169,0.88259329787261,0.887076890952891,0.888923236765148,0.890134134166392,0.891705937174463,0.892323203942814,0.893490465401671,0.913527544696576,0.917682050044687,0.919772938950739,0.919836574700053,0.891001398521337
0.854842656678641,0.816553026316039,0.795257777348971,0.794476875796667,0.785003330887988,0.780981551531304,0.780347921284557,0.781410638298111,0.781402456558914,0.78369061628784,0.783215166332247,0.782961532417122,0.784469699675878,0.785122420647419,0.784536062671592,0.785264237460177,0.788033301637496,0.788739658454888,0.786659678534434,0.785194238135931,0.781967905645681,0.781496092018619,0.780912461289191,0.781418820037309,0.781195185832575,0.785092420937028,0.785836959204009,0.784660606923822,0.777304314303053,0.777679765224009,0.776717047245092,0.961781624319713,0.869139791385368,0.859986243387528,0.715229459010915,0.734741997915041,0.725216635324777,0.727341160269752,0.73038294908699,0.734658362358799,0.737879240356251,0.732313839537622,0.742277379716024,0.765598063675563,0.752450008785031,0.759446304881106,0.75387272232328,0.748352775611304,0.772533451268723,0.771508915704758,0.746080070278639,0.810483993995691,0.768274401475309,0.778778845522885,0.787400580472882,0.784198793200224,0.781548818782337,0.787697850330395,0.788848748310856,0.794722327972595,0.797423210989934,0.855082654361771,0.824705674885374,0.885087819245743,0.885023274414295,0.842992771074127,0.84262004739957,0.930318291694303,0.952263534386513,0.895490446094416,0.95387260976204,0.908396685137552,0.971517893964849,0.979881449589055,1.00243577731042,1.0042993956832,0.952272625207844,0.949499924701993,0.948509025176951,0.957345303510352,1.05227165984509,0.92696377862329,0.960854360543986,0.948427207784975,0.923118361200421,0.988545002317173,0.939409113024962,1.01660836776492,0.889058690002975,0.846263648588898,0.844478211279557,0.843489129918781,0.843570947310757,0.843690946152322,0.844645482392041,0.846997277870283,1.13987081418732,0.845260021913994,0.834933757964498,0.832890141329366,0.831401973877537,0.828543819651178,0.82777655433087,0.828344730664037,0.829770171448684,0.833461044908932,0.832444691084164,0.835308299803321,1.01986288180129,0.839632803510316,0.840443704773011,0.840844609993693,0.834783759412542,0.831814697165949,0.829737444491894,0.828079278681181,0.828362912306698,0.8263174775073,0.823078417867186,0.822337515928737,0.821780248581168,0.824462949955845,0.825026580878346,0.904522177086426,0.836566469475485,0.835940111885802,0.836148291694274,0.895663171699698,0.906983971502768,0.835962838939129,0.837474642526417,1.25305153975402,0.857764446654315,0.836897375371921,0.836014656620714,0.836686468317049,0.837679186006357,0.839950073174756,0.840804610379838,0.84778817932605,0.848220902421389,0.848726352087374,0.850031794030456,0.850856331525147,0.857391722979758,0.857079907808116,0.85813080675394,0.859615337877237,0.860574419527621,0.860995324555231,0.938054580646694,0.868337071861871,0.869781603371313,0.869842511874228,0.873041571900487,0.874896099451941,0.876389721396569,0.876113360428117,0.87872060798575,0.880222411669574,0.881901486369347,0.883606924450979,0.885593268911728,0.886642349693286,0.890261405665021,0.892308658628685,0.893491374483804,1.06734424161132,0.887328706703751,0.882955112561571,0.888749602077732,0.890191406340775
0.86077259943263,0.830638344885762,0.793942335502425,0.848427264065595,0.781633363420712,0.780542464861033,0.780333375970428,0.780578828146356,0.783348801405808,0.786068775147941,0.785169692918339,0.782341538402371,0.782251539271197,0.78589059504986,0.783032440823501,0.78613968355432,0.787399671390749,0.78727239989212,0.786284227613477,0.784251519963942,0.782720625651859,0.781251548924825,0.781027005637957,0.78111973201553,0.781478819458091,0.782385174344758,0.78724876375666,0.787637850909613,0.776812500869064,0.776530685407814,0.776176143375918,0.774600704039315,0.772623450399897,0.849892704464097,0.763352630806891,0.740891029463099,0.741811929663894,0.729934771595389,0.739166500656673,0.74059194144132,0.73325019413468,0.733521100610334,0.778828845040204,0.708887702050647,0.711739492702075,0.711875855022035,0.721314854809658,0.788622386859723,0.732879288624389,0.802627706201736,0.802186801367199,0.774993427520799,0.778565211221615,0.781527000811144,0.766297147835891,0.774875246843501,0.775696148009659,0.801435899525287,0.807437659767788,0.791354178669586,0.831718334459844,0.816866659651947,0.878878788276903,0.827171105630249,0.831408337452469,0.841589148260674,0.84312095165489,0.973026970305738,0.869482515349534,0.952418078349135,0.949081746920783,0.898351327567174,0.951372633896109,0.945154512105938,0.958990742171201,0.955699864849503,1.01626291655435,0.967272480403431,0.966790666872906,0.944663607754083,0.907827599722253,0.926345602772805,1.08005320983158,0.917427507047429,0.927709225972404,0.956972579835795,0.926754689732685,0.996472198517508,0.957763481291562,1.03428092443172,0.96504522917742,0.84061552129616,0.837733730934341,0.909945761092297,0.841292787485294,0.847498182125602,0.842706410202211,0.843042770591446,0.843213678032462,0.836371016816875,0.829141086612602,0.828303821968049,0.82784473549085,0.827684737035431,0.830598345271907,0.834098311484211,0.834189219697517,0.834590124918199,0.830481982758875,0.830685617156681,0.834955575935692,0.836675559331452,0.831807424508885,0.831475609530316,0.829746535313224,0.828373821292295,0.828027460999597,0.827900189500968,0.824270224543636,0.823706593621135,0.822296607232749,0.821612977468684,0.823104781249045,0.916363880951742,0.92020020755328,0.835436480384084,0.834967394003422,0.833830132254956,0.839443714426638,0.833163775051419,0.833023776402927,0.832575598911325,0.851589051724398,1.01741745086335,0.837465551705087,0.836140109955077,0.837142827547848,0.837781912287394,0.841155516083201,0.842284596092469,0.843576401803556,0.84572456288399,0.848833623779076,0.850416335772743,0.853427215797458,0.856074462968945,0.857482631193064,0.858859890624659,0.860875325713666,0.862807125246431,0.935700057922053,0.86617527454944,0.867398899100547,0.868927066166231,0.870070691489628,0.873802473645863,0.876228813859016,0.876186086998762,0.875340640615011,0.879068786442714,0.880827860370196,0.882012394389581,0.883904194308491,0.886119627466773,0.89103503456026,0.891605029057692,0.893181377476429,0.892556838051012,0.88325147333695,0.882762387149361,0.885113273545469,0.88977777397023
0.776935226957028,0.785372418234012,0.791195089296299,0.854594477256314,0.781171549697115,0.780980642449171,0.78029519452084,0.779619746495971,0.784147884600773,0.785614234081408,0.784182429721829,0.781070641580345,0.781974269220612,0.780526101382638,0.782868806039549,0.785375145480412,0.78634422703426,0.786482407518486,0.784693333880612,0.783747888462224,0.782486082461528,0.781138822740325,0.780910643124925,0.781743362358813,0.782619717535089,0.783983340734688,0.787572396996032,0.787217854964136,0.787556033517637,0.774094345291197,0.772936174653671,0.772937083735804,0.769535298393872,0.765742607734721,0.764686254296098,0.748543682859247,0.747890961887706,0.730845671892721,0.721352127177114,0.71826124792469,0.734830178881948,0.779619746495971,0.780952460903046,0.711173134533175,0.81042126732851,0.733117468143252,0.739192864038532,0.73863196036243,0.763753536027573,0.80226134610211,0.77936429441658,0.782766988840646,0.781862452118245,0.783676070973712,0.770138928930227,0.738379235529438,0.768478944955249,0.789875102039088,0.823302961154053,0.817017567286036,0.817153020523863,0.815937577711954,0.856365369251527,0.829021996853171,0.870133418156809,0.870639776904927,0.851122692590135,0.893812280476776,0.870907047052048,0.880536954087615,0.892965015928759,0.904122180947877,0.92102747229437,0.923009271344453,1.00509029713897,0.953499886087483,0.974099687222756,0.990535892188587,0.957436211723658,0.907972143781411,0.937245497548265,1.04820806271029,1.05811705796071,0.921254742827636,1.04302629455181,0.923427449125664,1.05620798548127,1.02020833301186,1.04318992933576,0.847928177974542,0.966772485230245,0.83684373952607,0.838433724176802,0.838535541375705,0.83796463779614,0.838060091420112,0.839320079256541,0.84450275649715,0.844493665675819,0.838835538479617,0.890253223925823,0.827164742055317,0.827220196065434,0.827921098390028,0.829666536085514,0.831917423446986,0.83310468471277,0.831798333687554,0.829965624107293,0.830496528073004,0.832010149824558,0.832962867900011,0.832557417268664,0.832971049639209,0.827089288238273,0.826526566397905,0.826482930455518,0.826910199058059,0.824442950148918,0.821882974862204,0.820834803162779,0.820169355041375,0.815795760899195,0.819082092810228,0.820393898328242,0.836033747345508,0.834140129262332,0.833403772734548,0.831557426922292,0.831498336583642,0.872526122331039,0.870568868498548,0.837604641271446,0.837541005522131,0.835845567343963,0.840869155211285,0.836571923968283,0.844652755049106,0.83779282127299,0.839960982160353,0.842704592037945,0.845065478337517,0.84835453749495,0.848299992566966,0.849085439529935,0.852247227188738,0.854513568946471,0.858944435263034,0.859845335656903,0.860323512858895,0.957954388539506,0.864334383229982,0.865988912712162,0.867889803452403,0.870111600185616,0.872650666583269,0.873777019346137,0.873795200988799,0.87453701200938,0.874994280322313,0.879598781326291,0.882443299320654,0.883316018168398,0.88480509470236,0.885384180021123,0.888954145557672,0.892839562594396,0.890876854269107,0.888018700042747,0.888364151253312,0.889521412808705,0.89130775920018
0.773606168185741,0.860726236243843,0.782728807391057,0.787463307140064,0.780829734815082,0.781050641773417,0.78157336399993,0.774784338630194,0.775774329073103,0.780173377515009,0.784727879001669,0.78411152131545,0.778897935282317,0.778188851218526,0.779784290362056,0.783283347492227,0.78641240819424,0.784914240838947,0.7845087902076,0.782078813665915,0.782566990771371,0.781683362938031,0.780610646021013,0.779863380507633,0.778630665135196,0.778782481851418,0.778307940977957,0.78755694259977,0.78755694259977,0.77323526267545,0.773859802100866,0.767602589778974,0.767688043499482,0.765486246573196,0.7635453562191,0.759887209715643,0.757583595590454,0.750227302969685,0.750169121713169,0.753759087056646,0.762878999015563,0.763981715642972,0.787122401340164,0.715820362397408,0.714548556493249,0.753222728598137,0.760567203151177,0.749150040642002,0.749740944028495,0.787664214291471,0.781035187377155,0.785633324806202,0.810571265880466,0.751504563366643,0.750260029926476,0.771372553384798,0.768308946596366,0.774442523748161,0.775347060470562,0.89430863932143,0.812703972564638,0.816792114917035,0.818838458798567,0.834662851488845,0.838770993648169,0.839281897806952,0.839569167761001,0.862825306889093,0.923809263621551,0.894013187628184,0.887228707669113,0.90150493348678,0.921145652971668,0.98285414816418,0.939981834768793,0.962763433023425,0.941236368112424,0.996054020736297,0.989235904738303,0.999644895161907,0.931618279144587,1.05422618643118,1.05318074197816,1.04021723076064,0.99844490674626,1.03986268872874,0.93358189655201,1.04513536510052,1.01845380449504,0.845561837182171,0.844428211762238,0.841320059949286,0.840083708248316,0.837562823493325,0.837156463779844,0.837517369386672,0.837634640981837,0.842266414449808,0.841422786230323,0.841434604298053,0.83364740674621,0.832794687705394,0.825355668610516,0.825571121076053,0.828791089991372,0.828360185060299,0.831058340831238,0.831976513785635,0.830176531162164,0.828807453469767,0.829007451539042,0.834576488686203,0.831466518708985,0.829473810673305,0.8281292781985,0.826106570452429,0.825016580974883,0.825508394408871,0.824710220296039,0.82328114318286,0.819116637931285,0.819278454550971,0.822097518245608,0.822202971773044,0.854865383731968,0.835105574487648,0.803629514712375,0.906049435069976,0.833401045488149,0.831569244990021,0.835723750338133,0.845400929644619,0.841073698691225,0.84087642786835,0.834298309553485,0.832919231957624,0.966790666872906,0.839394623991453,0.839407351141315,0.841608238985468,0.843236405085789,0.843787308858427,0.844140941808189,0.847319092945388,0.849999067073666,0.850956330559784,0.853601759567006,0.853560850871018,0.856359914758728,0.858944435263034,0.861646227362506,0.864288929123329,0.864795287871446,0.868257072634161,0.87013069091041,0.870857956616863,0.872196125516736,0.874777918774643,0.874079743696448,0.87578518177808,0.878604245472717,0.879810597463296,0.881996030911186,0.883620560682975,0.885316907943276,0.88743234206692,0.889071417152838,0.887830520041203,0.887455069120247,0.887162344673399,0.888261424972276,1.08266227555348
0.772004365467279,0.771424371066383,0.879561508958836,0.880107867320808,0.774876155925634,0.775837964822417,0.776567957775269,0.775833419411752,0.776457049755035,0.776442504440906,0.78206245018752,0.784252429046075,0.784061521798131,0.778979752674293,0.777346132081174,0.784756060547794,0.784196975035958,0.784223338417817,0.78013519606542,0.779973379445734,0.779745199830335,0.781049732691284,0.778188851218526,0.777912490250074,0.776935226957028,0.776546139804076,0.775997963277837,0.787496943178987,0.787876939510609,0.782236084874935,0.778543393250421,0.766709871124303,0.765611699907559,0.762698091671083,0.762019007317683,0.760892654554814,0.757638140518438,0.75405362966776,0.751934559215583,0.752390918446382,0.768098948623628,0.768125312005486,0.760372659574701,0.760098116770515,0.751353655732554,0.753035457678726,0.753534543769779,0.750639117175964,0.758939037050856,0.759211761690775,1.00950843630567,0.785927867417316,0.756174518284202,0.749920942290842,0.744320087269023,0.746310068058304,0.774097981619729,0.773373443159676,0.794137788161034,0.800604089373531,0.841075516855491,0.841624602463863,0.819766631656427,0.828848362165755,0.837927365428684,0.847682725798614,0.847337274588049,0.905733074487669,0.916645696412992,0.890165042958916,0.890792309630732,0.882184210912731,0.883368744932115,0.920291115766586,0.920363842337232,0.935500059852779,0.938190942966654,1.03499000849551,0.967281571224762,1.00194487295856,0.898913140325409,1.05540799320417,1.0399990510487,1.04530809070581,0.91772750415134,1.02283558037642,1.02281739873376,1.02457192725057,1.04398992161286,0.846533645982419,0.845024569641529,0.841830964108069,0.839737347955618,0.837905547457491,0.838040091613184,0.837701913059684,0.837500096826143,0.83687646648286,0.841402786423395,0.842165506333037,0.834885576611446,0.824925672761576,0.824928400007975,0.824971126868229,0.825576575568851,0.825897481561823,0.825889299822626,0.831649244217731,0.831567426825755,0.828946543036126,0.828330185349908,1.00449939375248,0.831593790207614,0.830434710487955,0.826122024848691,0.825032944453278,0.824128407730877,0.824273860872168,0.824472949859309,0.82476385614189,0.824115680581014,0.823820228887768,0.828536546994113,0.820619350697243,0.821352979978627,0.841372786713004,0.798242293991826,0.798049568579616,0.832715597559817,0.826629292678941,0.828984724485715,0.830224712515217,0.851475416457765,0.84837544638401,0.836251017975311,0.834660124242446,0.841373695795137,0.839103717708871,0.842146415608243,0.925681972815667,0.841797328069146,0.841001881202713,0.84105733521283,0.844951843070884,0.846887278932182,0.849279074024278,0.852238136367407,0.854091754836729,0.854515387110737,0.855755375140239,0.861740771904345,0.864145294146304,0.86474892468266,0.868117073985669,0.869229790516542,0.870107963857083,0.872019763582921,0.871474314303081,0.87427883268359,0.876051542843068,0.878618790786846,0.879471509827662,0.88014695785253,0.882276937290303,0.884925093543924,0.885646904757579,0.977399655365785,0.885069637603082,0.887299616075492,0.887709612117505,0.885393270842453,0.926100150596877
0.770079838591578,0.771760731455617,0.895065904738274,0.774034345870415,0.774927064525085,0.774771611480331,0.77323526267545,0.775130698922892,0.773637076978265,0.77438888790231,0.784687879387814,0.784631516295564,0.785046057748242,0.784825150789907,0.776081598834079,0.77874157315543,0.782376083523427,0.780045196934246,0.780197922732601,0.779973379445734,0.78015610495448,0.778995207070555,0.778256123296373,0.778180669479328,0.776856136811451,0.776867045797048,0.776216142989773,0.787920575452996,0.787430580183273,0.785809686740017,0.773341625285018,0.765975332760786,0.765024432849599,0.763960806753912,0.76233536789999,0.761015380642778,0.759799937830869,0.757572686604858,0.756222699637255,0.756349062053751,0.758043591149786,0.762402639977837,0.753180910820016,0.760879927404951,0.747849144109585,0.751780015252962,0.757139054427385,0.756436333938525,0.770904376086269,0.777986125902852,0.778226123585981,0.790005100784116,0.819895721319322,0.75360908850469,0.746884607966402,0.746550065741434,0.851348144959136,0.841734601401964,0.839086445148343,0.831407428370336,0.8315301544583,0.842619138317437,0.841719147005702,0.839847346893719,0.850343609202098,0.850046339344586,0.845265476406792,1.01455384214419,0.884291463297177,0.889639593486004,0.891698664517398,0.881831487045101,0.879849687995018,0.917663868402026,0.949699922771268,0.958990742171201,0.965245227246694,1.02711735722316,0.894793180098354,0.895759534405803,0.872886118855733,0.913345728269963,0.924436530293367,1.07478962428113,1.02035378615315,1.02219922288327,1.04278993319721,1.04169903463753,0.854047209812208,0.849241801656822,0.847239093717678,0.84758363584611,0.838226453450463,0.839965527571018,0.84052370400072,0.837756457987668,0.838036455284652,0.840433704869547,0.840770974340914,0.839107354037404,0.83476830501628,0.828646545932215,0.828492001969593,0.825826573155444,0.826545657122699,0.825502939916073,0.826066570838574,0.82938653878853,0.831363792427949,0.831329247306892,0.831071977063234,0.82511658000952,0.83131379291063,0.831479245858848,0.831101976773626,0.968890646600289,0.822676603564371,0.823124781055972,0.823922955168804,0.824532949280091,0.82259024076173,0.82522930619402,0.827392921670717,0.946263592308279,0.942754535274644,0.933990983511889,0.878726062478548,0.921000199830378,0.828582001100767,0.827004743599898,0.828012915685468,0.831677425763856,0.852835403328832,1.01418111846963,0.833139229833826,0.834475580569433,0.854270844016943,0.840867337047019,0.939781836699519,0.839272806985622,0.848403627930135,0.841311878210088,0.84388912605733,0.845910924721269,0.847026368498541,0.847458182511747,0.851549052110543,0.853431761208123,0.854989018902065,0.858663528883917,0.860373512376214,0.864086203807655,0.866890722188163,0.868008893211834,0.869143427713901,0.869572514480708,1.03170822199514,0.870547959609487,0.870830684152871,0.874891554041276,0.878011523921958,0.878546973298334,0.87933151117917,0.880065140460554,0.881978758350658,0.884914184558327,1.0619988386689,0.87953605465911,0.88214239313461,0.886061446210257,0.883990557111133,0.884788731223964
0.774801611190722,0.764423529559642,0.765526246187051,0.764711708595824,0.775010700081327,0.774674339692093,0.769978021392675,0.773553441422023,0.772168909333363,0.771771640441214,0.77195436594996,0.786183319496707,0.785828777464811,0.784629698131298,0.777406131501956,0.778297941074494,0.776494322122491,0.780116105340625,0.778954298374567,0.780447011237062,0.780525192300505,0.778018852859642,0.777503403290194,0.776977953817282,0.776960681256754,0.77630432395668,0.776997044542076,0.776657956906443,0.786340590705727,0.782859715218218,0.771743458895089,0.772196181797355,0.767104412770053,0.765577154786503,0.762341731474921,0.762879908097696,0.761329923060819,0.759572667297603,0.758916309997529,0.758165408155617,0.757888138105032,0.757981773564737,0.768158038962277,0.76352444733004,0.756570878094219,0.762830817662511,0.77145618894104,0.771746186141488,0.777138861354835,0.778361576823808,0.781202458489639,0.784601516585173,0.892486838726766,0.809723092250315,0.778318849963554,0.777950671699662,0.786289682106276,0.859076252172329,0.85705718075479,0.82417658908393,0.8246184030006,0.927500137081799,0.839296443121081,0.839570076843134,0.839620985442586,0.842976407595732,0.994517671931416,1.01576292138117,0.859923516720346,0.866095275321731,0.866949812526813,0.887889610379852,0.934227344866486,0.857148088968096,0.945481781673842,0.954454422327202,0.953127162412926,0.966681577016938,0.872147944163683,0.861995314901604,0.855584467699223,0.869156154863763,0.875620637911995,0.875587001873071,1.01759926728996,1.01415384600564,0.863772570471747,0.863323483898013,0.856738092926083,0.853758121693893,0.850766332393974,1.06765332953657,1.03283548384014,0.83886917451854,0.838139181565688,0.838347361374161,0.838469178379991,0.84026552467493,0.839720984477223,0.841015517434709,0.832348328378059,0.829496537726631,0.828432002548811,0.826177478858808,0.823860228501623,0.824605675850737,0.825427486099028,0.827422921381108,0.831209248465327,0.831317429239162,0.83004471425287,0.823748411399256,0.824112044252482,0.829380175213599,0.816563026219503,0.816361209985962,0.821642068096942,0.821942974282987,0.822130245202398,0.820161173302178,0.827066561184946,0.850413608526344,0.835615569564298,0.837548278179196,0.8544153880761,0.958354384678055,0.816965749604451,0.888557785747656,0.857353541530169,0.826891108333264,0.83011289541285,0.8309637962894,0.863139849307133,0.828237458972335,0.831365610592215,0.831935605089647,0.8701661451136,0.841887327200319,0.898206783508017,0.840028254238199,0.849530889775137,0.850786332200901,0.842863681411232,0.84590819747487,0.846395465498193,0.846273648492362,0.845179113604151,0.851146328725595,0.851669050952108,0.853853575317865,0.941600000965651,0.86600618527269,0.866932539966284,0.867712532436455,0.868551615245275,0.866680724215425,0.867389808279217,0.870246144341309,0.872488849963583,0.873137934606592,0.879464237170598,1.19276121268909,1.19312484554232,0.878393338417846,0.88219602898046,0.883576924740588,0.877684254354055,0.8780951594782,0.879165149148819,0.884680550450129,0.883797831698923,0.883232382612156
0.763715354577984,0.763551719794032,0.765354429663902,0.764603527821989,0.764395348013517,0.768542580704564,0.767185321079896,0.76919075626544,0.76913439317319,0.771908002761173,0.771587096768201,0.785390599876674,0.785037876009044,0.78429242865993,0.784381518708971,0.777853399911424,0.776922499807165,0.778218850928917,0.779332476541923,0.77877430011222,0.77684704599012,0.777147952176165,0.776538867147011,0.776903409082371,0.775973418060244,0.776597048403528,0.777566129957376,0.776145234583394,0.774103436112528,0.776029781152494,0.775559785689699,0.774787974958726,0.77502615447759,0.770586197339696,0.763980806560839,0.763842626076613,0.763345358149826,0.76368444578546,0.763614446461213,0.760465385952273,0.810123088388864,0.770348926902966,0.771646187106851,0.765197158454881,0.762134460748582,0.754729986774761,0.774939791674948,0.774867974186436,0.775214334479134,0.778767027455156,0.82361932173636,0.791543267753264,0.791642357705768,0.812399430050061,0.813284876047667,0.806778575221315,0.851573597328136,0.857680811098073,0.813443965420954,0.82443749565612,0.824292951596962,0.828087460420379,0.837192827065167,0.838037364366785,0.838152817797685,0.840827337433164,0.850319063984505,1.01994469919327,0.860614419141476,0.895519536722674,0.878589700158588,0.886407806502955,0.857494449260794,0.857355359694435,0.847168185311299,0.849246347067487,1.00394485365131,0.96076345233068,0.869121609742707,0.867537988666906,0.871208862320226,0.913554817160568,0.872807937792289,0.878370611364519,0.870487051106572,0.865085285071894,0.865278919566237,0.865003467679919,0.856820819400193,0.853738121886966,0.853166309225268,0.848561808221289,1.06087157682389,0.839471895972763,0.839171898868851,0.838845538383081,0.839520077325816,0.839907346314502,0.838097363787567,0.836242836236113,0.833633770514214,0.829721990095632,0.827228377804632,0.826686564853324,0.823139326370101,0.823939318647199,0.824685675078447,0.826777473066631,0.829971987682225,0.830527436865528,0.829509264876494,0.895087722709468,0.821132073020292,0.820654804900432,0.81663029829735,0.816169393655885,0.818129374734775,0.817763923717283,0.818715732710603,0.818743005174595,0.856340824033934,0.855056290979912,0.837915547360954,0.844450938815565,0.96836337896311,0.866156183824646,0.81674302448185,0.815733034232014,0.990772253543184,0.851318145248745,0.787494215932588,0.84755999971065,0.841621875217464,0.82704110688522,0.828997451635578,1.29116026277214,0.835157392169232,0.838924628528657,0.897176793451253,0.840550067382579,0.94351816426642,0.838685539927661,0.997181282581299,0.84441093920171,0.844121851083395,0.84503366046286,0.847121822122513,0.846920005888972,0.85060815210282,0.854766293779464,0.85474447580827,0.861906224852563,0.86433074690145,0.865812550778347,0.86725435504139,0.86810252867154,0.868815249063864,0.87024341709491,0.870675231108117,0.876357903521911,1.23023357821407,0.88143694539935,1.27402406456385,0.878941514944085,0.879350601903964,0.881657852357685,0.881412400181758,0.879548781808973,0.881941485983202,0.884552369869367,0.885209636251574,0.882474208113179
0.763219904815463,0.764902615843768,0.76368171853906,0.764226258736767,0.762363549446115,0.76277718181666,0.763809899119823,0.768515308240572,0.769400754238178,0.7700034756924,0.769523480326142,0.769225301386496,0.900274036278609,0.783854251071792,0.78571877852671,0.776007054099168,0.775679784531264,0.775775238155236,0.776225233811103,0.775687966270462,0.775540694964905,0.776219779318305,0.772617995907098,0.774962518728275,0.775042517955985,0.775230697957529,0.771406189423721,0.771048920145426,0.774690703170488,0.776172507047386,0.775999781442103,0.775247970518058,0.773237989921849,0.77139709860239,0.768609852782411,0.768344400799555,0.765556245897442,0.765070796038385,0.763932625207787,0.767837132969305,0.768820759837282,0.773100718519756,0.773640713306797,0.763088087906168,0.756189063598331,0.798412292350709,0.775967963567446,0.780539737614634,0.782087904487245,0.785178783739669,1.0324082152376,0.793756882747279,0.802267709677042,0.815617580801114,0.814615772290476,0.812436702417517,0.937045499478991,0.938954571958429,0.813231240201816,0.822189335541048,0.822221153415705,0.822523877766016,0.82924108564724,0.830344711356782,0.836758285805561,0.845289112542252,0.8473909104339,0.891592301907829,0.892151387419665,0.878883333687568,0.879378783450089,1.01052660829471,1.01180841410233,0.916427516701056,0.850280882534917,0.919818393057392,0.923636538016269,0.869867057091821,0.869033428775799,0.869314335154917,0.874195197127348,0.875147006120668,0.876046997432403,1.02933551762784,0.870607049948137,0.864919832123676,0.86576891483596,0.863252575491634,0.860573510445488,0.853468124493446,0.853354489226812,0.8492027111251,0.844654573213372,0.842540957253993,0.83947098689063,0.838459178476528,0.839670984959905,0.836009202127915,0.837259190060881,0.836142837201476,0.832086512723736,0.832122876009059,0.831546517936695,0.823565685890509,0.82272387583529,0.82285114733392,0.822041155153358,0.822231153319169,0.829247449222171,0.830265621211205,0.829830170869466,0.829399265938393,0.82060662354738,0.82085571205184,0.820227536297891,0.815503945534481,0.816290301579583,0.818190283237691,0.817982103429219,0.816986658493511,0.817316655307814,0.842879135807494,0.841286423910363,0.842061870969868,1.16857962794954,0.864118021682312,0.788706022415965,0.815808488049058,0.81573485239628,0.784675152237951,0.8913523042247,0.853733576476301,0.822736602985153,0.825459303973686,0.82899199714278,0.910491210372136,0.836375562227541,0.839510986504485,0.840998244874181,0.840999153956314,0.841669147488383,0.83899644601717,0.838899174228932,0.841655511256387,0.841020062845374,0.841637329613726,0.844558210507267,0.847070004440928,0.84842271865493,0.853259944684973,0.856761729061543,0.85977624541479,0.861118050643195,0.864575289995244,0.866338909333392,0.867380717457886,0.868357980750932,0.868670705004706,0.869017974379538,1.20554290748,0.87806243252141,0.879146967506158,1.08672587268829,1.27199681140712,0.878205158416301,0.880289683747421,0.880602408001196,0.880842405684325,0.881671488589681,0.88335238145372,0.884772367745569,0.885720540410357
0.766528963779823,0.763647173418004,0.76288990800116,0.763148087326951,0.762300822778933,0.760739928756459,0.761334468471484,0.764118077962932,0.763142632834152,0.912763915704801,0.765438974302277,0.768973485635637,0.900724031934476,0.785145147700746,0.785066057555169,0.775196152836473,0.773277080453571,0.772049819573932,0.772250726725339,0.77201072904221,0.77279344875878,0.772465270108743,0.773062537070167,0.7724970879834,0.772080728366456,0.775418877959074,0.775520695157977,0.771957093196359,0.77375434857343,0.774157981040512,0.77493433718215,0.936272779665885,0.77153618816875,0.771542551743681,0.768348037128088,0.766473509769706,0.766550781751016,0.766940777986102,0.767822587655176,0.768146220894547,0.769379845349117,0.775095244719702,0.775139789744223,0.774559795343327,0.798420474089907,0.798314111480338,0.777545221068315,0.781889724582237,0.784239701896212,0.788063301347887,0.792392350465547,1.04546263466843,0.8032013370277,0.804310417230041,0.809713092346851,0.812872152759255,0.813179422520232,0.813391238657236,0.818824822566571,0.816783024095705,0.82066298663963,0.822314788875411,0.828465638587735,0.835799204155177,0.902204926729241,0.964008875545725,0.998635813994204,0.896447709580534,0.894366820577947,0.870770684732088,0.878706971753754,1.00902662277515,0.893085923852457,0.848713624937511,0.844076396976742,0.863774388636013,0.866637997355171,0.868693432058033,0.869597968780433,0.870831593235004,0.873535203498742,0.922336550565985,0.921009290651708,1.06502608217201,1.01463565953616,0.864155294049768,0.864807105939176,1.00628119473329,0.85953624773166,0.858557166274348,0.852011774916274,0.851395417230055,0.844296394852944,0.843542765764632,0.840827337433164,1.06749878557395,0.835270118353733,0.834823759026397,0.837091918948397,0.83620920019719,0.833129229930362,0.831411973781001,0.833237410704197,0.832396509731111,0.821959337761382,0.822230244237036,0.822107518149072,0.822041155153358,0.827843826408717,0.828805635305501,0.829331993860546,0.829159268255264,0.824322951307353,0.821982973896842,0.818487553095203,0.81580303355626,0.816156666506022,0.817608470672529,0.817313018979282,0.815890305441034,0.816864841487681,0.816581207862164,0.821910247326196,0.832184693594107,0.86035442165142,0.863586208634469,0.813622145519035,0.8148748606984,0.782820624686496,0.82270296694623,0.883506925416341,0.82253115042308,0.823853864926691,0.825064762327935,0.899932221396576,0.913591180445891,0.836511924547501,0.836608287253606,0.838987355195839,0.840824610186765,0.842212778603957,0.840368250955966,0.840095526316046,0.841300060142359,0.831510154651372,0.838685539927661,0.842230051164485,0.845112750608437,0.848799987740152,0.851004511912837,0.853950847106104,0.8565680945672,0.857398086554689,0.863175303510323,0.86566527947279,0.868236163745101,0.864011659072744,0.864158021296167,0.866176183631573,0.886510532783991,0.878613336294048,1.22523362648221,1.22319728250414,1.00789936093015,0.87453973925578,0.878366975035987,0.879746961713981,0.88112240298131,0.88155239883025,0.884152373730818,0.884610551125883,0.885580541761865
0.766341692860411,0.76389808008673,0.763018997664055,0.948136301502394,0.951436269645423,0.760862654844423,0.760024481117736,0.762449003166623,0.762589001815115,0.758339042843032,0.755489070355871,0.761915371954513,0.903929455535667,0.927054686836597,0.782124267772568,0.808009472429486,0.77418434442237,0.772625268564163,0.772001638220879,0.772352543924243,0.773082536877095,0.771918002664637,0.771367098891999,0.770706196181261,0.770315290864042,0.770170746804885,0.774997972931465,0.773437987991124,0.773818893404878,0.773598895528676,0.771589824014601,0.936972772908345,0.76695805054663,0.768978031046302,0.769069848341742,0.765661699424878,0.76522352183674,0.763782626655831,0.768148039058813,0.770358926806429,0.771117101305406,0.77730067797452,0.776597048403528,0.7756697846278,0.771338917345874,0.790046009480104,0.785228783256988,0.787405125883548,0.786904221628228,0.787957847820452,1.04705352840129,1.04876260281146,1.03696271672426,0.80700857300098,0.80713584449961,0.813023060393344,0.81554212698407,0.817186656562786,0.817446654052843,0.817164838591592,0.819882085087326,0.821283889736514,0.95814529578745,0.852819039850436,1.23124265938177,0.851093601961877,0.944472700506139,0.957608937328941,0.868467979689032,0.872877028034402,0.874666101672276,0.853251762945776,0.853264490095639,0.862618945244887,0.868005256883302,0.858465348978909,0.942190904352143,0.869417061435953,0.869934329169668,0.90943667509778,1.03263548577087,0.895440446577097,0.891054125285054,0.888200516469361,0.957427120902328,0.950018101517841,0.948872658030178,1.06307155558591,0.860335330926625,0.858896253909982,0.85345176101505,0.852959038498929,0.846149104240132,0.845540928293111,0.842432776480159,0.84100097212058,0.837155554697711,0.832213784222365,0.832699234081422,0.834127402112469,0.831166521605073,0.831285611364505,0.816372118971559,0.816388482449954,0.817324837047012,0.821643886261208,0.821059346449647,0.820208445573097,1.31021462428121,0.828137459937698,0.828177459551553,0.825202942812161,0.822507514287621,0.821679340464398,0.821654795246805,0.816447572788603,0.81617666631295,0.815583944762191,0.816056667471385,0.816536662837644,0.809580366355424,0.816872114144745,0.822299334479148,0.822642967525448,0.866494362378147,0.876445175406686,0.813426692860425,0.813758507838995,0.779535201857596,0.780515192397041,0.781079732401675,0.821923883558192,0.82452658570516,0.82624929634732,0.887965064196897,1.04332629165572,0.920554749585175,0.836001020388718,0.83756736890399,0.838130999826491,1.17786135652814,1.19676117407458,0.854946292041811,0.853782666911486,0.883478743870217,0.841650965845722,0.842997316484793,0.844423666351573,0.84774363430153,0.848187266382466,0.852944493184799,0.855214471271065,0.856464459204031,0.860989870062433,0.86454438120272,0.864414382457692,0.863213484959912,0.862745307661383,0.863031668533298,1.14864345677141,1.14291623933309,1.22435181681313,1.17334321832681,1.22245183515503,0.874141561281497,0.875254277812369,0.877516074159437,0.879594235915626,0.885048728714021,0.884742368035178,0.885116000791868,0.885811448623663
0.766002605224778,0.766367147160137,0.770698014442063,0.775298879117509,0.844497302004351,0.757681776460826,0.761113561513149,0.763128087520023,0.762126279009385,0.762196278333631,0.758001773371665,0.757774502838398,0.768808032687419,0.770732559563119,0.835643751110423,0.773861620265132,0.77298344692459,0.774087981716266,0.772205272618686,0.772193454550956,0.768358946113684,0.767636225817897,0.768184402344136,0.767140776055376,0.767059867745533,0.768575307661354,0.777610674981896,0.773916165193116,0.774924337278686,0.770354381395764,0.771158010001394,0.766188057979923,0.765573518457971,0.768128039251886,0.76670896204217,0.767577135479248,0.768261674325446,0.766407146773992,0.767699861567212,0.771668914160177,0.76991438564336,0.776889772850375,0.765885333629612,0.763591719407887,0.83457557960407,0.784933331563741,0.78522332876419,0.786189683071639,0.788684204444771,0.789361470633905,0.791574176545788,0.79434142255884,0.85829080520936,0.804331326119101,0.808943099780145,0.810748536896413,0.815050313550081,0.816083939935377,0.815893032687433,0.817663924682646,0.821476615148724,0.821290253311445,0.845835470904224,1.13037090589678,1.13400723442905,0.989244995559634,0.85171995955156,0.860626237209206,0.869615241340962,0.8688052491604,0.857077180561717,0.856323551473405,0.869008883558207,0.869257062980534,0.865999821697759,1.00800845078611,0.868922520755565,0.918109318647228,1.10853475306054,0.881603307429701,0.893996824149789,0.894575909468552,0.897411336641584,0.892244113797238,0.891445030602273,0.922845636560501,0.927245594084541,0.948872658030178,0.978772369386715,0.857401722883221,0.855389924122747,0.851745413851286,0.848809078561483,0.847310002124057,0.842839136193639,0.841058244294963,0.838398269973612,0.831814697165949,0.832658325385434,0.831976513785635,0.829253812797103,0.82898926989638,0.815583035680058,0.815343037996928,0.820010265668089,0.821662976986003,0.819223000540854,0.818938457833204,0.825391122813706,0.826078388906303,0.823584776615304,0.819110274356354,0.819900266729988,0.8201975365875,0.820202081998166,0.81667484332187,0.816199393366276,0.813942142429874,0.813823961752575,0.811383985307427,0.8106821739007,1.34407793373791,0.815297583890275,0.869582514384171,0.879034241321657,0.817703924296501,0.816693024964531,0.813408511217764,0.780907006796393,0.779678836834621,0.779057024655604,0.778114306483614,0.825133852570048,0.886073264277986,0.885382361856856,1.01455384214419,1.04267175251992,0.835797385990911,0.835353753909975,0.839384624087989,0.840519158590055,0.976608753910018,0.850762696065441,0.851300872688216,0.870397961057531,0.842426412905227,0.842242778314348,0.844724572537618,0.848999985809427,0.849939976735017,0.850420881183409,0.854081754933265,0.855756284222372,0.859463521161015,0.863648026219517,0.863332574719343,0.863591663127267,0.86215440427489,0.85995442551287,0.8556608305984,0.854489023728878,0.854540841410463,1.15966153222416,1.22141548152333,0.873562475962734,0.874207924277211,0.874190651716682,0.877449711163723,0.879086968085375,0.88548417905576,0.883064202417538,0.884504188516315
0.76646896435904,0.769288937135811,0.889449595320193,0.752785460092133,0.752985458161407,0.752818187048923,0.759570849133336,0.758336315596633,0.762536275051397,0.76188173591559,0.761057198420899,0.760864473008689,0.762500820848208,0.764434438545239,0.775046154284517,0.774214344132762,0.76680987015894,0.7688707593546,0.769369845445654,0.768947122253778,0.76886166853327,0.769628024771444,0.769266210082484,0.767372591999308,0.76742077335236,0.767923495771946,0.772058001313129,0.772183454647493,0.77054892497224,0.771560733386342,0.770418926227212,0.769583479746924,0.768853486794072,0.76687805131892,0.767365319342243,0.768496217515777,0.768614398193076,0.767503499826469,0.767185321079896,0.769269846411016,0.769693478685025,0.770979829903313,0.767198957311892,0.765687153724604,0.76519079487995,0.784207884021555,0.785799686836553,0.78503969417331,0.788209663571311,0.790484187068242,0.792072353554708,0.793737792022485,0.805495860331559,0.80459768718409,0.821275707997316,0.836012838456447,0.814843042823742,0.815692125536026,0.815718488917885,0.816776660520773,0.819410271460265,0.821296616886377,0.821494796791385,0.835933748310871,0.844152759875919,0.920591112870498,0.962508890026166,0.906903972275058,0.86096532484484,0.919972937020013,0.909173041279191,0.913454818125931,0.869369789165034,0.869121609742707,0.869288880855191,1.04236266459467,0.911154840329274,0.878563336776729,0.879423328474609,0.890315041510872,0.895896805807896,0.897020431324366,0.896876796347341,0.895855897111908,0.893450465787816,0.870171599606398,0.869990692261918,0.939281841526333,1.05112621635743,0.85681718307166,0.856542640267474,0.85262722352036,0.850309973163175,0.847971813916929,0.847893632853485,0.841086425841088,0.836007383963649,0.835175573811894,0.832431054852168,0.83112106749842,0.829154722844598,0.827571101768798,0.825510212573137,0.823378414971098,0.819078456481696,0.821415706645809,0.819562088176487,0.818961184886531,0.823592958354501,0.822407515252983,0.822223880662104,0.821682067710797,0.819375726339209,0.81967572344312,0.820339353400259,0.814286684558306,0.813997596439991,0.812143068888536,0.81174670907852,0.810802172742264,0.813181240684498,0.812339430629279,0.813248512762345,0.81727392844756,0.788014210912702,0.816605753079757,0.816515753948583,0.815373946789453,0.78075791732657,0.779842471618573,0.778856117504196,0.778137033536941,0.777985216820719,1.14267987797849,0.886702349114068,0.82530930542173,0.8264302036918,0.830527436865528,0.834821031779998,1.02365375429618,0.841316423620754,0.842602774839042,0.845892743078607,0.956636219446561,0.871395224157505,0.88257238898355,0.838333725142165,0.844620937174448,0.845250931092663,0.850139974804291,0.850525425628711,0.85343085212599,0.855129017550557,0.859988970633927,0.863069849982887,0.863934387091433,0.862931669498661,0.85716990693929,0.857448086072008,0.856723547611954,0.854219935417491,1.13500722477542,0.877990615032898,1.09829848824222,0.871605222130243,0.87350793103475,0.875346095107809,0.87646426613148,0.879822415531025,0.880819678630999,0.881849668687762,0.883884194501564
0.771339826428007,0.771758913291351,0.909182132100521,0.751419109646135,0.752052739892882,0.75293000415129,0.755698159246476,0.757133599934587,0.762795363459321,0.76095356305773,0.758181771634012,0.758161771827084,0.759541758505078,0.76112265233448,0.774601613121448,0.774060709252274,0.771770731359081,0.769896204000699,0.769099848052133,0.769465299069625,0.771704368363367,0.771297099567753,0.768709851817048,0.768596216550415,0.767334410549719,0.770200746515276,0.770488016469325,0.770298018303514,0.770169837722752,0.770507107194119,0.769689842356493,0.769478935301621,0.76962984293571,0.768292583117971,0.767188048326296,0.766606235761133,0.767212593543888,0.767088958373791,0.764355348399662,0.764051714967218,0.769691660520759,0.77142073473785,0.773032537359776,0.764395348013517,0.765438974302277,0.766438964648649,1.23078811831524,0.792375077905019,0.790075100108362,0.79080691122548,0.791218725431759,0.789006019519877,0.954618057111154,0.949545378808647,1.0173447242927,0.821290253311445,0.814182140113003,0.815657580414969,0.816547571823241,0.817159384098794,0.819685723346584,0.819209364308858,0.819309363343495,0.845082750898046,0.992717689307945,1.11719830578866,0.857935354095331,0.860649873344666,0.912118467390324,0.851363599355398,0.998672177279527,0.89778678756254,0.86929160810159,0.883346926960922,0.999153990810052,0.999372170521988,0.904203998339852,0.884599642140287,1.11101654728381,0.92406380661881,0.894620454493072,0.894323184635559,0.894177731494269,0.894171367919337,0.93482733907431,0.936172780631247,0.938436395142581,0.970881536471703,0.860721690833178,0.859917153145415,0.857281724041657,0.856855364521249,0.851369053848196,0.847852724157498,0.845450020079804,0.845148204811627,0.839171898868851,0.840011890759804,0.831335610881824,0.829334721106946,0.826744746109841,0.826823836255417,0.825503848998206,0.822775693516875,0.81972299571404,0.819062093003301,0.818717550874869,0.817207565451847,0.823066599799456,0.823798410916574,0.820031174557149,0.819577542572749,0.818576643144244,0.817705742460767,0.816901204773003,0.816601207669092,0.814050323203709,0.81266306386865,0.812222159034113,0.810132179210195,0.81036490423626,0.812996697011485,0.814352138471887,0.794992325366116,0.821596613990289,0.817245746901435,0.815736670560546,0.813287603294066,0.779822471811645,0.778371576727272,0.777937035467667,0.776913408985834,0.776086144244744,0.896574981079164,0.782441537437008,0.832829232826451,0.904645812256523,0.828086551338246,1.42203172664831,0.836571923968283,0.83771554929168,0.833080139495177,0.842191869714896,1.01420839093362,0.870746139514496,0.87472064660026,0.919609304166787,0.844458211472629,0.845733653705321,0.847521818261062,0.849251801560286,0.853011765262646,0.853968119666632,0.859054434201135,0.862505309978253,0.863578026895271,0.862341675194302,0.859363522126378,0.860483511314315,0.861573500791861,1.088834943237,1.0021630526705,0.964390690041612,0.868957065876622,0.86977796704278,0.872737938468043,0.874994280322313,0.875417003514188,0.878643336004439,0.880981495250684,0.881909668108545,0.882003303568251
0.770938921207325,0.771048011063293,0.772257090300271,0.758724493667452,0.757139963509518,0.754386353728462,0.755476343206008,0.767569862822183,0.766949868807432,0.756902693072788,0.759201761787312,0.759379032803259,0.762350822296252,0.76221991446909,0.773784348283822,0.772551632911384,0.772355271170642,0.770336199753103,0.770401653666683,0.768717124474112,0.773770712051826,0.771666186913778,0.770418926227212,0.770674378306603,0.772465270108743,0.771907093679041,0.771476188747967,0.77064983308901,0.768561671429358,0.764118077962932,0.769028939645754,0.768675306695991,0.767302592675062,0.769206210661702,0.766545327258218,0.76628805701456,0.765454428698539,0.765520791694253,0.763249904525854,0.763981715642972,0.769794386801795,0.772160727594166,0.773468896783648,0.777220678746811,0.772227999672013,0.773175263254667,0.793934153763227,0.883734195949608,0.789916010735076,0.791392360119175,0.789233290053143,0.788216936228376,0.788692386183969,0.939218205777018,0.809606729737283,0.857485358439464,0.813045787446671,0.815754852203207,0.815546672394735,0.816332119357704,0.817380291057129,0.820740258620941,0.850811786500627,0.84317731474714,0.999190354095374,1.01369021411778,0.84879635141162,0.850131793065094,0.925909243348934,0.903974000560187,0.903279461810524,0.869810693999571,0.878297884793874,1.05552617388147,0.88087331447685,0.880433318724446,0.882190574487662,0.888116880913119,0.88601508302147,0.886507805537592,0.938109125574678,0.894512273719237,0.89494590589671,0.96904519056291,0.986508658339105,0.933354626018743,0.93275463181092,0.980290536548935,0.862636217805415,0.860598964745214,0.858194442503255,0.848837260107608,0.847778179422586,0.847177276132629,0.841902781596581,0.843196405471934,0.84400185224183,0.845148204811627,0.828811998880433,0.829011087867574,0.827350194810463,0.825434758756093,0.822951146368557,0.822304788971947,0.822242971386898,0.819111183438487,0.817201201876915,0.817616652411726,0.817740287581823,0.824636584643261,0.824625675657664,0.820168445959242,0.816183938970014,0.817730287678359,0.817220292601709,0.81673120641412,0.812823971406203,0.812066705989359,0.811752163571318,0.809247642294722,0.808995826543862,0.814951223597577,0.816917568251399,0.818893003726551,0.819190273584063,0.817394836371258,0.813836688902438,0.811739436421455,0.815970304668744,0.7785043027187,0.776723410820024,0.776214324825507,1.00379940051002,0.904765811098087,0.905336714677653,0.899554952311354,0.88793051907584,0.82839018477069,0.830758343727327,0.83841826978054,0.839014627659831,0.843806399583221,0.846512737093358,0.997981274858397,0.883107838359925,0.877536983048498,0.908363958180762,0.84187278188619,0.848121812468885,0.848433627640527,0.850025430455525,0.852271772406331,0.852602678302767,0.858597165888203,0.863215303124178,0.862288039348451,0.86115805025705,0.860709872765448,0.861903497606164,0.861843498185381,0.862743489497117,0.863847115206659,0.865305282948096,0.867649805769273,0.870279780380233,0.872172489381276,0.873680656640032,0.875947907479899,0.877550619280494,0.878642426922306,0.881381491389233,0.881486035834536
0.772238908657609,0.772083455612855,0.772848902768897,0.75835904264996,0.756667240800324,0.755792703788315,0.754434535081514,0.753051821157121,0.762600819882845,0.756278153647372,0.756123609684751,0.755941793258137,0.75938812362459,0.765959878364523,0.771703459281234,0.771748004305754,0.771441643626911,0.770909830579067,0.770437107869873,0.768198947658265,0.771375280631197,0.771737095320157,0.770932557632394,0.771911639089706,0.773605259103608,0.774523432058004,0.771928002568101,0.770042566224122,0.769096211723601,0.765076250531183,0.768498944762177,0.767911677704216,0.768274401475309,0.76737622832784,0.766552599915282,0.76616351276233,0.765616245318225,0.76656078165448,0.764454438352166,0.768478944955249,0.770051657045453,0.772756176391324,0.772891629629151,0.776767046762411,0.777192497200686,0.775062517762912,0.938572757462541,0.784693333880612,0.790179644553665,0.787617851102685,0.788105119126008,0.789111473047312,0.79301870805523,0.842543684500393,0.838657358381536,0.807953109337236,0.840851882650757,0.81321760396982,0.81490758765519,0.817227565258774,0.817588470865601,0.820899347994227,0.965772494883872,0.967617931613996,1.00424485075522,0.955645319921519,0.848628171217003,0.851848140132322,0.836476470344311,0.836702831795444,0.995663115419079,0.859465339325281,0.870008873904579,0.89840041800236,1.00163578503332,1.04121722110701,0.899253137043176,0.943272712090492,0.944427246399486,1.02375375333081,0.890710492238756,0.945754506313762,0.903596731474964,0.953618066764782,0.968208835000489,0.873859745820246,0.873783382921069,0.866377999865114,0.863017123219169,0.861585318859591,0.859529884156729,0.84707364076946,0.847657271498888,0.84494457041382,0.844048215430617,0.844127305576194,0.845079114569513,0.84743545545842,0.84793363246734,0.827083833745474,0.827549283797604,0.825412031702766,0.822189335541048,0.821565705197764,0.821093891570703,0.820302990114936,0.817143020620399,0.816064849210583,0.815655762250703,0.816662116172007,0.825383850156641,0.81739847269979,0.817282110186758,0.815068495192743,0.815683943796828,0.814338502239891,0.812480338359904,0.81159852869083,0.811198532552281,0.810238541819764,0.809378550121883,0.80965036567967,0.798981377766009,0.820590260068985,0.822487514480693,0.814316684268697,0.815296674808142,0.811724891107326,0.812189432077323,0.810466721435163,0.813585782233712,0.891410485481216,0.819367544600011,0.860845326003275,0.868924338919832,0.904516722593627,0.939036389350405,0.828939270379062,0.835045575066865,0.841022790091773,1.20769743213537,1.46634038981394,0.837098282523328,0.837411915859236,0.856989908676943,0.879867869637679,0.904567631193079,0.839649166988711,0.841470058501242,0.845264567324659,0.846942732942299,0.846849097482593,0.856184461907046,0.858071716415291,0.860851689578207,0.859828972178508,0.859444430436221,0.859394430918902,0.859540793142326,0.861119868807461,0.862838034038955,0.865624370776803,0.865978003726565,0.866984357647869,0.868108892246472,0.868004347801169,0.871052500193339,0.873827927945589,0.874719737518127,0.876966988551065,0.879002423447,0.880118776306405
