1.01569, 0.910307, 1.14335, 1.08918, 1.12783, 0.954154, 0.940455, 0.939759, 0.936376, 0.882508, 0.88548, 0.896416, 0.915078, 0.911533, 0.916088, 0.943668, 0.916229, 0.913103, 0.911041, 0.906119, 0.917587, 0.923491, 0.912792, 0.969558, 0.969081, 0.884061, 0.884204, 0.895021, 1.0886, 1.06744, 1.06963, 0.957072, 0.980671, 1.30507, 0.975595, 0.975868, 1.17408, 0.976364, 0.946658, 1.15529, 0.937738, 0.938789, 0.896211, 0.897655, 0.898693, 0.901044, 0.900577, 0.900456, 0.902094, 0.907519, 0.905283, 0.904891, 0.90563, 0.909257, 0.907808, 0.908956, 0.907696, 0.906729, 0.9064, 0.922542, 0.92998, 0.967172, 0.985352, 1.0784, 1.07829, 1.00263, 1.01463, 0.986318, 0.986272, 0.990272, 1.0273, 1.02746, 1.09453, 1.06277, 1.04004, 1.05066, 1.08857, 1.1775, 1.11834, 1.14941, 1.22556, 1.16039, 1.16209, 1.15995, 1.20348, 1.18408, 1.22245, 1.23666, 1.23033, 1.19872, 1.20134, 1.20306, 1.24679, 1.24983, 1.24879, 1.25469, 1.33634, 1.26066, 1.27795, 1.28568, 1.30307, 1.31362, 1.32593, 1.33112, 1.33802, 1.35527, 1.38341, 1.39921, 1.40546, 1.43016, 1.42469, 1.45051, 1.45495, 1.48253, 1.50264, 1.50174, 1.46353, 1.50271, 1.47749, 1.4878, 1.46968, 1.47041, 1.48688, 1.48213, 1.47474, 1.48814, 1.49776, 1.55114, 1.55485, 1.55239, 1.5275, 1.50911, 1.52561, 1.5583, 1.49972, 1.49957, 1.56931, 1.49908, 1.51359, 1.51228, 1.51972, 1.48632, 1.48549, 1.44048, 1.47168, 1.47264, 1.47498, 1.47329, 1.47502, 1.47484, 1.47212, 1.46786, 1.45506, 1.47898, 1.43396, 1.4377, 1.41886, 1.34939, 1.3652, 1.33442, 1.30407, 1.28912, 1.28469, 1.28306, 1.25966, 1.25741, 1.22609, 1.19788, 1.1783, 1.15868, 1.20025, 1.20786, 1.10581, 1.07363, 1.06795, 1.0248, 1.02498, 0.984651, 0.981774, 0.998308, 0.969215, 0.950797, 1.01851, 0.94594, 0.940977, 0.942331, 0.96037, 0.928184, 0.920947, 0.92121, 0.93148, 0.932022, 0.960231, 0.961641, 0.92457, 0.923997, 0.923935, 0.9627, 0.953503, 0.940938, 1.10205, 0.948448, 0.951445, 0.949596, 0.951464, 1.06009, 0.958546, 0.961677, 0.964001, 0.97046, 0.970178, 0.990539, 0.98161, 1.24555, 0.990762, 0.988627, 0.990448, 0.990773, 0.992792, 0.994203, 0.995867, 0.997593, 0.999585, 1.00003, 0.999784, 1.00089, 1.00175, 1.00501, 1.00556, 1.10341, 1.16, 1.01846, 1.16915, 1.15056, 1.02613, 1.0268, 1.31927, 1.31889, 1.05259, 1.06042, 1.04892, 1.04277, 1.07457, 1.04633, 1.04961, 1.08371, 1.08472, 1.07709, 1.09559, 1.08453, 1.10568, 1.11667, 1.03984, 1.04122, 1.13813, 1.058, 1.0565, 1.06031, 1.06323, 1.06451, 1.06447, 1.06987, 1.17873, 1.0798, 1.08102, 1.08618, 1.08884, 1.09311, 1.10118, 1.0965
0.911915, 0.904073, 0.903964, 0.898954, 0.929758, 0.920276, 0.943395, 0.952333, 0.936784, 0.993166, 0.992259, 0.889521, 0.892019, 0.911007, 0.90606, 0.907262, 0.907542, 0.90767, 0.905799, 1.35379, 0.937264, 0.915205, 0.91004, 0.876436, 0.891124, 0.889369, 0.908693, 0.909211, 0.998424, 1.01534, 1.00906, 1.00455, 0.976237, 0.976373, 0.976484, 0.973214, 0.973185, 0.980477, 0.977059, 0.944506, 0.974454, 1.01486, 0.956089, 1.02214, 0.901202, 0.899496, 0.899292, 0.899017, 0.902888, 0.902682, 0.899051, 0.901762, 0.907403, 0.907048, 0.907442, 0.907651, 0.907823, 0.904098, 0.903773, 0.903268, 1.15365, 0.953249, 1.09856, 1.03382, 1.00003, 1.00376, 1.02401, 1.08423, 1.08515, 1.01212, 1.0287, 1.02974, 1.02319, 1.00311, 1.00275, 1.03734, 1.04281, 1.14243, 1.14336, 1.14287, 1.13059, 1.14301, 1.14294, 1.11429, 1.13993, 1.14245, 1.15855, 1.20914, 1.18975, 1.17589, 1.21935, 1.19837, 1.19914, 1.21228, 1.24319, 1.22213, 1.24738, 1.2349, 1.24956, 1.24871, 1.30812, 1.31882, 1.30872, 1.30961, 1.32327, 1.33533, 1.34491, 1.39183, 1.42536, 1.446, 1.42936, 1.42945, 1.51311, 1.42519, 1.45176, 1.41103, 1.41894, 1.47006, 1.44367, 1.44369, 1.46348, 1.45736, 1.46587, 1.44421, 1.45135, 1.46578, 1.46649, 1.50585, 1.47921, 1.55209, 1.50631, 1.49909, 1.56546, 1.4826, 1.45836, 1.4887, 1.57899, 1.47406, 1.4905, 1.48973, 1.50134, 1.50108, 1.44037, 1.41432, 1.41275, 1.43053, 1.40208, 1.41894, 1.46009, 1.49871, 1.49502, 1.49129, 1.48657, 1.51954, 1.43833, 1.43099, 1.38344, 1.34163, 1.31702, 1.30457, 1.2993, 1.27146, 1.28261, 1.3184, 1.30248, 1.2281, 1.20487, 1.14323, 1.14345, 1.12712, 1.11412, 1.0989, 1.08863, 1.08014, 1.0812, 1.01231, 1.01026, 0.988509, 0.988917, 0.978593, 0.979403, 0.95742, 0.960394, 0.967482, 0.988916, 0.989738, 0.988159, 0.935148, 0.928868, 0.922394, 0.930434, 0.93183, 0.933106, 0.928631, 0.932734, 0.929213, 0.925255, 0.925392, 0.951817, 0.952143, 0.956079, 0.957509, 0.955052, 0.952464, 0.951325, 0.951541, 0.959896, 0.962033, 0.9629, 0.96502, 0.968006, 0.968943, 1.18575, 1.00906, 0.985324, 0.984488, 0.986371, 0.987776, 0.990228, 0.991704, 0.992347, 0.994329, 0.993909, 0.99403, 0.99562, 0.998479, 0.999039, 1.00118, 1.00223, 1.00651, 1.00675, 1.19941, 1.17579, 1.17598, 1.25077, 1.03872, 1.0496, 1.04383, 1.03923, 1.06107, 1.05619, 1.04683, 1.05009, 1.05476, 1.05704, 1.0629, 1.0944, 1.07671, 1.07543, 1.10447, 1.02923, 1.03518, 1.35296, 1.04465, 1.04805, 1.04944, 1.05059, 1.05598, 1.06258, 1.06337, 1.06672, 1.06757, 1.07351, 1.07875, 1.08163, 1.08296, 1.0897, 1.09119, 1.09793, 1.09248
1.08873, 1.17067, 0.891443, 0.942777, 0.8874, 0.876995, 0.929015, 0.928596, 0.93216, 0.859111, 0.857055, 0.843053, 0.954048, 0.967603, 0.902274, 0.905617, 0.904976, 0.894838, 0.895006, 0.893953, 0.891852, 0.891627, 0.891032, 0.890471, 0.890484, 0.904085, 0.905768, 1.39271, 0.954872, 0.942052, 0.959977, 1.45386, 0.973116, 0.979005, 0.977008, 0.973703, 0.972246, 0.974342, 0.974094, 0.971116, 0.956597, 0.966252, 0.949188, 0.956784, 0.905255, 0.898435, 0.894904, 0.895966, 0.894942, 0.897128, 0.897072, 0.898342, 0.904618, 0.904874, 0.904279, 0.90775, 0.906074, 0.903365, 0.9031, 0.904117, 0.904454, 0.909041, 0.908631, 1.08498, 1.20579, 1.0275, 1.03289, 0.990832, 0.981084, 0.980855, 0.945673, 0.946314, 0.947293, 0.988111, 1.00447, 1.0556, 1.05209, 1.04767, 1.08149, 1.08754, 1.08889, 1.0769, 1.12249, 1.12184, 1.13289, 1.11375, 1.16064, 1.15688, 1.18198, 1.14687, 1.1458, 1.21968, 1.17553, 1.18183, 1.29125, 1.22291, 1.21347, 1.21535, 1.20188, 1.23926, 1.2381, 1.24962, 1.25684, 1.28198, 1.33395, 1.33427, 1.34416, 1.39895, 1.39664, 1.39575, 1.43169, 1.43686, 1.43159, 1.44682, 1.46133, 1.40795, 1.40485, 1.47741, 1.5074, 1.50774, 1.46438, 1.48475, 1.44027, 1.44745, 1.43062, 1.43109, 1.42831, 1.42541, 1.41573, 1.44995, 1.4153, 1.42302, 1.40948, 1.46745, 1.46712, 1.51957, 1.5193, 1.52092, 1.4809, 1.48286, 1.47922, 1.47183, 1.42022, 1.39057, 1.39109, 1.37162, 1.41196, 1.32561, 1.35377, 1.4269, 1.43034, 1.38088, 1.36092, 1.39291, 1.34745, 1.33792, 1.32359, 1.30759, 1.27936, 1.27905, 1.27391, 1.25463, 1.2503, 1.24224, 1.23237, 1.25541, 1.15597, 1.15633, 1.13994, 1.1094, 1.08357, 1.06062, 1.06093, 1.04962, 1.04893, 1.00137, 1.01548, 0.990114, 1.0262, 1.02445, 0.929398, 0.928954, 0.928628, 0.929877, 0.944424, 0.945767, 0.953761, 0.943898, 0.99591, 0.918046, 0.922047, 0.939916, 0.940662, 0.940281, 0.941827, 0.942187, 0.926123, 0.925402, 0.966857, 0.972286, 0.957081, 0.95778, 0.959647, 0.944729, 0.944421, 0.955781, 0.954021, 0.960217, 0.960569, 0.966093, 0.966283, 0.966577, 1.0681, 0.988729, 0.979132, 0.979447, 0.983719, 0.982823, 0.983657, 0.986734, 0.988405, 0.988777, 0.988728, 0.988826, 0.987048, 0.98827, 0.995392, 0.995839, 0.99796, 1.03156, 1.1826, 1.18265, 1.02151, 1.21383, 1.01459, 1.02019, 1.29187, 1.3366, 1.23463, 1.05041, 1.05076, 1.05126, 1.05657, 1.05428, 1.05439, 1.05123, 1.07815, 1.01565, 1.01574, 1.02879, 1.02915, 1.03341, 1.03688, 1.03794, 2.01243, 1.05262, 1.05296, 1.05473, 1.05649, 1.06129, 1.06597, 1.06992, 1.07003, 1.07158, 1.07888, 1.08206, 1.08411, 1.08745, 1.08735, 1.08738
0.894212, 0.89385, 0.890879, 0.881532, 0.877632, 0.868312, 0.937885, 0.862699, 0.859922, 0.847978, 0.847505, 0.843564, 0.87782, 0.914063, 0.960812, 0.904124, 0.903356, 0.897017, 0.895644, 0.89274, 0.889838, 0.890065, 0.889344, 0.888642, 0.889187, 0.887897, 1.34846, 1.34778, 1.18178, 0.934044, 0.942964, 0.959553, 0.959236, 0.957903, 0.956633, 0.973505, 0.975698, 0.976172, 1.1669, 0.963342, 0.95771, 1.13881, 0.91074, 0.914599, 0.914274, 0.89484, 0.894025, 0.890573, 0.890278, 0.890701, 0.891921, 0.893003, 0.896572, 0.902394, 0.904006, 0.898934, 0.900509, 0.90346, 0.903114, 0.902169, 0.902482, 1.0428, 1.17463, 1.14147, 1.06069, 0.972993, 0.974364, 0.949339, 0.998048, 0.942063, 0.942697, 0.945688, 0.945713, 0.971204, 1.00796, 1.00873, 1.03915, 1.04378, 1.03616, 1.0634, 1.0537, 1.06979, 1.05651, 1.09184, 1.1285, 1.07749, 1.14736, 1.14522, 1.14139, 1.1648, 1.14574, 1.18824, 1.21899, 1.19586, 1.19084, 1.25384, 1.26408, 1.20609, 1.19805, 1.21394, 1.22767, 1.22576, 1.27107, 1.28465, 1.30569, 1.30996, 1.32286, 1.34418, 1.34317, 1.36472, 1.38474, 1.38658, 1.41573, 1.39131, 1.42886, 1.4287, 1.42037, 1.39189, 1.39191, 1.44745, 1.42931, 1.42643, 1.47118, 1.47074, 1.47085, 1.42396, 1.42381, 1.40138, 1.4008, 1.39406, 1.46452, 1.43325, 1.38535, 1.39465, 1.39657, 1.45082, 1.42213, 1.47274, 1.45232, 1.45702, 1.48779, 1.44764, 1.42272, 1.39658, 1.36135, 1.33732, 1.43018, 1.32694, 1.31431, 1.43639, 1.30989, 1.31725, 1.3334, 1.34457, 1.30702, 1.28099, 1.27524, 1.27494, 1.26842, 1.25106, 1.24983, 1.22311, 1.22136, 1.22201, 1.20131, 1.22074, 1.10282, 1.0885, 1.09338, 1.08537, 1.03332, 1.03647, 1.08439, 1.04938, 1.0215, 0.976387, 0.979496, 0.987622, 0.964566, 0.933021, 0.932295, 0.933615, 0.922934, 0.921167, 0.921437, 0.98499, 1.01188, 0.932373, 0.915922, 0.915662, 0.933903, 0.934567, 0.936766, 0.972305, 0.956942, 0.924391, 0.923808, 0.924726, 0.925268, 0.938732, 0.93928, 0.94337, 0.943774, 0.943318, 0.944069, 0.951226, 0.952582, 0.954787, 0.984604, 0.966447, 0.967913, 0.966985, 0.967678, 0.969388, 0.97422, 0.975102, 0.978816, 0.980505, 0.982985, 0.983629, 0.983794, 0.983491, 0.987025, 0.98741, 0.98717, 0.987735, 0.992551, 0.992979, 0.992427, 0.992328, 1.13905, 1.12212, 0.988917, 1.03619, 1.28276, 1.01109, 1.01082, 1.14434, 1.27903, 1.04473, 1.03646, 1.0518, 1.0512, 1.04609, 1.06726, 1.06824, 1.07405, 1.01848, 1.02043, 1.03072, 1.03201, 1.03558, 1.03788, 1.04168, 1.04356, 1.05251, 1.05056, 1.05318, 1.05646, 1.05715, 1.05977, 1.06613, 1.06727, 1.07183, 1.07212, 1.07639, 1.08361, 1.08476, 1.08201, 1.08231
0.893689, 0.893399, 0.893199, 0.89073, 0.904241, 0.8945, 0.865819, 0.866211, 0.865477, 0.85869, 0.8583, 0.86437, 1.1501, 0.886776, 0.894864, 0.893938, 0.895338, 0.902536, 0.889373, 0.890508, 0.890279, 0.891427, 0.890701, 0.890355, 0.889506, 0.890009, 0.889254, 0.897457, 0.898263, 1.16455, 1.37564, 1.37026, 0.976952, 0.960279, 0.981034, 0.980597, 0.961065, 0.99073, 0.989725, 1.17971, 0.922961, 0.910947, 0.909727, 0.908866, 1.18594, 0.896735, 0.891861, 0.890557, 0.889899, 0.890364, 0.88906, 0.890955, 0.891222, 0.893774, 0.893759, 0.896758, 1.0653, 0.909849, 0.909082, 0.908469, 0.90411, 0.905667, 1.1051, 1.2113, 0.953275, 0.963321, 0.917781, 0.964395, 0.934436, 0.915433, 0.951233, 0.950873, 0.950355, 0.969826, 0.970885, 0.990972, 1.02034, 1.06657, 1.04286, 1.01304, 1.00965, 1.00513, 1.00569, 1.10773, 1.1024, 1.10151, 1.07947, 1.15875, 1.12606, 1.12672, 1.12944, 1.13597, 1.13412, 1.21494, 1.17387, 1.17443, 1.27714, 1.24757, 1.17205, 1.17688, 1.19846, 1.20547, 1.22467, 1.28483, 1.24912, 1.24731, 1.27383, 1.2676, 1.28367, 1.29222, 1.32054, 1.32921, 1.32864, 1.3738, 1.34983, 1.33052, 1.33388, 1.33017, 1.33008, 1.3771, 1.38418, 1.42978, 1.43939, 1.42614, 1.42588, 1.46454, 1.38449, 1.38506, 1.39483, 1.43976, 1.37792, 1.36142, 1.3601, 1.35392, 1.35716, 1.37416, 1.39407, 1.47073, 1.4781, 1.48495, 1.44822, 1.54142, 1.42472, 1.41882, 1.37183, 1.42819, 1.30633, 1.30284, 1.28225, 1.28388, 1.29381, 1.28922, 1.29538, 1.25998, 1.26055, 1.25413, 1.26035, 1.24723, 1.20958, 1.2102, 1.22277, 1.23768, 1.21259, 1.20297, 1.16219, 1.13179, 1.12299, 1.07641, 1.04648, 1.03965, 1.02942, 1.02925, 1.01145, 0.992112, 0.993608, 0.958559, 0.946527, 0.953288, 0.956084, 0.957561, 0.936685, 1.0214, 0.933053, 0.931654, 0.91995, 0.906928, 0.907054, 0.937527, 0.919752, 0.932105, 0.933119, 0.933864, 0.933634, 0.932313, 0.932233, 0.919996, 0.920314, 1.15049, 0.930768, 0.93538, 0.940538, 0.942253, 0.943222, 0.943991, 0.942786, 1.0692, 1.08747, 0.954928, 1.10226, 0.964026, 0.966151, 0.966185, 0.965687, 0.966628, 0.971814, 0.973049, 0.973649, 0.978784, 0.979975, 0.981159, 0.98123, 0.981597, 0.981799, 0.983386, 0.987026, 0.989037, 0.990363, 0.989676, 0.989831, 0.989339, 0.989646, 1.04234, 1.01048, 1.01029, 1.26377, 1.01766, 1.25903, 1.2394, 1.01664, 1.03027, 1.02884, 1.0391, 1.0397, 1.04228, 1.05572, 1.00695, 1.00854, 1.01093, 1.0205, 1.02919, 1.03107, 1.03545, 1.03832, 1.03915, 1.03936, 1.03965, 1.2844, 1.05316, 1.05455, 1.05419, 1.06132, 1.06378, 1.06568, 1.07227, 1.07327, 1.0735, 1.15982, 1.0783, 1.07727, 1.07799
0.902493, 0.893791, 0.879807, 0.876983, 0.877535, 0.909035, 0.929163, 0.933385, 0.859139, 0.859167, 0.859542, 0.86567, 0.861529, 1.13239, 0.936139, 0.890978, 0.886482, 0.886998, 0.884633, 0.889191, 0.88719, 0.887626, 1.28214, 0.896265, 0.895663, 0.8952, 0.893813, 0.896344, 0.916556, 0.898869, 0.904188, 1.41203, 1.43617, 1.057, 1.05755, 0.980556, 0.980255, 0.980281, 0.974897, 0.961164, 0.909775, 0.906385, 1.16271, 0.901545, 0.900667, 1.19394, 0.890241, 0.888713, 0.886518, 0.886191, 0.885906, 0.886728, 0.890361, 0.888755, 0.897357, 0.915608, 0.898055, 1.06018, 0.936056, 0.920925, 0.981166, 0.914728, 0.913604, 0.912152, 0.898206, 0.932666, 0.927842, 0.930729, 0.933362, 0.943136, 1.00085, 0.997388, 0.935223, 0.987312, 1.00361, 1.03577, 1.08903, 1.11237, 1.00862, 1.00654, 0.998709, 0.994575, 0.998701, 1.01558, 1.04926, 1.04246, 1.10419, 1.07633, 1.15427, 1.1004, 1.0958, 1.09336, 1.11585, 1.1313, 1.13279, 1.13483, 1.13444, 1.13994, 1.12553, 1.14425, 1.16528, 1.17773, 1.17799, 1.20735, 1.25658, 1.25347, 1.2331, 1.22689, 1.25707, 1.26601, 1.30768, 1.31697, 1.31483, 1.31227, 1.29959, 1.30055, 1.31424, 1.31084, 1.31048, 1.3395, 1.33987, 1.31991, 1.33364, 1.3722, 1.37314, 1.38845, 1.43121, 1.45895, 1.3688, 1.3821, 1.37837, 1.34889, 1.38046, 1.38557, 1.36787, 1.32981, 1.34302, 1.34074, 1.47761, 1.44738, 1.44866, 1.44831, 1.43461, 1.41967, 1.42046, 1.32026, 1.30573, 1.28772, 1.26602, 1.26391, 1.25113, 1.25343, 1.2438, 1.23341, 1.23736, 1.21049, 1.20641, 1.19986, 1.19135, 1.23015, 1.18487, 1.16562, 1.15845, 1.1532, 1.15233, 1.14695, 1.11549, 1.08333, 1.07611, 1.02926, 1.02424, 1.04276, 1.01592, 0.970163, 1.00515, 1.03583, 0.945694, 0.941538, 0.929598, 0.940266, 0.922384, 0.923037, 0.908162, 0.90758, 0.905951, 0.917883, 0.918693, 0.925694, 0.992476, 0.931028, 0.930882, 0.929826, 0.928612, 0.928124, 0.927859, 0.925958, 1.10153, 0.92825, 0.92732, 0.933874, 0.935584, 0.939853, 0.944656, 0.944595, 0.942548, 0.943041, 0.956254, 0.952841, 1.04738, 0.960876, 0.958824, 0.960807, 0.962536, 0.963418, 0.967816, 0.971265, 0.97256, 0.973511, 0.976553, 0.976738, 1.1301, 0.978163, 0.979396, 0.980251, 0.983318, 0.984073, 0.986531, 0.987, 0.986578, 0.987137, 0.987491, 1.10632, 1.01145, 1.00904, 1.30991, 1.22035, 0.978565, 1.01023, 1.01561, 1.01664, 1.41666, 1.03287, 1.05062, 1.05638, 1.00427, 1.00613, 1.01153, 1.01528, 1.02399, 1.02607, 1.03099, 1.03495, 1.0378, 1.04114, 1.04504, 1.04567, 1.04797, 1.05129, 1.05308, 1.05523, 1.05645, 1.06269, 1.06413, 1.06948, 1.07081, 1.08002, 1.08349, 1.14753, 1.17949, 1.08841
0.904455, 0.894033, 0.892277, 0.888719, 0.887881, 0.887323, 0.88821, 0.880587, 0.952761, 0.858734, 0.859061, 0.863273, 0.86722, 0.876842, 0.888244, 0.887315, 0.886043, 0.872425, 0.869936, 0.88771, 0.888142, 1.33388, 0.893524, 0.893703, 0.894134, 0.896015, 0.997672, 0.891238, 0.890625, 0.985051, 0.894556, 0.991424, 0.902041, 1.36538, 1.1487, 0.950295, 0.9511, 0.946095, 0.945987, 0.95266, 0.932986, 1.05045, 0.896565, 0.896025, 0.887858, 0.889499, 0.889052, 0.886286, 0.884323, 0.886108, 0.882507, 0.882439, 0.882732, 0.883401, 0.882826, 1.0488, 0.916111, 0.910092, 0.918761, 0.920929, 0.919233, 0.911129, 0.91107, 0.892959, 0.892605, 0.931673, 0.93208, 0.931993, 0.935257, 0.921516, 0.910862, 0.933315, 0.928141, 0.92653, 0.923542, 1.0231, 1.02287, 0.98104, 0.984432, 0.995338, 1.01513, 1.01203, 0.990956, 1.04, 0.99844, 0.998939, 1.05645, 1.05005, 1.0622, 1.05084, 1.04441, 1.05015, 1.08055, 1.16762, 1.08919, 1.09113, 1.16386, 1.16349, 1.20011, 1.14291, 1.1545, 1.14582, 1.16197, 1.17027, 1.18981, 1.19891, 1.26685, 1.26772, 1.23629, 1.23641, 1.24278, 1.24782, 1.27425, 1.27384, 1.29103, 1.28851, 1.28681, 1.29854, 1.30668, 1.29513, 1.29843, 1.28554, 1.28887, 1.3109, 1.30115, 1.37683, 1.36501, 1.36068, 1.34027, 1.34549, 1.34386, 1.31784, 1.29623, 1.29691, 1.32265, 1.28405, 1.2861, 1.28963, 1.33258, 1.34422, 1.45433, 1.43833, 1.4334, 1.43168, 1.43203, 1.42855, 1.36361, 1.27711, 1.41501, 1.2446, 1.24451, 1.24437, 1.24287, 1.2329, 1.20543, 1.19097, 1.21125, 1.19437, 1.17386, 1.12553, 1.13789, 1.13044, 1.12579, 1.12037, 1.13552, 1.11297, 1.15077, 1.1048, 1.10902, 1.03865, 1.03281, 1.03174, 1.00475, 1.02112, 0.977213, 0.934767, 0.93386, 0.948083, 0.932237, 0.96489, 0.936883, 0.935649, 0.966137, 1.03601, 0.922664, 0.920931, 0.918572, 0.926184, 0.927207, 0.940337, 0.941498, 0.939016, 0.928808, 0.929584, 0.967345, 0.929306, 0.931945, 0.931853, 0.932077, 0.933677, 0.935342, 0.937144, 0.942101, 0.942272, 0.977149, 0.955662, 0.998464, 0.960433, 1.24607, 0.969038, 0.969686, 0.957396, 0.959116, 0.960118, 0.963788, 0.966454, 0.967089, 0.970945, 0.973202, 0.973446, 0.976427, 1.17011, 0.97563, 0.976755, 0.977587, 0.980875, 0.982411, 0.983584, 0.983946, 0.984182, 1.04619, 1.14652, 1.14577, 1.01275, 1.01188, 1.00768, 1.23663, 1.01114, 1.01295, 1.27508, 1.01639, 1.02479, 1.03198, 1.03024, 1.00407, 1.00776, 1.00839, 1.01859, 1.02286, 1.02714, 1.02867, 1.03229, 1.03624, 1.04126, 1.043, 1.04609, 1.05051, 1.05246, 1.05292, 1.05301, 1.05994, 1.06202, 1.0708, 1.07233, 1.07902, 1.08039, 1.34446, 1.08589, 1.08973, 1.0924
0.899907, 0.891469, 0.894955, 0.954646, 1.00492, 0.936864, 0.935565, 0.877108, 0.919874, 0.91504, 0.873071, 0.943178, 0.942572, 0.919025, 0.918525, 0.916703, 0.916384, 0.870621, 0.870661, 1.29234, 1.28114, 0.898836, 0.889434, 0.891001, 0.89127, 0.890013, 0.887082, 0.887491, 0.887161, 1.00785, 0.890688, 0.885742, 0.885623, 0.884761, 0.897494, 1.04268, 0.950211, 0.949889, 0.952491, 0.952412, 0.949747, 1.14961, 0.897235, 0.894062, 0.890258, 0.88959, 0.885262, 0.885044, 0.88343, 0.883053, 0.882745, 0.883449, 0.883484, 0.883425, 0.892259, 0.892008, 0.900673, 0.900978, 0.900382, 0.90021, 0.942548, 0.916645, 0.948259, 0.895378, 0.887755, 0.883873, 0.883897, 0.87339, 0.915675, 0.908888, 0.914509, 0.924381, 0.924031, 0.918534, 0.918031, 0.946871, 0.946295, 0.962766, 0.96224, 0.964069, 0.985562, 0.975354, 1.031, 1.02993, 1.023, 1.0143, 1.02822, 1.0276, 1.02656, 1.01403, 1.01222, 1.04989, 1.05082, 1.04006, 1.12559, 1.07191, 1.11695, 1.19851, 1.20804, 1.19642, 1.15097, 1.14817, 1.16393, 1.1519, 1.17475, 1.17781, 1.22502, 1.23519, 1.21675, 1.22189, 1.2213, 1.22389, 1.22583, 1.22917, 1.24641, 1.2549, 1.27871, 1.24621, 1.26431, 1.26363, 1.2833, 1.26461, 1.27485, 1.2836, 1.26404, 1.27547, 1.31672, 1.3383, 1.32644, 1.32648, 1.40622, 1.31653, 1.28265, 1.23956, 1.24062, 1.25274, 1.24421, 1.24434, 1.29254, 1.28505, 1.33622, 1.37937, 1.41011, 1.41278, 1.38575, 1.38646, 1.44686, 1.40968, 1.26554, 1.31686, 1.23614, 1.22853, 1.26458, 1.21154, 1.22218, 1.20695, 1.16896, 1.15009, 1.14115, 1.13011, 1.10128, 1.0915, 1.08715, 1.0739, 1.06319, 1.06838, 1.09879, 1.05375, 1.04375, 1.03806, 1.01506, 1.01603, 0.962873, 1.05354, 0.947779, 0.949404, 0.933165, 0.929844, 0.927922, 0.925872, 0.933424, 0.956484, 0.959098, 0.959507, 0.946831, 0.947103, 0.948974, 0.933565, 0.934121, 0.936008, 1.02521, 1.02595, 0.925373, 0.942365, 0.943281, 0.931997, 0.931717, 0.932116, 0.932067, 0.934301, 0.934543, 0.938388, 0.989831, 1.07743, 0.952601, 0.954279, 0.955753, 0.931467, 0.93208, 1.17205, 1.17361, 1.17408, 0.959556, 0.957919, 0.960397, 0.962484, 0.964256, 0.967217, 0.970562, 0.971341, 0.968285, 0.970867, 0.973237, 0.975664, 0.976754, 0.97954, 0.980078, 0.981088, 0.982327, 0.985275, 0.976605, 0.974149, 0.973118, 0.97243, 0.972148, 0.975465, 0.974686, 0.976644, 1.3231, 1.01727, 1.02565, 1.3506, 1.02787, 1.02957, 1.00114, 1.00586, 1.01513, 1.01682, 1.02381, 1.02409, 1.02506, 1.02884, 1.03259, 1.03107, 1.11574, 1.04648, 1.05055, 1.05283, 1.0498, 1.05268, 1.05991, 1.12937, 1.06827, 1.07393, 1.07799, 1.07872, 1.08276, 1.08539, 1.08642, 1.08812
0.896098, 0.892031, 0.914651, 0.931993, 0.880154, 0.873674, 0.871837, 0.910317, 0.908848, 0.931935, 0.950339, 0.943828, 0.899181, 0.899322, 0.896705, 0.888241, 0.884513, 0.876891, 0.87769, 0.880538, 0.883814, 0.884793, 0.889654, 0.89009, 0.888243, 0.886967, 0.886906, 0.886867, 0.885041, 1.36851, 0.879822, 0.888007, 0.885145, 0.885648, 1.03702, 1.3753, 0.950184, 0.95703, 0.94907, 0.947177, 0.945052, 1.07574, 1.10108, 0.896978, 0.887509, 0.889143, 0.890544, 0.885219, 0.883588, 0.8825, 0.884588, 0.886169, 0.884269, 0.884636, 0.893807, 0.893987, 0.897002, 0.894111, 0.893575, 0.949666, 0.990246, 1.16507, 0.894007, 0.891242, 0.890238, 0.887896, 0.887697, 1.01711, 1.01925, 1.10539, 0.918434, 0.953187, 0.997925, 0.951977, 0.95374, 0.929014, 0.925085, 0.924813, 0.937803, 0.921762, 0.947087, 1.00336, 0.980374, 0.980354, 0.985228, 1.00389, 1.03785, 0.974039, 1.035, 1.03515, 1.01144, 1.00801, 1.01909, 1.01881, 1.08438, 1.07834, 1.19184, 1.18582, 1.15135, 1.18702, 1.18817, 1.15058, 1.12172, 1.1477, 1.15645, 1.16323, 1.18703, 1.18624, 1.19133, 1.18542, 1.18195, 1.18575, 1.18594, 1.18895, 1.18916, 1.21352, 1.23776, 1.2376, 1.24127, 1.24372, 1.29165, 1.23335, 1.23215, 1.22211, 1.23056, 1.23979, 1.23489, 1.262, 1.28864, 1.34238, 1.34309, 1.31897, 1.32071, 1.26861, 1.2117, 1.2118, 1.23467, 1.23682, 1.24756, 1.29733, 1.28556, 1.28636, 1.35555, 1.37109, 1.37172, 1.3888, 1.32938, 1.32832, 1.27698, 1.27385, 1.22282, 1.28372, 1.30868, 1.20304, 1.18918, 1.17038, 1.16379, 1.16492, 1.10192, 1.09627, 1.08928, 1.08236, 1.06149, 1.05307, 1.06078, 1.01485, 1.02353, 1.00311, 1.04289, 1.00483, 1.00255, 0.964221, 0.968318, 1.00281, 0.970871, 0.979295, 0.992851, 0.99695, 1.02518, 1.01839, 0.928449, 0.95549, 0.955456, 0.95597, 0.949398, 0.946462, 0.942384, 0.928873, 0.92832, 0.929373, 0.924392, 0.92278, 0.924097, 0.92925, 0.931362, 0.92817, 0.928228, 0.928341, 0.932404, 0.932271, 0.931764, 0.932366, 0.939757, 1.01303, 1.21807, 0.92551, 0.925205, 0.92678, 0.928302, 0.959754, 1.00655, 1.28837, 0.95741, 0.957322, 0.958112, 0.959335, 0.961607, 0.964213, 0.964784, 0.965925, 0.967461, 0.969483, 0.968946, 0.967311, 0.967929, 0.979979, 0.980173, 0.980459, 0.981057, 1.03545, 0.972977, 0.972995, 0.972462, 0.971234, 0.974227, 1.15812, 0.975843, 0.977861, 0.979897, 1.06593, 1.18736, 1.02137, 0.994936, 0.995775, 1.00066, 1.00641, 1.00985, 1.00796, 1.11092, 1.01815, 1.0154, 1.01974, 1.02481, 1.03605, 1.03866, 1.04509, 1.04587, 1.04486, 1.0523, 1.05393, 1.06281, 1.06372, 1.06728, 1.07028, 1.07208, 1.12866, 1.07758, 1.08236, 1.08382, 1.08461
0.966283, 0.904327, 0.884134, 0.931919, 0.932531, 0.888512, 0.885156, 0.894981, 0.892292, 0.892585, 0.925985, 0.90034, 0.900126, 0.90139, 0.896294, 0.889268, 0.885711, 0.884418, 0.88209, 0.883334, 0.886473, 0.886085, 0.886557, 0.885241, 0.886695, 0.884458, 0.883891, 0.887315, 0.878635, 0.878875, 0.877474, 0.877281, 0.875654, 0.881361, 0.882838, 0.884483, 1.44446, 0.92437, 0.92482, 0.924302, 0.923798, 0.937234, 0.915494, 1.19547, 1.08667, 0.888796, 0.88905, 0.885016, 0.883531, 0.882978, 0.883524, 0.886611, 0.886377, 0.884582, 0.887249, 0.890352, 0.889828, 0.888277, 0.888088, 0.888165, 0.888274, 0.891959, 0.889637, 0.888831, 0.88787, 0.887705, 0.887912, 0.888192, 0.950709, 1.10497, 0.996888, 0.998598, 0.964342, 0.949933, 0.947604, 0.949914, 0.935057, 0.908494, 0.909024, 0.910919, 0.931041, 0.930376, 0.985818, 0.981858, 1.00206, 0.978643, 1.00035, 1.00316, 0.96488, 1.00181, 0.978736, 0.99143, 0.99194, 1.02493, 1.02468, 1.17117, 1.16455, 1.1615, 1.19288, 1.20104, 1.13302, 1.10656, 1.10503, 1.10721, 1.12783, 1.13983, 1.1832, 1.18498, 1.20596, 1.15166, 1.14821, 1.15281, 1.17061, 1.15282, 1.15152, 1.20455, 1.17077, 1.18142, 1.23312, 1.26494, 1.22891, 1.19767, 1.22757, 1.18262, 1.19832, 1.20155, 1.20667, 1.21527, 1.21438, 1.26584, 1.26161, 1.31551, 1.23884, 1.23718, 1.2048, 1.18873, 1.20355, 1.20248, 1.215, 1.23964, 1.27681, 1.31729, 1.33065, 1.36583, 1.38301, 1.38771, 1.38598, 1.28202, 1.27545, 1.25755, 1.33244, 1.23815, 1.16385, 1.16453, 1.1789, 1.13435, 1.11084, 1.11455, 1.10335, 1.09437, 1.05103, 1.05983, 1.0391, 1.02587, 1.02941, 1.01111, 0.992953, 1.05728, 0.977637, 0.942283, 0.976612, 0.935738, 0.935621, 0.971199, 0.972915, 0.946239, 0.949045, 0.943457, 0.94251, 0.926029, 0.919917, 0.938612, 0.938363, 0.947927, 0.949149, 0.943541, 0.943349, 0.937707, 0.928984, 0.925598, 0.918663, 0.919065, 0.92368, 0.925758, 0.932352, 0.926747, 0.927778, 0.929557, 0.929469, 0.930942, 0.926764, 0.928878, 0.930187, 0.930643, 0.924102, 0.923245, 0.923866, 0.923066, 0.92548, 0.927996, 1.04613, 1.17672, 1.41541, 0.956742, 0.957692, 0.958876, 0.959291, 0.959604, 0.96038, 0.962881, 0.963597, 0.966484, 0.964748, 1.00456, 1.17432, 1.08207, 1.08079, 0.977674, 0.96864, 0.979452, 0.980139, 1.05219, 0.976529, 0.991859, 1.21506, 1.20827, 0.974829, 0.976325, 1.32692, 1.32678, 1.00829, 1.01162, 0.997633, 0.998236, 1.00142, 1.0042, 1.00768, 1.00955, 1.00901, 1.01014, 1.01347, 1.0171, 1.01786, 1.02467, 1.02628, 1.03919, 1.04061, 1.16293, 1.0519, 1.09856, 1.09858, 1.10766, 1.06726, 1.06716, 1.12155, 1.12272, 1.07393, 1.07407, 1.07712, 1.08115
0.927937, 0.927156, 0.924843, 0.957683, 0.957121, 0.965166, 0.964035, 0.987818, 0.887291, 0.909512, 0.883222, 0.94925, 0.951793, 1.17196, 1.20238, 0.934115, 0.927855, 0.880608, 0.881217, 0.881186, 0.879993, 0.881557, 0.88083, 0.880965, 0.880147, 0.879958, 0.884152, 0.883014, 0.880652, 0.880195, 0.877185, 0.876535, 0.872321, 0.870476, 0.868891, 1.0705, 0.921515, 1.09646, 0.949083, 0.921944, 0.921446, 0.919688, 1.1112, 1.11982, 0.894813, 0.893354, 0.888701, 0.887457, 0.883125, 0.881053, 0.87849, 0.876519, 0.87733, 0.880268, 0.880176, 0.880956, 0.883312, 0.882249, 0.881741, 0.884494, 0.883079, 0.883054, 0.884059, 0.885524, 0.884006, 0.88363, 0.879854, 0.88161, 0.881895, 0.881924, 1.03766, 1.0047, 0.966274, 0.944685, 0.94481, 0.946448, 0.936799, 0.923155, 0.932478, 0.885684, 0.925828, 0.961902, 0.939513, 0.936183, 0.949551, 0.949553, 0.955735, 0.956451, 0.955483, 0.992617, 0.995294, 1.00246, 1.0088, 1.00616, 1.00763, 1.00772, 1.08766, 1.08499, 1.05634, 1.09632, 1.0853, 1.07606, 1.08081, 1.08409, 1.08539, 1.09231, 1.10874, 1.14056, 1.14166, 1.11924, 1.11155, 1.12375, 1.11946, 1.11946, 1.13448, 1.14216, 1.16477, 1.21997, 1.20305, 1.24383, 1.18957, 1.19431, 1.19595, 1.15649, 1.15668, 1.16019, 1.15493, 1.17159, 1.16362, 1.16521, 1.22632, 1.25104, 1.17832, 1.17798, 1.16803, 1.20245, 1.18851, 1.27987, 1.23721, 1.23283, 1.21685, 1.30705, 1.31697, 1.32233, 1.43698, 1.3938, 1.39406, 1.30726, 1.30908, 1.31052, 1.31179, 1.13732, 1.13575, 1.1362, 1.11849, 1.12404, 1.07691, 1.07815, 1.116, 1.05806, 1.07889, 1.01844, 1.0333, 1.03974, 1.02166, 1.00857, 0.964988, 0.964883, 0.963173, 0.935612, 0.918293, 0.911428, 0.937137, 0.963408, 0.927266, 0.927408, 0.924861, 0.925163, 0.916654, 0.916464, 0.911677, 0.977653, 0.974941, 0.974594, 0.976646, 0.940549, 0.994898, 0.929121, 0.921566, 0.919434, 0.917756, 0.921702, 0.925858, 0.927963, 0.930356, 0.928252, 0.928233, 0.928656, 0.929457, 0.930253, 0.928888, 0.929541, 0.930031, 0.931503, 0.929871, 0.921895, 0.921453, 0.922133, 0.924581, 1.03161, 1.07876, 1.20043, 1.19896, 0.952816, 0.956351, 0.95642, 0.955129, 0.956265, 0.959665, 0.960454, 0.961337, 0.964324, 0.965007, 0.964636, 0.964908, 0.974921, 0.973199, 0.974371, 0.974209, 0.973491, 0.976062, 1.11154, 0.982656, 0.982321, 0.984327, 0.988203, 1.27552, 0.979732, 0.980119, 0.980188, 1.38809, 0.983856, 0.993738, 0.994732, 1.00084, 1.00205, 1.0073, 1.00892, 1.00921, 1.0142, 1.01482, 1.01829, 1.02037, 1.02372, 1.09133, 1.09175, 1.03673, 1.04123, 1.04408, 1.09838, 1.05295, 1.05502, 1.07157, 1.06539, 1.06438, 1.06545, 1.0682, 1.08201, 1.07259, 1.07164
0.929028, 0.92956, 0.935641, 1.06673, 0.920852, 0.960017, 0.887453, 0.887583, 0.875717, 0.875736, 0.939295, 0.939579, 0.94304, 0.9453, 0.913912, 1.13116, 0.912, 0.940739, 1.04456, 0.880127, 0.879512, 0.880192, 0.880735, 0.881527, 0.880405, 0.880353, 0.878504, 0.879006, 0.880482, 0.879176, 0.878301, 0.970016, 0.873896, 0.867551, 0.863946, 0.864633, 0.866527, 1.3884, 1.12666, 0.975138, 0.925474, 0.924968, 0.938919, 0.895466, 0.894599, 0.887756, 0.888006, 0.885373, 0.881819, 0.873352, 0.873107, 0.876523, 0.87646, 0.876573, 0.874712, 0.875384, 0.875328, 0.881135, 0.881916, 0.884445, 0.882296, 0.881377, 0.880886, 0.881725, 0.885242, 0.884294, 0.883432, 0.884521, 0.88044, 0.881307, 0.88491, 0.969274, 0.99489, 0.913852, 1.0099, 0.926202, 0.933702, 0.932677, 0.904064, 0.90416, 0.875709, 0.880049, 0.901323, 0.898396, 0.927233, 0.931821, 0.928377, 0.930818, 0.973543, 0.975021, 1.01961, 1.06311, 1.0634, 1.02689, 1.02881, 1.01786, 1.01187, 1.01394, 1.02286, 1.02476, 1.04278, 1.03123, 1.03982, 1.01833, 1.05412, 1.06081, 1.07912, 1.08416, 1.0943, 1.13182, 1.09172, 1.09137, 1.09789, 1.09098, 1.11703, 1.11572, 1.14774, 1.2254, 1.21701, 1.18894, 1.24016, 1.20523, 1.14097, 1.1428, 1.13292, 1.13443, 1.13236, 1.14672, 1.15356, 1.15172, 1.14824, 1.18824, 1.1545, 1.1324, 1.14779, 1.19172, 1.19405, 1.1816, 1.18168, 1.1804, 1.20145, 1.19951, 1.28976, 1.28899, 1.28972, 1.2889, 1.30638, 1.30513, 1.22596, 1.15713, 1.14023, 1.13003, 1.12209, 1.13489, 1.10696, 1.09047, 1.07976, 1.07816, 1.04278, 1.02975, 1.04593, 1.0431, 1.00492, 1.01598, 0.97758, 0.963774, 0.969847, 0.977509, 0.936735, 0.934056, 0.968953, 0.967763, 0.929908, 0.962105, 0.968025, 0.912108, 0.922076, 0.922808, 0.92426, 0.942283, 0.914873, 0.914999, 0.984919, 0.98235, 0.969479, 0.969808, 0.925809, 0.926062, 0.917584, 0.915402, 0.91684, 0.920004, 0.935471, 0.93488, 0.935201, 0.926361, 0.92614, 0.928534, 0.928627, 0.928138, 0.929346, 0.929811, 0.929778, 0.932382, 0.931948, 0.931877, 0.941078, 1.10311, 0.925339, 1.06759, 1.02328, 0.952177, 1.10045, 1.00552, 0.950983, 0.949549, 0.95715, 0.955559, 0.9562, 0.95741, 0.959434, 0.962333, 0.963011, 0.961769, 0.960528, 1.17756, 0.963832, 1.17192, 0.970523, 0.972848, 0.973859, 0.978504, 0.979438, 0.981638, 0.983777, 0.98639, 0.987281, 0.995061, 0.980094, 1.01629, 0.997065, 0.986773, 0.986531, 0.996018, 0.99746, 1.00049, 1.00185, 1.00932, 1.15942, 1.015, 1.01562, 1.02202, 1.02124, 1.02202, 1.0608, 1.05863, 1.07418, 1.08593, 1.1185, 1.03017, 1.08186, 1.04349, 1.04721, 1.08878, 1.05688, 1.11133, 1.06093, 1.06104, 1.06151, 1.06143
1.11866, 1.06022, 1.04344, 1.0746, 1.00275, 1.01819, 0.884565, 0.88333, 0.88082, 0.880745, 0.878484, 0.878912, 0.876677, 0.939557, 1.02653, 1.18135, 0.929727, 0.917284, 0.917034, 0.898578, 0.880499, 0.882313, 0.883551, 0.882166, 0.881766, 0.880675, 0.880673, 0.879637, 0.876574, 0.875683, 0.875312, 0.871078, 0.870554, 0.864497, 0.863647, 0.863629, 0.868073, 0.880392, 0.895081, 0.923793, 0.925973, 0.900881, 0.89749, 0.89755, 1.14496, 0.887177, 0.885495, 0.884663, 0.882689, 0.878791, 0.878229, 0.876779, 0.877604, 0.876048, 0.874605, 0.874662, 0.87988, 0.880304, 0.880352, 0.883603, 0.883038, 0.88188, 0.880823, 0.88099, 0.885813, 0.885668, 0.881433, 0.882473, 0.880797, 0.879918, 0.880069, 0.879782, 0.883583, 0.881398, 0.960883, 0.924103, 0.907684, 0.908003, 0.898751, 0.870037, 0.876142, 0.87727, 0.900796, 0.877023, 0.878005, 0.880893, 0.878501, 0.878859, 0.968216, 0.966302, 0.950443, 0.969924, 0.960023, 0.998393, 1.01585, 0.970656, 1.04495, 1.04678, 1.01293, 0.984914, 1.00432, 1.03068, 1.02191, 1.01508, 1.0222, 1.03322, 1.05679, 1.07404, 1.13869, 1.08412, 1.07398, 1.07429, 1.06612, 1.07325, 1.07355, 1.13862, 1.11035, 1.16202, 1.21223, 1.23639, 1.17916, 1.1834, 1.17418, 1.10507, 1.10525, 1.1061, 1.12335, 1.11023, 1.14305, 1.11769, 1.1197, 1.11816, 1.11943, 1.12604, 1.11265, 1.09621, 1.18237, 1.10754, 1.18576, 1.22056, 1.15673, 1.15682, 1.17453, 1.16088, 1.19623, 1.25498, 1.13771, 1.14507, 1.16598, 1.1464, 1.13281, 1.14117, 1.10182, 1.0859, 1.07802, 1.04539, 1.04581, 1.10846, 1.00541, 1.11183, 0.990891, 0.986238, 0.971097, 0.971501, 1.00912, 0.997929, 1.00258, 0.950801, 0.924667, 0.925367, 0.961163, 0.959313, 0.958552, 0.913692, 1.00872, 0.982356, 0.981509, 0.962191, 0.916768, 0.916871, 0.916033, 1.09042, 1.05017, 0.983497, 0.984748, 1.02284, 0.924672, 0.920357, 0.916608, 0.915961, 0.917006, 0.918652, 0.925542, 0.934437, 0.93496, 0.92299, 0.923992, 0.925484, 0.927452, 0.928136, 0.929662, 0.931271, 0.928261, 0.928597, 0.931912, 0.931758, 0.932258, 0.932589, 0.942222, 1.07815, 1.09689, 0.94906, 0.942898, 0.944607, 0.946078, 0.946632, 0.94247, 0.942392, 0.952943, 0.953536, 0.954961, 0.960321, 0.971517, 0.974003, 1.09412, 1.08773, 1.00369, 1.16758, 0.968564, 0.970139, 0.970546, 0.976364, 0.978008, 0.980515, 0.980508, 0.98239, 0.983529, 0.984184, 0.991601, 0.989181, 0.990583, 0.988865, 0.987108, 0.989337, 0.992287, 0.998971, 1.00163, 1.01008, 1.01114, 1.01284, 1.03469, 1.03593, 1.05568, 1.05499, 1.05737, 1.01316, 1.01394, 1.01609, 1.01794, 1.12252, 1.0943, 1.03865, 1.0376, 1.04233, 1.11531, 1.0481, 1.04959, 1.05151, 1.05493, 1.06089
1.05904, 1.01493, 1.10132, 1.06926, 1.03295, 1.03911, 1.05952, 0.904514, 0.925658, 0.925349, 0.984686, 0.956697, 0.987715, 1.14605, 0.922119, 0.922541, 0.92257, 0.918841, 0.913027, 0.907672, 0.888915, 0.888438, 0.887285, 0.886945, 0.883224, 0.882338, 0.882877, 0.88047, 0.87563, 0.875257, 0.874154, 0.873468, 0.869932, 0.869229, 0.860984, 0.858933, 0.859294, 0.864861, 0.908208, 0.905952, 0.894392, 0.894029, 0.894416, 0.887147, 0.884847, 0.878339, 0.878258, 0.878468, 0.879063, 0.880813, 0.880083, 0.878655, 0.877401, 0.875973, 0.87652, 0.877749, 0.878575, 0.87951, 0.887048, 0.886003, 0.882865, 0.882017, 0.88043, 0.88133, 0.883953, 0.883429, 0.883654, 0.882809, 0.881137, 0.878238, 0.876937, 0.876812, 0.877401, 0.877471, 0.878208, 0.889586, 0.89018, 0.892932, 0.928613, 0.894037, 0.870851, 0.855528, 0.896378, 0.855579, 0.852684, 0.854046, 0.901099, 0.900587, 0.901304, 0.876344, 0.876626, 0.92881, 0.92982, 0.93692, 0.998675, 0.996155, 1.09421, 0.997888, 0.969984, 1.00483, 1.00438, 0.998255, 1.00599, 1.00859, 1.01027, 1.01401, 1.05271, 1.05033, 1.06263, 1.08015, 1.05398, 1.06664, 1.05977, 1.04403, 1.05025, 1.06653, 1.11292, 1.10584, 1.10603, 1.17232, 1.12416, 1.11186, 1.09867, 1.1221, 1.12538, 1.10832, 1.08106, 1.07782, 1.0779, 1.07445, 1.07341, 1.08847, 1.10177, 1.10183, 1.07834, 1.08439, 1.07924, 1.19421, 1.09224, 1.11763, 1.22295, 1.23094, 1.11866, 1.11904, 1.27059, 1.10879, 1.11161, 1.23311, 1.23337, 1.21582, 1.19484, 1.11689, 1.11047, 1.08027, 1.0589, 1.05695, 1.0097, 0.980642, 0.980253, 0.977128, 0.984838, 0.999081, 0.97527, 0.954173, 0.974573, 0.975461, 1.0085, 0.931473, 0.953473, 0.954029, 0.92914, 0.92887, 0.892975, 0.886104, 0.88766, 0.978975, 0.979053, 0.98034, 0.918172, 0.917271, 0.928664, 1.10701, 1.08509, 1.10667, 1.06861, 1.06673, 0.928125, 0.92126, 0.916355, 0.917646, 0.91787, 0.915991, 0.915427, 1.02579, 0.923098, 0.924307, 0.925548, 0.927131, 0.926955, 0.927118, 0.928655, 0.929343, 0.929321, 0.929902, 0.931948, 0.932037, 0.933724, 0.93521, 0.931099, 0.931762, 1.01047, 1.01664, 0.943182, 0.945309, 0.945493, 0.946533, 0.944091, 0.942375, 0.94403, 0.953135, 0.95333, 0.951734, 0.957131, 0.958437, 0.961146, 1.08879, 1.1982, 0.960599, 0.963853, 0.967813, 0.969719, 0.97295, 0.974795, 0.97743, 0.979346, 0.981721, 0.981419, 0.982541, 0.983642, 0.985227, 0.988282, 0.992404, 0.99149, 0.989852, 0.994093, 0.995316, 1.00242, 1.00401, 1.00622, 1.02509, 1.234, 1.06352, 1.03577, 1.20133, 0.995446, 1.00102, 1.00185, 1.08115, 1.08254, 1.08518, 1.08391, 1.10886, 1.03502, 1.03964, 1.03969, 1.04059, 1.04951, 1.05009, 1.05281, 1.05331
1.08455, 1.08765, 1.09309, 1.06578, 1.0612, 1.04973, 1.10179, 1.02336, 0.972028, 0.980441, 1.15689, 0.978841, 0.982857, 1.17068, 1.08264, 0.956861, 0.946806, 0.921845, 1.18831, 0.901114, 0.90094, 0.901482, 0.888102, 0.886033, 0.885797, 0.888811, 0.88786, 0.88627, 0.876726, 0.871936, 0.871881, 0.871277, 0.866639, 0.861819, 0.861586, 0.859623, 0.859632, 0.869669, 0.870402, 0.892085, 0.891638, 0.893793, 0.892124, 0.886922, 0.884723, 0.88128, 0.881386, 0.881363, 0.880686, 0.881217, 0.88288, 0.882348, 0.874431, 0.874298, 0.872643, 0.873201, 0.877971, 0.878142, 0.884061, 0.883411, 0.88144, 0.879082, 0.879739, 0.87869, 0.878221, 0.880142, 0.878078, 0.877309, 0.879985, 0.879696, 0.879027, 0.877405, 0.87676, 0.877864, 0.878333, 0.877503, 0.995101, 0.895293, 0.898686, 0.896308, 0.857635, 0.838989, 0.859048, 0.858211, 0.94884, 0.859917, 0.859304, 0.841858, 0.863162, 0.900727, 0.899176, 0.881323, 0.898661, 0.895437, 0.90768, 0.941528, 0.979274, 0.998895, 0.992533, 0.958104, 0.95836, 0.97501, 1.00366, 1.00977, 1.07436, 0.993237, 1.03356, 1.02656, 1.03258, 1.02177, 1.02033, 1.02708, 1.09441, 1.01124, 1.03019, 1.02558, 1.04056, 1.07134, 1.11073, 1.10904, 1.08762, 1.04062, 1.05444, 1.0588, 1.06017, 1.06003, 1.0569, 1.05375, 1.0512, 1.05669, 1.05689, 1.05744, 1.08032, 1.04967, 1.04931, 1.04475, 1.08066, 1.07788, 1.09214, 1.08603, 1.09892, 1.12078, 1.1216, 1.12468, 1.26303, 1.26301, 1.0935, 1.10921, 1.11096, 1.10869, 1.13209, 1.11525, 1.18083, 1.05472, 1.12275, 1.12102, 0.992902, 0.989079, 0.971086, 0.962306, 0.960048, 0.960871, 0.96547, 0.941891, 0.925708, 0.92199, 0.92241, 0.908461, 0.908456, 0.941691, 0.894681, 0.895484, 0.913987, 0.895129, 0.895945, 0.907076, 0.915808, 0.918136, 0.92908, 0.921855, 0.922373, 0.92784, 0.943667, 0.94683, 0.935289, 0.927569, 0.927231, 0.926907, 0.919002, 0.919771, 0.91652, 0.915412, 0.915963, 1.02772, 0.921738, 0.921618, 0.923469, 0.924668, 0.92843, 0.928092, 0.928321, 0.928652, 0.929371, 0.92922, 0.930352, 0.930757, 0.932544, 0.933822, 0.931914, 0.9318, 0.931625, 0.967897, 0.940318, 0.942969, 0.943693, 0.944638, 0.946051, 0.946993, 0.948821, 0.949027, 0.949274, 0.950894, 0.952163, 0.952715, 0.952577, 1.15783, 1.01352, 0.967841, 0.961091, 0.964848, 0.965456, 0.969501, 0.971014, 0.973647, 0.975225, 0.976682, 0.978441, 0.979883, 0.983237, 0.984175, 0.98632, 0.9877, 0.988059, 0.987251, 0.990604, 0.993505, 0.994694, 1.02558, 0.99418, 0.998358, 0.99909, 1.03712, 0.9975, 0.994439, 0.992845, 0.995808, 0.99909, 1.00416, 1.09118, 1.09374, 1.08135, 1.14132, 1.02787, 1.03087, 1.03623, 1.0422, 1.04255, 1.04274, 1.04431, 1.04613
1.0127, 1.09854, 1.09284, 1.03372, 1.06077, 1.06226, 1.05512, 1.02433, 1.05116, 1.04761, 1.0391, 1.06528, 1.07825, 0.950862, 1.0945, 0.942788, 0.926816, 0.926537, 0.895904, 0.896037, 0.899101, 0.898649, 0.897868, 0.891138, 0.889223, 0.888661, 0.885398, 0.883865, 0.883415, 0.933241, 0.870138, 0.87098, 0.862926, 0.86258, 0.86314, 0.864224, 0.863009, 0.870583, 0.875817, 0.952431, 0.900721, 0.901175, 0.890066, 0.88863, 0.882775, 0.881034, 0.880774, 0.880596, 0.882259, 0.879488, 0.878358, 0.880286, 0.872608, 0.871388, 0.870249, 0.871721, 0.876673, 0.878317, 0.879044, 1.03979, 0.878951, 0.880022, 0.879005, 0.876202, 0.875704, 0.874466, 0.87345, 0.872808, 1.11841, 0.870501, 0.876831, 0.876533, 0.876092, 0.876519, 0.87303, 0.873231, 0.869784, 0.871402, 0.873355, 0.876748, 0.847043, 0.85937, 0.830067, 0.830042, 0.842585, 0.855616, 0.858372, 0.84373, 0.842151, 0.835494, 0.836776, 0.845309, 0.84908, 0.856251, 0.873182, 0.87146, 0.987841, 0.987812, 0.929254, 0.92879, 0.928381, 0.929817, 0.937632, 0.930913, 0.935454, 0.936484, 0.938819, 0.981224, 0.952441, 0.965243, 0.974266, 0.981673, 0.987215, 0.994245, 0.993668, 1.01118, 1.01211, 1.03564, 1.0461, 1.03631, 1.01677, 1.01523, 1.03057, 1.02837, 1.04828, 1.03982, 1.02257, 1.01905, 1.03804, 1.02408, 1.02186, 1.0296, 1.04668, 1.01352, 1.0401, 1.08484, 1.03686, 1.15133, 1.1101, 1.06078, 1.08027, 1.05622, 1.15363, 1.07353, 1.06678, 1.06848, 1.23037, 1.08832, 1.19468, 1.17161, 1.13052, 1.20078, 1.06845, 1.06978, 1.07715, 1.0784, 1.09458, 0.987824, 0.966169, 0.966655, 0.958369, 0.956968, 0.949667, 0.949241, 0.932351, 0.928966, 0.973026, 0.920709, 0.907858, 0.922796, 0.924564, 0.915708, 0.921882, 0.918269, 0.928819, 0.929901, 0.925415, 0.921788, 0.921416, 0.916369, 0.916877, 0.924612, 0.94313, 0.945216, 0.944983, 1.14078, 0.920605, 0.919388, 0.916316, 0.91666, 0.912558, 0.911908, 0.912319, 0.918795, 0.91852, 0.920049, 0.921416, 0.924214, 0.924794, 0.92738, 0.927442, 0.928835, 0.929943, 0.928035, 0.92775, 0.927299, 0.928709, 0.930506, 0.92948, 0.931867, 0.931817, 0.933712, 1.15066, 0.938911, 0.939925, 0.942481, 0.941868, 0.942176, 0.946346, 0.94821, 0.951801, 0.951336, 0.956577, 0.949348, 0.949803, 0.964641, 1.19295, 1.19347, 1.22753, 0.960774, 0.96183, 0.965849, 0.963183, 0.968618, 0.97018, 0.973021, 0.973637, 0.974717, 0.977755, 0.979412, 0.982399, 0.984697, 0.98756, 0.986872, 0.987272, 0.991075, 0.992183, 0.9939, 0.994471, 0.997477, 0.992835, 0.987455, 0.989284, 0.989673, 0.989105, 0.992355, 0.998969, 1.00083, 1.00491, 1.08443, 1.01506, 1.01578, 1.10616, 1.11878, 1.11944, 1.03618, 1.03533, 1.03625, 1.04134, 1.04693
0.99947, 1.08808, 1.092, 1.0252, 1.02515, 1.02561, 1.0184, 1.01811, 1.05379, 1.04061, 1.09916, 1.04248, 1.03228, 1.07533, 0.989183, 0.960986, 0.945858, 1.07789, 0.90148, 0.900879, 0.90194, 0.901533, 0.900582, 0.897891, 0.896984, 0.892798, 0.883481, 0.884229, 0.878738, 0.877894, 0.876716, 0.862002, 0.862854, 0.86293, 0.864034, 0.864264, 0.86455, 0.871642, 0.872961, 0.964104, 0.900748, 0.893641, 0.888539, 0.887642, 0.879124, 0.879809, 0.879976, 0.879619, 0.87773, 0.876313, 0.875859, 0.875217, 0.874042, 0.873374, 0.872675, 0.871997, 0.872395, 0.8729, 0.872991, 0.872731, 0.874879, 0.88042, 0.880744, 0.872727, 0.873373, 0.873516, 0.87143, 0.868805, 0.869503, 0.871763, 0.871374, 0.873628, 0.873338, 0.873194, 0.872952, 0.873651, 0.873204, 0.871879, 0.872808, 0.870962, 0.870301, 0.86343, 0.832901, 0.876323, 0.875748, 0.83921, 0.836954, 0.832602, 0.82263, 0.843641, 0.812499, 0.825563, 0.854403, 0.832116, 0.862186, 0.861243, 0.952539, 0.91228, 0.905349, 0.906429, 0.921073, 0.919421, 0.922264, 0.912092, 0.891226, 0.898279, 0.906097, 0.92026, 0.92758, 0.92912, 0.931467, 0.917969, 0.926481, 0.944239, 0.95289, 0.967319, 0.979484, 0.978937, 0.96343, 0.994024, 1.01262, 0.983336, 0.984891, 0.987106, 0.981912, 1.00234, 1.00116, 1.06298, 1.05634, 1.02936, 1.01219, 1.02274, 1.02172, 1.03709, 0.984822, 1.03192, 1.03313, 1.00438, 1.03203, 1.07382, 1.04913, 1.02998, 1.09823, 1.05996, 1.18722, 1.18756, 1.22333, 1.09416, 1.09395, 1.10243, 1.10187, 1.15074, 1.14785, 1.10204, 1.157, 0.991455, 0.981509, 0.981069, 0.971947, 0.937582, 0.933576, 0.934637, 0.928217, 0.965181, 0.933725, 0.934452, 0.938495, 0.932248, 0.978013, 1.02113, 0.918454, 0.926005, 0.926594, 0.923567, 0.928179, 0.93909, 0.939396, 0.925925, 0.929272, 0.922629, 0.92465, 0.923582, 0.993842, 0.942148, 0.942063, 0.987777, 0.986689, 1.00183, 0.917418, 1.01212, 0.909643, 0.910684, 0.913383, 0.918737, 0.91849, 0.916056, 0.916426, 0.924634, 0.925871, 0.926656, 0.92762, 0.927054, 0.926408, 0.924416, 0.925024, 0.925054, 0.928024, 0.928654, 0.93318, 0.932948, 0.932163, 0.932579, 0.93662, 0.937497, 0.942399, 0.942269, 0.941925, 0.942911, 0.944648, 0.945873, 0.948252, 0.949285, 0.949635, 0.964449, 0.966792, 1.17274, 1.17259, 1.2209, 1.19151, 1.24752, 0.983485, 0.960176, 0.962863, 0.964017, 0.967799, 0.96992, 0.970698, 0.973562, 0.975533, 0.976783, 0.981722, 0.981463, 0.982668, 0.986972, 0.991092, 0.992913, 0.991368, 0.992025, 0.992093, 1.00593, 1.1265, 0.986188, 0.98641, 0.98777, 0.989575, 0.990555, 0.992009, 0.997843, 0.998676, 1.01152, 1.01312, 1.01556, 1.01869, 1.01837, 1.02284, 1.02398, 1.02676, 1.02748, 1.12138, 1.12155
0.99512, 0.995607, 1.09825, 1.03648, 1.058, 1.06104, 1.0192, 1.06063, 1.05067, 1.05023, 1.09448, 1.09841, 1.0986, 1.02049, 1.01333, 1.04263, 1.08382, 0.936384, 1.0851, 0.90236, 0.901752, 0.904351, 0.900658, 0.899895, 0.898694, 0.896046, 0.893, 0.891516, 0.875922, 0.87409, 0.870541, 0.86807, 0.867787, 0.86934, 0.868909, 0.869621, 0.869227, 0.876779, 0.87836, 0.890796, 0.890054, 0.890174, 0.890181, 0.889525, 0.887484, 0.881358, 0.879927, 0.876504, 0.876698, 0.87651, 0.874789, 0.87359, 0.874442, 0.874794, 0.874073, 0.873959, 0.871726, 0.868381, 0.867198, 0.867473, 0.874872, 0.876201, 0.877138, 0.876897, 0.876795, 0.865041, 0.866347, 0.861729, 0.861821, 1.14256, 1.14636, 0.976321, 0.870986, 0.873058, 0.87394, 0.873398, 0.875229, 0.880551, 0.871494, 0.870503, 0.866802, 0.866577, 0.839048, 0.835884, 0.831756, 0.838774, 0.843267, 0.864088, 0.880404, 0.880532, 0.83361, 0.819369, 0.821079, 0.878251, 0.837453, 0.837754, 0.837874, 0.86762, 0.854303, 0.931919, 0.891446, 0.890734, 0.895495, 0.91313, 0.864139, 0.876604, 0.873836, 0.879723, 0.880332, 0.888314, 0.909418, 0.907202, 0.897719, 0.897405, 0.936858, 0.937627, 0.940983, 0.952773, 0.943492, 0.94674, 0.964049, 0.967153, 0.966283, 0.932172, 0.967277, 0.981132, 0.982688, 0.992429, 1.04228, 0.981974, 1.02007, 1.01945, 0.97394, 0.968552, 1.06691, 1.07789, 0.994969, 1.00881, 1.00906, 1.02412, 1.02222, 1.02155, 1.02321, 1.05294, 1.04446, 1.09761, 1.15647, 1.0793, 1.2128, 1.10803, 1.19559, 1.1591, 1.1201, 1.15368, 1.09553, 1.08423, 0.997959, 0.981958, 0.963383, 1.04054, 0.94474, 0.943484, 0.942046, 0.934879, 0.926557, 0.930448, 0.942129, 0.94285, 0.967514, 0.967797, 0.93306, 0.935426, 0.927969, 0.92911, 0.912912, 0.943548, 0.928021, 0.928782, 0.916021, 0.91981, 0.921821, 0.993547, 0.997784, 0.94152, 0.942337, 0.943038, 0.925453, 0.916166, 0.915002, 0.910879, 0.909525, 0.909941, 0.909898, 0.912446, 0.915045, 0.915467, 0.92086, 0.923447, 0.924458, 0.925367, 0.926578, 0.926764, 0.924647, 0.923825, 0.924397, 0.92535, 0.925013, 0.926177, 0.930673, 0.933994, 0.934528, 0.935233, 0.934855, 0.933952, 0.93416, 0.935675, 0.936631, 0.935939, 0.94361, 0.943308, 0.942785, 0.944427, 0.946014, 0.94599, 0.946198, 0.946575, 0.947008, 1.23618, 1.23606, 1.22295, 1.2511, 0.954138, 0.955469, 0.963379, 0.964978, 0.967512, 0.970096, 0.970476, 0.974615, 0.975312, 0.975243, 0.978242, 0.980205, 0.982082, 0.983835, 0.989807, 0.990689, 0.99051, 0.990491, 1.2634, 0.983531, 0.98341, 0.983797, 0.985034, 0.98407, 0.988028, 0.988091, 0.998879, 1.00437, 1.00722, 1.00962, 1.09213, 1.01573, 1.01632, 1.0203, 1.02088, 1.02274, 1.13606, 1.03267, 1.11764
0.999968, 0.995991, 1.03106, 1.03451, 1.06115, 1.06093, 1.06052, 1.04734, 1.03123, 1.03065, 1.03607, 1.03728, 1.0187, 1.09118, 1.09096, 1.00923, 1.02267, 0.93907, 0.94431, 0.900442, 0.900555, 0.90071, 0.896413, 0.900525, 0.898625, 0.888234, 0.886695, 0.886737, 0.888968, 0.888682, 0.880704, 0.864587, 0.863939, 0.870049, 0.86974, 0.86954, 0.869895, 0.872689, 0.871111, 0.871501, 0.897272, 0.897498, 0.892177, 0.888295, 0.887639, 0.876786, 0.875538, 0.87476, 0.873233, 0.872974, 0.87304, 0.874233, 0.87636, 0.876366, 0.878595, 0.879049, 0.87851, 0.878443, 0.867237, 0.868973, 0.871244, 0.871091, 0.868928, 0.872746, 0.873172, 0.863052, 0.862291, 0.859969, 0.860602, 0.859973, 0.85983, 0.869838, 0.871052, 0.873857, 0.874423, 0.874667, 0.873314, 0.873211, 0.877529, 0.868494, 0.869597, 0.867265, 0.862495, 0.861905, 0.862336, 0.862737, 0.864239, 0.852213, 0.851713, 0.825762, 0.876862, 0.876989, 0.844777, 0.875961, 0.874926, 0.841215, 0.835205, 0.873937, 0.798424, 0.799173, 0.860805, 0.807649, 0.866672, 0.860373, 0.864792, 0.884397, 0.845837, 0.911946, 0.871271, 0.866083, 0.868158, 0.860875, 0.872512, 0.895528, 0.906409, 0.905142, 0.869037, 0.869091, 0.869672, 0.891024, 0.888402, 0.890619, 0.90788, 0.907771, 0.922434, 0.924989, 0.952753, 0.947869, 0.967887, 0.937103, 0.93762, 0.954454, 0.95065, 0.950836, 0.939344, 0.944675, 0.944514, 0.974728, 1.06369, 1.03228, 1.02082, 1.01987, 1.0425, 1.0159, 1.05672, 1.09934, 1.11364, 1.16804, 1.17662, 1.18077, 1.18074, 1.14814, 1.07408, 0.992738, 0.993956, 0.984196, 0.987059, 0.973131, 0.980999, 0.936697, 0.939072, 0.919476, 0.924952, 0.919466, 0.926149, 0.928273, 0.938744, 0.938833, 1.0128, 0.96641, 1.02839, 0.925407, 0.922282, 0.911186, 0.908704, 0.910267, 0.905301, 0.909787, 0.914274, 0.915065, 0.920828, 0.923188, 1.00555, 0.942985, 0.943912, 0.943876, 1.01161, 0.914374, 0.914339, 0.910158, 0.909893, 0.910176, 0.911032, 0.910938, 0.952504, 0.912657, 0.913964, 0.914822, 0.93193, 0.928699, 0.923731, 0.92695, 0.92696, 0.925677, 0.924919, 0.923856, 0.923338, 0.925262, 0.929221, 0.928302, 0.943964, 0.931848, 0.932756, 0.93159, 0.926603, 0.930069, 0.929636, 0.936021, 0.935585, 0.936728, 0.936219, 0.938909, 0.941217, 0.944299, 0.946191, 0.943929, 0.943923, 1.20855, 1.25568, 1.0018, 1.2539, 1.00378, 0.994664, 0.959933, 0.962943, 0.965064, 0.966823, 0.972834, 0.972754, 0.975188, 0.975849, 0.97736, 0.980238, 0.980806, 0.981762, 0.983899, 0.988458, 0.987551, 0.985774, 0.98377, 0.98077, 0.981723, 0.983257, 0.983444, 0.98388, 1.04619, 1.00193, 0.995073, 1.00064, 1.00444, 1.00386, 1.00477, 1.00888, 1.01029, 1.0176, 1.01905, 1.02193, 1.02363, 1.02843, 1.03014
1.00451, 1.00517, 1.00474, 1.00587, 1.03232, 1.03437, 1.05144, 1.04628, 1.05708, 1.03388, 1.04047, 1.01978, 1.01476, 1.08734, 1.06819, 1.10146, 1.02017, 1.05575, 1.06089, 0.900951, 0.90205, 0.901761, 0.895121, 0.895235, 0.893603, 0.890069, 0.885499, 0.885032, 0.889064, 0.888903, 0.892157, 0.891186, 0.878395, 0.871917, 0.871743, 0.868612, 0.867607, 0.869004, 0.867899, 0.873922, 0.897508, 0.898617, 0.898338, 1.01968, 0.887512, 0.869379, 0.868946, 0.869535, 0.870344, 0.868586, 0.869501, 0.867732, 0.870845, 0.871572, 0.878497, 0.878154, 0.877848, 0.877088, 0.876956, 0.88432, 0.88479, 0.918425, 0.870187, 0.872657, 0.87292, 0.872643, 0.856847, 0.85701, 0.856245, 0.857173, 0.860622, 1.0561, 0.867983, 0.866979, 0.871691, 0.871777, 0.872895, 0.872962, 0.882324, 0.880987, 0.866284, 0.865062, 0.862637, 0.862633, 0.860914, 0.858322, 0.852237, 0.849551, 0.851122, 0.853413, 0.855962, 0.860394, 0.860254, 0.860311, 0.856917, 0.907631, 0.881728, 0.89236, 0.805245, 0.805082, 0.828058, 0.822744, 0.823278, 0.828583, 0.789885, 0.822519, 0.799774, 0.808091, 0.815663, 0.867281, 0.817308, 0.871527, 0.884818, 0.892565, 0.919398, 0.865174, 0.852239, 0.865232, 0.922086, 0.866988, 0.8841, 0.915684, 0.901402, 0.925111, 0.972687, 0.909409, 0.922457, 0.946213, 0.944857, 0.940149, 0.946371, 0.936439, 0.94099, 0.943932, 0.937594, 0.941677, 0.945154, 0.956095, 1.01241, 1.01036, 1.01094, 1.00593, 1.01206, 1.01019, 1.12235, 1.12197, 1.19524, 1.16453, 1.16683, 1.14495, 1.11579, 1.12729, 1.06514, 0.990714, 0.991132, 0.988452, 0.989023, 0.980975, 1.1011, 0.922804, 0.926049, 0.932439, 0.932333, 0.935326, 0.940354, 0.93427, 0.9353, 0.936446, 0.939535, 0.942981, 1.03278, 1.04354, 1.01507, 0.910028, 0.910066, 0.911362, 0.911735, 0.91092, 0.910174, 0.913271, 1.05936, 0.921179, 0.921125, 0.96567, 0.967648, 1.00184, 1.15419, 1.15483, 0.9137, 0.909725, 0.90831, 0.908521, 0.907949, 0.907527, 0.907983, 0.911091, 0.911916, 0.912358, 0.913695, 0.917529, 0.918493, 0.920751, 0.920435, 0.923352, 0.924971, 0.92152, 0.922082, 0.921648, 0.921937, 0.924697, 0.927394, 0.92847, 0.923289, 0.923908, 0.92453, 0.92328, 0.925116, 0.925594, 0.931676, 0.930406, 0.932472, 0.932928, 0.938736, 0.940949, 0.939878, 0.941129, 0.942384, 0.943736, 1.26936, 1.26792, 0.994884, 0.953596, 0.955412, 0.956478, 0.95972, 0.963019, 0.965015, 0.969585, 0.970086, 0.969622, 0.97312, 0.974832, 0.976787, 0.978158, 0.979334, 0.982379, 0.986467, 0.987081, 1.45379, 0.997994, 0.97898, 1.20793, 1.01835, 1.01982, 1.01653, 1.03631, 1.02179, 1.02558, 1.0004, 1.00147, 1.00432, 1.00183, 1.00174, 1.00468, 1.01102, 1.01098, 1.01159, 1.01874, 1.02556, 1.02823
1.00226, 1.00626, 1.00359, 0.998546, 0.998741, 1.0303, 1.02639, 1.0676, 1.03975, 1.02882, 1.01143, 1.01149, 1.07266, 1.06261, 1.02918, 1.09454, 0.998603, 1.00108, 1.15715, 1.15299, 0.901716, 0.904145, 0.89871, 0.89212, 0.890409, 0.890247, 0.8868, 0.886525, 0.891344, 0.89134, 0.891539, 0.00437131, 1.30118, 1.10621, 0.864844, 0.863475, 0.863089, 0.864322, 0.865322, 0.865267, 1.00236, 0.932568, 0.996434, 1.00207, 0.872382, 0.86459, 0.865042, 0.864003, 1.1532, 0.861585, 0.859812, 0.860348, 0.943489, 1.08121, 0.967994, 0.95931, 0.95933, 0.886389, 0.884927, 0.884862, 0.886705, 0.880838, 0.873158, 0.87293, 0.873059, 0.871943, 0.856293, 0.85574, 0.855642, 0.856562, 0.858333, 0.858183, 0.858123, 0.858246, 0.859377, 0.859826, 0.870831, 0.870868, 0.87035, 0.869961, 0.863722, 0.862277, 0.862797, 1.00976, 0.855948, 0.854223, 0.852987, 0.848596, 0.848731, 0.8609, 0.861501, 0.859268, 0.856127, 0.855049, 0.846267, 0.835789, 0.877394, 0.820692, 0.811983, 0.814243, 0.795421, 0.82212, 0.7738, 0.829337, 0.821933, 0.81383, 0.778058, 0.794233, 0.79752, 0.83254, 0.832693, 0.807325, 0.829166, 0.883514, 0.833657, 0.881298, 0.880992, 0.809095, 0.816207, 0.820058, 0.871219, 0.876904, 0.85294, 0.852521, 0.88723, 0.888016, 0.897808, 0.884661, 0.885218, 0.909633, 0.953724, 0.899051, 0.949156, 0.956138, 0.946271, 0.945158, 0.944391, 1.03249, 0.957793, 0.961116, 0.961841, 1.0341, 0.995311, 1.04295, 1.12756, 1.17365, 1.17342, 1.18828, 1.10524, 1.10874, 1.09438, 1.10663, 1.03778, 1.03018, 1.02311, 1.02515, 1.02151, 1.12756, 1.04269, 1.02645, 1.03153, 0.986976, 0.927448, 1.04314, 0.939999, 0.980158, 0.935457, 0.937007, 0.939015, 0.940944, 0.935834, 0.939152, 0.916497, 0.915638, 0.913957, 0.914387, 0.913249, 0.909466, 0.910022, 0.910191, 0.910129, 0.910224, 1.09605, 0.926269, 0.925988, 0.98616, 0.935889, 1.02598, 0.912714, 0.911984, 0.911156, 0.908134, 0.906676, 0.905684, 0.905111, 0.907773, 0.908414, 0.9097, 0.9728, 0.916713, 0.996271, 1.12674, 0.922674, 0.923061, 0.925671, 0.922377, 0.921897, 0.918568, 0.918825, 0.920999, 0.922791, 0.9236, 0.924626, 0.924233, 0.923965, 0.925546, 0.926119, 0.92541, 0.928915, 0.929347, 0.932157, 0.933884, 0.936225, 0.93726, 0.940201, 0.942008, 0.944103, 0.944196, 0.944604, 1.1301, 1.00509, 1.00957, 0.954249, 0.956219, 0.959201, 0.959749, 0.963119, 0.965185, 0.966072, 0.966723, 0.9664, 0.964106, 1.20164, 0.975779, 0.976962, 0.980176, 0.981039, 0.981795, 0.982783, 1.04854, 0.976501, 0.9755, 1.00585, 1.01324, 1.01569, 1.02292, 0.988374, 0.993176, 0.998116, 0.999786, 1.0041, 1.00427, 1.05381, 1.00833, 1.08831, 1.01583, 1.01827, 1.01831, 1.01981, 1.02228
1.00229, 1.00447, 1.06748, 1.0185, 1.0256, 1.0245, 1.01938, 1.0266, 1.03965, 1.0031, 1.00391, 1.04021, 1.0429, 1.03076, 1.07698, 1.08934, 1.1307, 1.03698, 1.1445, 1.15665, 0.904304, 0.903642, 0.90069, 0.899231, 0.897484, 0.895667, 0.891386, 0.891582, 0.891411, 0.893016, 0.890916, 0.946909, 0.888413, 0.939358, 1.37421, 0.971332, 0.887487, 0.859469, 1.39616, 0.861754, 0.861544, 0.88787, 0.887356, 0.887246, 0.870679, 0.865051, 0.864874, 0.860721, 0.862244, 0.862315, 0.858999, 0.858321, 0.856203, 0.855012, 0.857213, 1.22279, 0.963692, 0.885078, 0.884267, 0.884441, 1.0337, 0.878165, 0.880183, 1.13332, 0.874187, 0.869019, 0.950008, 0.855465, 0.854824, 0.855874, 0.85753, 0.85819, 0.858069, 0.85843, 0.859484, 0.860262, 0.864328, 0.864836, 0.862811, 0.863101, 0.86461, 0.863711, 0.862715, 0.862945, 0.860924, 0.854097, 0.85625, 0.856116, 0.855237, 0.853984, 0.867388, 0.867433, 0.844996, 0.845771, 0.845775, 0.823363, 0.87949, 0.882319, 0.810482, 0.810179, 0.796046, 0.794072, 0.812059, 0.797244, 0.797049, 0.80403, 0.773709, 0.775128, 0.808102, 0.811353, 0.809915, 0.806967, 0.830638, 0.806886, 0.80346, 0.811414, 0.830376, 0.839812, 0.821268, 0.820298, 0.897536, 0.851951, 0.85295, 0.853797, 0.883741, 0.864919, 0.857656, 0.858619, 0.857275, 0.880435, 0.879943, 0.895747, 0.896522, 1.02899, 0.935398, 0.935995, 1.04799, 0.957466, 0.957872, 0.95719, 1.00669, 1.08032, 1.12002, 1.04289, 1.09462, 1.1853, 1.162, 1.09565, 1.09801, 1.07123, 1.07363, 1.08226, 1.02123, 1.02211, 1.02995, 1.02058, 1.02797, 1.03234, 1.01948, 1.19574, 1.04591, 0.93664, 0.929737, 0.927881, 0.926361, 0.928093, 0.928366, 0.929631, 0.942617, 0.961461, 0.926673, 0.926877, 0.914487, 0.914872, 0.913638, 0.90973, 0.909966, 0.90968, 0.909661, 0.909987, 0.907662, 0.908602, 0.907995, 0.925387, 0.925589, 0.922937, 0.920455, 0.920369, 0.91439, 0.910088, 0.909094, 0.908934, 0.907879, 0.902395, 0.90371, 0.905974, 0.906996, 0.90675, 0.907247, 0.906147, 0.986157, 0.948657, 0.984051, 0.918996, 0.921553, 0.921652, 0.921355, 0.920952, 0.920624, 0.919652, 0.920083, 0.918417, 0.920132, 0.919083, 0.924704, 0.925848, 0.926659, 0.926119, 0.927216, 0.929036, 0.932522, 0.932133, 0.932823, 0.93689, 0.938097, 0.940676, 0.941125, 0.941889, 0.943643, 1.0194, 1.16785, 0.952325, 0.952768, 0.953701, 0.956061, 0.958333, 0.960869, 0.961802, 0.962824, 0.963536, 0.966466, 0.966697, 0.968356, 0.973625, 0.975733, 0.97667, 0.977234, 0.981317, 0.97999, 0.980044, 0.999458, 1.00804, 1.00783, 1.0182, 1.01409, 0.981512, 0.983007, 0.9984, 1.00194, 1.03408, 1.03522, 1.03234, 1.00818, 1.00901, 1.01289, 1.0164, 1.01942, 1.02178, 1.02206, 1.02328
1.0099, 1.00846, 0.994123, 1.01227, 1.01136, 1.02446, 1.0262, 1.03205, 0.9994, 1.04624, 1.03413, 1.03344, 1.02894, 1.07311, 1.06488, 1.0853, 1.12004, 1.12337, 1.01894, 1.00826, 1.02, 0.943682, 0.903678, 0.90084, 0.898436, 0.897914, 0.895573, 0.904481, 0.885743, 0.880094, 0.877259, 0.877585, 0.875088, 0.871542, 0.970518, 0.856184, 0.850498, 0.84099, 0.841799, 1.02279, 1.0234, 0.891477, 0.890556, 0.890262, 1.02042, 0.867746, 0.866851, 0.861232, 0.860053, 0.857579, 0.856994, 0.85739, 0.856148, 0.855556, 0.852819, 0.852672, 0.855778, 0.863675, 1.04015, 0.901932, 1.01168, 0.924643, 0.904048, 0.871096, 0.871835, 0.870008, 0.859605, 0.856874, 0.855731, 0.85575, 0.856333, 0.857889, 0.859322, 0.858747, 0.858418, 0.857707, 0.861264, 0.862474, 0.860557, 0.862708, 0.864712, 0.864506, 0.86384, 0.860643, 0.858236, 0.856727, 0.8576, 0.858632, 0.85738, 0.857056, 0.861151, 0.862718, 0.862298, 0.853516, 0.852495, 0.850929, 0.851809, 0.85027, 0.846731, 0.931056, 0.785595, 0.784122, 0.812425, 0.798503, 0.800276, 0.811629, 0.811614, 0.801311, 0.802997, 0.807731, 0.786303, 0.827012, 0.834415, 0.83206, 0.821444, 0.832682, 0.848818, 0.820973, 0.817604, 0.848021, 0.854095, 0.881666, 0.863094, 0.838892, 0.86084, 0.856963, 0.878531, 0.866134, 0.870493, 0.87032, 1.00201, 0.940316, 0.904868, 0.974003, 0.973054, 0.925294, 0.924614, 0.92669, 1.04633, 1.04342, 1.04396, 0.987621, 0.988624, 1.0506, 1.06002, 1.05721, 1.05754, 1.11533, 1.0466, 1.042, 1.07211, 1.14363, 1.16583, 1.01907, 1.14128, 1.04377, 1.01162, 1.08614, 1.03217, 1.03135, 1.11845, 1.11822, 1.29547, 0.928204, 0.92594, 0.928278, 0.925897, 0.925249, 0.929536, 0.930187, 0.92529, 0.925313, 0.946032, 0.912355, 0.911446, 0.910678, 0.909468, 0.908561, 0.90862, 0.910962, 0.914609, 0.913881, 0.914958, 1.11671, 1.0696, 0.9188, 0.922461, 0.941041, 0.914342, 0.912195, 0.910122, 0.908069, 0.908669, 0.907705, 0.903506, 0.902811, 0.900929, 0.901295, 0.902049, 0.903793, 1.02015, 0.920397, 0.919271, 0.916675, 0.91677, 0.917098, 0.995228, 0.895876, 0.897526, 1.15341, 1.38588, 0.932321, 0.918904, 0.918478, 0.919033, 0.91919, 0.921026, 0.921729, 0.92306, 0.929572, 0.928749, 0.931239, 0.93243, 0.932905, 0.933627, 0.938269, 0.941776, 0.942486, 0.943879, 0.944951, 1.02553, 1.01602, 0.952683, 0.953429, 0.955183, 0.956745, 0.958124, 0.960188, 0.96117, 0.962653, 0.965027, 0.966971, 0.967914, 0.969739, 0.971792, 0.972497, 0.974309, 0.978522, 0.980293, 0.98014, 1.31507, 0.967435, 0.969092, 0.970162, 0.976274, 0.977299, 0.977538, 1.02486, 0.992734, 0.99472, 0.999643, 1.00087, 1.00237, 1.00591, 1.00727, 1.04848, 1.05041, 1.0472, 1.02305, 1.02376
1.00278, 0.990364, 0.996538, 1.04448, 1.0148, 1.0098, 1.02318, 1.01575, 1.01682, 1.02297, 1.00478, 1.05806, 1.06561, 1.00438, 1.02388, 1.09051, 1.09509, 1.06152, 1.13222, 1.12332, 1.12506, 1.01136, 0.902497, 0.902515, 0.899148, 0.892785, 0.892641, 0.885786, 0.885257, 0.876561, 0.875782, 0.876189, 0.876172, 0.867381, 0.91558, 0.843575, 0.838263, 0.838427, 0.842195, 0.843306, 1.02934, 0.918679, 0.891298, 0.957318, 0.875812, 0.863569, 0.859584, 0.859285, 0.858474, 0.856046, 0.855839, 0.855201, 0.855404, 0.853881, 0.945806, 0.849916, 0.848915, 0.850517, 0.851285, 0.85257, 0.85246, 0.851497, 0.943824, 0.861191, 0.867505, 0.874018, 0.856821, 0.855489, 0.85568, 0.854758, 0.854647, 0.859907, 0.860726, 0.860743, 0.856279, 0.856752, 0.856617, 0.856861, 0.861189, 0.862659, 0.862531, 0.863518, 0.861321, 0.859546, 0.858053, 0.857544, 0.856924, 0.856354, 0.857197, 0.858284, 0.859568, 0.864103, 0.863352, 0.863396, 0.848104, 0.849267, 0.847957, 0.848067, 0.844312, 0.840085, 0.838755, 0.838056, 0.819278, 0.801422, 0.800464, 0.787532, 0.787536, 0.806951, 0.855778, 0.856559, 0.78033, 0.780332, 0.7907, 0.805983, 0.810691, 0.810881, 0.838438, 0.837906, 0.915271, 0.85873, 0.859023, 0.858491, 0.861019, 0.844657, 0.810658, 0.842994, 0.866675, 0.904564, 0.904302, 0.897516, 0.896683, 0.894819, 0.941436, 0.908924, 0.955754, 0.956015, 0.934062, 0.981109, 0.955095, 0.998362, 0.967246, 0.982306, 0.994175, 1.01209, 1.04992, 1.04732, 1.03881, 1.04525, 1.09958, 1.09513, 1.09837, 0.997343, 1.01965, 1.1542, 1.11892, 1.01329, 1.02305, 1.0231, 1.02314, 1.1595, 1.12172, 1.14517, 1.24078, 1.06247, 0.919439, 0.921109, 0.921275, 0.920061, 0.921465, 0.92489, 0.925783, 0.927382, 0.927579, 0.940484, 0.919944, 0.911537, 0.907502, 0.907644, 0.908677, 0.911304, 0.912638, 0.914454, 0.913625, 0.910992, 0.910921, 0.911198, 0.913169, 0.914323, 0.912959, 0.914373, 0.911744, 0.906697, 0.906589, 0.907281, 0.90636, 0.903711, 0.901021, 0.899731, 0.899082, 0.897544, 0.908091, 0.89122, 1.01902, 0.916927, 0.914225, 0.913534, 0.911339, 0.912027, 0.925532, 0.956259, 0.915784, 0.918788, 0.918138, 0.916365, 0.921562, 0.917821, 0.926046, 0.918091, 0.920565, 0.922608, 0.931175, 0.929478, 0.930266, 0.931, 0.932196, 0.935442, 0.937467, 0.94214, 0.942573, 0.943057, 0.944909, 0.94824, 0.948873, 0.950121, 0.952907, 0.953696, 0.956946, 0.957878, 0.959955, 0.958859, 0.959299, 0.964908, 0.966098, 0.967479, 0.968017, 0.970117, 0.97048, 0.975028, 0.978244, 0.979703, 0.974716, 0.973909, 0.974764, 0.975291, 0.97767, 0.979141, 0.98157, 0.983923, 0.987937, 1.02459, 0.997653, 0.997779, 1.00091, 1.0031, 1.00516, 1.00741, 1.00854, 1.01512, 1.06638, 1.07154
0.988509, 0.997922, 1.00246, 1.01722, 1.03231, 1.03134, 1.01689, 1.01261, 1.02292, 0.998514, 1.02204, 1.04458, 1.04372, 1.0435, 1.04595, 1.04586, 1.09186, 1.11183, 1.10171, 1.08527, 1.10811, 1.0058, 0.900417, 0.900471, 0.893418, 0.893217, 0.892158, 0.893079, 0.893416, 0.873815, 0.966299, 0.878061, 1.23823, 1.2822, 1.26314, 0.842842, 0.842299, 0.838532, 0.838787, 0.839728, 0.857146, 0.864706, 0.879647, 0.879314, 0.877848, 0.870341, 1.05225, 0.857199, 0.856265, 0.855785, 0.854706, 0.853188, 0.853045, 0.848069, 0.84563, 0.844362, 0.849158, 0.847709, 0.847819, 1.00815, 0.84551, 0.847569, 0.848408, 0.847103, 0.971898, 0.954335, 1.19814, 1.18882, 0.850929, 0.850485, 0.849175, 0.851747, 0.856236, 0.859215, 0.859522, 0.859385, 0.854721, 0.85402, 0.852041, 0.859669, 0.861897, 0.860681, 0.85938, 0.856832, 0.855811, 0.857284, 0.856358, 0.853226, 0.853042, 0.851933, 0.851621, 0.85295, 0.862857, 0.864245, 0.863231, 0.848329, 0.848835, 0.842106, 0.837925, 0.839009, 0.836685, 0.833913, 0.832625, 0.826545, 0.825275, 0.825463, 0.825602, 0.836547, 0.840099, 0.818854, 0.783978, 0.784808, 0.825019, 0.826718, 0.823908, 0.824435, 0.86398, 0.832709, 0.878808, 0.861225, 0.863309, 0.82932, 0.826716, 0.816761, 0.846285, 0.851188, 0.859893, 0.867997, 0.871942, 0.983295, 0.982462, 0.899233, 0.899662, 0.967611, 0.920539, 0.922692, 1.02077, 0.996157, 1.01627, 1.0191, 0.978003, 0.977995, 0.976368, 1.00545, 1.00897, 1.00897, 1.14572, 1.03282, 1.08241, 1.08081, 1.07445, 1.09931, 1.15314, 1.15048, 1.01922, 1.14429, 1.09584, 1.20544, 1.02642, 1.12353, 1.14261, 1.11884, 1.09108, 0.928948, 0.923722, 0.92142, 0.919197, 0.918442, 0.91884, 0.918817, 0.918009, 0.922669, 0.924291, 0.925388, 0.915388, 0.915114, 0.90516, 0.905157, 0.905119, 0.906427, 0.906453, 0.906241, 0.912551, 0.914802, 0.909675, 0.909276, 0.908361, 1.01044, 0.90876, 0.909099, 0.907497, 0.904397, 0.904157, 0.904028, 0.903957, 0.903956, 0.903978, 0.899764, 0.89959, 0.902253, 0.900471, 0.90157, 0.950002, 0.880429, 0.881711, 0.917903, 1.06089, 0.911893, 0.939657, 0.920029, 1.05174, 1.03657, 1.0813, 0.915408, 0.915502, 0.919888, 0.921683, 0.921819, 0.922341, 0.923101, 0.92183, 0.924478, 0.921929, 0.930028, 0.931035, 0.933489, 0.935446, 0.93672, 0.937466, 0.939702, 0.941327, 0.946058, 0.948022, 0.949371, 0.951773, 0.953744, 0.954784, 0.955957, 0.956261, 0.958219, 0.959427, 0.961839, 0.962569, 0.964189, 0.964798, 0.967896, 0.970205, 0.971102, 0.971866, 0.984286, 0.972715, 0.974037, 0.973578, 0.973478, 1.00261, 1.0196, 0.979815, 0.980063, 0.982383, 0.982918, 1.07302, 1.35148, 1.02879, 0.998537, 1.00278, 1.00471, 1.00662, 1.01171, 1.01211, 1.01506
0.983883, 1.01244, 0.947417, 0.946725, 0.994384, 0.991532, 1.0367, 1.03947, 1.03692, 1.02785, 0.960869, 1.07006, 1.05325, 0.900405, 1.05179, 1.06662, 1.08318, 1.06658, 1.11326, 1.11386, 0.915584, 1.02512, 0.902659, 0.898458, 0.898007, 0.897836, 0.893813, 0.894024, 0.895648, 0.953369, 1.30944, 0.872337, 0.873464, 0.866629, 0.843114, 0.842124, 0.842035, 0.840637, 1.02608, 0.850232, 0.855433, 0.855162, 0.876982, 0.877874, 0.877303, 0.877118, 0.8677, 0.859955, 0.852597, 0.850233, 0.852727, 0.852259, 0.846442, 0.846228, 0.84563, 0.845827, 0.843758, 0.844189, 0.843673, 0.842647, 0.842526, 0.842285, 0.843758, 0.845436, 0.982141, 0.969836, 0.849244, 0.848865, 0.848065, 0.847105, 0.849662, 0.84689, 0.848497, 0.85989, 0.859985, 0.86055, 0.85999, 0.851671, 0.852365, 0.859235, 0.856778, 0.855456, 0.855326, 0.854954, 0.855329, 0.854871, 0.852684, 0.853102, 0.853081, 0.852107, 0.852072, 0.85095, 0.862359, 0.863278, 0.862772, 0.848887, 0.845699, 0.83977, 0.839388, 0.838168, 0.835802, 0.834964, 0.834204, 0.831811, 0.829598, 0.829114, 0.829966, 0.831459, 0.835735, 0.823949, 0.83546, 0.820793, 0.821876, 0.825899, 0.830519, 0.844957, 0.846344, 0.853113, 0.853625, 0.966703, 0.869284, 0.821276, 0.843925, 0.854187, 0.869112, 0.935326, 0.922759, 0.940907, 0.904072, 0.913168, 0.925578, 0.925325, 0.924547, 0.92199, 0.934291, 0.93275, 0.928483, 1.00733, 0.971488, 0.973207, 0.976476, 0.967779, 0.967712, 0.966893, 0.983904, 1.04296, 1.02619, 1.0579, 1.05971, 1.12868, 1.13734, 0.966064, 0.960077, 1.01196, 1.01799, 1.18134, 1.11887, 1.1999, 1.12277, 0.953184, 1.1443, 0.937182, 0.932084, 0.930263, 0.930778, 0.920114, 0.921333, 0.921804, 0.918744, 0.91973, 0.920572, 0.92169, 0.922406, 0.921814, 0.921572, 0.914192, 0.908803, 0.909026, 0.906392, 0.906871, 0.905273, 0.906052, 0.908595, 0.911574, 0.911366, 0.911379, 0.905793, 0.904087, 1.07081, 0.911484, 0.910969, 0.911115, 0.901835, 0.902568, 0.902924, 0.903753, 0.902863, 0.902816, 0.904728, 0.910549, 0.915572, 0.921796, 1.02538, 0.962873, 0.984411, 0.91084, 0.909696, 0.907288, 0.906848, 0.939558, 0.94299, 1.11515, 0.915341, 0.915123, 0.912398, 0.920424, 0.922319, 0.922538, 0.921026, 0.930765, 0.922413, 0.922796, 0.926207, 0.928173, 0.9287, 0.929492, 0.933575, 0.935369, 0.936959, 0.940065, 0.940772, 0.946105, 0.949431, 0.951724, 0.952428, 0.952752, 0.952952, 0.952477, 0.953217, 0.954645, 0.956336, 0.959796, 0.961774, 0.963029, 0.963996, 0.96511, 0.966577, 0.968152, 0.971104, 0.964574, 0.965513, 0.967003, 0.973494, 0.969829, 0.970458, 0.970142, 1.00875, 1.01219, 0.984805, 0.985537, 0.987108, 0.988454, 1.05056, 0.994925, 0.997728, 0.999761, 1.0015, 1.05942, 1.06101, 1.0642
0.990669, 0.99381, 0.986563, 0.923878, 0.924721, 1.03943, 1.03905, 1.04245, 0.973823, 0.964633, 0.964497, 0.927071, 0.888082, 0.977947, 0.968114, 1.04398, 1.03546, 1.08387, 1.06041, 1.11001, 0.980498, 0.907621, 0.893649, 0.897695, 0.900476, 0.899798, 0.899325, 0.892027, 0.891268, 0.882468, 0.879879, 0.876844, 0.875426, 1.27359, 0.973845, 0.9737, 1.07304, 1.01435, 0.855967, 0.854672, 0.85575, 0.855781, 0.921665, 0.877345, 0.877564, 0.867732, 0.963236, 0.858032, 0.855784, 0.849133, 0.848145, 0.853395, 0.85312, 0.855717, 0.853173, 0.846402, 0.846124, 0.842482, 0.842332, 0.842204, 0.840617, 0.840356, 0.837284, 0.83768, 0.838342, 0.837912, 0.837154, 0.839562, 0.842506, 0.842585, 0.84278, 0.843666, 0.845885, 0.845593, 0.935991, 0.860895, 0.859948, 0.859487, 0.859617, 0.851381, 0.852313, 0.851576, 0.854995, 0.854555, 0.855999, 0.852362, 0.852395, 0.850759, 0.851639, 0.850793, 0.850505, 0.852063, 0.852425, 0.851893, 0.849652, 0.852496, 0.849343, 0.849365, 0.843348, 0.842601, 0.842126, 0.837178, 0.836969, 0.83669, 0.836863, 0.835899, 0.83406, 0.838249, 0.832116, 0.845013, 0.838255, 0.8364, 0.873835, 0.835928, 0.849077, 0.849527, 0.850018, 0.851141, 0.901752, 0.901898, 0.901153, 0.889023, 0.890809, 0.892333, 0.884364, 0.934329, 0.938658, 0.940327, 0.903732, 0.903891, 0.907258, 1.02301, 0.920838, 0.919919, 0.920688, 0.923013, 0.924795, 1.12088, 1.12075, 0.983487, 0.98352, 0.953822, 1.02334, 0.940618, 0.941111, 0.929639, 0.93167, 1.10813, 0.953579, 1.05635, 0.954219, 0.947054, 0.956247, 0.955, 0.959604, 0.963277, 0.95537, 0.955702, 0.948978, 0.949114, 1.111, 0.938989, 0.939239, 0.935909, 0.931379, 0.930286, 0.920482, 0.920713, 0.919821, 0.919599, 0.921235, 0.922249, 0.920716, 0.918051, 0.916639, 0.911807, 0.909, 0.906331, 0.905297, 0.90391, 0.903691, 0.904236, 0.90563, 0.910127, 0.911049, 0.911083, 0.909896, 0.904348, 0.900937, 0.895427, 0.894789, 0.894904, 0.896496, 0.899817, 0.900221, 0.898064, 0.898524, 0.938857, 0.913087, 0.919305, 0.924723, 1.0583, 0.949451, 0.896351, 0.8957, 0.895541, 1.08809, 0.925571, 0.863129, 0.928724, 0.922283, 0.90821, 0.909209, 0.912051, 0.913081, 0.919001, 0.920611, 0.985088, 0.921833, 0.921431, 0.926031, 1.08071, 1.09536, 0.926675, 0.927912, 0.927998, 0.928467, 0.929097, 0.9323, 0.935687, 0.93687, 1.06735, 0.944379, 0.947644, 0.950248, 0.952098, 0.951697, 0.952351, 0.952849, 0.955704, 0.956716, 0.964863, 1.35301, 0.966972, 1.01518, 0.964397, 0.964984, 0.966532, 0.967135, 0.962779, 0.963688, 0.965863, 0.97016, 0.970218, 0.967822, 0.97027, 1.00732, 0.98142, 0.98256, 0.984544, 0.985419, 0.986814, 0.989346, 0.992734, 0.992712, 0.994112, 1.00159, 1.0029, 1.00466, 1.05953
0.945113, 0.945458, 0.987416, 0.925768, 0.926337, 0.926969, 1.0389, 1.03321, 0.962988, 0.930648, 0.9268, 0.954962, 0.937648, 0.966738, 1.06415, 1.07403, 0.939231, 0.939875, 0.939248, 1.0743, 1.1052, 1.00234, 0.898006, 0.897345, 0.897956, 0.897238, 0.897198, 0.897767, 1.24596, 0.877446, 0.881875, 0.880505, 0.880134, 1.32254, 0.861694, 0.859647, 0.859571, 0.857218, 0.85711, 0.856435, 1.02418, 0.848195, 0.907675, 1.04754, 0.871271, 0.864548, 0.864244, 1.01122, 0.853036, 0.847251, 0.845276, 0.845294, 0.845131, 0.89222, 0.861075, 0.869808, 1.1817, 0.857782, 0.845317, 0.840971, 0.841868, 0.842065, 0.836376, 0.836676, 0.835713, 0.836278, 0.836252, 0.836276, 0.834698, 0.836627, 0.837696, 0.842301, 0.841923, 0.842661, 0.842833, 0.987855, 0.858338, 0.859668, 0.86074, 0.850843, 0.84983, 0.847247, 0.850596, 0.850217, 0.849577, 0.848572, 0.848439, 0.847705, 0.846783, 0.84663, 0.848719, 0.847473, 0.843941, 0.845176, 0.845542, 0.851634, 0.849855, 0.850114, 0.846304, 0.845544, 0.84461, 0.841951, 0.838721, 0.839062, 0.837745, 0.841845, 0.842072, 0.845169, 0.848111, 0.8479, 0.846414, 0.875021, 0.876743, 0.852472, 0.851759, 0.858046, 0.858947, 0.860731, 1.13472, 1.14675, 0.877628, 0.883105, 0.896462, 0.890377, 0.890335, 0.886033, 0.886445, 0.89774, 0.897176, 0.897546, 0.901244, 0.901493, 0.911586, 0.911838, 0.989062, 0.928642, 0.930325, 1.03195, 1.12241, 0.958466, 0.965731, 0.96594, 1.10864, 1.0049, 0.981579, 0.92809, 0.927998, 0.948548, 0.954313, 0.954263, 0.953283, 0.954805, 0.960019, 0.960999, 1.12265, 1.12954, 0.955913, 0.955331, 0.94957, 0.949729, 0.945156, 0.94265, 0.937313, 0.93585, 0.932937, 0.926566, 0.925484, 0.921836, 0.921946, 0.920256, 0.916846, 0.916988, 0.918094, 0.917664, 0.912946, 0.912446, 0.912314, 0.913135, 1.43092, 0.90092, 0.900967, 0.900751, 0.901004, 0.908495, 0.91006, 0.910791, 0.910213, 0.908916, 0.900281, 0.900404, 0.89978, 0.893797, 0.893922, 0.895621, 0.897149, 0.896535, 0.89614, 0.896253, 1.16677, 0.895231, 0.928378, 0.936811, 1.07773, 0.865057, 0.896922, 0.893876, 0.859145, 0.859202, 0.857065, 0.938437, 0.902678, 1.04553, 0.908168, 0.909396, 1.08168, 0.916761, 0.92014, 0.922332, 0.921884, 0.923834, 0.922574, 0.919898, 0.921618, 0.95295, 0.96369, 0.979546, 0.924495, 0.926632, 0.930203, 0.934469, 0.937042, 0.937419, 0.942269, 0.944439, 0.948364, 0.947848, 0.95173, 0.952498, 0.950959, 0.953297, 1.32333, 1.32391, 0.96327, 0.964442, 1.25707, 1.40239, 1.09617, 0.963679, 0.964815, 0.966476, 0.966288, 0.968458, 0.96994, 0.970057, 0.971525, 0.973537, 1.22881, 0.981445, 0.981489, 0.983566, 0.985064, 0.984685, 0.987961, 1.02006, 1.02158, 0.991992, 1.11578, 1.11608, 1.00118, 1.00413
0.953886, 0.957649, 0.948869, 0.960065, 1.01929, 0.928905, 0.928897, 0.961587, 1.04037, 0.919158, 0.918137, 0.917937, 0.998573, 0.929727, 1.06144, 1.06399, 0.937437, 1.06116, 0.935246, 1.00779, 1.11356, 0.992893, 1.01247, 1.01489, 1.1473, 0.893826, 0.892557, 0.908689, 0.882813, 0.876887, 0.876768, 0.873527, 0.876681, 0.870286, 0.869796, 0.861937, 0.85933, 0.858174, 0.856118, 0.848386, 0.846653, 0.843481, 0.843382, 0.865343, 0.866219, 0.865597, 0.865462, 0.856187, 0.856086, 0.847653, 0.845888, 0.845048, 0.844566, 0.86229, 0.863048, 0.862649, 0.862002, 0.946202, 0.845132, 0.842192, 0.841239, 0.839178, 0.840341, 0.836966, 0.836027, 0.836384, 1.03956, 0.833265, 0.833755, 0.833034, 0.836179, 0.835029, 0.83131, 0.828287, 0.834866, 0.991606, 0.992692, 0.859561, 0.871044, 0.850176, 0.848498, 0.847629, 0.846179, 0.846231, 0.84692, 0.847704, 0.845662, 0.845634, 0.84483, 0.84515, 0.844102, 0.85013, 0.848733, 0.848073, 0.847994, 0.848473, 0.847967, 1.23089, 0.839983, 0.843414, 0.842687, 0.839668, 0.838385, 0.839788, 0.842563, 0.842495, 0.845198, 0.846423, 0.852297, 0.852124, 0.851402, 0.847451, 0.845112, 0.864241, 0.862879, 0.860824, 0.863409, 0.864077, 1.15005, 1.19119, 1.13995, 1.19176, 0.885581, 0.885624, 0.892845, 0.894824, 0.896988, 0.897416, 0.897213, 0.898682, 0.900703, 0.901461, 1.05187, 0.936598, 1.00493, 0.933746, 1.03663, 1.03673, 0.955953, 0.956676, 0.959626, 0.960945, 0.936647, 0.936314, 0.955432, 0.963525, 0.95149, 0.952278, 0.953615, 0.954797, 0.955426, 0.987781, 1.13323, 0.981836, 0.977018, 0.975229, 1.06432, 1.0509, 1.04272, 1.04007, 1.16727, 0.94302, 0.941091, 0.935802, 0.933325, 0.928702, 0.928355, 0.925134, 0.924341, 0.918424, 0.915209, 0.913642, 0.913522, 0.914766, 0.91218, 0.911867, 1.00629, 0.895559, 0.895417, 0.901383, 0.900611, 0.900951, 0.899881, 0.900707, 0.906048, 0.907959, 0.907523, 0.903434, 0.901742, 0.900528, 0.900953, 0.897211, 0.894971, 0.895276, 0.894077, 0.89499, 0.894671, 0.887558, 0.896041, 0.901613, 0.902159, 0.945588, 0.863889, 0.862583, 0.892175, 0.892923, 0.855489, 0.855871, 0.856282, 0.90147, 0.903593, 0.90593, 0.987042, 0.974637, 1.00946, 1.01171, 0.917794, 0.918341, 0.918937, 1.29345, 1.10647, 0.937915, 0.937207, 0.953132, 0.961056, 0.924307, 0.924681, 0.925398, 0.929389, 0.930487, 0.933798, 0.936049, 0.938432, 0.939654, 0.944464, 0.948723, 1.02595, 0.948242, 0.946092, 0.946498, 0.947872, 1.26297, 1.27366, 1.3464, 1.28976, 1.34425, 0.962449, 0.959512, 0.96097, 0.964293, 0.967679, 0.970327, 0.970254, 0.971327, 0.971989, 0.9731, 0.976594, 0.978934, 0.981064, 0.98223, 0.984308, 0.984785, 0.985871, 0.985434, 0.987028, 0.990382, 0.99102, 0.99461, 0.995539, 1.00109
0.957883, 0.95817, 0.971051, 0.955964, 1.02542, 1.02498, 0.9572, 0.995842, 1.01125, 1.00964, 1.02491, 0.995463, 1.02911, 1.04036, 0.996999, 1.04638, 0.94361, 0.940098, 0.939541, 1.08551, 0.991215, 1.11913, 1.01632, 0.886905, 0.887971, 0.890616, 0.890366, 0.887769, 0.878846, 0.875057, 0.872671, 0.872317, 0.872422, 0.871275, 0.869762, 0.868729, 0.863967, 0.862319, 0.859879, 0.857894, 0.849339, 0.843581, 0.842443, 0.841903, 0.971183, 0.876972, 0.869588, 1.01116, 1.02414, 0.860032, 0.845161, 0.845353, 1.01214, 0.861829, 0.860324, 0.914839, 0.906846, 0.847007, 0.845563, 0.842078, 0.840941, 0.838826, 0.838609, 0.840369, 0.845313, 0.847864, 0.825172, 0.825626, 0.825821, 0.833353, 0.835279, 0.835731, 0.835084, 0.833886, 0.834832, 0.835402, 0.837299, 0.952708, 0.849714, 0.847509, 0.844028, 0.844217, 0.843356, 0.847603, 0.842158, 0.842984, 0.842556, 0.842237, 0.840782, 0.84126, 0.841191, 0.851253, 0.848529, 0.848712, 0.845343, 0.845149, 0.844827, 0.839226, 0.839519, 0.841278, 0.841701, 0.841218, 0.842598, 0.841757, 0.840974, 0.843423, 0.84418, 0.84375, 0.846161, 0.840446, 0.840233, 0.915373, 0.886011, 0.862312, 0.861312, 0.861057, 0.864759, 0.866757, 0.869245, 0.870647, 0.872842, 0.884086, 0.883771, 0.907363, 0.892052, 0.892635, 0.895198, 0.896349, 0.899498, 0.898149, 0.901301, 0.907633, 0.929214, 0.918409, 1.24649, 1.25002, 0.996141, 0.942979, 0.995518, 0.95781, 0.995706, 0.94041, 0.99534, 0.954418, 0.952933, 0.953919, 1.00759, 1.00825, 0.964085, 0.96427, 1.21841, 1.01212, 0.983593, 0.984832, 0.983644, 0.983822, 0.979467, 1.0139, 1.01294, 0.954939, 1.03515, 1.03478, 1.1216, 0.939184, 0.936293, 0.931889, 0.931885, 0.926352, 0.92204, 0.921361, 0.917018, 0.912808, 0.913366, 0.912631, 0.910052, 0.909662, 0.907444, 0.893893, 0.893925, 0.899806, 0.900351, 0.898822, 0.898239, 0.900459, 0.902649, 0.902355, 0.900623, 0.898305, 0.898146, 0.900293, 0.900352, 0.896552, 0.896827, 0.891948, 0.89133, 0.891157, 0.889336, 0.959516, 0.891748, 0.892298, 0.898038, 0.904759, 0.897026, 0.895598, 0.894971, 0.893322, 0.85646, 0.855648, 0.855625, 0.856117, 0.901065, 0.902778, 0.977052, 0.973368, 0.906148, 0.9082, 0.925362, 0.915327, 0.921861, 0.921333, 1.06628, 0.925591, 1.27718, 0.925703, 0.964731, 0.922717, 0.980821, 0.974892, 0.927862, 0.933252, 0.932314, 0.933352, 0.936493, 0.938622, 0.944276, 0.946091, 0.94754, 0.946555, 0.945119, 0.940094, 0.940217, 0.9365, 0.938629, 0.96471, 0.963283, 1.19614, 0.955504, 0.957075, 0.960338, 0.960686, 0.963833, 0.96501, 0.966367, 0.969877, 0.970496, 0.971106, 1.01858, 1.02896, 1.00101, 0.97764, 0.980656, 0.983565, 0.98403, 0.986022, 0.987154, 0.987465, 0.989861, 0.990261, 0.993265, 0.995578
0.963096, 0.963298, 0.958703, 0.968207, 0.984176, 0.932652, 0.971777, 0.98147, 0.904574, 0.904203, 1.01491, 1.04952, 0.938463, 1.02285, 1.03701, 1.0335, 0.946199, 1.02616, 1.02466, 1.06367, 1.1053, 0.898621, 0.898611, 0.887279, 0.885345, 0.886707, 0.886695, 1.2015, 0.876362, 0.87527, 0.874281, 0.87299, 0.872568, 0.876259, 0.883112, 0.87221, 0.871543, 0.870792, 0.866671, 1.31549, 0.855877, 0.842535, 0.84291, 0.841546, 0.926573, 0.872918, 0.87547, 0.874902, 0.881905, 0.95828, 0.84319, 0.832019, 0.832379, 1.22994, 0.982548, 0.964, 0.845801, 0.846018, 0.84239, 0.840625, 0.838752, 0.83886, 0.845401, 0.845662, 0.997633, 1.00185, 0.824258, 0.824711, 0.838818, 0.827808, 0.842439, 0.833723, 0.833972, 0.835362, 0.831196, 0.831921, 0.833834, 0.834166, 0.848552, 0.8463, 0.845753, 0.844302, 0.84354, 0.843506, 0.844914, 0.845435, 0.845552, 0.843087, 0.842887, 0.844879, 0.844491, 0.844315, 0.844495, 0.843849, 0.844006, 0.844033, 0.842583, 0.844126, 0.843207, 0.842478, 0.842175, 0.841427, 0.837659, 0.841354, 0.841567, 0.837835, 0.83792, 0.844212, 0.84566, 0.847164, 0.850881, 0.839049, 0.84081, 0.901271, 1.35378, 0.954183, 0.86626, 0.867148, 0.86706, 0.865292, 0.865018, 1.04071, 1.04253, 0.912266, 0.901233, 0.893076, 0.894624, 0.894599, 0.896989, 0.898126, 0.900186, 0.898677, 1.04715, 0.950007, 1.09815, 1.10099, 0.940645, 0.945327, 0.945167, 0.936026, 1.01136, 0.987726, 0.984603, 0.949785, 0.970117, 1.26207, 1.09771, 1.15797, 0.9705, 0.970638, 0.973787, 0.980305, 0.980251, 0.980812, 0.980491, 0.981276, 1.05308, 1.02716, 1.02739, 1.03007, 0.945503, 0.943757, 0.942643, 0.940412, 0.932081, 0.933275, 0.930095, 0.927549, 0.926581, 0.92373, 0.920459, 0.921405, 0.911805, 0.909656, 0.90757, 0.907105, 0.906308, 0.903554, 0.90159, 0.898707, 0.898007, 0.897347, 0.896212, 0.897025, 0.903698, 0.904125, 0.899362, 0.898522, 0.896353, 0.896987, 0.896228, 0.896223, 0.894844, 0.890677, 0.89068, 0.889979, 0.887729, 0.887721, 0.891726, 0.893483, 0.896041, 0.901121, 0.863279, 0.895305, 0.894662, 0.855788, 0.855003, 0.853844, 0.852569, 0.852199, 0.850972, 0.851359, 0.959244, 0.857461, 0.913731, 0.993369, 0.908425, 1.55818, 0.918187, 0.918343, 1.06835, 0.9262, 0.925824, 1.11503, 0.956954, 0.960653, 1.00821, 0.978218, 0.926793, 0.928698, 0.930548, 0.934048, 0.935505, 0.936265, 0.942217, 0.946007, 0.947438, 0.945457, 0.943147, 0.94341, 0.943575, 0.947, 0.960006, 1.34357, 0.95458, 0.952515, 0.953009, 0.956481, 0.959372, 0.960071, 0.96048, 0.963422, 0.966661, 0.966868, 0.967702, 0.983799, 0.988243, 0.98746, 0.994547, 1.57508, 0.976571, 0.980197, 1.03672, 0.983174, 0.985131, 0.986885, 0.987375, 0.98816, 0.9892, 0.990394
0.973521, 0.995726, 0.953622, 0.984311, 0.905229, 0.904543, 0.891736, 0.89028, 0.887428, 0.915491, 0.978742, 1.00869, 1.02836, 0.952862, 0.952918, 0.952305, 1.01867, 1.00256, 1.08301, 1.08181, 1.07547, 0.952851, 0.893606, 0.88729, 0.886802, 0.885414, 0.883289, 0.87715, 0.875231, 0.873203, 0.868725, 0.868568, 1.18764, 0.999508, 0.871073, 0.871821, 0.873093, 0.871675, 0.866801, 0.873503, 0.843033, 0.842803, 0.843665, 0.843467, 0.960309, 0.877074, 0.876725, 0.876937, 0.871385, 0.857204, 0.848056, 0.831612, 0.831412, 0.832317, 0.833163, 0.833216, 0.834262, 0.835529, 0.838814, 0.837407, 0.836027, 0.845818, 0.845478, 0.846001, 0.84607, 0.82872, 0.829902, 0.828278, 0.827214, 0.825197, 0.840192, 0.837978, 0.828119, 0.828162, 0.828135, 0.829507, 0.833765, 0.969901, 0.845912, 0.845856, 0.846542, 0.845605, 0.844095, 0.842105, 0.839083, 0.845585, 0.845201, 0.845637, 0.84569, 0.847276, 0.848656, 0.845141, 0.844896, 0.843699, 0.83707, 0.837366, 0.841679, 0.840829, 0.840203, 0.840408, 0.840604, 0.839657, 0.840364, 0.838543, 0.836413, 0.837298, 0.843848, 0.845072, 0.846548, 0.847435, 0.852766, 0.851475, 0.852308, 1.02822, 1.02956, 0.860881, 0.866776, 0.863822, 0.864698, 0.865239, 0.866707, 0.936606, 0.926462, 0.916832, 0.887272, 0.890848, 0.892252, 0.893635, 0.894445, 0.896601, 0.897491, 1.25016, 1.06025, 0.928355, 1.05385, 0.928205, 0.940641, 0.933161, 0.916405, 0.917727, 0.917945, 0.943399, 0.942846, 0.950096, 1.27046, 1.10157, 1.14382, 1.14399, 0.994243, 1.03637, 1.03695, 1.12473, 1.12262, 1.02537, 0.977779, 0.974479, 1.06498, 1.08687, 0.958158, 1.03055, 0.947574, 0.94742, 0.944823, 0.942422, 0.928755, 0.929104, 0.927541, 0.925068, 0.925308, 0.926662, 0.926991, 0.929758, 0.930127, 0.912477, 0.906888, 0.905269, 0.904186, 0.900346, 0.901367, 0.900556, 0.898946, 0.896663, 0.895103, 0.895283, 0.90247, 0.904407, 0.90436, 0.895427, 0.89555, 0.894265, 0.894305, 0.893994, 0.891186, 0.890724, 0.889229, 0.889457, 0.887297, 0.887843, 1.08766, 0.897869, 0.897949, 0.960801, 0.867123, 0.894275, 0.890934, 0.890352, 0.891011, 0.889635, 0.892041, 1.03608, 0.896238, 0.898278, 0.994465, 0.995382, 0.98582, 0.994193, 0.909243, 0.914094, 0.921519, 0.921475, 1.14352, 0.928784, 0.918308, 1.14918, 1.06298, 0.965302, 0.966967, 0.921667, 0.922242, 0.92959, 0.928151, 0.930104, 0.93504, 0.935986, 0.942553, 0.944937, 0.945461, 0.94228, 0.943522, 0.943377, 0.944552, 0.946333, 0.946611, 0.949348, 0.949623, 0.950267, 0.952499, 0.955679, 0.955701, 0.958025, 0.959039, 0.959711, 0.963004, 0.964307, 0.966716, 0.960691, 0.960359, 0.960978, 0.985346, 0.994091, 0.991732, 0.983366, 0.977692, 0.980105, 0.982264, 0.983671, 0.986104, 0.987876, 0.98935, 0.991183
0.973225, 0.965911, 0.96836, 0.963992, 0.925175, 0.89123, 0.891939, 0.894028, 0.981571, 0.984677, 0.990581, 0.994467, 1.02455, 0.952467, 0.952632, 1.03615, 1.01685, 1.00472, 0.932294, 1.09167, 1.02646, 0.898087, 0.897906, 0.887079, 0.886004, 0.882263, 1.16851, 0.872387, 0.868858, 0.867149, 0.865001, 0.866174, 0.864971, 0.852375, 0.850934, 0.845995, 0.847287, 0.959089, 0.952123, 0.958035, 0.845815, 0.840921, 0.842129, 0.859369, 0.860209, 0.972485, 0.906796, 0.928593, 0.953429, 0.851987, 0.851333, 0.876556, 0.874668, 0.832523, 0.831466, 0.831919, 0.832186, 0.833459, 0.834459, 0.831664, 0.832124, 0.845716, 0.846958, 0.846751, 0.846305, 0.838921, 0.828036, 0.828079, 0.825674, 0.823919, 0.824462, 0.82617, 0.827031, 0.825253, 0.823483, 0.823559, 0.849916, 0.984801, 0.843317, 0.843683, 0.841093, 0.844814, 0.843314, 0.837907, 0.838467, 0.841017, 0.845441, 0.845462, 0.846627, 0.846889, 0.852376, 0.850254, 0.844733, 0.842981, 0.840541, 0.841671, 0.842849, 0.841429, 0.84158, 0.841758, 0.839949, 0.841051, 0.840764, 0.841128, 0.841943, 0.842115, 0.842119, 0.840797, 0.848718, 0.848849, 0.85314, 0.852745, 0.850685, 0.850711, 0.859764, 0.859971, 0.861891, 0.86489, 0.865743, 0.866753, 0.868217, 0.871109, 0.87562, 0.875837, 0.875782, 0.88842, 0.891307, 0.893347, 0.895952, 0.897402, 0.896134, 0.981909, 0.907771, 1.26348, 0.93977, 1.16083, 1.13127, 0.962117, 0.918008, 0.925557, 1.02326, 1.10305, 1.01116, 0.970581, 1.28037, 0.973148, 0.98156, 0.985092, 0.98989, 0.986817, 1.12535, 1.12486, 1.02992, 0.970466, 0.970805, 0.969506, 1.04969, 0.966119, 0.966652, 1.00472, 0.949885, 0.947157, 0.946318, 0.941721, 0.939481, 0.927083, 0.9262, 0.923004, 0.921361, 0.920911, 0.928461, 0.928613, 0.929081, 0.949171, 0.9085, 0.907917, 0.905861, 0.900422, 0.900018, 0.899336, 0.899248, 0.897442, 0.895306, 0.893943, 0.892786, 0.893485, 0.91162, 0.897014, 0.895983, 0.894093, 0.894102, 0.891947, 0.892111, 0.891673, 0.891829, 0.890863, 0.888639, 0.888281, 0.888634, 0.878308, 0.877734, 0.903573, 1.47227, 0.894683, 0.89416, 0.8939, 0.890827, 0.889287, 0.890239, 0.893412, 1.0501, 0.860712, 0.903091, 0.90471, 0.904211, 1.00363, 1.00511, 0.915224, 1.01574, 1.1123, 1.12249, 1.07084, 0.946352, 0.949638, 0.916355, 0.916836, 0.998633, 0.919698, 0.922009, 0.923761, 0.926942, 0.927943, 0.932067, 0.932732, 0.935403, 0.941977, 0.938639, 0.939712, 0.939364, 0.938852, 0.940546, 0.942106, 0.943819, 0.946587, 0.9525, 0.94923, 0.950095, 0.950713, 0.954003, 0.955517, 0.955994, 0.955668, 0.956576, 0.961473, 0.963404, 0.963277, 0.963255, 0.978561, 0.97894, 0.982827, 0.972276, 0.97503, 0.977408, 0.977812, 0.979663, 0.983628, 0.984847, 0.987413, 0.989079, 0.990948
0.945567, 0.971671, 0.952972, 0.885537, 0.885774, 1.00628, 0.894208, 0.894817, 0.994517, 0.984741, 0.992076, 0.96275, 0.997665, 1.00805, 0.984993, 1.02607, 1.04639, 0.988764, 1.04053, 0.990868, 1.0958, 0.896966, 0.893552, 0.892476, 0.885498, 0.881148, 1.1666, 1.14517, 0.864734, 0.862916, 0.862993, 0.856461, 0.856198, 0.847639, 0.846194, 0.845849, 0.845437, 0.844342, 0.840897, 0.839083, 0.838993, 0.841788, 0.840331, 0.860251, 0.852468, 0.907858, 0.859959, 0.844184, 0.844399, 0.850288, 0.852348, 0.853088, 0.843307, 0.833704, 0.832348, 0.830206, 0.830095, 0.831443, 0.830718, 0.830461, 0.824842, 0.824391, 0.842322, 0.838922, 0.838642, 0.860374, 0.827241, 0.82516, 0.822751, 0.822652, 0.824858, 0.825015, 0.824703, 0.825932, 0.823871, 0.828543, 0.829056, 0.830054, 0.837875, 0.839075, 0.839737, 0.84067, 0.841936, 0.837417, 0.836252, 0.836336, 0.843975, 0.847184, 0.845572, 0.845473, 0.852024, 0.852696, 0.854205, 0.847272, 0.845662, 0.843189, 0.843086, 0.84216, 0.842028, 0.84051, 0.839883, 0.841833, 0.841938, 0.843052, 0.84326, 0.841182, 0.841133, 0.843951, 0.84893, 0.84898, 0.845224, 0.843755, 0.842334, 0.839168, 0.859237, 0.861229, 0.861922, 0.862357, 0.867315, 0.86683, 0.868803, 0.871842, 0.872804, 0.875145, 0.882742, 0.889492, 0.891671, 0.990596, 0.89733, 0.89752, 0.897963, 0.900057, 1.37087, 1.09409, 0.946241, 0.949368, 0.91101, 0.908184, 0.967513, 0.922431, 0.925188, 0.992852, 0.980012, 1.03925, 0.958515, 0.95939, 0.980344, 1.11889, 0.939836, 0.939417, 1.00964, 1.12639, 0.999023, 0.96365, 0.961809, 0.961237, 0.963274, 0.965134, 0.966358, 1.08404, 1.08355, 0.949787, 0.948687, 0.947078, 0.938892, 0.930932, 0.929062, 0.921991, 0.92076, 0.918189, 1.28616, 0.911939, 0.918181, 0.908352, 0.970967, 1.38853, 0.898705, 0.898847, 0.899506, 0.894831, 0.896929, 0.897153, 0.896063, 0.892653, 0.890771, 0.890732, 0.896143, 0.896477, 0.893822, 0.893714, 0.893843, 0.894932, 0.896107, 0.891049, 0.892809, 0.889607, 0.890164, 0.890771, 0.888813, 0.99952, 0.925137, 0.894975, 0.89488, 1.14402, 0.896217, 0.893826, 0.893085, 0.891879, 0.891693, 0.892201, 0.893976, 0.893161, 0.901521, 1.11459, 0.904818, 0.905934, 1.01384, 1.01616, 1.13991, 0.873935, 0.937447, 1.65716, 1.65729, 0.955106, 0.918406, 0.918383, 1.15434, 0.917117, 0.926562, 0.923195, 0.924954, 0.925302, 0.926859, 0.93141, 0.930882, 0.931519, 0.935851, 0.935907, 0.93602, 0.938855, 0.940876, 0.941518, 0.942415, 0.944618, 0.94641, 0.947471, 0.94752, 0.947084, 0.949218, 0.950516, 0.954333, 0.954482, 0.956517, 0.957199, 0.956835, 0.960374, 0.961469, 0.963419, 0.966843, 0.970201, 0.974099, 0.973723, 0.974565, 0.973891, 0.978669, 0.981552, 0.984214, 0.987192, 0.988488, 0.988344
0.955771, 0.896437, 0.895831, 0.890721, 0.8907, 0.890889, 0.964802, 0.972922, 0.988313, 0.991555, 0.973674, 0.975273, 0.975364, 0.989742, 0.988739, 1.01781, 1.0432, 0.922769, 0.92294, 1.04278, 1.041, 0.899556, 0.892483, 0.887702, 0.888151, 0.891889, 0.891644, 1.17372, 0.85956, 0.859733, 0.857827, 0.857177, 0.85656, 0.846999, 0.84519, 0.842149, 0.841803, 0.840744, 1.01694, 0.844805, 1.02602, 0.842279, 0.834599, 0.834578, 0.833811, 0.856478, 0.847537, 0.844685, 0.842728, 0.842296, 0.840313, 0.838879, 0.83581, 0.833248, 0.831539, 0.831104, 0.830445, 0.830297, 0.827712, 0.823921, 0.827683, 0.824809, 0.830533, 0.903421, 0.827705, 0.830431, 0.828208, 0.824546, 0.826625, 0.824556, 0.824886, 0.82506, 0.824504, 0.823567, 0.823283, 0.821603, 0.831001, 0.833272, 0.83606, 0.83921, 0.83897, 0.835259, 0.838853, 0.838884, 0.838587, 0.836675, 0.849652, 0.848921, 1.13535, 0.843451, 0.925045, 0.848869, 0.844531, 0.843379, 0.843765, 0.840691, 0.842165, 0.839679, 0.8391, 0.838076, 0.838429, 0.842095, 0.842381, 0.842147, 0.838674, 0.83885, 0.840312, 0.842104, 0.847216, 0.847447, 0.846643, 0.846428, 0.840725, 0.840916, 0.843079, 0.8592, 0.859235, 0.859396, 0.859241, 0.860651, 0.863731, 0.863924, 0.865174, 0.876459, 0.875435, 0.890925, 1.0467, 1.06133, 0.902226, 0.893875, 0.888318, 0.891619, 0.895257, 0.897568, 0.903656, 0.905606, 0.896092, 0.969241, 0.969685, 0.9193, 1.03134, 1.03207, 0.991271, 0.958608, 0.957398, 0.92548, 0.933753, 0.942345, 0.988039, 0.990622, 1.12532, 1.12859, 1.05542, 0.95312, 0.955015, 0.958509, 0.958422, 0.962228, 1.02588, 0.960349, 0.960234, 0.953574, 0.951154, 0.939026, 0.939199, 0.933356, 0.93177, 1.25053, 1.25028, 0.915724, 0.908889, 0.905135, 0.907633, 0.908493, 0.908678, 0.907419, 0.896143, 0.894768, 0.896839, 0.893886, 0.894986, 0.894803, 0.895176, 0.894327, 0.893161, 0.893341, 0.895291, 0.896205, 0.890676, 0.890762, 0.89107, 0.890979, 0.896308, 0.894513, 0.891753, 0.890269, 0.891381, 0.886031, 0.886817, 0.887053, 0.885562, 0.881592, 0.884183, 0.890892, 0.892615, 0.890947, 0.891695, 0.892437, 0.890339, 0.890328, 0.893105, 0.903923, 1.1174, 1.03884, 0.890708, 0.888306, 0.907197, 0.90554, 0.921851, 0.921158, 0.920259, 1.3505, 1.21358, 0.945523, 1.10709, 0.911087, 0.987078, 0.913428, 0.916332, 0.919515, 0.921392, 0.922345, 0.923464, 0.927092, 0.929281, 1.1568, 1.34545, 1.05635, 1.07096, 1.08437, 1.08579, 0.943319, 0.937974, 0.941405, 0.9423, 0.943135, 0.945988, 0.945831, 0.948085, 0.949244, 0.950797, 0.951147, 0.951688, 0.954743, 0.956006, 0.959813, 0.96113, 0.964381, 0.965544, 0.966435, 0.967987, 0.972998, 0.973077, 0.973346, 0.977851, 0.986508, 0.982184, 0.984301, 0.986319, 0.986954
0.95333, 0.891898, 0.891425, 0.891691, 0.891132, 0.891153, 0.986477, 0.983745, 1.08543, 0.989392, 1.00215, 1.00371, 0.924752, 0.923408, 0.9218, 0.921099, 0.918166, 0.918244, 1.04403, 1.04054, 0.904852, 1.06702, 0.88975, 0.890809, 0.891367, 0.892942, 1.03224, 0.887587, 1.07189, 1.07477, 0.853384, 0.854073, 0.848424, 0.846651, 0.845949, 0.843227, 0.842109, 0.843706, 0.84396, 1.04254, 0.82868, 0.829098, 0.830967, 0.831352, 0.832623, 0.832487, 0.844157, 0.842792, 0.83943, 0.836408, 0.834333, 0.835779, 0.83516, 0.832086, 0.82971, 0.828868, 0.827858, 0.828161, 0.825498, 0.824143, 0.823752, 0.822694, 0.82248, 0.828255, 0.828057, 0.828616, 0.828268, 0.825423, 0.821266, 0.823155, 0.823232, 0.825397, 0.824267, 0.822769, 0.8223, 0.821822, 0.847437, 1.0112, 1.09752, 0.870303, 0.835008, 0.834995, 0.837066, 0.837281, 0.838042, 0.846568, 0.846968, 0.847409, 0.844202, 0.843779, 0.938871, 0.840151, 0.839735, 0.839622, 0.839257, 0.835723, 0.837661, 0.838361, 0.839737, 0.837256, 0.835429, 0.835336, 0.835255, 0.83557, 0.835594, 0.840341, 0.842004, 0.840746, 0.84101, 0.845991, 0.847496, 0.848268, 0.848793, 0.957137, 0.840724, 0.855787, 0.855838, 0.857133, 0.856771, 0.860076, 0.862839, 0.863569, 0.864895, 0.866005, 0.873762, 0.871565, 0.899869, 0.900158, 0.885229, 0.884566, 0.883759, 0.887097, 0.888239, 0.891104, 0.892658, 0.893449, 0.893825, 0.894186, 0.893957, 1.16012, 0.911661, 1.16423, 0.984124, 1.00475, 0.960353, 0.924786, 0.925113, 0.924668, 0.926861, 0.928853, 0.985307, 1.0254, 1.13981, 1.01242, 0.951251, 0.998651, 0.958213, 0.958742, 0.95805, 0.9563, 0.961841, 1.15285, 0.949747, 0.947841, 0.945746, 0.935128, 0.934679, 0.933642, 1.0304, 0.945394, 0.99912, 0.90625, 0.916809, 0.915854, 0.905222, 0.89476, 0.894452, 0.894513, 0.894067, 0.894424, 0.894685, 0.894072, 0.894323, 0.894839, 0.895289, 0.895568, 0.897327, 0.898171, 0.888996, 0.889531, 0.889254, 0.891207, 0.894751, 0.893401, 0.891338, 0.891036, 0.885413, 0.885762, 0.886667, 0.887788, 0.888937, 0.888389, 0.887128, 0.887771, 0.888857, 0.886384, 0.886904, 0.887957, 0.890727, 0.887733, 0.887953, 0.889354, 0.896718, 0.898506, 1.11204, 0.909006, 1.14813, 0.880385, 1.0502, 1.15328, 0.914931, 1.07704, 0.911709, 1.10271, 0.909391, 0.9095, 0.908031, 0.910456, 0.913637, 0.918224, 0.919024, 0.920006, 0.922941, 0.923188, 1.04784, 1.16059, 0.942274, 0.941063, 0.942542, 0.943489, 0.943205, 0.940573, 0.936688, 0.934419, 0.934529, 0.937996, 0.939927, 0.941981, 0.94358, 0.946437, 0.950233, 0.951648, 0.952279, 0.95286, 0.955823, 0.958238, 0.959805, 0.96106, 0.96349, 0.963101, 0.966825, 0.967859, 0.969888, 0.969942, 0.973558, 0.974574, 0.980902, 0.9822, 0.983689, 0.981072
