1.13499739713708,1.13349098472568,1.13170407791831,1.12985097081313,1.12891588717016,1.12798121420056,1.12663165294651,1.12531903399233,1.14303017448172,1.14684627522284,1.15835160392678,1.15995160042867,1.15954412515002,1.15351622519521,1.15217943609724,1.15267896224392,1.15248962554714,1.152344080676,1.15254344859014,1.15424819800272,1.15623788335052,1.15878995970979,1.16054551867982,1.18101647016214,1.06329702424883,1.05929211357938,1.07110692391146,1.0765302589831,1.07445217663297,1.04633037334932,1.04726681257322,1.0481373482394,1.0827445902845,1.08418316254266,1.0727193177689,1.06742829619013,1.06411120279131,1.04686995705097,1.04254500853684,1.04258377447654,1.04289394654249,1.04299049512079,1.04266191818261,1.04255380065796,1.04129382487671,1.03951995488944,1.03822876601429,1.03890463474765,1.06247765083827,1.06125863796926,1.05986567715645,1.04377804742546,1.04263037653472,1.04831690948726,1.05944754726871,1.05700427119544,1.05419428804,1.06602615576712,1.07194627151608,1.07675785633631,1.08018248038442,1.06939876766968,1.0685345751111,1.0613298881684,1.03874736669657,1.03511031503754,1.03961732910974,1.04237569645825,1.04529997769418,1.04849161899087,1.04899094903749,1.09511557681419,1.09729439883891,1.09808632164926,1.09826647985207,1.07561802428444,1.06400340925493,1.0605401378168,1.05035620601264,1.0494718578639,1.04939483751924,1.04873470026853,1.0471916448544,1.04447544410776,1.04365708141515,1.05191428121785,1.05075798333669,1.06254404874997,1.05719462908185,1.05327586020874,1.05068318411603,1.04904345142924,1.04666903742956,1.04582961027933,1.04140768451973,1.03549950815006,1.03099107453841,1.03226537347668,1.03374299145883,1.03512699196608,1.034203181001,1.03402677972174,1.03341375195355,1.03455502369656,1.03553674620254,1.035483925312,1.03621529475939,1.03374819079337,1.03344271579019,1.03481952418141,1.03604651222379,1.03622312275438,1.03700968563719,1.03943919805294,1.03887179321979,1.04006611806426,1.0386511776287,1.0400772333175,1.06402153473265,1.04669606462223,1.04822187315265,1.04757334239163,1.0488272518446,1.05117234212155,1.05274560000985,1.05351788893453,1.05541666963895,1.05686236902863,1.05800965228569,1.05843689645565,1.05954217513373,1.061694084714,1.06276940479256,1.06332342218843,1.06896917339719,1.07378065753875,1.0777371578353,1.09269110765265,1.08309234012214,1.08442885261958,1.08726019627433,1.08980176837552,1.09046379124295,1.09050752927878,1.09440564744454,1.10956993026439,1.1224734706221,1.12308056807226,1.12480586619377,1.12548612232654,1.12634029188089,1.12761216778638,1.14690148970985,1.16361478816498,1.18223735173131,1.18590025990197,1.18854769944253,1.14707950264264,1.14692710310094,1.14636380823766,1.13910274427775,1.13122536497342,1.12278008990297,1.11409809916831,1.13739290720489,1.15655045808445,1.19690885068534,1.1988862043195,1.20221737060099,1.20317491698649,1.20773408483698,1.22381156226929
1.14271987475011,1.15525333648926,1.13155742613124,1.13279326468653,1.13421367521829,1.12644806006897,1.12655927920982,1.12578564097923,1.13690358922779,1.14532063293961,1.15375978634086,1.18251375144017,1.15770222089913,1.20158017216135,1.14781220343869,1.13723486834295,1.15359639606644,1.15220627779293,1.15185113641742,1.15100621200863,1.02585746744581,1.16049717091306,1.16283903714784,1.20437354573557,1.06535562428987,1.05267338841471,1.0462940225585,1.28562950786455,1.10434586983649,1.04469455420785,1.03841487066201,1.0394222502022,1.08483445207978,1.08497806807551,1.06294533780913,1.06340446914898,1.06407368352159,1.04084227597529,1.03998537857216,1.04178981581446,1.03919811118029,1.04228991991417,1.04303892450083,1.04399212014667,1.04134586297017,1.04055814377795,1.03752635028704,1.03725467754944,1.06703565891791,1.06635928334942,1.06756782517061,1.03934275361392,1.04138152141544,1.06812486541749,1.06677866406767,1.06356274495071,1.05196335971926,1.07616572482555,1.07576478377385,1.07688142114343,1.08772376565941,1.0690815821343,1.08992355917078,1.07560883718296,1.02990967817769,1.02973822475497,1.03687710002389,1.03833863378005,1.04364535461776,1.05089113159086,1.05102123502404,1.10600654399534,1.18105688459432,1.15040307747373,1.17150077894475,1.09054478128472,1.06686387915498,1.08374284512465,1.05400620204768,1.06621539557992,1.07360913306209,1.09030899903489,1.08954137160296,1.04366420534233,1.04440321329184,1.04661680259773,1.08102278509816,1.08662770367879,1.09057471664405,1.07044449181991,1.06331440116915,1.06187673816458,1.08077157010405,1.06642600003612,1.01247484095282,1.01422878475963,1.01451849624819,1.01506887903284,1.01603206309869,1.02092045732885,1.02164124018676,1.0199609248126,1.01867606589367,1.02826462309082,1.03475723137504,1.03448190721946,1.03652080430372,1.03024655892165,1.03071229062831,1.03195206570551,1.03119863636876,1.0312132930624,1.03797698047245,1.03427911663565,1.04289533139756,1.0386883791172,1.0414859521844,1.03925522074544,1.06983418442777,1.04365942886412,1.04351310861323,1.04583138268673,1.04593897599553,1.05166453579238,1.05056842654172,1.05284052708011,1.0523066604114,1.05650291457853,1.05680612032258,1.05718091016511,1.05780681317825,1.0599391076345,1.06134883468137,1.06343908360344,1.06572996441614,1.06806526831075,1.06798007319439,1.10032374256314,1.08291788162419,1.08221745727874,1.07941236836264,1.07990121335627,1.08220706648702,1.08294811282717,1.09347973571724,1.10089739834015,1.13527181745061,1.12610608375653,1.13972619476421,1.12676369348266,1.12496636013015,1.13223082170934,1.11924308520009,1.11773302035617,1.18426770589815,1.18383358875175,1.20721978875773,1.14951362072884,1.15927028816329,1.12389323401049,1.09476608809028,1.0950495798791,1.09203130833318,1.0926362605928,1.09473730227688,1.09681840720786,1.1976748172872,1.19834856276899,1.20471701482819,1.20503523751802,1.21164927879332,1.21129794453247
1.1559762942162,1.15555039754135,1.13360011242406,1.13338012131753,1.13372252865766,1.12491310178735,1.12442118930295,1.12350603842059,1.13604781441869,1.1370325706091,1.14376877277396,1.15296971785479,1.15390052421528,1.15314979345128,1.15186279502511,1.15216614355466,1.15215480263415,1.15050717793443,1.1496375464851,1.15013752330773,1.15323725694583,1.15710139751385,1.15620943677897,1.12184815833027,1.05841939469594,1.05060251173734,1.04787651279244,1.04492106703836,1.04351608387558,1.04279709902088,1.04039412045634,1.0661032133857,1.08708620176137,1.08653811732258,1.07265535269378,1.06331947243937,1.06357240520148,1.05600470795796,1.04646024653023,1.04454093317154,1.04432991216367,1.04954626227338,1.05360078790691,1.05492368077871,1.05347374603129,1.05336989636158,1.05574181737239,1.05984768394714,1.06417887448289,1.06485234605888,1.06387607372103,1.0601988626884,1.05935504664893,1.07201609968062,1.07281750872908,1.07171722749609,1.07341192479538,1.07621469976897,1.07776463163266,1.08006442126719,1.08525739996968,1.08731181513868,1.08916727075313,1.08185494382465,1.07545444360999,1.07779356232045,1.07695351980172,1.07690417668462,1.07598403588537,1.08904957123081,1.10953155510797,1.1315249373244,1.16242977461957,1.15773398566723,1.15578294855185,1.09683212044135,1.06880749968024,1.07220784960581,1.07610090448177,1.08025090103223,1.08346059142336,1.08480232475612,1.079228687848,1.0698305264308,1.07058246606509,1.07043262251917,1.07623280165712,1.07732782977207,1.08007553950775,1.07262050931163,1.07025356676622,1.06920746958182,1.05501792674803,1.03976259186476,1.0148990793229,1.01538551173397,1.01592314062691,1.01628017869058,1.01810245495531,1.02031241581582,1.02051122986766,1.01880059507595,1.01786339400791,1.02754768524384,1.03687410795166,1.03717260119545,1.03645860489117,1.03393949509711,1.03124384519398,1.0310101420404,1.03066457281449,1.03240309240113,1.03389447479383,1.0386604690609,1.03984656315888,1.04229298913067,1.04136854863553,1.0399100584412,1.0393785878294,1.04062449025629,1.04277043947053,1.0431544554995,1.04478326274108,1.05262406626181,1.051656237259,1.05083499329963,1.0521366671593,1.0550689530836,1.05623346688655,1.05720224015632,1.05790882137071,1.0576375044595,1.06044446356011,1.06592591875733,1.06772319403395,1.06830931611214,1.06738946752259,1.08194088889169,1.0820357153511,1.08118048343296,1.07912401643542,1.0797229965183,1.0814540042834,1.08246747160467,1.08584577024116,1.11704461394764,1.13349719337131,1.12890916306908,1.12950150060419,1.12791781766662,1.12794519548046,1.13005115951797,1.13210663259972,1.12994666377377,1.13841270448373,1.14121723939277,1.13278098922406,1.12833673883535,1.11918358924004,1.10883208045241,1.09517822785258,1.09502823832522,1.09325098334881,1.0920324112124,1.09312904613149,1.09863228577957,1.13265946076939,1.15002585360658,1.16581423172205,1.18083613394993,1.20184188254082,1.21097265102328
1.15342014088384,1.15454323456577,1.13369083522385,1.14815381968047,1.15462618416234,1.08723156998155,1.10437271507232,1.09664832469148,1.09129951524584,1.09259271783481,1.09055429067667,1.1512837341127,1.15721558282911,1.10813057404937,1.08984805547073,1.16934420727191,1.25340630172599,1.14616504668436,1.14650968996475,1.14761609271067,1.1571880144479,1.16750909307849,1.15529968693567,1.09959765863203,0.996576738049159,0.994493104080712,1.0505240270905,0.992596198389545,1.01113460608239,1.01311635453363,1.01460002187275,1.102648522393,1.11215849916979,1.11037085587736,1.10862929363557,1.06386798094055,1.06467199203343,1.0747868620922,1.04767269192828,1.04491527967012,1.04364738404709,1.0691649545258,1.0781068173305,1.10136176849089,1.0833113195785,1.10995015935755,1.10981011386199,1.11831298408799,1.09474533305243,1.09406009460998,1.09346630740629,1.08055443531227,1.05625743257815,1.077902957958,1.08009426776205,1.08061315219872,1.10459546660409,1.10867589332767,1.12594969306304,1.13974990083641,1.16369886462104,1.13432158836957,1.1085877637805,1.08517213389238,1.07451730906516,1.08022812095288,1.0885475299105,1.08138807714324,1.07454871439044,1.10923598203933,1.14599983585159,1.16711733125797,1.1696070630052,1.16995066837912,1.14087346602968,1.10364429552313,1.05837224758719,1.05803470642083,1.08600040538943,1.09171081623825,1.11517167371348,1.10464673972702,1.06932698193252,1.0707757767786,1.07143265019939,1.07127125157014,1.06612591663081,1.0712656552416,1.11352264664542,1.10084673515983,1.12006652287468,1.07454054820368,1.0383738767195,1.01511786115122,1.00762413084532,1.00647062515122,1.03960774808816,1.01430152191285,1.02184215859354,1.02180265658372,1.02080418320134,1.01874249860062,1.01852135649836,1.02366382173774,1.0823856785512,1.02373934310275,1.03675426038109,1.03582292121006,1.02959218362021,1.02973866594332,1.0294916756266,1.02973624663301,1.03292854737852,1.03843800833839,1.04196817812587,1.04398133499358,1.04551377853977,1.03482336744845,1.03580407021411,1.03638596168068,1.03650132040991,1.04279047121819,1.04566106481418,1.07354952938471,1.05049887650608,1.04966029867354,1.04949793806611,1.0685502640629,1.05016932231134,1.04789523168278,1.04947279879212,1.05614486994066,1.0603117649881,1.07062775916137,1.07148291579437,1.07202960392734,1.06495996142581,1.08131027152768,1.08119361983916,1.08188306753997,1.07449352549799,1.07437885746393,1.07470823449088,1.08275979328375,1.08146716128519,1.17256694826603,1.17221321352015,1.1175053365788,1.13072203259823,1.12837108820976,1.12645304005237,1.11526436077036,1.20752081571835,1.12804234818666,1.13396188158573,1.15143413589327,1.07368762613893,1.07524305078653,1.07796961332284,1.07998075872534,1.08067931086467,1.09026457507941,1.2020918571388,1.0896466444447,1.08896492793372,1.09891310938767,1.10070697848301,1.10707783196412,1.10670551848466,1.16086867268321,1.19301354620303,1.21066741554065
1.15949971428336,1.15706531197039,1.14066243799181,1.15218674687722,1.153751713036,1.13310001930516,1.10286008378736,1.09820194305603,1.09336607043561,1.0950201963493,1.11748466059383,1.13389071314285,1.11882596119549,1.09930435112995,1.09416355026997,1.1629660077855,1.1584112749871,1.14473130795978,1.14504617192386,1.14603382355908,1.1466048252179,1.14734311466708,1.14769572700298,1.03836744730346,0.995778338325359,0.994753590777371,0.993963634735076,0.993473630017703,1.00221110805937,1.00661650118026,1.0102265856642,1.02974861643309,1.05189827780913,1.06596269326797,1.06755963866397,1.07099657739904,1.0731583008502,1.07413796977696,1.0734810936959,1.08184889030195,1.08619275060777,1.09044949292897,1.09414844555407,1.10119630581484,1.10130078022205,1.10132666918514,1.10203172777586,1.10399206918096,1.09449748743049,1.09364646353012,1.09248137124041,1.08607593393569,1.09015764720034,1.09357254590116,1.09587451796682,1.10962429601967,1.11967364164372,1.12778461393256,1.13577347145331,1.14135754869988,1.14775159345745,1.14041974819174,1.13351592625642,1.12563326153671,1.11285995323181,1.11182372213513,1.11231454099567,1.11251563692011,1.12504603643232,1.12827663740457,1.14677251490302,1.16453977360738,1.16271606709772,1.16231896958068,1.15752105548614,1.10727018425936,1.08512403578975,1.08934487073932,1.09296221716454,1.09514866144923,1.10103089982272,1.10194743694979,1.10201523066924,1.10207317837554,1.1005388297155,1.09783369663405,1.09469304480289,1.09131109956439,1.08991348238307,1.08976158181613,1.07972073286494,1.07720687002578,1.05348471078816,1.02315668909912,1.00894128733587,1.00840539375977,1.03458244763633,1.03111748886983,1.02866606630241,1.02570083902208,1.02352445341153,1.01986630485084,1.01925823195151,1.02202718515838,1.02125180137137,1.02264164126228,1.03583296915104,1.03471994194818,1.02987386725065,1.02998776492696,1.02979238474834,1.03060356336148,1.0305445387931,1.03933521057707,1.04250966474795,1.04280918700519,1.03926686291516,1.03587426281891,1.03484353258991,1.03542922248134,1.03636929900072,1.04031104833401,1.04182570726118,1.04385064290275,1.05096473298869,1.05013939590961,1.04981493409471,1.04954295460575,1.04720854162914,1.04833383190931,1.04838751129887,1.05692485988628,1.05953902644947,1.06975406622581,1.07077193288103,1.07131488527797,1.07256808993857,1.08270217251192,1.08321483461836,1.08313836967532,1.08169118668495,1.07813550567909,1.08442208864773,1.08660641823911,1.09261340413132,1.09683121768183,1.10351548382075,1.11417219998043,1.1291752022499,1.12810967089576,1.12713095958485,1.12501591281155,1.12449522206654,1.12512884115787,1.1297142871833,1.14315081995026,1.09196088797432,1.07580195070227,1.07759933983921,1.07991075801579,1.0805921542088,1.08328729376197,1.08508157541601,1.0873107585678,1.0883264460956,1.09942989979821,1.09939273730932,1.10794349834043,1.10787371479685,1.14358468764299,1.1639122848587,1.2040702776613
1.16734881145371,1.17163958459286,1.13576663171661,1.23290389469488,1.17711528197873,1.17739109822554,1.09893929447308,1.09876175552773,1.09356171015835,1.09523473897055,1.13358148103499,1.15886178692265,1.09896842172604,1.01830486352532,1.01829375209998,1.22581209188928,1.02474603965006,1.02429922277203,1.1986226705798,1.14569828598016,1.1464141850514,1.14837477633357,1.14827149922794,0.991011143287755,0.964365827881845,0.983629534808417,0.984067158186167,0.958675847302367,0.967077428409597,0.964220278967436,0.962275978057531,0.987487668224107,1.0225525984425,1.06362648442908,1.06521785480598,1.07577199136809,1.28867655580904,1.22355602595897,1.07433132159622,1.08386540838324,1.08922115149896,1.09886674032721,1.13775332576723,1.12190608081204,1.1076037980815,1.09494563158501,1.09650012714952,1.10515500754419,1.09519554677752,1.10196214046195,1.11092640056932,1.07864249000907,1.13180085773211,1.10083024211816,1.10058709453573,1.13789014026653,1.12980647124324,1.19396949160514,1.17410596131757,1.17021251365203,1.1663500913639,1.20600581222404,1.20571083389709,1.19263551610864,1.11672044263303,1.12739735673474,1.11404708585886,1.113887349251,1.12690240565119,1.13761797849351,1.14693525454474,1.162618563775,1.16172446181464,1.16349942798002,1.16411997890928,1.11081913044357,1.0780959321661,1.09721799246701,1.09694161504991,1.09778427732839,1.09984251818737,1.10910423162628,1.11388482413352,1.13754813106139,1.13631813041176,1.10228107376366,1.10438257700427,1.08988550748726,1.09018651572093,1.09031108496687,1.06559884445412,1.07678619223329,1.06543678228018,1.03464123685686,1.0095527213432,1.00875339825963,1.03845248881739,1.04429524728111,1.02824037320174,1.02691325426709,1.02515676185319,1.01924553565364,1.01809176898153,1.01514904677121,1.02069561854962,1.00740744437074,1.06109250763253,1.03387059967476,1.02835271828267,1.0294948981871,1.03048814471565,1.02986148142619,1.03177052182549,1.03694675713629,1.04408669436764,1.04444592289054,1.03347844945689,1.03324534063022,1.03360467084834,1.03340845127141,1.03400900050323,1.03399098216097,1.03677250101312,1.03676366283834,1.08096855693596,1.04248825613134,1.04270918649854,1.04368016849994,1.04542070655554,1.04711377970928,1.04589390265087,1.16045785690621,1.05969678135847,1.07808223702047,1.04828583744998,1.16790919244007,1.07258548504565,1.08664233281945,1.08678828126178,1.08500974606794,1.08650092445495,1.07716132374052,1.09048879558789,1.09283841006111,1.11468047079162,1.09067462500902,1.09038899884149,1.09928831220938,1.12973986314464,1.12844767718901,1.12777804687053,1.12189459783473,1.12114127552035,1.06265461767477,1.06242360920489,1.14949943145294,1.1059571356046,1.07442656920468,1.07594896451962,1.07806605814708,1.08340944858825,1.08293783150716,1.08509197865709,1.08532607886706,1.09010505822853,1.09924744195014,1.09900989302119,1.10680061953328,1.10885669476443,1.10884615604505,1.10925047995976,1.19565505512403
1.16901679069749,1.17019145921043,1.14543378272715,1.14632571544457,1.15206864457012,1.1480073221053,1.0973662525936,1.09449272226909,1.09239299193595,1.09118172057064,1.08956819140008,1.08847729708101,1.0669781117254,1.01872167106333,1.0181027953711,1.02052805756916,1.02834114935403,1.02892015186709,1.03229245959012,1.02575484627698,1.02232099752953,1.01688244636842,1.00275653720923,0.99206116538884,0.972412460386625,0.977210941254703,0.968873631977821,0.958548858728961,0.958912600196264,0.961392006953913,0.961335354486838,0.983638091984124,1.0077546974698,1.03280952401354,1.05013961578261,1.07502982582324,1.08886166836573,1.09441117908844,1.10083335289001,1.10719729537153,1.11289389307644,1.12003734529976,1.13126270701134,1.12655520557528,1.10897310136748,1.1105772843276,1.11364214402022,1.11612149691882,1.11763083868255,1.11903262793165,1.12075238458398,1.12347564119766,1.12764727901557,1.12071214186188,1.12069970338308,1.1345934603794,1.14160709260411,1.19105050425471,1.187560577266,1.18575055793336,1.18515050063496,1.18481713189496,1.18468430149322,1.17909208544561,1.16342739279516,1.15427491761202,1.14179113528643,1.14396807484857,1.14942274874241,1.15319076817093,1.15582588859403,1.16160066513793,1.1636572960321,1.1640487747103,1.16411833737829,1.15116132577608,1.1431444387283,1.1391414641366,1.13720866679273,1.13343606324212,1.12117543220168,1.12512670281626,1.12785460079516,1.13779396800275,1.13700914388393,1.12080503529579,1.11307109804581,1.09423255409774,1.09194768511969,1.0913132492359,1.08538124005283,1.07978278056936,1.0653132990231,1.05121047805137,1.03909598474214,1.03896366560414,1.03826437622357,1.03826843679872,1.03215656869387,1.02821850021837,1.026027962548,1.02504511466317,1.02477176864745,1.02582052856478,1.02803950433972,1.02886835154149,1.03115144075491,1.03287606335244,1.03074300527899,1.03068837508819,1.03089980318227,1.03191842212205,1.03208161467117,1.03379125814877,1.03251822065561,1.03275481208366,1.03284011383226,1.0333441704914,1.03167227520475,1.03175644755317,1.03206026298089,1.03369895666343,1.03359233347215,1.03536507773802,1.03396799509984,1.03556297687302,1.03845376430277,1.0410876083203,1.04185292999924,1.04356925613287,1.04553475237375,1.04641169820143,1.04661142036533,1.04655566898813,1.04731048633773,1.05263507415418,1.05750507659033,1.06214837364686,1.06643392849828,1.06905481142475,1.07040352151755,1.07274353487955,1.09293641646225,1.09345744040667,1.0933238432695,1.09214297926378,1.09242182848514,1.09623053577652,1.08937901240717,1.08406762505015,1.0792225992584,1.07595086353915,1.07280055856491,1.06951787555364,1.10745564282827,1.12716499604433,1.11639178927694,1.07539708540624,1.07644855373814,1.07842522061002,1.08003803519629,1.08151496019073,1.08316393957482,1.08348334157907,1.0871302320704,1.09526709893956,1.09666069028029,1.10011552418475,1.10283669439488,1.10952763529512,1.10840392376901,1.16215838123549
1.17474509842216,1.1699396834879,1.14248346562177,1.14200176344729,1.1633695221532,1.14024837524274,1.08613501778736,1.08664188815474,1.08984733870459,1.09027316240525,1.08807424738083,1.08725106948419,1.0207689227646,1.01933990455924,1.01789471137026,1.01819941345736,1.04886996906227,1.04845579494872,1.04106736713434,1.01475739842559,0.978120504888811,0.981194234110237,0.97993720619166,0.993783543963008,0.952325184997233,0.984243916567371,0.95553508260052,0.931198762711522,0.931097916531759,0.961090273898238,0.959394258854889,0.981690497016208,0.973452131410757,1.0166683011745,1.02798145233465,1.07325926470756,1.07727272805412,1.07859388736394,1.18059804718156,1.13620708293521,1.11861443463901,1.16310875021651,1.16242935136414,1.16066989466437,1.10662981965131,1.11894836906003,1.12693062775795,1.16424726756256,1.16411843695483,1.16429780151636,1.17225850001069,1.13327612477891,1.14410578941726,1.12250062285143,1.12101736846975,1.13079542364219,1.15530823379775,1.19380722679842,1.18534301118109,1.1934897613555,1.21332758105288,1.1841302992122,1.18338421987678,1.15842413846431,1.17153356047856,1.17119130959142,1.13985285404871,1.1453120813029,1.22228178944644,1.18471340055562,1.16691084322568,1.15898768033991,1.16548236072506,1.16466763226054,1.16371588918798,1.16183553444556,1.16308201876384,1.16895405999371,1.13846797541032,1.13414034384449,1.11865471173995,1.13288106071779,1.12876876498996,1.13832505934863,1.19805672656024,1.15150503427208,1.16255842408492,1.09533767935105,1.1384297177303,1.10944859706951,1.08901518154133,1.08244882827136,1.06507676595386,1.06457326612763,1.03911854354828,1.03906301208114,1.07173293531683,1.06930077027869,1.06803759961031,1.07054114595433,1.07257116769612,1.07086318201685,1.07186643103545,1.02257811568151,1.08041400536495,1.0280012384006,1.01539934119843,1.03378764967718,1.03112323367138,1.0311854229414,1.04983185534371,1.03229351326242,1.04060981436597,1.03369037472071,1.03437816673048,1.03287539835544,1.02178665584018,1.02551776180659,1.02839668857581,1.02923611918401,1.03085900381692,1.03092841046835,1.03318897653135,1.02998089374455,1.03490188983963,1.03419000378327,1.03478914542381,1.03493620650045,1.03498464412868,1.03660455333074,1.0382020109268,1.03978655736399,1.04678210590896,1.04629133240284,1.04566358563214,1.04982884101306,1.05010485102352,1.05091388478158,1.0528339212232,1.06761713728991,1.06904885855097,1.06236816657691,1.10444054307266,1.09472056716697,1.09395708291356,1.08222798857679,1.09329078018479,1.09954306731853,1.06499637155168,1.05744015291399,1.05554025384011,1.05458991019825,1.05423695694332,1.05592039664357,1.15935121667117,1.15841119712428,1.15672662058343,1.07501027672688,1.07500497159341,1.076721356372,1.07731316080611,1.07951955206884,1.08158656972405,1.08312976759781,1.08703900468267,1.08945920846857,1.09517675652733,1.09603023656974,1.09767268033617,1.10870981752399,1.10623776528538,1.19804473453397
1.17326783765225,1.17128895616175,1.14361446398855,1.14289805494099,1.14287680420003,1.14201374887017,1.08543521156209,1.08480016494037,1.08412142606445,1.08316411221029,1.08084387388133,1.06227920374099,1.04880554151851,1.02236773669206,1.02549150089559,1.03164120053572,1.03844723852821,1.0222648532963,1.00749135428418,0.992668905714431,0.973953814061589,0.973521246975546,0.974811258821687,0.967762427681193,0.961848499051854,0.958715076228164,0.948554247450734,0.94207624765389,0.951747834822902,0.961114870547886,0.960451859023036,0.978031702805339,0.976854090118559,1.01239396433783,1.01646968505196,1.0620446520147,1.07555531128534,1.12206199163322,1.1628600370073,1.14593797861233,1.14656789502491,1.16120962843394,1.16238099151138,1.16078829790546,1.15933068523233,1.15775948091103,1.15604600503248,1.16582983560477,1.16612267614458,1.16685301526763,1.16997055806549,1.15714397964452,1.15628060360339,1.17159034854553,1.1712202250801,1.17852798174498,1.18385114432573,1.19598839334738,1.19735809062104,1.19659395406021,1.2028754518874,1.1958733126066,1.18079164503188,1.17402514579041,1.17401413381584,1.17690084261867,1.18022711398372,1.1827115768004,1.21081385363141,1.2028426412894,1.19374532766205,1.18673158997525,1.18054219269882,1.17491433200161,1.16967977631707,1.16683584147533,1.16294981482983,1.16132646565418,1.14470742468538,1.14717637253346,1.14845973459809,1.14791366289286,1.15592477445447,1.15843895456664,1.16084429425004,1.15079015021459,1.14897034232945,1.12229403006044,1.12906175625206,1.11849965155331,1.11146595332921,1.10192668841149,1.09503021982594,1.09084682304702,1.08162708465978,1.08027256857121,1.07198307533795,1.06932231468405,1.06932669258683,1.0703279433782,1.07059602012561,1.06962611684114,1.06861661389389,1.06712257533491,1.06646034725192,1.03155409856041,1.02453978027782,1.02921624803926,1.03255625309163,1.03141299702033,1.03215501928673,1.03374955857914,1.03714236293666,1.03542613385839,1.0351357459382,1.0352542550822,1.02835004441283,1.02685081708998,1.02685761578542,1.02804012804748,1.02825267050009,1.03037779037181,1.02980715985758,1.03132255484058,1.03095137721462,1.03269132272029,1.03300432378518,1.03346511564569,1.0355397465793,1.03815277830799,1.03830460286966,1.0387866263504,1.04714867819802,1.0468083771754,1.04712121429862,1.0524152195829,1.05646788830343,1.06190945380167,1.06754477414853,1.06733944640601,1.06582169196145,1.06268271616714,1.07664553790101,1.08424866732999,1.0842294620395,1.08295014853323,1.07791650832055,1.06985095952621,1.0578037408821,1.05789949255233,1.05708926000199,1.05409818245791,1.05333764345285,1.05398752308225,1.08229410030249,1.09769772861344,1.11315478141307,1.0757256527666,1.07608436614856,1.07634930668178,1.0772876415527,1.07865481035266,1.07857105878107,1.10216598648456,1.11476680554025,1.12295285102988,1.13105655572984,1.13848454744872,1.1465750505966,1.14877425290074,1.1518552939775,1.17584648561238
1.18944990176062,1.18997024981728,1.14529832246706,1.13230323427967,1.13200776938743,1.23607677864935,1.07344403286553,1.07107266687548,1.07202474673291,1.07391808348265,1.07754691890344,1.03492481110538,1.09357619884471,1.01912706599949,1.18053781297694,1.10236621051511,1.04564141915825,0.971086784288001,0.956600801634145,0.957603915551596,0.958543737691903,0.957976010833779,0.973418320655116,0.96355141613057,0.981198833758208,0.952849450607043,0.922435728663747,0.933101944961218,0.963623942722504,0.961389135195188,0.960891421107165,0.977293687496728,0.977706905481967,1.0080423953641,1.00794214662377,1.0472427187476,1.07405227030944,1.18609788124645,1.18640294708935,1.14773917322348,1.14918352456876,1.13263861556282,1.16720378849179,1.16721991499955,1.17306774387876,1.18127573796304,1.154637482898,1.24623405566881,1.16714691515674,1.16747869775292,1.16893361920853,1.16017374586105,1.15925112420593,1.17366619157162,1.17322909357616,1.18311635318975,1.19568617806466,1.23552596058361,1.25786447319534,1.25124389181396,1.25701420903187,1.23052343324287,1.17765073139568,1.16822271324021,1.18725094404185,1.18585526996272,1.21025942234611,1.1847500410342,1.2140778847366,1.21404625689287,1.21384111715925,1.25408254707391,1.2536386960279,1.18858451294174,1.17249304909436,1.18582222590606,1.16324809567599,1.15953749786326,1.13999906168052,1.14764866500795,1.15618487675401,1.14748190881374,1.1595395770086,1.15878447408708,1.16525959748103,1.15284738121274,1.13642241347161,1.11489144297691,1.14187885618298,1.12453808694795,1.11837144846722,1.15480110411071,1.11165223723192,1.10661729608858,1.08544862547036,1.08457583390037,1.0751514119275,1.0689774210575,1.08753543907745,1.07716770004717,1.07125311282753,1.09224994284408,1.06737229228053,1.0674578937781,1.06713577332597,1.03902801375666,1.00658186942506,1.00565919460204,1.0354466889791,1.03177735319281,1.03153079725282,1.07499830896974,1.07323645344347,1.03611450955746,1.05782765110462,1.05808159723144,1.02842249941351,1.02590294151653,1.02535478858426,1.02664949792793,1.02707118364746,1.02732129939639,1.0304945788524,1.02680335543984,1.0313049424481,1.02684838551061,1.02973833205439,1.03032246576281,1.16358579992887,1.03927910863014,1.03772559244188,1.03750797314899,1.08915430363343,1.04425740840079,1.04597210493106,1.07273510094476,1.07166422026007,1.06849757865031,1.07398871397749,1.07052313417085,1.08161708837287,1.04535493380971,1.04606185183295,1.08466061388413,1.08611318821406,1.09070071215269,1.05273974196207,1.04798239049472,1.04706489350753,1.04803906599169,1.04905670989191,1.05077032832727,1.0510338470485,1.05303976254326,1.05290527309705,1.05416816717405,1.14689494938705,1.0654592441277,1.06732127604238,1.06891484026045,1.06973901926576,1.07085654665613,1.07643995239888,1.30570946393528,1.19861942022476,1.20162285429837,1.204641205189,1.21127264161657,1.21473909346289,1.17880783856169,1.15890447182211,1.20701454874199
1.19936426336568,1.19642635187446,1.16877298780226,1.13271528674481,1.13262778773666,1.17720374416474,1.07194057508694,1.07109232972312,1.07040374941519,1.06941281390825,1.06730405388123,1.04656828178489,1.03121309476577,1.01897655505598,1.00960990332871,1.00223299133958,0.99184065873731,0.963494371570924,0.957402880631388,0.95835272302112,0.957488422774663,0.955816583444444,0.953133124423076,0.952565757293082,0.952279408042724,0.952383000143929,0.946862849755612,0.954122966073412,0.956411857904357,0.959858666723681,0.960208878186481,0.967703689899618,0.993685475789053,1.00735050955124,1.01291699173853,1.04710207442195,1.09450944555471,1.13907757993798,1.14888938627816,1.14845960239002,1.14752298591116,1.1441148624257,1.15133182498858,1.15819652502206,1.17146771526699,1.17039527803016,1.16996550591742,1.2223739751197,1.20689111791453,1.20065673401956,1.18889399414007,1.18671549526831,1.20325472024466,1.20604274254673,1.20740486650382,1.21293643570695,1.22228424975124,1.22486827029991,1.22576431617873,1.22595001660282,1.2260615667834,1.22618793408394,1.22217068453179,1.22495238475651,1.22624164067624,1.22631715469062,1.22552734772909,1.22458781481056,1.23433144642452,1.23618392961153,1.23881392065258,1.24331026248672,1.23679873048187,1.20419886931434,1.19465626931996,1.18418155839778,1.18058870901539,1.17582543691335,1.17644200334808,1.17638743810588,1.17475440841059,1.17166132304144,1.1677823785774,1.16398445050341,1.16074636331301,1.15597021446723,1.15314254903097,1.15198055110189,1.15164434927078,1.15171696780023,1.15242394217236,1.1535409913232,1.14653225486082,1.13849450581799,1.13029935633353,1.11740257381878,1.11534003819619,1.11297178135555,1.10780125936025,1.10269624825442,1.09996692045926,1.09723862615402,1.08578357600656,1.08123705003132,1.0764475876522,1.03966473519411,1.03268046739436,1.02584691106069,1.0385836970234,1.04187332084025,1.04393117468391,1.0473073520905,1.05066404695083,1.03374481705229,1.0315418829601,1.0291413325951,1.02720405728353,1.02567942539211,1.02668316943517,1.02755144014847,1.02706658621401,1.02820268720392,1.02646216787284,1.02752612464101,1.02707894486914,1.02864296388311,1.02828035088617,1.02953462989336,1.03130129717264,1.03311089864824,1.03501418873134,1.03799329763447,1.03865688242067,1.04128439073862,1.04424288198143,1.04869561666669,1.05628086637252,1.06446921229843,1.06965232262137,1.07035481672026,1.07028015936681,1.0710310526334,1.07530083573864,1.08435479779745,1.08543985903337,1.08730723642802,1.05313745319219,1.0493628365379,1.04815209519428,1.04705059468851,1.04965433962725,1.05116827844184,1.05208549351099,1.05221574547713,1.05163569973926,1.05186901330465,1.06107704800017,1.06253280658266,1.06492988288194,1.06731730996225,1.06979041093723,1.07067775620705,1.12314462318494,1.2086503518432,1.20021908450882,1.20136600203964,1.20200368633719,1.2114677185011,1.20956775630773,1.20813065429464,1.20733082638777,1.20647955029345
1.20958584390552,1.20456090577388,1.20551988635302,1.10492606565771,1.09877932799742,1.25648031469653,1.0541752710888,1.04824646656106,0.949608925560453,1.0212007550742,1.06404571935397,1.05600235164901,1.01936514722044,1.01876196766266,0.985122197563377,0.983923438327868,0.960778946388245,0.959701159895127,0.95995290405666,0.961067542913449,0.951901041667893,0.972336714298944,0.946443353724011,0.94711137323013,0.947279175896263,0.950972955259166,0.938984495855608,0.965500001808723,0.95355627633045,0.959863501572558,0.959862356962693,0.954448931013006,1.00619193696684,1.0067410631971,1.01769299230222,1.04681882919111,1.11170102508968,1.13331894551818,1.14686318495927,1.14772011194323,1.14729484916286,1.14104632493288,1.13987041137883,1.14003236114044,1.20328041954962,1.17032459554427,1.16842578957467,1.23471225193738,1.24423734212824,1.20775548200618,1.19076176258073,1.18978547267251,1.20435476069125,1.252737372359,1.23362429888813,1.22893623719038,1.22698055367335,1.2255168384684,1.22646131279892,1.22567863395691,1.22681604214313,1.23938003048136,1.21884254832082,1.23264330349184,1.25103188504348,1.26005077286282,1.22573540644876,1.22523268307981,1.2452417512172,1.24544741071489,1.24514810992711,1.26499784184562,1.22076758115787,1.2109536170997,1.23567804081261,1.183133559728,1.18297460945322,1.17653150662432,1.17619017613697,1.18710287448231,1.23837849353691,1.18031954583531,1.16754554698876,1.17991640428743,1.2055024829566,1.23618108055435,1.2188566659979,1.21979665321751,1.24132802039445,1.22056778606042,1.20164799496959,1.20139916380256,1.20093723203802,1.17031938394775,1.16286156590133,1.12110392037525,1.14731783282451,1.12150623650457,1.1306439395539,1.13130162899711,1.13327114944874,1.1027490575451,1.09839761239407,1.09536696687301,1.0837636149121,1.03749925325528,1.04122763114376,1.0168822028919,1.06426852349487,1.05765004085939,1.05537430835257,1.00174987785649,1.05470814325271,1.01224752836442,1.01256525619999,1.00579233997695,1.02085155384133,1.02253951584295,1.02846740398181,1.02767440857404,1.02819097858018,1.0272646295729,1.02544695508381,1.02228579984126,1.02702158358362,1.02623143984511,1.02807639931372,1.02562382041162,1.02552595890283,1.02677115831994,1.02530273891406,1.02710773452987,1.03550450822654,1.03551388073563,1.03665867838166,1.04704079041551,1.0330243089237,1.03342619851357,1.06812288289176,1.067549018577,1.05455841471864,1.07242259674255,1.14186143934246,1.11576818872796,1.09582982611923,1.09773773451786,1.03987700060065,1.09017656712416,1.04197586433298,1.04270531209768,1.09679470188788,1.04132639017506,1.17241235179165,1.05135868059999,1.05063579176448,1.050035757326,1.05645456605523,1.06068987330882,1.06254735281667,1.06448310986285,1.07088905002902,1.07045343177129,1.30690491342382,1.22232759451488,1.19371902709889,1.19401325220219,1.19491447687656,1.20913582147367,1.20913106737689,1.20882826640041,1.20974722736987,1.11503080899664
1.21908476341057,1.21773182142566,1.14976044451652,1.1047579630527,1.10205203204258,1.14553266346509,1.05053125524172,1.04929851753111,0.975632413913585,0.983919448286345,0.991933441883829,1.00053745662061,1.01047158177283,0.994522360152537,0.978121574826863,0.974014759978176,0.963110152151858,0.961764133169268,0.961655051787921,0.963036122667096,0.964348686174613,0.96516920248222,0.966949791452908,0.96773275787884,0.966905023741661,0.967203383883678,0.967959538048516,0.967923495293312,0.970205463009436,0.972260100442034,0.973301975220772,0.980318201417908,1.01053918427844,1.0124729279318,1.04812833533512,1.07540955506971,1.12660060303619,1.14122525272211,1.1478134017493,1.14752482166475,1.14669518780404,1.14565923356941,1.15356024875727,1.17974060590677,1.20043207859455,1.19813158637215,1.19439428042408,1.22980644529797,1.22696182594017,1.2239686927497,1.22242533339784,1.23766618720985,1.23800967141718,1.24692601923274,1.24855780171238,1.24923571564685,1.24926531295959,1.24942944263538,1.2497494825892,1.25039298278114,1.25137382811215,1.25215053644081,1.25236553165909,1.25241912788017,1.25388897240107,1.25628573568521,1.25700841490876,1.25804023968617,1.25938702107743,1.25897003437848,1.25772662692534,1.25688074541887,1.2415112826259,1.22877789591094,1.22004379737916,1.19863710102716,1.19759416932052,1.1971380918904,1.19807752903321,1.19849498508158,1.20703289193498,1.20847560148719,1.20918475694486,1.21123553932399,1.21371012010584,1.23915534892307,1.24118824021733,1.24187023456611,1.24163261197993,1.22537769930636,1.21778847084662,1.21146732808603,1.20617116872148,1.17023586242769,1.15767067684642,1.1452911099431,1.14574830076491,1.14152366741686,1.1378831191938,1.13793723126501,1.13593820382538,1.10993804578447,1.10467647664303,1.09322383695032,1.07180871863899,1.06953975756896,1.06858393429168,1.06670630948749,1.0626188093887,1.05806736844541,1.05680935986701,1.04571336815467,1.03794571997936,1.02856663963912,1.01887913598328,1.01711268890412,1.02494275907826,1.02523399894882,1.02657442405433,1.02736793780161,1.02839153751279,1.02967258005374,1.02271839712811,1.02420491202542,1.02587368936723,1.02807364862049,1.02833653734872,1.02744708416279,1.02731885797034,1.02939344227833,1.03238105552539,1.03376176194376,1.03396231267392,1.03530771989157,1.03537837154924,1.04604362058321,1.05121600218318,1.05427268179741,1.06132437085735,1.064778824969,1.06753991166664,1.07325466745465,1.08699311169707,1.08966796090615,1.09085240274703,1.09069323763226,1.0902181147414,1.0900489866418,1.07130322091748,1.03666679561843,1.03766592041236,1.03937480542039,1.04092299724189,1.05445498235454,1.05318991091822,1.05327355296561,1.05606953946205,1.05887486029404,1.06144422050046,1.063727159684,1.0666616355286,1.11605910717105,1.19210730357933,1.20189213434353,1.1952978609605,1.19410410032955,1.19394652364096,1.20216666440379,1.21037007244974,1.2091972998105,1.20880315066948,1.20911124978619
1.42480499568869,1.24187470792901,1.06426644481235,1.08688518845531,1.02498559835804,1.21791133909246,1.0517269310592,1.06477521227405,0.944148239113572,0.956613811969516,0.969365110440318,0.969112907444977,1.0228304011958,0.976096046104953,0.975168329808644,0.942925031985965,0.964176979048746,0.949916753915605,0.988542495153721,0.967473487023263,0.965071440672525,0.965261376096048,0.965137426838737,1.0064717834154,0.96557101183284,0.966379980326066,0.969004060876187,0.970382581211237,0.970738491235931,0.971951954963016,0.971851896037112,0.99075578128322,1.01517166932855,1.01574877654919,1.06767129527857,1.09293774402478,1.15236982178193,1.15380025045975,1.22791285886765,1.18462377038023,1.16506310967095,1.14501173392993,1.16153963788382,1.26887540481583,1.22009063636197,1.19841650345296,1.1928106180957,1.28796687498673,1.22746619855633,1.22531438101267,1.22303954287962,1.26144898560714,1.23911334891046,1.24560614610584,1.28062872261496,1.27955417100951,1.27944620890236,1.24810426943856,1.26071211010409,1.25768555381647,1.25484633843789,1.25317459374269,1.25270010072615,1.28865370748173,1.26653507259843,1.25517013061417,1.25685503326917,1.25703534801146,1.26248364520659,1.26737881672529,1.28458391213707,1.25466074776057,1.2554917111331,1.25557541412868,1.20781202269045,1.19910723810615,1.21307358813838,1.19609539570162,1.1981791608096,1.19836516782698,1.19982464600974,1.21532221145955,1.24412273625041,1.22878422199911,1.21631953846172,1.24382489277105,1.24606181408284,1.247422338974,1.23985946030266,1.24069175056729,1.26478404929598,1.29895056918145,1.22862128910359,1.17057240763993,1.15242109559272,1.14528535968027,1.14387585562499,1.182976889282,1.13784922581228,1.14639966973839,1.15727033824526,1.11627480535029,1.13017934482737,1.09176012534048,1.06166641277813,1.07222857463407,1.08645508463622,1.08654453601641,1.03155841906822,1.05676613263736,1.06441534297851,1.07409529499479,1.00564168527211,1.05500509499697,1.0255662119838,1.00841698654813,1.02612436629576,1.02551984850835,1.01218565735493,1.02700038076129,1.0296533055153,1.03050040878511,1.01732745795323,1.01671208391807,1.01632120978011,1.13853529072157,1.01653646854688,1.02649912523478,1.02711151171156,1.02825631667985,1.17633126891199,1.03949715610009,1.04134975709201,1.03721457669156,1.03649388745796,1.04526404390942,1.12994243584401,1.05815905000814,1.05925270457046,1.06102466805058,1.07041667284985,1.07476964697054,1.08377484576866,1.02570904892583,1.02689118145407,1.02980413003186,1.10355337534008,1.10308702364884,1.10291340529242,1.03269944889624,1.03524713157587,1.03911660846145,1.04058009519336,1.12459427089352,1.15244028323779,1.1530875701911,1.05320750123429,1.05637279109739,1.05878613165315,1.06029984868298,1.05968807627784,1.17649279276685,1.17706828160377,1.33905621282623,1.13525452281051,1.18921006501672,1.19396431748675,1.195611104939,1.23778522698719,1.17411056432597,1.15289762137868,1.21130858856706
1.26142772645852,1.20601569228359,1.12204340853477,1.10359275392842,1.11527501814698,1.12767095311737,1.09645357599514,1.00022065784562,0.942633891528143,0.941743768119915,0.94018529239772,0.939043451346595,0.939229982917084,0.93934708304948,0.940462183826861,0.942580640796323,0.956691820304064,0.952166811932862,0.972451246562631,0.971123072883037,0.970014777531736,0.971003268338775,0.978695958261752,0.990879930393912,0.98891342942587,0.984536713323044,0.987896804398245,0.989759512064283,0.992477182718496,0.994415598182689,0.995334124854398,0.996921443250458,1.0204428037024,1.06095653600107,1.09368751059367,1.12717046946352,1.16857500613528,1.18921836628897,1.20742422026733,1.19487780639393,1.18416439237745,1.16395814553738,1.16919761678241,1.20271758833412,1.22767248003449,1.23163854940883,1.23448072402773,1.25265216017836,1.24391319868472,1.24618112880735,1.24710284456905,1.26085847564043,1.26179778469022,1.27183543338472,1.28186160361089,1.28125398327788,1.28078011540007,1.27526980198921,1.27297066423923,1.27222753439715,1.27272599609428,1.27340001729033,1.2746496920922,1.27595684773321,1.27615007979301,1.27661936061368,1.27757215766474,1.27732018595848,1.2763984771659,1.27542854776385,1.27503383625494,1.26677863943432,1.26133365672654,1.258673477043,1.25338366890305,1.24267567971868,1.23133490231996,1.22369164850703,1.21520401170874,1.21459148090676,1.21383826279152,1.2154339344004,1.23859073016998,1.23477796294611,1.24117005431129,1.24431256379489,1.24371574359366,1.2428151588079,1.24162178879601,1.24135296489554,1.24115224413573,1.24038213508482,1.22738881522609,1.17705260026328,1.15842276160735,1.14782054925028,1.14911858700672,1.17259004983842,1.16795501489347,1.16555372132582,1.16332977122967,1.1444853156326,1.13529371343792,1.112918981956,1.09073333429187,1.07921605139492,1.08140360657288,1.08000751019677,1.0505327561049,1.05187415836181,1.05992599273048,1.06373045006196,1.05954584618908,1.05523183306291,1.03802002097885,1.01687952629912,1.02707760407624,1.02621373716383,1.02499965796129,1.02566962245092,1.02732678836277,1.0292288954907,1.0227989742399,1.02018104107401,1.01680267728647,1.01775569663058,1.01604368232324,1.02751598883675,1.0274848964305,1.02811902286239,1.03056368390802,1.03857148432719,1.04066606915098,1.03877045924796,1.03573288543044,1.0421095472146,1.04980540233303,1.05429917595298,1.05730438212855,1.0585398433808,1.06647495698847,1.06991451950909,1.07324657358685,1.02804191000869,1.02869276673151,1.0294800654962,1.0302598746301,1.03053141754284,1.03102927657422,1.03230159486612,1.03458099176604,1.03702267528486,1.03948967492836,1.04058652170542,1.04270030748287,1.05199169427652,1.05249646387977,1.05431229358131,1.05687399045522,1.0583003488359,1.05855094754253,1.1025628513475,1.12946181200645,1.16089096407335,1.16552787495217,1.1740180686848,1.17230412535012,1.16949265305595,1.16573370265472,1.16093456821687,1.15585459982236,1.16261338098995
1.24503777499025,1.1776729420932,1.14812472307208,1.03815351934582,1.23507008400697,1.13713837580836,1.18880757999308,0.952903091098437,0.939710219717287,0.942735792868745,0.930984666113795,0.940949510026918,0.942127440377856,0.942036141948513,0.94232077790114,0.944196121564052,0.961168638315122,0.950398842425115,0.97414464131692,0.971089198492026,0.970233965325281,0.971813721504407,0.984241355261364,0.993257710126239,0.991972262011682,0.979773460072305,0.993104128216359,0.988389758517289,0.999122169108094,0.996682237333626,0.9951189860014,1.00662357108415,1.02419633331751,1.13131291061314,1.11900982948147,1.1589207647224,1.2359971649788,1.30069397617075,1.23639801781667,1.23384137885291,1.23350846211601,1.15918286320446,1.17769137861706,1.18305708974069,1.23571144372949,1.23512396954619,1.23580033923231,1.26105216647594,1.2425677148598,1.2488129668206,1.24867046209489,1.27409820112167,1.26415313374059,1.27574551511854,1.30635218363637,1.31824821120613,1.29259026487182,1.36696501743719,1.27055823970967,1.27125647686348,1.27225296653974,1.27308817274356,1.28392715788943,1.27505010324813,1.27555228277888,1.27506314772601,1.3019527316899,1.30102927931317,1.27490082933219,1.27482364624499,1.27427078358554,1.31646083783286,1.28799519058955,1.30148924247013,1.26136141792469,1.27016382091569,1.30743678919094,1.2354619807505,1.21439724924655,1.21365341414587,1.21231847374543,1.21644963523356,1.24125012731734,1.23124792769282,1.24337296671871,1.24817579401874,1.24304371118372,1.23628716623151,1.24189077149056,1.24266903911465,1.2410405717845,1.23863159220767,1.22604720512606,1.18722540423653,1.17057176803885,1.1476457920551,1.14840583458882,1.17526623876924,1.24078700244073,1.17918434968653,1.17253045371281,1.19691228820226,1.14217553877366,1.13305262284841,1.10150645438423,1.07556175896618,1.08263100494151,1.07940835382286,1.04774568632244,1.04894784754072,1.04696849430226,1.06808995212114,1.06661559277443,1.0586216404684,1.06834453412858,1.01298193915543,1.09540058215977,1.04986308905688,1.04991602262287,1.04589684505701,1.0908709247665,1.04015481928087,1.11158824739526,1.04304660717715,1.0169165499668,1.01515458853741,1.01581794956806,1.02538970721574,1.02741777715085,1.02862186097456,1.02837192112169,1.03504657123609,1.0501199775157,1.04178208116801,1.03692758367096,1.01872232331571,1.01823751151262,1.05055121651172,1.05130242737414,1.05916820209065,1.05520046086287,1.01158335614237,1.07850180919719,1.01831025703763,1.01888657309232,1.06048016033672,1.02892626695872,1.02840441821729,1.02883620785128,1.03062632328813,1.03261917041486,1.03499072124928,1.03577305010303,1.03668658140616,1.04088292529392,1.04964084788551,1.05008856980062,1.05115688335341,1.0556290072962,1.05694678179669,1.05816154553185,1.06304718353773,1.06424412510563,1.15248796506123,1.17562221409818,1.17498798689525,1.08476678456167,1.13850676024424,1.08754366480333,1.1061109001909,1.0885800887081,1.08927128937453
1.19888874832517,1.16697057859486,1.15864151436939,1.0977565223947,1.16583674273471,1.15609545601925,1.15399157795965,0.950272771250268,0.947300325270774,0.944927287630018,0.94525687988339,0.944075435118845,0.943629440983772,0.944043103570261,0.945827417365556,0.946644100168027,0.955125734765358,0.972254141503355,0.981914905997567,0.983438293709812,0.984850968881923,0.987991288453518,0.99260881536994,0.998450653576202,1.00547428362774,1.01101054887106,1.01646592073356,1.02122562965213,1.02458680411236,1.0267501239023,1.02949155336401,1.04273016625036,1.04815625955947,1.10350549229405,1.10815570472211,1.18339506247334,1.22487456824534,1.2296797115663,1.23744738262147,1.23518429507523,1.22681849018805,1.20553609264074,1.20057710544966,1.22251391666894,1.23753916273751,1.23952255594037,1.24079435443407,1.24187270465218,1.24257943080534,1.25254281812974,1.25333284088153,1.27414430725594,1.27970578761611,1.28038353892051,1.28176485071492,1.28954790092847,1.28841215510181,1.2865802385823,1.27932289631725,1.27727991860592,1.27548708481302,1.27417019697391,1.2812597292533,1.28104163311322,1.28871654952099,1.29377628005378,1.3019556711872,1.30146060406005,1.29255492092912,1.2860095888063,1.2777988209708,1.27359426585978,1.26958016553633,1.26651212055293,1.26429043580085,1.27529310348975,1.27981823393548,1.26250354600298,1.24897502421572,1.24647177950449,1.24120944516431,1.23388760732802,1.23412763680215,1.23428482454611,1.24559714355908,1.24730483518705,1.24462156106221,1.24550390579359,1.24453714810318,1.2448363799785,1.23560526496429,1.23330638651425,1.2139237851439,1.18915480378425,1.17250284897654,1.1663118669078,1.17753083632229,1.18301997923566,1.1862296086738,1.18297303028924,1.17987012127255,1.17733846766216,1.14903873714862,1.1435105340511,1.10591628397207,1.09410390182994,1.08851974642342,1.08215249803769,1.07468077661356,1.069333824883,1.06412909311115,1.06058634158313,1.05737369754787,1.05557851708983,1.05389324484458,1.05124162163537,1.04967914646976,1.04854950219541,1.04772689667767,1.04674214869678,1.04620496594713,1.04373805118045,1.04387966941827,1.04423924651267,1.01528714586114,1.0150557795816,1.01544601720599,1.02772417699848,1.02985343164505,1.03125050040337,1.03092685388103,1.03038565349941,1.03054196902281,1.02991988461326,1.02774825750745,1.02545805656977,1.03752318183787,1.04288381771508,1.04887755266819,1.06391245146991,1.06444851614086,1.0662108538742,1.07119082052236,1.04964293964923,1.02107641632369,1.0227659176433,1.02403094431825,1.02621830223445,1.02786080586895,1.02942709982247,1.03159663684995,1.03480178071451,1.03634972337389,1.03677818003167,1.03796990619668,1.0491638977878,1.05058321896236,1.0514770208028,1.05401227964514,1.05599140651322,1.05655842101367,1.06054006869835,1.08965224539759,1.1501039183981,1.14925642041191,1.1480537315345,1.14600606310848,1.14288420005608,1.11019771463214,1.10838214428015,1.10367661723353,1.1014305414842
1.11505975133937,1.1338944941056,1.21472949042186,1.04026343481916,1.18838123092585,1.15722554802475,1.15354650334071,0.94494100660065,1.06233212708342,0.952028015786019,0.960255518919626,0.924896468642903,0.964824994504246,0.97686935652275,0.948885658322841,0.947831271129162,0.949426153989889,0.992881571344688,0.994902482337845,0.993955233772759,1.03664820197407,1.09159801618752,1.07759430780744,1.0767061668432,1.00827042099678,1.02191424278418,1.03243480678532,1.0330720077634,1.06651826165566,1.05069215265878,1.03266442430071,1.05070252044821,1.06253196771279,1.08921218520044,1.09838626234791,1.21965512891892,1.21733504345363,1.19839351587772,1.23725526411408,1.23528543509474,1.2153967818907,1.21313431629585,1.19371706964356,1.28308842913028,1.25728820709453,1.25679554175663,1.24488794626891,1.22585244157574,1.24378291230525,1.25356849773919,1.25817122555148,1.2763452964012,1.28401401970833,1.32859793831698,1.27819816172756,1.3020931418548,1.28073344207713,1.28227533083507,1.28419654244731,1.27947457196688,1.26330143316978,1.27337028932669,1.28139484162599,1.28047528135127,1.29431589216814,1.29564621421881,1.30280966405626,1.30239768348987,1.30135641214241,1.28858750740152,1.28323556501632,1.27037874017464,1.25930551094064,1.25119878943756,1.25051482383074,1.28676001025927,1.28583607808831,1.31114344970993,1.25528463802288,1.24704150220847,1.24264371522582,1.23577440542391,1.21918635186458,1.22586563662256,1.24663351546512,1.32246405455898,1.27053341085086,1.27194230481759,1.24489416459484,1.24466382074138,1.2297402099646,1.22522052960606,1.19593923207095,1.19147758084735,1.1771225060003,1.16057269262358,1.18937226291,1.18943359903695,1.19056471563313,1.18955049540884,1.20654240779639,1.17525561776621,1.15568713460265,1.17734474697203,1.11967831661632,1.10374514057667,1.09591331177417,1.08233974082202,1.09322619186655,1.09297349935431,1.09315624832709,1.05206704555988,1.04634453003039,1.04623365778917,1.01524995191125,1.07146672466931,1.00766922821909,1.00938016030631,1.01454676628588,1.02096651078072,1.02231370693814,1.02235896037137,1.02254584606921,1.04953538397148,1.01478807025248,1.01477271788219,1.0145300681148,1.03137317815729,1.03103552741907,1.03350986679176,1.03390754419225,1.02068721105293,1.02034186377668,1.0195191854548,1.0253834215611,1.02744032932618,1.04419465673916,0.995633829448439,0.996118935070102,1.06695712561198,1.13634221942519,1.08299928729136,1.0851867341734,1.08602225922764,1.01534221640653,1.01603678057285,1.01815793905302,1.0244638286442,1.02625735888877,1.02860424312216,1.02959189282974,1.03572479883777,1.03546132675227,1.03715188349568,1.0380285803184,1.04474567644307,1.04918748098007,1.04875822888882,1.05353715899256,1.05550383397984,1.05619272011555,1.05756862496794,1.10782961912346,1.15119721734163,1.11113334920876,1.11143217775117,1.17564112026101,1.17848743445191,1.11318452803906,1.11392252609679,1.17216555223881,1.18994693990993
1.12288162204799,1.1318674112114,1.13121934785009,1.06480290028325,1.04598644615002,1.01951528056096,0.993609435803219,0.951100060206504,0.946165615614685,0.941753257083257,0.937898265627402,0.937740932433716,0.938548634846002,0.941434596113852,0.942102254397926,0.945030930492077,0.971650306191637,0.992531575138239,0.992753191029868,0.992101566065877,1.03709424236844,1.08297995622557,1.08111944763714,1.06922816527853,1.05253692511195,1.05225821598003,1.05190440227182,1.05367109420398,1.0612426850785,1.07050937158777,1.07100690461655,1.08500075430501,1.09380625482585,1.12919578026902,1.15913949475995,1.22299127693776,1.22459010116897,1.22710812448103,1.23699277369794,1.235268913551,1.21913705359758,1.21563038640163,1.24699750895374,1.27270551939027,1.271823591857,1.27087075195969,1.2695906878119,1.26732238917728,1.26739224880952,1.26806571062866,1.26794229363809,1.27223002623784,1.27812525056605,1.30177015409933,1.2764121723342,1.27760775596823,1.27874355130911,1.28031558098804,1.28242399900471,1.2839326203689,1.28575821481502,1.28773931506605,1.28973011041025,1.29081930953173,1.29215442058101,1.29803001788683,1.30330151305816,1.30288955309658,1.30258245464963,1.28937270399964,1.28336696169198,1.2806249189651,1.27955689351331,1.26637728392094,1.26367358218149,1.28764833003442,1.28853179238776,1.28915245898727,1.27346368624815,1.2654509950102,1.25676099277023,1.24893342955695,1.24905628984852,1.2510680138795,1.2594137764103,1.2603364081571,1.26007772649898,1.26074941103148,1.24792559493776,1.245860930127,1.23928533775796,1.23501569091616,1.21471587195322,1.20464659071155,1.18022088548522,1.18071510186511,1.18950073873917,1.18962082527037,1.18907499495227,1.18863055101185,1.1883653846353,1.18571089174586,1.18493265252279,1.18200068703017,1.16830700173143,1.15390160405874,1.14360407029338,1.13317738170773,1.12272710035699,1.11036978003753,1.09947442131119,1.0818218334828,1.0440060398604,1.04045412190525,1.01657479364392,1.01737057611387,1.01809609854734,1.01819779437923,1.01533230204623,1.01868977434256,1.02079460294764,1.02146418887596,1.02191062532285,1.01603537230447,1.01461668416896,1.01424778061773,1.01429273814127,1.03163383813357,1.03192416164839,1.02975481659057,1.02913700319318,1.02427367311912,1.02160559848546,1.02532862734145,1.02800551473195,1.02813476043537,1.03420489672836,1.04664164526136,1.05382248911097,1.06930113824064,1.07741650414035,1.07912025328835,1.0856186018179,1.08442718791071,1.06772027161077,1.0549751341616,1.03832138308472,1.02444894707332,1.02612506921154,1.02801455559307,1.02926824843477,1.03365944025395,1.03488113766665,1.03554220681477,1.03597246995952,1.04293007405221,1.05155572165973,1.05142475917169,1.0535064357797,1.05591829198916,1.05728140560166,1.05824324049822,1.12451054520146,1.13442558719727,1.1293697166595,1.11725177641503,1.11851984906987,1.12084623038134,1.12119420076846,1.11923690611218,1.17416105607145,1.17492819245929
1.0190532925595,1.13106757444477,1.13107583049168,1.08796920078848,0.955997483446299,0.946145254717129,0.938984147055445,0.963329438149721,0.926500493029719,0.924782280732544,0.923503770135177,0.934264513334195,0.875538461514929,0.896919846498782,0.912579025320086,0.916692477203652,0.991766390675133,0.990954032950016,0.978687802041249,0.989416902646649,1.03777725552798,1.08666545441581,1.08423825193776,1.05477624708151,1.05441818197676,1.05421639554843,1.05148290763476,1.05742188477504,1.05663894297113,1.07245113384072,1.07676635487165,1.09532374663039,1.10897485753266,1.21055656306999,1.20991364137608,1.23857245084453,1.23832245114195,1.23889073144828,1.30493703655886,1.26649018681139,1.30627614093949,1.20836575580207,1.28291026625624,1.27344687854998,1.27286331613314,1.3504566631436,1.28259208465751,1.2636725430101,1.26502656295812,1.26688832587704,1.26675924157116,1.26677271427205,1.27292980421347,1.32992093355012,1.27624684926573,1.27622777550425,1.30191326463966,1.32687727153346,1.38091551239693,1.32007876423958,1.30948282476686,1.2991615025188,1.29261294705929,1.29208457195249,1.29153045661272,1.30722870775557,1.31199757812515,1.4342162298398,1.30304062119356,1.30830474678291,1.31387149098887,1.32865810052841,1.41803698937449,1.26674804172638,1.26040262667462,1.31512607125909,1.29032977849376,1.290879870749,1.28704890244746,1.27625562320083,1.27580875037796,1.24982468557854,1.25011073403142,1.2543742878254,1.2715512742467,1.2624235365326,1.26182981915688,1.26078118900998,1.25326041334646,1.25404258895129,1.25278407716249,1.2549092288322,1.22690512490676,1.2269971551828,1.17827720963435,1.18235142883382,1.18755059031255,1.20533050353208,1.18775424425999,1.18793105632841,1.18792781803033,1.23862446679495,1.24132521819193,1.18528790456121,1.17976603219863,1.1823977399984,1.18271170398222,1.16837241310982,1.14532698330896,1.15469715974041,1.16289759752864,1.10331906825448,1.03879693067901,1.03895103216672,1.01685117465414,1.01620861307013,1.01562438789556,1.01623861433782,1.0506228109355,1.04103564988905,1.05141400571722,1.04538912796752,1.01894152587313,1.01604283824833,1.01031925618662,1.01282124088289,1.01242238311727,1.03311073300268,1.03159043779223,1.01745468058559,1.01223314776585,1.0119379808166,1.00977883913763,1.02955342372085,1.02930472821892,1.02848034456247,1.02804377237266,1.06160508989232,1.07057851650003,1.07048356573396,1.07735102952043,1.02209958573369,1.08836520392766,1.09010265614808,1.09154841154225,1.05923407450058,1.09243893199412,1.02217268248583,1.0242894194031,1.02733250151416,1.02708093420068,1.03248500047752,1.03261372678977,1.03663917679953,1.0361489008628,1.04273471353124,1.04915868855968,1.05055323165538,1.05261130338076,1.05767704048977,1.05718053517348,1.05973536510772,1.14370033970044,1.14247008910565,1.13678088764239,1.11669128858959,1.11513832320068,1.12240142024747,1.12219551407381,1.1214286471925,1.17666366354218,1.17749425703171
1.11077451861976,1.10820426815043,1.10414591319729,0.98042236243184,0.947411710499041,0.942546867965942,0.938377489945678,0.936900943849409,0.923077593745421,0.917788185174324,0.911193255463694,0.90589567014089,0.897200763563772,0.897348005670894,0.914414401364315,0.930920755456359,0.965167900906081,0.975158746923976,0.982603065834553,0.986813369476753,1.02023085466864,1.04411076849493,1.06272117124263,1.0643246389571,1.07068964100381,1.07637616500072,1.0818635682122,1.08704264218759,1.09120537248728,1.09543471337091,1.09924680716802,1.10255968357479,1.11252846042279,1.18900191143918,1.21431117521519,1.23893504495559,1.23835086377809,1.23789278464445,1.2374610001367,1.23616393446782,1.22205779410744,1.21945671970378,1.25561041883388,1.26503543183798,1.26931764860041,1.32855191436342,1.31635270357911,1.30428359462564,1.29418907753564,1.28541510671966,1.27279182304763,1.26669910900436,1.27011484210896,1.29923095860807,1.3033054148592,1.31619582183702,1.32307365655402,1.33324942803609,1.33752153940378,1.33319703978075,1.32945062201638,1.32575874465019,1.32249363607245,1.31155553467248,1.31054037306151,1.3165644751679,1.32136398294089,1.40979830665753,1.39873229563668,1.38965336263976,1.38263140826254,1.37474535664489,1.36746410569825,1.33951452254258,1.33075916200031,1.32199126533462,1.28834790460943,1.2866260543659,1.28631388651382,1.27675257452856,1.27551734534988,1.27304059978025,1.27132474091048,1.27109083689254,1.27221884464469,1.26338449041046,1.2631514566764,1.26332732996125,1.25702767032955,1.25462679489831,1.24886788074878,1.24454368023574,1.22005746496746,1.21783825557034,1.19323832587296,1.19315477999869,1.19492051109809,1.20301895887591,1.20273088384339,1.20535649498324,1.21309045293954,1.2211719449593,1.21898609186353,1.20220360558878,1.18735651505705,1.18631707172751,1.18626784750946,1.17339476465346,1.16938554414849,1.16697158253505,1.16594724405705,1.12939216580478,1.04471441101341,1.03840034314894,1.02828288538971,1.02176413377766,1.02107439209853,1.01793036797067,1.02748028386146,1.03035702381173,1.0509267648956,1.04851594829629,1.03447729439548,1.01479154203001,1.01392930553932,1.01369635131951,1.01233700453228,1.01071345639717,1.01007650371045,1.01013387180184,1.01037455373346,1.00955433253709,1.00869051044195,1.01617206568123,1.018680614221,1.02305574776105,1.03757136309064,1.04460705151225,1.05202910500268,1.05672651671141,1.05797102555479,1.06303555381156,1.08844578429108,1.08861340935528,1.08917849043015,1.08866193230655,1.08944009837049,1.06530644606733,1.05071060237721,1.02749918668073,1.02785906128832,1.02850448029865,1.02943412588793,1.03846637064168,1.03853016706046,1.04055723562207,1.04942502212086,1.04923554929151,1.05579962065163,1.0592880170427,1.06127234236631,1.06202959526964,1.12714315124547,1.12418197947493,1.11940961005887,1.11844777032012,1.11935953629451,1.12094920330501,1.1206329792627,1.11784080438714,1.1152649418659,1.11403311097363
1.11326705747014,1.10611307120056,1.08445986755986,0.924289140883624,0.909340838289618,0.908061690179388,0.893722319836802,0.930365353244407,0.896298192539234,0.894729878535658,0.881459071271961,0.881512782893136,0.897662130272226,0.899703892640083,0.915200012769225,0.947454482897729,0.949025948278568,0.939529819111796,1.02841342768549,0.990137050233354,0.992481422978812,1.01629981283492,1.0598754160698,1.06567767053506,1.08175305107978,1.19471309685272,1.15665352285444,1.14318859808378,1.14561433929267,1.13566871718434,1.1232814305408,1.10888540982268,1.12219403642779,1.16516018200194,1.21860307217856,1.23960899679511,1.22019442679379,1.30363334078853,1.2355353180414,1.23132115709796,1.20952421530347,1.21052486279912,1.23647461383146,1.26354495099961,1.26406523831505,1.33441044632147,1.36280837006838,1.34906374426309,1.34190899113314,1.30299302786806,1.27974987509986,1.26606885511743,1.26606307349556,1.29191713182118,1.30905748705913,1.33196471477367,1.39995293985127,1.34130743338614,1.34800728416681,1.34454189390915,1.34169657108978,1.34058792482692,1.32711698213675,1.31266662979146,1.31068543066211,1.3188523465282,1.33790676430912,1.43379869341307,1.43457994356362,1.4325866362276,1.44078516631805,1.44020687975195,1.35877432562274,1.35837190397669,1.34035898429295,1.3360276128657,1.28271980819185,1.28410624422084,1.28270122222502,1.27975468421255,1.27778666563699,1.30208947098921,1.28909471942024,1.28900711590919,1.28663481362137,1.26539369002033,1.28212391719532,1.26492925536418,1.27889142477066,1.26611667097081,1.24557602435069,1.23375126391102,1.21625416003371,1.2115706361182,1.19208750462749,1.19089069697989,1.19530947124378,1.20105457245687,1.20022616281644,1.21482835182772,1.31534496719586,1.22322051977658,1.21754412178853,1.21521154579898,1.1899310297389,1.18963232322934,1.22987199459596,1.32489957451967,1.26028993262949,1.25695332123689,1.2623459971632,1.16408505101358,1.05927176981571,1.03876688661991,1.0376116176475,1.02159627162042,1.02235759895132,1.01697094345196,1.01662102675739,1.02578316928706,1.06817476112033,1.06531155929285,1.06511848300407,1.00605069575954,1.01297593958543,1.01397892604574,0.998186485791152,1.00106499480185,0.997722074977865,1.01024128117935,1.01018142152539,1.00910198450617,1.00841836417453,1.00858156748841,1.00991844097706,1.0204653847325,1.05837010015695,0.987741709210805,0.987082660301314,1.00129898421918,0.980165783499376,1.08910699155104,1.08918218288811,1.0876959574313,1.08882680056613,1.08909742301844,1.09000389927961,1.09825814284534,1.08369488750832,1.02693951153059,1.02561663581377,1.02722946205526,1.02780900078945,1.03700037762467,1.04182544539629,1.04025460171337,1.04761978268347,1.04709319618315,1.06139046979357,1.06325997044935,1.06432115406633,1.06469443816972,1.13117169403645,1.12516029954397,1.10312339909305,1.11832752972845,1.15383692040018,1.14757623709959,1.10669715353762,1.10821942681386,1.10800432364615,1.10844340404262
1.11170990659184,1.10767375435048,1.1015894249227,0.955058051248318,0.905892285719203,0.901423367250491,0.892943560203807,0.894067199096082,0.894711303805878,0.89273427978278,0.889757021131667,0.898964019820045,0.905158554115787,0.907683775083848,0.917194438371728,0.951811924011326,0.955193001884845,0.959696534647213,0.979140359357159,0.980482265032045,0.98424985345716,1.00172552904378,1.04931833986971,1.05557555443245,1.10839042875292,1.18201520354026,1.16907934557116,1.17117762908094,1.17170704473799,1.17092051948371,1.16963068665141,1.16814909433154,1.16595243394058,1.18574436461624,1.20022630174559,1.20896118147499,1.22076576327751,1.22297024401781,1.22413039268671,1.22877324716766,1.22856071455223,1.23972941275674,1.26497711736224,1.28948799483297,1.31205772134796,1.34639143731757,1.35564091836521,1.3541076588139,1.33586181240633,1.31439904986112,1.30674583729692,1.30505222717016,1.31333807808861,1.31667969051372,1.31851882364541,1.3571340373767,1.38320189985336,1.37379952543669,1.36592077303664,1.35493515525123,1.34555149643918,1.3387194337676,1.3383172198261,1.33844989591513,1.33818484487603,1.33665823695981,1.37223306834953,1.42560224619528,1.43263529580009,1.43078199661878,1.42393357466336,1.4163430778262,1.36420653243751,1.36188521829695,1.34618082011282,1.34303072416755,1.28993554451949,1.28699474354698,1.28381549392548,1.2822110207544,1.28235265878679,1.29484462270657,1.2906590937079,1.28852271520032,1.28700229221965,1.28497766230874,1.28233451175513,1.27981738480282,1.27844491779791,1.27426781580271,1.24683235815186,1.23651918935791,1.2257142556668,1.22146735619157,1.19110811366467,1.19103712301224,1.19775850669801,1.20444414647583,1.21839818129072,1.2237772291498,1.23050194402932,1.22566912592068,1.22280956324155,1.21901098556093,1.21643846707275,1.21956407296216,1.24208803407569,1.2547468725853,1.25432046642452,1.25108436091761,1.2455661143464,1.14317966860002,1.08671488518333,1.0704955973403,1.05709164036596,1.04362593021564,1.0328081094984,1.01537272086462,1.01469980062167,1.01326485654811,1.01045933998542,1.008743588882,1.00768664457079,1.00793309267874,1.01076212804218,1.00849345979156,1.00357236587183,1.00301647923909,1.00413727296981,1.01080273472461,1.01041552307149,1.00921049006387,1.00715999535726,1.007368592603,1.0090156004567,1.01325262780063,1.04267082209946,1.0319345777398,1.02223911599624,1.00237950843547,1.00265475562382,1.02494190355411,1.04064797906956,1.05373483859079,1.06468641723592,1.05567576149499,1.04822596722505,1.04339678840674,1.03773501485431,1.0265935887249,1.02575205402642,1.02639090434439,1.02780622628263,1.0361296678671,1.04251387316613,1.04190210457347,1.04918941114252,1.04881757598663,1.06490197164461,1.06502188822906,1.06557311556394,1.08842376346149,1.12614001033678,1.12645431008698,1.12584168878078,1.12192117605516,1.13141693996544,1.12309306325247,1.10840537001201,1.10901122526293,1.10868280725957,1.10878485542426
1.12672338021098,1.16861919404513,1.20792537670585,0.976987516662856,0.89040866761627,0.892938462875878,0.894060845188856,0.894953923517796,0.935298151057009,0.892311256567406,0.888136168090806,0.906014839264578,0.952049547573696,0.984269375609651,0.921962995583974,0.981514903235987,0.960432562505672,0.967338199960054,0.96915992876262,0.970877785498796,0.968385364783384,0.99038182300068,1.03522051386112,1.04707455868769,1.13600930688146,1.20267848628972,1.16628641551339,1.23687710414336,1.18021472348513,1.17522996847064,1.17059106944312,1.17169833285852,1.16417767196327,1.26850678823831,1.178772104196,1.18901347309464,1.21904016904504,1.21802511022349,1.21744063247793,1.22667407787169,1.22859759986355,1.25153426101996,1.30519393426386,1.30488476092321,1.35339603870641,1.35310711618875,1.35885485421735,1.35814029869683,1.33039792463931,1.32186725200141,1.31052436457905,1.29848292868928,1.31873098134159,1.31783102720559,1.3321106746684,1.40446434328368,1.43946537080489,1.39054950409049,1.37504130178188,1.37936029782768,1.39783718297736,1.3373924696686,1.33728412262122,1.33816812538878,1.4048333626387,1.33428318215775,1.40109133667129,1.41077206168223,1.44048729839601,1.42837178252065,1.4012099417793,1.41122583508456,1.36860901348424,1.3667713672516,1.35213576062651,1.35326660141816,1.29120996125792,1.28969996725677,1.28332340561513,1.2819374531086,1.28124917903996,1.30488862763885,1.33374009355238,1.31666718876864,1.32373940690333,1.34796262449453,1.38477311198829,1.39284405390119,1.29826377394266,1.28316153718851,1.24853101505906,1.23925669334572,1.23328256079286,1.23441743467951,1.19045626695208,1.19067656593382,1.20605485155009,1.21385727750051,1.24298199666119,1.24325449632206,1.24413077095352,1.23049482630366,1.22721230064579,1.23019798227694,1.20803179445098,1.22575259430088,1.27595575925054,1.25793418564978,1.23804171359535,1.24501864148482,1.23805045941116,1.12706560177612,1.10519545420969,1.08612491162285,1.07644694061299,1.0558598372463,1.04025951728346,1.01478736704991,1.01366329729558,1.01350241081924,1.00757059762335,1.00705209492594,1.00562683314627,1.00256095638524,1.04385022288442,1.00546845563229,1.00440813412317,1.00379444653628,1.00405913180354,1.0110208148547,1.01088160538599,1.01060865285949,1.00429501616104,1.00580450303636,1.0050926970784,1.00578565854169,1.05590367636811,1.06209971311907,1.05284504992666,1.0040371174045,1.00526348095103,1.00623505208231,1.00561493245577,0.994936181986371,1.07444409624254,1.03661653710149,1.02833263400815,1.0110022628459,1.01747321113599,1.02161876172987,1.0232809164842,1.02505303156229,1.02897409321192,1.03704592098711,1.04193677563104,1.04321929474711,1.04937888799044,1.0501629078835,1.16298358101359,1.07954452484127,1.06789010668562,1.10539873384627,1.3420493307186,1.11285735572949,1.12636553493205,1.10521367042797,1.28803838352568,1.10024587892009,1.1086496753069,1.10861230447942,1.10753858485716,1.10704248738354
1.04095973655051,1.01795161673477,0.994806221017807,0.979158834485885,0.89897304465345,0.897759950273077,0.897070447270971,0.896568314706362,0.893748046419327,0.892681169806861,0.891536820275354,0.923743107008239,0.968206766719837,0.982597221727812,0.981483230712176,0.981107241700318,0.981026205100813,0.981961078194058,0.983237912977632,0.985146123130624,0.985179379485664,1.00399850012106,1.02751083987251,1.05206853963269,1.12892054763387,1.1767484226807,1.18350147972289,1.18801663890426,1.18333356685642,1.18819580632515,1.19192381968558,1.19551241746064,1.1997815779184,1.20146740058455,1.20329190181895,1.21350715877303,1.21681303147926,1.21619574482677,1.22791871743325,1.23294545809124,1.23751096050433,1.25673391039085,1.30161017241302,1.3200688063177,1.34273147607398,1.34589229554209,1.35907291569912,1.35841895765627,1.34545070782237,1.33758790685614,1.33290476016756,1.32847333973505,1.31730707755057,1.31645524219768,1.32287900726803,1.36345479026614,1.38493231447397,1.38658140956204,1.38442397199762,1.38354026644573,1.38316187212314,1.36177609907807,1.34036918041157,1.34453584308717,1.34802408631558,1.35217185765717,1.41524014261315,1.41897730549519,1.42703136752231,1.42685452406493,1.41400811797315,1.41357572336584,1.39171781105293,1.37907580309478,1.35416126940464,1.34693654045712,1.29365722754374,1.28847191640514,1.28767370937374,1.3012149410475,1.31188988930559,1.31913152703947,1.33530959138683,1.33699261102635,1.33805609989572,1.36078897076373,1.38146674388587,1.37750702234626,1.35320464742472,1.33536358369085,1.31416798854603,1.29317489301561,1.27349157245719,1.2575806875143,1.24693057084457,1.23193377526388,1.23143409714914,1.23138935038969,1.24431497508159,1.24425776045573,1.24511706433008,1.23631934567954,1.23483496763341,1.23236090763833,1.21322536869058,1.21775911969138,1.2685298020591,1.26421566439498,1.25660334404991,1.250371402887,1.24688235903763,1.11309160467545,1.1031794366319,1.07773082235507,1.07254818163094,1.05550721729171,1.05023400930804,1.03271517758304,1.01457528630332,1.01432537560419,1.00808396477017,1.00848165468547,1.00935117785669,1.01165162721688,1.02470816090011,1.01583202323903,1.00556655820992,1.00563324558543,1.00684728821711,1.00963832064642,1.01053806150999,1.01128017425618,1.00400352086863,1.00402911946853,1.00446911180041,1.00543977003856,1.00598059501107,1.01030600310382,1.01788387128893,1.00537629446725,1.00533037601486,1.00522816950533,1.00501571714401,1.01140621284332,1.01910254335971,1.02312861781162,1.0215139971168,1.01461752588379,1.01620680638023,1.0184219474659,1.01872881197805,1.02977042968894,1.0297378956637,1.03591168287201,1.04369952944264,1.04345476046962,1.05172380174251,1.05317195297484,1.07870564353542,1.08814302096544,1.09660973323488,1.10573467862945,1.13047314316648,1.12230893477972,1.11676981732161,1.11206959557691,1.12953071721399,1.1043238781353,1.10652440741495,1.10752138139201,1.107091011806,1.10758065487817
0.975295405397309,0.9604696303106,0.96068061129467,0.98160355837309,0.899953290973107,0.898668018561619,0.898312483742375,0.898359470977262,0.891862152117149,0.892974125431871,0.89108025035275,0.940033250619809,0.992448975610121,0.99721546177954,1.02018316548763,1.0186935414258,0.99004018553919,1.02796840409553,0.984152963766722,0.984931484834349,0.983455241431282,1.01932861264074,1.01970184137947,1.05774965586015,1.12169626543404,1.16844974171818,1.19062457516435,1.1925566576709,1.17700212913327,1.19704036105916,1.21075309940931,1.25654409884154,1.21988100711522,1.19745428102281,1.20906735455743,1.21929222258422,1.21435064208324,1.21484966910267,1.23985795336996,1.24137932054997,1.24847802079647,1.27034845291801,1.29819386146245,1.33793626166739,1.33052614978185,1.33872523504465,1.35898290883476,1.35877436572984,1.39379508126083,1.38967511367109,1.39454302299167,1.39625156273211,1.3185721387193,1.31359834503896,1.31978077544332,1.32525020848728,1.38245435858533,1.41504917932885,1.38462284757524,1.38326842640123,1.3835244198014,1.37379192078333,1.33493322978614,1.35404926497759,1.34337548826184,1.35946130700687,1.42091231127087,1.42587324282307,1.42569672937633,1.4257892881785,1.41504422541546,1.41435293696099,1.41653636196465,1.39492103806794,1.35596131924062,1.34135113284952,1.30048244697974,1.28674846641875,1.28666243041611,1.31122914440053,1.32237006577926,1.34361459896729,1.34194318265478,1.33970386359817,1.33849047825028,1.38769441380179,1.38435292540005,1.3753520468477,1.41170284728766,1.42105388888772,1.43267802977426,1.3183473480308,1.30159924037287,1.27650647598111,1.27121381502807,1.23295439828314,1.24508996726182,1.23390926370851,1.24447525311577,1.24879689250842,1.2528423024623,1.2452121664357,1.2466584928035,1.23303767232236,1.20957791236558,1.20986738925994,1.27564050119598,1.27599152857678,1.28067588880765,1.27755471023715,1.30429891432827,1.10139296334239,1.10119941174631,1.06820360481906,1.07060665010435,1.05666308076931,1.06555742981294,1.04298632144791,1.01750298858285,1.01617472288846,1.00771780812595,1.05065663133212,1.03099802249436,1.01472924058224,1.09560737307398,1.05902479481982,1.00573195013775,1.00588904440297,1.08067546138328,1.07460649395108,1.07837574131074,1.01902104936695,1.00495710210328,1.00312044325425,1.00357154782224,1.00215436553784,1.00161935254875,1.00216262045958,1.03040377029619,1.00621513541212,1.00503653816308,1.00530280188968,0.99831583716736,1.02167512087939,1.00863061660639,1.08936033885651,1.01016866088891,1.01056292511533,1.01648631643633,1.01761998060358,1.01791971781494,1.03070345344195,1.03116034387484,1.03280515029839,1.11434780886324,1.04404848837943,1.12345322809942,1.05941599085709,1.06129907550689,1.08915181343443,1.13373497863142,1.10574410945237,1.13921694224783,1.12979717800597,1.11063072172715,1.10235213015242,1.15574449052684,1.09516997830394,1.1039370408299,1.10528486293438,1.1041492221008,1.16033565321867
0.968105691030048,0.96565587117482,0.963601433783097,0.951140899280218,0.917723912002486,0.898304012805183,0.897859374222381,0.898007470761258,0.89755148270929,0.896853504439358,0.898136260152414,0.959818136657354,0.993015850694472,1.00438068981862,1.01299671662389,1.01607816360819,1.01862268087143,1.02134701454653,1.02010132670325,1.01927727130649,1.01853030497946,1.03153856119805,1.04112125304792,1.06291585570341,1.15150814887139,1.16543113306615,1.19233415221729,1.19313785689687,1.19425869737622,1.19739174106764,1.20902828791401,1.20497916420321,1.20027140603738,1.19781106534269,1.2117056472573,1.21873510319178,1.21706067858378,1.21643927530476,1.22694665249432,1.24179424222827,1.2463430684037,1.27071471976263,1.28138560786486,1.33581170698234,1.33495914125243,1.33686704821985,1.36794520775222,1.37066389884439,1.37458544483607,1.37800306310213,1.38083225635349,1.38387496803969,1.31812346019862,1.31948226212224,1.32029864237696,1.32492178414729,1.38131260969042,1.40223431030755,1.3927819219669,1.3869034179395,1.38543657499303,1.38075529344787,1.36794319009693,1.37195218323474,1.39405216659372,1.40843081507714,1.42290338684962,1.4247646140143,1.42527547610567,1.42594143058619,1.41650459231259,1.41665056891705,1.39230171373833,1.37450949010738,1.36278701986541,1.35642700057957,1.32974365242543,1.33007203603078,1.33005001853074,1.32966364856737,1.32857594138143,1.3372680564922,1.34275529631535,1.34056973930825,1.33810295792068,1.36522034061922,1.38889317707949,1.39680858737595,1.42131650994604,1.42433973290742,1.42869489595322,1.36547141408583,1.30911842797795,1.28225853377806,1.28065076824036,1.2781672152386,1.27446247387795,1.27149905992156,1.26919186080422,1.26858690095767,1.26807963108702,1.26678101275481,1.26384028388369,1.26019737043518,1.25767830289851,1.25944149773108,1.26897464730624,1.27516566174032,1.27649463109711,1.27516215920243,1.27374751375656,1.12158611973653,1.11486901138324,1.09111198620649,1.0771470494876,1.07456447614048,1.0713389175744,1.06810392311247,1.06495066340289,1.0613493780641,1.05897516879861,1.05578274139175,1.03939912442462,1.03229571305014,1.04975894535019,1.0299650716742,1.00663132119284,1.00679064895694,1.07415637984055,1.07053587858169,1.06484458013327,1.01968068838861,1.01186205890952,1.00742551105184,1.00729044185967,1.00254584093015,1.00138546304417,1.00199545171802,1.00425223881938,1.00589520860912,1.00572811753475,1.00448439086959,1.00140751670352,1.00302216276314,1.00534692241057,1.02514596554862,1.01054525078362,1.01194917696575,1.01578799404536,1.01754413463647,1.01764305438412,1.0320405348183,1.03285644360052,1.03440666097736,1.04587591036071,1.0452965948036,1.06911623609137,1.08352787466503,1.09135716959998,1.09207654392537,1.10610790949268,1.10549997205364,1.11290963799907,1.11811115821759,1.11413177167583,1.12569108038103,1.13317037012533,1.12744917458327,1.11465591028374,1.11576435050822,1.11584370215644,1.13989932807194
0.93665338869584,0.993743996570084,0.993516308228086,0.928340293801629,0.940081186384758,0.897602404049333,0.897834038103666,0.905582183964533,0.896998416936016,0.896820139295172,0.897006765272319,0.991882020372211,0.992732270943562,1.00967226303273,1.01101855037655,1.01335871638802,1.02135344045108,1.0210973482769,1.06339383436207,1.03940194658226,1.01792356946262,1.04098056663699,1.05680541901777,1.07362546172146,1.21133375620624,1.16206987153217,1.32653669829094,1.31133979108319,1.3108826507265,1.24388779525142,1.22346900107393,1.20611530014602,1.19567191278148,1.19545341069096,1.21538442164811,1.21767835417769,1.21649742688195,1.21759894136697,1.21916286198455,1.24222989024032,1.24330367380405,1.27135573663125,1.26943501648736,1.3584268852465,1.33434812874705,1.31577200465014,1.37249245135615,1.38851816385539,1.37276978911784,1.37171938489452,1.36866511151619,1.38732239939525,1.31775591125159,1.31847674921263,1.32464500420592,1.32469104075769,1.37989188429317,1.48508652880888,1.51109653558724,1.49968915419373,1.50195146111155,1.39148001287642,1.3641546991248,1.3793416229965,1.4390102669486,1.438736061982,1.42854439196339,1.61489045270915,1.46978320829489,1.46995941979168,1.48088969455195,1.4879013248027,1.36190556824086,1.35086552395283,1.3685713535204,1.36833472629632,1.32973890559363,1.33053028412138,1.34207918693337,1.33540452414566,1.32844391674363,1.32962554209745,1.42182121186076,1.38252423745668,1.33558561384511,1.33459613795849,1.39362501645798,1.42203537961194,1.44013441318194,1.42779292129478,1.52454862707492,1.40561930842678,1.31328367444275,1.285044292956,1.30267608894284,1.27898234251952,1.27730380555526,1.27862150946386,1.29057866670229,1.2744383329153,1.27162259510467,1.34932327497475,1.35902884576475,1.34811400015844,1.25508482121583,1.26236978518635,1.2160142369735,1.29805011084978,1.2755234807977,1.27444977002659,1.27416615424927,1.13648934603079,1.13041849861967,1.10274889280863,1.08170164744721,1.09153316732263,1.0906028543043,1.08249784135771,1.09207772511564,1.08533493527684,1.07178376844498,1.09579806644945,1.06614882391879,1.00535587129369,1.08395858418206,0.990967574629459,0.990318412194285,0.990140499406961,1.07848576264546,1.06532316580748,1.05302237788281,1.01649439377981,1.0167667690897,1.0215443103153,1.08287052060074,0.998237093651839,0.999248483720447,1.01388041296535,1.00427128623588,1.00605183799506,1.00518596339408,1.0049513569091,0.996185610605782,0.996627663804398,0.995999406675087,1.05001362564011,1.01003774207484,1.01099245721486,1.01615644646637,1.01783086566823,1.01641463445471,1.03310191493656,1.03245829705212,1.03753339390748,1.04439005832542,1.0450675073744,1.04647603486256,1.10255936524326,1.17266423465442,1.10364715861671,1.10198573860076,1.10255390990469,1.10325218325297,1.36373820001075,1.08532396900434,1.37896445139115,1.23041413899806,1.41050454353626,1.11255573622727,1.11469881221568,1.11549692299377,1.16623030216989
0.952993763197283,0.96799947526548,0.980863373502031,0.933244498567133,0.937190650030722,0.925748914768028,0.913284423341582,0.916370582173272,0.928794862815293,0.936344362603339,0.946246859989617,1.0023691927258,1.00755823194896,1.01362442469133,1.01705985597236,1.02138675159491,1.0269928984074,1.03161681721209,1.04412199750677,1.04580859630603,1.04810284656127,1.05104851941914,1.05633072194505,1.10570601107984,1.20043382544281,1.19055385967643,1.27065469865911,1.27465583069665,1.28258941337466,1.25587447566405,1.24431608102239,1.22398635341304,1.20629246307702,1.20670273115902,1.21836150362145,1.21919542829215,1.22042215788271,1.23525931915166,1.24705474086522,1.2570051873272,1.26891538290134,1.28177080607715,1.28926719799845,1.3216524916824,1.32690999657576,1.3421084631567,1.35978178946869,1.36064978511348,1.36015051274252,1.36103029281627,1.36367157101887,1.36442388515175,1.35874683071922,1.35710968325368,1.35621626255088,1.35577254389687,1.36167403754799,1.50424128660609,1.50612754807912,1.50222407832424,1.50435296805846,1.51022513473208,1.51201514415083,1.5108826285736,1.50915104981917,1.50913468024019,1.50937195938864,1.50231893581549,1.47049596804004,1.47015399842751,1.46907077527908,1.46667893798748,1.36413123968607,1.35206539998883,1.34959953509135,1.34900909023002,1.33417601153836,1.3367947574373,1.3426192811727,1.34324988403493,1.34388931587854,1.34677156121572,1.35491819097924,1.35520931429428,1.34537966534728,1.34415605394917,1.37193126205308,1.42000309907372,1.41699279018762,1.41269464186682,1.41163533192117,1.40741836959906,1.31830346141624,1.3000161460605,1.30286594497813,1.28797732986844,1.28612460978442,1.2789039537044,1.27464359171594,1.27484210863865,1.31228128633006,1.34450035179934,1.35436588378805,1.34272455725994,1.28835145208713,1.26815985847887,1.22310951053497,1.22094044625471,1.22081187748552,1.2121005227408,1.2006301383918,1.15568950648603,1.14522438029532,1.13344678917827,1.12764850119873,1.1193461114731,1.11108389256296,1.1026162269895,1.0950691155054,1.08994786681179,1.0844106129469,1.0786191911645,1.06532890622509,1.00425733986196,0.991422250742951,0.992936611939758,0.99147262379679,0.989894718788105,1.01976519060314,1.03391946979225,1.04294414971127,1.01818218357082,1.01859884206117,1.02114076773716,1.00922326819061,0.999817823550929,1.00011543589024,1.00052165738342,1.006420198515,1.00754817094321,1.00448820926411,1.00429528090871,1.00014028933204,0.997520944487046,0.996878837508986,1.00370167237483,1.01311032883232,1.01363919494646,1.01871494228244,1.01981949610752,1.02247200833216,1.03548536955531,1.03694255814589,1.0374088654193,1.04547684113411,1.04535562954208,1.04590481136245,1.10179867719697,1.10314058117682,1.10323589376822,1.10243474846357,1.10170809967158,1.13036295708262,1.23953108524365,1.20272787884776,1.19908308071147,1.18028039619678,1.1514167656627,1.11336472645411,1.11447235707883,1.11566455873443,1.11700157698848
0.948426544442105,0.916117037809204,0.994087220974574,0.918954009047231,0.946735330224655,0.965395032890586,0.913881592048851,0.920220799841852,0.933583776197604,0.945754217734607,0.957142518523707,1.00818056606858,1.04242597422655,1.06187545569733,1.05180038935187,1.05766061938942,1.07479673124796,1.03904531247831,1.03729728578099,1.06170971746154,1.07705757823616,1.07823112753326,1.05761005991905,1.13018524564261,1.21742339235379,1.17693340191045,1.26457763913012,1.27092862728292,1.29255924614648,1.27451935750274,1.27500640035345,1.23629900877237,1.20727098721382,1.20724196581441,1.21987828641914,1.21958931843263,1.22165142364609,1.24635032372481,1.26276533393844,1.27074666448693,1.27998484997477,1.29726089409483,1.3019465783407,1.31925735390344,1.31805772300133,1.36468379936261,1.35437660097817,1.35279642612853,1.3520902330257,1.36178221566909,1.38777404440058,1.34826085929213,1.36244191570903,1.37216348041697,1.35612478112127,1.35496212458933,1.34686041048264,1.55256553507388,1.51983549625703,1.52061536946548,1.52005364448512,1.52137666347302,1.52097472199558,1.65492003793058,1.65432680735731,1.60135883002161,1.64026763810407,1.64136274689851,1.44096692999979,1.44052332521679,1.44086286489464,1.46360966926105,1.36572618916775,1.3561192538279,1.34926433909399,1.34949196086361,1.33061138267103,1.35787953004205,1.3452608945556,1.34476567338357,1.3449805577047,1.38436590582272,1.3542594398933,1.35439076958267,1.39156953855028,1.33373521704066,1.32018140238966,1.42115635155549,1.41827820174902,1.41136012210719,1.40852616465673,1.40870410054666,1.33204535441969,1.29480203122625,1.3252077034741,1.32186847890097,1.32825734098709,1.27306660560846,1.27258876533438,1.27767731004983,1.34562014890413,1.34396730026778,1.36650228193575,1.32460879215781,1.32375105738008,1.2724953585206,1.23531300267976,1.19944439400123,1.21805926013727,1.20073886860111,1.16864017938866,1.16832045349054,1.20098222675587,1.14151631343356,1.1309846928744,1.12397221399342,1.14701292107487,1.12343809791083,1.12389818713865,1.09956437449771,1.09803185993852,1.06558541311039,1.06396938674173,1.00301343198463,0.985271204463539,0.985172262641183,1.04325078415298,0.98804350850858,0.9891496009112,1.02599537319646,1.09005261215244,1.00084899965508,1.04944199809513,1.04133968574548,0.994881144326317,0.993793969188778,0.993563683574682,0.991233194102958,1.08202563468244,1.01320135253997,1.01534759856356,1.00507026785372,1.14841347860059,0.996065875167726,0.996162302515289,0.999367588410032,1.03366009684976,1.01496141669647,1.25845774994074,1.02246834783805,1.02338661200134,1.10754065989867,1.170695578466,1.03884791138653,1.04511704101584,1.04488880720964,1.04601272035336,1.09895478325753,1.10442936111261,1.10319493002186,1.24827395843307,1.09968398246938,1.1544696973225,1.3694457971929,1.20591208752459,1.19216069105125,1.16450228387529,1.09145471568246,1.09115029347455,1.09401891445828,1.08989684677464,1.09001907324171
0.940419048665447,0.923554781436742,0.934701746127867,0.935612094478497,0.940835105933004,0.942794482202342,0.948583112798878,0.9521437036362,0.955933415312157,0.96024827435717,0.964089115174783,1.00747924139635,1.05496472598438,1.06477152034958,1.06580372086846,1.06826761985274,1.07564705355232,1.07400785557148,1.0722529192336,1.07213931795702,1.07436629298879,1.08469214061525,1.09459318294416,1.16574493030762,1.20777178036445,1.20029277214,1.2359339631373,1.27275008248553,1.2740871118762,1.27425710455981,1.27447305555514,1.25149168944516,1.2199902687781,1.22006147130838,1.22046246189288,1.222908713757,1.2457178438762,1.25976151442247,1.27138041284516,1.28091074675572,1.29133937307644,1.30044697944768,1.30323609774509,1.30655635276065,1.31154074756215,1.33107104396964,1.3430334718166,1.35608348553393,1.35870471603752,1.36231958471547,1.36172037325,1.36112848245596,1.36092873081553,1.36068116715792,1.35969212147976,1.36213883074109,1.36357535994963,1.44289688153079,1.52261866351628,1.52409363996125,1.52648780030603,1.52849559065394,1.53126410782913,1.60142193254873,1.60420313511974,1.60717031603409,1.61245780054631,1.61467883512844,1.44069475541202,1.44024976297302,1.44083429084779,1.44000866370285,1.36783128299589,1.36857570527302,1.36908782383795,1.37080944766988,1.37135888243734,1.37111111606949,1.37044173362135,1.36969775880981,1.36941220453262,1.37516426754243,1.37055781927562,1.36985204728688,1.36969092535109,1.36790424167625,1.36837149357177,1.36951320821239,1.3705812631969,1.37165704924673,1.37222166162911,1.35005310398243,1.31477082692021,1.31080336348537,1.30828092112543,1.30755783818214,1.29693873066821,1.27392798530876,1.27800379913796,1.28022492985645,1.34762014685447,1.3470183938136,1.34762881408813,1.34209403300854,1.29184476618862,1.27013688880523,1.21755126405988,1.19368033464522,1.18809713942372,1.18666438879924,1.16899996723518,1.16868404368764,1.17545356603858,1.1500405450147,1.14999948340856,1.15007309004236,1.14923810675625,1.13288752709335,1.13128808854271,1.1008695979581,1.10078325233523,1.06062607132326,1.04528863333202,1.00720058346335,0.984517770810543,0.984885127701445,0.987132603810475,0.988443418507982,0.98824797451504,1.01702152602258,1.04343972009847,1.00097827934512,0.998855102172691,0.997777264220788,0.996084194569987,0.994631541722863,0.99236467661973,0.99222493893034,0.997143919510634,0.998732489077223,1.00102497576286,1.00500790815242,1.00676784572064,1.00405349428394,1.00359571425253,1.00177219578145,1.00743286807081,1.01681456552144,1.0203040002372,1.02098775341198,1.02164873791071,1.1059584354369,1.10514582057687,1.06563945843107,1.0498732211257,1.0480365456548,1.07733067554748,1.10050749222445,1.10173331716909,1.10216188186048,1.10219352421998,1.10134144702291,1.12780723251702,1.15112720074518,1.17476601024725,1.15399717942469,1.13311306674291,1.09523339113798,1.09652419842764,1.09942506566367,1.10162698375204,1.1015539751849
0.91523552960031,0.915609277833501,0.934034361020024,0.934201702012565,0.934430905533431,0.935063246426568,0.953642807671728,0.988420844997098,0.96865287790771,0.968864165799912,0.96915564615689,1.00698113023995,1.0601758738285,1.10405368007375,1.09705542841305,1.09707586268618,1.11220143977176,1.0873137343637,1.088316199044,1.08128029448344,1.07477312020634,1.09108615021804,1.10775041554218,1.21467476248634,1.37925207833576,1.19259153392848,1.1921468309434,1.40802376113898,1.27523552733353,1.27445518568123,1.27449547469368,1.29248127098882,1.21844408876505,1.21844365630794,1.22073671742646,1.22759179605872,1.29117756868068,1.27703710396181,1.28448041917831,1.29201077149399,1.30400433678183,1.31568233603625,1.33608475373653,1.30143577053406,1.30130318985068,1.30323178030424,1.32831673681472,1.39980945612738,1.36056286038245,1.3614370068176,1.36056260921932,1.35985891731864,1.41287913826492,1.36108844567262,1.34995214787576,1.37536781721124,1.36535095758294,1.40902406990747,1.53783227259028,1.53217023593308,1.53628679110004,1.53570144735225,1.53437365132833,1.58681880073796,1.60912511623503,1.66307701563338,1.61660387824657,1.61684272114533,1.4327719324369,1.45049291563142,1.45993347670872,1.42581919838923,1.36899029147673,1.36862127333477,1.36708713197431,1.38154368039999,1.40608062481108,1.39937198567684,1.37463381092104,1.37263843786646,1.37060791066593,1.37892730221436,1.51231549358689,1.38277653240673,1.35100927589425,1.36466464059928,1.36587792038396,1.33425404519362,1.33217179044128,1.35098388819666,1.37145051204545,1.29463530363161,1.31271448700333,1.31247576904639,1.30630944265752,1.30703695968264,1.28637292587674,1.27264048510256,1.28046797025299,1.28219013591199,1.34956979817231,1.34946029906267,1.34967145148607,1.35885897077785,1.26671558132449,1.26714657735017,1.20707039916679,1.19113723295431,1.16330711955601,1.17947012887749,1.162915174535,1.15516761469621,1.18434434028407,1.14923963168819,1.1486340711507,1.15571282041887,1.15758626577041,1.22543458181591,1.13720087798411,1.10292873194343,1.10193229392362,1.05539505208657,1.02337875275167,1.01305712043097,0.983905373851982,0.98379313432606,0.982609333329702,1.00792174366541,0.986906296051337,1.00807971171875,1.09081642393366,0.99515348599029,0.99600654303869,0.995773564432442,0.988558900847442,0.987751691398044,0.991378104604171,0.991220746062557,0.997267463481062,0.99740741245903,0.999692601027881,1.00653850564261,1.00703221508447,1.00393642640878,1.0020475466058,1.00265894647167,1.00511248355533,1.01492136795681,1.01800692564938,1.02015447020612,1.0195925050371,1.3349035988134,1.10499938533947,1.08378912615313,1.05928827183948,1.04445458279384,1.10051278335318,1.10033690428015,1.10054953187392,1.1009654575417,1.08694804743455,1.08668662041914,1.08524757273547,1.08997268111939,1.21795661549312,1.08204419674767,1.08242000177014,1.08445865488563,1.17347309287,1.102792224114,1.10354141654939,1.18262310933464
