1.93016, 1.93088, 1.92788, 1.97854, 1.97552, 1.97848, 2.04087, 2.04341, 1.92537, 1.92441, 1.9728, 2.01993, 2.02097, 2.04154, 1.91938, 1.91888, 1.91725, 2.03889, 2.03727, 1.91029, 2.04362, 1.91307, 1.90942, 2.12122, 2.00107, 2.03416, 1.90437, 1.90424, 1.95344, 1.90371, 1.89955, 1.90167, 1.99933, 1.90101, 1.95118, 1.89966, 1.89974, 2.02403, 1.94664, 1.89742, 2.0964, 1.89899, 2.01311, 2.01506, 1.89315, 1.89312, 1.94839, 1.89428, 1.89481, 1.94394, 1.8956, 2.01149, 1.89332, 1.89659, 1.89599, 1.8985, 2.03437, 2.03689, 2.03427, 2.0325, 2.03042, 2.06507, 2.03027, 2.06082, 2.0602, 2.14675, 2.06151, 2.06172, 1.94502, 2.01983, 2.14777, 2.01213, 2.01402, 1.93673, 2.05866, 2.00908, 2.0132, 2.01321, 2.00758, 2.00625, 1.92789, 1.92762, 1.99955, 2.00305, 2.00369, 2.05679, 1.92154, 1.9999, 1.92124, 1.99624, 1.99657, 1.9963, 1.99637, 2.05436, 1.92054, 1.92313, 1.99608, 2.05025, 1.99913, 2.13626, 2.00061, 2.04776, 1.92703, 1.92694, 2.00996, 2.0107, 1.93893, 2.13288, 2.04355, 2.02177, 2.14471, 2.10675, 2.1133, 2.10116, 2.09315, 2.10066, 2.12102, 2.11428, 2.08676, 2.08355, 2.08323, 2.00731, 2.00824, 2.00717, 2.00681, 2.0072, 2.00553, 2.09302, 2.0829, 2.08049, 2.07866, 2.0897, 2.10318, 2.10338, 2.09775, 2.00391, 2.0046, 2.00356, 2.00376, 2.0915, 2.09831, 2.09836, 2.09026, 2.08425, 2.08687, 2.08843, 2.07775, 2.08356, 2.08544, 2.09257, 2.07934, 2.09654, 2.07594, 2.07461, 2.07322, 1.99759, 2.09353, 2.09648, 1.99618, 2.0951, 1.99763, 1.99579, 2.07939, 2.09759, 2.08067, 1.99621, 2.08864, 2.08008, 2.07899, 2.08937, 1.98934, 2.09027, 2.07566, 1.98609, 2.0761, 2.07615, 2.06095, 2.07179, 1.98244, 1.9823, 1.9809, 1.97977, 1.98049, 1.97988, 1.97887, 1.97995, 2.08363, 2.05619, 2.05632, 2.05464, 2.01326, 1.89577, 1.89655, 2.00798, 1.89042, 1.88868, 1.88619, 1.94152, 1.88511, 1.88094, 1.87925, 1.98091, 1.87675, 1.87681, 1.87551, 1.87524, 2.10105, 2.01344, 1.87056, 1.87159, 2.00715, 1.87138, 1.95934, 1.95878, 1.91988, 1.86946, 1.99054, 1.86939, 1.87011, 1.98732, 1.97365, 1.9715, 1.96628, 1.87208, 1.87109, 1.8719, 1.87054, 2.07212, 1.99825, 1.86967, 1.87031, 1.99341, 1.99675, 1.86612, 1.99321, 1.86944, 1.96569, 2.08321, 1.80265, 1.80161, 1.84872, 1.84732, 1.79135, 1.79105, 1.7895, 1.79018, 1.78852, 1.78659, 1.78472, 1.78511, 1.78408, 1.89915, 1.89868, 1.77969, 1.77928, 1.89388, 1.77886, 1.89879, 1.82796, 1.82733, 1.82687, 1.77736, 2.01662, 1.77296, 1.89306, 1.7763, 1.77385, 1.77404, 1.90384, 1.77565, 1.86624, 1.7733, 1.82408, 1.77307, 1.77138, 1.77201, 1.90708, 1.90667, 1.77198, 1.77301, 1.77227, 1.9026, 1.87197, 1.76963, 1.89905, 1.77368, 1.77287, 1.86031, 1.82284, 1.87307, 1.89804, 1.7728, 2.09223, 1.77301, 1.87201, 1.77463, 1.82272, 1.77477, 1.77582, 1.77291
1.9828, 1.93124, 2.03713, 1.93078, 2.03403, 1.92693, 1.97647, 1.92719, 1.92196, 2.03767, 1.92372, 1.97573, 1.92094, 1.92021, 1.91915, 2.03988, 2.23498, 1.9183, 1.91329, 2.04174, 1.91259, 1.91325, 1.91098, 2.03326, 1.99957, 2.11436, 2.0349, 1.90291, 1.95486, 1.906, 2.02545, 1.99491, 1.95154, 1.95173, 2.08366, 1.97409, 1.89978, 1.89919, 1.89919, 2.09482, 1.89636, 1.89681, 1.8966, 1.8948, 1.94452, 1.95471, 1.95466, 1.94468, 1.89597, 1.89601, 1.89579, 1.8951, 2.20095, 1.89646, 2.07224, 2.07239, 2.04184, 2.04121, 2.06593, 1.95881, 1.95633, 1.95473, 2.06398, 2.02857, 2.0266, 2.1408, 2.02346, 2.02241, 2.06217, 2.01928, 2.01694, 2.01744, 2.0177, 2.13547, 2.01176, 2.00952, 2.00981, 2.00717, 2.00662, 2.00768, 2.00379, 2.00495, 2.14392, 2.05723, 2.05527, 2.0555, 2.05533, 1.92252, 2.05367, 1.99632, 1.92192, 2.05294, 1.99527, 2.00119, 1.99665, 1.99415, 2.13483, 1.99883, 2.05125, 2.00097, 2.00093, 2.0007, 2.00178, 2.04823, 2.04451, 2.04187, 2.04169, 2.04565, 2.04267, 2.0246, 2.04344, 2.04448, 2.0975, 2.08993, 2.01266, 2.08938, 2.09847, 2.10162, 2.09843, 2.08461, 2.00816, 2.00962, 2.00654, 2.00635, 2.00773, 2.00699, 2.00616, 2.08458, 2.0863, 2.07931, 2.09296, 2.09552, 2.00521, 2.00542, 2.09369, 2.00464, 2.1022, 2.08415, 2.08586, 2.00309, 2.08992, 2.10006, 2.09848, 2.10944, 2.09929, 2.09385, 2.08649, 2.09176, 2.09154, 2.09278, 2.00023, 2.08707, 2.09163, 2.09764, 2.10839, 2.08176, 2.08451, 2.09672, 2.08597, 1.996, 1.9961, 2.07819, 2.07695, 2.06925, 2.09743, 2.07665, 2.06769, 2.07189, 2.07604, 1.98992, 2.07959, 2.07988, 2.08201, 2.08311, 2.08218, 1.98565, 1.984, 2.0591, 1.98208, 1.98319, 1.98, 1.98074, 1.98078, 1.98048, 1.97995, 1.97882, 2.0789, 2.05489, 2.05611, 1.95215, 1.89678, 1.89444, 1.89454, 2.11316, 1.89088, 2.10171, 1.88873, 2.01191, 2.0069, 1.88233, 2.10075, 2.10423, 1.87703, 1.8752, 1.87519, 2.00664, 1.87359, 1.8739, 1.86967, 1.86979, 1.92068, 1.92091, 1.96575, 1.95904, 1.8696, 1.87122, 1.86974, 1.87166, 1.87103, 1.96985, 1.96581, 1.86771, 1.87128, 2.09002, 1.86717, 1.87195, 1.86881, 1.86863, 2.09436, 1.86856, 1.86973, 1.86848, 1.86733, 1.86875, 1.86823, 1.9939, 1.91816, 1.89794, 1.7999, 1.85044, 1.79767, 1.79519, 1.79268, 1.79035, 1.91032, 1.90948, 1.78887, 1.78533, 1.78333, 1.78279, 1.78322, 1.78184, 1.77862, 1.77865, 1.77696, 1.77838, 1.85498, 1.7805, 1.82761, 1.82604, 1.89956, 1.89518, 1.77412, 1.77513, 1.887, 1.77512, 1.77532, 2.0224, 1.77309, 1.77207, 1.90079, 1.77367, 1.7759, 1.77519, 1.77378, 1.90488, 1.88282, 1.76945, 1.77178, 1.77129, 1.82338, 1.82242, 1.77129, 1.76867, 1.77567, 1.84223, 1.77269, 1.89426, 1.76822, 1.90389, 1.90027, 1.89814, 1.77163, 1.76896, 1.7735, 1.77509, 1.77238, 1.89681, 1.90153, 1.77387
1.9373, 1.9316, 1.9321, 1.9803, 1.98678, 1.98975, 2.04448, 1.9278, 1.92243, 1.92548, 1.92219, 1.97633, 1.92315, 1.92353, 2.04492, 2.11442, 1.91831, 2.10147, 1.91725, 1.91393, 2.04482, 2.03985, 2.00599, 2.03772, 1.90926, 2.03448, 1.95704, 1.95591, 1.95533, 1.9032, 1.90395, 1.90323, 1.90483, 1.95364, 1.95308, 1.95199, 1.89972, 1.89984, 2.01367, 2.02877, 1.89607, 2.0174, 2.01657, 2.09135, 1.94439, 1.94517, 1.94587, 1.94498, 1.89666, 1.89628, 1.89439, 2.07867, 1.89722, 1.89741, 2.17913, 2.1916, 2.03888, 2.03753, 2.03795, 2.03366, 2.03271, 2.03227, 2.06598, 2.06601, 2.02537, 2.14783, 2.14832, 2.02227, 1.94547, 2.01837, 2.0177, 2.01562, 2.06492, 1.94033, 2.01101, 2.01078, 2.01104, 2.01147, 1.93175, 2.00663, 2.0035, 2.00385, 1.92845, 2.00258, 2.00001, 1.99969, 1.9236, 1.9221, 1.99923, 1.9997, 1.99716, 1.998, 2.05356, 2.00007, 1.99752, 2.0001, 2.05275, 1.99935, 2.05137, 2.00031, 2.00079, 2.00147, 2.13573, 2.00568, 2.00716, 2.01008, 1.93814, 2.01458, 2.02052, 2.02057, 2.0412, 2.12098, 2.10777, 2.0997, 2.10146, 2.0965, 2.01156, 2.01093, 2.10699, 2.0099, 2.08659, 2.08844, 2.00599, 2.00634, 2.00766, 2.007, 2.08526, 2.00689, 2.00631, 2.08073, 2.09044, 2.09389, 2.10695, 2.10059, 2.09405, 2.09202, 2.0942, 2.095, 2.09385, 2.09244, 2.09072, 2.08967, 2.09484, 2.09293, 2.09303, 2.09397, 2.09066, 2.09063, 2.09673, 2.08757, 2.09087, 2.08518, 2.08993, 2.09113, 2.09502, 2.08618, 2.09327, 2.0823, 2.09192, 2.07688, 2.0901, 2.07676, 2.08312, 2.07477, 2.07213, 2.07764, 2.08605, 2.08632, 2.07718, 2.08683, 2.08043, 2.07696, 2.0777, 1.987, 2.07929, 2.09084, 1.98271, 2.07563, 1.98208, 1.98261, 1.98033, 1.98019, 1.97952, 1.9787, 1.97772, 1.97879, 1.9781, 1.98018, 2.07565, 2.00553, 2.00422, 1.89668, 1.99702, 2.00773, 1.88883, 2.01667, 1.88656, 1.88399, 1.8826, 1.88319, 1.87998, 1.87912, 2.01111, 1.87617, 1.87611, 1.87469, 1.87233, 1.92343, 1.87139, 1.87153, 1.92193, 1.87177, 1.86843, 2.00415, 1.86875, 1.87105, 1.87012, 1.87096, 1.86993, 1.86917, 1.86743, 2.0032, 2.00293, 2.0015, 1.86898, 1.96261, 1.865, 1.8689, 1.86802, 1.86555, 1.86582, 1.86956, 1.86905, 1.869, 1.86871, 1.86953, 1.86896, 1.92464, 1.80013, 1.80002, 1.79728, 1.79501, 1.79344, 1.84078, 1.90457, 1.78837, 1.78896, 1.9012, 1.78389, 1.7837, 1.78271, 1.77936, 1.89836, 1.88961, 1.89048, 1.90679, 1.77621, 1.7759, 1.77584, 1.77608, 1.77297, 1.89518, 1.77539, 1.89337, 1.77443, 1.77328, 1.77482, 1.9028, 1.89972, 1.77183, 1.77377, 1.76998, 1.77262, 1.90301, 1.77271, 1.77315, 1.7723, 1.90334, 1.90433, 1.90652, 1.906, 1.90333, 1.90113, 1.76965, 2.08638, 1.82288, 1.821, 1.90327, 1.90025, 1.90195, 1.7723, 1.90097, 1.76987, 1.89983, 1.82224, 1.88502, 1.82329, 1.77183, 1.88201, 1.77497
2.03806, 1.93106, 1.93072, 2.03535, 1.93129, 1.92975, 2.05149, 1.92749, 1.92797, 1.92744, 1.92343, 1.92335, 1.9223, 1.92307, 1.91915, 1.91808, 1.91911, 1.96911, 1.9152, 1.91588, 1.91455, 1.91449, 1.91336, 2.03787, 2.11111, 1.91119, 1.90533, 1.90728, 1.95615, 2.12184, 2.03194, 1.90379, 1.90457, 1.90135, 1.90099, 2.02726, 1.89985, 1.90015, 1.89932, 2.09631, 1.89788, 1.89833, 1.8983, 1.89817, 1.89838, 1.89766, 1.99649, 2.00855, 2.08609, 1.89633, 1.89504, 1.89991, 1.89974, 2.07769, 1.89947, 1.90167, 2.06924, 2.03805, 2.03923, 2.14528, 2.03223, 2.13928, 2.03192, 2.14792, 2.14452, 2.02522, 1.94879, 1.94745, 2.02187, 2.02238, 2.02271, 2.06333, 2.01589, 2.01519, 2.01462, 1.93709, 2.05975, 2.011, 1.93221, 2.00637, 2.00618, 2.00432, 1.92829, 2.062, 2.0589, 1.92551, 1.92462, 2.05893, 1.99774, 1.92267, 1.99957, 1.99915, 2.15574, 2.15197, 2.05605, 2.05547, 1.99938, 2.00391, 1.92401, 2.00207, 2.00372, 2.00532, 2.00484, 2.00878, 1.93351, 2.0455, 2.12761, 2.1206, 2.0212, 2.04269, 2.13536, 2.11485, 2.10906, 2.0942, 2.09302, 2.10769, 2.10705, 2.09754, 2.10256, 2.01133, 2.01088, 2.00777, 2.00763, 2.00858, 2.00858, 2.00582, 2.00847, 2.00635, 2.10762, 2.09695, 2.00638, 2.00648, 2.00784, 2.007, 2.09518, 2.0876, 2.00643, 2.09051, 2.00621, 2.00418, 2.00309, 2.09013, 2.09361, 2.08712, 2.09952, 2.09657, 2.08759, 2.00267, 2.08734, 2.09637, 2.09404, 2.07802, 2.07757, 2.10049, 2.09494, 2.08763, 2.09413, 2.09592, 2.07974, 2.08528, 2.08942, 1.99416, 2.07788, 2.07787, 2.08413, 2.0774, 2.07453, 1.99147, 1.9917, 2.08716, 1.98941, 2.07867, 2.06255, 1.98547, 2.07603, 2.08591, 1.98392, 2.08185, 2.06635, 2.05977, 1.98131, 1.98026, 1.9785, 1.98041, 2.05555, 1.97914, 2.05902, 2.07324, 2.07896, 2.00575, 2.00915, 2.00881, 1.8925, 1.89431, 1.994, 1.88698, 1.88572, 1.88495, 1.93472, 1.93272, 1.8815, 2.09068, 2.0981, 1.87502, 1.87585, 1.97207, 1.87068, 1.92451, 1.87564, 1.8717, 1.87233, 1.87211, 2.00475, 2.10186, 2.09779, 1.87011, 1.86723, 1.86881, 1.87013, 1.86858, 1.86803, 1.86846, 2.00291, 2.07642, 2.08716, 1.86765, 1.86844, 1.99955, 1.99713, 1.86791, 1.86805, 1.86797, 1.9938, 1.86809, 1.86556, 1.86862, 1.92069, 1.85197, 2.00424, 1.79651, 1.8464, 1.79401, 1.896, 1.90688, 1.89717, 1.78586, 1.78507, 1.78179, 1.78299, 1.78324, 1.898, 1.90695, 1.8928, 1.90637, 1.77924, 1.77877, 1.77367, 1.90052, 1.77572, 1.77542, 1.7743, 1.77497, 1.89979, 1.77568, 1.77273, 1.771, 1.77555, 1.77329, 1.77304, 1.96856, 1.77495, 1.82661, 1.76969, 1.90366, 1.76992, 1.9037, 1.77179, 1.90402, 1.77019, 1.98727, 1.77171, 1.90284, 1.90404, 1.90414, 1.77139, 1.77015, 1.77247, 1.7713, 1.90051, 1.77251, 1.77165, 1.77018, 1.90115, 1.89808, 1.89723, 1.77048, 1.77159, 1.77183, 1.77523, 1.77487
2.0378, 1.98336, 1.93318, 1.98314, 1.93212, 1.93167, 1.93186, 1.92814, 1.92642, 1.92847, 1.92508, 1.92646, 1.92153, 1.92213, 1.92099, 1.97211, 1.9201, 1.91805, 1.91479, 2.02495, 2.02419, 1.96294, 1.9643, 1.90893, 1.90969, 2.03434, 2.03451, 1.95773, 1.95614, 1.90339, 2.00101, 2.00311, 2.0245, 1.90294, 1.90303, 1.95356, 1.90184, 2.09938, 2.09966, 1.89807, 1.94729, 1.89754, 1.89693, 1.89653, 2.09013, 2.09019, 1.90014, 2.00911, 1.89662, 1.99285, 2.08071, 2.0828, 1.9957, 1.89931, 1.89964, 1.90172, 2.16961, 2.03765, 1.96323, 2.03505, 2.03407, 2.0656, 2.06595, 2.14697, 2.14645, 2.14952, 1.9487, 2.02478, 2.0239, 2.06461, 1.94433, 2.01924, 2.01658, 2.0137, 2.06532, 2.0625, 2.15193, 1.93359, 2.06208, 2.00762, 2.00497, 2.06166, 2.00014, 2.00344, 2.00003, 2.00421, 1.92497, 2.00038, 1.9237, 2.05576, 2.05641, 2.05531, 1.99961, 1.99894, 1.99807, 1.99828, 1.99721, 2.005, 2.00144, 2.00165, 2.00308, 2.00695, 2.00754, 2.0074, 2.01334, 2.04675, 2.01671, 2.04529, 2.02033, 2.02066, 2.14864, 2.13221, 2.01642, 2.10835, 2.1181, 2.01559, 2.10693, 2.10074, 2.01199, 2.01067, 2.00848, 2.00838, 2.01074, 2.00907, 2.00745, 2.00648, 2.00873, 2.00744, 2.00664, 2.09915, 2.11042, 2.10082, 2.0063, 2.08813, 2.0052, 2.10126, 2.09308, 2.10413, 2.09863, 2.00345, 2.09423, 2.003, 2.0979, 2.08442, 2.07543, 2.09082, 2.10376, 2.0779, 2.09494, 1.99907, 2.08702, 2.081, 2.07938, 2.09076, 1.9979, 1.99759, 1.9972, 2.0803, 2.08625, 1.99576, 2.06962, 1.99385, 2.09106, 2.09303, 1.99346, 2.08597, 2.07721, 2.08408, 2.08319, 2.08203, 1.98936, 1.98759, 2.08186, 2.07995, 2.0792, 2.08737, 2.05919, 2.05851, 2.08002, 1.98014, 1.97968, 1.97964, 2.05949, 1.97915, 1.9802, 1.97833, 1.97858, 1.97882, 2.06347, 1.90352, 1.89897, 1.89519, 1.89454, 1.94283, 1.88973, 1.88953, 1.88716, 1.93576, 1.93502, 1.88165, 1.93144, 1.87968, 2.00992, 1.87574, 1.92671, 1.87278, 1.87154, 1.87495, 2.08363, 1.87044, 1.86977, 1.92072, 1.99224, 1.87002, 1.86973, 1.86856, 1.96281, 1.8689, 2.0904, 2.00101, 1.86624, 1.86624, 2.00016, 1.8682, 1.86675, 1.86627, 1.86955, 1.86821, 1.86834, 1.86664, 1.86772, 2.0895, 1.97236, 1.86677, 1.86533, 1.86544, 1.92049, 1.87214, 1.79625, 1.89553, 1.84491, 1.79202, 1.89679, 1.9086, 1.78649, 1.89545, 1.89398, 1.78264, 1.84018, 1.83535, 1.78061, 1.78155, 1.90677, 1.90644, 1.82739, 1.77541, 1.77544, 1.90094, 1.9022, 2.00969, 1.77555, 2.10334, 1.77545, 1.77372, 1.89825, 1.89947, 1.77247, 1.89834, 1.77218, 1.77169, 1.77298, 1.77175, 1.77301, 1.77189, 1.9059, 1.8824, 1.77113, 1.90097, 1.90047, 1.90344, 1.90518, 1.9031, 1.90272, 1.77235, 1.76958, 1.76937, 1.77032, 1.76985, 1.76912, 1.90284, 1.90214, 1.90121, 1.77001, 1.76869, 1.77247, 1.9005, 1.77316, 1.7733, 1.89926, 1.89742
2.03768, 1.93516, 2.05402, 1.9325, 1.9326, 1.93238, 1.93415, 1.92889, 1.92685, 1.92763, 2.04985, 1.9273, 1.97419, 1.92217, 1.97086, 1.97149, 1.96951, 1.97056, 1.96653, 1.96658, 1.96583, 1.96475, 1.96494, 1.9093, 1.96137, 1.90815, 2.00734, 1.95827, 1.99122, 1.9558, 1.90416, 1.9551, 1.95511, 1.95429, 1.95403, 2.01019, 1.90249, 1.90085, 1.89806, 2.02071, 1.898, 1.89994, 2.01878, 1.89769, 1.99455, 2.00718, 1.89988, 1.89617, 1.89719, 1.89667, 1.90035, 2.08296, 2.00552, 1.90006, 1.90129, 1.90382, 2.14931, 2.03894, 2.03762, 2.06901, 2.03499, 2.03519, 2.03387, 2.14214, 2.02828, 2.06645, 2.02837, 2.02495, 2.02482, 2.02321, 2.01797, 2.06334, 1.94111, 2.01526, 2.15555, 2.01132, 2.06185, 2.06251, 2.00824, 2.00893, 2.06057, 2.14509, 2.00452, 2.00444, 2.05883, 2.00356, 2.134, 2.05856, 1.92441, 2.13249, 1.92365, 1.99587, 1.99871, 1.99861, 1.99856, 2.00046, 1.99954, 2.00146, 1.92662, 1.92786, 2.00121, 2.15811, 1.92896, 2.1411, 2.1396, 2.0132, 2.01648, 2.01757, 2.13057, 2.03056, 2.04495, 2.10907, 2.10212, 2.09726, 2.11092, 2.10599, 2.10193, 2.10208, 2.09466, 2.01039, 2.00964, 2.00873, 2.00961, 2.00853, 2.00825, 2.00842, 2.00845, 2.00871, 2.00782, 2.10728, 2.00637, 2.10319, 2.00632, 2.09597, 2.0071, 2.09267, 2.00656, 2.00613, 2.09346, 2.0051, 2.0047, 2.08709, 2.08683, 2.08287, 2.09059, 2.00149, 2.0845, 2.08467, 2.08766, 2.09465, 1.99897, 2.08353, 2.07497, 2.08054, 2.08556, 2.07863, 2.09115, 2.08719, 2.0726, 2.0894, 2.0883, 2.09896, 2.08613, 2.09017, 2.07802, 2.09125, 2.08081, 2.07678, 2.07241, 2.09083, 2.08053, 2.06399, 2.06338, 2.08285, 2.0872, 2.08107, 2.07849, 2.05978, 2.06701, 1.98084, 2.05852, 1.98065, 1.98, 1.9784, 1.97889, 1.97882, 2.05883, 2.06928, 2.07118, 2.07357, 1.89964, 1.89717, 1.89504, 2.01054, 1.8892, 1.88938, 1.88718, 1.93613, 1.88361, 1.99643, 1.87864, 1.87647, 1.92882, 1.92778, 1.87562, 1.87599, 1.87494, 2.0029, 1.87223, 1.86966, 1.92348, 1.92061, 1.87205, 1.92987, 1.86898, 1.86901, 2.09076, 2.09756, 1.86805, 1.86917, 1.8682, 1.86655, 1.86577, 2.00048, 1.96321, 1.86754, 1.86609, 1.91741, 1.91714, 1.86841, 1.86746, 1.86625, 1.99882, 2.08758, 2.08628, 2.06525, 1.86668, 1.8008, 1.79744, 1.88606, 1.7946, 1.79241, 1.79017, 1.95273, 1.78654, 1.7852, 1.8351, 1.78122, 1.88731, 1.88529, 1.90485, 1.90358, 1.90309, 1.89946, 1.77818, 1.90246, 1.77365, 1.77468, 1.90369, 1.77453, 1.77407, 1.89955, 1.89722, 1.77501, 1.8904, 1.77328, 1.89878, 1.77377, 1.89941, 1.77552, 1.77253, 1.77155, 1.90043, 1.86904, 1.76916, 1.76848, 1.7696, 1.77082, 1.77095, 1.7712, 1.77045, 1.76659, 1.77046, 1.76997, 1.89641, 1.76826, 1.76929, 1.772, 1.76952, 1.77171, 1.76997, 1.76958, 1.77163, 1.77042, 1.8934, 1.88565, 1.88339, 2.06581, 1.77343, 1.77519
2.05869, 1.93545, 2.03933, 1.9359, 2.03847, 2.05996, 1.93163, 1.93054, 1.93132, 1.92697, 1.92751, 1.97666, 1.97541, 1.92315, 1.92467, 1.92136, 1.92093, 1.91908, 2.22132, 1.9143, 1.96528, 1.96339, 1.91406, 1.91213, 1.91172, 1.91018, 1.90899, 1.9087, 2.01299, 1.904, 1.90436, 1.90452, 1.95313, 2.01332, 1.95472, 1.95134, 1.90373, 2.09999, 1.90016, 2.02375, 1.90068, 1.9022, 1.90023, 1.90026, 1.90011, 1.89999, 1.89827, 2.08901, 1.89927, 1.89919, 2.0069, 2.00084, 2.07923, 2.0762, 2.07715, 1.90302, 2.14926, 2.07234, 2.03765, 2.03814, 2.07282, 2.03489, 1.95636, 2.06818, 2.02836, 2.06719, 2.03054, 1.94773, 2.06639, 2.02341, 2.14523, 1.94409, 2.0638, 2.01835, 2.01511, 2.06164, 2.15313, 2.06282, 2.01353, 2.00988, 2.06277, 2.00717, 2.00585, 2.0073, 1.92766, 1.92682, 2.00078, 2.00024, 1.92411, 1.92393, 2.0018, 1.92464, 1.99984, 1.99895, 1.99992, 1.92142, 2.00174, 2.00025, 2.05122, 2.00345, 2.00383, 2.00469, 1.93122, 2.00772, 1.93704, 2.04913, 1.94107, 1.94263, 2.13401, 2.13385, 2.14925, 2.10625, 2.01714, 2.11847, 2.11091, 2.10813, 2.1042, 2.10602, 2.01332, 2.01285, 2.01078, 2.01075, 2.0107, 2.00959, 2.00889, 2.0069, 2.00725, 2.00794, 2.08324, 2.0922, 2.09719, 2.09688, 2.007, 2.09297, 2.09583, 2.00643, 2.08114, 2.10716, 2.10389, 2.08459, 2.10764, 2.00462, 2.11042, 2.08073, 2.07962, 2.0819, 2.10136, 2.10085, 2.00037, 2.0006, 2.09601, 2.11005, 2.09427, 1.99899, 2.1064, 1.9971, 1.99646, 1.99468, 1.99623, 2.08702, 2.09585, 2.10122, 2.08463, 2.0832, 2.08283, 1.99276, 2.08664, 1.98924, 1.98923, 2.07731, 2.08313, 2.08225, 2.08281, 2.08376, 2.06221, 2.07744, 2.08247, 1.9841, 2.07703, 1.98322, 1.98259, 1.98215, 1.98012, 1.98082, 1.97986, 1.9782, 2.05892, 2.05593, 2.07057, 1.90077, 1.89771, 1.89627, 1.8933, 2.00953, 1.88964, 1.88953, 1.93827, 1.88559, 1.88411, 1.88382, 1.93125, 1.93021, 1.87664, 1.87694, 1.87818, 1.9245, 1.87508, 1.8741, 2.00446, 2.00542, 1.86982, 1.86838, 1.87228, 1.86997, 1.86679, 1.86859, 2.00796, 1.86696, 1.86901, 1.86608, 1.86858, 1.8666, 1.86569, 2.10386, 2.10454, 1.86843, 1.91613, 1.86444, 1.91647, 1.91652, 1.91598, 1.91552, 1.86593, 1.86604, 1.99254, 1.86635, 2.0755, 1.80051, 1.89506, 1.88543, 1.88586, 1.79152, 1.89579, 1.78639, 1.787, 1.78559, 1.78533, 1.88713, 1.89377, 1.89244, 1.89473, 1.90401, 1.90147, 1.77762, 1.90261, 1.90072, 1.89787, 1.87627, 1.77276, 1.7728, 1.77375, 1.82379, 1.89307, 1.77196, 1.77231, 1.77303, 1.77341, 1.7714, 1.89911, 1.90059, 1.90044, 1.77035, 1.77139, 1.90436, 1.90256, 1.77108, 1.86615, 1.89815, 1.76825, 1.77158, 1.77005, 1.77016, 1.90427, 1.76793, 1.82059, 1.94333, 1.99359, 1.77074, 1.90392, 1.90104, 1.76965, 1.76964, 1.77092, 1.76865, 1.89036, 1.83786, 1.83626, 1.77171, 1.88631, 1.77146
1.93522, 1.93603, 1.93596, 1.93659, 2.05645, 1.93344, 1.93397, 2.05708, 1.93013, 1.92971, 1.92798, 1.97861, 1.98643, 2.03414, 1.92361, 1.92588, 2.04527, 1.91942, 1.91866, 1.91687, 2.11849, 1.91592, 1.91334, 1.91312, 1.91105, 1.9097, 1.91037, 1.9079, 1.90585, 1.90904, 1.9037, 1.90437, 1.90599, 2.10798, 2.02735, 1.90374, 2.00672, 2.00759, 1.89984, 1.8996, 1.90039, 1.99033, 1.99146, 1.89747, 1.89927, 1.95123, 1.90026, 1.90066, 1.90008, 1.89974, 2.00114, 1.90176, 2.07844, 2.00215, 1.90388, 2.07782, 2.14885, 2.07203, 2.03855, 2.15517, 1.96118, 2.03325, 2.03335, 1.95656, 2.03105, 2.03058, 2.14809, 2.02707, 2.02437, 2.02491, 2.06557, 2.01741, 2.06655, 2.06688, 2.01679, 2.01695, 2.01392, 2.13954, 1.93535, 2.00767, 1.932, 2.00703, 2.15855, 1.93022, 2.00419, 2.05979, 2.05954, 2.00154, 2.00097, 2.05789, 2.00029, 1.9996, 2.00023, 2.00099, 2.16687, 2.00075, 2.14969, 2.00182, 2.00212, 2.14871, 2.14377, 2.05085, 2.13468, 1.93468, 2.01052, 2.01311, 1.94226, 1.94474, 2.02416, 2.02624, 2.13502, 2.10722, 2.10654, 2.11447, 2.09013, 2.11391, 2.01398, 2.11792, 2.01333, 2.08894, 2.01146, 2.01207, 2.01183, 2.00776, 2.0093, 2.00885, 2.00881, 2.10095, 2.09088, 2.0963, 2.11856, 2.09997, 2.00807, 2.00723, 2.10449, 2.10072, 2.10183, 2.10497, 2.09951, 2.11792, 2.08316, 2.08126, 2.08013, 2.08762, 2.10575, 2.00195, 2.1119, 2.09382, 2.00095, 1.99954, 1.99862, 2.09865, 2.10008, 2.10067, 2.08995, 1.99737, 1.9961, 2.09803, 2.08567, 2.07932, 2.0764, 2.08323, 2.08874, 1.9922, 1.99092, 2.08405, 1.99129, 1.99067, 2.09047, 2.10049, 1.98729, 1.98653, 2.08947, 2.05851, 2.09428, 2.06913, 2.07384, 2.07204, 1.98046, 2.05319, 1.9807, 1.9794, 1.98009, 1.97942, 1.97928, 1.97762, 2.06256, 2.07562, 1.97762, 1.9032, 1.90005, 1.9479, 1.94529, 2.00581, 1.89257, 1.93859, 1.93732, 1.93676, 1.93451, 1.93385, 1.93152, 1.87886, 1.87844, 1.87799, 1.87853, 1.87521, 2.011, 2.10717, 1.87397, 1.87239, 1.87228, 1.87172, 1.87183, 1.87165, 1.86958, 1.86802, 2.09747, 1.86508, 1.86673, 1.86588, 2.09077, 1.86745, 1.99983, 1.86675, 1.86683, 1.86501, 1.86541, 1.92936, 1.86549, 1.91659, 1.97941, 1.86513, 1.86726, 1.86589, 2.09611, 1.86621, 1.86486, 1.84851, 1.79651, 1.88531, 1.79207, 1.79063, 1.89753, 1.90112, 1.78619, 1.78414, 1.90258, 1.90084, 1.77798, 1.82953, 1.86939, 1.90161, 1.7761, 1.90327, 1.77325, 1.76987, 1.89987, 1.77372, 1.77376, 1.7717, 1.77169, 1.82129, 1.77232, 1.77305, 1.88727, 1.77263, 1.77182, 1.90351, 1.76822, 1.77211, 1.77037, 1.772, 1.77203, 1.89099, 1.88792, 1.77081, 1.76963, 1.86527, 1.90221, 1.90156, 1.76869, 1.90397, 1.9016, 1.85105, 1.76834, 1.88337, 1.88183, 1.76773, 1.76701, 1.77003, 1.91076, 1.90844, 1.76696, 1.88702, 1.89023, 1.77002, 1.76847, 1.77095, 1.76977, 1.76878
1.93827, 2.05859, 2.03866, 2.04015, 2.06164, 2.03793, 1.9349, 2.21996, 1.92876, 2.0519, 1.92905, 1.92775, 1.97827, 1.92778, 1.92412, 1.92687, 2.04827, 2.13033, 1.92025, 1.91542, 2.01355, 2.01366, 1.91461, 2.12409, 1.91318, 1.91314, 1.91034, 2.12417, 1.9589, 2.03219, 1.90609, 1.90456, 2.12136, 1.9032, 1.90325, 2.10447, 2.00715, 1.95152, 1.96781, 1.95465, 1.95207, 1.90216, 1.95088, 2.01174, 1.90066, 1.90011, 1.90007, 1.89994, 1.90329, 1.90091, 1.9029, 1.90244, 1.90239, 2.00464, 2.07931, 2.0753, 2.07575, 1.96616, 2.03776, 2.03745, 2.03467, 2.03581, 2.0694, 2.06908, 2.03149, 2.06893, 2.02735, 2.02513, 2.02348, 2.02487, 2.15124, 2.02093, 2.14311, 2.01704, 2.06452, 1.93728, 2.01205, 2.15114, 2.01056, 2.01131, 2.01054, 2.00958, 2.01005, 2.06236, 2.06191, 2.00551, 1.92739, 1.92732, 1.99982, 2.14754, 1.92511, 1.9246, 1.92466, 1.99976, 2.00313, 1.99971, 2.00021, 2.00338, 1.92784, 2.14668, 2.05133, 2.14246, 2.00862, 2.0508, 1.93484, 1.93633, 1.94062, 2.01743, 1.94404, 2.13195, 2.04491, 2.11201, 2.1097, 2.10682, 2.10842, 2.01707, 2.10987, 2.11439, 2.01442, 2.09668, 2.01281, 2.01046, 2.01134, 2.00969, 2.00775, 2.01083, 2.09681, 2.09245, 2.11401, 2.10417, 2.09391, 2.09388, 2.00704, 2.10971, 2.10025, 2.09781, 2.00665, 2.10594, 2.0069, 2.10668, 2.09333, 2.08022, 2.0797, 2.09517, 2.09608, 2.00301, 2.08972, 2.08776, 2.08708, 2.09794, 2.08227, 2.09446, 2.09467, 2.09327, 1.9988, 2.08292, 1.99676, 2.08424, 2.08018, 2.08081, 1.99541, 1.9941, 1.99311, 2.07891, 2.07009, 1.99104, 2.07069, 2.07219, 1.98933, 2.08428, 2.07543, 1.98761, 1.98591, 1.98417, 2.07679, 2.08031, 2.07532, 1.98187, 1.98114, 2.05808, 2.05676, 1.97979, 1.97988, 1.97899, 1.97921, 1.97927, 1.97858, 2.06935, 1.97709, 1.89913, 1.89995, 1.89809, 1.89623, 1.895, 2.00959, 1.89185, 1.93737, 1.88712, 2.00678, 1.88249, 1.88061, 1.87875, 1.87838, 1.87783, 1.87545, 1.87265, 1.87552, 1.98409, 1.8726, 1.872, 1.87279, 1.9689, 1.86717, 1.87169, 1.91986, 1.86874, 1.86603, 1.86628, 1.86868, 2.00109, 1.96136, 2.0006, 1.86629, 1.99952, 1.86603, 1.8651, 1.98285, 1.9291, 1.91404, 1.91521, 1.91346, 2.07775, 1.99226, 1.95829, 1.86549, 1.86417, 1.9136, 1.84773, 1.84651, 1.88336, 1.90938, 1.78856, 1.88228, 1.83514, 1.89973, 1.90248, 1.89923, 1.78079, 1.77933, 1.77787, 1.77481, 1.77615, 1.77357, 1.90473, 1.77219, 1.77242, 1.77268, 1.89408, 1.90013, 1.89831, 1.89582, 1.90752, 1.90482, 1.77128, 1.77194, 1.76815, 1.77051, 1.89254, 1.76973, 1.77126, 1.77007, 1.89986, 1.77159, 1.76836, 1.81956, 1.76773, 1.76898, 1.86472, 1.77118, 1.76888, 1.77012, 1.769, 1.76998, 1.90596, 1.90348, 1.81935, 1.77055, 1.76973, 1.77095, 1.77009, 1.76896, 1.89768, 1.89726, 1.89617, 1.76923, 1.81886, 1.76968, 1.76783, 1.89227, 1.89231
1.93983, 1.93636, 1.9385, 1.94099, 1.9334, 1.93438, 1.93353, 1.93413, 2.13403, 2.13536, 1.92777, 2.05301, 2.05291, 2.03192, 2.05077, 2.05165, 2.04778, 1.92075, 1.918, 1.9179, 1.9172, 1.91655, 2.03791, 1.91458, 2.00835, 2.04013, 1.91002, 1.95852, 1.95888, 2.02267, 1.96577, 1.90799, 1.90616, 1.9076, 1.90472, 1.90592, 2.12019, 2.02548, 2.02345, 1.9512, 1.90201, 1.90302, 2.011, 2.01171, 1.90291, 1.90122, 1.90208, 1.90055, 1.90078, 2.01547, 1.90304, 1.90379, 2.03106, 1.90402, 1.90535, 1.90627, 2.07371, 2.07327, 1.96436, 2.07334, 2.07198, 2.03462, 2.0347, 1.95762, 2.03132, 2.03159, 1.95432, 2.02457, 2.0246, 1.94832, 2.15599, 2.01812, 2.01878, 2.01731, 2.01604, 2.0148, 2.0141, 2.01339, 2.01438, 2.06309, 2.00972, 2.00861, 2.00958, 2.00759, 1.92843, 1.92837, 1.92789, 2.00147, 2.00432, 2.00365, 2.00063, 1.92407, 2.00413, 2.00296, 2.00327, 2.00395, 2.00305, 2.00324, 2.00231, 2.00463, 1.93122, 2.05233, 2.0089, 2.01031, 2.13815, 2.04832, 1.94081, 1.94253, 2.02247, 2.13893, 2.11928, 2.04444, 2.09485, 2.11526, 2.11123, 2.10766, 2.09072, 2.01393, 2.08971, 2.09404, 2.09314, 2.01186, 2.01044, 2.08651, 2.01151, 2.01074, 2.0087, 2.00869, 2.09837, 2.09759, 2.10676, 2.00895, 2.00893, 2.11136, 2.09347, 2.00604, 2.00772, 2.1157, 2.00675, 2.09401, 2.09398, 2.10349, 2.0965, 2.10001, 2.09028, 2.0969, 2.0028, 2.00087, 2.10278, 2.10145, 1.99938, 1.99783, 1.99958, 2.08616, 2.08887, 2.08565, 2.08666, 2.08686, 1.99597, 2.07792, 1.99378, 2.0787, 2.08876, 2.07611, 2.07428, 1.99222, 2.06956, 2.07498, 2.07149, 2.08007, 2.07219, 2.08255, 2.08054, 1.986, 1.98415, 1.98288, 2.05962, 2.07272, 2.05596, 2.05831, 2.05776, 2.04928, 1.97937, 1.97666, 1.98028, 1.97735, 2.07346, 2.05974, 2.06259, 1.97711, 1.89944, 1.99643, 1.89607, 1.89449, 1.89283, 1.88897, 1.88674, 1.97805, 1.97584, 2.00455, 1.88261, 1.88175, 2.00692, 2.00779, 1.87683, 1.8754, 2.00416, 1.87534, 1.87199, 1.87131, 2.09346, 1.8695, 1.86827, 1.87044, 1.91876, 1.8669, 2.00196, 1.86498, 1.96145, 1.95982, 1.99997, 1.86555, 2.00054, 1.96366, 1.86288, 1.86541, 1.86452, 1.86376, 1.91376, 1.91411, 1.91424, 1.86223, 1.86274, 1.98958, 1.8633, 1.98872, 1.86303, 1.79384, 1.79313, 1.91189, 1.91142, 1.78567, 1.83777, 1.78231, 1.7858, 2.00136, 1.78083, 1.77901, 1.89777, 1.77784, 1.77376, 1.90612, 2.0017, 2.00224, 1.77409, 1.89246, 1.89405, 1.77159, 1.77115, 1.76916, 1.77042, 1.90592, 1.90519, 1.76685, 1.89431, 1.82068, 1.8196, 1.77144, 1.76852, 1.77025, 1.76844, 1.81999, 1.84781, 1.81832, 1.81961, 1.8298, 1.81814, 1.90021, 1.90058, 1.87228, 1.8627, 1.76758, 1.90024, 1.77123, 1.81997, 1.81981, 1.76884, 1.76806, 1.81978, 1.76526, 1.765, 1.89563, 1.89309, 1.76619, 1.76953, 1.76865, 1.76778, 1.76888, 1.76836, 1.76822
1.93866, 1.93878, 1.93821, 1.98629, 1.99534, 1.99734, 2.05767, 1.93223, 2.05807, 2.13672, 1.93095, 1.92875, 2.0241, 1.97616, 1.92103, 1.92396, 1.97377, 1.97461, 1.97276, 1.91871, 2.04336, 2.0391, 2.03869, 2.12266, 1.91428, 1.9165, 2.09977, 1.9105, 1.90838, 1.95839, 1.90716, 1.90663, 1.9581, 2.09263, 1.95581, 2.00675, 1.90368, 2.02581, 1.90309, 1.90298, 1.90362, 1.90426, 1.90199, 1.903, 1.90111, 1.89994, 1.90047, 1.90046, 2.00051, 1.90228, 1.9531, 1.90344, 1.90092, 1.98636, 1.90462, 2.00308, 2.07628, 2.07539, 1.96567, 1.9648, 2.07209, 2.03518, 2.038, 2.07006, 2.03133, 1.95596, 2.02943, 2.02882, 2.02485, 2.07014, 2.15548, 2.01704, 2.02027, 2.02011, 2.06557, 2.01467, 2.01568, 2.06762, 2.01381, 2.00919, 2.01042, 2.0098, 2.14861, 2.06289, 1.93064, 2.00137, 2.00384, 2.00305, 2.14574, 2.0008, 2.00141, 2.00209, 2.00278, 2.00383, 2.05798, 1.92531, 1.9259, 2.05548, 2.0043, 2.05249, 2.00458, 2.00698, 2.0099, 2.01004, 1.93791, 2.13797, 1.94119, 2.01987, 2.15255, 2.15229, 2.14602, 2.11822, 2.10687, 2.11294, 2.11349, 2.01681, 2.10009, 2.09699, 2.01501, 2.09414, 2.08692, 2.09074, 2.01155, 2.01095, 2.01347, 2.01034, 2.00775, 2.09728, 2.10365, 2.10057, 2.00867, 2.1041, 2.00794, 2.10911, 2.09488, 2.09886, 2.10114, 2.10705, 2.08021, 2.10481, 2.08324, 2.08237, 2.00454, 2.00399, 2.08886, 2.00277, 2.00274, 2.09164, 2.08367, 2.00157, 1.99927, 2.08815, 1.99838, 2.0927, 2.09275, 2.07664, 2.08752, 1.99786, 1.99621, 2.07467, 2.08659, 2.0922, 2.07762, 2.0753, 2.07289, 2.08569, 2.08254, 1.98947, 1.98813, 2.0694, 1.98736, 2.08358, 1.98658, 2.07256, 2.07446, 2.0712, 2.05932, 2.05823, 2.0578, 2.05603, 2.05646, 2.05989, 1.97774, 1.97734, 1.97928, 1.97662, 1.97853, 2.05931, 2.06964, 1.95374, 1.89858, 2.0025, 1.89712, 1.89437, 1.89268, 2.00834, 1.88852, 1.88852, 1.885, 1.88448, 1.88299, 1.88208, 1.98603, 1.98482, 1.93041, 2.0871, 1.8761, 2.10117, 1.86992, 1.87025, 1.8718, 1.86896, 1.87216, 1.87058, 1.86861, 1.86825, 2.00286, 2.08732, 1.86676, 1.86247, 1.86371, 1.86245, 1.86185, 1.86499, 1.86212, 1.86264, 1.99748, 1.86407, 1.99973, 2.08612, 1.86254, 2.09163, 2.0967, 1.98261, 1.86229, 1.97446, 1.97257, 1.79259, 1.79197, 1.94878, 1.78989, 1.78781, 1.78535, 1.83401, 1.88907, 2.002, 1.90564, 1.77805, 1.90358, 1.9023, 1.77819, 1.77248, 1.77369, 2.00288, 1.89431, 1.77254, 1.82181, 1.89303, 1.77056, 1.76875, 1.77055, 1.90105, 1.90019, 1.76845, 1.76815, 1.82007, 1.88471, 1.76717, 1.76688, 1.76781, 1.8271, 1.82521, 1.81995, 1.88485, 1.81669, 1.7713, 1.76706, 1.76315, 1.76839, 1.90018, 1.90106, 1.76817, 1.81934, 1.81748, 1.88618, 1.76459, 1.89109, 1.76649, 1.76524, 1.76742, 1.89842, 1.89986, 1.89897, 1.76809, 1.90359, 1.89628, 1.76629, 1.76791, 1.76961, 1.76911
2.04221, 1.93819, 2.03448, 1.98623, 1.99562, 1.9972, 2.05905, 1.93306, 1.93392, 1.93086, 1.98065, 1.97949, 1.9282, 1.97747, 1.92498, 1.97379, 1.92226, 1.97302, 1.97265, 1.91882, 2.04632, 1.91803, 1.91796, 2.04438, 1.91678, 1.96438, 2.02555, 1.91133, 1.91053, 1.95942, 1.95893, 1.90564, 1.90759, 1.90361, 2.10678, 1.90456, 1.90607, 1.90514, 1.90523, 1.90412, 1.99951, 1.90005, 1.90347, 1.90172, 1.90176, 1.90259, 1.90398, 1.90302, 1.90311, 1.90257, 2.00421, 2.0075, 1.90295, 1.98573, 2.00372, 1.9075, 2.04487, 2.15628, 1.96586, 2.07281, 1.96289, 1.96219, 2.0374, 2.07353, 1.95779, 2.03267, 2.02904, 2.14783, 2.02793, 2.14468, 2.02276, 2.02407, 2.0685, 2.02073, 2.01677, 1.94181, 2.06704, 2.06863, 2.01457, 2.17029, 2.14553, 2.01022, 2.14233, 2.00757, 2.00797, 1.92979, 2.00647, 1.92793, 2.06391, 1.927, 2.00284, 2.00344, 1.92454, 2.00237, 2.00168, 2.00159, 2.00117, 1.92688, 2.13859, 2.00477, 2.13556, 2.0065, 2.01113, 2.01332, 1.93574, 2.01476, 2.01792, 2.04977, 2.04844, 2.04844, 2.12249, 2.12262, 2.12418, 2.01876, 2.09347, 2.10413, 2.10522, 2.10377, 2.09683, 2.01613, 2.08943, 2.0914, 2.01047, 2.01323, 2.01048, 2.08841, 2.10681, 2.11476, 2.10107, 2.09673, 2.09466, 2.01032, 2.0991, 2.10021, 2.09155, 2.10329, 2.0066, 2.00779, 2.09353, 2.09634, 2.10511, 2.08195, 2.08997, 2.00335, 2.00415, 2.0032, 2.09378, 2.08321, 2.00165, 2.09313, 2.00153, 2.09474, 2.09482, 1.99972, 2.092, 2.08626, 2.08682, 2.08414, 1.996, 2.08661, 2.07672, 2.10824, 2.07512, 2.08374, 2.07989, 1.99084, 2.07633, 1.98942, 2.0761, 2.08521, 2.07634, 2.07451, 2.075, 1.98645, 2.06298, 2.06001, 2.05924, 1.98172, 2.05857, 2.05722, 2.05983, 2.05814, 1.97665, 1.97632, 1.97666, 1.9774, 2.05554, 2.05119, 2.04973, 2.00662, 1.89937, 1.94914, 1.94768, 1.89452, 2.09397, 2.09093, 1.88918, 1.88465, 1.88853, 1.99919, 1.88334, 1.93076, 1.88187, 1.87981, 1.93012, 1.9263, 1.87421, 1.87482, 1.87148, 1.86964, 1.87492, 2.00382, 1.87142, 1.87168, 2.09498, 1.86888, 2.0017, 2.10037, 1.86658, 2.00046, 1.99916, 1.86624, 1.86562, 1.86512, 1.86207, 1.86115, 1.86202, 1.95627, 1.86547, 1.86199, 1.8625, 1.86155, 1.86133, 1.86259, 1.86161, 1.99284, 1.8628, 1.79485, 1.94709, 1.90029, 1.89815, 1.78676, 1.78252, 1.78376, 1.78206, 1.77835, 1.9071, 1.90781, 1.90508, 1.7748, 1.88364, 1.89728, 1.89778, 1.77163, 1.77118, 1.7686, 1.77122, 1.76822, 1.76855, 1.89974, 1.76453, 1.86975, 2.01021, 1.76926, 1.76772, 1.76468, 1.76482, 1.76979, 1.86274, 1.825, 1.82754, 1.82694, 1.88517, 1.76642, 1.76785, 1.81642, 1.76841, 1.81632, 1.87167, 1.76638, 1.88771, 1.76551, 1.76609, 1.76676, 1.89234, 1.88294, 1.76726, 1.76614, 1.76748, 1.76583, 1.8982, 1.76638, 1.88442, 1.88191, 1.7655, 1.76555, 1.76837, 1.76864, 1.76877, 1.8504
1.93961, 1.93923, 1.98718, 2.0562, 2.0658, 2.05087, 2.05195, 2.05474, 1.93384, 1.93041, 1.92894, 1.97912, 1.92923, 2.05377, 2.05495, 1.92477, 2.12743, 2.04144, 1.92328, 1.92084, 1.92476, 1.96986, 1.91725, 1.91678, 1.91406, 1.91553, 1.96249, 1.91319, 1.91293, 1.95943, 2.11217, 2.12764, 2.03466, 1.90647, 1.90699, 2.10889, 1.99986, 2.10432, 2.10073, 1.90594, 1.90581, 2.09986, 2.02127, 2.02005, 1.90483, 1.90454, 1.90483, 1.90294, 1.90316, 1.99159, 1.99235, 1.90503, 2.0024, 1.90357, 2.07954, 2.17734, 2.04565, 2.04259, 1.96581, 2.04329, 2.03671, 2.07308, 2.03748, 1.95777, 2.03434, 2.03739, 2.03177, 2.03089, 2.0303, 2.14915, 2.06998, 2.02367, 2.1483, 2.02051, 2.02096, 2.0666, 2.01777, 2.0153, 2.14988, 2.14978, 2.01035, 2.01034, 2.14319, 2.00806, 2.00764, 2.06155, 2.00638, 1.92882, 2.00363, 2.06208, 1.92512, 2.05972, 2.00125, 2.00215, 2.00064, 2.00205, 2.00174, 2.0563, 2.00364, 1.93096, 1.93083, 1.93206, 2.15477, 2.01298, 2.0134, 2.05113, 2.01916, 2.0186, 2.04627, 2.03042, 2.15186, 2.09592, 2.11802, 2.11597, 2.12735, 2.01694, 2.11111, 2.01468, 2.10174, 2.01429, 2.08901, 2.01306, 2.01126, 2.01246, 2.01045, 2.01142, 2.01031, 2.08933, 2.08302, 2.08246, 2.0912, 2.09101, 2.10579, 2.11312, 2.00835, 2.00883, 2.09619, 2.08816, 2.00647, 2.00727, 2.10466, 2.10754, 2.0918, 2.09782, 2.00434, 2.10092, 2.00289, 2.08604, 2.09407, 2.09827, 2.08584, 2.08559, 1.99954, 1.99937, 2.08318, 2.09808, 2.08345, 1.99599, 2.08358, 1.99521, 2.0697, 2.08689, 2.08311, 2.08388, 2.08448, 2.08077, 2.08632, 2.0831, 2.08668, 2.06909, 2.07906, 2.07537, 2.07573, 2.07583, 2.07736, 2.06529, 2.05967, 2.05777, 2.05506, 1.98042, 1.9788, 2.05921, 1.97746, 1.97691, 2.05473, 1.97629, 2.08376, 2.07002, 1.9763, 1.90431, 1.90239, 2.0073, 1.89739, 1.98537, 2.00353, 2.00393, 2.00418, 1.88684, 1.95185, 1.99977, 1.88407, 1.93052, 1.92954, 1.99003, 1.87737, 1.92593, 1.92476, 1.97049, 1.87227, 1.87091, 1.87169, 1.86934, 1.87036, 1.86701, 1.96155, 2.00085, 1.86656, 2.09012, 1.99681, 1.86536, 1.86499, 1.86439, 1.91289, 1.86313, 1.86359, 1.8615, 1.86276, 1.86387, 1.8621, 1.96245, 1.86249, 1.99479, 1.99311, 1.86252, 1.86318, 1.86286, 1.86473, 1.79352, 1.79207, 1.79155, 1.94994, 1.94932, 2.02269, 1.78, 1.89939, 1.77984, 1.77665, 1.90276, 1.90132, 1.77473, 1.88311, 1.77058, 1.89362, 1.77054, 1.76844, 1.89978, 1.76676, 1.76757, 1.90369, 1.76874, 1.76899, 1.772, 1.76845, 1.76785, 1.76269, 1.76658, 1.7656, 1.76632, 1.76597, 1.76697, 1.8236, 1.82343, 1.76673, 1.765, 1.81768, 1.81686, 1.7686, 1.76834, 1.76701, 1.87586, 1.89006, 1.90138, 1.87516, 1.76219, 1.76485, 1.88372, 1.896, 1.76617, 1.76698, 1.90192, 1.76657, 1.76664, 1.90074, 1.76195, 1.76134, 1.76514, 1.76418, 1.76854, 1.76547, 1.76602
1.93969, 1.99113, 1.93862, 1.94091, 1.98615, 1.98626, 1.93432, 2.06854, 2.06934, 1.98466, 2.05185, 1.98172, 1.92852, 1.92931, 1.92866, 2.13134, 1.92509, 1.92549, 1.92628, 1.92202, 1.92203, 2.04484, 1.91735, 1.91754, 1.91583, 1.91619, 1.97883, 1.91324, 1.96148, 1.90923, 1.9104, 1.90992, 2.10879, 1.90754, 1.90751, 2.10521, 1.9063, 1.90512, 1.90429, 1.90623, 1.90512, 1.90545, 1.95484, 1.9544, 1.9031, 1.95448, 1.95457, 2.01082, 1.99653, 2.00983, 1.95448, 1.95516, 1.95507, 1.95629, 1.90805, 1.95663, 2.04297, 1.96868, 2.04249, 1.96676, 1.96422, 1.96405, 2.03564, 2.0361, 2.03404, 2.0341, 1.95531, 1.95376, 2.0277, 2.02521, 2.06951, 2.07008, 2.14771, 2.14887, 2.01778, 2.0188, 2.02001, 2.14684, 2.16402, 2.1454, 2.01282, 2.0103, 2.14264, 2.00685, 2.00692, 2.06271, 2.00458, 1.92834, 2.16568, 2.00201, 2.0629, 1.92533, 2.00334, 2.00276, 1.92646, 2.00198, 1.92774, 1.9275, 2.00421, 2.00313, 2.00649, 2.0091, 2.14595, 2.01277, 2.01428, 1.94086, 2.05269, 2.04938, 2.02482, 2.04807, 2.04809, 2.02046, 2.11414, 2.09444, 2.09475, 2.10657, 2.1114, 2.10441, 2.1149, 2.01446, 2.01376, 2.01161, 2.01216, 2.01216, 2.01283, 2.01037, 2.01094, 2.0105, 2.01077, 2.08735, 2.00985, 2.08591, 2.08594, 2.11619, 2.00963, 2.00958, 2.11256, 2.09706, 2.00662, 2.1113, 2.1118, 2.00671, 2.09743, 2.08859, 2.10418, 2.10704, 2.00452, 2.10394, 2.10193, 2.00099, 1.99989, 2.09437, 2.09028, 2.09018, 2.08647, 2.09332, 2.08406, 2.08351, 2.08508, 2.09734, 1.99622, 2.09116, 1.99299, 2.075, 2.0928, 2.08595, 2.07945, 2.07391, 1.98861, 2.07336, 2.07617, 2.07259, 2.0814, 2.07895, 2.08605, 1.98213, 1.98166, 2.0769, 2.06928, 1.98086, 1.97716, 1.97941, 1.97789, 1.97619, 1.97683, 1.97544, 1.97569, 1.975, 2.06018, 1.95285, 1.90189, 2.08747, 2.09625, 2.0921, 1.8931, 1.89283, 1.88961, 2.01038, 1.88523, 1.88422, 1.88438, 1.93204, 1.88014, 2.07946, 1.87537, 1.92651, 1.92422, 1.92399, 1.92398, 1.8703, 1.87235, 1.86859, 1.97672, 1.97551, 1.91706, 1.86824, 1.86725, 1.86471, 2.08266, 2.0029, 1.86263, 1.86254, 1.86441, 1.86583, 1.864, 1.86221, 1.86165, 1.99427, 1.99423, 1.9629, 1.95993, 1.86164, 1.86161, 1.99175, 1.86139, 1.86146, 1.85842, 1.94499, 1.78775, 1.78597, 1.89647, 1.89294, 1.78482, 1.78069, 1.77811, 1.77752, 1.89559, 1.77563, 1.77434, 1.77403, 1.85425, 1.77185, 1.88574, 1.76816, 1.89928, 1.89915, 1.89953, 1.89849, 1.76842, 1.76868, 1.76659, 1.76489, 1.76683, 1.76677, 1.89665, 1.89636, 1.76546, 1.76495, 1.89844, 1.76348, 1.76404, 1.76449, 1.76694, 1.76556, 1.89349, 1.76603, 1.765, 1.7631, 1.87738, 1.76805, 1.76648, 1.76601, 1.76546, 1.76665, 1.89961, 1.76529, 1.89994, 1.89742, 1.76749, 1.766, 1.89088, 1.90614, 1.90097, 1.76444, 1.76423, 1.76245, 1.76664, 1.76311, 1.76518, 1.76483
2.00953, 2.0112, 1.9376, 1.93914, 2.04078, 1.98767, 1.98581, 2.04877, 1.93288, 2.0618, 2.06273, 2.04156, 1.97977, 1.93051, 1.92885, 2.1254, 1.92415, 1.92426, 2.1243, 1.92275, 2.04441, 2.03864, 2.03912, 1.91683, 1.91719, 1.91799, 1.97923, 1.97852, 2.02858, 1.91015, 1.91244, 1.90934, 1.9076, 1.90682, 1.90655, 1.90725, 1.9568, 1.90625, 1.90728, 1.99785, 1.90506, 1.95458, 1.95536, 1.95495, 1.90679, 2.00304, 1.95492, 2.01037, 2.01149, 1.90384, 1.90467, 1.99847, 1.90619, 1.95636, 1.95649, 1.90957, 2.04423, 1.97073, 1.96635, 1.96696, 2.07875, 1.9616, 2.04018, 2.03561, 2.07516, 2.03162, 2.03199, 2.16611, 1.9516, 1.95088, 2.15277, 2.14834, 2.02353, 2.02132, 2.15397, 2.01637, 1.94163, 2.16711, 1.93827, 1.93771, 2.01128, 2.01051, 2.06537, 2.00857, 2.00758, 2.00667, 2.00626, 2.06369, 2.06285, 2.00398, 2.00354, 2.00366, 2.00145, 2.05945, 1.92789, 2.00291, 1.92728, 2.00462, 2.00627, 2.00667, 2.00709, 2.00804, 2.0091, 2.01123, 2.01403, 2.12911, 2.1408, 2.02231, 2.02314, 2.05163, 2.14538, 2.12027, 2.10709, 2.10871, 2.09485, 2.10511, 2.01704, 2.11815, 2.09662, 2.01421, 2.01206, 2.01085, 2.01193, 2.01313, 2.01336, 2.01037, 2.09735, 2.10735, 2.09549, 2.08815, 2.08466, 2.00997, 2.10814, 2.11649, 2.08256, 2.10036, 2.09273, 2.10511, 2.10051, 2.09357, 2.11844, 2.00706, 2.10356, 2.09673, 2.09065, 2.09319, 2.00408, 2.00445, 2.09391, 2.00107, 2.09137, 2.08914, 2.09049, 2.09693, 2.08175, 1.99747, 1.99664, 1.99553, 2.08308, 2.09404, 2.09617, 2.0649, 2.08308, 2.07994, 2.09684, 2.06255, 2.06188, 1.99027, 2.08488, 2.08423, 1.98803, 2.08391, 1.9826, 2.08628, 1.98088, 1.98389, 2.08254, 1.97967, 2.05696, 2.05598, 1.97977, 1.98068, 1.97815, 1.9783, 1.9786, 1.97694, 1.97501, 2.0591, 2.08373, 1.95331, 1.95247, 1.89973, 1.89692, 1.89333, 1.94315, 1.94105, 1.93962, 2.00071, 1.88584, 1.8851, 1.88387, 1.88076, 1.87992, 1.8771, 1.87499, 1.87688, 1.87511, 1.9245, 1.95849, 1.96837, 1.87177, 1.91906, 1.91911, 1.92003, 1.91913, 1.95717, 1.86657, 1.86784, 1.86529, 2.10402, 1.86568, 1.86459, 1.86327, 1.86304, 1.8627, 1.86418, 1.91365, 2.0935, 1.86161, 1.86283, 1.8633, 1.86188, 1.99575, 1.85832, 1.85979, 1.8604, 1.86184, 1.79129, 1.94512, 1.83924, 1.78463, 1.78363, 1.88041, 1.78203, 1.78071, 1.82883, 1.82748, 1.88229, 1.77544, 1.7735, 1.88926, 1.77221, 1.76973, 1.7676, 1.76924, 1.87258, 1.87078, 1.94919, 1.76764, 1.87375, 1.89553, 1.7659, 1.8968, 1.89722, 1.76616, 1.76622, 1.7657, 1.76493, 1.89376, 1.76421, 1.89931, 1.89799, 1.89602, 1.76534, 1.76605, 1.76307, 1.76215, 1.8713, 1.76831, 1.76747, 1.76578, 1.9585, 1.76494, 1.89419, 1.86777, 1.87824, 1.89778, 1.87145, 1.76412, 1.7625, 1.86828, 1.76241, 1.89708, 1.7614, 1.76825, 1.89666, 1.76417, 1.76405, 1.76462, 1.76525
1.94246, 1.93884, 2.22795, 1.93784, 1.98618, 1.98698, 2.05828, 1.98481, 1.93189, 2.0616, 2.06234, 2.04159, 1.93264, 1.97961, 1.97891, 1.97871, 1.92704, 2.04926, 2.12409, 1.92431, 1.92472, 1.97226, 2.0479, 2.13501, 1.91875, 1.92066, 1.91416, 1.91483, 1.91084, 2.13104, 1.91173, 2.03858, 1.90865, 1.90699, 1.907, 1.90661, 1.90749, 2.03011, 1.90703, 1.90686, 2.02599, 1.90614, 1.90802, 1.90588, 1.9545, 2.00435, 1.90314, 1.904, 2.01195, 2.09056, 1.90575, 1.95972, 1.99497, 1.99634, 1.90998, 1.90969, 1.97304, 2.04619, 2.04597, 2.0426, 1.96487, 2.04251, 1.96534, 2.07584, 2.03464, 2.03346, 2.03373, 2.07286, 2.02935, 2.02874, 2.15196, 2.02389, 2.07112, 2.02115, 1.94412, 2.01785, 2.01718, 2.1451, 1.93799, 2.01165, 1.93718, 2.01066, 2.011, 2.00913, 2.00707, 2.00867, 2.0046, 2.00547, 1.93134, 2.00647, 2.00517, 2.00327, 2.00546, 2.00331, 1.92722, 2.00286, 2.00516, 1.92827, 1.92888, 2.14133, 1.93042, 2.05646, 2.00939, 1.93808, 2.05165, 2.02, 2.01997, 1.94491, 1.94748, 2.02731, 2.14139, 2.13989, 2.09738, 2.11757, 2.10792, 2.09733, 2.11175, 2.10426, 2.09106, 2.08955, 2.01254, 2.0123, 2.0139, 2.01396, 2.01087, 2.01225, 2.01292, 2.12473, 2.0113, 2.09465, 2.08679, 2.12123, 2.12179, 2.01035, 2.10407, 2.11041, 2.09858, 2.09754, 2.11068, 2.08625, 2.08073, 2.09708, 2.00635, 2.00506, 2.00607, 2.0042, 2.08884, 2.10014, 2.0042, 2.07858, 2.0765, 2.0834, 2.00064, 1.99982, 2.08767, 2.08084, 2.09345, 2.09049, 1.99572, 1.99624, 2.09369, 2.08549, 1.99381, 2.08347, 2.08027, 2.08827, 2.07363, 1.98919, 2.08348, 2.07802, 1.98677, 2.07422, 2.074, 2.07113, 2.07237, 1.98354, 1.98193, 1.98225, 2.06905, 1.97882, 1.97955, 1.98011, 1.97774, 1.97812, 1.97734, 1.97635, 2.06226, 2.04744, 2.0465, 1.90297, 2.11469, 2.00655, 1.89666, 1.89536, 1.8931, 1.94076, 1.89043, 1.9377, 1.93665, 1.88271, 1.8833, 2.08968, 1.8793, 1.87707, 1.87862, 1.87744, 1.87558, 1.87477, 1.87338, 1.96955, 2.08905, 1.86837, 1.87165, 1.86526, 1.92011, 1.91794, 1.91746, 1.91582, 1.86509, 1.86422, 1.86446, 1.86427, 1.99686, 2.10398, 1.86198, 1.86021, 1.86174, 1.86191, 1.95686, 1.86432, 1.86123, 1.86177, 1.85911, 1.94948, 1.96647, 1.96487, 1.86154, 1.79095, 1.78947, 1.83789, 1.8373, 1.78272, 1.78059, 1.83067, 1.77974, 1.82774, 1.88869, 1.77519, 1.89532, 1.77179, 1.77113, 1.89803, 1.76649, 1.76883, 1.76904, 1.89565, 1.89877, 1.87145, 1.76588, 1.76477, 1.76534, 1.76508, 1.76483, 1.76537, 1.76264, 1.89702, 1.76297, 1.76469, 1.76524, 1.90623, 1.90364, 1.76159, 1.90013, 1.9033, 1.76383, 2.09011, 1.89932, 1.76459, 1.76271, 1.76295, 1.76589, 1.76571, 1.76485, 1.90064, 1.85607, 1.85383, 1.76218, 1.89817, 1.89889, 1.89775, 1.76563, 1.7648, 1.76473, 1.8966, 1.76488, 1.76203, 1.89669, 1.7624, 1.76436, 1.76597
1.94146, 1.9417, 2.21925, 1.93992, 1.93839, 1.93606, 2.0561, 1.93595, 1.93127, 2.06149, 1.93232, 1.93085, 1.98217, 1.98019, 1.98034, 1.9284, 1.92699, 1.92739, 1.97457, 1.97566, 1.92349, 2.12696, 2.13537, 2.04848, 1.91986, 1.91989, 1.9177, 1.91457, 1.91613, 2.02374, 2.03945, 2.03733, 2.03876, 2.1289, 2.11234, 1.90798, 1.91006, 1.90826, 1.90427, 1.90638, 1.90667, 1.90675, 1.95468, 1.90627, 1.955, 1.90629, 1.90621, 2.01844, 2.09944, 2.09177, 1.90547, 1.90684, 1.90802, 1.99604, 2.02665, 2.04911, 2.04962, 2.04595, 2.04744, 1.96403, 2.04124, 2.04169, 2.15199, 2.03872, 1.95971, 2.03261, 1.95677, 2.03071, 2.02945, 2.02624, 2.02672, 2.02423, 2.02243, 1.94625, 2.02056, 1.94385, 2.01823, 2.01709, 1.93885, 2.01167, 2.06566, 2.06627, 1.93461, 2.00999, 2.06635, 2.06463, 2.00549, 2.00476, 2.00655, 2.00585, 2.06377, 2.00522, 2.00175, 2.00669, 2.00538, 2.05823, 1.92693, 2.00521, 2.00328, 2.05578, 2.00739, 2.00996, 2.01042, 2.01154, 1.93894, 2.14956, 2.01847, 2.05192, 2.13776, 2.02481, 2.14088, 2.11807, 2.10912, 2.09799, 2.10994, 2.09602, 2.11529, 2.09289, 2.09177, 2.08989, 2.08955, 2.01325, 2.01407, 2.01237, 2.01294, 2.01113, 2.01207, 2.10775, 2.0937, 2.01036, 2.01034, 2.09445, 2.00979, 2.08263, 2.11205, 2.10947, 2.09775, 2.00835, 2.08425, 2.008, 2.08456, 2.09629, 2.10955, 2.00594, 2.1009, 2.09994, 2.07737, 2.1075, 2.00284, 2.08119, 2.0765, 2.08437, 2.08945, 2.07336, 2.09337, 2.08548, 2.08689, 2.08244, 1.99658, 2.08651, 2.08118, 2.08611, 2.08252, 2.09265, 2.09222, 2.07045, 2.08184, 2.05956, 2.0687, 2.07971, 2.0679, 2.08144, 2.07669, 2.0697, 2.06965, 2.0702, 2.07357, 1.98121, 2.07293, 1.97864, 1.97871, 1.9792, 1.97836, 2.0514, 1.97625, 1.9771, 2.05904, 2.0657, 1.97632, 2.01305, 2.01305, 1.89909, 1.94666, 1.95254, 1.95107, 1.88983, 1.88885, 1.88582, 1.88413, 1.88231, 2.00548, 1.88161, 1.87775, 1.87609, 1.96849, 1.87632, 1.87517, 1.87493, 1.99572, 1.94966, 2.00532, 1.86933, 1.86621, 1.86631, 1.86704, 1.9763, 1.97481, 1.91475, 1.91584, 1.86315, 1.93887, 1.91386, 1.86274, 1.91269, 1.95808, 1.86032, 1.99967, 1.99787, 1.86202, 1.86263, 1.86199, 1.85971, 2.05283, 1.94981, 1.85889, 1.85878, 1.85981, 1.86577, 1.78874, 1.78681, 1.78447, 2.01756, 1.78171, 1.77868, 1.77737, 1.89657, 1.77352, 1.82508, 1.77276, 1.77281, 1.89625, 1.94831, 1.76597, 1.76762, 1.76646, 1.89703, 1.89568, 1.76599, 1.89876, 1.76487, 1.86929, 1.7636, 1.76495, 1.76431, 1.76118, 1.89919, 1.86107, 1.76195, 1.76277, 1.76331, 1.7643, 1.76173, 1.76092, 1.76157, 1.76313, 1.76238, 1.7648, 1.7623, 1.76199, 1.76167, 1.75955, 1.86661, 1.90238, 1.76454, 1.86645, 1.86529, 1.89772, 1.76208, 1.89961, 1.8766, 1.76259, 1.9029, 1.89024, 1.8966, 1.89571, 1.76108, 1.76261, 1.76238, 1.7629, 1.76123
1.94598, 1.94123, 1.94081, 1.94087, 2.0653, 1.93563, 1.93693, 2.1366, 1.93739, 1.93281, 1.98624, 2.03224, 2.02029, 2.04051, 2.0492, 1.9268, 2.03754, 1.97624, 1.9737, 2.05185, 2.05201, 2.05032, 1.92216, 1.92001, 2.04642, 2.04451, 2.12139, 1.9652, 2.02232, 2.02368, 2.02482, 1.90969, 1.9082, 2.03126, 1.90953, 1.90819, 1.90847, 1.90764, 2.03061, 1.90655, 2.1003, 1.90479, 1.90478, 1.9548, 1.95425, 1.90616, 2.01793, 1.9077, 1.90846, 1.90459, 1.90472, 1.90631, 1.90908, 1.90856, 1.90916, 2.05039, 1.97217, 1.97102, 2.04529, 2.15945, 2.04421, 2.07921, 2.04008, 2.07923, 2.03813, 2.07587, 2.07415, 2.03059, 2.15938, 2.07491, 2.07238, 2.02419, 1.94541, 2.15076, 2.14853, 2.14801, 2.0185, 2.01787, 2.01676, 2.01718, 2.01179, 2.06931, 2.06844, 2.15198, 1.93359, 2.0067, 2.14197, 2.00581, 1.9279, 2.00385, 2.00473, 1.92852, 1.92917, 2.13788, 2.00485, 2.00375, 2.05819, 2.13688, 2.135, 2.00693, 2.00679, 2.00765, 2.01118, 2.05548, 1.93784, 2.01709, 2.01836, 2.05171, 2.04877, 2.04943, 2.1411, 2.05172, 2.09941, 2.09844, 2.11306, 2.09412, 2.09415, 2.09338, 2.09588, 2.08846, 2.01466, 2.09237, 2.08954, 2.01203, 2.01425, 2.01034, 2.0089, 2.00993, 2.1035, 2.10547, 2.09948, 2.10349, 2.10385, 2.11417, 2.09724, 2.09651, 2.00886, 2.08287, 2.08301, 2.10798, 2.09525, 2.10491, 2.00741, 2.09349, 2.00546, 2.09029, 2.00501, 2.10349, 2.00366, 2.09137, 2.09146, 2.00066, 2.08108, 2.07208, 2.10419, 2.08711, 2.08447, 1.9968, 2.07613, 1.99629, 1.9952, 2.07641, 2.07585, 2.07453, 2.07598, 2.08009, 2.05939, 2.07704, 2.08246, 2.08029, 1.98643, 2.07177, 2.07011, 2.07677, 2.08492, 2.06422, 2.06899, 2.06894, 2.06913, 1.98086, 1.97698, 1.97674, 1.97625, 1.97576, 1.97599, 1.97823, 1.97536, 2.07317, 2.07152, 2.01234, 2.01144, 1.89939, 1.89663, 1.89598, 2.00711, 1.89318, 1.89019, 1.8872, 1.88577, 1.88212, 2.00647, 2.00626, 2.00715, 2.00542, 1.87607, 2.00691, 1.87314, 1.99991, 1.99556, 1.87122, 1.87173, 1.87061, 1.86795, 1.86887, 1.86853, 1.86345, 1.86747, 1.86617, 1.86541, 1.86272, 1.86189, 1.91322, 1.91318, 1.86172, 1.86183, 2.08193, 1.86142, 1.86126, 1.85848, 1.85887, 1.97171, 1.9692, 1.9095, 1.91031, 1.9103, 1.85914, 1.85855, 1.88012, 1.78611, 1.78536, 1.78405, 1.78231, 1.77849, 1.89677, 1.778, 1.77494, 1.77613, 1.77454, 1.77236, 1.77039, 1.89575, 1.76914, 1.76828, 1.76691, 1.88677, 1.76729, 1.89429, 1.7651, 1.76304, 1.88915, 1.88784, 1.76282, 1.90026, 1.76295, 1.89483, 1.7626, 1.76195, 2.01103, 1.76252, 1.76236, 1.89906, 1.75946, 1.7614, 1.89625, 1.764, 1.76225, 1.89377, 1.89728, 1.90174, 1.89662, 1.76288, 1.76248, 1.761, 1.76099, 1.7632, 1.76132, 1.76371, 1.76299, 1.86585, 1.75941, 1.76126, 1.90499, 1.76328, 1.76244, 1.76122, 1.76216, 1.76373, 1.76102, 1.76297, 1.76324
1.9443, 1.94049, 1.94198, 1.93862, 2.03439, 1.93973, 1.93849, 1.98627, 1.98738, 1.93389, 1.93359, 2.13776, 2.05337, 2.04134, 2.00506, 1.97913, 2.03756, 2.03776, 1.92341, 1.92434, 1.92396, 2.12433, 2.05137, 1.92054, 2.04425, 1.91829, 2.10645, 2.02891, 1.91566, 1.96351, 2.02488, 1.90934, 2.00287, 1.91104, 1.90857, 1.90627, 2.03372, 2.03361, 1.90572, 1.90673, 1.90461, 1.90417, 1.90591, 2.01847, 1.95593, 1.90693, 1.906, 1.90687, 2.0115, 1.90437, 2.01392, 1.90834, 1.90832, 1.90831, 1.907, 2.08444, 2.04967, 2.04554, 2.04582, 2.04508, 2.04493, 2.07873, 2.03962, 2.03847, 2.07703, 2.03478, 1.95692, 2.0311, 1.95366, 2.1695, 2.02737, 2.07428, 2.02426, 2.16362, 2.01768, 2.07612, 1.94279, 2.0173, 2.16592, 2.07042, 2.0148, 1.93597, 2.15582, 2.01122, 1.9318, 1.93264, 2.06597, 1.92938, 2.00521, 2.00437, 2.00447, 2.00499, 1.92783, 1.92775, 2.14859, 1.92923, 2.00305, 2.00472, 1.93013, 2.00774, 2.00839, 2.14635, 1.93438, 2.01167, 2.0149, 2.01642, 1.94125, 2.02088, 2.05095, 1.95353, 1.95457, 2.10504, 2.11139, 2.09769, 2.11924, 2.09339, 2.01808, 2.09664, 2.0917, 2.08947, 2.08968, 2.0931, 2.01246, 2.01224, 2.01208, 2.01213, 2.01253, 2.08827, 2.10809, 2.09474, 2.1042, 2.10904, 2.09083, 2.10008, 2.10713, 2.01014, 2.10666, 2.10713, 2.10415, 2.08207, 2.08061, 2.10955, 2.09153, 2.09115, 2.09506, 2.09095, 2.09295, 2.093, 2.00262, 2.00155, 2.09099, 2.10683, 2.09802, 2.07326, 1.99954, 2.09749, 1.99632, 1.99726, 1.99608, 2.07818, 2.08022, 2.0717, 2.09809, 2.07532, 2.08757, 2.07535, 1.99038, 2.07372, 2.0782, 2.07675, 2.07715, 2.07401, 2.0793, 2.08611, 2.07629, 2.0779, 2.06914, 2.06996, 2.06567, 1.97881, 1.97922, 1.97646, 1.97661, 1.97906, 1.97628, 1.97589, 2.06953, 2.06214, 2.07125, 1.90185, 1.89819, 1.89857, 1.89675, 1.94486, 2.00534, 1.98495, 1.89013, 1.88746, 2.08672, 1.88215, 2.00508, 2.00333, 1.87931, 2.09109, 2.08966, 2.0879, 1.87429, 1.87476, 1.87314, 1.8722, 1.96201, 1.95993, 1.91903, 1.86862, 1.86643, 1.86686, 1.95501, 1.99416, 1.86465, 1.86471, 1.86361, 1.97996, 1.91344, 1.91119, 1.91161, 1.99683, 1.99742, 1.86192, 1.85911, 1.95693, 1.85807, 1.85792, 1.98678, 1.99299, 1.91242, 2.04846, 1.85848, 1.7889, 1.83841, 1.83628, 1.83378, 1.78045, 1.7796, 1.88243, 1.77663, 1.87027, 1.89307, 1.8908, 1.77198, 1.82015, 1.77067, 1.76797, 1.76871, 1.87716, 1.87871, 1.81516, 1.81406, 1.764, 1.87185, 1.76357, 1.76167, 1.8912, 1.7615, 1.76273, 1.7614, 1.7609, 1.75986, 1.82642, 1.76205, 1.76123, 1.87481, 1.872, 1.76244, 1.76354, 1.90325, 1.89677, 1.89637, 1.89887, 1.76456, 1.76517, 1.76267, 1.883, 1.76141, 1.7594, 1.81256, 1.7601, 1.86748, 1.76211, 1.76125, 1.94759, 1.75937, 1.76102, 1.76225, 1.76115, 1.76078, 1.87261, 1.76418, 1.7616, 1.8918, 1.76858
1.94388, 2.06889, 2.06762, 1.94133, 1.93848, 1.93895, 2.14128, 1.94043, 2.13806, 2.05934, 2.14143, 2.23493, 1.93439, 1.98076, 1.93106, 1.97949, 2.03844, 1.92792, 1.92907, 1.92489, 1.92568, 1.92238, 1.92339, 2.00892, 1.91997, 1.96912, 1.96953, 2.10434, 1.96586, 1.96399, 1.96533, 1.90936, 1.96149, 2.03081, 1.90725, 1.95963, 1.90904, 2.11233, 1.9064, 1.90967, 1.9088, 1.90418, 2.02115, 1.95718, 1.95797, 2.01221, 2.01364, 1.90741, 1.90793, 1.90688, 1.90725, 1.90762, 1.90718, 1.90661, 2.08579, 2.04978, 2.0837, 1.97242, 2.04771, 2.08016, 2.07996, 1.96522, 2.04143, 2.07914, 2.03468, 2.03298, 2.07708, 2.03338, 2.16625, 2.07584, 2.07541, 2.02819, 1.94878, 1.94965, 2.02024, 2.02145, 2.15147, 1.94117, 2.17308, 2.06944, 2.0129, 2.01201, 2.01259, 2.07029, 2.15994, 1.93117, 2.00671, 2.00718, 1.93121, 1.93004, 2.00441, 2.00305, 2.06503, 2.00384, 2.06237, 2.00463, 1.92814, 2.00504, 2.00698, 2.00681, 2.05611, 2.00848, 2.05516, 2.01453, 2.05549, 2.01972, 2.02354, 2.02105, 2.02616, 2.04965, 2.04886, 2.11197, 2.12148, 2.11968, 2.10997, 2.0969, 2.1153, 2.11225, 2.11935, 2.0157, 2.09143, 2.09084, 2.01328, 2.01559, 2.01305, 2.0102, 2.01147, 2.10066, 2.10121, 2.09333, 2.10509, 2.09677, 2.10059, 2.0097, 2.01044, 2.00968, 2.10185, 2.10712, 2.10518, 2.08169, 2.09951, 2.09015, 2.09918, 2.08962, 2.0911, 2.0794, 2.00467, 2.00333, 2.00294, 2.09536, 2.0938, 2.00096, 2.09987, 2.0962, 2.00043, 1.99933, 2.08112, 1.99656, 2.08869, 2.07238, 2.083, 2.08164, 2.07448, 2.09234, 2.08363, 2.07228, 2.08896, 2.07482, 2.07998, 2.09421, 1.98871, 1.98698, 2.0764, 2.07831, 1.98362, 1.98439, 2.07636, 2.07227, 2.07541, 2.05512, 1.97716, 1.97659, 1.97633, 1.97646, 1.97553, 1.97637, 2.05277, 2.07027, 2.06485, 1.90173, 1.90176, 2.0962, 1.89584, 1.897, 1.89202, 1.89043, 1.88878, 1.88731, 2.00434, 1.88293, 1.88111, 1.87863, 1.87947, 2.00419, 1.8771, 2.00654, 2.10291, 1.87248, 1.8715, 1.87072, 1.87163, 1.91998, 1.86884, 2.0827, 1.86576, 1.86596, 1.86563, 1.95805, 1.86507, 1.86437, 1.86472, 1.86153, 1.91372, 1.86037, 1.8594, 1.85838, 1.86213, 1.86001, 1.86092, 1.85932, 1.85823, 1.85623, 1.85872, 2.08087, 1.85906, 1.85938, 1.98956, 1.8873, 1.78599, 1.78374, 1.90464, 1.8767, 1.77874, 1.77818, 1.7772, 1.89491, 1.89289, 2.01475, 1.87703, 1.7689, 1.7694, 1.87777, 1.86646, 1.76712, 1.76321, 1.81649, 1.81348, 1.76029, 1.76113, 1.7621, 1.76049, 1.75883, 1.89592, 1.89376, 1.89591, 1.75871, 1.81074, 1.76181, 1.80929, 1.82825, 1.7592, 1.87239, 1.89617, 1.89045, 1.94909, 1.75903, 1.76174, 1.76056, 1.75897, 1.75997, 1.81378, 1.8135, 1.87972, 1.76286, 1.88248, 1.87999, 1.75888, 1.75991, 1.76113, 1.89773, 1.89496, 1.76152, 1.76113, 1.83001, 1.76165, 1.75907, 1.76236, 1.76222, 1.76128, 1.89029
2.14557, 2.14333, 1.94467, 1.93953, 1.99131, 2.14294, 2.14441, 1.93389, 1.93545, 2.04292, 2.05539, 1.93196, 1.9319, 1.93038, 1.98086, 1.92837, 1.93028, 1.92793, 2.04834, 2.04942, 1.92585, 1.97391, 1.9232, 1.9233, 1.92028, 1.92156, 1.91565, 1.91744, 1.96702, 1.91327, 1.96673, 1.98178, 1.99962, 2.00064, 1.91016, 1.9599, 1.95942, 1.95797, 1.95924, 1.90796, 2.02717, 1.90753, 2.10077, 1.90796, 1.95806, 2.09973, 1.90934, 2.09744, 1.90926, 1.90989, 2.08972, 1.99673, 1.90831, 1.91001, 1.90924, 2.08327, 2.05, 2.05151, 1.96844, 2.08424, 2.04279, 2.04247, 2.04192, 2.04127, 1.96121, 2.03667, 2.03377, 2.03176, 2.03106, 2.02945, 2.07614, 2.07477, 2.02497, 1.94783, 2.02082, 2.07395, 1.94428, 1.94369, 2.01442, 2.0164, 2.01514, 2.01343, 2.01366, 1.93629, 1.9346, 2.00954, 2.00705, 2.00672, 2.00693, 2.06497, 2.16235, 2.06281, 2.06274, 2.00365, 2.06237, 2.00564, 2.06073, 1.92876, 2.00671, 2.00577, 2.00663, 2.00577, 2.01148, 2.05788, 2.01441, 2.05503, 2.05491, 2.02196, 2.02648, 2.04997, 2.05183, 2.05125, 2.02308, 2.02104, 2.0204, 2.10444, 2.10515, 2.01837, 2.11456, 2.0967, 2.01465, 2.01377, 2.09069, 2.01333, 2.0129, 2.01318, 2.01374, 2.01263, 2.01177, 2.01139, 2.01084, 2.09607, 2.10254, 2.01005, 2.00969, 2.0095, 2.0904, 2.09773, 2.10735, 2.00794, 2.10691, 2.00712, 2.07994, 2.00667, 2.00712, 2.00527, 2.09696, 2.07991, 2.07697, 2.09112, 2.09274, 2.0874, 2.08694, 1.99934, 2.0001, 2.07998, 2.08067, 2.10386, 1.99557, 1.99347, 2.09138, 1.99457, 2.09087, 1.99234, 2.08629, 1.99005, 2.08144, 2.07283, 2.07522, 2.07507, 2.07075, 2.07366, 2.07484, 2.0738, 2.05892, 2.07393, 2.072, 2.08236, 2.06837, 2.05241, 1.97849, 1.97503, 2.05731, 2.0556, 1.97503, 1.97571, 2.05906, 2.05099, 2.05145, 1.95179, 1.90113, 1.89622, 2.00989, 2.10742, 1.89412, 1.88973, 1.88674, 1.88494, 2.0108, 1.88321, 1.88252, 1.87869, 1.87935, 1.87584, 1.97508, 1.97426, 1.87357, 1.87193, 1.87329, 1.9213, 1.9804, 1.86687, 1.86544, 1.9176, 1.91704, 1.86482, 2.08725, 1.99712, 1.86517, 2.07559, 2.07343, 1.99317, 1.96903, 1.8604, 1.8616, 1.91093, 1.91011, 1.85797, 2.08007, 1.86012, 1.85887, 1.85731, 1.8564, 1.90905, 1.90875, 1.90825, 1.78825, 1.88615, 1.8363, 1.89185, 1.87798, 1.83113, 1.77918, 1.77641, 1.7763, 1.90266, 1.77289, 1.77167, 1.94489, 1.77025, 1.76791, 1.81796, 1.87711, 1.898, 1.76459, 1.76398, 1.7625, 1.89993, 1.897, 1.89704, 1.94749, 1.89627, 1.76188, 1.75907, 1.88935, 1.80994, 1.80986, 1.87745, 1.81057, 1.80986, 1.80687, 1.88925, 1.82891, 2.01494, 1.76106, 1.75751, 1.76092, 1.76, 1.8962, 1.75815, 1.82454, 1.75979, 1.88008, 1.87864, 1.87619, 1.87631, 1.81306, 1.7621, 1.75886, 1.89741, 1.89582, 1.76248, 1.76202, 1.75961, 1.75951, 1.89185, 1.76409, 1.76466, 1.76094, 1.76215
1.99491, 1.9434, 1.99325, 2.04857, 1.94088, 1.94206, 1.94028, 1.93675, 1.93673, 2.02782, 1.93287, 1.93177, 1.93281, 1.932, 1.93097, 2.13812, 2.13195, 2.05096, 1.92724, 1.92462, 1.92649, 1.97532, 1.97504, 1.92337, 1.92194, 1.92196, 1.92104, 2.04219, 1.91825, 1.91402, 1.91616, 1.91417, 1.99971, 1.96133, 1.96159, 1.96206, 1.95874, 2.0177, 1.90776, 1.90951, 2.02694, 2.0262, 1.90738, 1.95697, 1.90815, 2.02571, 1.90733, 2.1272, 2.12814, 1.90702, 1.90656, 2.01163, 1.90818, 1.90886, 1.99714, 2.08601, 2.04905, 2.04841, 2.0486, 2.04213, 1.96807, 2.08116, 2.04163, 1.9614, 2.0377, 2.07893, 2.03828, 2.0378, 2.03152, 2.03189, 2.03079, 2.02603, 2.15143, 2.15102, 1.94803, 1.94468, 1.94553, 2.07108, 2.01931, 2.07206, 1.93903, 2.06959, 2.01112, 1.93531, 2.01111, 2.01075, 2.00865, 2.00788, 1.93037, 2.00351, 2.00508, 2.00438, 2.00539, 1.92931, 2.00538, 2.00528, 2.00589, 2.00646, 1.93274, 2.00683, 1.93285, 2.00969, 2.01096, 2.05488, 2.13332, 2.14944, 2.02346, 2.02216, 2.05204, 2.02763, 2.14946, 2.1422, 2.12777, 2.11718, 2.10734, 2.01991, 2.11376, 2.11421, 2.11107, 2.01611, 2.01388, 2.0136, 2.01321, 2.01126, 2.00877, 2.09329, 2.01087, 2.08986, 2.00917, 2.11072, 2.08721, 2.10822, 2.10123, 2.10112, 2.10235, 2.09589, 2.09411, 2.10312, 2.10169, 2.1079, 2.00733, 2.08086, 2.08084, 2.0968, 2.00704, 2.00588, 2.09481, 2.0806, 2.10483, 2.07796, 2.00286, 2.08308, 2.11059, 2.08743, 2.07804, 1.99782, 1.9976, 2.0934, 2.10299, 2.07638, 1.99686, 1.99448, 2.0845, 2.09009, 2.08498, 2.07955, 2.07371, 2.07565, 1.98862, 1.98704, 1.9867, 2.07307, 2.06249, 2.0673, 1.98439, 2.07952, 2.05687, 2.05549, 2.0557, 2.05286, 2.05824, 2.04957, 2.05611, 2.05568, 1.97661, 1.97611, 1.97731, 2.0515, 2.06671, 2.06736, 1.94915, 1.89687, 1.89627, 1.89374, 1.89218, 1.88825, 1.88935, 2.00191, 1.88471, 1.88272, 1.88197, 1.93066, 1.92917, 1.92856, 1.99322, 1.87228, 1.92358, 1.92331, 1.92316, 1.92093, 1.87142, 1.97874, 1.86712, 1.865, 1.86648, 1.99687, 2.08715, 2.08394, 1.86267, 1.86491, 1.99492, 1.86207, 1.9693, 1.86112, 1.9545, 1.95204, 1.85868, 1.86042, 1.85804, 1.85953, 1.90841, 1.92964, 1.85712, 1.85873, 1.90697, 1.90749, 1.83755, 1.87622, 1.87574, 1.8324, 1.89112, 1.88909, 1.77644, 1.89421, 1.77463, 1.77251, 1.77134, 1.76915, 1.94457, 1.89048, 1.76591, 1.76172, 1.765, 1.89392, 1.893, 1.89965, 1.76115, 1.76151, 1.89646, 1.89581, 1.75919, 1.75893, 1.99786, 1.89735, 1.75756, 1.75654, 1.80812, 1.75632, 1.80882, 1.75746, 1.80656, 1.88883, 1.75956, 1.75863, 1.89579, 1.75599, 1.8998, 1.89622, 1.75841, 1.7595, 1.82443, 1.87878, 1.87921, 1.87706, 1.92718, 1.8774, 1.81147, 1.7581, 1.86645, 1.7602, 1.76102, 1.76143, 1.76234, 1.89037, 1.98866, 1.89239, 1.89023, 1.76202, 1.90881, 1.76223
1.99511, 1.99634, 1.94203, 1.94115, 1.94312, 1.98976, 1.94175, 2.03046, 1.94044, 2.02756, 1.98615, 1.93707, 2.13798, 1.93231, 1.93256, 2.05597, 1.93277, 1.93123, 2.05001, 1.92542, 1.92649, 2.05202, 1.9248, 1.97292, 1.92315, 2.13511, 2.04158, 1.91777, 2.13835, 2.1316, 1.91656, 2.13467, 1.91293, 2.0371, 1.9612, 1.96, 1.96147, 1.95898, 1.95852, 1.95885, 1.95979, 2.01485, 1.90888, 2.10256, 2.10345, 2.00788, 1.90723, 1.9095, 1.95949, 1.90674, 1.90713, 2.08847, 1.95926, 1.91016, 1.91023, 2.0513, 2.1641, 2.16038, 2.04678, 2.04007, 2.08335, 2.08258, 1.9662, 2.04123, 2.03979, 2.07864, 2.03432, 1.95709, 1.95602, 2.03065, 2.02663, 2.07684, 2.02337, 2.02365, 2.02172, 2.0197, 2.02039, 2.02152, 1.94258, 2.01471, 2.01496, 1.93528, 2.01322, 2.01112, 2.00986, 2.00928, 2.00942, 2.15456, 1.93033, 2.0062, 2.00869, 2.00664, 1.92997, 2.00396, 1.92867, 2.05835, 2.14849, 2.05974, 2.00807, 2.00805, 2.01017, 1.93356, 2.05873, 2.01671, 2.01384, 2.02023, 2.02056, 2.024, 2.02492, 2.05182, 2.04875, 2.05197, 2.10846, 2.11393, 2.02055, 2.10405, 2.10494, 2.11082, 2.11011, 2.01573, 2.01688, 2.01418, 2.01535, 2.01774, 2.00889, 2.00868, 2.10609, 2.0897, 2.09418, 2.094, 2.01043, 2.01058, 2.10443, 2.09424, 2.09181, 2.09732, 2.00701, 2.12179, 2.09708, 2.11493, 2.08331, 2.10393, 2.08938, 2.09759, 2.00641, 2.09617, 2.10051, 2.00286, 2.00158, 2.09813, 2.08918, 2.09132, 1.99834, 2.08557, 2.09857, 2.1067, 2.07873, 2.09054, 2.08417, 2.08851, 2.07697, 2.07777, 2.07598, 1.99289, 2.07878, 1.99262, 2.08035, 2.09317, 1.98942, 2.08445, 1.98725, 1.98689, 2.0635, 2.06041, 2.07452, 2.0586, 2.09067, 2.07606, 2.05373, 2.05957, 2.05805, 1.97764, 1.97559, 1.97752, 2.05512, 1.97698, 2.0651, 1.97584, 2.0696, 1.95074, 1.94826, 1.89706, 1.89503, 2.0069, 2.00714, 2.00625, 1.88725, 1.88543, 1.88512, 1.88269, 1.88189, 1.87871, 1.92857, 1.92846, 1.96867, 1.98226, 1.98146, 1.87161, 1.92135, 1.92009, 1.8704, 1.86901, 1.86768, 2.06003, 1.9356, 1.92749, 1.86307, 1.86483, 1.86308, 1.86025, 1.99698, 1.86155, 1.99521, 1.99597, 1.86007, 1.99613, 1.99616, 1.99309, 1.85886, 1.8585, 1.85775, 1.85818, 1.85641, 1.94903, 1.8576, 2.09361, 1.78566, 1.88643, 1.88353, 1.77918, 1.89123, 1.82914, 1.82815, 1.7728, 1.89403, 1.77193, 1.89366, 1.89259, 1.76803, 1.7681, 1.76544, 1.76372, 1.89653, 1.89459, 1.76346, 1.7636, 1.75871, 1.75555, 1.76178, 1.7598, 1.87993, 2.09902, 1.89658, 1.75719, 1.99606, 1.89556, 1.75818, 1.80833, 1.80924, 1.75524, 1.89502, 1.75649, 1.755, 1.89436, 1.75666, 1.75619, 1.75818, 1.85817, 1.7577, 1.75633, 1.88952, 1.75796, 1.81135, 1.80947, 1.87592, 1.82037, 1.75916, 1.89323, 1.89232, 1.89358, 1.76466, 1.76171, 1.7614, 1.89039, 1.76026, 1.75851, 1.76173, 1.89274, 1.90873, 1.90417
1.99747, 1.94536, 1.94471, 1.94449, 2.04918, 2.05115, 1.99031, 1.9383, 1.93897, 1.98541, 1.98627, 2.04508, 2.04817, 2.13424, 1.93364, 1.93072, 1.98048, 2.04755, 2.02095, 1.92773, 2.12552, 1.92728, 1.92683, 1.92509, 1.92621, 2.04467, 1.92346, 1.92023, 1.91799, 1.96761, 1.96877, 1.91703, 1.91466, 1.914, 2.01049, 1.90656, 1.90738, 1.90785, 1.99683, 1.95828, 1.95869, 1.90657, 1.90816, 1.90855, 1.90808, 1.911, 1.95846, 1.96041, 1.95978, 1.90675, 2.08948, 1.90836, 1.90873, 1.91065, 1.91185, 1.91149, 2.08761, 2.08443, 2.04708, 1.96921, 2.04424, 2.04338, 2.03955, 2.04236, 2.15917, 2.15852, 2.0357, 2.1634, 2.03459, 2.03287, 2.03141, 2.07963, 2.07542, 1.94863, 1.94712, 2.02141, 2.02234, 2.02094, 2.01828, 2.01734, 1.93791, 2.07123, 2.06969, 2.01064, 2.00777, 2.00765, 2.15264, 2.0065, 1.93231, 2.00693, 2.0085, 2.00918, 1.92931, 2.00518, 2.00516, 2.00715, 2.00757, 2.0603, 2.00907, 2.00802, 2.00712, 2.01104, 2.0558, 2.01472, 2.14555, 2.05387, 2.02072, 2.05162, 2.05544, 2.05302, 2.05123, 2.02345, 2.11329, 2.11509, 2.12107, 2.11592, 2.01732, 2.09715, 2.09402, 2.01707, 2.01675, 2.01506, 2.01386, 2.01712, 2.08791, 2.01379, 2.10269, 2.08978, 2.01129, 2.08636, 2.01027, 2.01043, 2.09766, 2.11434, 2.10733, 2.09568, 2.09119, 2.09621, 2.09993, 2.09374, 2.08704, 2.09494, 2.09812, 2.08898, 2.09795, 2.10069, 2.09413, 2.09722, 2.097, 2.09231, 2.09375, 2.09282, 2.00142, 2.09044, 2.0852, 1.99805, 1.9993, 2.0857, 2.09596, 2.07313, 2.0778, 1.9936, 2.07986, 1.9934, 2.08102, 2.08271, 2.09318, 1.99051, 1.98918, 1.988, 2.07315, 2.06268, 2.06975, 2.06365, 2.0772, 2.05898, 2.07885, 2.07714, 2.06968, 2.0592, 1.97983, 2.05246, 2.05175, 1.97645, 2.04808, 2.05203, 1.97569, 2.07266, 2.06621, 1.95076, 1.90035, 1.8972, 1.89578, 1.89284, 1.94168, 1.9392, 1.88794, 1.88555, 2.10202, 1.88266, 1.88111, 1.88186, 1.93004, 1.87681, 1.92582, 1.87291, 1.87452, 1.87299, 1.87146, 1.92049, 1.91928, 1.8689, 1.8669, 1.86492, 1.93604, 1.86297, 1.86425, 1.86264, 1.8595, 1.93193, 1.99361, 1.85938, 1.86104, 1.86096, 1.96566, 1.85705, 1.85643, 1.85835, 1.8593, 1.85661, 1.95802, 1.99293, 1.85629, 1.85567, 1.9877, 1.85539, 1.78262, 1.78196, 1.77881, 1.8921, 1.77911, 1.82754, 1.77524, 1.77333, 1.77275, 1.76939, 1.88971, 1.88967, 1.7652, 1.76523, 1.89392, 1.89465, 1.89242, 1.76447, 1.76205, 1.86019, 1.85759, 1.89595, 1.75908, 1.88723, 1.88001, 1.87762, 1.7582, 1.84562, 1.75808, 1.85847, 1.85775, 1.75592, 1.89603, 1.7564, 1.89758, 1.75328, 1.89143, 1.89982, 1.88952, 1.75306, 1.75377, 1.89734, 1.75686, 1.89047, 1.75644, 1.89281, 1.7579, 1.87862, 1.80967, 1.80941, 1.76118, 1.88292, 1.76131, 1.89298, 1.86528, 1.7609, 1.8881, 1.76107, 1.75777, 1.76242, 1.7607, 1.7601, 1.75908, 1.76516
1.99678, 2.12797, 1.94379, 1.94435, 2.04893, 2.12821, 1.99232, 1.93735, 1.93888, 1.93825, 1.98642, 1.98546, 1.98459, 1.93488, 1.9832, 1.98132, 1.9809, 2.11458, 1.92954, 1.97915, 1.92791, 1.92776, 1.92474, 2.04878, 1.92403, 1.92447, 1.92406, 1.92138, 1.97138, 1.96891, 1.91705, 1.91672, 1.9167, 2.03813, 1.91095, 2.02402, 1.90904, 1.90995, 1.90818, 1.91009, 1.90836, 1.95812, 1.95952, 2.10383, 2.03095, 1.9112, 1.90937, 2.01739, 2.01763, 1.90949, 1.90493, 1.90711, 1.90827, 1.91036, 1.91011, 2.16681, 2.05299, 2.17712, 2.08954, 1.96987, 2.04341, 2.04171, 2.04138, 2.04217, 2.08121, 2.04073, 2.03561, 2.0798, 2.16398, 1.95801, 2.03037, 2.02858, 2.02386, 2.15953, 2.07589, 2.02108, 2.02113, 2.01943, 1.94152, 2.07274, 1.93946, 2.01458, 2.01501, 2.01227, 2.15912, 2.00844, 2.00886, 1.93406, 2.00635, 1.9307, 2.00498, 1.93018, 2.00459, 1.93083, 2.00548, 1.9291, 2.00749, 2.14202, 2.06018, 2.00841, 1.93233, 2.01129, 2.01191, 2.14588, 2.01676, 2.02167, 1.94551, 1.94545, 2.15546, 1.95132, 2.14323, 2.0231, 2.10568, 2.02086, 2.10721, 2.10692, 2.09438, 2.09424, 2.01586, 2.09006, 2.01711, 2.01543, 2.01561, 2.0112, 2.01241, 2.01298, 2.11455, 2.10841, 2.10384, 2.09852, 2.08467, 2.09741, 2.10426, 2.08501, 2.08428, 2.09086, 2.00851, 2.00977, 2.10389, 2.00899, 2.1035, 2.10137, 2.10466, 2.08105, 2.08622, 2.09109, 2.09067, 2.0992, 2.09384, 2.00156, 2.00275, 2.08486, 2.10133, 2.0975, 2.09999, 1.99962, 1.99807, 2.08926, 2.08563, 2.08732, 1.994, 2.07897, 1.99266, 2.08104, 2.07681, 1.99155, 2.08862, 2.08402, 2.07408, 1.98729, 2.07879, 2.07934, 2.08986, 2.08591, 2.08371, 2.08253, 2.06678, 2.05439, 2.07671, 1.97927, 1.98256, 1.97968, 1.97617, 1.97583, 1.97671, 1.97562, 1.97623, 1.97619, 2.07708, 1.90035, 2.02773, 1.89745, 1.89614, 2.00341, 1.89287, 1.93877, 1.93727, 1.93719, 1.88344, 1.88068, 1.88208, 1.88214, 1.87824, 1.87807, 2.00409, 1.87307, 1.87404, 1.87321, 1.99986, 1.87062, 1.86952, 2.0036, 1.86862, 1.86513, 1.86509, 1.86468, 2.07985, 1.86277, 1.86468, 2.07208, 1.99514, 1.86117, 1.86133, 1.96735, 1.96555, 1.85671, 1.85903, 1.8579, 1.8583, 1.85662, 2.09648, 1.85732, 1.85567, 1.85685, 1.85545, 1.85625, 1.85575, 1.7832, 1.78045, 1.89222, 1.77662, 1.77543, 1.77346, 1.94924, 1.87404, 1.77065, 1.76945, 1.76755, 1.89649, 1.89606, 1.76215, 1.76216, 1.76202, 1.76162, 1.75893, 1.75873, 1.75809, 1.89373, 1.75916, 1.75676, 1.80654, 1.75792, 1.88897, 1.75778, 1.89615, 1.89367, 1.75496, 1.75622, 1.75568, 1.85857, 1.75323, 1.75358, 1.75434, 1.89289, 1.75577, 1.75345, 1.75726, 1.7577, 1.8903, 1.7575, 1.89411, 1.89616, 1.89285, 1.75623, 1.75503, 1.7591, 1.75885, 1.75764, 1.88991, 2.01414, 1.75722, 1.76273, 1.76147, 1.75948, 1.98992, 1.7622, 1.81111, 1.81291, 1.82879, 1.7624
1.99448, 1.9446, 1.94437, 1.99325, 1.9395, 1.94369, 1.93972, 1.94066, 1.93832, 1.93762, 1.93695, 1.98577, 1.99299, 1.93446, 1.93463, 2.04114, 2.04152, 2.03958, 1.9296, 1.98012, 1.93087, 2.01617, 2.04922, 1.92539, 1.92382, 2.12131, 2.13155, 2.12397, 2.12197, 2.12167, 2.12113, 1.91487, 2.02141, 1.91343, 1.91199, 1.90985, 1.90803, 2.03521, 1.90953, 1.90985, 1.91031, 1.90999, 1.96594, 1.95881, 1.90769, 1.90956, 1.90866, 1.95931, 2.01984, 2.01682, 1.90994, 2.00284, 2.00149, 2.00199, 1.91257, 2.16575, 2.05278, 2.17659, 2.04837, 2.04871, 2.16603, 2.08581, 2.04409, 2.04351, 2.08234, 2.16002, 2.07948, 1.95871, 2.03273, 2.03219, 2.03086, 2.03035, 2.07749, 2.07647, 2.07704, 2.17505, 1.94443, 2.01824, 2.01787, 2.01709, 1.93879, 2.01627, 1.93833, 1.9371, 2.01034, 1.93465, 2.00816, 2.14308, 2.00728, 2.06599, 1.93042, 2.00343, 2.00804, 2.00791, 2.00703, 2.00612, 2.00634, 1.93276, 2.05871, 2.00718, 2.00766, 2.01211, 2.05547, 1.93907, 2.0158, 2.01789, 2.02006, 2.05293, 2.02722, 1.95798, 2.14533, 2.02347, 2.02396, 2.09917, 2.12252, 2.11998, 2.09498, 2.11466, 2.09132, 2.01553, 2.01749, 2.01314, 2.01375, 2.01214, 2.01199, 2.01237, 2.11021, 2.013, 2.08809, 2.10336, 2.08687, 2.11023, 2.01045, 2.08633, 2.08487, 2.10714, 2.1181, 2.01049, 2.00993, 2.09642, 2.08799, 2.00761, 2.00692, 2.09322, 2.00674, 2.0052, 2.00306, 2.09085, 2.09802, 2.08694, 2.08549, 2.09759, 2.09781, 2.09642, 2.07932, 1.99765, 2.10437, 2.0866, 2.0901, 2.09009, 2.07184, 2.07592, 2.06873, 2.06774, 2.06818, 2.07167, 2.07619, 2.07356, 1.98907, 1.9892, 1.98884, 1.98915, 1.98566, 2.07736, 2.07731, 2.06644, 2.05567, 1.98087, 2.05265, 1.97916, 1.97842, 1.98167, 1.97668, 1.97636, 1.97583, 1.97508, 2.06424, 2.07491, 2.06215, 1.9002, 1.99359, 1.97523, 1.89212, 1.89211, 1.94111, 1.93801, 1.93747, 1.93739, 1.94395, 1.94352, 1.88205, 1.88032, 1.87899, 1.87572, 2.00263, 2.00119, 1.87217, 2.00068, 1.96855, 2.00079, 1.86877, 1.86692, 2.00315, 1.86572, 1.86323, 1.86228, 2.08294, 1.86331, 1.96249, 1.86112, 1.86118, 1.86094, 1.86011, 1.86043, 1.85829, 1.99595, 1.85812, 1.99637, 1.99361, 1.85598, 1.85421, 1.85392, 1.85662, 2.08993, 2.08452, 2.09033, 1.96571, 1.78295, 1.77983, 1.77815, 1.88306, 1.82399, 1.77295, 1.77144, 1.89002, 1.88984, 1.89475, 1.89295, 1.7632, 1.76444, 1.76138, 1.89092, 1.88919, 1.89656, 1.87203, 1.87059, 1.89714, 1.89631, 1.75568, 1.80986, 1.86979, 1.86776, 1.86213, 1.8971, 1.7577, 1.89548, 1.75579, 1.75398, 1.90049, 1.89596, 1.89463, 1.89992, 1.75524, 1.7556, 1.75542, 1.85613, 1.7554, 1.75531, 1.89046, 1.89198, 1.75642, 1.89279, 1.75592, 1.89176, 1.89103, 1.86929, 1.88884, 1.88803, 1.89124, 1.88948, 1.75808, 1.75967, 1.8821, 1.76117, 1.7594, 1.88607, 1.76408, 1.7613, 1.76212, 1.89368
1.94531, 2.06367, 1.94353, 1.993, 1.94393, 1.94466, 2.06769, 1.94093, 1.9416, 1.94066, 1.93438, 2.03465, 2.03247, 1.93566, 2.05137, 1.93079, 1.93178, 1.98142, 1.98003, 1.93009, 1.92908, 1.92714, 1.92688, 2.00709, 1.92579, 1.92488, 1.92522, 1.92131, 1.92128, 1.91913, 2.04695, 1.91671, 1.96622, 1.96497, 1.96366, 1.96217, 1.91133, 1.91047, 1.96717, 1.95806, 1.9091, 1.90885, 2.02363, 2.01988, 1.91002, 2.01393, 2.01521, 1.96024, 1.95926, 1.90857, 2.01861, 2.09008, 1.90871, 1.91024, 1.9111, 2.05296, 1.9776, 2.16655, 2.04904, 2.04758, 2.04583, 1.96798, 1.96777, 2.0414, 2.04219, 2.08538, 2.03439, 2.0348, 2.0337, 2.17909, 2.03051, 2.07894, 1.95024, 2.0271, 2.02583, 2.02179, 1.94482, 2.01839, 2.01809, 2.01837, 2.01702, 1.9378, 2.01336, 2.16248, 2.01177, 2.0703, 1.9353, 2.16628, 2.00589, 2.00729, 2.00642, 2.14205, 2.00643, 2.00545, 2.00701, 2.00592, 2.00723, 1.92987, 2.05906, 2.00784, 1.93282, 2.01279, 2.01359, 2.01199, 2.01528, 1.94112, 2.02501, 2.02387, 2.13801, 2.05302, 2.13865, 2.02484, 2.02289, 2.12055, 2.09951, 2.09915, 2.01794, 2.09737, 2.09103, 2.09392, 2.01363, 2.0123, 2.01402, 2.01319, 2.01237, 2.01131, 2.10445, 2.09434, 2.08775, 2.11157, 2.08969, 2.10044, 2.1034, 2.1235, 2.08435, 2.0947, 2.0106, 2.01031, 2.09397, 2.09462, 2.09443, 2.00801, 2.11209, 2.08551, 2.10526, 2.09801, 2.09937, 2.09719, 2.10064, 2.09611, 2.09897, 2.09498, 1.99962, 2.09368, 2.09091, 2.08598, 2.09031, 2.08972, 1.99676, 2.07314, 1.99437, 2.07359, 2.08432, 2.08348, 2.07608, 2.07627, 2.07593, 2.08277, 2.07493, 2.07135, 2.07066, 2.07664, 1.98545, 2.07282, 2.07091, 2.07541, 2.07629, 2.06941, 1.98064, 1.97893, 1.97686, 1.97744, 1.97664, 1.97587, 1.97657, 1.97768, 2.0558, 2.06227, 2.05138, 1.94908, 1.94805, 2.00205, 2.01781, 1.89153, 1.9841, 1.93852, 1.93761, 1.93599, 2.07833, 1.93287, 1.93034, 1.87809, 1.87537, 2.0084, 1.87396, 2.10362, 2.08655, 1.86953, 1.86731, 2.00211, 1.86569, 1.86621, 1.86509, 1.86462, 1.86345, 1.86363, 1.8628, 1.86231, 1.8592, 1.9126, 1.91044, 1.861, 1.85985, 1.85876, 1.85971, 1.8591, 1.85739, 1.85656, 1.85517, 1.8547, 1.85456, 1.85798, 1.85562, 1.99443, 2.09053, 1.85551, 1.88453, 1.77973, 1.77872, 1.77689, 1.77497, 1.7718, 1.77133, 1.89319, 1.94468, 1.88667, 1.76634, 1.76431, 1.81517, 1.7624, 1.81211, 1.76087, 1.89382, 1.89075, 1.75922, 1.75715, 1.75701, 1.75745, 1.75812, 1.89263, 1.86047, 1.88952, 1.88632, 1.89674, 1.8932, 1.89478, 1.75503, 1.89648, 1.75406, 1.85865, 1.86603, 1.89331, 1.89611, 1.75241, 1.75468, 1.75456, 1.89292, 1.89082, 1.7544, 1.75523, 1.75445, 1.75506, 1.75618, 1.85611, 1.75611, 1.88914, 1.75592, 1.75625, 1.85878, 1.75762, 1.75611, 1.86139, 1.7604, 1.87009, 1.86783, 1.88419, 1.76187, 1.76325, 1.76295, 1.76296
2.052, 1.94643, 1.94431, 1.94633, 1.94257, 1.94239, 1.94125, 1.9418, 2.06305, 1.93939, 1.93849, 2.04346, 1.93391, 1.93399, 2.05604, 1.9307, 2.05509, 2.05561, 2.052, 2.05301, 1.93025, 1.92645, 1.97552, 1.97662, 2.04878, 1.92702, 1.92361, 2.03901, 1.92393, 1.92071, 1.91914, 1.91825, 2.02346, 2.02403, 1.96493, 1.96257, 2.09666, 1.91006, 1.91053, 1.95816, 2.01507, 1.90763, 1.95942, 2.0188, 1.95934, 1.90725, 1.95965, 2.08234, 1.90955, 1.91016, 1.9114, 2.01689, 2.00349, 1.91023, 1.90988, 2.05525, 2.05228, 2.16588, 2.05166, 2.08597, 2.16571, 1.96979, 2.08578, 2.04372, 2.04415, 2.08403, 2.03827, 2.03924, 2.03362, 2.15546, 2.16137, 2.03061, 2.02782, 2.0293, 2.02502, 2.02371, 2.02102, 2.15236, 2.15182, 2.07242, 2.01784, 2.01688, 2.01655, 2.17051, 2.0122, 2.01153, 2.012, 2.01052, 2.00741, 1.93181, 2.00913, 2.16146, 2.00667, 1.93176, 2.00673, 2.00683, 1.93178, 2.00764, 2.01034, 1.93192, 2.00972, 2.01264, 2.01302, 1.93861, 2.01498, 2.01777, 2.01893, 2.05139, 2.02552, 2.02724, 2.05154, 2.05029, 2.02394, 2.14047, 2.12518, 2.02129, 2.09499, 2.09544, 2.09498, 2.09274, 2.01583, 2.01375, 2.01375, 2.01125, 2.0126, 2.01193, 2.11444, 2.11376, 2.0884, 2.01102, 2.10736, 2.08501, 2.11203, 2.08704, 2.10023, 2.09914, 2.10774, 2.10314, 2.10041, 2.00733, 2.10462, 2.00651, 2.10618, 2.09041, 2.09389, 2.09769, 2.10047, 2.00286, 2.08189, 2.09655, 2.09316, 2.09428, 2.08411, 2.08008, 2.07792, 1.9977, 2.08543, 2.08958, 2.07941, 2.08426, 2.08633, 2.08226, 2.08391, 2.06882, 2.08074, 2.08342, 2.08871, 2.07724, 2.07642, 2.0695, 2.07353, 1.98642, 2.07355, 2.07328, 2.07208, 2.07458, 2.07241, 1.98003, 1.97956, 2.06292, 1.97651, 1.97607, 1.97742, 1.97648, 1.97626, 2.05657, 2.05257, 2.05188, 2.05109, 2.00999, 2.08367, 1.89476, 1.89281, 1.89155, 1.88885, 1.88754, 1.93767, 1.8855, 1.93462, 1.88251, 1.87724, 1.93767, 1.87674, 2.08574, 2.00382, 2.00289, 1.96143, 1.98699, 1.87035, 2.07785, 1.86807, 1.95761, 1.95647, 1.99595, 1.86357, 1.8649, 1.86342, 1.91182, 1.91203, 1.91132, 1.85826, 1.85871, 1.90914, 1.99646, 1.85829, 1.98771, 1.85744, 1.90634, 1.90765, 1.90735, 1.85732, 1.85569, 1.98893, 2.08503, 1.85824, 1.85604, 1.88386, 1.77993, 1.77683, 1.89294, 1.7749, 1.77357, 1.77309, 1.87824, 1.88127, 1.87895, 1.76083, 1.76307, 1.87895, 1.81308, 1.92786, 1.87936, 1.87843, 1.75901, 1.75864, 1.94594, 1.85442, 1.75646, 1.89793, 1.95784, 1.75418, 1.75104, 1.89426, 1.75385, 1.75446, 1.75526, 1.75481, 1.89314, 1.89211, 1.89328, 1.89544, 1.75322, 1.75451, 1.75097, 1.87962, 1.75448, 1.89425, 1.75451, 1.75548, 1.75439, 1.75186, 1.75336, 1.85455, 1.88933, 1.75739, 1.89043, 1.89273, 1.7534, 1.75526, 1.86876, 1.89012, 1.75916, 1.88601, 1.88321, 1.8788, 1.75888, 1.88096, 1.75816, 1.87646, 1.76118
1.94826, 1.94196, 1.94394, 1.94495, 2.06595, 2.06202, 2.07094, 1.94132, 1.93879, 2.06215, 2.02863, 1.93903, 2.12766, 2.03411, 1.93417, 1.93425, 1.93426, 1.93277, 1.93294, 1.92931, 1.93026, 1.92899, 1.92918, 1.9286, 1.92647, 1.97754, 2.12106, 2.04105, 1.97335, 1.91851, 2.13599, 1.91768, 1.91717, 2.01683, 1.91498, 2.04052, 2.02436, 1.91194, 2.03624, 1.90771, 1.90817, 1.90924, 1.95867, 1.9598, 1.96125, 2.00583, 1.91141, 1.9084, 1.91042, 1.91073, 2.09413, 1.90972, 1.91094, 1.90993, 1.91088, 2.05802, 2.05668, 2.05132, 2.05001, 2.16313, 2.04882, 2.04589, 2.04642, 2.0836, 2.08592, 2.03697, 2.16632, 2.03743, 2.03725, 2.07771, 2.07956, 2.16753, 2.02856, 2.07803, 2.08264, 1.94832, 2.02015, 1.94456, 2.07295, 2.01855, 2.07263, 2.07186, 2.163, 1.94048, 2.01132, 2.14802, 2.00863, 2.00951, 1.93336, 2.01045, 2.00774, 1.93236, 2.06391, 1.93115, 2.00566, 2.00532, 2.00534, 1.93118, 2.01364, 1.93395, 2.00889, 2.01355, 1.93732, 2.01492, 1.94109, 2.0542, 1.94439, 2.05164, 2.05178, 2.0528, 2.14877, 2.0484, 2.1184, 2.11149, 2.10835, 2.11046, 2.01742, 2.10639, 2.09379, 2.09209, 2.09032, 2.01414, 2.01381, 2.01184, 2.0114, 2.01235, 2.08814, 2.08728, 2.0873, 2.01143, 2.01138, 2.10562, 2.10405, 2.01011, 2.09899, 2.01022, 2.09327, 2.10316, 2.10021, 2.00804, 2.08655, 2.09252, 2.0934, 2.11679, 2.09812, 2.00338, 2.00323, 2.09678, 2.08097, 2.00356, 2.00549, 2.00145, 2.09237, 1.99933, 1.99908, 2.0912, 2.09072, 2.09257, 2.08048, 2.10003, 2.08403, 2.10332, 2.08406, 2.07876, 2.07538, 2.07683, 2.10422, 1.98938, 2.097, 2.07298, 1.98861, 1.98627, 1.98549, 1.9852, 1.98316, 2.07416, 2.06597, 2.07562, 1.97973, 1.97982, 1.9761, 1.97701, 1.97635, 1.97646, 2.05862, 2.05669, 2.05191, 2.05173, 2.05107, 2.00293, 1.89797, 2.10805, 1.89337, 1.89311, 1.89049, 1.88947, 1.88782, 1.88421, 1.88277, 1.88182, 1.87861, 1.87809, 1.87801, 1.87637, 1.87382, 1.87264, 2.00081, 1.99794, 1.87026, 1.86841, 1.86715, 2.00172, 2.00042, 1.86582, 1.8628, 1.86239, 1.86251, 1.91106, 1.90991, 2.06303, 1.862, 1.85631, 1.9097, 1.909, 1.85651, 1.855, 1.85388, 1.85603, 1.94002, 1.90624, 1.85501, 1.85449, 1.85304, 1.8545, 1.85444, 1.85523, 1.78133, 1.77865, 1.77854, 1.99014, 1.89243, 1.77157, 1.88969, 1.82051, 1.76673, 1.7649, 1.89071, 1.76467, 1.76187, 1.87664, 1.92723, 1.87716, 1.75876, 1.75522, 1.89585, 1.99274, 1.8966, 1.75759, 1.94753, 1.75294, 1.85416, 1.75505, 1.86012, 1.75232, 1.8928, 1.74937, 1.75285, 1.75178, 1.75074, 1.75424, 1.7502, 1.75162, 1.89735, 1.89628, 1.93743, 1.75381, 1.89485, 2.0029, 2.00169, 1.89023, 1.75441, 1.75141, 1.85343, 1.75299, 1.88744, 1.88601, 1.88734, 1.75461, 1.9967, 1.88282, 1.75862, 1.7574, 1.75837, 1.75977, 1.7612, 1.76085, 1.75784, 1.88115, 1.76313, 1.8795
2.07575, 1.94533, 2.06622, 2.14158, 1.94105, 1.94219, 1.94271, 2.06039, 1.9377, 1.9388, 1.93859, 1.93647, 1.93799, 1.93475, 1.98558, 2.05761, 1.93438, 2.13894, 1.93103, 1.93259, 2.05214, 2.05301, 1.92994, 2.12779, 1.92513, 1.92573, 1.97569, 1.97368, 2.00235, 1.92224, 1.92256, 2.03969, 1.91732, 1.9176, 1.91404, 1.9127, 1.91298, 1.91278, 2.01315, 2.01418, 1.90946, 1.95831, 1.95955, 1.9092, 2.08587, 1.90806, 1.91121, 1.91122, 1.9077, 1.90822, 1.96134, 2.09363, 2.09377, 1.91047, 1.91073, 2.05544, 2.05828, 2.05038, 1.97476, 2.05191, 1.96927, 2.04571, 2.04616, 2.08212, 2.04146, 2.03524, 2.03493, 2.08284, 2.16925, 2.03338, 2.03348, 2.02886, 2.02819, 2.02867, 1.94989, 2.15304, 2.1528, 2.02191, 2.02064, 2.15044, 2.01679, 2.0166, 2.01477, 2.01535, 2.16588, 2.07144, 1.93487, 2.00862, 2.01105, 2.06694, 2.0101, 2.00696, 2.00929, 1.92781, 1.92896, 2.00624, 2.00689, 1.9309, 2.0071, 2.0069, 1.93493, 2.01126, 2.05588, 2.05863, 1.94087, 2.05507, 1.944, 2.02386, 2.03102, 2.05372, 2.05313, 1.9699, 2.11165, 2.11165, 2.02032, 2.12026, 2.10371, 2.11161, 2.1012, 2.09373, 2.09326, 2.01315, 2.01338, 2.01423, 2.01313, 2.01197, 2.1174, 2.01161, 2.01104, 2.10436, 2.09439, 2.09495, 2.11927, 2.01146, 2.09556, 2.09986, 2.00988, 2.00863, 2.08999, 2.00796, 2.00733, 2.092, 2.08636, 2.00615, 2.09345, 2.00581, 2.08587, 2.09494, 2.08308, 2.089, 2.08606, 2.09129, 2.08904, 2.08338, 2.0819, 2.08028, 2.08094, 1.99726, 2.09332, 2.10343, 1.99608, 2.08655, 2.08691, 2.08389, 2.08146, 2.07256, 2.08313, 2.08142, 2.08602, 2.08038, 2.0766, 2.07887, 1.98573, 2.07066, 2.07091, 1.98278, 2.06224, 1.98056, 2.07256, 1.9779, 1.97698, 2.05178, 1.97656, 1.97566, 1.97581, 1.9754, 2.06253, 2.04966, 1.90043, 1.90069, 1.89831, 1.89331, 2.00763, 1.89268, 1.88865, 1.93729, 1.8877, 1.88581, 1.88347, 2.00637, 1.87919, 2.00404, 1.9269, 1.87674, 1.87527, 2.00761, 1.87079, 1.86927, 1.92056, 1.86873, 2.00263, 2.00076, 2.00324, 2.00329, 1.86254, 1.91322, 1.86216, 1.91022, 1.9098, 1.98083, 2.06587, 2.05907, 1.90913, 1.90702, 1.85771, 1.8572, 1.85456, 1.85387, 1.85531, 1.85484, 1.85448, 1.85728, 1.85571, 1.85532, 1.9918, 1.98916, 1.78086, 1.77927, 1.77869, 1.89008, 1.77143, 1.77218, 1.77103, 1.76819, 1.89702, 1.89246, 1.88938, 1.76157, 1.76027, 1.81279, 1.76108, 1.81006, 1.89414, 1.75548, 1.89301, 1.85252, 1.75588, 1.75527, 1.75478, 1.89357, 1.7528, 1.89434, 1.75402, 1.75123, 1.74905, 1.89013, 1.88755, 1.75301, 1.7533, 1.75156, 2.00045, 1.75169, 1.75252, 1.75171, 1.75276, 1.88333, 1.75245, 1.75267, 1.75184, 1.88846, 1.75202, 1.75349, 1.75353, 1.75287, 1.88468, 1.75391, 1.855, 1.75508, 1.75589, 1.75812, 1.75549, 1.88474, 1.93198, 1.93041, 1.75808, 1.75925, 1.87589, 1.88251, 1.86964, 1.87907
1.94583, 2.04549, 1.94517, 1.94609, 1.94547, 1.94255, 1.94067, 2.06009, 1.93836, 1.93611, 1.98625, 1.98746, 1.93782, 2.05595, 1.98292, 1.93678, 1.93475, 1.93367, 1.93245, 2.12454, 1.93088, 2.02781, 1.92922, 1.93072, 1.9799, 1.98207, 2.10977, 1.92511, 2.00112, 1.92134, 1.92091, 1.92129, 1.91725, 1.91975, 2.03968, 1.91406, 1.91457, 2.03818, 1.90917, 2.01331, 1.90721, 1.9597, 2.03072, 2.03101, 1.9097, 1.95875, 1.90975, 2.02326, 2.02493, 2.02541, 1.91036, 1.91083, 1.91015, 1.91267, 1.91143, 2.05368, 1.9789, 2.05003, 2.05069, 2.08943, 2.04582, 2.04563, 1.96849, 2.08408, 1.96483, 2.03953, 2.08235, 2.03859, 2.17333, 2.08182, 2.16816, 2.03024, 2.03112, 1.95148, 2.02601, 2.02382, 2.07697, 2.02376, 2.02286, 2.07436, 2.14853, 2.14856, 1.93725, 2.07092, 2.15827, 2.01237, 2.01108, 2.0096, 2.00509, 2.06512, 2.00626, 2.00809, 2.00681, 2.00647, 1.93014, 2.00969, 2.01044, 2.14926, 1.93323, 2.05864, 2.05773, 2.05744, 2.0584, 1.93853, 2.14578, 2.01915, 2.05475, 1.94566, 2.05261, 2.03105, 2.13896, 2.13906, 2.1207, 2.02252, 2.02177, 2.10367, 2.10504, 2.10335, 2.09243, 2.09143, 2.01432, 2.01435, 2.01343, 2.01298, 2.012, 2.01285, 2.09129, 2.01003, 2.08691, 2.08675, 2.08644, 2.0122, 2.01135, 2.01144, 2.00878, 2.00756, 2.10074, 2.0939, 2.09362, 2.13546, 2.10072, 2.09976, 2.09615, 2.10333, 2.08924, 2.08941, 2.08655, 2.0965, 2.08387, 2.08385, 2.00013, 2.09925, 2.07657, 2.07283, 2.07842, 1.99737, 1.99831, 2.09005, 2.08239, 2.08612, 2.08363, 2.07916, 2.09081, 2.09049, 2.09695, 2.07194, 1.98952, 2.08399, 2.0822, 2.07704, 2.07541, 1.98718, 2.07116, 1.98299, 2.07651, 2.05629, 2.05496, 2.0781, 2.07951, 1.97777, 2.05208, 1.97541, 1.97529, 1.97769, 1.97532, 1.97325, 2.07047, 2.06847, 1.90007, 1.89762, 1.89836, 1.89254, 2.00665, 2.09395, 1.9393, 1.96166, 1.88623, 1.8853, 1.88222, 2.00721, 1.87853, 2.09043, 1.87724, 1.87569, 2.0012, 1.87236, 1.87134, 1.86929, 1.91818, 1.96566, 1.96367, 1.8669, 1.86534, 2.00424, 1.86466, 1.86294, 1.85851, 1.91011, 1.90978, 1.9093, 1.86011, 1.90998, 1.90849, 1.85804, 1.85643, 1.85693, 2.06745, 1.9937, 2.06756, 2.06949, 1.99128, 1.85443, 1.85572, 1.85471, 1.90368, 1.85468, 1.77939, 1.77743, 1.77807, 1.77345, 1.76952, 1.77124, 1.76867, 1.76731, 1.7661, 1.89444, 1.76449, 1.765, 1.8303, 1.82761, 1.827, 1.75586, 1.89365, 1.89259, 1.75777, 1.75488, 1.8914, 1.88997, 1.75433, 1.75249, 1.89115, 1.74939, 1.97994, 1.97878, 1.75186, 1.75107, 1.75088, 1.8924, 1.89223, 1.89222, 2.00533, 1.75225, 1.88982, 1.75121, 1.75241, 1.98609, 1.88598, 1.75152, 1.7514, 1.75083, 1.7531, 1.75201, 1.75277, 1.88666, 1.74882, 1.88818, 1.88465, 1.88237, 1.8802, 1.75609, 1.88859, 1.88521, 1.75769, 1.8798, 1.75742, 1.75846, 1.76087, 1.75834, 1.87723, 1.87917
2.06221, 1.94454, 1.944, 2.06561, 1.99448, 1.99659, 1.94197, 1.989, 1.94045, 1.94072, 1.94093, 1.93564, 2.05808, 2.05683, 2.13187, 1.9381, 1.93274, 1.93263, 1.93398, 2.05168, 2.12803, 2.04951, 1.92947, 1.97973, 1.98088, 1.97883, 2.1075, 1.97882, 1.97548, 2.02044, 2.12375, 1.92187, 2.12431, 1.91918, 1.91737, 1.91639, 2.12022, 1.91101, 1.96211, 1.96028, 1.96109, 1.9085, 1.90934, 2.03471, 1.90764, 1.96013, 1.96075, 1.91068, 1.91067, 1.91073, 1.98449, 1.96164, 1.96021, 2.07218, 1.91162, 2.17358, 2.05212, 2.05179, 1.97585, 1.97298, 2.04488, 2.0453, 1.96848, 2.04683, 1.966, 2.03767, 2.03722, 2.04085, 2.15545, 2.03316, 2.03312, 2.1728, 2.02682, 2.02775, 2.077, 2.07599, 2.02445, 2.15311, 2.02015, 2.01863, 1.94147, 2.01592, 2.0164, 2.01311, 1.9382, 2.07081, 2.00938, 2.00897, 2.00815, 1.93141, 2.0086, 1.93037, 1.93077, 2.0056, 1.93126, 2.00716, 2.00783, 2.06148, 2.00841, 2.00842, 2.00702, 1.93474, 2.05865, 2.05624, 1.94124, 2.02016, 2.02095, 2.0227, 2.05233, 2.02875, 2.15943, 2.04987, 2.10029, 2.09963, 2.10319, 2.09516, 2.09355, 2.11272, 2.09898, 2.01634, 2.01732, 2.01378, 2.01334, 2.01294, 2.01345, 2.00997, 2.00436, 2.11208, 2.09369, 2.08702, 2.09694, 2.10976, 2.01071, 2.09739, 2.00877, 2.08438, 2.01116, 2.09466, 2.10365, 2.00692, 2.00714, 2.08575, 2.09035, 2.08025, 2.08093, 2.10359, 2.09328, 2.09297, 2.00303, 2.00122, 2.09772, 2.09976, 2.08559, 2.08944, 2.09233, 2.10542, 2.08324, 2.08331, 2.08742, 2.07937, 2.08224, 2.08235, 1.99355, 1.9929, 2.07688, 2.08704, 1.99009, 1.99112, 2.08622, 2.07954, 1.98712, 2.07303, 2.06859, 2.08642, 1.98601, 2.06974, 2.07577, 2.0829, 1.97885, 1.97706, 2.05119, 1.9736, 1.97415, 1.97966, 1.97253, 2.05234, 2.07402, 2.07818, 2.06205, 1.89732, 1.89715, 1.8962, 1.89406, 1.88973, 1.88974, 1.88832, 1.88509, 1.88514, 1.88273, 1.93291, 1.87692, 1.87864, 1.87842, 1.87505, 1.87436, 1.98007, 1.9795, 1.87017, 1.91798, 1.91764, 1.91544, 1.86638, 1.86558, 1.8624, 1.86316, 1.86175, 2.00096, 2.09326, 1.99827, 1.86022, 1.85924, 1.85801, 1.99475, 2.09706, 2.07585, 1.94803, 1.85647, 1.85806, 1.95249, 1.85545, 1.8542, 1.85308, 1.85296, 1.85711, 1.85437, 1.93145, 1.88303, 1.87261, 1.87086, 1.77372, 1.76921, 1.76786, 1.88085, 1.76723, 1.76614, 1.76526, 1.76472, 1.76245, 1.76064, 1.7588, 1.75523, 1.75499, 1.85838, 1.89433, 1.7532, 1.75406, 1.75428, 1.88953, 1.86124, 1.85897, 1.88958, 1.88868, 1.89273, 1.75096, 1.8013, 1.74928, 1.75316, 1.75141, 1.89014, 1.8482, 1.88591, 1.88998, 1.75208, 1.74807, 1.89261, 1.88918, 1.75086, 1.75346, 1.75071, 1.74946, 2.0006, 1.75134, 1.75317, 1.75238, 1.75341, 1.88311, 1.85487, 1.883, 1.88035, 1.75775, 1.75628, 1.88576, 1.75776, 1.76051, 1.75851, 1.75696, 1.75787, 1.76095, 1.87644, 1.87846
1.99686, 1.99688, 1.94612, 2.07192, 1.94383, 2.13055, 1.99705, 2.03211, 1.9404, 1.94164, 1.93851, 1.93735, 1.9384, 1.93648, 2.13485, 1.93673, 1.935, 1.93393, 1.93409, 1.93387, 1.93551, 1.93329, 1.93153, 2.13291, 1.9314, 1.93192, 1.9306, 1.97644, 1.92413, 1.92492, 2.11818, 1.92296, 1.91999, 1.91804, 1.91521, 2.03753, 1.9113, 1.91311, 1.962, 1.90979, 1.95915, 1.91043, 1.90918, 1.9075, 1.90904, 1.91085, 1.91034, 1.96029, 1.9104, 1.91113, 1.99482, 1.96039, 1.96261, 1.96281, 1.91038, 1.982, 2.05184, 2.05237, 2.04771, 2.0475, 2.04461, 2.04489, 2.04653, 2.04748, 1.9654, 2.0825, 2.17538, 2.03585, 2.03532, 2.03774, 2.02774, 2.03157, 2.0273, 2.1668, 1.94811, 2.02287, 2.02374, 2.07757, 2.02166, 2.01824, 2.07581, 2.01347, 2.01396, 2.01274, 2.07083, 2.06957, 2.01086, 2.00996, 2.00951, 2.0101, 2.01069, 2.06505, 2.06546, 2.00676, 1.93259, 2.15652, 2.00867, 2.0084, 2.00871, 2.0612, 2.06105, 1.93454, 2.01693, 2.01821, 1.94177, 2.0532, 2.05582, 2.05534, 2.05329, 2.02901, 2.0354, 2.02328, 2.09974, 2.12003, 2.09801, 2.10292, 2.09609, 2.0986, 2.09962, 2.01637, 2.01585, 2.01563, 2.01592, 2.01392, 2.01349, 2.01398, 2.00522, 2.0043, 2.10134, 2.09856, 2.09421, 2.08614, 2.10033, 2.01065, 2.0108, 2.00955, 2.09368, 2.08676, 2.10228, 2.10056, 2.08429, 2.08312, 2.08238, 2.09705, 2.08209, 2.08126, 2.08073, 2.09385, 2.08788, 2.08026, 2.07565, 2.08106, 2.09012, 2.10314, 1.99923, 2.09259, 1.99881, 2.09431, 2.08679, 1.99508, 2.08768, 2.07946, 1.99393, 2.08876, 1.99102, 2.09825, 2.07938, 1.99202, 2.07198, 2.07564, 1.988, 1.98653, 1.98555, 2.0798, 2.07262, 2.07539, 2.07111, 2.06851, 1.97903, 1.9793, 1.97631, 1.97628, 1.97447, 1.97477, 1.97371, 1.97467, 2.06082, 1.97378, 2.0661, 1.9827, 1.98181, 1.89327, 1.99361, 2.08575, 1.88911, 1.88616, 1.88564, 1.88636, 1.97482, 1.93154, 1.95134, 1.95006, 1.92709, 1.92522, 1.97428, 1.87183, 1.99213, 1.99054, 1.91838, 2.08816, 2.00171, 1.86474, 1.99905, 1.86487, 1.8646, 1.86085, 1.86115, 1.85863, 2.0864, 1.85896, 1.85892, 1.85789, 1.85804, 1.85661, 1.85635, 1.95119, 1.85427, 1.99277, 1.85566, 1.85444, 1.94826, 1.85778, 1.85313, 1.8512, 1.90798, 1.90683, 1.89556, 1.89396, 1.89451, 1.77327, 1.88659, 1.7687, 1.7682, 1.76564, 1.76521, 1.76483, 1.88219, 1.86786, 1.75959, 1.76107, 1.75644, 1.75488, 1.75793, 1.896, 1.89627, 1.89626, 1.89275, 1.75078, 1.74967, 1.89057, 1.88942, 1.74955, 1.74965, 1.75078, 1.88731, 1.88906, 1.87124, 1.7486, 1.75139, 1.85132, 1.8881, 1.88703, 1.88923, 1.88591, 1.75025, 1.80126, 1.79928, 1.83154, 1.74793, 1.88542, 1.75494, 1.75044, 1.85192, 1.88406, 1.75188, 1.75176, 1.75322, 1.88121, 1.75534, 1.75421, 1.75622, 1.88338, 1.87976, 1.87887, 1.75825, 1.75533, 1.87899, 1.75821, 1.76111, 1.8702
1.947, 2.05473, 1.99925, 1.94138, 1.99333, 1.9945, 1.94023, 1.94429, 2.14816, 1.94095, 1.94104, 1.93841, 1.93912, 1.93805, 1.93779, 1.93617, 1.98556, 2.05149, 1.98389, 2.1156, 1.93383, 2.12925, 2.05291, 2.22966, 1.93147, 2.04989, 1.9314, 1.92757, 2.04436, 2.04489, 1.92466, 1.91863, 1.91899, 2.03128, 1.91667, 1.91625, 1.96533, 1.96243, 1.96145, 1.91013, 1.96176, 1.95933, 2.02462, 1.90783, 1.9099, 1.90892, 2.09958, 2.10063, 1.9092, 1.90996, 1.91173, 1.99713, 1.9139, 1.96231, 1.96139, 1.96237, 2.05151, 2.05254, 2.08932, 2.04842, 2.04782, 2.04567, 2.04602, 2.0425, 2.04512, 2.0833, 2.03821, 2.03766, 2.03884, 2.03268, 2.03302, 2.03196, 2.02741, 2.02718, 2.0282, 2.02411, 1.94716, 2.07734, 2.02067, 1.94227, 2.01691, 2.16296, 2.06898, 2.01366, 2.01357, 2.01263, 2.01236, 1.93522, 2.0105, 2.00988, 2.06849, 2.00703, 2.00688, 2.00753, 2.00487, 2.00817, 2.00722, 2.008, 2.00851, 1.93433, 2.01005, 2.01105, 2.01699, 2.01712, 2.01707, 2.14589, 2.05648, 2.02444, 2.13144, 2.03085, 2.14621, 2.04855, 2.02349, 2.02384, 2.11518, 2.09513, 2.10418, 2.10457, 2.01662, 2.01557, 2.01631, 2.01494, 2.01377, 2.01366, 2.01375, 2.01359, 2.1111, 2.10932, 2.09849, 2.01309, 2.08611, 2.10237, 2.10204, 2.01241, 2.09387, 2.09533, 2.01016, 2.10236, 2.11025, 2.08475, 2.08269, 2.09466, 2.08063, 2.08693, 2.08069, 2.09384, 2.00331, 2.003, 2.00309, 2.00261, 2.07875, 2.07925, 2.0011, 2.08466, 2.10658, 2.08643, 1.99697, 2.08209, 2.09685, 2.09001, 2.09032, 1.99396, 1.99457, 1.99301, 2.09015, 2.07672, 1.98926, 1.99041, 2.07246, 2.08076, 1.98709, 1.9856, 2.07229, 1.98407, 2.0803, 2.07106, 2.05469, 2.07894, 2.07352, 1.97654, 1.97551, 1.97523, 1.97325, 1.97251, 1.97559, 1.97343, 2.06155, 2.06545, 2.06704, 1.8987, 1.8984, 1.94421, 1.94325, 1.89201, 1.8891, 1.88916, 1.93485, 1.88503, 1.88252, 1.88007, 1.88203, 1.94861, 1.92681, 1.92386, 1.92358, 1.92136, 1.992, 1.99057, 1.91924, 2.00073, 1.99964, 2.00362, 2.00299, 1.91355, 1.91216, 1.85959, 2.00018, 1.99733, 1.99753, 1.85746, 1.85603, 1.85816, 1.99676, 1.99646, 1.99461, 2.08505, 1.8546, 1.85457, 2.08391, 1.85334, 1.8566, 1.85415, 1.85323, 1.85504, 1.90604, 1.85437, 1.82696, 1.89321, 1.77233, 1.89324, 1.77117, 1.7683, 1.76647, 1.76466, 1.76195, 1.76078, 1.87618, 1.87548, 1.86652, 1.75755, 1.75592, 1.75271, 1.75459, 1.89345, 1.75397, 1.75119, 1.75088, 1.8951, 1.75131, 1.75161, 1.75016, 2.00356, 1.74786, 1.8881, 1.88613, 1.88944, 1.98725, 1.74849, 1.74536, 1.75114, 1.75088, 1.88783, 1.88763, 1.88806, 1.85087, 1.74851, 1.83325, 1.75053, 1.84472, 1.75098, 1.74766, 1.88663, 1.989, 1.88135, 1.8019, 1.80036, 1.88187, 1.75034, 1.75399, 1.75485, 1.75381, 1.75687, 1.7551, 1.75668, 1.87535, 1.75773, 1.76099, 1.75804, 1.76112, 1.75881
1.99651, 1.99677, 2.06419, 2.06542, 1.93809, 1.99392, 1.9943, 1.93858, 1.93836, 1.94043, 1.93944, 2.13831, 1.94055, 2.12569, 2.12728, 1.93349, 2.1189, 1.98616, 1.93495, 1.93408, 2.04792, 2.05681, 2.12796, 1.93294, 1.98409, 1.93295, 1.92829, 2.02162, 2.02, 1.92559, 1.92461, 1.91971, 1.92016, 1.91868, 1.91883, 2.03673, 1.96477, 1.96265, 1.96471, 1.96238, 2.00271, 1.96, 1.96007, 1.98694, 1.91083, 1.90958, 1.9096, 1.91077, 1.91072, 1.91104, 1.91294, 2.01844, 2.09655, 1.91337, 1.96234, 2.08808, 2.08826, 2.08992, 2.05312, 2.05094, 2.0496, 2.04581, 2.04607, 2.08315, 2.04045, 2.08285, 2.03751, 1.96029, 2.03577, 1.95782, 2.032, 2.07994, 2.02691, 2.02562, 2.17047, 2.02453, 2.02158, 2.0229, 2.17368, 2.02086, 2.15091, 2.01839, 2.02085, 1.93853, 2.01722, 2.0134, 2.01082, 2.01165, 2.06748, 1.93277, 2.0078, 2.00675, 2.01102, 2.00595, 2.00688, 2.00749, 2.0078, 2.05925, 2.00923, 2.01037, 2.14656, 1.93389, 2.01168, 2.01325, 1.94239, 2.01689, 2.05225, 2.0236, 2.1257, 2.12517, 2.12289, 2.02405, 2.02277, 2.13171, 2.02285, 2.02126, 2.11302, 2.10356, 2.10632, 2.01542, 2.01495, 2.01654, 2.0136, 2.01373, 2.01377, 2.01235, 2.01252, 2.11086, 2.11092, 2.11262, 2.09739, 2.09764, 2.09778, 2.00951, 2.1012, 2.09755, 2.10398, 2.01026, 2.10369, 2.0081, 2.09629, 2.09565, 2.10551, 2.09747, 2.09197, 2.00406, 2.08925, 2.1004, 2.08817, 2.09748, 2.0938, 2.08421, 2.09003, 2.08954, 2.0814, 1.99726, 2.0799, 2.09337, 2.0778, 2.08196, 2.07864, 2.08549, 2.08335, 1.99331, 2.08307, 2.07225, 2.07578, 2.0768, 2.07452, 2.07343, 2.08024, 1.9857, 1.98629, 1.98307, 2.07352, 2.05522, 2.05472, 2.05335, 2.06812, 1.97708, 1.97637, 1.97382, 1.97355, 1.97384, 1.97367, 1.97381, 2.04934, 2.06884, 2.06842, 2.01636, 1.89755, 2.08159, 2.09148, 1.89038, 2.09052, 1.88669, 1.88572, 1.88379, 1.88043, 2.07844, 1.87813, 2.00344, 2.00205, 1.87155, 1.92345, 1.86991, 1.87138, 1.98937, 1.86886, 1.86701, 1.94934, 1.86111, 1.86002, 1.98563, 1.91136, 1.90975, 1.99709, 1.99628, 2.00016, 1.85599, 2.09179, 1.99804, 1.85501, 1.85821, 1.85586, 1.8552, 2.08953, 1.99268, 1.85579, 1.85385, 1.85678, 1.85619, 1.99292, 1.99002, 1.85634, 1.85434, 1.82766, 1.82501, 1.772, 1.77134, 1.89033, 1.76867, 1.76681, 1.76281, 1.81368, 1.75808, 1.756, 1.75876, 1.89025, 1.88306, 1.75414, 1.75437, 1.88765, 1.75115, 1.75155, 1.75051, 1.75032, 1.74765, 1.74774, 1.8894, 1.74883, 1.74726, 1.88921, 1.74897, 1.74767, 1.74902, 1.7482, 1.74765, 1.74486, 1.88689, 1.84496, 1.88674, 1.7468, 1.74979, 1.74793, 1.88262, 1.75133, 1.74969, 1.74743, 1.87884, 1.751, 1.74838, 1.75107, 1.88302, 1.74895, 1.75217, 1.75009, 1.88088, 1.87881, 1.86648, 1.75395, 1.75411, 1.75191, 1.75572, 1.87659, 1.75648, 1.75388, 1.86681, 1.75759, 1.87296
