1.9298513822277,1.81335091574038,1.81225719481642,1.80982990188871,1.80775758855911,1.8093214175995,2.00194102277663,1.91864553977878,1.8053207015882,1.80554136458163,1.84973152752658,1.8029989431356,1.80252883501916,1.80228898393935,1.79780856576842,1.79812516919378,1.79950671141351,1.8005524621215,1.79750155638626,1.79756871468861,1.79867202965575,1.90192312249414,1.80210669711869,1.80369930828866,1.80452439600322,1.93624101499395,1.93697016227658,1.93484987873102,1.93168384447748,2.03866702011777,1.92788460337322,1.85601562581771,1.92478572742202,1.92510233084738,1.92514070702015,2.04183305437132,2.03014750976277,2.03096300343414,2.03154824006889,1.8418356299791,1.91380054796654,1.9115171656867,1.91153635377309,2.03766923962575,1.90929134766603,1.95515087412649,2.03110691408203,2.04220722205583,1.90541535421623,1.83272128894617,1.90495484014299,1.90360208005284,1.90402421795331,1.9534623225246,1.82965119512455,1.95247413607577,1.83249103190954,1.94999887293208,1.90716147007728,1.91192011550079,1.90909946680218,1.91205443210549,1.84164374911525,1.94986455632739,1.9471398480607,1.95006603123443,1.92633996241922,1.94537454411327,2.03081909278625,2.01061403782271,1.91911564789522,1.99245251405919,1.91714886904074,1.99809381145641,1.99555139001038,1.98896987638028,1.91476954632898,1.91485589271772,1.91571935660505,1.91311937089986,1.99228941532491,1.91235184744446,1.98966064749015,1.99768126759913,2.00256463558415,1.98935363810799,1.98814478866572,2.0083114674565,2.00122146953719,1.91299464833836,1.91378135988015,1.91523965444542,2.0077837950809,2.00616240178136,1.91502858549518,2.00705464779827,1.99531153893057,1.99354623498314,1.99503331167799,1.99869823617755,1.91284114364728,2.00432034548839,1.91101827544069,1.99773883185829,1.98863408486854,1.99146432761035,1.91085517670642,1.99827609827707,1.98796250184507,1.9846909331164,1.99176174294932,1.99212631659064,1.99171377273336,1.90840869569231,1.99016913177936,1.98031604942059,2.00341850542829,1.98646583110702,1.99602149812682,1.98951673684226,1.99341191837844,1.99026507221128,1.98845179804789,1.89973568064623,1.90035929345375,1.9006854909223,1.90084858965657,1.90081980752699,1.97729392581493,1.97588360146563,1.89995634363966,1.89927516657299,1.82294495893294,1.8209302098625,1.86914027690514,1.81562470397702,1.81659370233946,1.81450220092349,1.81308228253099,1.81133616666994,1.80863064648963,1.81033838617791,1.90606774915333,1.93195247768687,1.80986827806148,1.80883212139668,1.80658711528962,1.80745057917695,1.91256291639469,1.80551258245205,1.81004097083894,1.8075081434361,1.80911034864926,1.80757530173845,2.00633509455883,1.80928304142673,1.85624588285434,1.8099642184934,1.80978193167274,1.80967639719762,1.89601319188752,1.81107712750374,1.80990665423425,1.81179668074318,1.81340847999953,1.81334132169718,1.87195133156057,1.90077183731103,1.81479002221926,1.81629628700049,1.81492433882396,1.73863250735668,1.835254116349,1.83251981403912,1.8451935450965,1.84315960793968
1.90380355495988,1.90814006248292,1.90674892622,1.92486247976756,2.00420521697008,2.00661332181141,1.90552088869135,1.80904319034692,1.80677899615347,1.85213003832473,1.8535787388468,1.80365133807269,1.803517021468,1.98620679194083,1.80192441029803,1.98990049856996,2.00652697542268,1.79978493866609,1.80014951230741,1.98089169201214,1.80159821282948,1.80319082399945,1.85340604606934,1.86524509536896,1.86550413453516,1.96217371374345,1.93445652296013,1.86232850623842,1.93187572534133,1.93201004194602,1.93097388528123,1.92839308766243,1.92835471148966,2.0330832869797,1.85077727823457,2.06102114075645,1.92014221051682,1.9586239177622,1.84594188046552,1.9169473941337,2.03174012093274,1.91412674543508,2.03093422130456,1.91189133337121,1.83717292498752,2.03536666925953,1.90738213307071,1.83412201925228,1.90654745131296,1.90886920976556,1.90679689643596,1.90523306739557,2.02860286880877,1.8319057952748,1.90493565205661,1.90473417714956,1.83240468552081,1.83237590339123,1.91300424238155,1.90755482584818,2.02460215279747,1.83905335745326,1.9141075573487,1.9135894790163,1.92078501141072,1.85117063400547,1.92860415661266,1.9458542462729,2.03750614089147,1.92129349569993,2.02479403366132,1.99302815665074,2.0085705066227,1.91646769197407,1.91583448512336,1.91639093962853,1.9160455540736,1.91622784089425,1.91511493188392,1.91316734111583,1.99133001100566,1.9862355740704,1.99950413580572,1.91406918117593,2.01495054534575,1.99576245896062,1.98966064749015,1.91523965444542,1.91447213099002,1.99670267519349,2.00266057601608,1.9144913190764,2.00400374206303,1.9987558004367,1.99850635531369,1.99778680207425,1.98884515381878,2.0088199517457,1.992692365139,1.91193930358718,1.9862451681136,2.00208493342452,2.00542366045553,1.91314815302944,1.99327760177375,1.9977196437719,1.91003008899186,2.00838821980204,2.00166279552405,1.90913784297495,2.02223242412891,1.91048100902191,1.90974226769608,2.0246980932294,1.91054816732426,1.99545544957846,1.99791152463576,1.99817056380195,2.01046053313163,1.99176174294932,1.9943713226977,1.98968942961973,1.98541048635584,1.90257551743123,1.90255632934485,1.90531941378431,1.89975486873262,1.90222053783311,1.98432635947508,1.99228941532491,1.99148351569674,1.98854773847981,1.82264754359397,1.81942394508127,1.81614278230941,1.8192512523038,1.86522590728258,1.81297674805587,1.80995462445021,1.81013691127087,1.92915101707464,1.85946948136704,1.8583565723567,1.8102232576596,1.80852511201452,1.80576202757506,1.80873618096475,1.8076424600408,1.80613619525957,1.80655833316004,1.80830444902109,1.85531526066466,1.90101168839085,1.80580040374783,2.02226120625849,2.02202135517867,1.92750084164552,1.80696128297413,1.80639523442577,1.80872658692156,1.85825103788158,1.85773295954918,1.81044392065303,1.8103575742643,1.80998340657979,2.00871441727058,1.97480906862806,1.89954379978238,1.91851122317409,1.81311106466056,1.81042473256664,1.73990851510129,1.84787987719042,1.7331830908233,1.73088052045709,1.73175357838761
1.88630402017664,1.81433910218921,1.81506824947185,1.81276567910563,1.80993543636382,1.81169114626806,1.81131697858355,1.92169644551402,1.80916791290842,1.80737382683141,1.99164661443101,1.80508085050839,1.80587715609337,1.91546031743885,1.80256721119193,1.80270152779663,1.80199156860038,2.011276026803,1.80283584440133,1.98450864629574,1.80315244782668,1.80500409816285,1.90240282465377,1.86587830221967,1.86761482403753,1.93865871387847,1.93744986443621,1.93819819980523,1.93514729406999,1.96227924821857,1.93393844462773,1.96141578433124,1.85580455686748,1.96231762439134,1.92652224923988,1.95909402587864,1.84972193348339,1.92139903017505,1.8467477800937,1.91841528274216,1.91583448512336,1.91499980336561,1.84072272096877,1.96229843630495,1.9103562864604,1.90953119874584,1.90988617834397,1.90822640887165,1.90787142927353,1.90548251251858,1.90476295927914,1.90522347335238,1.83382460391331,1.90491646397022,1.90580870998713,1.95520843838565,1.9076507662801,1.83655890622319,1.95282911567389,1.91008765325101,1.91183376911206,1.84027180093872,1.95223428499595,1.91889498490179,1.92577391387086,1.94845423197808,1.9488188056194,1.9498549622842,2.03101097365011,2.02609882353551,1.92137024804547,1.99535950914653,2.00487679999356,1.99595433982447,1.91794517462572,2.0015956372217,1.91650606814684,1.91636215749895,1.98816397675211,1.9157865149074,1.91553706978439,1.99118610035777,1.91590164342571,2.01426936827908,2.00893508026401,1.99615581473152,2.00088567802545,2.00968341563303,2.00258382367053,1.98494037823941,2.0003100354339,2.0063734707316,2.00177792404236,2.00914614921425,1.99542666744888,2.01242731198611,2.00879116961612,2.00168198361043,1.91569057447547,1.91554666382758,2.01878816262278,2.0058553923992,1.9899868449587,1.99936981920102,1.98879718360282,1.99324881964417,1.91306180664071,1.99758532716721,2.00303474370059,1.91170904655056,1.91274520321535,1.99274033535496,2.00145172657381,1.99454401547516,2.01141034340769,1.99213591063383,1.90932012979561,1.98158246312201,1.98007619834078,1.9063555704491,1.99238535575684,1.97898247741682,1.97607548232948,1.90372680261434,1.90497402822938,1.90426406903313,1.90296887320213,1.90510834483407,1.98274334234831,1.90192312249414,1.98751158181501,1.99400674905638,1.82293536488975,1.94022254291886,1.93888897091509,1.92655103136945,1.87665241272492,1.81479961626245,1.92925655154976,1.81237232333474,2.0252161715618,1.85982446096516,1.80931182355631,1.80746017322014,1.80714356979479,2.0164376220406,2.0225010573383,1.92782703911407,1.8039007831957,1.92369200649807,1.8045435840896,1.80353620955438,1.80552217649524,1.80435170322575,1.80456277217599,1.8073834208746,1.80641442251215,1.80552217649524,1.89417113559455,1.89221395078326,1.8550082512825,1.90658582748573,1.85675436714354,1.80653914507366,1.92185954424829,1.81066458364646,1.99642444794091,1.91286033173366,1.9147503582426,1.99063923989579,1.80993543636382,1.73585982887403,1.73727974726653,1.73623399655854,1.73071742172281,1.72998827444018
1.81937597486531,1.81751473048595,2.00524137363487,1.90291130894297,1.81257379824178,1.81188302713191,1.89671355704058,1.89796078265561,1.92399901588023,1.81036716830749,1.88967152933723,1.85549754748532,1.80463952452153,1.80735463874502,1.92229127619196,1.99149310973993,1.80503288029242,1.80611700717318,1.98337654919902,1.80817013241639,1.80925425929715,1.98116032522154,1.97651680831633,1.90488768184064,1.81081808833754,1.96836187160265,1.96385267130215,1.86691445888447,1.96162685328147,1.96263422781669,1.93442774083055,1.86004512395859,1.92834511744646,1.92891116599483,1.92748165355913,1.85230273110219,1.96211614948429,1.92281894856755,1.9209385161018,2.0417275198962,1.91906767767925,1.91593042555528,1.95935306504484,1.91472157611302,1.91556585191397,1.9121695606238,1.91048100902191,1.90915703106133,1.90614450149887,1.90581830403032,2.03965520656661,1.90709431177493,1.9081688446125,1.90931053575241,1.95818259177534,1.95791395856595,1.91017399963975,1.90853341825382,1.95521803242884,1.90917621914772,1.91182417506887,2.03761167536659,1.91636215749895,1.95271398715558,1.85221638471346,1.92475694529245,1.93107941975635,2.03169215071678,2.03889727715439,1.92291488899947,2.01987228950354,2.00594173878793,2.00513583915976,1.99479346059817,2.01382804229222,1.91950900366611,1.91912524193841,1.9222337119328,1.91722562138628,1.99330638390332,1.91676510731304,2.00848416023396,2.00669966820015,1.91540275317969,2.00118309336442,1.98910419298498,1.9902362900817,2.01124724467342,1.91550828765481,2.0054716306715,1.91546991148204,2.00582661026962,2.00608564943582,2.00777420103771,2.00940518838045,1.91617987067829,2.01189963961052,2.01819333194484,2.00486720595037,1.91517249614307,2.0059897090039,1.99679861562542,2.00737125122362,1.9897278057925,2.00309230795974,2.00836903171565,1.91323449941817,2.02197338496271,1.99877498852309,1.91284114364728,1.91171864059375,1.91172823463694,1.91168026442098,1.99509087593714,1.99928347281229,1.90969429748012,1.99263480087984,1.90898433828387,2.00145172657381,1.98008579238397,1.90602937298056,1.9908790909756,1.90483011758149,1.90495484014299,1.90278658638147,1.90170245950071,1.90542494825943,1.90173124163029,1.90100209434765,1.99289384004604,1.97513526609661,1.93247055601927,1.82293536488975,1.82082467538739,1.92558203300701,1.8659646486084,1.93222111089626,1.81596049548875,1.81337969786995,1.8111250977197,1.92835471148966,1.80937898185865,1.80805500389808,1.80864983457602,1.90590465041905,1.80631848208023,1.80550298840886,1.80477384112622,1.80517679094031,1.80541664202013,1.80462993047834,1.8058387799206,2.01493135725937,2.01397195294011,1.92616726964175,1.9248145095516,1.92357687797976,1.80298934909241,2.00356241607618,2.00371592076726,1.8068653425422,1.85570861643555,1.80582918587741,1.80597309652529,1.80814135028681,1.90857179442659,1.85735879186467,1.80961883293847,1.80883212139668,1.85894180899145,1.85767539529003,1.7397646044534,1.73535134458482,1.73280892313879,1.73264582440452,1.83936036683542
1.93816941767565,1.81959663785874,2.0018546763879,1.91170904655056,1.81556713971786,1.92910304685868,1.81215166034131,1.91936509301822,1.85923922433042,1.80911994269246,1.91438578460128,1.91529721870458,1.80845795371217,1.85559348791724,1.80714356979479,1.92167725742763,1.92516948914973,1.92016139860321,1.89845967290162,1.89675193321335,1.80909116056288,1.80963802102485,1.80830444902109,1.80954208059293,1.81073174194881,1.86769157638307,1.96991610659985,1.96873603928716,1.93917679221087,1.93864911983528,1.96589620250216,1.93442774083055,1.96538771821296,1.93141521126809,1.92958274901831,1.96573310376789,1.9246897869901,1.92337540307272,1.9231355519929,1.92242559279665,2.04087365005206,1.96250950525519,1.84399428969743,1.84275665812559,1.84032936519787,1.84032936519787,1.83903416936687,1.91171864059375,1.91463522972429,1.83558031381755,1.90943525831392,1.83521574017623,1.83582975894056,1.90851423016743,1.90832234930358,1.90648029301061,1.9086869229449,1.83676038113024,1.91174742272333,1.91399242883039,1.91516290209988,1.91576732682101,2.02832464155619,1.95430659832555,1.95460401366452,1.92884400769248,1.95249332416215,2.04765663858921,1.95048816913491,1.99996464987896,1.92477613337883,2.01448043722932,2.0170804229345,2.00113512314846,1.9946303618639,1.99507168785076,1.99493737124606,1.9195185977093,1.91882782659944,1.91824258996469,1.91772451163229,1.91741750225013,2.00541406641234,1.99857351361604,2.0190184196594,1.99197281189956,2.0093380300781,2.01150628383962,2.00285245687993,2.00296758539824,2.00290042709589,1.91654444431961,1.91633337536937,2.00303474370059,1.916813077529,2.00432034548839,2.01590994966501,2.00630631242925,1.9177149175891,2.00551000684427,2.00104877675972,2.00849375427715,1.98930566789202,1.98849976826385,2.00580742218324,1.9956569244855,1.91559463404355,1.98825991718403,2.00268935814565,2.00176832999917,1.99569530065827,1.91305221259752,2.00440669187712,1.90922418936368,1.99921631450994,1.99768126759913,1.99270195918219,1.99571448874466,1.99864067191839,1.90861017059936,1.9890754108554,2.00135578614189,2.00224803215879,1.9048109294951,1.90422569286036,1.90277699233828,1.90391868347819,1.90321831832514,1.90174083567348,1.99800746506768,1.9018463701486,1.82687851664189,1.82276267211228,1.86937053394177,1.82010512214794,1.92851781022393,1.81554795163147,1.9284314638352,2.02127301980965,1.81117306793566,1.93216354663711,1.80947492229058,1.8091871009948,1.85366508523554,1.80631848208023,1.92950599667277,1.80569486927271,1.85165993020829,1.85196693959045,1.80271112183982,1.80273030992621,1.8037760606342,1.80280706227175,1.80304691335156,1.8024808648032,1.924037392053,1.8031236656971,1.92574513174128,1.8026151814079,1.80560852288398,1.80462033643514,1.80290300270367,1.92239681066707,1.80613619525957,1.80653914507366,1.80540704797693,1.80688453062859,1.80598269056849,1.92873847321736,1.92845065192158,1.85642816967499,1.73868047757264,1.88941249017103,1.73299120995945,1.72948938419416,1.73001705656976
1.81967339020428,1.82064238856673,1.82081508134419,1.81620034656857,1.86617571755864,1.86452554212952,1.86335506886003,1.8637772067605,1.81271770888967,1.91820421379192,1.92616726964175,1.81181586882957,1.99742222843293,1.81082768238073,1.92118796122481,1.85649532797734,1.85591968538579,1.9019710927101,1.80817013241639,1.85769458337641,1.90570317551201,1.80973396145678,1.8121612543845,1.81449260688029,1.86440081956802,1.94439595170763,1.97273675529846,2.04706180791127,1.94019376078928,2.04220722205583,1.93954136585219,1.93234583345776,1.93535836302023,2.05868019421746,1.93228826919861,1.92654143732626,1.9228765128267,1.85103631740077,1.92368241245488,1.92397023375065,1.96579066802705,1.91896214320414,1.84459871441856,1.84330351858757,1.91846325295812,1.91572895064824,1.91501899145199,1.91083598862003,1.909588763005,1.8377101914063,1.91007805920782,1.90900352637025,1.908044122051,1.90785224118715,1.9103562864604,2.04893264633382,1.83838177442978,1.91168985846417,1.8402909890251,1.84234411426831,1.91528762466138,1.9186263516924,1.95814421560257,1.95519884434245,1.95394202468423,1.85712853482805,1.85883627451633,1.95328962974713,1.95275236332835,1.92582188408682,2.01183248130817,2.01543024750538,2.01496013938894,2.00477126551844,1.9981129995428,1.99550341979442,1.91999829986893,1.92095770418819,1.9195281917525,1.92084257566988,1.91877026234028,2.01000001905839,1.99085990288922,2.01529593090068,1.98887393594836,1.92001748795532,2.00842659597481,2.00639265881798,2.01006717736074,2.00955869307153,1.99177133699251,1.99986870944704,2.02757630618717,2.02781615726698,2.00860888279547,1.99389162053807,1.91650606814684,1.91742709629333,2.00096243037099,1.91698577030647,2.00305393178697,2.01144871958047,2.00525096767807,1.99045695307513,1.99768126759913,2.00970260371942,2.00454100848182,1.99789233654937,2.0103645926997,2.00003180818131,1.91393486457123,1.91392527052804,2.00162441935128,1.99636688368175,1.91240941170361,1.99493737124606,1.99750857482167,1.90952160470265,1.90883083359279,1.90927215957964,2.00562513536258,1.90704634155897,1.90552088869135,1.90577033381436,1.90650907514019,1.90511793887726,1.90470539501998,1.90506037461811,1.90359248600965,1.97508729588064,1.90215337953076,1.98984293431081,1.9315303397864,1.93192369555729,1.82133315967659,1.81617156443899,1.81547119928593,1.81427194388686,1.86079345932761,1.81149926540421,2.02021767505847,1.80890887374222,1.93466759191036,1.80745057917695,1.80521516711308,1.80552217649524,2.01616898883121,1.80122404514497,1.80240411245766,1.80276868609898,1.80256721119193,1.80100338215155,1.80121445110178,1.80081150128769,1.80284543844452,1.800677184683,1.80352661551119,1.80322920017222,1.80345945720884,1.92255031535815,1.80393915936847,1.80335392273372,1.80343067507926,1.8565528922365,1.85521932023273,1.99202078211552,2.00318824839167,1.80734504470183,1.80600187865487,1.80561811692717,1.90883083359279,1.73916017973227,1.73560078970783,1.73256907205898,1.72949897823736,1.72807905984486
1.82354938365407,1.94001147396862,1.82092061581931,1.82088223964654,1.82026822088222,1.81922247017423,2.0182413021608,1.81453098305306,1.81597968357514,1.87866716179536,1.98490200206664,1.81246826376666,1.92631118028964,1.92282854261074,1.81105793941735,1.81130738454036,1.81220922460046,1.85944069923746,1.81006975296852,1.81262176845774,1.81193099734788,1.81261217441455,1.89716447707063,1.8968094974725,1.81558632780424,1.8755203156282,1.94578708797055,1.94347492356114,2.04750313389812,1.93923435647003,1.9369509741902,1.93684543971508,2.0447016732859,1.93368899950472,1.85862520556609,1.92854659235351,2.06394732393018,1.92825877105773,1.92660859562861,1.96925411761956,1.92175400977317,1.84899278620076,1.91892376703137,2.03571205481446,1.96673088425992,1.91594961364167,1.91494223910645,1.91226550105572,1.84052124606172,1.9117762048529,1.83395892051801,1.83510061165792,1.8387463480711,1.96131984389931,1.91198727380314,1.91085517670642,1.91476954632898,1.95910361992183,1.91301383642474,1.91398283478719,1.91625662302383,1.95925712461291,1.91852081721728,2.05794145289164,1.85236988940454,1.92930452176572,1.86071670698207,2.03812975369899,2.03422497811961,2.01670625524999,2.01422139806312,1.92599457686429,1.99568570661508,2.01212989664714,1.92456506442859,1.99808421741322,1.92163888125486,1.92049719011495,1.92036287351025,1.92188832637787,1.92042043776941,1.919652914314,1.99297059239158,1.91929793471588,2.00772623082175,2.01541105941899,2.0243047374585,2.00243991302265,2.00897345643678,1.99790193059256,1.91826177805108,1.91794517462572,1.99537869723292,2.00661332181141,2.0085609125795,1.9191348359816,1.91957616196846,2.01074835442741,1.91837690656939,1.99500452954841,2.00247828919542,2.01283026180019,1.98886434190517,1.91860716360601,2.00212330959729,2.00201777512217,2.00719855844616,1.91480792250175,1.91337841006606,1.99404512522915,2.00829227937011,1.91243819383319,2.01890329114109,2.00321703052124,1.91237103553084,1.99268277109581,1.98992928069954,1.99331597794652,1.90787142927353,1.99493737124606,2.00500152255506,1.98601491107697,1.98512266506007,1.90862935868574,1.90505078057492,1.90175042971667,1.90539616612985,1.90271942807912,1.97633452149568,1.98884515381878,1.9024891710425,1.98884515381878,1.82251322698928,1.820805487301,1.93163587426151,1.81626750487092,1.81640182147561,1.81257379824178,1.859517451583,1.90854301229701,1.90647069896742,1.80830444902109,1.80472587091026,1.80475465303984,1.8046779006943,1.80208750903231,1.80273030992621,1.8014543021816,1.80280706227175,2.02559033924631,1.79552518348859,1.80006316591867,1.80007275996187,1.79994803740036,1.79929564246327,1.80017829443699,1.79956427567266,1.80137754983606,2.01533430707345,1.80010154209144,1.8000247897459,1.80294137887644,1.80181887582291,1.85251380005243,1.91877026234028,1.80529191945862,1.80416941640509,1.80277828014217,1.80173252943418,1.8037760606342,1.82882610740998,1.82717593198086,1.73621480847215,1.73295283378668,1.73067904555004,1.7284052573134
1.92686763479481,1.9279133855028,1.82275307806909,1.81905937143995,1.93555983792727,1.93877384239678,1.81761067091788,1.81774498752257,1.8162866929573,1.86373883058773,1.8142239736709,1.86196393259711,1.81272730293286,1.92289570091309,1.92283813665393,1.81108672154693,1.812285976946,1.9190101134201,1.81238191737793,1.91792598653934,1.91117178013177,1.81360036086338,1.81558632780424,1.98255146148446,1.81715975088783,2.04944113062302,1.94599815692078,2.04881751781551,1.94312953800621,1.94203581708226,1.9414601744907,1.9383708925827,1.93585725326624,1.93506094768126,1.97174856884963,1.93032149034413,1.968429029905,1.92853699831032,2.0636690966776,1.92606173516663,2.04786770753944,1.96951315678576,1.92151415869336,1.92135105995908,1.91932671684545,1.84301569729179,1.91373338966419,1.91304261855432,1.91136366099562,1.91163229420502,1.84004154390209,1.83942752513777,2.05108171200895,1.9121695606238,1.90968470343693,1.91053857328106,1.83942752513777,1.91387730031208,1.84091460183262,1.8428717866439,1.84464668463453,1.91845365891493,1.92130308974312,1.92271341409243,1.85508500362804,1.95653241634622,1.86205027898584,1.95635012952556,1.97293823020551,2.02112910916176,2.0092037134734,2.01808779746972,1.9984967612705,2.00809080446307,1.99650120028645,1.92465141081733,1.99964804645361,1.9996576404968,1.92219533576003,1.92200345489618,2.01007677140393,2.0168213837683,2.00883913983209,1.99936981920102,2.02474606344536,1.99945616558976,2.00647900520672,1.92009424030086,1.9921742868066,2.02087006999556,2.00542366045553,1.99814178167238,1.99350785881037,2.00776460699452,2.00590336261516,2.00324581265082,1.91910605385202,1.99845838509773,2.00010856052685,1.91788761036657,1.91752303672525,1.91765735332995,1.91924037045672,1.91814664953277,2.01930624095518,2.00629671838606,1.91584407916655,2.01027824631097,2.01100739359361,1.91623743493745,1.99919712642356,1.98908500489859,1.91517249614307,2.00449303826585,1.99775801994467,1.99779639611744,2.02440067789043,2.01550699985092,1.90811128035334,1.90495484014299,1.90505078057492,2.00571148175131,2.00170117169682,1.97845480504123,1.97934705105814,1.90453270224252,1.9043024452059,1.90370761452796,1.90240282465377,1.9924333259728,1.90168327141433,1.93306538669721,1.82529549951512,1.82018187449348,1.81966379616108,1.81556713971786,1.8142239736709,1.81296715401267,2.00308271391655,2.02532170603691,1.8075177374793,1.80671183785112,1.85261933452755,1.8032579823018,1.80254802310555,2.01208192643117,1.80206832094592,1.80083068937408,1.92266544387647,1.79777018959565,1.7992572662905,2.01929664691198,1.92792297954599,1.79939158289519,1.79750155638626,1.79898863308111,1.80012073017783,1.79989047314121,1.80240411245766,1.80216426137785,1.8000247897459,1.92513111297696,1.80177090560695,1.80329635847457,1.80098419406516,1.90897474424068,1.90553048273454,1.8029989431356,1.80204913285954,1.98600531703378,1.73837346819048,1.82676338812358,1.73232922097916,1.83392054434524,1.72753219938288,1.928172424669
1.82543941016301,1.87369744742161,1.87231590520188,1.82340547300619,1.82192799035453,1.82231175208223,1.87212402433803,1.92538055809996,1.9326816249695,1.81362914299296,1.86441041361121,1.81361954894977,1.92563000322297,1.81377305364085,1.81340847999953,1.99968642262638,1.81499149712631,2.01360737929879,1.81265055058732,1.99278830557093,1.9381118534165,1.8155095754587,1.81618115848218,1.8182246896822,1.81963501403151,1.97699651047596,1.87297789418217,2.04915330932725,2.05112968222491,2.04743597559578,2.05119684052726,1.93898491134702,1.93930151477237,1.86406502805628,1.97144155946747,1.86008350013136,1.85888424473229,1.92905507664271,1.92681966457885,1.97059728366652,2.05250163040145,1.85082524845054,1.97102901561019,1.97051093727779,1.92060272459006,1.91830974826704,1.8436489041425,1.91508614975434,1.91715846308393,2.05180126524839,1.83944671322415,1.96625118210029,1.96562756929277,2.05511121014983,1.91438578460128,1.96161725923828,1.91205443210549,1.96267260398946,1.91758060098441,1.91724480947267,1.84507841657819,1.92134146591589,1.92226249406238,1.95929550078568,1.92632077433283,1.9333340199066,2.03409066151492,1.9587582343669,2.05078429666998,2.02875637349985,1.92847943405116,2.01812617364249,2.01814536172888,2.00256463558415,2.00677642054569,1.99889971108459,2.00207533938133,2.00446425613628,1.92338499711591,1.9226270677037,1.9978539603766,1.92136065400228,1.9942466001362,1.92025733903513,1.9930857209099,2.00810039850626,1.99606946834278,2.00759191421705,2.00567310557854,2.00866644705462,2.00467532508651,1.99808421741322,1.99818015784515,2.01202436217202,2.01778078808756,2.01106495785276,2.01549740580773,1.91892376703137,1.92045881394218,2.00229600237476,2.00641184690437,1.91829056018066,1.91872229212432,1.91893336107456,2.00639265881798,2.00579782814004,2.00232478450434,1.99173296081974,1.99178093103571,1.99231819745449,1.91567138638909,1.91527803061819,2.01491216917298,1.91175701676652,1.91189133337121,2.00606646134944,1.91192011550079,1.99026507221128,1.90991496047355,2.00523177959168,1.90952160470265,1.90603896702375,1.90577033381436,1.90560723508008,1.90624044193079,1.90341979323218,1.905453730389,1.90251795317208,1.90337182301622,1.90195190462372,1.97516404822618,1.99561854831273,1.92708829778824,1.82245566273012,1.81827265989816,1.81329335148122,1.81134576071313,1.812285976946,1.81044392065303,2.00551960088746,1.93137683509532,1.80504247433562,1.80432292109617,1.80268233971024,1.80216426137785,1.80251924097597,1.79889269264918,1.88578594184425,1.79818273345293,1.79888309860599,1.79947792928393,1.92842186979201,1.79682997336278,1.86847828792486,1.84601863281106,1.90316075406598,1.86155138873983,1.84885846959606,1.84729464055567,1.79697388401067,1.79753033851584,1.80088825363323,1.8002838289121,2.00803324020391,1.80220263755062,1.79952589949989,1.8503551403341,1.80252883501916,1.80225060776658,1.80089784767643,1.79933401863604,1.82802020778181,1.7810573663542,1.72960451271247,1.72745544703734,1.72356026550116
1.94590221648886,1.94306237970386,1.82577520167475,1.8720376779493,1.87224874689954,1.92563000322297,1.87073288807511,1.87210483625165,2.01137196723492,2.00979854415134,1.81757229474511,1.86329750460087,1.92819161275538,1.92922776942018,1.81378264768404,1.81524094224931,1.81310147061737,1.81524094224931,1.81532728863805,1.81433910218921,1.81522175416293,1.98820235292488,1.98608206937932,1.81857007523713,1.8666170435455,1.95231103734149,1.97860830973231,1.94861733071236,1.97758174711071,1.87311221078687,1.97446368307313,1.86975429566947,1.93732514187471,1.93708529079489,1.93542552132258,1.93366981141834,1.93319010925871,1.93024473799859,1.85619791263837,1.97228583526841,1.85222597875665,1.85206288002238,1.85098834718481,1.92190751446425,1.84685331456882,1.84622010771811,1.91866472786517,1.91350313262757,1.84357215179696,1.91454888333556,1.96961869126088,1.96951315678576,1.91523006040223,1.96506152074441,1.91334962793648,1.91535478296373,1.91644850388768,1.91481751654495,1.91634296941257,2.04214006375348,1.92005586412809,1.92112080292246,1.84934776579888,1.95970804464296,1.95895011523075,1.95873904628051,1.93468677999675,2.02942795652333,2.02875637349985,1.93155912191597,2.01780957021714,2.01782875830352,2.01691732420023,1.99956170006488,2.02956227312803,1.928172424669,2.00137497422827,1.92543812235912,1.92296285921544,1.99946575963295,2.00073217333437,2.00109674697569,2.01047012717482,1.99399715501319,1.9925676425775,1.92181157403233,2.00584579835601,2.01808779746972,1.92296285921544,2.00757272613067,1.99526356871461,2.00387901950153,2.00527974980765,1.92062191267645,2.00108715293249,2.005596353233,2.01057566164994,1.91918280619756,2.01806860938333,2.0114007493645,2.01345387460771,2.00809080446307,1.99818975188834,1.91833853039662,2.00646941116352,1.91820421379192,1.91559463404355,2.00770704273536,2.00296758539824,1.98931526193522,1.99646282411368,1.9961750028179,1.99160823825824,2.00991367266965,2.00713140014381,1.91136366099562,1.99279789961412,1.99690415010054,1.97838764673889,1.99019791390893,2.0017299538264,1.99841041488177,1.90297846724532,1.90394746560777,1.90485889971106,1.90310318980683,1.90344857536176,1.90400502986693,1.97459799967782,1.97549024569473,1.98412488456804,1.98973739983569,1.82117006094232,1.81956785572916,1.81797524455919,1.86401705784031,1.87159635196244,1.81269852080328,1.80987787210467,1.9321731406803,1.93080119250376,1.8044188615281,1.80279746822856,1.93047499503521,1.93021595586901,1.84897359811437,1.84853227212751,1.79893106882195,1.79880634626045,1.79834583218721,2.01828927237676,1.79883512839003,1.85205328597919,1.79837461431678,1.79788531811396,1.79699307209705,1.92512151893376,1.92357687797976,1.84682453243924,1.7988735045628,1.79895025690834,1.79955468162947,1.79782775385481,1.79915173181538,1.8024808648032,1.80091703576281,1.88530623968462,1.80032220508487,1.91520127827265,1.84858024234348,1.73701111405714,1.73346131807589,1.73053513490215,1.72782002067866,1.72741707086457,1.72434697704295
1.82783792096115,1.82560250889728,1.94491403004002,2.02204054326506,1.94347492356114,1.82263794955078,1.82215824739115,1.87018602761313,1.82022984470945,1.81973095446343,1.81940475699489,1.81911693569911,1.81793686838642,1.93066687589907,1.81604684187749,1.92184035616191,1.87558747393055,1.87749668852587,1.81586455505683,1.81539444694039,1.81726528536294,1.81917449995826,2.0111417101983,2.01144871958047,1.97959649618115,2.05892963934047,1.95092949512176,1.97990350556331,1.94805128216399,1.94745645148605,1.87085761063661,1.97663193683465,1.94188231239117,1.9391384160381,1.93604913413009,1.93680706354231,1.93245136793288,1.93221151685307,1.97491460310318,2.04971935787561,1.85445179677733,1.92539015214315,1.92348093754783,1.92539974618635,1.97171978672005,2.0582484622738,1.91966250835719,1.84512638679415,1.91917321215437,1.91625662302383,1.91504777358157,1.91643890984449,1.91498061527922,1.96608808336602,1.91580570299378,1.96727774472189,1.91556585191397,1.91553706978439,1.9171968392567,2.03484859092713,1.84686290861201,1.96200102096598,1.85301269029844,1.92657981349903,1.96058110257348,1.85994918352667,1.93399600888689,1.94009782035736,2.06248902936491,1.93193328960048,2.02515860730264,2.02272172033173,2.02490916217963,2.00103918271653,1.99930266089868,1.92512151893376,1.92549568661827,1.92891116599483,1.92537096405677,1.92536137001358,1.92340418520229,2.01288782605935,1.9979786829381,2.01586197944905,1.92315474007929,2.00862807088185,2.0081771508518,1.9228765128267,2.01601548414013,1.92208980128491,2.00819633893819,1.92259828557412,1.92102486249054,2.00854172449312,2.00387901950153,1.99897646343013,2.01756012509413,1.99754695099444,2.00552919493065,1.99896686938694,2.00462735487055,1.91884701468582,1.99966723453999,2.00247828919542,2.00800445807433,2.00432993953158,1.99458239164794,2.00311149604613,1.99549382575123,1.9160359600304,1.99978236305831,1.99831447444984,2.00527974980765,1.9129466781224,1.91277398534493,1.99341191837844,1.91094152309515,2.01302214266405,2.00499192851187,1.99091746714838,2.00562513536258,1.90585668020309,2.00555797706023,1.90373639665753,1.90426406903313,1.90278658638147,1.90343898131857,1.90169286545752,1.90122275734108,1.9755286218675,1.9808149396666,1.82438406541183,1.82311765171041,1.93882181261275,1.93129048870658,1.86496686811638,1.86239566454077,1.85888424473229,1.85654329819331,1.80691331275817,1.80576202757506,1.80477384112622,2.01926786478241,1.79930523650646,1.79979453270928,1.89938070104811,1.84767840228338,1.79600488564822,1.7986144653966,1.79688753762194,1.79441227447825,1.79736723978156,1.79911335564261,1.92896873025398,1.79916132585857,1.79704104231302,1.79741520999753,1.88888481779544,1.79653255802381,1.797837347898,1.79806760493462,1.89473718414291,1.79624473672803,1.79900782116749,1.79633108311677,1.79793328832992,1.84513598083735,1.84559649491059,1.91082639457684,1.79753033851584,1.73423843557448,1.82616855744564,1.72923993907116,1.72530638136221,1.72674548784109,1.72388646296971
1.82920027509449,1.82903717636022,1.82730065454237,1.82698405111701,1.82527631142874,1.82385639303624,1.82549697442216,1.89645451787438,1.89881465249975,1.82272429593951,1.81829184798455,1.93220192280988,1.81788889817046,1.81866601566906,1.81850291693478,2.00435872166116,1.86885245560937,1.86973510758308,1.81691989980801,1.81715015684463,1.90521387930919,1.81865642162587,1.81971176637705,1.82186083205218,1.95389405446827,2.05522633866814,1.95239738373023,1.8802885550949,1.87925239843011,1.978243736091,1.9783684586525,1.94214135155737,1.94180556004563,1.94089412594234,1.97726514368535,1.9374594584794,1.93288309987655,1.93484987873102,1.93168384447748,1.93063809376949,1.97800388501118,1.85317578903272,1.85260014644116,1.85198612767684,1.9227517902652,1.97266959699612,1.92198426680979,1.84689169074159,1.91830015422385,1.84426292290682,2.05110090009534,1.96826593117073,1.96864969289843,1.9690718307989,1.91537397105012,1.84369687435846,1.84440683355471,1.91609352428956,1.9197776368755,2.04947950679579,1.92257909748773,1.9226174736605,1.85090200079608,1.85358833289,2.04863523099485,1.93259527858077,2.04889427016105,1.95932428291526,2.05020865407843,2.0134730626941,2.01769444169883,2.02270253224534,2.01594832583778,2.02596450693082,2.0248228157909,1.92692519905396,1.92813404849623,1.92553406279104,1.92637833859199,1.92563000322297,1.92504476658822,1.99860229574562,1.99820893997472,2.01664869099084,2.02115789129134,2.01786713447629,2.01081551272976,2.0120435502584,1.92279976048116,2.01252325241803,1.99640525985452,2.01637046373825,1.9932104434714,2.00236316067711,2.00681479671846,2.00479045360482,2.00651738137949,2.0246980932294,2.01240812389972,2.00940518838045,2.00195061681983,1.99843919701135,1.99758532716721,1.91901970746329,1.98967024153334,2.00570188770812,1.99923550259633,1.9156521983027,2.00205615129494,1.9157769208642,1.99582002321978,1.9960406862132,1.99506209380756,2.00161482530809,2.00149010274658,1.91172823463694,1.99035141860001,1.90814965652611,1.90670095600404,1.99187687146763,1.99138757526481,1.9848156556779,1.9875307699014,1.90319913023875,1.90371720857115,1.90279618042466,1.90255632934485,1.90076224326784,1.8990065333636,1.99471670825263,2.00434912761797,1.87701698636624,1.87529005859158,1.81967339020428,1.81592211931598,1.81529850650847,1.81317822296291,1.86638678650888,1.86582073796052,1.92861375065586,1.8531949771191,1.85137210891251,1.84968355731062,1.80123363918817,1.92674291223331,1.7971849529609,1.79587056904352,2.02523535964818,2.01448043722932,1.79586097500033,1.79548680731582,1.79507426345854,1.79670525080128,1.79635027120315,1.92278057239478,1.79546761922944,2.01868262814766,1.92840268170562,1.92247356301261,1.79661890441254,1.79625433077123,2.00820593298138,1.90866773485851,1.88779109687149,1.88555568480762,1.8786191915794,1.87690185784793,1.79831705005763,1.79619676651207,1.88875050119075,1.90929134766603,1.72747463512373,1.724797897073,1.82888367166914,1.72345473102604,1.72120972491898
1.82804898991139,1.82750212944941,1.82742537710387,1.8260918051001,1.82530509355831,1.82420177859117,1.82566007315644,1.8717786387831,1.87144284727136,1.93716204314043,1.86862219857275,1.82232134612543,1.8192512523038,1.81962541998831,1.93358346502961,1.86903474243003,1.87033953230421,1.87158675791925,1.81849332289159,1.82006674597517,1.81997080554325,1.8193855689085,1.81965420211789,1.82247485081651,1.95239738373023,1.95374054977718,1.95245494798938,1.94903946861283,1.94870367710109,1.9795293378788,1.94784980725695,1.87246940989296,1.94252511328508,2.05742337455924,2.06542480658184,1.93828454619396,2.05510161610664,1.93207720024837,1.97724595559897,1.97719798538301,1.92848902809435,1.93201963598922,1.85344442224211,1.92323149242483,1.85122819826462,1.9188757968154,1.91957616196846,1.92208020724172,1.92207061319853,1.91854000530366,1.97145115351066,1.91883742064263,1.91739831416375,1.92246396896942,1.97053971940737,1.91616068259191,1.8453278617012,1.96821796095477,1.92180197998914,2.04490314819294,1.96486963988056,1.96641428083456,1.92634955646241,1.93048458907841,1.96248072312561,1.86174326960368,2.04857766673569,1.96152131880636,2.05041972302866,2.02675121847261,1.93251852623523,2.02276969054769,2.01207233238798,2.00373510885364,2.02007376441058,2.00186427043109,2.00229600237476,1.92842186979201,1.92818201871219,1.92633996241922,1.92618645772814,1.92530380575442,2.01542065346219,2.01124724467342,1.92532299384081,2.00155726104893,2.00803324020391,1.92484329168118,1.9236536303253,1.9227517902652,2.00948194072599,1.92288610686989,1.92286691878351,1.92220492980322,2.00956828711472,2.01287823201616,1.92207061319853,2.00252625941138,1.92104405057692,2.01220664899268,1.99133001100566,1.99233738554087,1.99931225494187,2.00454100848182,2.00840740788842,1.91801233292807,2.00740962739639,1.91562341617312,1.99986870944704,1.91610311833275,2.00145172657381,1.99890930512778,1.99632850750898,1.91211199636464,1.91233265935807,2.00348566373064,2.00402293014942,2.0026221998433,1.9893344500216,1.9057127695552,1.99606946834278,2.002756516448,1.98286806490981,1.90510834483407,1.90211500335799,1.90252754721527,1.90166408332794,1.89905450357956,1.89984121512135,1.90050320410164,1.9008102134838,1.82640840852546,1.82057523026438,1.81960623190193,1.9057223635984,1.81531769459485,1.81312065870376,1.86525468941216,1.86500524428915,1.80651036294408,1.90241241869696,1.90144342033451,1.80223141968019,1.90166408332794,1.79986169101163,1.93306538669721,1.93169343852067,1.79706982444259,1.79612001416653,1.84258396534812,1.84286219260071,1.84232492618192,1.8427374700392,1.79572665839563,1.79466171960126,1.90795777566226,1.79358718676369,1.79572665839563,1.88638077252218,1.79585138095714,1.79609123203695,1.796542152067,1.91796436271211,1.79631189503038,1.79445065065102,1.91877026234028,1.79489197663788,1.91326328154775,1.8895851829485,1.88694682107055,1.73089970854347,1.73019934339041,1.77502271318608,1.7740920909964,1.72371377019224,1.7197706184401
1.95374054977718,1.82896042401468,1.87576976075121,1.82772279244284,2.0188936970979,1.8261013991433,1.87495426707984,1.87369744742161,1.82379882877708,1.87103989745727,1.87066572977276,1.82036416131414,1.82109330859678,1.82239809847097,1.82001877575921,1.86733659678494,1.82189920822495,1.86720228018025,1.81998999362963,1.81922247017423,1.81973095446343,1.82056563622119,1.99554179596719,1.82337669087661,1.82578479571794,1.95543869542227,1.88259112546112,1.98381787518588,1.87762141108737,1.87670997698408,1.9825034912685,2.05887207508131,1.94538413815646,1.94227566816207,1.8688044853934,1.9379775368118,1.93608751030286,1.93560780814324,1.9329406641357,1.93163587426151,1.93045580694883,1.93034067843052,1.92711707991782,1.97818617183184,1.92589863643236,1.85193815746087,1.920948110145,1.92161969316848,1.97329320980363,1.84936695388527,1.84538542596035,1.97205557823179,1.84625848389088,1.91786842228018,1.91936509301822,1.91832893635343,1.91549869361162,1.84736179885802,1.96812202052284,1.92106323866331,1.92217614767364,1.92198426680979,2.05182045333478,1.93029270821456,1.93079159846057,1.95984236124766,1.93963730628411,1.94040482973952,1.95778923600445,1.93514729406999,2.00906939686871,1.93195247768687,2.00700667758231,2.02502429069794,1.93224989302584,2.00187386447428,1.92848902809435,2.00527974980765,1.92515989510653,1.92840268170562,2.00252625941138,2.00125984570996,2.00574985792408,2.03125082472992,1.92653184328307,2.01136237319173,2.01561253432604,2.01154466001239,2.00631590647244,1.92509273680418,2.00206574533814,1.92298204730182,2.00841700193161,1.92161009912528,2.01302214266405,2.00470410721609,2.00808121041987,2.00254544749776,1.91985438922104,1.91953778579569,2.01183248130817,2.00157644913531,2.01485460491383,2.01104576976638,2.01061403782271,2.00196980490621,2.00615280773817,1.91653485027642,2.00529893789403,2.00862807088185,1.91630459323979,1.98573668382439,1.99237576171365,1.98285847086662,1.91185295719844,1.99884214682543,1.99598312195405,2.00537569023957,1.98960308323099,1.90557845295051,1.99744141651932,1.99674105136626,1.97597954189755,1.90279618042466,1.90142423224813,1.90189434036456,1.9021054093148,1.89972608660304,1.89984121512135,1.99606946834278,1.99226063319533,1.97231461739799,1.82197596057049,1.81876195610098,1.81829184798455,1.81378264768404,1.93276797135824,1.93224029898265,1.8075177374793,1.93002407500516,1.8058387799206,1.80269193375344,1.80022626465295,1.80226979585296,1.80005357187548,1.79963143397501,1.79911335564261,1.79472887790361,1.84461790250495,1.84473303102326,1.79578422265479,1.79557315370455,1.92757759399106,1.79613920225292,1.79576503456841,1.79406688892332,1.88794460156257,1.79339530589984,1.7946041553421,1.79299235608575,2.01180369917859,2.01189004556732,1.9186263516924,1.91712008691116,1.79502629324258,1.79467131364445,1.79529492645197,1.79403810679374,1.79122705213832,1.84233452022512,1.72820378240636,1.72717721978476,1.72591080608334,1.79930523650646,1.72016397421099,1.83471684993022
2.0357984012032,1.95005643719124,1.87839852858597,1.82778995074519,2.03208550648767,1.82863422654613,1.82587114210667,1.87570260244886,1.94207419325503,1.82392355133858,2.01573725688754,1.82340547300619,1.82257079124843,1.82242688060054,1.82276267211228,1.82262835550759,1.82258997933482,1.81957744977235,2.0019889929926,1.82256119720524,1.92400860992342,1.82378923473389,1.82551616250855,2.0978622666159,2.07222698320537,1.95788517643637,1.95823056199131,2.06000417217804,1.95308815484009,1.95058410956683,2.05815252184187,2.06164475356397,2.0605702207264,1.94290887501278,1.94259227158742,1.9409516902015,1.94165205535455,1.93673990523996,1.97838764673889,1.93524323450192,1.93123292444743,1.97853155738677,1.85553592365809,1.9262344279441,1.92575472578447,1.85328132350783,1.92297245325863,1.97694854026,2.05542781357518,1.97644005597079,1.92264625579008,1.8464791468843,1.92043962585579,1.84662305753219,1.91821380783512,1.84602822685425,1.91953778579569,1.92472816316287,1.9248145095516,1.92528461766804,1.92478572742202,1.92473775720606,1.92850821618074,1.92691560501077,1.93596278774136,2.03598068802385,2.03523235265483,1.87187457921503,2.05137912734792,2.02016011079931,1.93374656376388,2.00932843603491,2.01951730990541,2.01583319731947,2.01194760982648,1.93098347932442,1.92993772861643,1.92801891997792,1.92908385877229,1.92617686368494,1.92672372414692,1.99883255278224,2.0064981932931,2.00851294236354,1.92606173516663,1.92577391387086,2.01870181623404,2.01736824423028,2.00514543320295,1.92530380575442,1.92546690448869,2.00461776082736,2.00792770572879,1.92274219622201,1.92253112727177,1.92257909748773,2.00786054742645,2.02567668563504,1.9948894010301,2.00377348502641,2.0022384381156,1.99561854831273,1.99878458256628,2.00119268740761,2.01225461920864,2.00394617780388,2.0077837950809,1.99073518032772,1.91573854469143,1.99534032106015,1.9963093194226,2.00858010066589,1.99322003751459,1.99611743855875,1.91169945250736,1.99898605747332,1.99337354220567,1.98036401963655,1.9804311779389,1.97868506207785,1.98683999879153,1.99665470497753,1.90290171489978,1.97611385850225,1.90217256761715,1.89931354274576,1.89829657416735,1.89911206783872,1.89999471981243,1.97241055782992,1.89904490953637,1.9943713226977,1.92903588855633,1.81910734165592,1.81766823517703,1.81594130740237,1.81239151142112,1.80946532824739,1.85819347362243,1.85696543609378,1.80482181134219,1.80322920017222,1.80213547924827,1.79995763144356,1.93218273472349,1.79591853925949,1.79735764573837,1.79690672570832,1.79610082608014,1.79611042012334,2.00681479671846,1.79478644216276,1.79418201744163,1.79408607700971,1.79429714595994,1.79420120552802,2.01272472732508,1.79258940627167,1.79282925735148,2.00506868085741,1.7922823968895,1.79351043441815,1.91846325295812,1.79340489994303,1.79360637485008,1.79372150336839,1.79216726837119,1.79232077306227,2.00956828711472,1.97865627994828,1.72945100802139,1.72437575917253,1.72513368858474,1.82157301075641,1.83292276385321,1.82227337590946
1.92671413010373,1.87949224950992,1.91142122525478,1.87815867750616,1.87702658040943,1.87760222300099,1.87579854288078,1.87571219649205,1.87611514630614,1.94534576198369,1.82289698871698,1.94000187992543,1.82215824739115,1.93762255721368,1.822350128255,1.91512452592711,1.9280381080643,2.02822870112426,1.82105493242401,1.82153463458364,1.82427853093671,1.92531339979761,1.99566651852869,2.09602021032293,1.82869179080529,1.98642745493425,1.95705049467862,1.98535292209669,1.95513168604011,1.95344313443821,1.94981658611143,1.94829113324381,1.94822397494146,1.94664095781469,1.94470296108979,1.94005944418459,1.93697975631977,2.08567783176134,1.9822444521023,2.06904176086543,1.97906882380556,1.97907841784875,1.92861375065586,1.92936208602488,1.97793672670883,2.05944771767287,1.9251982712793,1.97700610451916,1.92270382004924,2.04912452719767,1.97534633504684,1.91827137209427,1.9159112374689,1.9188853908586,1.91966250835719,1.91957616196846,1.91890457894498,1.92200345489618,1.92163888125486,1.92043962585579,1.92530380575442,1.96803567413411,1.85325254137826,1.96729693280828,1.93328604969064,1.93615466860521,1.86939931607134,1.94902028052644,1.96390064151811,2.0190184196594,2.01428855636546,1.93360265311599,2.02782575131017,2.01794388682183,2.01150628383962,1.93028311417136,1.92910304685868,1.92930452176572,1.92998569883239,1.9286809089582,1.92978422392535,1.92870009704459,1.92794216763238,1.92625361603049,1.92568756748212,2.02063981295894,2.01226421325183,1.9272609905657,2.00845537810438,1.92639752667837,2.00935721816449,1.92511192489057,2.0023727547203,2.00528934385084,2.00451222635224,2.00855131853631,1.92182116807552,2.00267017005927,2.00355282203298,2.01166938257389,1.91911564789522,1.99298018643478,1.99076396245729,2.00489598807994,2.00409008845177,2.00828268532692,1.98949754875588,2.00528934385084,2.00610483752221,2.00390780163111,2.00484801786398,2.0057210757945,2.00806202233349,2.00204655725175,2.01884572688193,2.00665169798418,1.99814178167238,1.98157286907882,2.00227681428837,1.99557057809677,1.98215810571356,1.97962527831073,1.9914067633512,1.90192312249414,1.9757876610337,1.90129950968662,1.89995634363966,1.89967811638708,1.89974527468943,1.97612345254544,1.98679202857557,2.00828268532692,1.92875766130374,1.82140031797894,1.93035027247371,1.81392655833193,1.81559592184744,1.85928719454638,1.80891846778541,1.9165540383628,1.80336351677692,1.85287837369375,1.85188059320172,1.85000975477917,1.80123363918817,1.79995763144356,1.90932012979561,1.79553477753178,1.8457116234289,1.84330351858757,1.85283999752098,1.79378866167074,1.79471928386042,2.01302214266405,1.7940956710529,1.79524695623601,1.7935775927205,1.79093923084254,1.92148537656378,1.8850663886048,1.79282925735148,1.84020464263637,1.84121201717159,1.79420120552802,1.79248387179655,1.79210970411204,2.00280448666396,1.79040196442376,1.98213891762718,1.7303432540383,1.81363873703615,1.812036531823,1.72327244420538,1.71969386609455,1.87515574198688,1.71593300116307
1.83376703965416,1.83247184382316,1.83237590339123,1.82818330651608,1.82829843503439,1.82967997725412,1.82875894910764,1.94515388111984,1.87641256164511,1.92673331819011,1.82435528328225,1.82371248238835,1.87284357757747,1.91162270016182,1.91314815302944,1.82218702952073,1.82214865334796,2.00465613700013,1.82497889608977,1.91303302451113,1.91906767767925,1.82608221105691,1.99496615337564,1.8275117234926,2.06229714850106,1.88896157014098,1.95683942572838,1.95898849140352,1.95175458283632,1.95223428499595,1.87918524012776,1.87904132947987,1.94928891373583,2.05787429458929,1.94637232460529,2.05829643248976,1.98281050065066,1.86645394481123,1.93876424835359,1.93524323450192,1.93507054172445,1.98257064957084,1.93108901379954,1.92831633531689,1.98140017630135,1.92658940754222,1.97805185522715,1.92529421171123,1.97719798538301,1.92513111297696,1.9218499502051,1.92162928721167,1.9199119534802,1.91999829986893,1.84702600734628,2.06115545736115,1.92076582332434,1.9223584344943,1.92199386085299,1.92321230433844,2.06182704038463,1.92628239816006,1.85704218843932,1.93196207173006,1.93238420963053,1.93638492564183,2.04561310738919,1.94536495007008,2.04514299927275,2.0243047374585,2.02434311363127,2.02687594103411,2.02796966195806,2.03593271780789,2.00793729977199,2.00529893789403,1.93194288364368,1.93052296525118,1.92637833859199,1.93241299176011,1.929717065623,1.92853699831032,2.0206973772181,2.02228039434487,2.02109073298899,2.01245609411568,1.92683885266523,2.02126342576646,1.92536137001358,2.01867303410447,1.9258410721732,2.0157948211467,1.99906280981886,2.02117707937773,1.99820893997472,2.02113870320496,1.92200345489618,2.02840139390173,2.00800445807433,2.00833065554288,2.01560294028285,2.01614980074482,2.00200818107898,2.00260301175692,1.91717765117032,2.00078014355033,1.91507655571115,1.9987558004367,1.91608393024637,2.00189305256067,1.91380054796654,2.00835943767246,1.91357988497311,1.91186255124164,1.90999171281909,1.90918581319091,1.99817056380195,1.99019791390893,1.97629614532291,1.97626736319333,1.97840683482527,1.9763057393661,1.98883555977559,1.97134561903554,1.90163530119836,1.90204784505564,1.90096371817488,1.89948623552323,1.97270797316889,1.97858912164593,1.89860358354951,1.82582317189071,1.87183620304226,1.86928418755303,1.86689527079808,1.81684314746247,1.81566308014979,1.85982446096516,1.85786727615388,1.85705178248251,1.85389534227216,1.80341148699288,1.80330595251776,1.80246167671682,1.80240411245766,1.93170303256386,1.7989982271243,1.79720414104729,1.79715617083133,1.79593772734587,1.79598569756183,1.7958993511731,1.79342408802942,2.01573725688754,1.92222411788961,1.79210970411204,1.92169644551402,1.92001748795532,1.79079532019466,1.7922919909327,1.79126542831109,1.788022641712,1.79205213985288,1.83905335745326,1.83841055655936,1.79233036710547,1.79211929815523,1.89285675167717,1.9990148396029,1.77622196858515,1.7728064892086,1.72309015738472,1.76907440640669,1.71966508396498,1.71647986162505,1.71436917212268
1.95831690838004,1.83198254762034,1.83348881240157,1.8291906810513,1.95556341798377,1.82993901642032,1.82743497114706,1.829324997656,1.94199744090948,1.8275117234926,1.94501956451514,1.87493507899345,1.87518452411646,1.82630287405034,1.93277756540143,1.82658110130292,1.82542022207662,1.82569844932921,1.82554494463813,1.93467718595356,1.82665785364847,1.82642759661184,1.82754050562218,1.82914271083534,1.83057222327103,1.99156026804228,1.96250950525519,1.88549812054847,1.95786598834999,1.95232063138469,1.87998154571274,1.95211915647764,1.95002765506166,1.95104462364007,1.94522103942219,1.8715195996169,1.87011886931079,2.06523292571799,2.06966537367295,1.98342451941498,1.93332442586341,1.93466759191036,1.9818510963314,2.0670174177518,1.92825877105773,1.92923736346337,1.92671413010373,1.92381672905957,1.92460344060136,1.92232965236473,1.92255990940135,1.97603710615671,1.91972966665954,2.05678057366534,1.85001934882236,1.92428683717601,1.974108703475,1.92513111297696,1.92246396896942,1.92251193918538,2.06258496979684,1.8543558563454,1.92891116599483,1.96769988262237,1.96763272432002,1.93634654946906,1.94082696763999,1.94619003778464,2.04113268921826,2.01094982933445,2.00974097989219,2.03133717111865,2.02819032495149,2.00590336261516,2.00510705703018,1.9329406641357,2.01169816470347,1.93106023166996,1.93065728185587,1.93177019086621,2.01373210186029,2.0221172956106,2.01932542904156,2.01363616142837,2.01438449679739,2.035539362037,2.00803324020391,2.00926127773256,1.92622483390091,1.92595620069152,2.01877856857958,2.01022068205182,1.92395104566427,2.01533430707345,2.00726571674851,1.99924509663952,1.92279976048116,2.00105837080292,1.92182116807552,2.00881035770251,2.00470410721609,2.00157644913531,2.00425318718604,2.00860888279547,2.00827309128373,2.00491517616633,2.00918452538702,2.00187386447428,1.91556585191397,1.99442888695685,1.99357501711272,1.98943039045353,2.00045394608179,1.91043303880595,1.90835113143316,1.98922891554648,1.99711521905077,1.99360379924229,1.90639394662188,1.90548251251858,1.9790112595464,1.99566651852869,1.97405113921585,1.97648802618676,1.97500094949191,1.89947664148004,1.89869952398144,1.89763458518706,1.89878587037017,1.89830616821054,1.89814306947627,1.89682868555889,2.0019889929926,1.819260846347,1.81899221313761,1.90600059085098,1.93258568453758,1.9285561863967,1.9262344279441,1.80615538334595,1.80627051186426,1.92801891997792,1.92678128840608,1.80205872690273,2.02231877051764,1.80247127076001,1.79872959391491,1.79882553434683,1.79564990605009,1.79431633404633,1.79470009577403,1.84208507510211,1.79494954089704,1.79269494074678,1.78958647075239,1.79098720105851,1.9188853908586,1.79088166658339,1.88590107036256,1.79040196442376,1.79078572615146,1.8390053872373,1.79018130143033,1.78859828430356,1.78667947566505,1.78859828430356,1.78960565883878,1.78933702562939,1.78909717454957,1.79017170738714,1.80770961834315,1.83581057085417,1.83568584829267,1.71475293385038,1.76329879240476,1.71407175678371
1.94413691254143,2.01596751392416,1.94000187992543,2.01297417244808,1.87891660691837,1.83226077487292,1.87980885293528,1.82918108700811,1.91019318772613,1.91493264506326,1.82684973451232,1.82741578306068,2.01498892151852,1.82701283324659,1.93543511536577,1.8255833208109,1.82371248238835,1.82530509355831,1.82678257620997,1.82705120941936,1.82594789445222,1.92421967887366,1.90667217387446,1.99802665315407,1.89135048689593,1.99236616767045,1.99008278539062,1.99085990288922,1.99176174294932,1.95515087412649,1.9893344500216,1.95166823644759,1.95021953592551,1.94794574768888,1.95148594962693,2.07014507583258,1.9432638546109,1.93882181261275,1.98383706327226,2.0796623666796,1.93574212474793,1.93567496644558,2.06728605096119,1.93081078654695,1.92977462988216,1.85657208032288,1.92714586204739,1.85410641122239,1.85232191918858,1.97923192253983,2.06035915177616,2.06522333167479,1.84852267808432,1.92239681066707,1.84882009342329,1.92246396896942,1.97603710615671,1.84948208240358,2.04641900701737,1.92271341409243,1.85312781881675,1.92897832429717,1.93134805296574,1.97142237138108,1.96836187160265,1.9392631385996,1.96692276512377,1.87221037072676,2.03950170187553,2.03007075741723,2.03380284021914,2.02577262606696,2.0150177036481,1.93483069064464,2.0222420181721,2.00519340341891,2.004301157402,2.01187085748094,1.93162628021832,1.9299761047892,1.93174140873663,2.01472028830913,2.02795047387168,2.01086348294572,1.92860415661266,2.02243389903595,2.01598670201055,1.92891116599483,2.0215992172782,2.01498892151852,1.92876725534694,1.92537096405677,2.02188703857398,2.01294539031851,2.00167238956724,1.99829528636346,1.92369200649807,2.01324280565747,2.00293880326866,2.01000001905839,2.00366795055129,1.91843447082854,1.91802192697126,1.99612703260194,2.00576904601047,2.00702586566869,1.91651566219003,1.99664511093434,1.99596393386766,1.91349353858437,2.00530853193722,1.98966064749015,1.91242859979,2.0021137155541,1.90849504208105,1.90831275526039,2.02184866240121,1.98755955203098,1.98767468054929,1.98717579030327,1.98278171852108,1.97575887890412,1.97574928486093,1.97691016408723,1.9779846969248,1.97467475202336,1.89854601929036,1.89841170268566,1.89892978101806,1.97729392581493,1.9751448601398,1.87554909775778,1.91217915466699,1.82146747628129,1.81880992631695,1.81697746406717,1.81640182147561,1.92854659235351,1.80998340657979,1.80930222951311,1.80965720911124,1.80675021402389,1.80384321893654,1.85209166215196,1.80061962042384,2.00615280773817,2.00645981712033,2.02447743023597,1.79638864737592,1.79530452049516,1.79622554864165,2.01023027609501,1.79368312719562,1.89563902420301,1.87973210058974,1.7902196776031,1.79232077306227,1.78988388609136,1.79070897380592,1.78956728266601,1.7873798408181,1.78788832510731,1.87772694556249,1.91588245533932,1.9153931591365,1.78779238467538,1.7889340758153,1.78601748668476,1.78958647075239,1.78897245198807,1.86901555434364,1.71820678939971,1.82276267211228,1.71566436795368,1.76090028160662,1.81433910218921
1.83876553615748,1.83863121955279,1.83688510369174,1.94096128424469,1.88129592963012,2.0418618365009,1.83094639095554,1.82956484873581,2.02567668563504,1.82971835342689,2.0192774588256,1.82933459169919,1.82905636444661,1.82942093808792,1.82676338812358,1.8268689225987,1.82836559333674,1.82924824531046,1.9317797849094,1.91167067037779,1.91306180664071,1.8297087593837,1.82870138484848,1.99685617988457,1.96658697361203,1.96321946445144,1.96201061500918,1.96177076392936,1.99396837288361,1.88431805323578,1.98955511301503,1.95434497449832,1.87633580929957,1.95160107814524,1.94887636987855,2.07272587345138,2.06290157322219,1.94350370569072,1.94116275915173,2.07791625081856,2.05797023502121,2.06115545736115,2.0750188497744,2.07109488610864,1.93055174738075,1.92912223494506,2.05731784008412,2.05581157530289,1.9282971472305,1.85304147242802,1.92470897507648,1.92500639041545,1.92294367112905,1.92205142511214,1.92206101915533,1.85046067480922,1.92175400977317,1.97283269573039,1.97499135544872,1.8533292937238,2.05146547373665,2.06079088371983,2.0684373361443,1.86180083386283,1.86203109089945,1.93882181261275,1.93850520918739,2.04078730366333,2.05956284619118,2.03406187938534,2.01013433566308,2.03896443545674,1.93546389749535,1.93439895870097,2.02878515562943,2.00810999254945,1.93300782243805,1.93172222065025,1.93182775512537,1.93045580694883,1.93160709213194,2.02084128786599,2.0059801149607,1.93167425043428,1.92980341201173,1.92872887917417,1.99958088815126,1.99800746506768,1.92878644343332,2.0417275198962,1.92604254708025,2.02564790350546,2.03608622249897,2.00788932955602,2.01438449679739,2.00251666536819,2.00579782814004,2.00194102277663,2.0178575404331,2.01431733849504,2.01991066567631,2.00945315859641,1.91893336107456,2.00040597586582,1.99629013133621,1.99596393386766,1.99964804645361,1.99626134920663,2.00485761190717,1.99868864213435,2.0009528363278,1.9986310778752,1.91110462182942,1.99952332389211,1.9956569244855,1.98538170422626,1.99263480087984,1.99275952344135,1.99339273029206,1.99379568010614,1.98471012120279,1.97675665939615,1.90222053783311,1.90194231058052,1.89975486873262,1.89912166188191,1.89710691281147,1.89850764311759,1.98934404406479,1.98851895635023,1.98225404614549,1.82929621552642,1.82566007315644,1.92681966457885,1.92537096405677,1.81806159094793,1.9242964312192,1.81372508342489,1.81013691127087,1.8722967171155,1.80883212139668,1.87321774526198,1.85180384085618,1.8023465481985,1.84888725172564,1.84716032395098,1.89102428942739,1.79530452049516,1.79635986524634,1.79493035281065,1.7953812728407,1.79247427775336,1.79502629324258,1.79291560374021,1.79016211334395,1.79084329041062,1.78962484692516,1.78938499584535,1.79049790485569,1.78839680939651,1.79171634834114,1.91794517462572,1.87739115405075,1.88470181496349,1.78852153195802,1.91464482376748,1.78918352093831,1.78817614640309,1.78837762131013,1.86940891011454,1.71982818269925,1.87013805739717,1.8729395180094,1.94208378729822,1.94015538461651,1.70808507383155
1.84038692945703,1.89933273083215,1.94721660040624,1.83464009758468,1.83310505067387,1.83309545663068,2.02553277498715,1.83089842073958,1.87851365710428,1.87918524012776,1.83225118082973,1.83080248030765,1.82902758231703,1.87713211488455,1.8770745506254,1.83102314330108,1.92334662094314,1.92297245325863,1.93144399339766,1.82770360435645,1.82928662148323,1.91760938311398,1.83200173570672,1.87878229031367,1.96287407889651,1.89220435674007,1.96569472759512,1.88919182717761,1.99529235084418,1.88345458934845,1.95680104955561,1.99175214890613,1.95196565178656,1.95103502959688,1.98901784659625,1.9894687666263,2.06815910889172,1.98824072909765,1.94242917285315,1.98839423378873,1.98552561487415,1.86323034629852,1.9324225858033,1.86061117250695,1.93138642913851,1.98208135336802,1.92825877105773,1.92858496852628,1.92681966457885,1.98142895843093,1.9258506662164,1.92515989510653,1.92388388736192,1.92304920560417,1.92448831208305,1.85220679067027,1.92297245325863,1.84990422030405,1.92558203300701,1.92647427902391,1.92861375065586,1.92795176167557,1.93181816108217,1.9341111374052,1.93865871387847,1.93894653517425,1.94214135155737,1.96652940935287,2.05967797470949,2.02188703857398,2.01203395621521,2.02167596962374,2.02180069218524,2.03421538407642,2.01293579627531,1.93366981141834,1.93171262660706,1.93060931163991,1.93157831000236,2.00304433774378,1.93013920352347,2.02287522502281,2.01219705494948,2.00518380937572,2.00124065762358,1.92990894648685,2.03198956605575,2.00523177959168,2.01546862367815,2.02472687535897,2.01717636336643,2.01810698555611,1.92740490121359,1.92621523985771,2.0190184196594,2.00905980282552,2.02003538823781,1.92492963806991,2.01161181831474,1.92164847529805,2.00628712434286,2.00498233446868,1.91895254916094,1.99870783022074,1.91824258996469,2.00764947847621,2.01185166939455,2.01059484973633,1.98601491107697,1.98234998657741,1.91314815302944,2.00909817899829,1.98008579238397,1.98591897064505,1.91000130686228,2.0028908330527,1.90916662510453,1.99852554340008,1.99239494980003,1.90200946888287,1.90348695153453,1.90234526039461,1.89979324490539,1.97457881159144,1.90087737178615,1.90054158027441,1.89905450357956,1.89890099888848,1.89908328570914,1.89643532978799,2.00116390527804,1.87528046454839,1.92613848751217,1.82455675818929,1.81992283532728,1.86577276774455,1.86322075225533,1.92340418520229,1.92078501141072,1.80974355549997,1.8082948549779,1.80562771097036,1.80270152779663,1.80071556085577,1.80082109533089,1.84850348999794,1.88130552367332,1.89002650893536,1.79698347805386,1.79624473672803,1.84376403266081,1.84241127257066,1.87883026052963,1.79297316799937,1.79313626673364,1.9205547543741,1.79110232957682,1.78951931245005,1.78900123411765,1.7885407200444,1.78960565883878,1.83638621344573,1.78685216844251,1.78909717454957,1.78913555072234,1.91549869361162,1.78929864945662,1.78631490202373,1.78918352093831,1.79623514268484,1.71883040220722,1.7658316198076,1.71371677718559,1.81386899407278,1.71063708932077,1.71011901098837
1.84221939170681,1.96041800383921,1.83908213958284,1.94291846905597,1.95658998060538,1.95735750406078,2.02641542696087,2.02796006791487,1.83301870428514,1.83206889400907,1.8286726027189,1.83037074836399,1.83075451009169,1.8304858768823,1.87673875911366,1.87658525442257,1.82909474061938,1.82951687851985,2.01535349515984,1.82898920614426,1.82928662148323,1.83172350845414,1.91528762466138,1.94551845476116,1.96801648604772,1.96490801605333,1.96595376676132,1.88643833678134,1.95953535186549,1.95754938492463,1.95830731433685,1.952685205026,1.95272358119877,1.94980699206823,1.95109259385604,1.94598856287759,1.945460890502,2.06063737902875,2.08541879259514,1.94142179831793,1.98800087801784,1.93616426264841,1.86236688241119,1.93170303256386,1.93190450747091,1.93001448096197,2.07718710353592,1.92859456256947,1.98162083929478,1.9249392321131,1.92724180247932,1.92483369763799,1.92551487470466,1.92394145162108,1.92286691878351,1.92555325087743,1.85060458545711,1.92552446874785,1.92415252057131,1.97400316899988,1.92730896078167,1.92979381796854,1.92979381796854,1.93279675348781,1.93704691462212,1.93891775304467,1.96812202052284,1.94425204105974,2.05496729950194,2.02459255875428,2.03582718333277,2.01225461920864,2.02887150201816,2.03197997201255,2.00809080446307,2.00646941116352,2.00575945196727,1.93342996033852,1.93457165147844,1.93246096197608,1.93014879756667,2.01757931318051,1.93050377716479,1.92980341201173,1.92915101707464,2.02562871541908,2.01086348294572,2.02796966195806,2.02584937841251,1.92871928513097,2.001211875494,1.92870969108778,2.00110634101888,1.99417944183385,2.01235055964057,2.01568928667158,2.01602507818332,1.99531153893057,2.01239852985653,2.01567969262839,2.00464654295694,1.99967682858319,1.99002522113147,1.9192691525863,1.91988317135062,2.00169157765363,1.91664997879473,1.91630459323979,2.01294539031851,2.00480004764802,2.00836903171565,2.00267976410246,1.99273074131177,1.97873303229382,1.91037547454679,1.9850746948441,2.00849375427715,1.98889312403474,1.98770346267887,1.99435213461131,1.98872043125728,1.99273074131177,2.00565391749216,1.89868033589505,1.90051279814483,1.89948623552323,1.89652167617673,1.89610913231945,1.89817185160585,1.97533674100365,1.96831390138669,1.93214435855072,1.82471985692357,1.82240769251416,1.81992283532728,1.8659742426516,1.86252998114547,1.91855919339005,1.80988746614786,1.80801662772531,1.80949411037697,1.80561811692717,2.01808779746972,1.80213547924827,1.8017037473046,1.79993844335717,1.79827867388486,1.87198011369014,1.92470897507648,1.7937119093252,1.7915148734341,1.79260859435805,1.89715488302743,1.79292519778341,1.83868878381194,1.7899702324801,1.8611964091417,1.78886691751295,1.78718795995425,1.87982804102166,1.78768685020026,1.91897173724733,1.87875350818409,1.7885407200444,1.78877097708102,1.78486620150165,1.87243103372019,1.83561868999032,1.78524996322935,1.79247427775336,1.71739129572834,1.7164031092795,1.71313154055084,1.71030129780903,1.70756699549915,1.70601276050196
1.84092419587581,1.94613247352548,1.88613132739918,1.88550771459166,1.94314872609259,1.9523014432983,1.83541721508328,1.83471684993022,1.83161797397902,1.95181214709548,1.82940175000154,1.82946890830389,1.82855747420059,1.82840396950951,1.83154122163348,1.83000617472267,1.82995820450671,1.93554064984089,1.93150155765682,1.82910433466257,2.00529893789403,1.8320305178363,1.83234712126166,1.83040912453676,1.96651981530968,1.96577147994066,1.96531096586742,1.96350728574722,1.95918996631056,1.99546504362165,1.958364878596,1.95682983168519,1.95278114545793,1.87851365710428,1.94994130867293,1.94786899534333,1.94798412386165,1.87410999127889,1.94075980933764,2.06209567359402,1.86736537891452,2.06127058587946,1.93821738789161,1.93624101499395,1.98568871360843,1.93227867515542,1.98821194696807,1.85557429983086,1.85638979350223,2.05556213017988,1.92575472578447,1.85442301464775,1.85232191918858,1.92509273680418,2.05320199555451,2.06128977396584,2.06393772988699,1.92526542958165,1.85353076863084,1.92809567232346,1.8556510521764,1.85636101137265,1.93173181469344,1.93491703703337,1.93627939116672,1.9387546543104,1.9427553703217,1.9664910331801,2.05872816443343,2.02184866240121,2.01638965182464,2.02295197736835,1.93827495215077,2.00845537810438,2.0083114674565,2.00574985792408,2.01130480893258,2.00733287505085,1.9317797849094,1.93245136793288,1.93110820188592,2.00538528428276,2.03245008012899,2.02680878273176,2.0138568244218,1.92915101707464,2.02551358690077,2.01304133075043,2.01814536172888,2.01598670201055,2.01853871749977,1.99978236305831,1.99778680207425,2.0343688887675,1.92612889346898,1.92478572742202,2.01453800148847,2.01613061265844,2.01868262814766,1.92240640471027,2.018500341327,1.91969129048677,1.99040898285917,2.01925827073921,2.01813576768568,1.91703374052243,2.00287164496631,1.99685617988457,1.91542194126608,1.99865026596158,2.00640225286118,1.91332084580691,1.91180498698248,1.99613662664513,1.99039938881598,1.90928175362284,1.99380527414934,1.99121488248735,1.90653785726976,1.98218688784314,1.99145473356716,1.98764589841971,1.98913297511456,1.89915044401149,1.89828698012416,1.89709731876828,1.8972028532434,1.96914858314444,1.89646411191757,1.98908500489859,1.99568570661508,1.82546819229259,1.82243647464374,1.82082467538739,1.82059441835076,1.81741879005402,1.90516590909323,1.8134564502155,1.80951329846335,1.80730666852906,1.80581959183421,1.80567568118632,1.80358417977035,2.01211070856075,1.80110891662666,1.79838420835998,1.79694510188109,1.79707941848579,1.88310920379352,1.84542380213312,1.7946041553421,1.79281966330829,1.79290600969702,1.79128461639748,1.79067059763315,1.78980713374582,1.91764775928675,1.83856406125044,1.83613676832272,1.83511979974431,1.91585367320974,1.78676582205378,1.78536509174766,1.78410827208944,1.8920316639626,1.88987300424428,1.88891359992502,1.83591610532929,1.78654515906035,1.71779424554243,1.76539029382074,1.76233938808551,1.76001762963291,1.71012860503157,1.81708299854228,1.70745186698084
1.89089956686588,1.89153277371659,1.88826120498793,1.88580512993063,1.95883498671244,1.90307440767725,1.92113999100885,1.88200588882637,1.88144943432121,1.88071069299538,1.87966494228739,1.83166594419498,1.83157959780625,2.04259098378353,1.8802885550949,1.88035571339725,1.93142480531128,1.93909044582214,1.83073532200531,1.87870553796813,1.83206889400907,1.88155496879632,1.83218402252738,1.83289398172363,1.96767110049279,1.9689471082374,1.96259585164392,1.96382388917257,1.99843919701135,1.96048516214156,1.95986154933404,1.88381916298977,1.95269479906919,1.95183133518186,2.09568441881119,1.94948079459969,1.99231819745449,1.99206875233148,1.98989090452677,1.94020335483248,1.93876424835359,1.9899772509155,1.9326912190127,1.93365062333195,1.93272000114227,1.93355468290003,1.93187572534133,1.98513225910326,1.85515216193038,1.92693479309716,1.9276543463366,1.92589863643236,1.92555325087743,1.98033523750698,1.92279976048116,1.85326213542145,1.97854115142997,1.97958690213796,1.97809023139992,1.92618645772814,1.92543812235912,1.8570613765257,2.0583731848353,1.97157587607216,1.97177735097921,1.94176718387286,1.94449189213955,1.94788818342972,2.04523893970468,2.02296157141154,2.01306051883682,2.02490916217963,2.01237934177014,2.01214908473352,1.93795834872542,2.01366494355795,2.00967382158984,2.00763029038982,1.93250893219204,1.93189491342771,1.93238420963053,2.01474907043871,2.01344428056452,1.93195247768687,2.01859628175893,1.92905507664271,2.02475565748855,2.02311507610262,2.02295197736835,2.03801462518068,2.02910175905479,2.01910476604813,2.01324280565747,1.92685804075162,1.92613848751217,1.92524624149527,2.01855790558616,2.02174312792609,1.92323149242483,2.00295799135504,2.00719855844616,2.00257422962734,2.01135277914854,2.00646941116352,2.00734246909405,2.01555497006688,1.91774369971868,1.91670754305388,2.00471370125928,1.91477914037218,2.00376389098322,1.99203037615871,2.00244950706584,1.99549382575123,1.98947836066949,2.00871441727058,1.98787615545633,1.99522519254184,1.98987171644039,2.01374169590349,1.90294968511574,1.99285546387327,1.98939201428076,1.97174856884963,1.89883384058613,1.89734676389129,1.89855561333355,1.89777849583495,1.89725082345936,1.99234697958407,1.96916777123083,1.8751365539005,1.82358775982684,1.82113168476955,1.82012431023433,1.81865642162587,1.86259713944781,1.81391696428874,1.93093550910846,1.92899751238356,1.80471627686707,1.92767353442298,2.01166938257389,1.80543583010651,1.92704032757228,2.01015352374947,1.92630158624645,1.79669565675808,1.90101168839085,1.79257021818528,1.84178765976314,1.79322261312238,1.79257021818528,1.79117908192236,1.78982632183221,1.91626621706702,1.7881569583167,1.91243819383319,1.83623270875465,1.78747578125003,1.78590235816645,1.78671785183782,1.78524036918616,1.78462635042184,1.78418502443498,1.91360866710268,1.78422340060775,1.78589276412326,1.78323521415891,1.81227638290281,1.81027122787556,1.80928304142673,1.80266315162386,1.70868949855268,1.70719282781464,1.70477512893012
1.84585553407679,2.05200274015544,1.84009910816125,1.84035814732745,1.83893822893495,1.83767181523353,1.8824951850292,1.88447155792686,1.88143024623482,1.83311464471706,1.88006789210148,1.88191954243764,2.02125383172327,1.93525282854511,1.832164834441,1.83378622774054,1.94462620874425,1.83309545663068,1.83108070756024,1.92409495631216,1.83284601150767,1.83290357576683,1.83347921835838,1.99156026804228,1.97316848724213,2.07542179958849,2.07413619780069,1.95922834248333,1.88893278801141,1.95891173905798,1.88474978517945,1.99534991510334,1.99523478658503,1.95618703079129,1.99584880534935,2.06928161194525,1.9481664106823,1.94382990315926,2.06539602445226,1.9433981712156,1.94272658819212,1.9880488482338,1.93789119042307,1.93544470940896,1.98747320564224,1.9326912190127,2.07079747076967,1.85737797995106,1.98565993147885,1.92958274901831,2.06481078781751,1.98204297719525,1.92513111297696,1.925332587884,1.92547649853189,1.92459384655817,1.92500639041545,1.85250420600924,1.97676625343934,1.92924695750657,1.93052296525118,1.85750270251256,1.93182775512537,1.861062092537,1.97285188381677,1.97126886669,1.96977219595196,1.9458542462729,1.96928289974914,2.03280505972712,2.02878515562943,2.03975114699853,2.03967439465299,2.0249571323956,2.01956528012138,1.93530079876107,1.93409194931881,1.93441814678736,1.93319010925871,1.9301104213939,2.01503689173448,2.01393357676734,2.01199558004244,2.02260659181342,2.00278529857758,2.01533430707345,2.00235356663391,2.01135277914854,1.9302351439554,2.01846196515423,1.92870009704459,1.92897832429717,2.01397195294011,1.99864067191839,2.01194760982648,2.01192842174009,2.01558375219646,1.99865986000478,2.00342809947148,1.92190751446425,1.92232965236473,1.92157172295251,1.9953978853193,2.00239194280668,2.00337053521232,2.00975057393538,2.01496013938894,2.01552618793731,1.9160455540736,2.01481622874106,2.00853213044992,1.99801705911087,2.00607605539263,2.00449303826585,1.91148838355713,1.90932012979561,1.99396837288361,1.90738213307071,1.97820535991823,1.97683341174169,1.97532714696046,1.99873661235032,2.00073217333437,1.97137440116512,1.9756629384722,1.96901426653975,1.97573969081774,1.89903531549318,1.99084071480283,1.98926729171925,1.89644492383119,1.82345344322215,1.82425934285032,1.82121803115828,1.81910734165592,2.02226120625849,1.81443504262114,1.81249704589624,1.81232435311877,1.80863064648963,1.80703803531967,1.85254258218201,1.8518997812881,1.89144642732786,1.90344857536176,1.84702600734628,1.84602822685425,1.84510719870777,1.79617757842569,1.79322261312238,1.79191782324819,1.87363988316246,1.83930280257627,1.7889340758153,1.7891931149815,1.91527803061819,1.78700567313359,1.78711120760871,1.78554737856832,1.78369572823216,1.78356141162746,1.78669866375143,1.78572007134579,1.78478944915611,1.83206889400907,1.78342709502277,1.783638163973,1.78390679718239,1.78301455116549,1.76328919836157,1.76111135055686,1.81634425721646,1.81573023845213,1.70598397837238,1.8187427680146,1.81761067091788
1.96395820577727,1.84709316564863,1.84161496698567,1.88922060930718,1.88902872844333,1.88609295122641,1.83740318202414,2.04794445988498,1.83101354925789,1.832164834441,1.91723521542947,1.88027896105171,1.8315124395039,1.83231833913208,1.8325485961687,1.94677527441938,1.87966494228739,1.88151659262355,1.88225533394938,1.91865513382197,2.00645981712033,1.83275007107574,1.83460172141191,1.83587772915652,1.96869766311439,2.00474248338886,1.96525340160826,1.8902279838424,1.96230803034815,1.96169401158382,1.95947778760634,2.0730904470927,2.07198713212555,1.95549625968142,2.07727344992465,1.9515243257997,1.95000846697528,2.08875751962616,1.87217199455399,1.86982145397182,1.94143139236112,1.86819046662908,1.93903288156298,1.93672071715357,1.93614507456202,1.98829829335681,1.98612044555209,1.92836430553285,1.92873847321736,1.92883441364929,1.85576618069471,1.92850821618074,1.92819161275538,1.92588904238917,1.92587944834598,1.92467059890371,1.92761597016383,1.92870009704459,1.92736652504082,1.92844105787839,1.92671413010373,1.93147277552724,1.97534633504684,1.86262592157739,1.9409516902015,1.97126886669,1.97284228977358,1.97218989483649,1.97403195112946,1.94217013368695,1.94141220427474,2.03239251586984,2.02603166523316,2.02595491288762,2.00941478242364,1.9357805009207,1.93604913413009,1.93376575185026,1.93248015006246,1.93338199012256,2.01884572688193,2.01843318302465,2.00471370125928,2.01925827073921,2.01800145108099,2.01242731198611,2.01195720386967,2.02148408875989,2.00952031689876,2.00631590647244,2.01286863797296,2.01587157349224,2.00669966820015,2.02488038005006,2.0052125915053,2.00931884199171,2.01125683871661,2.0106236318659,2.00170117169682,2.00847456619077,1.92205142511214,1.92191710850745,2.00820593298138,2.00388861354472,1.91841528274216,2.01491216917298,2.01245609411568,1.98975658792207,1.99578164704701,1.91497102123603,1.91339759815245,1.99194402976998,1.9125533223515,2.00929005986214,1.90989577238716,1.90895555615429,1.98175515589948,1.99493737124606,1.97903044763279,1.99532113297376,1.97676625343934,1.99572408278785,1.9950141235916,1.96954193891534,1.89936151296172,1.9693404640083,1.89785524818049,1.97259284465058,1.97002164107497,1.89688624981804,1.98735807712393,1.8728147954479,1.8240290858137,1.93218273472349,1.92317392816567,1.86452554212952,1.81260258037136,1.81131697858355,2.01813576768568,1.92946762049999,1.80722991618352,1.85256177026839,1.8008019072445,1.84884887555287,1.84721788821013,1.79953549354308,1.79672443888766,1.84427251695001,1.79580341074118,2.00218087385645,1.79068019167635,1.85903774942337,1.87547234541224,1.78908758050638,1.78695770291763,1.78752375146599,1.78521158705658,1.78514442875424,1.78746618720684,1.88782947304426,1.78333115459084,1.78459756829226,1.7859695164688,1.78457838020587,1.99865986000478,1.91497102123603,1.78120127700209,1.91129650269328,1.78204555280304,1.71127989021468,1.70850721173202,1.81578780271129,1.70764374784469,1.70520686087378,1.799381988852,1.70279875603245
1.84623929580449,1.96233681247772,2.0383696047788,1.96244234695284,2.03615338080132,1.93581887709347,1.88679331637946,1.83859284338002,1.83375744561096,1.83121502416493,1.83324896132176,1.83382460391331,1.83529249252177,1.83291316981002,1.83426592990017,1.83250062595274,2.04098877857037,1.88175644370337,1.93916719816768,1.83324896132176,1.8344865928936,1.92297245325863,1.92224330597599,1.8359065112861,1.97147034159705,2.08920843965621,1.89555267781428,1.96617442975475,1.96238478269369,1.96208736735472,1.96225046608899,1.99899565151652,1.95271398715558,1.88280219441136,1.95168742453398,1.99543626149207,1.94953835885884,1.9485597664532,1.94571033562501,1.99402593714277,2.08783649147967,1.94114357106535,1.93780484403433,1.9370756967517,1.86207906111542,1.93528161067469,1.85985324309474,1.93227867515542,1.92870009704459,1.98506510080091,2.05769200776863,1.85338685798295,1.92866172087182,1.92544771640231,1.92889197790844,1.98125626565346,1.92591782451875,1.98116032522154,1.92688682288119,1.92711707991782,1.85680233735951,1.93198125981645,1.86191596238114,1.93561740218643,1.9390136934766,1.93961811819773,2.05558131826627,2.0645709367377,2.05885288699493,1.94292806309916,1.94283212266724,2.03859986181542,2.03498290753183,2.01159263022835,2.00815796276541,1.93588603539582,1.93601075795732,1.93341077225214,1.93287350583336,1.93161668617513,1.93159749808874,2.02384422338526,2.00466573104332,2.01624574117675,2.00348566373064,1.9307532222878,2.00368713863768,2.001461320617,2.02221323604252,2.03525154074122,1.92944843241361,1.92928533367934,1.9282971472305,1.92723220843613,2.00615280773817,1.92626321007368,1.92505436063141,1.92268463196285,2.01286863797296,2.0028908330527,2.00519340341891,2.00789892359922,1.99816096975876,1.91908686576564,1.91850162913089,2.01147750171004,2.00406130632219,2.00703545971188,1.9897182117493,1.99251007831834,1.98549683274458,1.98509388293049,1.98939201428076,1.99170417869017,1.90962713917777,1.99242373192961,1.90905149658622,1.99420822396343,1.99482224272775,1.98608206937932,1.98433595351828,1.97267919103931,1.97100023348061,1.90049361005845,1.89920800827064,1.8983637324697,1.89729879367532,1.89704934855232,1.89575415272132,1.98247470913892,1.98203338315206,1.87241184563381,1.82320399809914,1.81740919601083,1.81666086064181,1.86404583996989,1.86098534019146,1.85996837161305,1.8660989652131,1.86564804518305,1.8059635024821,1.80420779257786,1.80308528952433,1.922492751099,1.92219533576003,1.79787572407077,1.88924939143676,1.92118796122481,1.79376947358435,1.92449790612625,1.79225361475993,1.78926027328385,1.9209385161018,1.78976875757305,1.88477856730903,1.99610784451555,1.78645881267162,1.78582560582091,1.78606545690072,1.7847990431993,1.91598798981444,1.91519168422946,1.91584407916655,1.7819592064143,1.78002120968941,1.78182488980961,1.78285145243121,2.00272773431842,1.71374555931516,1.88692763298416,1.70919798284189,1.70771090614704,1.75253427594271,1.70399801143152,1.70087035335074,1.6998917609451
1.9613390319857,1.93822698193481,1.84645995879792,1.84190278828145,1.88955640081892,1.84272787599601,1.94356126994987,1.88545015033251,1.88541177415973,1.833709475395,1.83508142357154,1.83271169490297,1.93484987873102,1.8321552403978,1.93786240829349,1.9384956151442,1.88254315524516,1.88212101734468,1.88154537475313,1.83394932647481,1.83494710696684,1.92293407708586,1.83420836564101,1.83509101761473,1.90013863046032,1.97223786505245,2.07983505945707,2.0031498722189,1.89292390997951,1.96239437673688,1.88908629270249,1.9587582343669,2.08207047152094,1.88333946083014,2.09439881702338,1.8788782307456,2.07138270740442,1.94561439519308,1.94477971343533,1.94540332624285,1.94121072936769,1.9413354519292,2.0684373361443,1.93852439727378,1.93610669838925,1.93740189422025,1.93278715944462,1.93185653725494,1.85763701911726,1.93115617210189,1.92716505013378,1.9272705846089,1.92828755318731,1.92652224923988,1.92619605177133,1.979788377045,1.85555511174447,1.97813820161588,1.92618645772814,1.97665112492103,1.93014879756667,1.93188531938452,1.93192369555729,1.93535836302023,1.93967568245688,1.86887164369575,1.97096185730784,1.94631476034614,1.96897589036698,1.94305278566067,2.05395033092353,2.02854530454962,2.02511063708668,2.0343688887675,2.01133359106215,2.00522218554849,1.93394803867092,1.93393844462773,1.9346196216944,1.93224029898265,2.01071957229783,2.01167897661709,2.00504949277102,1.93055174738075,2.00184508234471,2.02246268116553,1.92861375065586,2.02731726702097,1.9960502802564,2.02560952733269,2.0199202597195,2.02112910916176,2.02077412956364,2.02484200387729,2.02085088190918,2.0214649006735,1.92522705340888,2.01779997617394,1.99861188978881,2.0085705066227,2.01473947639551,2.01150628383962,2.0031498722189,1.99511965806672,1.9180986793168,1.99687536797096,1.99588718152212,1.99442888695685,2.0049535523391,2.00571148175131,1.98824072909765,2.00558675918981,1.98196622484971,1.91308099472709,1.99290343408924,1.90978064386885,1.99670267519349,1.90557845295051,2.00024287713155,2.00145172657381,1.99301856260755,1.9853337340103,1.98189906654736,1.89872830611102,1.90014822450352,1.89768255540303,1.89702056642274,1.8986131775927,1.98157286907882,1.97803266714076,1.9690718307989,2.00068420311841,2.00128862783954,1.92185954424829,1.81558632780424,1.92833552340327,1.81391696428874,1.85906653155295,1.8587403340844,1.85710934674167,1.80331554656095,1.8597764907492,1.92822039488496,1.79943955311116,1.92289570091309,1.88298448123202,1.79405729488013,2.00136538018508,1.79304032630172,1.87932915077565,1.7908720725402,1.78852153195802,1.78918352093831,1.83604082789079,1.83588732319971,1.83563787807671,1.83381500987012,1.83232793317527,1.91688023583135,1.78461675637864,1.78317764989976,1.78301455116549,1.83006373898183,1.83118624203536,1.78241012644435,1.78116290082932,1.91260129256746,1.78208392897581,1.78263078943778,1.80846754775536,1.70772050019023,1.70418029825218,1.80900481417415,1.70278916198926,1.70037146310473,1.80603066078445
1.89839251459928,1.84862821255944,1.89520729225934,1.84614335537257,2.05147506777985,1.84164374911525,1.84057881032088,1.83871756594152,1.83728805350583,1.83648215387765,1.83532127465135,1.83582975894056,1.83269250681659,1.83304748641471,2.00526056172126,1.88180441391933,1.83231833913208,1.94548967263158,1.83359434687669,2.01083470081614,1.83394932647481,1.83558990786074,1.83602163980441,1.83429471202975,1.97517364226938,1.97198841992944,1.96962828530407,1.89417113559455,2.00480004764802,1.96451466028244,1.99946575963295,1.95869107606455,1.88524867542546,1.95575529884762,1.99578164704701,1.99674105136626,1.95274276928516,2.08668520629656,1.99448645121601,1.99671226923668,1.94256348945785,1.93980040501839,2.08197453108901,1.93807347724373,2.07482696891055,1.9871470081737,1.93531998684746,1.8617144874741,1.8580975331905,1.92983219414131,1.93042702481925,2.07523951276783,1.85506581554165,1.92627280411687,1.92562040917978,1.85266730474351,1.92744327738636,1.97911679402152,1.92795176167557,1.92799013784834,1.93037905460329,2.06207648550763,1.86076467719803,1.86232850623842,1.86581114391732,1.97162384628813,1.96922533548999,1.94935607203818,1.97341793236514,1.94191109452075,2.02427595532892,2.02862205689516,2.02819991899468,1.93583806517986,2.01879775666597,2.00347606968744,1.93541592727939,1.93336280203618,1.93241299176011,1.932556902408,1.93368899950472,2.00579782814004,2.01124724467342,2.00423399909966,2.02539845838245,2.0154014653758,2.01474907043871,2.01628411734952,2.01142953149408,2.01250406433165,2.01152547192601,2.00558675918981,1.92720342630655,2.01545902963496,1.9258410721732,1.92500639041545,2.01397195294011,2.01933502308475,2.01121846254384,1.99990708561981,1.92342337328868,2.00282367475035,1.9930857209099,1.91885660872902,2.01826049024719,2.01287823201616,2.01599629605374,1.91538356509331,1.91517249614307,1.915517881698,2.00376389098322,2.00227681428837,2.00167238956724,1.99587758747893,2.00918452538702,2.00208493342452,1.90838950760593,1.99297059239158,1.90573195764159,1.98755955203098,1.98752117585821,1.98609166342251,1.98579424808355,1.89949582956642,1.89946704743684,1.89831576225374,1.8965600523495,1.89666558682461,1.89627223105372,1.8953991731232,1.97249690421865,1.82418259050478,1.82313683979679,2.02417042085381,1.92539974618635,1.81412803323897,1.81316862891972,1.81263136250093,1.90338141705941,2.00777420103771,2.00629671838606,1.92298204730182,1.80213547924827,1.79959305780224,1.92767353442298,1.91936509301822,1.91979682496189,1.79301154417214,1.79270453478998,1.92495842019949,1.92279976048116,1.78888610559934,1.83582975894056,1.78632449606692,1.78651637693077,1.90181758801902,1.99147392165354,1.8331913970626,1.832414279564,1.78477985511292,1.78134518764998,1.9172064332999,1.78153706851383,1.78310089755422,1.78035700120115,1.82897961210107,1.78190164215515,1.77940719092508,1.71042602037054,1.70922676497147,1.70793156914047,1.7060799188043,1.81604684187749,1.81581658484087,1.79312667269045,1.69641871730939
1.85191896937449,1.85144886125805,1.91158432398905,1.84653671114346,2.03865742607458,1.84399428969743,1.84038692945703,1.95966966847019,1.83584894702694,2.0354050454323,1.83398770264758,1.83555153168797,1.8328076353349,1.83343124814242,1.95189849348421,1.83331611962411,1.83316261493302,1.8333257136673,1.83567625424948,2.01666787907722,1.93270081305589,1.83567625424948,1.835004671226,1.88384794511935,1.89979324490539,1.97098104539422,2.00551960088746,1.89472759009972,2.00478085956163,1.96505192670122,2.00100080654376,1.9615980711519,1.95650363421664,1.95672429721007,1.99652038837283,1.95140919728139,1.87561625606013,1.94926013160626,1.94690959102408,1.94491403004002,1.99294181026201,1.94154652087943,2.06581816235273,2.0779834091209,1.93646167798737,1.9362985792531,1.93376575185026,1.93076281633099,1.85916247198488,1.93016798565305,1.85769458337641,1.92886319577886,1.93207720024837,1.92709789183143,1.92847943405116,1.98100682053046,1.93118495423146,2.06406245244849,1.92674291223331,1.92900710642675,1.92760637612064,1.93257609049439,1.85949826349662,1.86346060333515,1.94008822631416,1.94192068856394,1.97169100459047,1.96890873206463,1.96869766311439,2.01608264244247,2.01678300759553,1.94004985014139,2.02259699777023,2.0183660247223,2.0289482543637,2.00858969470908,2.00782217125367,1.93375615780707,1.93310376286998,1.93258568453758,1.93274878327185,2.0312796068595,2.02558074520311,2.00896386239359,2.01247528220207,1.93190450747091,2.01760809531009,1.92842186979201,1.92729936673847,2.01548781176453,2.01497932747533,1.92912223494506,2.01415423976077,2.02221323604252,2.0085609125795,2.00513583915976,2.01294539031851,2.00525096767807,1.9222337119328,1.92204183106895,2.00311149604613,2.00528934385084,1.99909159194844,1.99480305464136,2.02157043514862,1.91860716360601,2.00722734057574,2.00079933163672,2.00582661026962,1.99344070050802,1.99663551689114,1.99943697750337,1.98140017630135,1.99865026596158,1.99222225702256,1.99705765479162,1.99468792612305,1.9941122835315,1.99242373192961,1.90703674751578,1.9859765349042,1.98202378910887,1.9956569244855,1.89854601929036,1.89833495034012,1.89673274512696,1.89755783284152,1.89620507275137,1.98228282827507,1.98607247533613,1.98530495188072,1.82201433674326,1.91136366099562,1.91953778579569,1.81470367583053,1.81393615237512,1.88259112546112,1.92657021945584,1.80845795371217,1.80498491007646,1.80360336785673,1.80221223159381,1.79968899823416,1.79820192153932,1.90156814289601,1.84295813303263,1.84267990578005,1.8873881470574,1.88496085412968,1.79166837812518,1.79050749889888,1.78870381877868,1.91972966665954,1.7850580823655,1.83354637666073,1.83235671530485,1.78572966538898,1.83252940808232,2.00974097989219,1.99142595143758,1.78406030187348,1.91272601512897,1.77979095265278,1.91279317343132,1.77914815175888,1.77881236024714,1.7806736046265,1.82809696012735,1.85550714152851,1.81428153793006,1.70450649572072,1.70287550837799,1.69876925789157,1.69992054307468,1.74595276231261,1.69428883972064
1.85398168866089,1.96648143913691,1.84737139290121,2.03302572272054,1.95947778760634,1.84423414077724,1.84278544025517,1.84002235581571,1.956820237642,1.83618473853868,1.88419333067428,1.88096973216158,1.88188116626487,1.94517306920622,1.83123421225132,1.83255819021189,1.83450578097998,1.83483197844853,1.88185238413529,1.83518695804666,1.8340932371227,1.88261031354751,1.8845483102724,1.8346113154551,1.90250835912889,2.00367754459449,1.96909101888529,1.96531096586742,1.96285489081012,1.96609767740921,1.9657235097247,1.88862577862924,2.00354322798979,1.95477670644198,1.95465198388048,1.99768126759913,1.87661403655215,1.9519080875274,1.94685202676492,1.94935607203818,1.94258267754423,2.07521073063825,1.94208378729822,1.93866830792166,1.99252926640473,1.99135879313523,1.98896028233709,1.98845179804789,1.8596517681877,1.93054215333756,1.92901670046994,1.92963071923427,1.85439423251817,1.98268577808915,1.92645509093753,1.85531526066466,1.92567797343893,1.9284314638352,1.92865212682863,1.92928533367934,1.9773323019877,1.93344914842491,1.93547349153854,1.93815022958927,1.97231461739799,1.94286090479682,1.94539373219965,1.97006961129093,2.04412603069434,1.94145058044751,2.02944714460972,2.01468191213636,1.9401745727029,2.01213949069033,2.00996164288562,1.93557902601366,1.93584765922305,1.9355310557977,1.93332442586341,1.9324225858033,1.93161668617513,1.92428683717601,2.01544943559176,2.01774241191479,2.00260301175692,2.01795348086502,1.93142480531128,2.01917192435048,2.01299336053447,2.01145831362366,2.00189305256067,2.01693651228661,1.92690601096758,1.99972479879915,2.0154014653758,1.99911078003483,1.99794030676533,1.99818975188834,2.02200216709229,1.99802665315407,1.99318166134182,1.99779639611744,2.00799486403114,1.99794990080853,2.00880076365932,2.00563472940577,2.00274692240481,1.91532600083415,1.99555139001038,1.91575773277782,2.00592255070155,1.91238062957404,2.00530853193722,1.99154107995589,1.98918094533052,1.9928170877005,1.90891717998152,1.9071326879477,1.99497574741883,1.99736466417378,1.97162384628813,1.97967324852669,1.96879360354632,1.90165448928475,1.89705894259551,1.89702056642274,1.89498662926591,1.89479474840206,1.89588846932602,1.985468050615,1.97490500905998,1.90362126813922,1.82225418782308,1.81623872274134,1.9129370840792,1.8139649345047,1.81100996920139,1.92186913829148,1.89778808987814,1.85524810236231,1.87269007288639,1.85060458545711,1.84870496490498,1.89529363864808,1.84501125827584,1.9120448380623,1.91037547454679,1.79137096278621,1.79181228877307,1.91896214320414,1.78791710723689,1.7873894348613,1.78607505094391,1.78645881267162,1.91841528274216,1.9179739567553,1.78555697261152,1.78431934103967,1.78264038348098,1.78288023456079,1.8728147954479,1.78032821907157,1.7823525621852,1.78046253567626,1.78008836799175,1.83032277814802,1.77738284781145,1.83207848805226,1.83931239661946,1.81873317397141,1.81843575863244,1.70214636109535,1.81103875133097,1.69865412937326,1.69735893354226,1.69509473934882
1.8555167355717,1.85205328597919,1.93937826711791,1.84940533005804,1.84693966095755,1.84307326155094,1.84391753735189,1.8424880249162,1.95655160443261,1.88592985249213,1.88333946083014,1.88293651101605,1.83304748641471,1.88224573990619,1.90670095600404,1.88200588882637,1.8326733187302,1.92621523985771,1.83523492826262,1.8361559564091,1.83606961002037,1.93902328751979,2.01206273834479,1.88470181496349,1.90098290626127,2.00516462128933,1.97279431955762,1.96873603928716,1.96645265700733,1.96492720413972,1.96264382185989,2.00129822188273,2.00006059031089,2.07303288283354,1.88308042166394,1.87960737802823,1.95060329765322,1.94714944210389,1.94565277136585,2.0839221218571,1.94475093130575,1.94261145967381,1.94019376078928,1.94046239399867,1.93897531730383,2.07497087955844,1.86212703133138,1.93844764492824,1.93260487262396,1.93169343852067,1.98458539864128,1.85704218843932,1.92809567232346,1.92883441364929,1.92629199220326,1.92654143732626,1.92800932593472,1.92879603747651,1.92886319577886,1.9315303397864,1.929717065623,1.97861790377551,1.9326912190127,1.8653314417577,1.8662236877746,1.86857422835678,2.04128619390934,2.0394057614436,1.96840984181862,1.94325426056771,1.94144098640432,1.9418439362184,2.02216526582656,2.01968040863969,2.0200545763242,1.93519526428596,1.93567496644558,1.93489784894699,1.93378493993665,1.93349711864087,1.93204841811879,2.01825089620399,1.93249933814884,1.93282553561739,1.9317797849094,1.93033108438733,1.92899751238356,2.01639924586783,1.92930452176572,1.92967868945023,2.01606345435609,1.92851781022393,2.01236015368376,2.02257780968384,2.01291660818893,2.00883913983209,1.92423886696005,2.01693651228661,2.01084429485933,2.01582360327627,2.00354322798979,2.00051151034094,2.00630631242925,1.99881336469586,1.91790679845295,2.00844578406119,1.99292262217562,1.99809381145641,1.996827397755,2.00204655725175,2.00165320148086,2.00087608398226,1.98994846878593,1.99421781800662,1.99337354220567,1.99180971316528,1.99186727742444,1.9068832428247,1.90535778995708,1.90363086218242,1.97315889319894,1.97214192462052,1.98256105552765,1.89971649255985,1.89636817148564,1.89696300216358,1.89437261050159,1.89523607438892,1.89540876716639,1.98646583110702,1.98581343616993,1.82358775982684,1.99944657154657,1.81870439184183,1.81581658484087,2.00619118391094,1.92353850180699,1.81015609935725,1.80872658692156,1.99511965806672,1.99183849529486,1.92284773069712,1.79660931036935,1.7957746286116,1.79661890441254,1.91173782868013,1.79548680731582,1.79271412883317,1.8716539162216,1.78625733776457,1.83607920406356,1.83554193764478,1.83303789237152,1.9177149175891,1.92095770418819,1.91962413218442,2.00810999254945,1.78018430842368,1.78320643202934,1.78201677067346,2.00631590647244,1.77970460626405,1.78219905749412,1.78031862502837,1.78267875965375,1.78110533657017,1.78114371274294,1.78265957156736,1.78002120968941,1.75354165047793,1.70170503510849,1.70013161202491,1.69997810733383,1.69736852758546,1.69547850107652,1.69028812370934
