1.98022186617824,1.98007058907547,1.98005929897949,1.98049732497324,1.96018070174471,2.07184537028054,2.0643168215394,1.93335713850078,1.85946263242206,1.89471584703326,1.85905259745608,1.85675297583767,1.9770130419392,1.85358973950665,1.93943102384218,1.92302309247942,1.92372007387124,1.92427933131962,1.97328325512177,1.92531617069434,1.92581628987749,1.92027554831347,1.92191365364581,1.96698045350644,1.9451383668608,1.96619636472265,1.84593857690319,1.92177082323507,1.91960375471698,1.93778634428251,1.96655643403271,1.84836164142164,2.03362224503812,1.92458930469188,1.93192785136852,1.93056943730081,1.93013401433222,1.93574752875338,2.04103430989549,1.98907514260494,2.0463701958284,1.93210039988506,2.01220128285291,2.01572627812012,2.01362251270707,2.01289479806778,2.02119113939355,2.01311564248295,1.92427883552252,1.92456016350317,1.92427956682793,1.92156109850229,1.92222626086316,1.9206445427991,1.92293810188513,1.92311393002322,2.02243439144078,2.00090292299806,2.00853446768929,2.01486006888552,2.0128486754466,2.02127483307239,1.91887329509975,2.01349057085516,2.00140042118357,1.99175857290336,1.98956519539294,1.99014128388234,1.99007474806893,1.98889403646392,1.91678815384912,2.00035698327428,2.00631187826637,1.99960079509218,1.99567238187555,1.99573814930655,2.00580261597213,1.99685159841542,1.99802435505316,1.99167682295487,1.99403966865097,1.98988867207103,1.99016857994231,1.90933071310234,1.99353485979281,1.99300382630696,1.90913718926129,1.99162049950801,1.98932010830326,1.98957350022188,1.99014492230994,1.98394226392747,1.98706691659843,1.90263579088504,1.98853300554848,1.9832617004752,1.8993798423431,1.89770802261259,1.89643956661939,1.92485747395357,1.9863545590297,1.89432751074485,1.89303926504152,1.98250025950262,1.97719751005638,1.97938865092689,1.97955351202581,1.88639636253721,1.88447461686845,1.88407795366958,1.88259837778801,1.95387799112742,1.8821613093721,1.88348856729976,1.88188746586642,1.88221665825409,1.95707405827606,1.8254606776488,1.82330680639167,1.81909441331703,1.81899191301408,1.81393224487813,1.81415350158516,1.81107500555379,1.83454822667878,1.85584969127822,1.85405899430728,1.85177487202377,1.91388153276158,1.86210401984858,1.91031735924516,1.90434322381269,1.90603795365868,1.90471823005555,1.90147826176342,1.79846802621342,1.79557974514068,1.79412530884376,1.79440221995662,1.79270260401519,1.9893985187149,1.79304367032457,1.79308678991848,1.83962571196095,1.81393428528682,1.79485625011559,1.79117220249066,1.79071558333318,1.79147891224629,1.79176938211278,1.79031292987114,1.78932946211792,1.79005146292935,1.79131708804045,1.79099245020364,1.79027341009286,1.78975322296551,1.8842715291507,1.78956267428913,1.78915843455531,1.83573423032833,1.78991356519011,1.78910998245763,1.67265968417946,1.67152055846341,1.67215750748218,1.667543365241,1.66658260722779,1.66490390610865,1.67135702435821,1.6620723933848,1.71864258297226,1.65841030374111,1.81813662721572,1.65817935002294,1.65658572727593
2.05883272444815,1.94213416848659,1.94235055237334,2.0692862319454,1.95663021488345,1.93626588159125,1.93644547718778,1.93205972038686,1.93035609044385,1.93095763807606,1.92942473214084,1.85635496147416,2.04657183964055,1.97536804173859,1.94452606325408,1.97349366212417,1.92272173054751,1.92298573702417,1.92254271041293,1.92274035206379,1.92060951122694,1.84667674210116,1.84665324586447,2.05562890469853,1.93877093102605,1.84500130919371,1.91874927468502,1.96655979499953,1.84681846042013,1.93624560409392,2.05314227648831,1.8488299981777,1.92349144126903,1.92629824721385,1.93011420242851,1.92837161363644,1.96005562260319,1.93184964951396,1.93598278705959,1.95301189769748,1.95692378557311,1.88078962766483,2.01822245120055,2.0263102395209,2.02387518806924,1.92735453650708,2.0193415462562,2.01876484633291,1.92385249347231,1.92442093945757,1.92244818819674,1.92264209302516,1.99215293799722,1.92095192216993,1.92205609400541,1.92158542007289,1.91969086750289,1.91921893421232,2.01032388118504,2.01644742534692,2.01672110937842,2.02260217494054,2.01448009403684,1.9185108466656,1.94566405963329,1.91618765520852,2.00602401853212,1.99074028069724,1.98930626429032,1.98874077561857,1.91682608241234,1.9168098353566,1.91673346638625,2.00059851216295,1.99730624897489,1.98848398263958,1.9128480036673,1.99905739450128,1.99782932333715,1.99236514518771,1.99751875583721,1.9956308843998,1.99632963516503,2.00894889686342,1.99309311099835,1.99678123728828,1.99785715031326,1.90575154931353,1.98989385260956,1.99005477898896,1.9801390256711,1.98135473749613,1.90234224102772,1.98558790973267,1.98845038319976,1.98864267433787,1.98700130435399,1.98599179870059,1.89649415677669,1.91429762945261,1.89399826440029,1.89365323044494,1.89409797583313,1.96998325594726,1.97584871894423,1.97410526420053,1.97496889460642,1.97195725236231,1.88397178776865,1.88331034109456,1.88445364503811,1.88084128434958,1.88467159006037,1.88059298205481,1.88132072820393,1.88081790529973,1.96976058043975,1.88088542270927,1.98166127939926,1.81865234464481,1.81817572797449,1.98322985959495,2.00626908759553,1.81133451770601,1.81119192736047,1.80760975419526,1.85410562431968,1.80626756876145,1.80505696907014,1.80471135405421,1.80066984219078,1.90398677587914,1.90564908850429,1.89782148837162,1.90077065787988,1.90341484641333,1.90258847844038,1.79741056539047,1.99559596133113,1.79275625660479,1.79230484092273,1.79554224739597,1.79307019145485,1.79174378277891,1.80412234598803,1.79232820246235,1.79084770368935,1.79033056368418,1.89325208257144,1.84800855202837,1.89062352965584,1.791780668214,1.88402269056945,1.79196108350036,1.79163277045696,1.78906203719577,1.78988506536126,1.78906162131541,1.78913152168532,1.78949588560127,1.98820302438306,1.89616893324322,1.78968760231346,1.66929014637985,1.6703138337709,1.67080319762136,1.81972439918629,1.66450547883087,1.66485452326088,1.70989386602497,1.82031409864105,1.71824515989516,1.65893106427156,1.86799367832844,1.65717608227377,1.65569604267805
2.06861286499159,1.94084405260798,1.94044104170936,1.86436847939108,1.93397257517256,1.93532934033499,1.9356521583472,1.85983500301644,2.06175939963217,1.93183784842481,1.92906834612147,1.92658077980669,1.97576016387944,1.92506601148411,1.92214872550648,1.85067918664884,1.85081946090935,1.9206446752203,1.92158586831258,1.92150608965824,1.92017500982221,1.84606410625774,1.97034712104278,1.91944764812711,1.93468187616398,1.96947664567131,2.06197937058923,1.91701465944892,1.91885417169159,1.9207523701189,1.9222180090927,1.84966233925468,1.96338167399781,1.9633456027285,1.93073620485148,1.92979856005272,2.04555806044715,1.9311136244804,1.95779347336949,1.95492603111744,1.95756783645966,1.95610842257111,2.022046809796,2.02787767327948,2.02532527511496,2.02060142275529,1.92366483638174,2.01438242112866,1.92295599952074,1.92363360288888,1.92186089708466,1.99296587380109,1.92019305318735,1.92089552856658,1.92195162912891,1.92034860583062,1.91998600610686,2.00482517757289,1.91853594226633,1.94921618492478,2.01429920963112,1.91944234392289,2.00478565592696,1.99173802874061,1.99422822700897,2.00824135109668,2.0079649458768,2.00484823930019,2.01252506271779,1.98878596764961,1.9165623001355,1.91598823386556,2.00193067701206,2.0004391156508,1.99901071966552,1.99183783004366,2.0074668666259,2.00532082127956,1.99854522822099,1.99139868352767,1.91051672734666,1.99964606499924,1.90850361387211,1.98904825362923,1.99526116817509,1.99773180807758,1.99808462664152,1.9903883688718,1.99694082243804,1.99463746962803,1.99552308426167,1.90261768292177,1.90220506282621,1.98333891623004,1.98558695360404,1.89797770333901,1.98315890202313,1.9838106060336,1.98508107128734,1.97818673926468,1.98205423922311,1.89282719496516,1.97952086488392,1.89065114246693,1.97776697089219,1.98042648399759,1.97351106545637,1.9670241575929,1.88361970788611,1.88390383157778,1.88074569807188,1.88522945804944,1.87805638707486,1.88222894862874,1.87967685736894,1.87953096581787,1.96762522430014,1.96419547485629,1.82107231589999,1.81918236876476,1.81840234692868,1.90812387656157,1.81187342253715,1.81076244803897,1.81164169665596,1.89930439412646,1.80496804943334,1.85204084646655,1.98226380854251,1.80329481700296,1.80149318111531,1.91020263989699,1.90163235618166,1.89821634793898,1.89609692749187,1.79929516992797,1.9085016080476,1.90989975497848,1.79713689048827,1.7958474278301,1.79568219266347,1.9087074332934,1.79437647726134,1.84103256381896,1.81498072362447,1.79144636642248,1.79082092796375,1.78906548969175,1.79172377898969,1.83075674041868,1.88975403331597,1.88949880858845,1.83957872773665,1.83896995197025,1.83861943997264,1.83914995997686,1.7909427919001,1.78962026586796,1.7911968110259,1.78957089537897,1.78893575154091,1.78812220222762,1.78902211607617,1.74828134692008,1.70223621553203,1.66863258366559,1.66270725506431,1.66368133585754,1.75233584632009,1.73325860894752,1.81900064886848,1.66120638250211,1.74800430323088,1.65521395897769,1.65576264256433,1.65421763954339
2.06186333381776,1.94018997171748,2.05933015514989,1.94142060556501,1.93738921348799,1.97653499970435,1.86135567180653,1.93137547613983,1.93252882082649,1.93302350378154,1.93157619564722,1.92763263337679,1.92870702588961,2.06891323771387,1.92009792574486,1.91915751719606,1.92022070569569,1.84824348997497,1.91997361673089,1.92070687899459,1.91971098471023,1.91894897125871,1.92223326578921,1.84610116388339,1.91782634113665,1.9172358218539,1.91885110075302,1.9189305920068,1.91911879557387,1.8882478758515,1.84623510832818,2.0455484964925,1.96317728012153,1.92680803196131,1.92916152687479,1.92945133460153,1.92923662568511,1.86226905752144,1.86339770127557,1.95352647455208,2.04278399060378,2.02026407936424,2.02522511104227,1.92936567913407,2.00768028097084,2.00732315116295,2.00531539663439,1.92499961185762,1.92265296269688,1.92338963435476,1.92289085106087,1.92006006188678,1.92051129713412,1.91985844962668,1.92248216967472,1.99741832866681,1.9191169244302,1.91844970055905,1.91891856077919,1.93993803525692,2.01084128551651,1.9179818104119,1.99383710829207,1.99298549617834,1.99520670841614,1.91938480871091,2.00251683464074,1.9918461851148,2.00033601067265,2.00544989308143,2.01376598374466,1.99287660762224,1.99985887546095,1.9139545922467,2.00284213448739,1.99993941980277,2.00516444077705,2.01175403204232,1.9928003530597,1.99103972378872,2.00477772375343,1.9091463116249,1.90871948222528,1.99801772086952,1.99622598152935,1.99803152496684,2.00283027940115,1.90622974704627,1.98977530789044,1.99222126083565,1.9817078519953,1.9764201777535,1.98284887721281,1.97262916798367,1.98047377267228,1.89760615632666,1.89745752572625,1.98481497892559,1.89642154657382,1.97790408954499,1.98337895906894,1.89241884403317,1.96866208484747,1.99187673196367,1.98048337629463,1.98518613111013,1.9775488936379,1.95634867203072,1.88309018459739,1.88249014685479,1.88614513881933,1.87706574997714,1.88530600499128,1.87691248902337,1.88034193487551,1.87882212912234,1.96739368526628,1.87112062500684,1.82032566845846,1.81938196838948,1.81845432679999,1.81441611105252,1.91057798355979,1.81020021111357,1.81137277638273,1.8995275530684,1.80609204763281,1.80319433868128,1.80295167568214,1.80272370791753,1.80150103672692,1.90994445683662,1.90917632477467,1.89621038084616,1.89551604809945,1.89495648727459,1.79549768122371,1.79629735728786,1.79694338981057,1.79680689376097,1.79492508517709,1.79478914795735,1.8419583198475,1.84149285147596,1.82662779301858,1.84020425911203,1.79320432436248,1.90561812044204,1.79367748517465,1.81022765680491,1.79099661874101,1.83951675586385,1.88744676233692,1.79098413626881,1.83748576298664,1.8374256588712,1.79088514781507,1.79082535072392,1.78970643314301,1.78977914622387,1.78966555807432,1.79006413885597,1.87470757449602,1.79064052581221,1.71796052247556,1.66726832648679,1.66380012003616,1.66328375336576,1.72014825637318,1.72893067034327,1.74756405651597,1.65744121924063,1.65667883439158,1.6543781306815,1.65552223031333,1.82309655365637
2.07308791995292,1.86805043997639,1.93904686141892,1.93810783499593,1.9381875158487,1.93935914646311,1.93427171940175,1.93484783460092,1.97493781927702,1.95511127672676,2.05790512590634,1.92872749865711,1.9283432358366,1.92348120381851,1.92175598271244,1.9227755465579,1.84950593198939,1.92288105859373,1.97072011527431,1.92085672716013,1.91952371817319,1.91882950298143,2.04420954284084,1.96999309922267,1.91761543320974,1.91845962491429,1.91846654942682,2.03893980382612,1.84606855530963,1.87846920822755,1.92071210013219,1.92263869475718,1.92421171343471,1.92528601748954,1.92672415078612,1.92421701632923,1.95939887949427,1.95890370796257,1.94202117753781,1.95378359564011,1.95720232255083,1.95590195857588,2.03147916724359,2.00888026847582,2.00543522924264,2.00521860018319,1.92548198776613,2.01189188896011,1.92231535346779,1.92353479919359,1.92034796315616,1.92173524838312,1.91887233284986,1.92007806325219,1.92175468233224,1.9922432057528,1.91849122461356,1.91841301095335,1.91891048283954,1.91784374290703,1.91798729104252,1.91704804258407,2.0015858131721,2.00502573839143,1.99883129154489,2.00091736075832,1.91583195751956,2.00226986304742,2.0191521017052,2.00330846724555,2.00708202353405,1.99502482568365,1.91530910193679,1.91389776378187,1.99923592596438,1.99555737466421,1.99331917173655,1.99464522103489,1.9937104993564,1.99233008455948,1.9925636418418,1.98312149051461,2.00345293424113,1.98343018568288,1.98184354798629,1.98177438856402,1.90605759586249,2.00576318403396,1.9947734315871,1.9924377147847,1.99344469162194,1.98555406198099,1.98751995090281,1.98915764521855,1.98356705798564,1.98309733536663,1.98833284858554,1.98316869455016,1.8957075087368,1.97705403370375,1.98339187218447,1.98310185260962,1.89057003259202,1.89024341015224,1.97917184011219,1.98463457751159,1.97278493865465,1.9748506133327,1.88322171922544,1.88338676120882,1.87895945982848,1.88563068226121,1.87533009603261,1.88309222896444,1.87919464250635,1.87921517221797,1.96977178099628,1.96620626786442,1.82022222384316,1.81975435073749,1.81899887908987,1.91189398372027,1.91122451819296,2.00512166016718,1.81027832240708,1.80830543292523,1.80552419240077,1.99928764782783,1.80224878866149,1.80268335523755,1.99616023465575,1.80002934267284,1.79956421575147,1.79877455185307,1.84758529931005,1.91481837578062,1.84726173683496,1.86568473342407,1.844300362081,1.81062518636804,1.79487096477668,1.90951080548439,1.79500561803,1.84225676358475,1.81938566281459,1.79639148236254,1.79551731461476,1.97525463653806,1.97503264826921,1.81589032133583,1.79228727256921,1.83991847042626,1.78943473280337,1.8383259874318,1.8370253865375,1.89685769347625,1.79214111491558,1.78990982398522,1.78957161448395,1.78944944269445,1.79007706692486,1.79090694179171,1.79086036679866,1.79009390564118,1.73411917615172,1.66610069289142,1.66435251638926,1.65970264253579,1.65840768038521,1.69780831427203,1.65639883091678,1.65612047358329,1.65550642458243,1.65307763951645,1.65074692994978,1.64923309655897
1.94283454636157,1.94138245224066,1.93860601021425,1.93742717855441,1.93705828692284,1.93585553364854,1.93320758142461,1.9328525186159,1.85598072773376,1.93093350062261,1.92875317216806,1.92772753842817,1.92683886160905,1.92376697083893,1.92239858368639,1.92254246679164,1.92264233176222,1.84645140804537,1.84630206114157,1.92052981543963,1.91906752635424,1.91767113311875,1.97046173300075,1.91672462436988,1.91669478294583,1.91637906590344,1.96590944608301,1.91780771351094,1.84566615136816,1.86781166895642,1.84660788081482,2.0481663219611,1.92364411986782,1.92448791082305,1.92705677646192,1.96218851680766,1.92759692832874,1.8592516017825,2.04528070576217,1.96920877496808,2.0508660552805,1.87964203085521,1.93005371358896,2.00493251408675,2.00379047206997,2.00511069706756,1.99882112768344,1.99269374918884,1.99258731385775,1.92362543052377,1.92328306680525,1.91825323587804,1.92201655192772,1.91796667190987,1.9201156681913,1.91718764735173,1.91844568817424,2.00999879999834,2.02161980349133,1.91642808266207,1.91767475946017,2.00951241470836,2.00185984802332,1.99891458170965,1.99725071032986,2.00067509942192,2.02235404276217,2.0008607792464,1.99655980574892,2.00246866464848,2.00659767054724,2.00088411259383,1.99193078718966,1.99260366384537,1.99406620286598,1.99179615192053,1.99309568357083,1.99527814820314,1.99799631638655,1.99233873591001,1.98396637546341,1.98336468561219,1.99475857766808,1.90762820091011,1.97371948499041,1.97818226042286,1.97772648365769,1.97649658064898,1.90379466244245,1.92296540594288,1.90320804181547,1.9799260714202,1.98695243129397,1.98137509848891,1.98443751854752,1.98579821547813,1.89871247868769,1.9730191801548,1.97347035295878,1.97452999912229,1.97867415789696,1.89130041383032,1.97234047213547,1.97495477398438,1.97495653628235,1.97439225005448,1.95905702701978,1.88502174442924,1.88350457771775,1.88212845595128,1.88391882609983,1.87743800209566,1.8841054496128,1.87931672279074,1.88056476342925,1.87910808017909,1.98802049036587,1.82329645983153,1.82235172120026,1.82121669880279,1.81696597871759,1.86353725619732,1.81223516892516,1.81029783956545,1.80950677876682,1.80873663303976,1.91496225963755,1.80560004284246,1.80211392023224,1.80253862431523,1.80179221707055,1.90406891528588,1.79972923933656,1.90280647327146,1.82887285133679,1.79870810304694,1.7984318115549,1.84454507148733,1.84406599800151,1.82028197273259,1.7944104887357,1.79397698474738,1.79579445366963,1.79515588944589,1.81175208207816,1.84286856026428,1.79553943593636,1.99222874209383,1.89121464923421,1.82048901338007,1.79178588844714,1.79311394010652,1.83937817050376,1.90272996163422,1.82207696230239,1.79091997087393,1.89894263559097,1.78943293848782,1.78888179490393,1.82894615269437,1.98679226332255,1.79066442148067,1.79097196757295,1.82051063043151,1.75162050631116,1.8198487305968,1.6625464947113,1.6602131853612,1.76822234787297,1.71701922562916,1.65679597752943,1.81811749930642,1.99199035042631,1.65047329108801,1.65038213834356,1.65119224573904
1.86978185896435,1.94193799520298,1.93859668386092,1.93785028491457,1.93651655184457,1.93558069779335,1.9352137600788,1.93101178433762,1.93177425969077,1.92979029629954,1.9278224157094,1.92668835080043,1.92652670737905,1.92315586035754,1.92211713030167,1.92217979054534,1.97135751624536,1.8463250145592,1.91917195118132,1.91979549511596,1.91910383611828,1.91748746529642,1.91746489695525,1.91622224062258,1.91628609916197,1.91609020402301,1.91612190262794,1.91651913759437,1.91680769547991,1.88417235933218,1.84691512441004,2.04660412059642,1.84818753214907,1.85009829250708,1.85116803165475,1.85277602324983,1.96069601859812,1.93344237610284,1.93948050647386,1.95650760562194,1.95581675001284,1.87933598430627,2.01576253334278,1.99726645212942,1.99340573380308,1.9968088997118,2.00916557521778,1.92249936202095,1.92230757106019,1.92357972495728,1.91900724732023,1.92314646694299,1.91638187412058,1.92032318489008,1.91876811684701,1.91801225315189,2.01996378945535,1.91598396268394,1.91553535642933,1.9146040438822,2.0027115435942,1.91748978740865,1.91689044625029,2.01865493331896,1.99721190908928,2.0004322608574,2.00234855764487,1.98530685109631,2.00373175634713,2.00170888133465,2.00451625035941,2.00159372396213,1.91412000963638,1.9929289689903,1.99025826687954,1.99000263936245,1.99283044622691,2.005106242546,1.99079555957077,1.99095725580441,1.99000673567161,2.00550225986253,1.99336233839039,1.97542552554578,1.97445027347594,1.97683017332227,1.97869903328485,1.97633564921873,1.90362984901777,1.93290183023964,2.0026021509885,1.98835145986316,1.98851463855817,1.9884890369736,1.98674710483052,1.97695479216854,1.97361568831813,2.00364801669294,1.98015787525706,1.97645137522108,1.89237271583557,1.97588548770891,1.96610615327105,1.97208030587399,1.96729734787953,1.8863280745357,1.96650492142166,1.9649033998411,1.88279731351304,1.88279520714526,1.88103996491701,1.88190142714621,1.87687550412623,1.87926248394792,1.87931910196333,1.87875258542823,1.95252946688174,1.82328445703566,1.82205314499169,1.85756251313282,1.97813847835251,1.86272689093443,1.86131116511382,1.81110825117871,1.80930278037319,1.80894579371722,1.80744818099402,1.89559525146184,1.80388751559597,1.80310341441122,1.9924781121137,1.8026956098748,1.80028030392605,1.80066612721639,1.79993543724534,1.79951373430615,1.79826178555482,1.86036015163978,1.84409382272683,1.8279762660038,1.84299710435008,1.79721631915397,1.79598907942343,1.79554293931768,1.80521113610641,1.79621567509763,1.7949186066935,1.79476178790357,1.7935700902395,1.82601539894057,1.89396316537383,1.89412852745675,1.79337663696323,1.79362394601273,1.79358705885094,1.79122879259066,1.79077728426486,1.78993246470122,1.8935978409176,1.85621179002042,1.98837987979523,1.88244500330636,1.89041108754851,1.82283945782553,1.71351286616553,1.66267698875368,1.65989924760263,1.81740479217972,1.81808517634826,1.79486808248512,1.81835607388145,1.65348500859638,1.74416900191646,1.6492470216437,1.64896588147282,1.64791241610168
1.94409439311514,1.94001596272666,1.93768261863602,1.93758274608781,1.93466026221835,1.93416587197107,1.86177648581134,1.92976110463923,1.93023647191723,1.9290391301429,1.92659429242662,1.92575677693187,1.97570293564939,1.8506631688671,1.92117939415067,1.92190471617878,1.97138648513134,1.97051588823575,1.91781792785264,1.91888881084271,1.91798899830981,1.91866431792898,1.9690559871644,1.91609894744025,1.91603945608915,1.91580544507272,1.8446283151155,1.91707242511134,1.91766422781282,1.91914763537149,1.91956374354654,2.05471912702541,1.92360428120319,1.92415749638898,1.8516012371367,1.85311988285834,1.85423823427225,2.04872372943785,1.93888204071097,1.95771135311245,2.0549781089818,2.01301820828189,2.00913499508375,1.92731063676166,1.95740366208196,2.014929376433,2.00819645777981,2.0157681802775,1.92181938337416,1.92271704465701,1.9233750311707,1.91725856075755,1.92151128118884,1.91605141922356,1.91847916508873,1.91627037738805,2.01812883363519,2.00582014680989,1.9160692617522,1.91452836154941,1.91515308745643,1.98633772515337,1.98759657619005,2.00352583845542,1.99906383944248,2.00111634756328,2.00389029596936,2.0026138072448,2.0026320344968,1.97353896930116,1.91318960125645,2.00566170523954,1.98802873325901,1.98612268147626,1.98736170166604,2.00902124996901,1.98299053609516,2.0056115420283,1.99028096446196,1.99012976169778,1.98143486477396,1.99017877917854,1.98018927291049,1.99497946143555,1.9899871150866,1.97794186391103,1.97881250455599,1.99232766940794,1.9980700873858,1.94043525322537,1.98205492375847,1.98338491517144,1.90008968815797,1.98417536933002,1.98661187742526,1.98618938305069,1.89712824620584,1.89652544004057,1.97658266204249,1.97782268770096,1.96650068022272,1.9754795760997,1.88989674222913,1.96643126427189,1.96478525157194,1.95880685572429,1.96845541922276,1.96402014683872,1.88277338089474,1.88246068108108,1.88251599993355,1.95032976441523,1.87858028728002,1.88074677304649,1.88077387561758,1.97434841673728,1.97531531266713,1.88065588779756,1.99554814155785,1.87684854938324,1.97816398223159,1.86303228238651,1.91217214927844,1.91164723945952,1.86159125228351,1.85590067019911,1.80760520599841,1.80364430044738,1.80355894553162,1.8029986958817,1.80211746326554,1.80180693270094,1.80160087643807,1.80173230435698,1.80016720416316,1.7996218844376,1.84653185308757,1.89980656565941,1.79946397299479,1.79832772235549,1.79713641869755,1.90388695841996,1.89938893171972,1.84402444226226,1.81665805192137,1.7959087817507,1.79603932805599,1.79529364677942,1.84245151716361,1.83277753037399,1.84031493565685,1.91568809433216,1.89356755821216,1.79458386895098,1.79345582206076,1.79277694082287,1.89966918514894,1.98615633808696,1.89429278665442,1.84183670674666,1.79137717812531,1.79127886486286,1.78909737719813,1.66481745058283,1.66361203758155,1.66273054793356,1.82009422316282,1.81991728131831,1.81969968206815,1.78423188121138,1.76299917201214,1.65222640809648,1.65077679296579,1.64904969007764,1.64807690628533,1.64663934325825
2.06585277222437,1.94007981081975,1.93712884351015,1.86005501816063,1.9320039418816,1.97569805866492,1.93330166165705,2.07187806365682,1.9301896589142,1.92929919722772,1.92702948938448,1.97201124934176,1.85314979871282,1.92217724074729,1.92069355544613,1.84769834377085,1.92095500811447,1.92167250561849,1.91857363684699,1.91875980198198,1.84489610570165,1.91768445077857,1.91628168012679,1.91586783505938,1.9155395401791,1.91580629659015,1.91619150031928,1.91851227972539,1.91726772980483,1.91893957424951,1.9192221406893,1.91835306580748,1.92313793228695,1.96162463894795,1.85105527408661,1.85267388876395,2.0495366655835,1.95537922101243,1.9377608241916,1.95718970745427,2.03657779832873,1.87933590655732,1.92706157604899,1.92659802536896,1.94604636094989,1.92597441930113,1.99531312672298,1.99537316841972,1.92208725168925,1.9232283417221,1.91813433436444,1.92214541513474,1.91519250908149,1.91885581600715,1.91758573334831,1.91661768817492,1.9969258036869,1.91614052976055,1.91623136776176,1.93480712731737,2.01293169273427,2.00386894939586,1.98568695032871,2.00342445875904,1.99977960219145,2.00015240419559,2.00002723659731,2.00230499921292,2.0188109963954,1.9730307715982,1.91251494331172,1.91279808934203,2.01272400443453,1.98641450110543,1.98623849635931,1.98402576186356,1.98946041801573,1.91054476233691,2.00933799244857,2.00682154043798,2.00857950785691,1.90673663664297,1.97966516386125,1.97973864414596,1.98952103016795,2.00922838833856,1.99569112168452,1.90296843850902,1.97634366131072,1.92864528238728,1.90253544473382,1.90255464115929,1.97357425136134,1.98804309273291,1.98809196351552,1.97935748006876,1.97919225578949,1.89651615310794,1.9916929932393,1.97629573718491,1.97795425135878,1.97167180780262,1.88911973699082,1.95909327539074,1.9604644547096,1.95877084317081,1.95764135625339,1.97232070350378,1.88258275734315,1.88176008829868,1.88338512160735,1.87812644935912,1.88127562520627,1.87740697378688,1.8809689335245,1.98002305676952,1.96491739772263,1.94962266755773,1.81788510281304,1.85238326512809,1.86484688001322,1.81275173200041,1.81198661562804,1.91067846711156,1.86581916223277,1.80897403335937,1.89441888503931,1.80459559044738,1.80472159691026,1.80330989305722,1.80267673603033,1.90986451630872,1.80163138978401,1.8006452102471,1.79985018841109,1.79967528191074,1.89999019358878,1.89928792982745,1.79840138052829,1.79840630228463,1.90508269447927,1.84628303476865,1.89920407528569,1.84363556767878,1.82433163674072,1.79561786341859,1.79546512785336,1.84880838529116,1.79431484115571,1.82098749398317,1.91576458451241,1.91537502902139,1.79682504900447,1.89380083058302,1.83236849804672,1.79295336140049,1.98792566969808,1.79185944467113,1.7922657491972,1.83142121601973,1.88725452972047,1.89194261856834,1.78999230274672,1.66463098602648,1.66370670598897,1.66221892381133,1.82036349028977,1.6580929435307,1.81888533647984,1.77458896899726,1.76237003823699,1.6504120029751,1.64923480317643,1.81875843976617,1.64746900138717,1.6451782074308
1.97540785039296,1.94347034755299,1.9348018602788,1.93546906983355,1.93316560971226,1.97395744064455,1.93281031127112,1.97242870219068,1.93000768946316,1.929719396436,1.92636192146791,1.92506338070599,1.92274616088659,2.05557894736125,1.97248597698464,1.97159830046428,1.96950157299512,1.84664001132681,1.91761233707215,1.91801948585345,1.91791095558363,1.9168132328666,1.91608831221385,1.91510499701972,1.9141991138583,1.91547654268474,1.91589155678691,1.9162815559717,1.84550819863092,1.91885823830431,1.91857918465983,1.91795022654153,1.96046724519426,2.05188939842855,1.8491849427318,1.85092611693347,1.92902448654896,1.92951992608869,1.86242226735157,1.95419618272701,1.95475894310272,1.95345810189212,2.01287849910902,2.00845231310329,2.01309096085078,2.00804658691249,1.99558730586396,1.99596069405155,1.99482821358348,1.93866635728587,1.92042078529155,1.92025640479556,1.91868011953994,1.91623770409994,1.91806256226554,1.91609473064751,2.00516149575888,2.00494072261248,1.9163299406388,1.94227037878761,2.01320003705874,2.00388662069899,2.00378829175019,2.00267687758555,2.00202117638571,2.0013902759322,2.00210960805917,2.00472342194884,2.0061221629924,1.97318114856245,1.91315974472793,1.91326533452065,1.91262948169269,1.9982030082866,1.99055621963025,1.98854753404426,2.00051709896783,1.90951823120398,1.97838456070503,1.98958356345846,1.99467502343633,1.9952960966274,2.00253067498292,1.99394142080841,1.99166288064882,2.0026185724756,1.90408742120362,1.9864911234612,1.90237103378853,1.92015008316845,1.90060958224211,1.98235667542809,1.97251693646248,1.98989282433019,1.98691631450583,1.98871230411753,1.9827760422872,1.99503564099992,1.99553161714092,1.97444171178133,1.97629523352079,1.9786973570552,1.88852229854266,1.88776841072233,1.97177032697139,1.9796870710281,1.9570187862144,1.88292779890105,1.87958947384758,1.8812077938653,1.87818089683563,1.88433741366388,1.87602886540681,1.8829349873206,1.87997803417486,1.97416342693552,1.87870930998439,1.96629639388087,1.81920862111549,1.84358515806511,1.86449701052268,1.86302149361937,1.86048605854738,1.9098666736211,1.87718761863328,1.90746381796282,1.80672056401912,1.88952214025612,1.80359097336653,1.80292962298628,1.80154626757267,1.98495161680046,2.00229023709152,1.79998669559878,1.79962178238644,1.79949926007928,1.7989835599597,1.79958215254625,1.79821317522046,1.79831785454492,1.79821975270252,1.79759535944096,1.91874729177799,1.91707070195588,1.82817365334123,1.79627973800348,1.79648629655848,1.79461644250833,1.79485413755137,1.79431227731562,1.79426265800591,1.79434748984763,1.79365884104265,1.90039228341718,1.90071583374968,1.89970580136092,1.79390202439361,1.79284435856577,1.79207004153205,1.82322589952188,1.83858147914884,1.79154547472821,1.79126643830116,1.82152308668981,1.75843038098238,1.81806983503103,1.65585965946781,1.82053928388277,1.82000552086601,1.76499344584946,1.7526971558273,1.76715474253214,1.64841996185581,1.64687286436722,1.64755871295173,1.64368945497689
1.94127838752648,1.94466408981617,1.94034424728693,1.93629780015748,1.93430606123308,1.93500633419288,1.9351614066017,1.97352540395917,1.92958166919024,1.93108110197671,1.85368537910117,1.92767887432005,1.92683342811718,2.04167707692346,1.97187930234251,1.97102034959408,1.92017058439782,1.84565811198227,1.91705612219699,1.91740500457123,2.04514195067073,2.04600270658965,1.91553389089947,1.84338500100873,1.91130456452273,1.96549805801901,1.96519197650197,1.91566945310243,1.96570860317422,1.91819507664312,1.91759272128182,1.91723678687615,2.05198503797509,1.84929815247263,1.8479721567253,1.84973038742159,1.9285771309856,1.9294640133049,1.86202060961109,1.95415986050332,1.95443566416865,1.92834007431842,2.02344056456975,1.92535378480278,2.01658083589453,2.0188778206564,2.00440316949104,1.99551590078942,1.99313527267621,1.94850388984167,1.91803577098271,1.9194532639743,1.91592587520411,1.91859295573935,1.91764527204262,1.91806330521726,1.91595689771395,2.01476002446215,2.00142187299321,1.95018613349326,1.91540794855302,2.00450580775458,2.00038791111901,1.9152350546125,2.01048909441678,2.01754324160345,1.99871769601,1.99342756864384,1.91364652061649,1.97394134217753,1.99569019273619,2.0020494807316,1.91229284335868,1.99420480088949,1.99372360884279,1.99590197599225,1.99378124627642,2.00263207601978,2.00589577439955,1.99098738819555,1.9922073422325,1.98974008427412,2.00035991009234,1.99519097603463,1.9912421369187,1.99019909491284,1.99443601841,1.98447511697201,1.90182189612853,1.92998099863744,1.97821208810915,1.98153726253514,1.99594470441775,1.8976523111422,1.98081566611778,1.97875004728932,1.97349079374496,1.89384103988756,1.99167508430028,1.91539849735505,1.89222559657728,1.979621091765,1.88838056806392,1.98500059116428,1.97367902417876,1.96223058835947,1.98166328532741,1.8816217094144,1.88062283743409,1.87975028898022,1.88396301281782,1.87308920454597,1.88572419002444,1.87485705893009,1.87987573164416,1.87761968857,1.87746574951506,1.96985245956534,1.81849400728584,1.81767263952194,1.81612042401259,1.81357907721804,1.81205505935232,1.81033340042729,1.84235492733184,1.80694244777726,1.80688318231274,1.80642901433498,1.80477295910507,1.80337653745979,1.80252163261708,1.80070435716801,1.79918349382286,1.80064335116962,1.79969017526229,1.79963577580778,1.79876986151114,1.79932789476622,1.79803645147803,1.79866598836872,1.79972023925916,1.903029119639,1.90627874156358,1.90488507467609,1.83243406321783,1.84465524855906,1.79733574323047,1.98463566929687,1.79479372141338,1.79458478456944,1.79413098100414,1.79412204130838,1.79286669632922,1.89993545378593,1.90014708746075,1.89856464155004,1.84049699770047,1.79294788267748,1.79326592924724,1.81176363892278,1.83897940449672,1.84129975588012,1.79099453047074,1.8214151776373,1.74253299858355,1.6591669264086,1.65571929809693,1.81993303600457,1.6521409503416,1.68988929145277,1.69834623728577,1.69698141987625,1.64719174330228,1.75859949324688,1.72077478114909,1.75796030320469
1.97227717390026,1.86525442588982,1.93646348653003,1.86213643265777,1.89520185618375,1.93453825833286,1.93374981352925,1.93255051415774,1.93057628446958,1.93092984058837,1.97163825507039,1.9240473468202,1.92382913462741,1.92278093528247,1.9204974093072,1.8491042453839,1.91899959737091,1.91851792704359,1.84418931502238,1.84299127697402,1.84232508813856,1.91512054282717,1.91457095489048,1.96686584154848,1.91132959729192,1.91347906051045,2.05520809069372,1.91606641245616,1.91683527480549,1.91768655832473,1.91678892672935,1.91660228557619,1.9218377909506,1.84815674956646,1.88562263168093,2.04321489155676,1.92706608789725,1.95518311737151,1.95867393358921,1.95696407666977,1.96105135532489,1.92776118077593,1.99924536468762,2.00806881267627,2.00943245835624,2.01043326170825,1.9931272550879,2.00246220165196,1.9930495589891,1.99189047857087,1.99278971645603,1.91745171683768,1.91938435787203,1.91485774237354,1.91740905392724,1.91608180977238,1.99808757604494,2.00242452992996,2.0016567178702,1.95615856003271,2.0096930856987,2.01118371796246,2.00548439540561,2.0042847595918,2.0075489534173,2.0016323858206,1.91303584366721,1.99916690185297,2.00108129053271,2.00609837225396,2.00320653015122,1.91225503847871,1.99617087663129,1.99740236283256,1.99563702684704,1.99601929514212,1.9086494275739,1.99854311416503,1.98924124457404,1.99333515478069,1.99927120133314,1.99687867026858,1.99892901899264,1.98923580889739,1.99038754255453,1.9909667539893,1.98964859164765,1.98499473060893,1.99726754410282,1.99803200378815,1.99453618774273,1.98629415062603,1.98599970768097,1.99873258995147,1.98184191016629,1.98856438459402,1.89399406316204,1.89322119709725,1.89229956955069,1.89275148756087,1.89169882738295,1.8910933150512,1.97420677553463,1.97335984350981,1.9712604683683,1.98826326436111,1.97595420980279,1.96569916476235,1.8805989817804,1.88144622765411,1.87549317642427,1.88636761478093,1.87223379194495,1.88190086140937,1.87761755597691,1.87910059810633,1.8763469778669,1.96916491032852,1.98188850686129,1.81708810491812,1.81533584568449,2.00459564266118,1.81269249449652,1.90588591117237,1.86990056949463,1.90265329449909,2.00184122372063,1.85507262009208,1.80427775260664,1.80347359129309,1.90665104502879,1.90554159132076,2.00241217033527,1.9936093939297,1.86568652308716,1.90624949694714,1.7986936776165,1.79849412512264,1.79844278485873,1.79762321600614,1.79713576386072,1.79629975998237,1.90534370504393,1.90400830999629,1.82729988199522,1.79479389384135,1.79691989175961,1.79753129275541,1.79675790263421,1.79544351127478,1.7951615767364,1.79440990935412,1.79401053158848,1.89434893465347,1.85154787713473,1.79419758213746,1.89264891665145,1.90373355657894,1.79320777652614,1.79289645357042,1.79259775315407,1.975731598932,2.00156374211912,1.65916768361109,1.72960432889339,1.76701728958648,1.65440987218662,1.65283007303992,1.65148953363451,1.68481589227301,1.6956495367375,1.74128084310864,1.64666344833375,1.7580192799978,1.70214332744518,1.64283328242197
1.94058293819489,1.86744467999591,1.862962619651,1.861204421268,1.88037010989312,1.85988241116478,1.85968852211209,1.85656988441572,1.92944351543246,1.92930242513807,1.92627300841825,1.92385327978883,1.92358713116842,1.92187500643958,1.91928521190631,1.96860648129563,1.92330590049203,1.84614615664869,1.84310205827096,1.84311258908791,1.84382577335514,1.91371974437464,1.91369620334676,1.84150090199908,1.91202878560805,1.91272448366298,1.91896451786679,1.91683594926936,1.84288767538181,1.91832510263825,1.91875264166408,1.91941612435944,1.96052455720052,1.95911184105496,1.93873819175518,1.92389636486011,1.85199737658232,1.85942865603611,1.95366176429376,1.95475858693125,2.02204844261599,2.00983334334325,1.99928479351323,2.01141354918837,2.00980419320395,2.01096196583025,1.99440278550827,1.92034614411657,1.99436251778086,1.99217145754023,1.99210286915522,1.91874507958302,1.91411691900291,1.91779765487798,1.91618747617759,1.91634811093619,1.91428239171682,1.91471341843098,2.00202698002132,1.94756054905591,1.91307079700739,1.91266115381854,1.98528347975174,2.0043916172292,2.00102829127356,1.91242394772587,1.9130363781114,1.99258773482954,1.91189435572664,2.00412536476162,1.99878209680482,1.99235366613135,1.9105909103688,1.99950671896727,1.99853128531433,2.0011589261738,1.99330613591152,1.99338263589894,1.98872034372578,1.99204722647776,2.0025701418483,1.99232574772225,1.98680325978193,1.99013908787225,1.98896404026091,1.98879268707414,1.99056231175843,1.98701253720982,2.00490101076013,1.99912002608733,1.99455415580462,1.89865255702722,1.89774934325325,1.89756599259466,1.98125454771411,1.98727249853922,1.98195380304835,1.98255887271492,1.89135452636072,1.89264168700173,1.89213724178029,1.98028879076316,1.98017949157481,1.88608897412061,1.97091908915253,1.97726629324331,1.88128868581753,1.8821092222435,1.88167675753966,1.87972990859185,1.8845982962016,1.87036994231486,1.88780463594769,1.87420846755112,1.87955252230428,1.87829559645609,1.96969107897013,1.87564126532257,1.81454109358993,1.81661914411308,1.99199035042631,1.8155333580984,1.81149548526383,2.00890898621043,1.85141414165555,1.80951332419576,1.85413213529998,1.80635290332367,1.80425445939889,1.80325411151652,1.80278503439665,1.8019060253234,1.89363448525974,1.84910871253782,1.84851162151223,1.80008722697109,1.79940307697495,1.79852699041617,1.98570683221819,1.79705909232909,1.79649328134234,1.98670148350228,1.79678701804499,1.79698493900021,1.82274243723044,1.89638485593981,1.89590273791607,1.7974267804892,1.79718065781103,1.79589727752679,1.79562887635097,1.79584310619461,1.90552734062177,1.79466788765375,1.84144435017145,1.84108003743031,1.84092864530071,1.89307131350798,1.79188273784254,1.79253512588408,1.88964647166663,1.79024984242106,1.78982531194272,1.6589520432941,1.72102072133913,1.82132420725144,1.65401150508831,1.65224749298272,1.64996029573489,1.67836065346282,1.69531107637151,1.64675770269222,1.81650134646767,1.64107054081914,1.64134497695983,1.64105987503898
1.93851597909583,1.86642505393956,1.93702016719819,1.93942316789166,1.89154523471147,1.86021680009534,1.93401734029419,1.93326974399383,1.92596512445897,1.92809162868275,1.96900063879061,1.97095702377439,1.84964939130921,1.96672868060768,1.91702987353033,1.91906238386864,1.84569947803682,1.91660710434027,1.84381766882356,1.87321069090556,1.9168862990095,1.91403193776636,1.91366857866084,1.91313179427015,1.91252282332119,1.91328331503465,1.91506494133505,1.915399212338,1.91538455142407,1.91747028074364,1.91746643423051,1.91793042209644,1.91911832733962,1.95900197565834,1.94531494011401,1.96061081321984,1.92575609178777,1.93016054607884,1.93565304296614,1.95129795561504,1.95065673433748,1.92531160042386,1.92390249133018,2.02345976072223,2.01117268566171,1.99569357561544,1.99297938740149,2.01152806735636,1.91924429944134,1.91974134572719,1.91932501739694,1.91352899296277,1.91981825232306,1.91197079307832,1.91634864976592,1.9142431448146,1.91427583380957,1.91424829280669,1.91431685361769,1.94016930985983,2.00167127960291,1.98673532584874,2.00067034758533,1.98467161860821,1.99423641144348,1.91299815334599,1.99491109544925,1.91207332334027,2.00145280012177,1.99700709405068,1.99335418930983,2.00187135502479,1.99214473600849,2.01321994156515,2.00310021180981,1.90756125825315,1.98994285553525,1.98666988799794,1.98855768679119,1.99078603071769,1.99435940634098,1.90323792601531,1.99291809606836,1.9977367581152,1.98975969126268,1.98923081790338,1.9865441296939,1.98688629106709,1.99530372365813,1.96627657290564,1.89899151298237,1.98268972989665,1.99555188836554,1.97660967784976,1.97941856781479,1.97893415687047,1.89404526881621,1.98236188184819,1.97525341601957,1.97125606013216,1.97501150152118,1.98739550326149,1.88659494814022,1.97028797733464,1.97055743185627,1.97761396805467,1.96647045871184,1.96792796568147,1.88103694647598,1.88157105876847,1.87496214464223,1.88623236892791,1.87081756718936,1.88265652056927,1.87670086969776,1.87710749235453,1.96939456085854,1.8747486295548,1.81653111047272,1.81686944009615,1.81612016282773,1.81392107509681,1.81241805305992,1.81069883022263,1.82777306610156,1.80876021864745,1.853622107998,1.80519128206849,1.8038932750639,1.80314398963189,1.80289176265959,1.8024511536353,1.84973149972668,1.84918262191111,1.84856184735017,1.84790906814056,1.79875125870888,1.79690439224475,1.79686288985894,1.79713974964919,1.79755649244718,1.9000136430144,1.79756455359328,1.79756929766978,1.79858516301267,1.7976828661117,1.89836168721433,1.79705139673998,1.79681178546306,1.79556139714412,1.79470685847778,1.79500364818398,1.90455181724699,1.79570717071908,1.84177754366857,1.84137306889267,1.84126280582262,1.79223413702881,1.79250895976505,1.79250532711065,1.79296135939421,1.79175505639354,1.79083934282103,1.65754332903202,1.71319930797171,1.82076512955409,1.6527183487576,1.81600553706912,1.73624048350773,1.66863323285525,1.64308869034,1.64233244103476,1.73934876877051,1.64017958507452,1.64112960187119,1.63574795679206
1.94212967572237,1.93728406831736,1.86291459641524,1.96984974403056,1.90829861135938,1.9321317104836,1.93233977252424,1.93325881991074,1.92649807504372,1.92736438174632,1.92600789107288,1.92466470083404,1.92329444752069,1.96675418421779,1.91684923716751,1.91851487849501,1.91924860259404,1.96596651881516,2.04175160649459,1.88770103862812,1.84368148320594,1.91392037167632,1.91502112220166,1.91427194467907,1.91198007593852,1.8416156691487,1.91503370777008,1.91564056653997,1.84272549022492,1.87876102625947,1.84361898368423,1.84431417007995,1.84692781341282,1.92008292762006,1.9308835079292,1.8500032561842,1.92592494110243,1.93096535378067,2.04564413603904,1.96765427838708,2.04988096795107,1.8768492783471,2.01282927674612,2.01179015825891,2.01168118921087,2.01412402169582,1.99206084873174,1.99091547233237,1.91884740940827,1.92058763443736,1.91567899590643,1.92310271822448,1.91047632041583,1.91727767323572,1.91499496562622,1.91543450300721,1.91403974788355,2.00052139797828,1.91395219120838,1.93302927848262,1.98531016131443,2.00857984566397,2.0089321347375,1.98506756068758,1.99392194778897,2.01624282188738,1.99534371879379,1.98179304593814,1.99184307866553,1.99278832916599,1.90944548640432,1.99296747632391,2.00522463090535,1.99111974006366,1.99945762678642,1.99972481793533,1.90682271223486,1.99648226439879,1.98862955265454,1.98830802270328,1.98809851506142,1.90328187692829,1.90277372313908,1.90321284495451,1.99163644405534,1.98725168179684,1.98695692463294,1.98889534046714,1.89915790855869,1.96627944960816,1.97536204591726,1.8967030563413,1.89646751356712,1.98422057248343,1.98179117124255,1.97799338301494,1.98219995720665,1.97610981464789,1.97409848787768,1.96974098835667,1.99504045684136,1.88882406829929,1.98456335706063,1.99132662771542,1.9691065506832,1.88291751476313,1.88244030520745,1.96900207879446,1.88112070935599,1.8797143898478,1.88561876749354,1.87033999792674,1.88484383265833,1.87263482849673,1.8781906475658,1.87626947365153,1.97275602369613,1.96715200934893,1.86499263456552,1.86354971801143,1.86312206079043,1.91591012406834,1.91534327162974,1.89944016351126,1.83833476206117,1.85600952959503,1.80703249441032,1.97843822668064,1.90585721930841,1.85504262573843,2.00190817140321,1.80279327016894,1.8024328678858,1.84925070907862,1.84877860081695,1.84831050611011,1.79968729224889,1.79901629870607,1.9027777814075,1.79721995440341,1.79738470942983,1.79722300915953,1.7996394141963,1.79846803120802,1.79938675716639,1.99130174569118,1.79665388408756,1.79689284445315,1.84312725379613,1.79516939627417,1.79539001306902,1.79590718195874,1.79560239960674,1.84314822464915,1.84242746289484,1.84184614973527,1.79219591958577,1.79191175714642,1.79236734052669,1.79191936741475,1.79167109848732,1.79017992127651,1.78927317928947,1.65577191712311,1.70969724405011,1.82023009083895,1.65119869512612,1.81677702941126,1.64613211943528,1.65978949764841,1.82109509796892,1.81986531633846,1.63872267157686,1.73262182534511,1.64728429805059,1.63708112410298
1.96951732556874,1.96976926752159,1.9696244968205,1.86230326229701,1.89825591045508,1.9323017851218,1.93130278543207,1.93034548448816,1.92612691687877,1.92640188261051,1.9245007095023,1.92500020288883,2.05150684024236,1.91909126177613,1.91731453829952,1.918943478013,1.91911258513725,2.05601146288471,1.91619247104295,1.91330098239174,1.91284050185732,1.91304092179147,1.84343282078367,1.91242039183578,1.91101043852974,2.04536678135406,1.91424558402526,1.91371654101489,1.91448295781299,1.9167580174019,1.91511793164868,1.91493450955145,1.95883202268161,1.84757401236791,1.93646615611243,2.03564523078912,1.92623813956961,1.93164659363625,1.93108415110018,1.94585201878242,1.93608811652959,2.03521884699004,1.99655407292451,2.02104901073043,2.00841927059061,2.00859728064953,1.9199311334507,1.91914720204027,1.92073845754529,1.91903140277123,1.92115707970606,1.91014628782884,1.92192195365326,1.90990643004151,1.9161737388556,1.98809782088186,1.91318290745194,1.91334574265213,1.91395746737937,1.92667194379836,1.91334986665561,1.98175779171105,2.00854158763913,1.99466361367146,1.99265121877563,1.99248033052635,2.02844762015091,1.9995846562406,1.98923262128626,1.99111526606362,1.99767676447723,1.99516613512794,1.98766810571993,1.90682671546053,1.98062113439222,1.99999179135151,1.99317382051523,1.90381006651863,1.99295958996977,1.98870420467436,1.99932707408565,1.97684708326985,1.9799515450044,1.90276012870343,1.98941669706571,1.98934001156756,1.98632465791225,1.8995385246254,1.89935933896969,1.96649402383107,1.9798784920238,1.89598549025253,1.97538200697527,1.98345172829902,1.98662985512607,1.9715314450023,1.96300247965178,1.89261067561801,1.98096612794436,1.97112823262493,1.88859446440826,1.88796235485177,1.96874518756379,1.97537084565563,1.97320401544411,1.97256043969422,1.9864099925217,1.96212671046724,1.88023088926004,1.88101354648843,1.87678722266288,1.8839770478261,1.87038957524845,1.88271825634105,1.87644719925552,1.87643311756077,1.96245000840684,1.86559526772102,1.86397593312692,1.86334347619239,1.86240769310501,1.86037292984295,1.80994548971517,1.80860042826125,1.80768818861537,1.80748532315771,1.80603764873153,1.80612746799741,1.80480729003464,1.83633828147296,1.80281701926404,1.80266608831469,1.8029674799902,1.80057735356602,1.81553913856971,1.79856594872261,1.86684600376988,1.79949321136141,1.79949785029277,1.79813337917331,1.79700587632474,1.79661116339141,1.7970615412015,1.79768713258045,1.79907100773744,1.79927894945586,1.79591508078054,1.79591750496749,1.79529617013624,1.7952434899981,1.7951809783396,1.79553227498358,1.84177127494313,1.79419774993328,1.84278925600081,1.87616114034613,1.84032614808772,1.83994957884139,1.79146028307729,1.7912610262314,1.79087451652847,1.8857920424429,1.97180084215029,1.70170812874032,1.70057105622161,1.64974311400374,1.64949295217977,1.64695345117344,1.64535085562742,1.64392804342422,1.64408642654198,1.81973962417995,1.63878299496347,1.72607748301287,1.6478301899816,1.6356517723451
1.94008289724402,1.94174302410491,1.96708546722442,1.86077263858548,1.88566700477731,1.86104095550609,1.92962589762423,1.85614331651973,1.92835516794996,1.92621276349015,1.92427753066076,1.92358468101319,1.96713928934533,2.04512876431409,1.91534539884146,1.84621441633271,1.91861142262562,1.91713819169894,1.91514791222177,1.91458428672141,1.96614854494938,1.8409237970343,1.91887786796191,1.84048741933312,1.87831790879709,1.84012397026447,1.91303304209743,1.91338940314078,1.95963549182954,1.92807949825997,1.95862171263615,1.91793060239271,1.91728441249809,1.95965456526839,1.93942584126297,2.03057576064117,1.92595832424987,1.95266359654921,1.95205243564925,1.94969443189141,2.04365483413532,2.00242255020103,1.99525889250979,2.00165431843091,2.00973097482385,2.01420208941616,2.0088928085831,2.00264945195346,1.91883174495982,1.91997362033257,1.9125869137303,1.9207831164558,1.907820201267,1.91805831679752,1.91378441898455,1.91298594852086,2.01034505432505,1.91258670072877,1.91260273867806,1.93929371076771,2.00243744987696,2.01194653282263,1.91320186998953,1.98343777664159,2.00074090800592,2.00896713981033,1.98380672727821,1.91236980593457,1.98250224354992,1.99239676755832,1.99278992112762,1.99346037845726,1.90723234748816,1.90736241055954,1.98042904897708,2.01156197252512,2.0020938306238,1.98683594766267,1.9046918700012,1.98386284665197,1.98301404846619,1.98363249547015,1.98924399782497,1.97677555495977,1.98206789761508,1.98182277149907,1.97339360232743,1.89858564892189,1.98497997166444,1.96678500225588,1.98932597516149,1.976886895901,1.98016572289508,1.98411627112222,1.98896331346683,1.89393170208565,1.97314496804023,1.98655956257859,1.97129671571103,1.97158103955106,1.96941467169241,1.97331664329063,1.98220511659022,1.97050921032879,1.97498126906181,1.96453832219974,1.88300846514471,1.96352380720267,1.97509117343355,1.87872005316824,1.88068384192706,1.87215087872182,1.88234230218695,1.87453104495843,1.87792661205097,1.87741306201327,1.94595644884226,1.9632056104844,1.8157457966716,1.8140845211319,1.81362599329085,1.99663843238849,1.80962984008315,1.80832837225472,1.80764674206088,1.80745094351759,1.80550679521682,1.91061990357553,1.90748332584816,1.87813939768802,1.90666035034277,1.84968335772761,1.84906995182093,1.88778150069012,1.82314374044218,1.80032652017535,1.80063818429694,1.87670644101885,1.79958590858877,1.79847497173019,1.79809709577233,1.79903004772342,1.79751804941326,1.84627304040498,1.84410097430377,1.84411994239058,1.84383654189383,1.79682204768632,1.79574828686861,1.79556542670806,1.79638631221285,1.79518863920368,1.85500187416678,1.84183858507328,1.84265734909937,1.96656935895418,1.84074261065327,1.83965670622998,1.79149614748501,1.79108243979225,1.79089346717408,1.79056566332433,1.79122832020542,1.70086941499389,1.70002272660609,1.64910981101482,1.648914264358,1.64465941660008,1.6431659661486,1.64218632026838,1.64060101758133,1.815404417005,1.63842019683746,1.81623355573734,1.64837575702021,1.63525152603856
1.96848232405979,1.93650136924218,1.96791593149756,1.96608363460937,1.96652317932133,1.96812163018962,1.93362428736785,2.03881547241561,1.92722515293652,1.92516214902668,1.9279944915186,1.85088314145966,1.96342610276936,2.05624932442679,1.91578914207762,1.84525164282581,1.91676473234883,1.9165565474303,1.84177825667563,1.91490449517546,1.9141096720926,1.84144589391796,1.91692754323472,1.91576682582168,1.91307697453531,1.91249173878939,1.91197411937301,1.83974280687947,1.84005522789291,1.91616115554874,1.91529279875144,1.84393971038036,1.91655540354228,1.91886485977294,1.92100050653384,1.92075824685885,1.92605910123627,1.85319761848609,1.929140585151,1.94983868406983,1.9491893668373,2.00235118922669,1.99586347931404,2.01206323781805,2.01104040592176,1.99257805491871,2.00822410986257,2.00281356820757,1.91795149724368,1.91807076156909,1.92227629870947,1.90964353664561,1.91978022307663,1.9098512456093,1.91500711137443,1.91298560113216,2.00578103515506,1.91186151229422,1.99901730242187,1.99862262719999,2.00102498894056,1.91053352664087,1.99215802951199,2.00088170522271,1.99880109957046,2.00817295160177,1.99146811369542,2.00598344782893,1.9933653716026,1.99512704494962,1.90950218614996,1.90905888235715,1.99747049644344,1.90710980225841,1.98043482156973,2.00490916539223,1.98258939930487,1.99606959645734,1.99181376079211,1.98525141809243,1.98040126382909,1.98878640853,1.9894256923596,1.98088311984866,1.97853621294611,1.99133861287752,1.98908407360541,1.9788424031933,1.89736065547014,1.92268866254603,1.89543977824861,1.89547376459248,1.98622250131485,2.00565620912045,1.99403905091222,2.00269177425268,1.97953911468182,1.97529003738379,1.97483318153393,1.97327006692931,1.96921218830582,1.97241173039622,1.97795390798823,1.97244652421625,1.97525759751335,1.97445381542164,1.96535721111013,1.88001070868855,1.87971798513532,1.87924581658579,1.87502448190852,1.87968236311924,1.87420573903965,1.87682555764642,1.87598108803647,1.87701004646304,1.87618108891111,1.81644624723103,1.81502870515775,1.81383554322896,1.8133624636476,1.81146930046181,1.81216922472812,1.80777597060278,1.83358134789242,1.9036862016018,1.99603590324524,1.80441188579259,1.85388147858791,1.86692055983997,1.85190358266092,1.85023870751612,1.84947644101689,1.84895251725073,1.83308983850087,1.8473282217904,1.80045324060519,1.84677110745182,1.79942410497913,1.79874764777407,1.983994884335,1.79936455373918,1.98722750100828,1.88276026890859,1.84324507812794,1.84345129279888,1.84329512107875,1.8934720535285,1.79467785746331,1.79534271219794,1.79548453492742,1.90623993299249,1.79444385604618,1.79533147480053,1.8222054733297,1.84005363137049,1.84036922440999,1.79281721163824,1.98628106866275,1.81931032718494,1.7916089118336,1.79085936012043,1.79019863026813,1.75366600889031,1.72473772232158,1.82123550402173,1.64833208503162,1.64348381067375,1.64305449433261,1.64198717564615,1.64105795473151,1.63819693372937,1.63742591621265,1.6355781039088,1.64833134675341,1.80914666533822
1.96796552732999,1.96679833026541,1.93461744801475,1.965666423249,1.96524141651183,2.05589669542886,1.93052754240053,1.96705672922785,1.85137838432522,1.92001296998033,1.96709681789284,1.96683549738211,1.92262526356132,1.92167253408418,1.9190375660974,1.92156879414701,1.84400195383457,1.91520009761004,1.91543915538078,1.91523491429594,1.9630211317773,1.84109709087634,1.8399741525913,1.91276713647429,1.91317232321806,1.96155784671513,1.91000424512414,1.90951026074685,1.91381462224001,1.91488415257941,1.91382759041207,1.91530641584806,1.84405447771747,1.91772725661864,1.92007769849714,1.84726796624983,1.9256049176703,1.92462867724986,1.95011675641547,1.94975521798889,1.94750172346322,1.87478346414169,1.9224134352208,1.92115385852166,1.94062992512803,1.92015412197938,2.005152524665,1.91688765090258,1.91655279113759,1.91915490586694,1.91535685444138,1.91978291694283,1.9084572739121,1.91613196295159,1.91393450862639,1.91404722133021,1.99450171686064,1.99372122599918,1.97884989787723,1.99802038187865,2.0007001426533,2.01594483094663,1.9924532248043,1.99903269236129,1.99688889595717,1.99834199295587,2.00440756182305,2.01565891519495,2.01201249491741,1.99824516973983,1.99457431141599,1.9074152349258,1.90683534674419,1.98924931001058,1.98723060834036,1.99044512485442,1.98232556696779,1.977800048392,1.9971668287957,1.99206281956091,1.9012211472344,1.90001188292445,1.99789769824786,1.89891504455495,1.9628931824042,1.99559453116737,1.99495714597979,1.96877821989846,1.96794626229693,1.96578345464772,1.99143000079876,1.97844342027435,1.89511517319319,1.89467944725653,1.9196604621867,1.89244023072354,1.97178053373363,1.8903344544102,1.98594618575692,1.97512854855454,1.96699640939982,1.95662185556932,1.9671081738787,1.97352137778469,1.97341828307391,1.9712179039221,1.97015326553598,1.96659698292718,1.87962586444609,1.878230030063,1.87896404325686,1.87516673993372,1.95608726465266,1.87454537694657,1.87603002646108,1.87589295240493,1.9499279672135,1.87417168203958,1.81442049160307,1.81367470601761,1.81325832380864,1.81273980259069,1.81030577568332,1.80653579414487,1.84526162256371,1.85575120002919,1.85377170417294,1.90342195105215,1.90218150632013,1.87801764600568,1.8893377825458,1.98906378030198,1.80010616098233,1.797811703484,1.79991595141287,1.80058067237947,1.80107684910978,1.79942861819852,1.79866334098173,1.79867852350702,1.79943475435309,1.98485564025392,1.79587787057099,1.79806073768817,1.81598883385991,1.79767206577201,1.79727483518637,1.79603273787964,1.7961615916826,1.79573851097024,1.79581999130284,1.79431888522518,1.79375681212891,1.79573935370252,1.79408177532201,1.79364475261921,1.7919887646089,1.79078370540311,2.00217540747037,1.83759593421474,1.79059769764174,1.79114172864312,1.78778293220022,1.64892413021861,1.64933581941602,1.64871108546689,1.64509775111082,1.64266331483875,1.64163134796623,1.64142703188188,1.63930709026029,1.63730717838049,1.68407867482113,1.73569382184877,1.64795703728079,1.63222282566368
1.93741289590951,1.96596096051443,1.96628355990776,1.96568286356024,1.95295696842545,1.9305455222133,2.03901631546335,1.92613009229323,1.84840831446011,1.91999231028106,1.92264978284189,1.92283083934806,2.0647720453484,1.91906976608007,1.91776327518811,1.91685176472706,1.84360026773907,1.91356663852038,2.05202329379371,1.91460885342732,1.91365875450722,1.91305205136468,1.91273328975725,1.91080661632678,1.91046977745928,1.83947462766545,1.83913536424793,2.04657183964055,1.95849722572775,1.91435897964302,1.914012085019,1.91385186959431,1.9155300189906,1.91908274418732,1.91932352167927,1.91838369478708,1.8477249337022,1.8541275803069,1.94929376478789,1.95010734010812,2.05013890479592,2.0261524295362,1.92157810151464,2.00897038083442,1.95231753361836,1.91995705979893,2.00509606141672,2.00562746179538,1.91670984211789,1.91757739572807,1.91810571672037,1.91255749213154,1.91573021938773,1.91074468552856,1.91508137198276,1.98939728033198,2.00710209632798,1.9961650237112,1.99499140011847,1.99598421034993,1.99875874860487,1.9928051596626,1.9977986728919,2.00147405296466,1.99853503405556,2.00408235334819,1.99911697696537,1.90888852644027,2.01197984692688,2.00260003675673,1.906815220527,1.99279866363865,1.99263674784665,1.99059080461862,1.986275045555,1.9041945743318,1.98567650220552,2.00823785220551,1.90289382145568,1.98786400361204,1.98102835230482,1.98586103679237,1.99577515546438,1.99273507987218,1.96261552966585,1.89738195043927,1.89870388221837,1.9693222504755,1.97503331577957,1.96902141285885,1.96635797990144,1.98261192461257,1.97263970693409,1.98391115747885,1.9761732071268,1.98050375165114,1.98239438783089,1.97626820111029,1.9760080682403,1.97395227487036,1.97424919508526,1.97190254522918,1.96754646427414,1.9730676831403,1.96969095950132,1.96545308427029,1.97184929619452,1.87923604269327,1.87869297540593,1.87813227428921,1.87637999902877,1.87695449212223,1.87446176040495,1.87489196774616,1.8991875829366,1.95505711609629,1.97047216194662,1.97303259634566,1.81476844737554,1.81339395617222,1.81225755046814,1.8116329777266,1.99664799634314,1.90274499280676,1.85565073358867,1.85472935524927,1.85373279295751,1.85293646625759,1.90190702063485,1.83889992991838,1.8013712751514,1.80088136890929,1.9949966424702,2.00543390489058,1.80008083356683,1.80011466781181,1.9821207426243,1.89675233447716,1.79799879388244,1.79831497674269,1.7988853401089,1.79838276136,1.79816958328412,1.7977635201003,1.82447871262945,1.84700768194123,1.84334650701309,1.84362955922344,1.79600165185153,1.79569328559634,1.79542176427692,1.98180053496072,1.98229361100613,1.98062159050482,1.79307684721418,1.79272176683296,1.97883991277613,1.83961711387223,1.8832389396317,1.89755962847028,1.97747316751868,1.88288965212563,1.88202062160165,1.64909676220769,1.64945194889328,1.74759289768284,1.64342256466283,1.64382586170449,1.81104032835985,1.72976986727655,1.81864351681242,1.86398638132813,1.63576505920778,1.73427198059047,1.64867006728081,1.63173085035038
2.06195067872527,1.93610121362804,1.93579672585438,1.93479305816756,1.93214143872544,1.92923987108751,1.92832738144073,1.92823064511896,1.96676056284537,1.92131385297372,1.92322581142867,1.92302159639858,1.91890081756075,1.91820913576591,1.91721808751052,1.91814758543224,1.96271508522835,1.91324465740976,1.91400653216899,1.91414680551557,1.91327454264435,1.91303605018554,1.91185762007521,1.91063074624059,1.91060158414323,1.91059195480749,1.8407933257663,1.83789755808946,1.91246702406566,1.91325995349316,1.91280976048427,1.91363870397367,1.91407243175357,1.84374212953898,1.91773604763417,1.92215845925019,2.04815945611322,1.94963068756814,1.9272862100894,1.95040754041284,1.95040849775187,2.0143998291516,2.00281002524746,2.00081691447084,1.99726014810048,2.0114342994516,1.9910445136283,1.99874793425417,1.91862576704614,1.9185646846126,1.91562792250592,1.91645897336549,1.91121587708774,1.9136445352906,1.91425418352085,2.00014721837684,2.00162905226723,1.9111003173326,1.91075321558396,1.9935437240654,2.00007972529538,1.90956756722075,1.99287711051253,1.90981437928577,1.94327075425215,2.00436578416947,1.99036980614577,1.98896686257898,1.99907726472158,1.99810673570408,1.98904853836175,1.99950733054873,1.97398753566475,1.90380242131337,1.98531303718336,1.99028511943416,1.98312004919468,1.98508490840559,1.991882987304,1.98485372823558,1.9838439936167,1.8995541066973,1.99638877204789,1.99192053348626,1.96247906553784,1.8971272573943,1.89715416161352,1.98972589308745,1.98687361416876,1.97755744017993,1.89426261269481,1.98599317275473,1.97666860416742,1.97291878938821,1.97372461231678,1.9727361480307,1.88966557187685,1.88936440022125,1.88818484540547,1.97199260717487,1.9753665483357,1.9693169828771,1.97594140202537,1.97541029813355,1.96777863803872,1.96611439181663,1.9656296938318,1.87859257428981,1.87799977186651,1.87717710916142,1.87695401237986,1.8746205077909,1.87427875490258,1.95500889875262,1.91691624120566,1.94938030429684,1.87340625467142,1.96492272148988,1.9914733690061,1.81328251003092,1.81293687100454,1.80911862539838,1.90259040498111,1.89350973013808,1.85681456957481,1.85446527360949,1.80564679548483,1.80493780599466,1.80438605382484,1.80447241777162,1.80080712039282,1.80088688631786,1.8004734837042,1.8006057141896,1.80044100967504,1.80021350416718,1.99814898832442,1.7981997077545,1.79799006700166,1.79825457365349,1.79909866767239,1.7980545396965,1.79820543884536,1.8449023464441,1.83028932269768,1.88037719491811,1.79662801713172,1.84313465236693,1.7951942197992,1.79542859762164,1.79547941805411,1.79485845996583,1.79431473150047,1.79350281075621,1.79255454612483,1.79192878153841,1.79300898942742,1.79178950906972,1.96941941744128,1.90401181459236,1.97221103644439,1.88186232999306,1.64843429520834,1.64830364033732,1.64857103038923,1.81988698641542,1.73510237290383,1.6407856718391,1.63613725978074,1.63534476888813,1.63502495688593,1.63507573883822,1.6351985595946,1.67973638322639,1.65120678891036,1.63122338496574
1.93746812351395,2.05171724724476,1.93885010640524,1.933254803335,1.93295865701295,1.96359440981301,1.9636714447255,1.85283418820921,1.92422451531485,1.92262039085768,1.84955375121359,1.96252352407066,1.91838104557666,1.91855014305181,1.91611158535696,1.84453705804999,1.84399123274711,1.9134817146591,1.91344145797622,1.91350816117175,1.91180870152215,1.91146746865225,1.91072064173313,1.83840247079943,1.87483671360879,1.83767557266212,1.91004552691993,1.91036195120495,1.91067979840494,1.91227716225082,1.91249784771991,1.91276861875456,1.91324781444856,1.84394616742362,1.9159487313113,1.9214983456872,1.92184966542447,1.92280158851854,1.94824546917767,1.95031329911234,1.94951158594559,1.87345407444469,2.01042487098509,1.9955415980079,1.99321241008801,1.99025117817616,1.99016030951301,1.98926146718443,1.99108992826604,1.98225376584674,1.98408371061658,1.91330308724824,1.91312845249773,1.91137892536263,1.91333161126101,1.91121715124863,1.91029283770759,1.99959972610371,1.98075406258212,1.99025863006201,1.98960381555709,1.99903903525916,2.00477372217994,1.9090275852643,1.93553508010014,1.98131800388605,1.99126238323822,1.90733916578621,1.98673019546721,1.9679371284663,1.90534490011395,1.99141399982354,1.99179141064906,1.99482461685082,1.99165147350709,2.00239433647654,1.98251789834655,1.98798770644586,2.0022462252052,1.9818942728168,1.98471511131861,1.99868015484079,1.89868366316987,1.89656215203218,1.96256586183608,1.9773394307804,1.98244128333312,1.9807512829566,1.97578254602045,1.97811398784141,1.89325579248151,1.8927293477579,1.97802487865324,1.97000914787187,1.97250062138315,1.97365397101337,1.88952401031812,1.9774224485286,1.96479764218702,1.97230949727235,1.97556677973325,1.97062499560828,1.97465860773102,1.96348717180719,1.96594663610651,1.96487765296402,1.87972224627368,1.8776620451454,1.87712191351836,1.87682863365847,1.87558683649531,1.87481131286701,1.95256817747347,1.95310975475126,1.90786026502771,1.87340701119867,1.96429278991641,1.97709123115005,1.81316296369187,1.81306548941396,1.8129248588481,1.81165134094017,1.85752126459626,1.90164923054788,1.85928157234509,1.86064484099244,1.80520675321741,1.80282729326007,1.80417919979985,1.8035740804569,1.8025140659353,1.80080138493069,1.80106576017684,1.80171842765895,1.80091633985127,1.80071859437155,1.800217978264,1.8735119246663,1.797702382125,1.83663442223967,1.97491869136772,1.79827912924602,1.79866146762154,1.79797505696167,1.82243937087884,1.88437838184215,1.79690802855833,1.79639848222001,1.97548296469234,1.79494706913366,1.79391743895256,1.88906923755435,1.79278907419851,1.7922392700481,1.79186797491186,1.79125837876977,1.97487087159444,1.79119160070052,1.79082105482978,1.83305655335566,1.88217777817699,1.88340558644226,1.64554797472444,1.64548982512295,1.64709601415625,1.64244960835407,1.64013774313334,1.63836834113328,1.8003095712373,1.63497185317066,1.63372228794835,1.63260788796133,1.80779814773191,1.6305974784458,1.62944515066361,1.6271478485092
1.86317715510765,1.86127069206271,1.96591750285711,1.9348014642636,1.9335109689119,2.05534198605889,1.92836163845654,1.92567992997159,1.96597625157693,1.96010193987223,2.03599410579248,1.92126299292518,1.91790393380787,2.03514291382821,1.93258168033712,1.8461412099512,1.91466344259388,1.91474474907979,1.91336906266766,1.91332496185933,1.91071723722758,1.95980764301332,1.90936039207577,1.95657502634005,1.92274030591926,1.96248555061753,1.91346248750582,1.91000492336646,1.91047140527312,1.91225197793752,1.91255994655529,1.91322025146079,1.91535130918475,1.91352887860815,1.91373990757114,1.84497261675456,1.9495724570498,1.92361565414474,2.03499945450839,1.95148968575219,1.95211614898757,2.01383442285759,1.91953133221952,1.91953548445503,1.99067984843375,1.98924102652762,1.98930840061392,1.9970585129963,1.98489971366612,1.98257058580601,1.98250878895588,1.9811452064911,1.91100546463274,1.9124862568465,1.9131674701792,1.98548686126113,1.91045853835156,1.98966642999519,1.98058793685673,1.99034822528154,1.99065572827266,1.99710215910554,2.00522782180242,1.90821365014931,1.92355131968885,1.90872616115598,1.98891134376394,1.9911925437428,1.98942718099927,1.9672835218929,1.90469638660999,1.9035047425053,1.90308945813688,1.99167523055671,1.99080475221359,1.90052170908213,1.99924699488022,1.90104608362343,1.99413423523177,1.98375123786723,1.89811138991203,1.98673550549678,1.99306211589564,1.98028521318256,1.97474634874003,1.97567987947631,1.98456637335147,1.89562692292928,1.98397921783305,1.97531261696162,1.96486034833533,1.89202685994754,1.89210415744215,1.97749858329249,1.97052265530821,1.95865519705128,1.97628002786367,1.98920477777396,1.88591681016059,1.9745393624564,1.97673638489368,1.95549504230723,1.96638389455822,1.96511095351783,1.96601551232535,1.96391495470173,1.96419446631842,1.87713222299982,1.87670315912547,1.87580081809031,1.87539309456227,1.87363775297728,1.87532230637553,1.87334872548294,1.8980684530975,1.94608720738133,1.94424997428756,1.94979056044294,1.81340316011734,1.81312839542766,1.85985460280348,1.88435711939882,1.85725294965198,1.80681310777163,1.80599298141523,1.80698521423231,1.80434240033209,1.80423411649142,1.80371641850687,1.80373246475249,1.98295504091546,1.98438526578628,1.98323813397324,1.84747884081183,1.80065213532571,1.80056130720473,1.80055847706712,1.97985369196953,1.89775284808417,1.89730316163781,1.89760405396641,1.98041796529416,1.79726904478785,1.79603680673409,1.79289425133153,1.79502394888169,1.7966012934186,1.97567424378544,1.79391479305966,1.79458827206371,1.97482305182117,1.8872966691609,1.96857778943167,1.79210045143553,1.79160376694737,1.79116570649582,1.78951099268528,1.79076619304814,1.79114921484097,1.81481341424547,1.78837462254161,1.88252207754961,1.64375495664468,1.81842370135326,1.72976986727655,1.81583186964184,1.63830592392869,1.6382732572333,1.63653499012267,1.63514389266301,1.63437982170329,1.63213792738271,1.62994053976259,1.6307887346446,1.62893536264816,1.62765374286069
1.86374200048943,1.96322646876731,1.93619160928445,1.96319774328455,1.93057480808227,1.85602873177515,1.92900899656142,1.9641874502668,1.92336369895361,1.94950958528901,1.96261921243497,1.92174857945219,2.0528075380754,1.96044811697941,1.93525022857479,2.05266407875558,1.9142312218988,1.95995580656153,1.96005144610808,1.93317585327364,1.96098400943585,1.8375809116003,1.83711856165863,1.8375263435988,1.9095704283871,1.91184178323021,1.95650807970688,1.90986571615899,1.91063596739547,1.91256697423457,1.91331880726893,1.95247198477096,1.91510584751119,1.91533424547149,1.91434934590018,1.94890148002413,1.91924669543997,1.92204234920111,1.9491248429171,1.94904123710264,1.94802962581502,1.92034670292123,2.00293579322541,1.99023673480654,1.99158513350018,1.99622915338444,1.91703701580605,1.99838126749258,1.98519314921522,1.98358010815115,1.9882678607252,1.91206692831708,1.91186476497366,1.91043404508471,1.91266964152351,1.91360625066423,1.99162693334466,1.99923037788972,1.9929786685266,1.99049749155199,1.9912752368217,2.00917210385834,1.90900329389612,1.98959848470979,1.99425685148085,2.01263803383824,1.98938835608247,1.90685274857653,1.90708261897884,1.96730814105285,1.99809920078421,2.00229462751436,1.90297828810924,1.98416927185223,1.98855171729662,1.98832350319107,1.99212082781329,1.98811000413927,1.98735188106099,1.98527199328044,1.98577282250519,1.98308170226766,1.99247546122875,1.98497216966324,1.98184689231911,1.99525970284567,1.9794398356079,1.8936986110976,1.89315207249831,1.97905007970379,1.9758741715793,1.96910198918911,1.89123452222905,1.89098247739988,1.91432938917185,1.88968424593962,1.89036049661199,1.88840659754757,1.97936921831171,1.97835698716399,1.98550602123072,1.88391704083691,1.96272800036337,1.96486944370686,1.96532086422189,1.96319034564078,1.96495181292262,1.87687192811467,1.87639176423595,1.87603118312291,1.87366676964081,1.87581813153731,1.87195283631458,1.87363015193858,1.88725821328225,1.94661364205372,1.97201859559032,1.94733913952147,1.81336408951801,1.81289026169236,1.81121716658658,1.80993843956417,1.80843680959017,1.80665416956149,1.80586264344656,1.80561153451878,1.80563075942619,1.80352239319501,1.85221260886496,1.80372255983791,1.80358095793941,1.89932805328221,1.8994556076457,1.79964385387605,1.80037359241453,1.80094070169571,1.80229059953327,1.79886882715792,1.89625314944463,1.89590938619227,1.89475698249116,1.86873056204712,1.79652872974989,1.88614606426302,1.79150138035784,1.79351324833847,1.88659031836154,1.79621384349931,1.79291035015285,1.79370267541563,1.79244456717752,1.79271234722393,1.79244772829249,1.79170083374411,1.79208780954266,1.79344396602128,1.97484217973048,1.83964375917952,1.87284200786781,1.82493126490891,1.78812840107433,1.78690040704022,1.6424234534766,1.64063611928983,1.63957068084338,1.63784226818089,1.63807844272124,1.76341183417956,1.63558045543106,1.63407748998623,1.63350113193841,1.6272121815236,1.6285179219181,1.62827792642002,1.62817267889603,1.62646392953225
1.93715204382136,1.93568273026761,1.96243904488374,1.85746001622535,1.92826949604052,1.92706860922329,1.92634044351155,1.92511614259489,1.92408791241429,1.94364440837416,1.96196886351845,1.92297066316034,1.92382895571364,1.91825096823676,1.91973007006264,1.91685322455596,1.91569453414334,1.91560234466246,1.91220180177358,1.9122084347226,1.91052382047813,1.83697050845078,1.83674213830115,1.91066168519797,1.90969271876942,1.91005260541252,1.834920901141,1.90906797920039,1.95297897945177,1.91326615181892,1.91202511046031,1.91096491325081,1.91567114385081,1.84363366381497,1.91488557018806,1.94930910730881,1.84641844637731,1.84692214798913,1.94589736344099,1.94559591773554,1.94715613362521,1.8721757702548,1.91906185843093,1.9175174886388,1.99109170514805,1.99595540497627,1.98866247253974,1.99543273219371,1.98950443421158,1.94359152994976,1.912959639988,1.91262183820978,1.9107923769583,1.91096395255303,1.91103730561399,1.90945948387075,1.90943631845609,1.9101703065252,1.90988535058712,1.91151382583619,1.91015740393535,2.0052228887269,1.99575155021435,2.0111848990703,1.9958209405123,1.99388907339012,1.90521596785287,1.9924421964374,1.90623288452733,1.96800657638258,1.98665947565051,1.90280334575122,1.90236698883907,1.99084048090991,1.97568946466531,1.9006085210031,1.89986293554325,1.89987350077761,1.98283302532696,1.98364912330469,1.98269383701746,1.98208101931523,1.99202958860685,1.98416591636667,1.98203323454402,1.98426487324953,1.96863458542467,1.97870381271908,1.89351464059128,1.98072174574153,1.97538717166172,1.89091785564413,1.97009184432773,1.96912447635579,1.96881771501026,1.97265667363258,1.95250216735125,1.97768083287632,1.96140431628475,1.96176864269748,1.96231985084868,1.96917946328407,1.96364835588214,1.88040777150356,1.95919640758151,1.96074812225494,1.87728914292957,1.87634787357731,1.95547298336475,1.87566950838447,1.87699758746765,1.8717085334099,1.8757105691712,1.87177112129986,1.87273063842252,1.87199521122937,1.97055827531407,1.94551776582949,1.81341424790589,1.85358294798749,1.90361925391922,1.80882401835073,1.80948525640148,1.80513352046199,1.80472903720203,1.80598362782518,1.80462018231075,1.80480816492202,1.80356132558346,1.8035526396079,1.80169370793062,1.99306151334764,1.80041641444398,1.80026084828214,1.82513717966095,1.84666193352634,1.84628804777202,1.79796974917861,1.89467014818211,1.89445055421386,1.89270773369002,1.89121590582601,1.89069439651116,1.7955656688257,1.79198485571524,1.89008141127201,1.89286646212582,1.79506901987154,1.79343499718415,1.79405240647278,1.9627510240172,1.97215687000439,1.79315076220254,1.97923203491698,1.8236896352562,1.83750050086166,1.83761085324358,1.83706949519582,1.83563949348332,1.8271326366794,1.96324110273436,1.78555690717638,1.64496548773943,1.81686477674454,1.63856856354977,1.63888614769304,1.63810455177757,1.68340904249741,1.8084963164217,1.63247078093096,1.62801577413961,1.62661270158633,1.80521587997515,1.62840699812519,1.62875494864089,1.81057169458177
1.93617494220663,1.93422531948567,1.93568843425553,1.85721807183045,1.92942383865894,1.9588702205881,1.92202716423745,1.96275276371015,1.92310545665314,1.93701178416731,2.03579326274473,1.95974053878817,1.84535517566926,1.91398942592824,1.91489456456566,1.91447285854315,1.91485953179667,1.91503668000761,1.9114730779852,1.91205830575403,1.91055357053423,1.83740040595004,1.83715699862295,1.90937465449472,1.90917597977193,1.90842271004776,1.90914746255437,2.02601890108765,1.83600513514749,1.8748302942192,1.90987285030106,1.91048638112096,1.91421941052197,1.91594715002652,1.91600911379824,1.91743791121524,1.92088033739663,1.92200172870819,1.92218689561978,1.94080073822985,1.94433808623414,1.87119387091025,1.91870419862851,2.01164427724167,1.99084856120553,1.91661775161794,1.99847880382692,1.98644829031267,2.00492743819541,1.93757496381313,1.91213758291988,1.91213884679812,1.91161502400383,1.91098248733375,1.91081961786863,1.90950200644842,1.98292372141368,1.90909901176049,1.90949917925,1.91129026977054,1.90995627916616,1.90636578678954,1.98842243469456,1.90686800189161,1.95297473948556,1.98993636916851,1.97662365047203,1.98942323024326,1.98851991712057,1.98587199788731,1.98612660722676,1.90415944539014,1.90108631089521,1.98735306839187,1.9757130607361,1.89959178276913,1.89966673594947,1.98199294145402,1.98289047425605,1.98356481231191,1.9900487933833,1.98493490569821,1.97727282559132,1.89398733254189,1.95211138491095,1.97247547274746,1.89324835034393,1.97235088134791,1.9828639346575,1.98560148435757,1.98255914221396,1.97552274747379,1.97547164999835,1.97482445703153,1.97026012814905,1.9733566469849,1.97912050187169,1.88600198295163,1.97642238591994,1.96276463888188,1.96852135212922,1.96709056487114,1.88086613930207,1.95904757611358,1.95777751438649,1.97201609817629,1.96821326899184,1.95117751701037,1.94605203305231,1.87597994491455,1.87158702288098,1.87603805914792,1.87092636886715,1.8732358824781,1.87136574785961,1.87167770787913,1.94397591747561,1.94335211642944,1.98923593148577,1.87626255438007,1.972728669056,1.80851377243334,1.80868114455764,1.80412524112416,1.80434525098242,1.80501752126588,1.80521985410904,1.80420984433645,1.85032550972016,1.80382472069866,1.80193397546153,1.80107703543306,1.79999120418315,1.84765705388769,1.84596940223706,1.84611924286295,1.84593828726288,1.84580581126589,1.89344117880341,1.89347796579177,1.89126982548106,1.79813639734305,1.79729628124351,1.88795190723701,1.79171157150229,1.79443361294877,1.88272237100236,1.79396990938009,1.79304550837829,1.79356009717766,1.88059881506541,1.79376837148822,1.79242153199252,1.88289416418253,1.81404240808333,1.78823210580025,1.83647772039293,1.83606654965866,1.86886332566668,1.82452535223858,1.78360072032831,1.86992551971,1.78508359992917,1.63753738862239,1.63703127952373,1.63517357614947,1.63522868493552,1.63147674526507,1.63020425931533,1.62978032557022,1.6283986274446,1.62721521711158,1.62668578071711,1.80331265299887,1.62814423149855,1.62582532138664
1.93831655447697,1.9344284319861,2.04434343820601,1.93183430202749,1.93187069330773,2.05165986351684,1.92202822288384,1.92457101664776,1.92234087686756,1.93326529673401,1.91802679346839,1.84676107700349,1.91289691647694,1.91318844429535,1.91461512445682,1.91375299451176,1.91395614723735,1.91306507754339,1.83828878027022,1.86365901218708,1.83742722400706,2.05163117165287,1.90779227919892,1.83480613394452,1.9091838895035,1.90868641436481,1.90901898028166,1.90912397023509,1.83472357590181,1.83462969347163,1.83577042278947,1.83977575050373,1.84010471458951,1.91595733964305,1.91660859430305,1.917562500567,1.91951617300192,1.92218780747463,1.85124657104031,1.93668923612717,2.04807643299607,2.03549323896962,1.91813403727367,1.91607659848485,1.99119897715831,2.00461672652837,1.98650288075298,2.02291958556482,1.98694013963534,1.92974725457087,1.91180953556288,1.91032106286671,1.9127131738248,1.9109997232553,1.9103680855434,1.90842579869026,1.9087524436272,1.9084908608189,1.98206219865497,1.9804087522806,1.98033506446026,1.98840807038994,1.9900853097466,1.90609198154775,1.95265206049162,1.99544769297307,1.97520150614434,1.90595239236128,1.98632731530366,1.98507948955741,2.00215223175892,1.97426964609135,1.99660863230249,1.98815212126,1.97574202131713,1.89780209007704,2.00548490831327,1.970739702785,1.97743395139817,1.97779747557766,1.9792084291037,1.99386008212628,1.89401802827063,1.89389516654253,1.95113028048735,1.98711655158416,1.89235571457616,1.97131234808576,1.98823915679098,1.98579399203788,1.8896382633161,1.88921445698155,1.96738707283312,1.97374938176937,1.97216571523963,1.88874628458631,1.97562125198833,1.9703126275681,1.96246689337347,1.96203245854552,1.98275069162118,1.9819144152188,1.97882110170011,1.9573697476938,1.95315306308488,1.95028730844954,1.9499368387759,1.94977270910457,1.94850287378589,1.87471851732507,1.87506630352844,1.86980869786329,1.87579608729658,1.86973062871235,1.8710347731438,1.87084813761803,1.9563042068948,1.87048940399964,1.81085799095325,1.85858614788435,1.9904155059788,1.99115464400086,1.80774360276988,1.80390758267914,1.80381090835597,1.80452789950951,1.90815562481709,1.80381029452419,1.85000673154901,1.8033619521973,1.8008445856692,1.7997899921142,1.80059216948085,1.85576436181137,1.84497071765144,1.84492081906471,1.84524098704828,1.84509254405136,1.79529714405935,1.79512105726957,1.79455863200014,1.79542370314828,1.88834211658692,1.88661022479306,1.79167153835048,1.79397696155692,1.88097473718342,1.97294176342643,1.79223631830387,1.79228447470378,1.79249598942791,1.8802833600597,1.78968962870893,1.78964255761656,1.80577002873739,1.78796972914609,1.96285854454817,1.78631776178595,1.78661100774008,1.81711525716762,1.83296643125415,1.83271571089953,1.63808390274363,1.63631220416493,1.63619314360954,1.63525268948042,1.81131768304483,1.63095267745528,1.63058156164122,1.62846333873727,1.62653993272975,1.62733579458211,1.80032869914661,1.62537616926911,1.62746737002085,1.62082771483408
2.03840422236545,1.95972992541259,1.92972104634366,1.92992784814485,1.93073440335571,1.92883528041073,1.92690829864348,1.92451036337906,2.06501114421476,1.95243134782255,2.03239429337904,2.0349361167912,1.84462827446681,1.84076494014595,1.87449341450838,1.84085570520867,1.83981231128448,1.83826550726244,1.8377762645342,1.87543727343696,1.90962312886922,1.90961744364556,1.90891768124409,1.90828793670943,1.90899151632637,1.95263293633276,1.95244219998519,1.83494842530926,1.83551938639466,1.83490915315196,1.83619642676248,1.90936719066668,1.95010955717573,1.91527757076523,1.91634916457353,1.9496121635119,1.84390698043742,1.92240113081049,1.94198734012954,1.93909108889991,2.02863937351793,2.00062725112114,2.00096927284099,2.00253420370579,1.99745588981872,2.00406415107746,1.99812645155532,1.91258977689163,1.98711495227454,1.92203287448601,1.91081782227453,1.91223589614553,1.9095106965837,1.91051538781933,1.90935854830276,1.90826305200592,1.98678047439774,1.90730618143427,1.98771421548584,1.98661439571067,1.98669649301799,1.97895457763198,1.90399478950185,1.90573645430453,1.95248429503266,1.99616828331398,1.98290108879501,1.99145457397522,1.97584343386942,1.98209926780389,1.97751667192657,1.97957715547872,1.97204572614161,1.98823417701006,1.98811746223817,1.99599541639874,1.89793189165268,1.89725366687356,1.96910435209202,1.97235536591431,1.89468727308474,1.99481271117544,1.97141812841271,1.89319699862552,1.95034158649725,1.97981409553806,1.97942326323261,1.89075056418662,1.97776932424227,1.97711806268642,1.97417261572751,1.8892078779456,1.97632639588382,1.97917196266865,1.97235065906471,1.8882807629063,1.97593919367308,1.88537666194123,1.88474416493567,1.9465065596071,1.97242764956985,1.96517173111603,1.96633585286259,1.87894968863089,1.91275173615686,1.95728203879268,1.95627232018286,1.94578118803776,1.94530956761157,1.87482606385738,1.87151370589763,1.87405788403849,1.86930102805847,1.87261594856061,1.86955376624052,1.87002716294176,1.95542896537525,1.94099741847352,1.99549075782992,1.84089187275473,1.81163359299061,1.80913751680963,1.98784762078249,1.97251836643483,1.85444263117315,1.87806404722897,1.90694729122661,1.90607450828424,1.80107858565261,1.80246682428768,1.80086264346053,1.89294603602249,1.8470051579451,1.84617920651049,1.84511248240366,1.79727717502814,1.84497314784756,1.79837703018376,1.89000990194351,1.79501003448641,1.79426448636647,1.7943061513361,1.79643595532464,1.79515568306008,1.79329748729718,1.79336825390735,1.79430653731692,1.9785022081931,1.7913246983144,1.79062260669892,1.78855472928353,1.78970633089495,1.78831267276098,1.83546281693442,1.81685717193758,1.98281851791248,1.78632253735753,1.78585860610879,1.78260754316783,1.80421427696523,1.7830180399843,1.86267566760789,1.63727118292005,1.80892571643902,1.75704630799231,1.81215931105444,1.63093131231142,1.80916337506022,1.80543811362163,1.62673945543847,1.62591777227998,1.67331338894797,1.67391274095731,1.67086728666246,1.66098053321934,1.7980509492669
1.93330639501715,1.93380362851576,1.95960582026062,1.92818355187019,1.92907373079039,1.85626764633081,1.92603151918353,1.95860150504659,1.92153985419157,1.94330383555388,1.95708175025698,1.91971462820377,1.91602148466279,1.91546463129049,1.91407776476224,2.03209201229337,1.91124761048856,1.9105330013177,1.83765376069241,1.88750782455446,1.90993774575684,1.90918018890168,1.90922178435349,1.90903218669646,1.90930286909378,1.95399538622111,1.90650600881142,1.90645183625898,1.90640654934739,1.87477575311951,1.83635414140465,1.83731135156459,1.91083001680222,1.91563800784256,1.91618098489603,1.84282051520876,1.8432747952386,1.92236098410669,1.94454336697691,1.94156118240261,1.94341858798047,1.91593830714933,2.00683694082901,1.9980096774229,1.99560277080073,1.99761327514588,1.99631839677819,1.99674495800658,1.91127890008655,1.91187038317155,1.91117372548863,1.9081252083103,1.91059877062707,1.90768837948363,1.90905268170346,1.90763156640898,1.99532221360885,1.98089918797625,2.01277212591702,1.98617341743972,1.97620116521741,2.00842849708469,2.00276272668566,1.99823744140142,1.95278916883827,1.90378742978597,1.9937942120037,2.00108764211279,1.98498085809869,1.98342915366408,1.99206058906949,1.98901485849868,1.98894794058266,1.98134364147588,1.98826269746935,1.99050701116622,1.97541332279844,1.89614151934132,1.97993493492946,1.97526623809089,1.97505598390078,1.89323674847409,1.89294920068385,1.89232080264138,1.95047831019306,1.96824928473206,1.97764387324271,1.89057841300284,1.97219922602876,1.97281685012849,1.88936357038915,1.88824072584606,1.97598860430982,1.887389791705,1.97073217693955,1.97483960922887,1.97278942676704,1.96899897438767,1.97449835677321,1.94565487675548,1.88269391299342,1.96658786251021,1.95924433749265,1.87816501268628,1.90008789261764,1.8767931843489,1.9658776023989,1.87346426731732,1.87301614566737,1.87244928505863,1.87612194053499,1.8664911809282,1.87176253734062,1.86658321013547,1.87026875502904,1.86913945474724,1.96919402030302,1.9563871003492,1.81044369901718,1.80988934776284,1.81023443439409,1.80826462683643,1.98837617416397,1.80412430970921,1.83799562264012,1.85098512831883,1.85037926850616,1.80083496675174,1.85904171325407,1.82183549190407,1.79928163787412,1.79833352873714,1.84601009589633,1.84524230806722,1.84506976229302,1.8457021784949,1.84418661016152,1.89008193227842,1.79493106503019,1.79496441354236,1.7945581469977,1.79433003104617,1.90358115359849,1.79344960081556,1.79348961202358,1.79369501511526,1.969371597668,1.79234081456043,1.79086382004196,1.78992211899966,1.78904038348714,1.88290556828789,1.87790965915464,1.78635482160146,1.78533510671522,1.7855237944174,1.96733447532656,1.78442111996807,1.87947998786871,1.82780902839728,1.97039494081606,1.7800492505506,1.77755363684245,1.81306260927112,1.74241614128163,1.63060044721933,1.80980657820939,1.62963084718779,1.62817075181609,1.62632946403967,1.62521605431651,1.6226923420964,1.624247172517,1.62062571770376,1.65280725927924,1.7976698085602
1.93769369079982,1.95942412746375,2.04683955262193,2.04496501750962,1.92683916973276,1.92569354170321,2.04508942666907,1.92273984895703,1.92241741865377,1.92261268339964,1.92010431925086,1.95698556643532,1.91583846345966,1.84291636724491,1.91367987673924,1.91371823848288,1.91167609295917,1.83807700617705,1.95681412520642,1.92623548279892,1.95684266157249,2.04209590886216,1.90677487755028,2.0415603274015,1.90966854339,1.91020654508278,1.95289249050968,1.90896068068217,1.94904603971325,1.90620747253764,1.90910629333876,1.94877214561937,2.03289538448436,1.91505584267171,1.91508218506037,1.91522112166535,1.91761772221,1.84651408592386,2.04436256611532,1.94169748185592,1.94218147093279,1.94133104868394,1.91564141427816,2.00336323593892,1.99776954143784,2.00351480954862,1.99201567808136,1.99581617588331,1.91073762848006,1.91152098107357,1.90895911424519,1.91019477199308,1.90616572496546,1.9079777508351,1.9079935818004,1.90704528736663,1.90640143964925,1.90601505509185,1.9928598932409,1.98699981139094,1.98996625528614,1.9922125650169,1.99880082909291,1.98924763528347,1.95353617616996,1.90414544990399,2.00325165324413,1.99225350318282,1.98344942345607,1.98178299873395,1.9931339675565,2.00097057967864,1.89955561036095,1.89910248046201,1.99232821327748,1.9887674610568,1.97413371746142,1.97996459824484,1.98503235551546,1.97822446374238,1.96530415234475,1.97419780777526,1.89217323671649,1.98124046539446,1.9509932829055,1.97543840744594,1.97861324592669,1.97293816677894,1.97235381080155,1.97297102564313,1.97565769126039,1.88818047551786,1.96893965247035,1.96805574904526,1.96623723995193,1.98079226670541,1.99263706817121,1.88302633536805,1.8822687068728,1.94513522552928,1.9620430834895,1.96954411842075,1.96256362276441,1.95080737984553,1.95363654914523,1.97300684279893,1.95780331596957,1.87285188636112,1.87149932708523,1.87217069468274,1.86829848522283,1.87483202226376,1.86455776957258,1.87350899337347,1.8689408479065,1.86910523218581,1.95035781973092,1.81124825270822,1.81099228925025,1.80980622632108,1.8098877287122,1.80516724873671,1.80386081360597,1.80289475993416,1.82534520797014,1.84988881425953,1.84967755649639,1.84889384845667,1.85750570791221,1.83016983214304,1.79969160904271,1.79920495028726,1.79743828058176,1.79420725699308,1.79358881392521,1.79437501629794,1.79488979059418,1.88979683647187,1.97879209300286,1.79473153470374,1.79448857065473,1.79344312874092,1.84067776149166,1.84044957721755,1.82042252887462,1.96269595731904,1.79032796045352,1.79072955552436,1.88391766282848,1.84068116981807,1.88319064677683,1.78966252894442,1.78614673977326,1.78623466218577,1.78522597227365,1.78489577654116,1.78439303089814,1.78312426887456,1.78158942356765,1.78073755039301,1.78048839589834,1.77958274285169,1.63837155789652,1.81139230424274,1.73506933594108,1.62982060060203,1.6289580558604,1.62887506448836,1.625655546483,1.62483146234874,1.62354037479061,1.62174385824533,1.61969833860485,1.61791868171414,1.64674110638444,1.79671970306339
1.9359297790267,1.93115011312328,1.85571293856027,1.92624465095454,1.9259233217088,2.02885939562009,1.95598324329175,1.92255504361349,1.9219130564222,1.92212563622729,1.91953930042315,1.91644397538263,1.916013138385,1.95625933241029,1.91410977468785,1.91428489365203,1.91012042238617,1.91011530976674,1.91066165904165,1.91155805265013,1.91025754814788,1.90892421677869,1.90809116888097,1.90891276571378,1.90900086913162,1.90917992972327,1.90711838395807,2.03199637274682,1.94952031700286,1.90514088608003,1.90831060429818,1.94532619839283,1.83711112450587,1.91135918567001,1.91282944567608,2.02857247698045,1.9440939100178,1.84720906662877,1.9224117533506,1.94145312828848,1.94194496902623,2.04258367054955,1.98644380647319,1.91255836824574,1.94228855848111,1.91310556482998,1.98986124887448,1.99778455412634,1.9108842567288,1.91062980873827,1.90967701118471,1.90701520346892,1.90729094302459,1.90576027754822,1.90771785857498,1.90615602580588,1.9784725720023,2.01210775353127,1.97856689937358,1.98404938422586,1.99234438965022,1.9043456479793,1.98988042201864,1.98983146347457,1.95421760226917,1.90357362675561,1.99821371302629,1.98660165923802,1.98751930117705,1.98262150604683,1.90011291119719,1.89927767512103,1.99290988355581,1.89771157936558,1.98886759368715,1.98246962052717,1.98118290674887,1.98026666561426,1.98568169227365,1.97593132996368,1.89312829957008,1.98295138514682,1.97399216621009,1.88991522225993,1.91747325036439,1.88964740448011,1.97894923804587,1.88967143130308,1.98230767817318,1.97657721127341,1.9810278440345,1.88786410649645,1.88752202273261,1.96800514044975,1.96629166576582,1.96915780237539,1.88458651766274,1.97597345812855,1.88096811124244,1.94560128256722,1.98092494939807,1.87976047360559,1.96511936764897,1.95571955113612,1.95532560243797,1.95581251071339,1.95337774572209,1.94319037925174,1.87120768149865,1.87051547134348,1.87341830377376,1.86607297567024,1.87244891425636,1.86652522227481,1.86879454168608,1.86799547976378,1.93505346160865,1.93282114666483,1.80980247134998,1.80898777924546,1.80844590371693,1.80576533189696,1.80424310492676,1.80329547151833,1.8017234102563,1.79993457353189,1.7991985190622,1.84732707801111,1.84642052708849,1.83690621644039,1.89316816859155,1.88609592737985,1.79683880758327,1.79406448863657,1.79316980889012,1.7929130764551,1.97941375005541,1.8878952972523,1.7938681329002,1.79367493348208,1.79254841993657,1.79142515490692,1.79178403121437,1.79172724008871,1.79000625692621,1.78931817267145,1.88313714297418,1.88306445315263,1.78756254705953,1.82177646362668,1.95375365971692,1.83433796640075,1.78562722101459,1.78483778299526,1.78404457943937,1.7843822171456,1.78276444217507,1.78361019770774,1.78172803243764,1.78048794592476,1.77914043786007,1.77853750586405,1.63433129730596,1.81012986807631,1.7300910064231,1.62836330847549,1.62651820223155,1.79883607078813,1.62433346142537,1.62423787310067,1.71149868831398,1.62150722081656,1.61986316750761,1.61350442642545,1.63973662892549,1.79372456502927
1.95588519967213,1.9563997398676,2.04123515294324,1.92693635194188,1.92565108505476,1.92453331436958,1.95549253689187,1.92164395304884,1.92158812570748,1.92123381753473,1.91889749865011,1.9561251565854,1.91584987709359,1.91503039011478,1.91439652407578,1.91518215844422,1.95547987578314,1.83507392441548,1.90960795175811,1.91072935543857,1.90965128252097,2.04215277539077,2.02538804178187,1.90735175875391,1.9077609553121,1.90755702218937,1.95046298602656,1.90593408961254,1.94661002417992,1.90231092591966,1.83508348862107,1.90777001023935,1.83680507795692,1.90989320756364,1.91087240230299,1.91080535333584,1.8412522391224,1.9438404326841,1.94287427848047,1.9417222222471,2.04145457500079,1.86644377343176,1.98591778185598,1.9850326090756,1.9835323087827,1.99021060295869,1.9818750538789,1.90976548679363,1.90971560823103,1.9098075151974,1.90822272080628,1.90805492478305,1.90645488974442,1.90661230821178,1.92770939554869,1.98243938615233,1.98093134315652,1.99907132055443,1.97680620581062,1.98231812873456,1.99598732763552,1.9898544861183,1.90416393284086,1.98305437661944,1.9805681451649,1.98178530541933,1.98940482111932,1.99868742314241,1.98917191123598,1.98360785914216,1.98497412770699,1.8989576929645,1.97934849200782,1.98963948650054,1.98218917785524,1.98034464820797,1.99936237704524,1.96902473671076,1.97631850902631,1.97402279359383,1.9731746059678,1.98790541313288,1.9838992048126,1.99752069475522,1.98549049574982,1.98686166316845,1.97870862542696,1.88881705135393,1.97948712570338,1.92702681808289,1.88635684183629,1.97273643796506,1.97422203892142,1.88632859217652,1.91393304127261,1.88461647136981,1.96439658744561,1.97076950282309,1.96665752926278,1.94634770015819,1.98046503455598,1.87826174439674,1.96019285330481,1.9478233061125,1.95707850185803,1.96018336865789,1.95940777366062,1.94225951020317,1.94196622360973,1.87018684061604,1.86778283635736,1.87181271273091,1.86604256467057,1.86904465404594,1.86702814653355,1.86739547346742,1.97090494064869,1.81027361642204,1.80965876968739,1.80843971661552,1.80744201245056,1.85275849076771,1.85157075306047,1.85704180257589,1.80053391558586,1.79958996161422,1.80018377410865,1.79841440822381,1.79752472623962,1.81997555876487,1.79636908234206,1.84392450410408,1.79484433905143,1.7940385915727,1.79300003153025,1.79331099571316,1.79364374353153,1.88912778715523,1.79039989473179,1.79256295395994,1.88342939441008,1.79122132830758,1.79030571782999,1.78870300766197,1.78857469326422,1.78790675377634,1.8832174764271,1.78827672426487,1.78600498407589,1.78693678851532,1.78947994189269,1.78201113388657,1.97544470887372,1.78623083143474,1.78327351681281,1.78176973571288,1.78134636135608,1.78122233756962,1.96852040570374,1.77971347758375,1.77877520545935,1.96647371940764,1.63409374311239,1.72393285444168,1.722884965568,1.72113252552384,1.80036630353288,1.79841690008458,1.62458141202431,1.62269587766668,1.62133623681285,1.6194643989849,1.61888773674506,1.61394701075202,1.61548426635649,1.61597422422933
