1.7839, 1.78252, 1.78355, 1.78057, 2.04636, 2.05902, 1.77811, 1.8288, 1.82974, 1.82984, 1.83315, 1.78378, 1.87936, 1.78102, 1.78222, 1.78577, 2.03863, 1.7852, 1.7846, 1.78587, 1.78493, 1.78306, 1.78255, 1.88278, 1.88044, 1.78621, 1.87877, 1.78512, 1.78625, 1.7888, 1.79008, 1.85522, 1.85628, 2.01457, 2.01156, 1.85689, 2.01216, 2.01214, 2.01002, 2.01348, 2.0139, 2.01818, 1.93368, 1.94143, 1.85914, 1.8582, 1.93778, 1.93656, 1.94878, 2.0237, 1.93823, 2.04855, 1.94198, 1.95473, 1.95174, 1.95394, 2.03464, 2.01776, 1.93048, 2.01023, 2.02937, 1.93206, 1.93629, 1.93615, 2.01489, 2.0342, 2.02854, 2.02617, 2.02855, 2.03532, 2.02775, 2.03419, 2.03145, 1.9499, 1.94877, 2.03556, 2.03773, 2.04091, 2.03523, 2.03239, 2.04924, 2.04946, 2.04061, 2.03841, 2.04562, 2.0546, 2.05555, 2.04126, 2.0363, 2.04223, 2.04518, 1.96182, 1.96353, 2.0479, 2.04514, 1.96612, 2.07064, 2.08427, 1.95262, 2.00208, 1.90149, 2.09043, 1.90058, 1.90222, 1.9057, 2.08305, 1.90077, 1.9024, 1.90078, 1.90299, 1.90387, 1.90142, 2.0807, 1.90267, 1.90116, 2.09164, 1.95265, 1.95316, 1.98918, 1.9066, 1.90297, 1.90463, 1.90305, 1.90388, 1.82315, 1.93442, 1.93713, 1.93053, 1.81484, 1.81467, 1.81037, 1.81189, 1.81214, 1.81059, 1.85722, 1.91788, 1.80595, 1.85521, 1.85506, 1.87715, 1.80145, 1.80216, 1.79944, 1.79934, 1.85162, 1.91342, 1.79924, 1.79386, 1.79303, 1.79537
1.83507, 1.83592, 1.78197, 1.9609, 1.77973, 1.7785, 1.77954, 1.77864, 1.78053, 1.77858, 1.77919, 1.7814, 1.78456, 1.78256, 1.78529, 1.78641, 1.78652, 1.78607, 1.78658, 1.78129, 1.78844, 1.78479, 1.78264, 1.83372, 1.78577, 1.88272, 1.78603, 1.7838, 1.78702, 1.78941, 1.78993, 1.85754, 1.85755, 1.85557, 1.85603, 2.01478, 2.01394, 2.01217, 2.04869, 1.93623, 1.85993, 2.0138, 1.85838, 1.94235, 1.93867, 1.8578, 1.94091, 1.93363, 1.94724, 1.93557, 1.9365, 1.947, 1.93771, 1.9514, 1.94564, 2.03677, 2.05338, 2.01446, 2.01423, 2.01185, 2.0278, 1.93406, 1.93565, 1.93877, 2.01587, 2.02067, 2.02677, 2.03749, 1.94127, 2.04626, 1.9419, 2.02751, 1.94636, 2.04782, 2.0353, 2.04034, 1.95178, 1.95288, 2.03154, 2.03121, 2.05447, 1.9587, 2.03742, 2.04256, 2.03504, 2.05625, 2.0389, 2.04809, 2.05539, 2.05791, 2.03815, 2.04488, 2.04142, 2.04222, 1.96605, 2.04317, 1.96631, 1.90253, 1.95501, 1.90149, 1.90041, 1.90083, 2.08716, 1.90392, 1.89996, 1.90385, 1.90297, 2.0809, 1.90002, 1.90338, 1.9028, 2.09319, 1.90403, 1.95865, 1.90216, 1.90348, 2.0967, 1.9935, 1.98956, 1.90193, 2.08558, 1.90291, 1.90602, 1.90416, 1.93787, 1.94103, 1.93802, 1.81707, 1.81614, 1.93521, 1.8138, 1.81002, 1.93298, 1.80807, 1.8093, 1.93702, 1.80638, 1.80326, 1.85293, 1.80384, 1.91433, 1.92499, 1.9314, 1.79704, 1.84997, 1.79785, 1.91417, 1.79404, 1.79502, 1.92418
1.78649, 2.03848, 1.77895, 1.7815, 2.04452, 1.77862, 1.77769, 1.78063, 1.95881, 1.7816, 1.77964, 1.78354, 1.7836, 1.78494, 1.7852, 1.88486, 1.88926, 1.78318, 1.78434, 1.83436, 1.78352, 1.78368, 1.78238, 1.78461, 1.88455, 1.7855, 1.78364, 1.78434, 1.83704, 1.78896, 1.78985, 1.8532, 1.85749, 1.8556, 1.85508, 1.8581, 1.86162, 2.02066, 1.93688, 1.86115, 1.93071, 1.93392, 1.939, 1.94045, 2.03554, 2.02826, 1.9328, 1.9339, 1.93589, 1.94984, 2.0271, 1.93741, 1.86166, 1.94288, 1.95169, 1.94805, 2.04325, 2.01174, 1.93053, 2.01142, 2.01453, 1.93382, 1.93284, 1.93768, 2.01547, 2.01578, 2.03117, 1.94098, 2.03761, 2.03316, 1.94385, 2.03293, 2.04349, 1.94765, 2.02752, 2.02824, 2.02965, 2.0319, 2.03212, 2.04149, 1.95528, 2.03445, 2.03598, 1.95687, 2.03574, 2.04928, 2.03736, 2.03562, 2.03494, 2.05274, 2.03752, 2.04328, 1.96318, 2.04446, 2.04084, 2.04105, 1.96881, 1.90377, 1.90194, 1.90342, 1.90143, 1.9006, 1.90361, 1.89945, 1.90266, 1.95171, 1.90053, 2.08712, 1.90283, 1.90578, 1.90033, 1.90345, 1.90058, 2.08904, 1.9003, 1.90138, 1.89971, 1.9555, 1.90062, 1.9003, 1.901, 1.90354, 2.08077, 2.07891, 1.93592, 1.82116, 1.93859, 1.81658, 1.93125, 1.93424, 1.81187, 1.93509, 1.80993, 1.80958, 1.90327, 1.80739, 1.8034, 1.80139, 1.80354, 1.80353, 1.80048, 1.80096, 1.80149, 1.79755, 1.93295, 1.79421, 1.93053, 1.79623, 1.79293, 1.79324
1.7866, 1.7833, 1.78575, 1.78006, 1.77971, 2.04178, 1.77683, 1.88217, 1.78258, 1.88107, 1.7797, 1.78322, 1.78196, 1.78423, 1.78412, 1.7836, 1.7832, 1.78576, 1.78548, 1.78692, 1.78542, 1.87637, 1.78194, 1.78239, 1.78287, 1.83381, 1.83363, 1.83319, 1.83602, 1.78594, 1.78997, 2.0122, 1.93512, 1.86065, 1.85612, 2.03768, 2.0138, 1.93218, 1.8582, 2.04153, 1.85856, 1.8573, 1.93851, 1.92919, 1.85793, 1.94243, 1.93213, 1.93417, 1.93375, 1.93426, 1.93506, 1.93917, 1.93907, 1.95271, 1.87228, 2.03588, 2.05163, 1.9306, 2.0081, 2.01334, 1.93249, 2.00668, 2.00834, 1.93477, 2.01367, 2.0137, 2.0316, 2.03786, 2.03627, 2.04416, 1.94593, 2.03526, 2.04718, 2.05215, 2.05088, 2.05546, 2.03064, 2.05949, 2.03472, 2.04809, 2.04637, 2.03819, 2.0488, 2.05122, 2.04929, 2.05541, 2.05186, 2.03525, 2.03593, 2.03814, 2.05655, 2.04758, 2.04259, 1.96224, 1.96365, 2.05992, 2.05452, 1.9009, 2.091, 2.00122, 1.90033, 1.90319, 1.98696, 1.90091, 1.95453, 2.08228, 1.95418, 2.08039, 1.99969, 1.90577, 1.90404, 1.90342, 1.95343, 1.95383, 1.95237, 1.90163, 1.89913, 1.90011, 1.95041, 1.98631, 1.95067, 1.90023, 2.07893, 2.07826, 1.82478, 1.87156, 1.93819, 1.95605, 1.81722, 1.93498, 1.81119, 1.93804, 1.81024, 1.85933, 1.93496, 1.80669, 1.80511, 1.80478, 1.80391, 1.80383, 1.80037, 1.79859, 1.93346, 1.93064, 1.797, 1.79506, 1.79483, 1.79274, 1.84283, 1.84405
1.78709, 1.78731, 2.04319, 1.78381, 1.78193, 1.77974, 1.78091, 1.78047, 1.78189, 1.7815, 1.8714, 1.83395, 1.78505, 1.78672, 1.78891, 1.7828, 1.7856, 1.83385, 1.88409, 1.7838, 1.78274, 1.88258, 1.83218, 1.83263, 1.89562, 1.78255, 1.87014, 1.78305, 1.78521, 1.78582, 2.01388, 2.01601, 2.0171, 2.01371, 1.85608, 2.03139, 1.85872, 1.85886, 2.03391, 2.01659, 1.85955, 2.02068, 1.85839, 1.85612, 1.93379, 1.93441, 1.9443, 1.94291, 1.94348, 1.93423, 1.93752, 1.93784, 1.95129, 1.86607, 1.94643, 2.03128, 2.03515, 2.01645, 2.02275, 2.01767, 2.02221, 1.93338, 2.0103, 2.01399, 2.01504, 2.02747, 2.03504, 2.03362, 2.01523, 2.01489, 2.01709, 1.9464, 1.94767, 2.0449, 2.04738, 2.04497, 2.02796, 2.03164, 2.03208, 2.02887, 2.02808, 2.03862, 2.03959, 1.95761, 2.0571, 2.03565, 2.03634, 2.06255, 1.95968, 2.0395, 2.04116, 2.04869, 2.03881, 1.96391, 2.05462, 2.04234, 2.04952, 1.90178, 1.90292, 1.90102, 1.89841, 1.89748, 1.89766, 1.89888, 1.90102, 1.90274, 1.98613, 1.95275, 1.90167, 1.90352, 2.09387, 1.90434, 1.90323, 1.90116, 1.90233, 2.10046, 1.90056, 2.08418, 1.95146, 1.89871, 1.98583, 1.95174, 1.90046, 2.08083, 1.82819, 1.82416, 1.82014, 1.81785, 1.81529, 1.94176, 1.81189, 1.80975, 1.86233, 1.86044, 1.90606, 1.92084, 1.85538, 1.80435, 1.80447, 1.8014, 1.80244, 1.80105, 1.80022, 1.79677, 1.92919, 1.91607, 1.84189, 1.79234, 1.83823, 1.83747
1.78902, 1.78718, 1.78696, 1.8354, 1.78258, 1.87115, 1.8323, 1.78112, 1.78533, 1.78319, 1.78605, 1.83456, 1.78599, 1.78811, 1.7828, 1.78527, 1.83684, 1.78723, 1.78692, 1.887, 1.78301, 1.78395, 1.78203, 1.7802, 1.78203, 1.78163, 1.7856, 1.78495, 1.78331, 1.89014, 1.85816, 2.01328, 2.01975, 2.01751, 2.0127, 1.85807, 2.01388, 2.03457, 2.01345, 2.03742, 2.01574, 2.04442, 2.04474, 1.85869, 1.85581, 1.94299, 1.93253, 1.933, 1.94744, 1.93207, 1.93476, 1.93555, 1.95504, 1.94204, 1.95488, 2.03602, 2.01829, 2.00964, 2.03502, 2.02388, 2.01122, 2.01429, 2.01386, 2.01353, 2.01526, 1.9386, 2.01412, 2.02726, 2.02802, 2.02051, 2.03576, 1.94609, 1.94674, 2.03456, 2.03801, 2.02785, 2.04911, 1.95202, 2.04929, 2.03785, 1.95551, 2.03429, 2.03282, 2.034, 2.04897, 2.05633, 2.0618, 2.04042, 1.95995, 2.06079, 2.05473, 2.03772, 2.04448, 2.04085, 2.04005, 2.03796, 2.05172, 1.90123, 1.89887, 1.89698, 2.0852, 2.07963, 2.10082, 2.00147, 1.89807, 2.09996, 1.90324, 1.99394, 1.903, 2.08275, 1.90085, 2.08171, 1.90305, 1.90037, 2.08827, 1.89997, 2.08058, 1.89788, 1.89424, 1.95246, 1.90013, 1.89793, 1.90237, 1.90446, 1.82667, 1.93794, 1.82176, 1.93489, 1.93182, 1.81491, 1.93793, 1.86475, 1.85932, 1.80958, 1.85834, 1.80761, 1.80243, 1.80351, 1.80282, 1.80016, 1.80088, 1.80289, 1.80029, 1.79969, 1.79805, 1.79471, 1.84118, 1.78885, 1.78274, 1.93843
1.78895, 1.85175, 1.78689, 1.78406, 1.78515, 1.83546, 1.78566, 1.78239, 1.78871, 1.78542, 1.88413, 2.04878, 1.7861, 1.78647, 1.83783, 1.78496, 1.78708, 1.78915, 1.88272, 1.7844, 1.78335, 1.78218, 1.78186, 1.78197, 1.78229, 1.78169, 1.78027, 1.78154, 1.78285, 1.78442, 2.01049, 2.01481, 2.01348, 2.01467, 2.01424, 2.01112, 2.03777, 1.85906, 1.85877, 2.03111, 1.93814, 1.85858, 2.02005, 1.94192, 1.85737, 1.9425, 1.93358, 1.94561, 1.93237, 2.03411, 1.93495, 1.95288, 1.93689, 1.94451, 1.95224, 2.03581, 2.03114, 2.02105, 2.00862, 1.93238, 2.01209, 2.01577, 2.0137, 2.01502, 1.93702, 2.01725, 2.04183, 2.03765, 2.03104, 1.94258, 1.9441, 2.0239, 2.02133, 2.04178, 2.024, 2.02878, 2.0325, 2.03539, 2.03729, 2.04937, 2.04944, 2.05582, 2.03311, 2.03198, 2.04137, 2.04052, 2.04037, 2.0361, 2.03448, 2.05674, 2.05458, 2.04209, 2.04205, 2.04206, 2.0414, 2.04849, 2.05954, 2.07471, 1.94912, 1.89611, 1.89751, 1.89728, 1.89809, 1.90071, 1.89868, 1.90085, 1.95194, 1.90295, 1.90392, 1.90326, 1.9033, 1.90485, 2.09432, 1.90067, 1.90192, 1.90114, 1.90013, 1.90013, 2.08336, 1.89821, 2.09373, 1.89747, 1.89927, 1.99349, 1.93226, 1.87442, 1.87485, 1.81864, 1.93433, 1.93791, 1.94058, 1.93695, 1.87134, 1.87396, 1.80786, 1.80741, 1.80407, 1.80223, 1.80012, 1.80089, 1.93543, 1.80154, 1.79794, 1.79991, 1.93133, 1.79498, 1.8592, 1.78244, 1.7841, 1.78253
1.78919, 1.79064, 1.79149, 1.78986, 1.78929, 1.78758, 1.78723, 1.78893, 1.78543, 1.78522, 1.78605, 1.78729, 1.78624, 1.7838, 1.88441, 1.78617, 1.96814, 1.78434, 1.78531, 1.78731, 1.7817, 1.83552, 1.83204, 1.89344, 1.89536, 1.78036, 1.78119, 1.78213, 1.78264, 1.78258, 1.85865, 1.85858, 1.86038, 2.02046, 2.01177, 2.01228, 2.01139, 1.8613, 2.03707, 2.04368, 1.93625, 1.937, 1.85728, 1.85636, 1.93133, 1.93073, 1.94809, 2.02328, 1.932, 1.94964, 1.93487, 2.04027, 1.95167, 1.94184, 1.95282, 2.03451, 2.02721, 2.0066, 2.02448, 2.01032, 2.00817, 2.01395, 2.0124, 2.00924, 2.01448, 2.01309, 2.01457, 2.04233, 1.93818, 2.02356, 2.03552, 2.03961, 2.04265, 2.02548, 2.0264, 2.02808, 2.04493, 2.04191, 2.04167, 2.03108, 2.04099, 2.04455, 2.04888, 2.04252, 2.04159, 1.95564, 1.95714, 2.03543, 2.03482, 2.03769, 2.03826, 2.04226, 2.04505, 2.0458, 1.96323, 2.04304, 1.96534, 1.94798, 1.94859, 1.8962, 1.94831, 1.89541, 1.89597, 2.07986, 1.90076, 2.00379, 1.904, 1.95547, 2.08637, 1.95262, 1.90596, 1.90256, 1.90237, 1.90084, 1.89916, 1.89944, 1.89907, 2.11385, 1.89696, 1.89945, 1.90096, 1.90026, 1.89791, 1.95024, 1.82891, 1.82423, 1.82205, 1.91403, 1.86783, 1.8158, 1.9277, 1.8135, 1.80849, 1.80985, 1.93355, 1.808, 1.80905, 1.80178, 1.80266, 1.85195, 1.80231, 1.79897, 1.79824, 1.84845, 1.79656, 1.79079, 1.93535, 1.78759, 1.78548, 1.78516
1.79155, 2.04564, 1.79094, 1.79208, 1.78897, 1.78851, 1.78695, 1.78706, 1.78692, 1.78728, 1.78629, 1.88748, 1.78703, 1.78888, 1.7885, 1.78385, 1.78623, 1.78531, 1.88687, 1.78596, 1.78512, 1.78396, 1.7801, 1.83082, 1.88023, 1.77702, 1.7789, 1.7794, 1.77929, 1.78252, 1.86118, 1.85975, 1.86179, 1.85939, 1.85952, 2.01571, 2.04486, 2.01816, 2.01527, 1.93853, 1.93471, 1.94114, 1.93184, 1.93095, 1.94082, 1.93151, 1.944, 1.94623, 1.85582, 1.93355, 1.9495, 1.9516, 2.02874, 1.93996, 2.03095, 2.03893, 2.02818, 2.00689, 2.0074, 2.01337, 2.03062, 1.93388, 2.01486, 2.01698, 2.01456, 2.02062, 2.01438, 2.01348, 2.02338, 1.94221, 2.03152, 2.03125, 2.0378, 2.02483, 2.02552, 2.02718, 2.0307, 2.02789, 2.03052, 2.0339, 2.03136, 2.04723, 2.04656, 2.03518, 2.05218, 2.03456, 2.05573, 2.0552, 2.03425, 2.05782, 2.03681, 2.04323, 2.04154, 2.04486, 2.04268, 2.0418, 2.05782, 1.89641, 2.01855, 1.89457, 1.89456, 1.89641, 1.89738, 1.89962, 1.89827, 1.95155, 2.08456, 1.90125, 1.90162, 1.9551, 1.9537, 1.95387, 1.95468, 1.90297, 1.90107, 1.89744, 1.89865, 1.89747, 2.10084, 1.89655, 1.89818, 1.89723, 1.89723, 1.89924, 1.82877, 1.82561, 1.82061, 1.81914, 1.81852, 1.8657, 1.81175, 1.81004, 1.81011, 1.90326, 1.80704, 1.80437, 1.80405, 1.94127, 1.80072, 1.80328, 1.93001, 1.79986, 1.79898, 1.79656, 1.79282, 1.79341, 1.78997, 1.90356, 1.78248, 1.78474
1.79212, 1.79442, 1.79624, 1.79273, 1.79118, 2.05926, 1.78899, 1.78702, 1.78643, 1.83738, 1.78884, 1.78551, 2.04876, 1.78621, 1.78722, 1.78581, 1.78416, 1.78552, 1.78562, 1.78386, 1.88679, 1.88788, 1.77943, 1.7794, 1.77895, 1.77811, 1.7786, 1.8897, 1.78054, 1.7818, 1.86531, 1.8607, 1.93921, 2.01682, 1.86175, 1.85959, 1.86109, 1.93684, 1.85879, 1.85797, 1.93452, 1.93907, 1.94081, 1.93438, 1.94541, 1.93354, 1.93401, 1.94603, 1.85573, 1.932, 1.85671, 1.93608, 1.86548, 1.94167, 1.94384, 1.95113, 2.04236, 1.9318, 1.93132, 1.9344, 2.01199, 2.01635, 1.93442, 2.01441, 2.01197, 2.02595, 2.03918, 2.01618, 2.02373, 2.03989, 2.03938, 2.02082, 2.03882, 2.04352, 2.02603, 2.03019, 2.02806, 2.02933, 2.03066, 2.02942, 2.04946, 2.03009, 2.03874, 2.04896, 1.9592, 2.04037, 2.03459, 2.04843, 2.04254, 2.03705, 2.0385, 2.03863, 1.96158, 1.96123, 1.96399, 2.05935, 2.04331, 1.89667, 1.89525, 1.8944, 2.0799, 1.89768, 1.94591, 2.00495, 1.89718, 1.9716, 1.90118, 1.90149, 1.90335, 1.90382, 1.90167, 2.07952, 1.90213, 1.90063, 1.9002, 1.89848, 1.89771, 1.89662, 1.89407, 1.89622, 2.08057, 1.8977, 1.89878, 1.8991, 1.92935, 1.82585, 1.8205, 1.92714, 1.86879, 1.8138, 1.93098, 1.92233, 1.90607, 1.80698, 1.80528, 1.85618, 1.80416, 1.80324, 1.80221, 1.80171, 1.9353, 1.80023, 1.79704, 1.91784, 1.79691, 1.94121, 1.93164, 1.78799, 1.78385, 1.77876
1.79768, 1.79282, 1.79074, 1.79284, 1.78926, 1.79183, 1.96892, 2.05877, 1.78719, 1.78706, 1.78906, 1.7856, 1.78723, 1.78863, 1.78953, 1.78799, 1.96882, 1.78553, 1.78701, 1.90456, 1.78229, 1.78287, 1.78056, 1.78211, 1.7771, 1.7781, 1.77659, 1.77853, 1.77963, 1.78083, 1.86585, 1.86097, 1.86168, 2.01525, 1.94093, 1.85996, 2.04161, 1.93523, 1.94121, 2.04495, 1.94164, 2.01826, 1.94194, 1.94256, 1.94445, 1.85602, 1.94581, 1.94602, 2.05911, 1.93302, 1.85813, 1.85805, 1.95272, 1.94191, 1.9456, 1.94761, 2.03467, 2.00594, 2.01737, 2.01392, 1.93381, 1.93467, 2.01505, 2.01228, 2.0129, 2.01554, 2.0155, 1.94073, 2.02649, 2.03793, 1.94497, 2.02349, 2.02472, 2.0576, 2.03584, 1.95033, 1.95331, 2.02941, 2.02989, 1.95549, 2.03816, 2.05233, 1.95789, 2.04405, 2.05504, 2.04662, 1.95756, 1.95856, 2.03392, 1.95813, 2.03956, 2.03553, 1.9588, 1.96141, 2.05187, 1.96316, 2.06612, 1.89615, 1.89048, 1.89627, 1.94627, 1.89469, 1.94769, 1.89701, 1.89677, 1.90216, 1.90266, 2.09325, 2.0899, 2.09137, 2.09471, 2.08963, 1.90421, 1.95485, 1.89946, 1.90096, 1.9003, 1.89691, 1.89565, 1.89565, 1.8995, 1.89744, 1.89982, 1.94876, 1.92335, 1.93202, 1.92101, 1.81724, 1.81604, 1.8122, 1.81272, 1.81199, 1.81173, 1.80711, 1.80714, 1.80563, 1.85298, 1.80216, 1.93997, 1.93761, 1.79916, 1.79669, 1.8508, 1.93148, 1.79375, 1.79434, 1.91276, 1.78647, 1.78799, 1.92737
1.79559, 1.79336, 1.79387, 1.79589, 1.79444, 2.06696, 1.78868, 2.04687, 1.79013, 1.78977, 1.79012, 1.78782, 1.78807, 1.78908, 1.7891, 1.78822, 1.78733, 1.78743, 1.89668, 1.8784, 1.83414, 1.77934, 1.88369, 1.77719, 1.78162, 1.77784, 1.77602, 1.7752, 1.77842, 1.78055, 1.86367, 2.01471, 1.86098, 1.86202, 2.01499, 2.01664, 1.86053, 1.86015, 1.94138, 1.86004, 1.93257, 1.93073, 1.93059, 1.85667, 1.94513, 2.02435, 2.02447, 1.85515, 1.9307, 1.9328, 1.93682, 2.03468, 1.93976, 2.03188, 1.95536, 2.05288, 2.05553, 2.0144, 2.01648, 2.02763, 2.01769, 1.9319, 1.93383, 1.93617, 2.01415, 2.01486, 2.03728, 2.01457, 2.05296, 1.94486, 2.04511, 2.02354, 2.02414, 2.03097, 2.03114, 2.03997, 2.04217, 2.03954, 1.95444, 2.03464, 2.04163, 2.0468, 2.05412, 2.04371, 2.04625, 2.03276, 2.05262, 2.03492, 2.04555, 1.95886, 2.03527, 2.03874, 1.96162, 1.96549, 1.96595, 2.05526, 2.04491, 1.89293, 1.89238, 2.08046, 1.8943, 1.89589, 1.89224, 2.08028, 1.94965, 1.90009, 1.90062, 1.95476, 1.90332, 1.90397, 1.90387, 1.90471, 1.90298, 1.99818, 1.90352, 1.90241, 1.90059, 1.89662, 1.89766, 1.89473, 1.96396, 1.8939, 1.89765, 1.83394, 1.82838, 1.8224, 1.82267, 1.82057, 1.93763, 1.81233, 1.98732, 1.80964, 1.93793, 1.85799, 1.85707, 1.85555, 1.85434, 1.80232, 1.85137, 1.85208, 1.79855, 1.79764, 1.90305, 1.79344, 1.79512, 1.79534, 1.79113, 1.78892, 1.92413, 1.78953
1.798, 1.79658, 1.79859, 1.79676, 1.79595, 1.7959, 1.79363, 1.79193, 1.79046, 1.79262, 1.78968, 1.87625, 1.79012, 1.78955, 1.78882, 1.7889, 1.78946, 1.78653, 1.88702, 1.7856, 1.78404, 1.89048, 1.7787, 1.77597, 1.77867, 1.77869, 1.77637, 2.05798, 1.77893, 1.77861, 2.0207, 1.86506, 1.93845, 2.01698, 1.93866, 1.93935, 1.86031, 1.9354, 1.93732, 1.94109, 1.94348, 1.94398, 1.93851, 1.94556, 1.93498, 1.9319, 1.93145, 1.85556, 1.8549, 1.95286, 2.03867, 1.93434, 1.93929, 1.95593, 1.94743, 1.94873, 2.04199, 2.02249, 2.02265, 2.0251, 2.01413, 1.93434, 1.93347, 2.01794, 2.01533, 2.02898, 2.02518, 1.93738, 2.01746, 2.03551, 2.02144, 2.06874, 2.03914, 2.02498, 1.94948, 2.02816, 2.0412, 1.95308, 2.05202, 1.95546, 1.95577, 2.03267, 2.05235, 1.95857, 2.03179, 2.05934, 2.04398, 2.04543, 2.03756, 2.03645, 2.04441, 2.03662, 2.03638, 1.96102, 1.96258, 2.03902, 2.05775, 1.89315, 1.89127, 1.89068, 1.89296, 2.07589, 1.89584, 1.8934, 1.89722, 1.90121, 1.90228, 1.90214, 1.90336, 1.90333, 1.90739, 1.9045, 1.95415, 1.90392, 1.98894, 1.95144, 2.10643, 1.89836, 1.89954, 2.0629, 1.94819, 1.89632, 1.89981, 1.82968, 1.9317, 1.82474, 1.81998, 1.86875, 1.81497, 1.8126, 1.81232, 1.8135, 1.80722, 1.93762, 1.8039, 1.97325, 1.93903, 1.93876, 1.93642, 1.80044, 1.93371, 1.79755, 1.79777, 1.93116, 1.79494, 1.79395, 1.79313, 1.93148, 1.78875, 1.78906
1.84821, 1.79912, 1.87979, 1.88665, 1.86519, 1.7964, 2.05575, 1.79449, 1.79232, 1.79322, 1.7921, 1.7918, 1.78999, 1.79177, 1.78911, 1.84102, 1.79039, 1.78926, 1.89626, 1.7858, 1.78536, 1.89214, 1.77881, 1.77697, 1.77949, 1.78008, 1.77674, 2.06534, 1.77995, 1.83189, 2.0193, 1.86311, 2.01281, 1.86316, 2.02025, 1.86268, 1.93908, 1.9411, 2.0186, 1.9371, 1.94399, 1.94574, 1.93739, 1.93199, 1.94718, 1.94972, 2.0419, 2.04269, 2.03001, 1.93138, 1.95505, 2.04139, 1.95837, 1.94089, 2.03478, 1.95812, 2.03925, 2.00979, 2.02262, 2.02309, 2.01311, 1.93561, 1.93744, 2.01385, 2.0128, 2.03527, 1.93894, 2.02565, 2.0189, 1.94484, 1.94467, 2.0247, 2.02913, 2.02504, 1.94903, 2.02836, 2.0387, 2.02617, 2.05136, 2.04104, 2.03838, 2.0376, 2.04765, 2.05432, 2.04361, 2.04414, 2.03819, 2.0319, 1.9585, 2.05124, 1.95865, 2.03989, 2.04134, 2.04373, 2.04166, 2.03851, 2.0517, 1.89556, 1.89379, 1.89286, 1.89152, 1.89423, 1.89463, 1.89672, 1.89495, 1.89977, 1.97669, 1.90285, 1.90297, 1.90611, 1.95592, 1.90194, 1.90507, 1.95523, 1.95471, 1.90175, 1.90264, 1.90141, 1.89959, 1.94928, 2.09108, 2.07573, 1.90008, 1.83011, 1.82645, 1.87657, 1.92316, 1.8194, 1.81532, 1.93801, 1.80993, 1.80986, 1.80971, 1.80787, 1.80449, 1.93525, 1.93502, 1.80076, 1.8008, 1.7964, 1.86293, 1.84902, 1.79474, 1.79666, 1.79658, 1.84394, 1.79573, 1.9253, 1.79044, 1.91852
1.79943, 1.88263, 1.80065, 1.79958, 1.79526, 1.97324, 1.79538, 1.79543, 1.7959, 1.90075, 1.88288, 1.79037, 1.79235, 1.78847, 1.7919, 1.8422, 1.8785, 1.78839, 1.78957, 1.78721, 1.78667, 1.78367, 1.7836, 1.78106, 1.78033, 1.78178, 2.05815, 1.78181, 1.83014, 1.78434, 2.02041, 1.86595, 1.86545, 1.86389, 1.86256, 2.0247, 1.9414, 1.94081, 1.94436, 1.94477, 2.02146, 1.93555, 1.93528, 1.9469, 1.93415, 1.85523, 2.02838, 1.93316, 1.93285, 1.93534, 1.95474, 1.9584, 1.95716, 1.94277, 1.95469, 1.95317, 2.04676, 2.00843, 1.93511, 2.0118, 2.01084, 1.93493, 2.00752, 1.93706, 2.01329, 2.0212, 2.03798, 2.01221, 2.01543, 2.0193, 2.02005, 2.02367, 2.02557, 1.9495, 2.02745, 2.02904, 2.04231, 2.05492, 2.04564, 2.05895, 2.03277, 2.0328, 2.0308, 2.04786, 2.0367, 2.03266, 1.95821, 2.04655, 2.05406, 2.05547, 2.03413, 1.95847, 2.03978, 2.04155, 1.96214, 2.03827, 2.0443, 1.94331, 1.89342, 1.94311, 1.94312, 1.89447, 1.89426, 1.89703, 1.89709, 1.90001, 1.90003, 2.10599, 2.09377, 2.09726, 1.96008, 1.90404, 1.90586, 1.90368, 1.9556, 1.89942, 1.95282, 1.90261, 1.90019, 2.07768, 2.07774, 1.9007, 1.89798, 1.83057, 1.82743, 1.82646, 1.87042, 1.86997, 1.81374, 1.90533, 1.9395, 1.81098, 1.80654, 1.80598, 1.93694, 1.93687, 1.80301, 1.90899, 1.90552, 1.79709, 1.79749, 1.79906, 1.79854, 1.85595, 1.8473, 1.91098, 1.92479, 1.92994, 1.79298, 1.79072
1.80135, 1.80338, 1.80214, 1.80118, 1.88787, 1.89381, 1.7965, 1.79459, 1.7934, 1.79305, 1.79323, 1.79424, 1.7914, 1.79542, 1.89983, 1.79166, 1.84211, 1.84077, 1.78977, 1.79008, 1.78572, 1.78924, 1.78481, 1.7855, 1.77989, 1.78186, 1.78173, 1.78242, 1.78456, 1.83393, 2.01862, 1.864, 1.86653, 1.94004, 2.02358, 1.93804, 1.9446, 1.93841, 1.94344, 1.93621, 1.93734, 1.93626, 1.94792, 1.94791, 1.95133, 1.93444, 1.9322, 1.95132, 1.95186, 1.93363, 1.93489, 1.95636, 1.95523, 1.95966, 1.95609, 1.95773, 2.03506, 2.01119, 2.01098, 2.01494, 2.02063, 1.9376, 2.01613, 2.01322, 2.02219, 2.01754, 2.01659, 2.01747, 2.0185, 2.02305, 1.94524, 2.05217, 2.02347, 2.05219, 2.038, 2.02771, 2.05908, 1.95605, 1.95655, 2.04063, 2.04832, 2.04421, 2.03815, 2.03402, 2.03557, 2.04203, 2.03468, 2.04257, 2.03857, 2.04013, 2.03756, 2.03486, 2.03416, 2.0418, 2.03437, 1.9619, 2.04455, 1.89474, 1.8941, 1.9451, 2.00875, 1.89611, 1.94833, 1.89632, 1.94905, 1.95104, 2.00321, 1.95564, 1.99823, 1.90523, 1.90576, 1.9053, 1.90187, 1.90396, 1.90377, 1.90267, 1.90371, 1.90316, 1.99326, 1.90254, 1.90224, 1.90212, 1.90069, 1.93321, 1.93168, 1.93708, 1.82144, 1.81777, 1.81762, 1.81175, 1.81114, 1.90618, 1.80637, 1.93779, 1.80376, 1.80288, 1.80053, 1.80268, 1.80006, 1.80286, 1.93099, 1.79603, 1.79717, 1.79712, 1.8452, 1.79556, 1.79598, 1.84243, 1.79095, 1.91908
1.97326, 1.80226, 1.80376, 1.90341, 1.9007, 2.05273, 1.79989, 1.79779, 1.79688, 1.79956, 1.79605, 1.79461, 1.79367, 1.89934, 1.79171, 1.79463, 1.89966, 1.79255, 1.9106, 1.79016, 1.78913, 1.78928, 1.90245, 1.7868, 1.78553, 1.7835, 1.84568, 1.8373, 1.78597, 1.78901, 1.86516, 2.01462, 1.93782, 1.86658, 1.94147, 1.94506, 2.02197, 1.93863, 1.93764, 1.94383, 2.0255, 1.93469, 1.94666, 1.93421, 2.02771, 1.8561, 1.93327, 1.95097, 1.93474, 1.93761, 1.93647, 2.03577, 2.03441, 1.9441, 1.94772, 1.9544, 1.89226, 2.03437, 2.01315, 2.02796, 2.0237, 1.93612, 1.93565, 2.01899, 2.01401, 2.01587, 2.04618, 1.94031, 2.01881, 2.03899, 2.02226, 1.94684, 1.94812, 2.03335, 1.95196, 2.03465, 2.02884, 1.95308, 2.03573, 1.95672, 2.04485, 2.04799, 2.05171, 2.04382, 2.04908, 2.04423, 1.95787, 2.04401, 2.03533, 2.03613, 2.04237, 2.04169, 1.95895, 1.95513, 2.04093, 1.962, 2.04944, 2.07243, 1.89899, 1.89489, 1.89479, 1.89461, 1.89606, 1.90035, 2.00165, 1.90023, 1.90171, 1.90256, 1.90339, 1.90428, 1.90347, 1.95489, 2.09307, 1.90686, 1.90515, 1.9016, 1.95461, 1.90339, 1.90197, 1.9004, 1.90134, 1.90301, 1.9004, 1.88212, 1.94831, 1.93092, 1.93444, 1.8199, 1.93169, 1.81267, 1.80925, 1.93498, 1.80608, 1.8543, 1.80267, 1.80036, 1.80265, 1.80092, 1.79996, 1.79889, 1.79971, 2.10506, 1.79978, 1.79888, 1.91879, 1.85091, 1.79611, 1.79506, 1.79471, 1.79288
1.85478, 1.80242, 1.80409, 1.80411, 1.80073, 1.79946, 1.79994, 1.79898, 1.79717, 1.79813, 1.79791, 1.7955, 1.79597, 1.79652, 1.79491, 1.79443, 1.79405, 1.79251, 1.79264, 1.88939, 1.79061, 1.78896, 1.90487, 1.78938, 1.90776, 1.88619, 1.89549, 1.78729, 2.0555, 1.79026, 1.8678, 2.02728, 1.94226, 1.86767, 1.94331, 2.02226, 1.86445, 1.93803, 1.93679, 1.86079, 2.02439, 1.93483, 1.94849, 1.93268, 1.85648, 1.95181, 1.8552, 1.95382, 1.95334, 1.93277, 1.95843, 1.95742, 1.86521, 1.94189, 1.95928, 1.96139, 2.03418, 2.01352, 2.01409, 2.01382, 2.01576, 1.93613, 1.93556, 1.93821, 2.01478, 2.01464, 2.01745, 2.03197, 1.94126, 2.01958, 1.94406, 2.04878, 2.03996, 2.02958, 2.04116, 2.03857, 2.03174, 2.03261, 2.03207, 1.95529, 2.0419, 1.95649, 2.04493, 2.03501, 1.9585, 2.04619, 2.0527, 2.05333, 1.95899, 2.03427, 2.03847, 2.03607, 1.95795, 1.95972, 2.0396, 2.03957, 2.04085, 1.89908, 2.09212, 1.89649, 1.94718, 1.94784, 2.0002, 1.89654, 1.89754, 1.90298, 1.90272, 1.90349, 1.90614, 2.08353, 2.07641, 1.90521, 1.9047, 1.90372, 1.90441, 1.9534, 2.08976, 1.90536, 1.90353, 1.95467, 1.90278, 1.90248, 1.96841, 1.93695, 1.82627, 1.82452, 1.86925, 2.10785, 1.81648, 1.81322, 1.80998, 1.81094, 1.85795, 1.92154, 1.80282, 1.90632, 1.80112, 1.80163, 1.85113, 1.80112, 1.79925, 1.79813, 1.79667, 1.89614, 1.79752, 1.79708, 1.79709, 1.92708, 1.91413, 1.91812
1.85599, 1.90617, 1.80433, 1.80173, 1.80253, 2.05818, 1.80239, 1.80049, 1.85136, 1.80041, 1.79736, 1.79792, 1.79689, 1.79822, 1.85103, 1.79779, 1.79747, 1.79581, 1.79359, 1.79533, 1.91029, 1.793, 1.90615, 1.79196, 1.88994, 1.89282, 1.78983, 1.79029, 1.79086, 1.79216, 1.86999, 1.86625, 1.86596, 1.9418, 1.94135, 1.94308, 1.94825, 1.9396, 2.02387, 1.94606, 1.93909, 1.95155, 2.02816, 1.93491, 1.95336, 1.93446, 1.93156, 1.93236, 1.9559, 1.9355, 1.85869, 1.86246, 1.94221, 1.94486, 1.94906, 1.96036, 2.06601, 2.01196, 2.01235, 2.01065, 2.01088, 1.93732, 1.9358, 1.93931, 2.01677, 1.93869, 2.01766, 2.01784, 1.94436, 2.02156, 2.04483, 2.04681, 2.04467, 2.01746, 1.94997, 2.0498, 2.028, 2.03102, 1.95748, 1.95718, 2.0494, 2.05485, 2.04718, 2.04808, 2.04497, 2.04318, 2.03292, 2.03232, 2.04942, 2.03422, 1.95895, 2.03836, 1.95902, 1.95849, 2.05845, 2.0385, 2.03932, 1.89722, 1.89781, 2.09294, 2.07261, 1.89906, 1.89897, 1.95204, 1.95071, 1.9676, 1.9968, 2.09707, 1.95568, 1.95267, 1.90287, 1.96306, 1.99374, 1.90575, 1.90321, 1.90349, 1.90493, 1.90153, 1.90358, 1.90118, 1.90265, 1.90134, 1.90239, 1.83088, 1.82448, 1.82387, 1.87189, 1.8176, 1.93419, 1.81341, 1.86114, 1.80704, 1.80692, 1.80567, 1.85397, 1.80279, 1.80368, 1.80088, 1.93535, 1.79992, 1.79745, 1.79655, 1.91552, 1.93106, 1.9261, 1.89903, 1.79661, 1.79383, 1.79459, 1.79202
1.90365, 1.80781, 1.8073, 1.80617, 1.80671, 2.05893, 1.80454, 1.8883, 1.80258, 1.79873, 1.80057, 1.79901, 1.8, 1.79813, 1.79726, 1.79754, 1.79773, 1.79771, 1.79724, 1.79612, 1.89275, 1.89692, 1.79587, 1.89745, 1.79337, 1.89757, 1.79415, 1.79629, 1.79574, 1.79648, 1.86529, 1.94211, 1.86853, 1.94443, 1.94208, 1.94957, 1.94027, 1.9391, 1.93987, 1.94175, 1.93757, 1.95109, 2.03059, 1.93419, 1.93336, 1.93247, 1.93365, 1.9309, 1.93234, 1.93416, 1.93599, 1.86098, 1.86511, 1.94601, 1.9618, 1.88203, 2.03711, 1.93696, 1.93948, 2.03119, 2.01309, 2.01473, 1.93976, 2.0163, 2.0165, 2.03524, 2.01877, 2.01897, 2.02156, 2.04493, 2.03794, 2.03185, 2.03825, 2.03546, 2.03038, 2.04233, 2.04157, 2.04162, 2.03189, 2.0316, 2.03422, 1.95843, 2.05352, 1.95712, 2.03601, 2.03734, 2.04947, 2.03705, 1.95886, 2.03448, 2.03547, 1.96004, 1.96136, 1.95998, 2.04485, 2.03941, 2.03848, 1.89919, 1.94909, 1.89866, 1.89711, 1.89854, 2.0778, 2.07625, 1.94976, 1.95033, 1.95443, 2.07544, 1.9539, 1.90623, 1.90594, 1.98477, 1.90681, 1.90356, 1.90395, 1.95501, 1.90299, 2.08947, 1.90135, 1.90162, 1.9509, 1.9527, 1.90657, 1.98151, 1.82758, 1.82467, 1.81886, 1.81429, 1.81592, 1.8136, 1.93502, 1.91289, 1.80662, 1.8042, 1.8037, 1.80228, 1.80327, 1.9318, 1.80114, 1.93953, 1.79619, 1.79995, 1.8489, 1.79753, 1.79889, 1.7975, 1.79738, 1.8486, 1.7957, 1.79566
1.81023, 1.80991, 1.81114, 1.80954, 1.80821, 1.80629, 1.80627, 1.80421, 1.8541, 1.85258, 1.80339, 1.80003, 1.98648, 2.06212, 1.9097, 1.89717, 1.84968, 1.8953, 1.79666, 1.79945, 1.7971, 1.79301, 1.90563, 1.7954, 1.79486, 1.79264, 1.79395, 1.8465, 1.79859, 1.79727, 1.94788, 1.94771, 1.87204, 1.94864, 1.94153, 1.94259, 1.94137, 1.94034, 1.95117, 1.93801, 1.93853, 1.95598, 1.85947, 1.85735, 1.93491, 2.03621, 1.9551, 2.03478, 1.93355, 1.85798, 1.8596, 1.93801, 1.96238, 1.96022, 1.95019, 1.96226, 1.89627, 2.01526, 2.02644, 1.9369, 2.01475, 1.93854, 1.93983, 1.94024, 1.94128, 1.94061, 2.01815, 2.04162, 2.03603, 2.04877, 2.02357, 2.04541, 2.03763, 2.0438, 2.04953, 2.03853, 2.03106, 1.95433, 1.95565, 2.05247, 2.03408, 2.0394, 1.957, 1.96093, 2.03459, 2.0491, 2.03983, 2.05172, 2.0428, 2.03504, 2.05597, 1.96195, 1.95923, 1.96205, 2.0412, 1.96234, 2.03908, 1.89675, 1.89805, 2.08079, 2.08969, 2.00445, 1.89908, 1.9505, 1.965, 1.90001, 1.90102, 1.90266, 1.90496, 1.905, 1.90452, 1.90417, 2.08464, 1.95224, 1.90457, 1.90308, 2.08078, 1.95161, 1.90294, 1.90413, 1.90303, 1.90101, 1.90289, 1.83343, 1.82647, 1.82361, 1.82023, 1.81796, 1.81615, 1.81354, 1.93277, 1.93282, 1.80404, 1.93379, 1.80444, 1.80377, 1.85162, 2.00354, 1.92674, 1.80175, 1.93119, 1.79786, 1.79734, 1.79887, 1.92827, 1.9256, 1.91637, 1.79668, 1.79467, 1.79529
1.81296, 1.81303, 1.80922, 1.81027, 1.80945, 2.06371, 1.8061, 1.80678, 1.80749, 1.80556, 1.80354, 1.80448, 1.80256, 1.80266, 1.80167, 1.80079, 1.90649, 1.90222, 1.79801, 1.80016, 1.98545, 1.7988, 1.89889, 1.90327, 1.79676, 1.79738, 1.79596, 1.79907, 1.79809, 1.80058, 1.86853, 1.87228, 1.94945, 1.86923, 2.02479, 1.94471, 1.94041, 1.94822, 1.93764, 1.93969, 1.95412, 1.93639, 1.95487, 1.9371, 1.85786, 1.95764, 1.93369, 1.95909, 1.93517, 1.93469, 1.96192, 1.86173, 2.04985, 1.96104, 2.03792, 2.05404, 2.0462, 2.02905, 2.01555, 2.01811, 2.01534, 1.93772, 2.0164, 2.01609, 2.02093, 2.01785, 2.02101, 1.94454, 2.03165, 2.03359, 2.06268, 2.02402, 2.02488, 2.02843, 2.02802, 2.02914, 2.04438, 2.03247, 2.04464, 2.05242, 2.04837, 2.03144, 2.05174, 2.03811, 2.04908, 2.05282, 2.04203, 2.03569, 2.05228, 2.04568, 2.04562, 1.95852, 1.95752, 1.96082, 2.04913, 2.04588, 2.03752, 1.90033, 1.90109, 1.90003, 1.94936, 1.89905, 1.89916, 2.08636, 2.07613, 1.90317, 1.90289, 1.90476, 1.90404, 2.09136, 1.90613, 1.90435, 1.90337, 1.90644, 2.06923, 1.90386, 1.90089, 2.08114, 1.89989, 1.89935, 2.07075, 2.07634, 2.07584, 1.82874, 1.82423, 1.9797, 1.9296, 1.81852, 1.98593, 1.80772, 1.81151, 1.91331, 1.80765, 1.9066, 1.90071, 1.93799, 1.79931, 1.79927, 1.80072, 1.79792, 1.79874, 1.93198, 1.79611, 1.79749, 1.92439, 1.88927, 1.79376, 1.84814, 1.79501, 1.84445
1.81618, 1.81618, 1.81104, 1.81269, 1.81291, 1.81019, 1.80887, 1.80701, 1.80684, 1.80635, 1.80645, 1.80491, 1.8052, 1.80328, 2.06287, 1.8031, 1.90634, 1.79996, 1.90482, 1.80267, 1.80003, 1.85046, 1.85118, 1.84977, 1.79844, 1.7975, 1.79957, 1.80006, 1.80154, 1.80335, 1.8712, 1.94943, 1.94925, 1.94273, 1.86906, 1.94811, 1.95216, 1.8637, 1.94089, 1.86378, 1.938, 1.93731, 1.95491, 1.95582, 1.85571, 1.93385, 1.93264, 1.96009, 1.93413, 1.9353, 1.93644, 1.93946, 1.86612, 1.9428, 1.95032, 2.05906, 2.05799, 1.93876, 1.94073, 2.01547, 2.01881, 2.01732, 2.0189, 2.02012, 2.02015, 2.01837, 2.02024, 1.94404, 1.94488, 1.9451, 2.03147, 2.04132, 2.04365, 1.95109, 1.95326, 2.03869, 2.05198, 2.03124, 2.03169, 2.03408, 2.03552, 2.05162, 1.95892, 1.95811, 2.03081, 2.04566, 1.95985, 2.0321, 2.04926, 2.03345, 1.95892, 1.95966, 1.95894, 1.9595, 1.96132, 2.04109, 2.05907, 1.90327, 1.90045, 1.94977, 2.00467, 1.99607, 1.90197, 1.89923, 1.9026, 1.90369, 1.90448, 1.90257, 1.905, 1.90135, 1.90491, 1.90429, 1.90302, 1.90325, 2.07611, 2.07617, 1.9014, 1.89827, 1.90069, 1.89772, 1.89919, 1.90046, 2.07696, 1.82829, 1.82763, 1.92944, 1.81805, 1.81681, 1.81491, 1.86209, 1.81003, 1.80728, 1.80599, 1.80398, 1.93022, 1.93632, 1.80302, 2.01317, 1.79861, 1.93408, 1.93507, 1.79812, 1.79717, 1.79538, 1.79288, 1.84742, 1.79866, 1.92269, 1.92047, 1.79603
1.89657, 1.8658, 1.86537, 1.81559, 1.8646, 1.8128, 1.8126, 1.81053, 1.81237, 1.81009, 1.80699, 1.80861, 1.80873, 1.80634, 1.8058, 1.80631, 1.80444, 1.80592, 1.80177, 1.80098, 1.85291, 1.85222, 1.80266, 1.80192, 1.80087, 1.98695, 1.98235, 1.80306, 1.80344, 1.80601, 2.02746, 1.87257, 1.94641, 1.95246, 1.9446, 1.95119, 1.94215, 1.94134, 1.94234, 1.95428, 1.93833, 1.95442, 1.93811, 1.93484, 1.93504, 1.8587, 2.03739, 1.93449, 1.93475, 1.93766, 1.93522, 1.86323, 1.94276, 2.05453, 1.87557, 1.96246, 2.04796, 2.02065, 2.01713, 2.02049, 2.02198, 2.02077, 1.93966, 2.02125, 1.94228, 2.02065, 2.03438, 2.04744, 2.01803, 1.94655, 2.04218, 2.02898, 2.02824, 1.9502, 1.95466, 2.03145, 2.03963, 2.04592, 2.03484, 2.03468, 2.03561, 2.03918, 1.95872, 2.05486, 1.95924, 2.03537, 2.0375, 2.05795, 2.04163, 2.03669, 2.03543, 2.03501, 1.9601, 1.95948, 2.03813, 1.96247, 2.03893, 1.90285, 1.95208, 1.99986, 1.90067, 2.08244, 1.89998, 1.90204, 1.90011, 1.90036, 1.9023, 1.90168, 1.90224, 1.90667, 1.905, 2.08968, 1.95505, 1.97874, 1.90175, 1.90054, 1.90127, 1.89957, 1.9001, 1.89996, 1.9474, 1.94886, 1.94618, 1.827, 1.82214, 1.82118, 1.93826, 1.8659, 1.93161, 1.81063, 2.00875, 1.80698, 1.85441, 1.80383, 1.85319, 1.80257, 1.79917, 1.80091, 1.91443, 1.79777, 1.79959, 1.84647, 1.91689, 1.84506, 1.93069, 1.79463, 1.79539, 1.85134, 1.9135, 1.79497
1.81877, 1.81857, 1.81669, 1.81627, 1.81449, 1.81445, 1.81317, 1.814, 1.91657, 1.8129, 1.8103, 1.91196, 1.80964, 1.80858, 1.80812, 1.92379, 1.8072, 1.80702, 1.90197, 1.80151, 1.85449, 1.85341, 1.85321, 1.80296, 1.85389, 1.90742, 1.80447, 1.80409, 1.80773, 2.06238, 2.0263, 1.95225, 1.9493, 1.87065, 1.8695, 1.95262, 1.95411, 1.9531, 1.93829, 1.93828, 1.9405, 1.86167, 1.96294, 1.93677, 1.96018, 2.04121, 1.85821, 1.93708, 1.93697, 1.9384, 1.8621, 1.9401, 1.94426, 1.94641, 2.0537, 2.05478, 2.0648, 1.94177, 2.02472, 2.01787, 2.01977, 1.94125, 1.94279, 2.02376, 2.02021, 2.03084, 2.02011, 2.01985, 1.94463, 2.02298, 2.02763, 1.95155, 1.95148, 1.95301, 1.95258, 2.05594, 2.03193, 1.95747, 2.04599, 2.05945, 2.04275, 2.04564, 2.04175, 2.03785, 2.06013, 2.04575, 2.05205, 2.04202, 2.0499, 2.03824, 2.03647, 2.03585, 1.96175, 1.96041, 1.96081, 2.06528, 2.04081, 1.90439, 1.89783, 1.90353, 2.07277, 2.08341, 1.89781, 1.89958, 1.95842, 1.90054, 1.90189, 1.90352, 1.90298, 1.90274, 1.90118, 1.90361, 1.90273, 1.95304, 2.08328, 1.95201, 1.95278, 2.07166, 2.0715, 2.08027, 1.94858, 1.89691, 1.94774, 1.96449, 1.82246, 1.81801, 1.81627, 1.86816, 1.86321, 1.80984, 1.81025, 1.80694, 1.92427, 1.91759, 1.9144, 1.80362, 1.80115, 1.79952, 1.9371, 1.79623, 1.79555, 1.84832, 1.84752, 1.8474, 1.79615, 1.79523, 1.85738, 1.85381, 1.92508, 1.7931
1.81757, 1.81981, 1.82058, 1.81819, 1.81463, 1.81461, 1.81718, 1.81652, 1.81393, 1.81402, 1.81382, 1.86278, 1.8104, 1.81179, 1.91377, 1.81018, 1.8104, 1.9908, 1.80413, 1.80649, 1.80601, 1.91418, 1.91023, 1.80576, 1.80411, 1.80559, 1.80628, 1.80685, 1.80681, 1.80846, 1.95458, 2.03003, 1.9475, 1.95304, 1.95506, 2.03126, 2.04123, 1.9443, 2.04142, 1.95749, 1.8624, 1.94047, 1.94077, 1.93773, 1.93598, 1.9349, 1.85942, 1.93695, 1.93412, 1.96554, 1.96587, 1.94066, 1.94532, 1.95138, 1.95583, 2.04666, 2.04551, 2.02114, 2.02201, 2.03221, 2.02041, 2.01688, 1.94412, 2.01986, 2.0205, 2.02075, 2.03108, 2.02103, 2.02778, 2.02251, 2.02891, 1.9515, 2.03941, 2.04387, 2.03598, 2.04348, 2.04919, 2.04168, 2.04852, 2.03377, 2.05089, 2.05158, 2.03687, 2.04606, 2.04664, 2.04542, 1.96009, 2.03682, 2.05216, 1.96203, 2.03992, 2.03744, 2.03998, 2.04061, 2.03956, 2.05636, 2.04089, 1.90416, 1.90314, 2.08328, 1.9009, 1.90008, 1.90008, 1.90295, 1.90024, 1.9587, 1.95227, 1.90448, 1.98551, 2.08325, 1.90288, 1.90444, 1.90015, 1.89975, 1.89957, 1.95145, 1.95157, 1.8992, 1.89792, 1.89419, 1.89987, 1.94764, 1.94804, 1.82358, 1.82103, 1.81928, 1.92364, 1.81371, 1.81165, 1.86038, 1.85806, 1.80763, 1.80507, 1.8037, 1.85405, 1.80319, 1.80175, 1.79997, 1.79743, 1.79785, 1.94132, 1.79723, 1.79629, 1.93533, 1.79744, 1.79445, 1.79774, 1.91433, 1.79684, 1.79646
1.82379, 1.82229, 1.8219, 1.82215, 1.82033, 1.86825, 1.81689, 1.91546, 1.81534, 1.8152, 2.09053, 1.81644, 1.91115, 1.81459, 1.81525, 1.81181, 1.81155, 1.81038, 1.81003, 1.80988, 1.91053, 1.8081, 1.80783, 2.06634, 1.80643, 1.80607, 1.91161, 1.80797, 1.81093, 1.81121, 1.87589, 1.95407, 1.9553, 1.94901, 1.94783, 1.95641, 1.94567, 1.94376, 1.94201, 1.94234, 1.8634, 1.94417, 1.8615, 1.96369, 1.93565, 2.0556, 1.93451, 1.93536, 1.9672, 1.9402, 1.94194, 1.94139, 1.94476, 1.97004, 1.95604, 1.96794, 1.90314, 1.94453, 1.94319, 2.01911, 1.94259, 1.94265, 1.94274, 2.02365, 2.02523, 2.03858, 2.02183, 2.02646, 2.04215, 2.03664, 2.02715, 2.04773, 1.95111, 1.95304, 2.03088, 2.03231, 2.03867, 2.03795, 2.04194, 1.95994, 2.03616, 2.03714, 2.05534, 2.04143, 1.96107, 2.04946, 2.03792, 2.0516, 2.05102, 1.96164, 2.03861, 2.03818, 2.03939, 2.04354, 2.04129, 2.05979, 2.04765, 1.90281, 1.90189, 1.89812, 1.9533, 1.89904, 1.9011, 1.9002, 1.90029, 1.90351, 1.90234, 1.95429, 1.95435, 1.90135, 1.90435, 1.90232, 1.9031, 1.90262, 1.90261, 1.90008, 1.89873, 1.89973, 1.89689, 1.89279, 1.89697, 2.06926, 1.89549, 1.82433, 1.82037, 1.82026, 1.81765, 1.81385, 1.81002, 1.92099, 1.80744, 1.80682, 1.80561, 1.80307, 1.8796, 1.80326, 1.80003, 1.93062, 1.79715, 1.79936, 1.92974, 1.79663, 1.79847, 1.79638, 1.79803, 1.79927, 1.84817, 1.84621, 1.79726, 1.91785
1.82465, 1.82525, 1.82555, 1.82438, 1.8725, 1.82058, 1.82042, 1.81759, 1.81845, 1.81656, 2.09095, 1.81658, 1.81499, 1.81543, 1.81536, 1.81441, 1.81081, 1.81009, 1.90903, 1.90091, 1.80685, 1.99297, 1.91159, 1.91257, 1.80941, 1.80981, 1.80943, 1.81025, 1.80975, 1.81173, 2.03237, 2.03583, 1.9526, 1.9482, 1.95009, 1.87097, 1.96266, 1.94278, 1.94456, 1.86587, 1.86586, 1.9416, 1.94064, 1.938, 1.93824, 1.93775, 1.93731, 1.93776, 1.93809, 1.86231, 1.94056, 1.96956, 2.04842, 1.97204, 1.95648, 1.96867, 2.07425, 2.02058, 2.02048, 2.03489, 2.02376, 1.94189, 1.94494, 2.02464, 2.02137, 2.03911, 2.02146, 2.02413, 2.02609, 2.03445, 2.03487, 2.0544, 2.05019, 2.03969, 2.03139, 2.03043, 1.95732, 2.05554, 2.03446, 1.95918, 1.96387, 1.9605, 1.96112, 2.03852, 2.04498, 2.05532, 1.96343, 2.04207, 2.05098, 1.96217, 1.96187, 2.0385, 2.03875, 1.96338, 2.04451, 2.04515, 2.049, 1.99278, 2.06762, 1.90133, 1.95795, 1.95816, 1.89906, 1.89936, 1.99199, 1.95824, 1.95933, 1.9031, 2.07915, 2.08436, 1.90282, 1.90166, 1.90414, 1.90158, 2.07039, 1.90032, 2.0843, 1.9835, 1.89718, 1.89549, 1.89484, 1.89433, 1.89301, 1.82263, 1.93391, 1.92716, 1.81472, 1.81583, 1.81263, 1.92394, 1.80932, 1.80624, 1.92761, 1.80011, 1.80378, 1.85069, 1.80047, 1.80002, 1.79877, 1.79681, 1.79763, 1.79666, 1.79607, 1.79379, 2.12351, 1.92534, 1.79438, 1.84771, 1.92152, 1.91839
1.91682, 1.82776, 1.82444, 1.82455, 1.82466, 1.82156, 1.87327, 1.82106, 1.81819, 1.81846, 2.08642, 1.81645, 1.81594, 1.81587, 1.8652, 1.88168, 1.81372, 1.81588, 1.91037, 1.86266, 1.81318, 1.93761, 1.81166, 1.86174, 1.81286, 1.81217, 1.81182, 1.81135, 2.06899, 1.81311, 1.87905, 2.03544, 1.95317, 1.95276, 1.95896, 1.95895, 1.87054, 1.94594, 1.96276, 1.94249, 1.94284, 1.94138, 1.94101, 1.93881, 1.86188, 1.93578, 1.96821, 1.86105, 1.96838, 1.93799, 1.94196, 1.86696, 1.87265, 1.97249, 1.95961, 1.88642, 2.06665, 2.03198, 2.02369, 2.02343, 2.02247, 2.02476, 2.02098, 1.94476, 2.02762, 2.02191, 2.02865, 2.04267, 1.94971, 2.04664, 2.03282, 2.02056, 2.0288, 1.95578, 1.9568, 2.03189, 2.03794, 1.95909, 2.05119, 2.04506, 2.03448, 2.05255, 2.05532, 2.0589, 2.03494, 2.0409, 2.04204, 1.96269, 2.05903, 2.055, 2.04221, 2.04529, 2.04165, 2.04489, 2.04423, 2.03986, 2.05557, 1.90592, 1.90231, 1.99943, 1.90325, 1.9494, 1.89914, 1.99932, 1.89839, 1.95868, 1.9582, 1.90289, 1.90297, 1.90279, 1.90376, 1.90272, 2.08044, 1.90068, 1.95156, 1.8996, 1.89798, 1.89619, 1.99044, 1.89427, 2.07732, 1.89442, 1.89215, 1.92612, 1.81828, 1.81753, 1.86308, 1.86226, 1.86015, 1.92372, 1.92107, 1.8035, 1.80608, 1.80277, 1.92257, 1.924, 1.8005, 1.92962, 1.99828, 1.79861, 1.79763, 1.92994, 1.90441, 1.79709, 1.79579, 1.84684, 1.79864, 1.90682, 1.79571, 1.79771
1.91733, 1.827, 1.82709, 1.82911, 1.82475, 1.82471, 1.82686, 1.82322, 1.82018, 1.8204, 1.8211, 1.81913, 1.81671, 1.81795, 1.86795, 1.81695, 1.81775, 1.81537, 1.814, 1.91736, 1.91398, 1.81267, 1.81589, 1.81293, 1.81099, 1.81373, 1.81415, 1.9901, 1.97481, 1.9793, 1.9621, 1.958, 1.95254, 1.96034, 1.95186, 1.94943, 1.94724, 1.86915, 1.94502, 2.04087, 1.94454, 1.96853, 1.96849, 1.96883, 1.8633, 1.86379, 1.93807, 1.97, 1.93808, 1.94068, 1.86551, 1.86811, 1.94986, 1.97262, 1.97222, 1.97163, 2.05796, 2.0394, 2.03025, 2.02391, 2.02688, 2.02686, 1.94578, 1.94865, 2.02533, 2.03798, 2.0391, 2.05667, 2.02156, 2.03541, 1.95064, 2.05488, 2.0415, 2.03189, 1.95808, 2.03263, 2.03116, 2.04799, 2.04926, 2.0389, 2.04514, 2.05153, 2.05399, 1.96321, 1.96201, 2.04466, 2.05391, 2.04895, 2.04279, 2.05276, 2.03992, 2.043, 2.04086, 2.04501, 2.04482, 2.04287, 2.04117, 2.07386, 2.07322, 1.9008, 1.90041, 1.90003, 1.89936, 1.90021, 1.89899, 1.89975, 2.07552, 1.90005, 1.90103, 1.90392, 1.95436, 2.07459, 2.09074, 1.90242, 1.90315, 1.9005, 1.89897, 1.89631, 1.89393, 1.89413, 2.0928, 1.89314, 1.89433, 1.87221, 1.81727, 1.81376, 1.86503, 1.92362, 1.86023, 1.90488, 1.859, 1.85663, 1.80511, 1.80344, 1.80242, 1.89321, 1.89637, 1.89289, 1.9267, 1.85096, 1.79714, 1.8489, 1.79405, 1.79605, 1.84752, 1.84893, 1.84684, 1.90685, 1.79593, 1.79547
1.83201, 1.83109, 2.08298, 1.83068, 1.83095, 2.10302, 1.82578, 1.82529, 1.82394, 1.82359, 1.82007, 1.82179, 2.10141, 2.07678, 1.81987, 1.82043, 1.90596, 1.81851, 1.81695, 1.81727, 1.81733, 1.8671, 1.81656, 1.935, 1.86617, 1.81641, 1.81516, 1.81731, 1.81529, 1.86861, 1.96086, 1.95551, 1.9616, 1.95123, 1.96214, 1.94949, 1.94829, 1.94667, 1.96865, 1.86697, 1.94455, 1.94228, 1.93998, 1.96971, 1.97163, 1.86352, 2.04823, 2.05998, 1.94196, 1.94389, 1.94461, 1.94577, 1.97581, 1.97682, 1.88456, 2.05224, 1.90738, 2.04165, 2.04847, 2.02502, 2.04383, 1.94947, 1.94522, 1.94677, 2.02603, 2.02401, 2.04737, 2.04681, 1.94974, 2.04402, 2.04504, 2.04247, 2.03293, 2.03182, 1.95685, 2.03544, 2.03457, 2.0601, 2.0487, 2.03979, 2.05871, 2.06257, 2.03788, 2.04069, 2.05288, 1.96442, 2.04907, 2.04188, 2.04276, 2.04779, 2.045, 2.04797, 2.04908, 2.04494, 2.04172, 1.96507, 2.06987, 1.90215, 1.90421, 1.90051, 1.94904, 1.89703, 1.89701, 1.89722, 1.89712, 1.89607, 1.89919, 2.09827, 1.95453, 1.90355, 1.90332, 2.08258, 1.90395, 1.90411, 1.90322, 1.90131, 2.09863, 1.89632, 1.89583, 1.89607, 1.89182, 1.89135, 1.88996, 1.87265, 1.91635, 1.81498, 1.81158, 1.81206, 1.90813, 1.90636, 1.85854, 1.8562, 1.85311, 1.9194, 1.80359, 1.80022, 1.85125, 1.79952, 1.79818, 1.79711, 1.79689, 1.79842, 1.9135, 1.7933, 1.7963, 2.10104, 1.92364, 1.79701, 1.79712, 1.91564
1.83289, 1.83732, 1.83472, 1.83369, 1.83163, 2.08698, 1.82557, 2.08478, 1.8269, 2.08413, 1.82528, 1.82302, 1.82371, 2.00302, 1.82372, 1.81946, 1.82153, 1.82067, 1.92007, 1.86885, 1.9126, 1.81777, 1.86811, 1.91724, 1.81761, 1.99382, 1.81937, 1.86724, 1.82039, 1.9903, 2.04124, 1.96333, 1.95455, 1.95515, 1.95333, 1.95338, 1.87487, 1.96642, 1.9686, 1.94454, 1.94436, 1.94214, 1.94059, 1.94187, 1.94085, 1.94093, 1.93953, 1.94129, 1.94064, 1.9419, 1.86859, 1.97543, 1.97619, 1.95484, 1.97525, 1.88919, 2.08609, 2.02711, 2.023, 2.02714, 2.02494, 2.02675, 1.94708, 2.02488, 2.02733, 2.03198, 2.03662, 2.03917, 1.95165, 2.04907, 2.05258, 1.95482, 2.05028, 2.03428, 2.0348, 2.06234, 2.039, 2.05983, 2.03789, 2.06604, 2.03838, 2.04006, 2.06221, 2.03769, 2.04108, 1.96524, 1.96535, 2.04819, 1.96386, 2.04201, 2.06041, 2.04258, 2.04832, 2.0455, 2.04337, 2.04526, 1.96685, 1.90362, 1.95174, 1.89958, 1.95098, 1.89712, 1.89737, 1.89664, 2.09315, 1.89818, 1.89864, 2.0963, 1.90316, 2.09075, 2.08345, 1.99736, 1.95567, 1.95467, 2.08621, 2.0727, 1.8997, 1.94862, 1.94648, 1.94369, 1.89226, 1.9411, 1.82658, 1.81878, 1.81897, 1.81626, 1.81358, 1.92403, 1.80978, 1.80784, 1.80771, 1.80591, 1.80584, 1.91371, 1.80427, 1.80028, 1.80052, 1.90693, 1.84758, 1.79611, 1.79645, 1.79557, 1.89647, 1.79339, 1.79354, 1.79653, 1.79382, 1.79606, 1.79644, 1.79543
1.91896, 1.88696, 1.88616, 1.83146, 1.92608, 1.83064, 1.83063, 1.82802, 1.91346, 1.82766, 1.92287, 1.9241, 2.08564, 1.82664, 1.82409, 1.82357, 1.8198, 1.82249, 1.82169, 1.81975, 1.91864, 1.9204, 1.8174, 1.86955, 1.92107, 1.91982, 1.82026, 1.82134, 1.99002, 1.82098, 1.96465, 1.95836, 1.96195, 1.9535, 1.95447, 1.95234, 1.95132, 1.96952, 1.97141, 1.94921, 1.94635, 1.94214, 1.97292, 1.97577, 1.97592, 1.94215, 1.86519, 1.86485, 1.94266, 1.94527, 1.9483, 1.94787, 1.95455, 1.87954, 1.96378, 1.96919, 2.05303, 2.06152, 2.04633, 2.02726, 2.02825, 2.03148, 1.95194, 2.02829, 2.0318, 2.02816, 2.02788, 2.04858, 2.04879, 1.95454, 2.05487, 2.04778, 2.05859, 2.05911, 2.05546, 2.05304, 2.03751, 2.03807, 1.96226, 2.06767, 2.0414, 2.04093, 2.03979, 2.04968, 2.04325, 2.05049, 1.96289, 2.05205, 2.05679, 2.04493, 2.04234, 2.04905, 2.05136, 2.04879, 2.04444, 1.96597, 2.06996, 1.95324, 1.95176, 1.95077, 2.02139, 1.94864, 1.9938, 1.8967, 1.89821, 2.00128, 1.89762, 1.89997, 1.90261, 2.08819, 1.90292, 1.90621, 1.90582, 1.90589, 1.9049, 1.90184, 1.89852, 2.08565, 1.94751, 1.89454, 2.06916, 1.88941, 1.88683, 1.821, 1.82021, 1.81482, 1.81461, 1.81361, 1.80922, 1.9039, 1.907, 1.806, 1.8016, 1.80355, 1.80061, 1.85148, 1.84994, 1.90324, 1.79934, 1.79742, 1.79742, 1.79393, 1.79612, 1.79274, 1.79584, 1.92369, 1.90292, 1.79576, 1.79631, 1.84522
1.88769, 1.88887, 1.83427, 1.83517, 1.83364, 1.88301, 1.88345, 2.10856, 1.83106, 1.93068, 1.83095, 1.82888, 1.8286, 1.82458, 1.82484, 1.82529, 1.92615, 1.92352, 1.92446, 2.08449, 1.82137, 2.00039, 1.82329, 1.82111, 1.87159, 1.87139, 1.82177, 1.82291, 1.99328, 1.87272, 1.95978, 1.96894, 1.95891, 1.96764, 2.04817, 2.05281, 1.95321, 1.95198, 1.97151, 1.87058, 1.94523, 1.94874, 1.94171, 1.97689, 1.97669, 1.97855, 1.94108, 1.94157, 2.05479, 1.86901, 1.9448, 2.05558, 1.95218, 2.05642, 1.97893, 2.05594, 2.05921, 2.02852, 2.02757, 2.03947, 2.03093, 1.95027, 1.95192, 1.95015, 2.03782, 2.04435, 2.02814, 2.02958, 2.0484, 2.04262, 2.04235, 2.03901, 2.04469, 1.95939, 2.05192, 1.96276, 2.04688, 1.96298, 1.96324, 2.03955, 2.04093, 2.05174, 2.05764, 2.05516, 2.04119, 1.96602, 2.04245, 2.04231, 2.04413, 1.96555, 1.96593, 2.04765, 2.04756, 2.04632, 2.04335, 2.04278, 1.96677, 1.90099, 1.95247, 2.00131, 1.897, 1.8989, 2.00133, 1.898, 1.89727, 1.8963, 1.89766, 1.95016, 1.90104, 1.90239, 1.90416, 1.90428, 1.90618, 1.96305, 2.09726, 1.90112, 1.8988, 1.89671, 1.89519, 1.89121, 1.89139, 1.89078, 1.8267, 1.92417, 1.90701, 1.86599, 1.81411, 1.81148, 1.86159, 1.89405, 1.80779, 1.80967, 1.90366, 1.80088, 1.80257, 1.80026, 1.9084, 1.7975, 1.79712, 1.79499, 1.92415, 1.79534, 1.84579, 1.84647, 1.92087, 1.79342, 1.79405, 1.796, 1.9151, 1.79608
2.12482, 2.09399, 1.84093, 1.84092, 1.88944, 1.83577, 1.83634, 1.83418, 1.83455, 1.9344, 1.93224, 1.832, 1.8801, 1.8276, 1.82947, 1.8245, 1.82541, 1.91917, 1.82558, 1.93129, 1.8206, 1.92354, 1.92085, 1.82652, 1.81979, 1.87296, 1.87409, 1.82412, 1.82533, 2.00056, 2.04761, 1.95964, 1.96204, 1.97064, 1.97238, 1.87877, 1.9546, 1.95204, 1.87413, 1.86986, 1.86933, 1.94667, 1.86777, 1.86686, 1.94674, 1.94784, 1.9426, 1.98007, 1.94749, 1.94473, 2.06647, 1.94931, 1.95137, 2.05885, 1.88664, 1.98083, 2.06692, 2.04893, 2.03153, 2.03232, 1.95464, 1.95319, 1.95474, 1.95187, 2.0303, 2.02948, 2.05154, 2.04502, 2.03204, 2.05592, 2.02588, 1.95827, 2.05577, 2.0446, 1.96163, 1.96283, 1.96297, 2.06553, 1.96573, 2.04116, 2.04215, 2.05877, 2.04782, 2.04773, 2.05136, 2.04486, 2.0426, 2.04307, 2.04237, 2.04766, 2.04236, 2.04431, 2.04842, 2.04914, 2.04457, 2.06391, 2.07156, 1.90271, 2.10154, 1.89925, 1.99325, 1.89954, 1.89475, 1.89702, 1.89671, 1.89631, 1.9476, 1.94833, 1.94947, 1.90376, 1.90047, 2.07438, 2.07514, 2.07185, 1.99107, 1.89908, 1.89843, 1.89349, 2.07237, 1.89282, 1.89271, 1.88986, 1.82343, 1.82028, 1.91453, 1.81617, 1.81418, 1.81286, 1.80979, 1.9, 1.80905, 1.80772, 1.8035, 1.86062, 1.80218, 1.85047, 1.84862, 1.7968, 1.79373, 1.79563, 1.91951, 1.79404, 1.79397, 1.92244, 1.79326, 1.79673, 1.79638, 1.79371, 1.91382, 1.79565
1.84188, 1.84266, 1.84332, 1.93659, 1.89007, 1.84055, 1.83821, 1.83826, 1.83827, 1.83432, 1.8319, 1.83359, 1.83295, 1.92768, 1.83, 1.82772, 1.82909, 1.8253, 1.91668, 1.87413, 1.8231, 1.82355, 1.92622, 1.82419, 1.9253, 1.82503, 1.87485, 1.82541, 1.82699, 1.82808, 1.96287, 1.96232, 1.96454, 1.97327, 1.95798, 2.05496, 2.05493, 2.05485, 1.97888, 1.97911, 1.97867, 1.9464, 1.94739, 1.86915, 1.94554, 1.94529, 1.98106, 1.94773, 1.94417, 2.05893, 1.94895, 1.98361, 1.87666, 1.95862, 1.96546, 1.97998, 2.07578, 2.04805, 2.05723, 2.04502, 1.95493, 1.95484, 1.95344, 2.03393, 2.03222, 2.03277, 2.03214, 2.03534, 2.0332, 2.03142, 2.0348, 2.03462, 2.04625, 1.96167, 1.96151, 1.96336, 2.05527, 2.04433, 2.04062, 2.05346, 2.05324, 1.96535, 2.04421, 2.05015, 2.05825, 2.04808, 2.05447, 2.04866, 2.04406, 2.04595, 2.0582, 2.0447, 2.04918, 2.052, 2.04884, 2.04536, 2.06232, 1.95793, 1.89833, 1.89982, 1.89986, 1.89516, 1.89618, 1.89858, 1.89705, 1.89639, 1.94846, 1.89894, 1.94893, 1.90228, 1.90259, 1.90229, 1.90179, 1.90155, 2.10087, 1.899, 1.89893, 1.94704, 1.89364, 2.07943, 1.89231, 1.89046, 1.87662, 1.82432, 1.81659, 1.86617, 1.81652, 1.81112, 1.80874, 1.8082, 1.80729, 1.80403, 1.80409, 1.89678, 1.8019, 1.85061, 1.84925, 1.7973, 1.79911, 1.88507, 1.84603, 1.79581, 1.79553, 1.92083, 1.7955, 1.91872, 1.79473, 1.79485, 1.79236, 1.79297
2.0975, 1.84619, 1.84257, 1.84491, 1.84584, 1.89239, 1.93613, 1.84404, 2.10639, 2.11548, 1.83658, 1.83741, 1.83265, 1.83686, 1.83399, 1.83022, 1.87902, 1.82819, 1.87939, 1.87861, 1.82629, 1.82696, 1.82515, 1.82753, 1.8274, 2.00681, 1.82679, 1.82531, 1.91685, 1.82765, 1.96419, 1.88688, 2.05215, 1.97544, 2.05539, 1.97813, 1.95437, 1.87879, 1.95216, 1.97939, 1.98004, 1.94957, 1.95067, 1.8696, 1.94727, 1.98408, 1.94557, 1.98587, 1.94673, 1.94766, 1.98638, 1.95113, 1.95453, 1.8855, 1.89145, 2.06024, 2.07556, 1.95836, 2.04272, 1.95657, 2.03469, 1.95469, 2.03438, 2.0375, 1.95528, 2.03268, 2.05914, 2.05281, 2.05175, 1.9595, 2.04377, 2.07287, 1.96131, 1.96215, 2.05265, 1.96493, 2.05649, 2.0564, 2.04431, 2.04328, 2.04764, 2.05966, 1.96719, 2.0759, 2.06211, 2.04156, 2.05896, 1.96764, 2.04496, 2.05655, 1.9676, 2.0464, 2.0413, 2.05292, 1.96707, 2.04794, 2.04539, 2.07876, 1.90058, 1.89944, 1.89775, 2.00021, 1.896, 2.07917, 1.89549, 1.895, 1.89822, 1.89944, 1.99926, 2.07642, 1.90264, 1.90371, 1.90199, 2.0801, 1.9515, 1.89792, 1.94824, 1.89551, 1.89338, 1.89142, 1.89236, 1.88932, 1.82525, 1.82381, 1.81942, 1.81639, 1.81473, 1.86176, 1.8596, 1.89406, 1.89762, 1.80505, 1.80389, 1.9096, 1.90902, 1.91596, 1.79894, 1.79994, 1.92145, 1.7997, 1.79407, 1.79561, 1.91706, 1.84445, 1.79309, 1.91003, 1.79592, 1.88913, 1.79309, 1.7927
1.97155, 1.8493, 1.84809, 1.84852, 1.84696, 1.8447, 1.84203, 1.83951, 1.84088, 1.88945, 1.88952, 1.8889, 1.8351, 1.83533, 1.8343, 1.83266, 1.83124, 1.89268, 1.87996, 1.82782, 1.825, 1.82694, 1.82428, 1.92818, 1.8264, 1.82555, 1.8264, 1.8283, 1.83065, 1.87985, 1.96697, 1.96475, 1.88637, 1.88577, 1.95934, 1.95725, 1.87903, 1.95604, 1.95241, 1.95155, 1.9514, 1.95025, 1.98645, 1.9856, 1.94541, 1.86847, 1.98374, 1.94727, 1.98619, 1.87283, 1.95426, 1.98585, 1.88233, 2.07229, 1.89293, 2.06564, 1.9167, 2.03571, 1.95856, 2.06993, 1.95763, 2.03816, 1.95655, 2.04366, 2.03953, 2.03496, 2.03478, 1.95803, 2.03458, 2.06843, 2.03769, 2.03555, 2.04017, 2.03441, 2.04541, 2.06622, 1.96636, 2.05618, 1.96482, 2.05691, 2.05686, 2.04868, 2.06862, 2.04503, 2.04483, 2.05221, 2.05188, 2.05883, 2.04747, 2.06438, 2.04519, 2.04594, 2.04936, 2.04569, 2.05191, 2.04555, 2.05662, 1.90202, 2.09284, 1.90013, 1.90005, 1.99786, 1.99088, 1.89708, 1.89615, 1.89844, 1.89985, 2.0795, 1.90243, 1.9004, 1.89967, 1.90357, 1.90243, 1.90261, 1.90145, 1.99347, 1.89935, 1.89768, 1.8963, 1.89358, 1.89023, 1.88854, 1.82516, 1.8204, 1.91195, 1.81458, 1.81362, 1.81079, 1.80822, 1.9005, 1.80607, 1.80359, 1.80372, 1.80227, 1.90557, 1.79881, 1.79885, 1.92136, 1.79446, 1.79575, 1.92352, 1.79585, 1.79623, 1.84477, 1.92239, 1.79421, 1.91713, 1.79245, 1.91242, 1.91269
1.85126, 2.02123, 1.85004, 1.84933, 1.84944, 1.8457, 1.84703, 1.84424, 2.10411, 1.84237, 1.89024, 2.00384, 1.83923, 1.83483, 1.83764, 1.94045, 1.83449, 1.8324, 1.93918, 1.8306, 1.92714, 2.01657, 1.93228, 1.9185, 1.82793, 2.01221, 1.82775, 1.83039, 1.87984, 1.88026, 1.89049, 1.96667, 1.97999, 1.98046, 1.96188, 1.88239, 1.95899, 1.95475, 1.95519, 1.95502, 1.95172, 1.95137, 1.94817, 1.94817, 1.98818, 1.9876, 1.9463, 1.94882, 1.95124, 2.06719, 1.87524, 1.9564, 1.95858, 2.0806, 1.9691, 1.97075, 2.07192, 2.05747, 2.0411, 2.0622, 1.95862, 2.0382, 2.04293, 2.04099, 2.04064, 2.03587, 2.03521, 2.06498, 2.05264, 1.96139, 2.05583, 2.04295, 2.04853, 1.96561, 1.96668, 2.04445, 2.04492, 2.05688, 2.0514, 1.96793, 2.05911, 2.05954, 2.06191, 2.04575, 2.04371, 2.04925, 1.96841, 2.09295, 2.04338, 1.96877, 2.04734, 2.04596, 2.04771, 2.04869, 2.04425, 2.05884, 2.06099, 2.08772, 2.10123, 2.08352, 1.89936, 2.08493, 1.89759, 1.89896, 2.09965, 1.89852, 1.89681, 1.89844, 1.90001, 1.89973, 1.89789, 1.90215, 1.89967, 2.07295, 2.07103, 1.90047, 1.89632, 1.89601, 1.89504, 1.89261, 1.88992, 1.94146, 1.82529, 1.87229, 1.81693, 1.81389, 1.8972, 1.81126, 1.81029, 1.85766, 1.89621, 1.8038, 1.80288, 1.8017, 1.79736, 1.7967, 1.91391, 1.79851, 1.87282, 1.79455, 1.91597, 1.79685, 1.9171, 1.79597, 1.79525, 1.79406, 1.79328, 1.79196, 1.79318, 1.91025
1.85443, 1.85517, 1.90263, 1.90187, 1.94753, 1.94843, 1.84774, 1.89641, 1.84675, 1.84564, 1.89473, 1.89195, 1.8421, 1.83858, 1.83744, 1.93575, 1.88706, 1.94134, 1.83352, 1.93918, 1.88209, 1.93356, 1.88056, 1.88031, 1.87922, 1.82884, 2.00745, 2.0136, 2.09099, 2.00221, 1.96849, 1.98308, 1.9827, 1.96563, 1.96234, 1.9621, 1.95847, 1.88022, 1.95491, 1.95324, 1.98698, 1.98797, 1.87463, 2.06496, 1.98957, 1.94845, 1.98683, 1.98896, 1.94996, 1.8755, 1.87667, 2.06757, 1.99004, 1.88661, 1.96891, 1.99056, 2.07403, 2.05909, 2.06124, 2.05847, 1.96232, 2.03934, 2.03665, 2.04291, 2.03658, 2.05851, 2.05578, 2.03832, 2.04038, 1.96323, 1.96178, 2.05268, 2.04877, 2.03813, 1.96547, 2.0524, 2.05429, 2.05473, 2.05611, 2.05243, 1.96913, 2.05034, 2.06431, 2.04622, 1.96826, 2.05365, 2.05547, 2.05336, 2.04427, 2.04612, 2.0451, 2.04745, 2.04874, 2.05154, 2.05526, 2.04815, 2.04476, 1.90285, 1.89989, 1.89811, 1.89743, 1.89805, 1.89676, 2.00153, 2.09648, 1.94745, 1.94816, 1.94843, 1.89984, 1.90076, 2.089, 1.90043, 1.89974, 1.89976, 1.8992, 1.89815, 1.89755, 1.89624, 1.89391, 1.89156, 1.89037, 1.94369, 1.8259, 1.9033, 1.9129, 1.90965, 1.92825, 1.80985, 1.80676, 1.80573, 1.80228, 1.80314, 1.9111, 1.90972, 1.79485, 1.79958, 1.79617, 1.8903, 1.84502, 1.79675, 1.79562, 1.92098, 1.79186, 1.92005, 1.79321, 1.90386, 1.91713, 1.79363, 1.84426, 1.79248
1.88232, 1.85587, 1.94199, 1.90661, 1.85288, 1.85321, 1.95125, 1.84993, 1.84828, 1.84581, 1.8434, 1.84426, 1.84431, 1.84111, 1.83959, 1.94009, 1.83765, 1.83771, 1.94813, 1.83227, 1.83214, 1.93039, 1.88333, 1.92337, 1.99789, 1.82922, 1.93464, 1.83218, 1.83125, 1.83256, 1.98319, 1.97128, 1.96924, 1.98702, 1.986, 1.96364, 2.08222, 1.98647, 1.96199, 1.95474, 2.06521, 1.95942, 1.9491, 1.95019, 1.95426, 1.95023, 1.95098, 1.9509, 1.94995, 2.08307, 1.95569, 1.95962, 1.96194, 1.96648, 1.99376, 2.08392, 2.08286, 2.07347, 2.04131, 2.0689, 1.96186, 2.03555, 1.96332, 1.96253, 2.04459, 2.04457, 2.03891, 2.04013, 2.05495, 2.05008, 2.05521, 1.96535, 2.05161, 2.05832, 2.05358, 2.05255, 2.055, 2.0448, 2.05525, 1.96947, 2.06541, 2.06377, 2.05437, 2.07042, 2.04592, 2.05792, 2.05992, 2.05914, 2.0454, 2.04702, 2.04655, 2.04793, 2.0497, 2.04822, 2.05005, 1.97017, 2.0582, 1.90152, 1.90039, 1.89713, 1.89835, 1.89936, 1.9992, 1.89863, 1.89746, 1.89905, 1.89597, 1.94813, 1.89763, 1.89722, 1.89978, 1.89963, 2.09481, 1.99101, 1.89691, 1.89909, 2.07226, 1.89698, 1.89567, 1.89354, 1.89139, 1.88985, 1.87388, 1.90738, 1.81543, 1.81384, 1.81011, 1.8823, 1.80699, 1.80463, 1.80291, 1.91065, 1.79837, 1.91338, 1.91753, 1.9148, 1.79963, 1.79522, 1.84493, 1.91434, 1.79436, 1.84648, 1.79373, 1.79157, 1.79428, 1.91518, 1.79405, 1.79391, 1.79185, 1.79269
1.85687, 1.85818, 1.85982, 1.90803, 1.95242, 1.85461, 1.85275, 1.95764, 1.95517, 1.84861, 1.84656, 1.84658, 1.84458, 1.94938, 1.8407, 1.94933, 1.84078, 1.8392, 1.83807, 1.83737, 1.83449, 1.83333, 1.94444, 1.83402, 1.93559, 2.01202, 1.83387, 1.83366, 2.01831, 1.83381, 1.89605, 2.07017, 2.06596, 2.06846, 1.9668, 1.96596, 1.98888, 1.96188, 1.95887, 1.95808, 2.08566, 1.87689, 1.9519, 1.95263, 1.99143, 1.95252, 1.95145, 1.95477, 1.87535, 1.99501, 1.95692, 2.07323, 1.88544, 1.89292, 1.97325, 1.99354, 2.08847, 1.96657, 2.04124, 2.06958, 2.04319, 2.04168, 1.9651, 2.04448, 2.03877, 2.04103, 2.05155, 2.04111, 2.05648, 2.04637, 2.04312, 2.05306, 2.04935, 2.05692, 1.97184, 2.05558, 2.05077, 2.05479, 1.97069, 1.97053, 1.9696, 2.07043, 2.06004, 1.97143, 2.04661, 2.05708, 2.0627, 2.06193, 2.05696, 1.96845, 2.04881, 2.04822, 2.05188, 2.04865, 2.04558, 2.05877, 2.04931, 1.9, 1.89933, 1.89916, 1.89792, 1.89723, 1.89622, 1.97669, 1.99984, 1.89731, 2.07573, 1.89985, 2.07929, 1.89815, 1.89614, 2.07019, 1.89696, 1.89952, 1.89979, 1.89778, 1.89565, 1.89431, 1.89462, 1.89404, 1.89366, 1.89255, 1.91755, 1.91791, 1.81656, 1.91777, 1.86069, 1.85973, 1.80273, 1.80178, 1.80243, 1.79953, 1.84835, 1.84749, 1.89704, 1.79447, 1.79645, 1.79545, 1.90324, 1.90153, 1.79632, 1.79352, 1.79387, 1.79269, 1.79617, 1.91457, 1.792, 1.91696, 1.91382, 1.79491
1.85993, 1.91316, 1.86315, 1.86152, 1.95652, 1.90697, 1.90734, 1.94465, 1.85416, 1.85092, 1.84794, 1.84769, 1.89594, 1.84552, 1.84373, 1.84388, 1.84262, 1.89074, 2.02794, 2.0247, 1.83772, 1.83844, 2.02179, 1.92795, 1.83386, 1.83545, 1.88341, 1.93284, 1.93494, 1.88524, 2.06987, 2.0733, 1.97101, 1.96876, 1.96704, 1.99195, 2.08868, 1.99019, 2.071, 1.96013, 1.99371, 1.95861, 2.0762, 1.99286, 1.87511, 1.99626, 2.09386, 1.87685, 1.99723, 1.95853, 1.99609, 1.99583, 1.96641, 1.9686, 1.89594, 1.996, 2.07475, 2.06938, 2.04443, 2.06239, 2.05955, 2.0442, 2.04396, 2.04596, 2.04756, 2.04237, 2.04225, 2.04168, 2.05137, 2.07254, 1.96603, 2.06133, 2.04922, 2.05099, 1.96955, 1.97087, 2.06106, 2.05274, 2.06224, 2.05425, 2.07615, 1.97088, 2.06673, 2.05262, 2.0487, 2.05961, 2.04575, 2.05358, 2.04568, 2.04609, 2.04819, 2.05112, 2.04905, 2.05081, 2.04666, 2.04467, 2.04608, 1.9015, 2.07983, 1.89993, 1.89607, 1.89624, 1.89777, 2.08745, 1.89564, 1.89728, 1.95477, 1.89533, 2.07754, 1.99686, 1.89503, 1.89966, 1.89801, 1.89708, 1.8961, 1.89577, 1.89394, 1.89401, 1.89316, 1.89111, 1.89337, 1.89143, 1.9196, 1.82084, 1.91267, 1.91956, 1.809, 1.80742, 1.80558, 1.80205, 1.80099, 1.91329, 1.8472, 1.84678, 1.79586, 1.79471, 1.90558, 1.7959, 1.79551, 1.79555, 1.91753, 1.79516, 1.84556, 1.84352, 1.79285, 1.79486, 1.79414, 1.78875, 1.79207, 1.79131
1.86466, 1.86595, 1.91363, 1.86333, 1.95673, 2.14107, 1.91019, 1.90798, 1.95701, 1.95785, 2.03812, 1.96926, 1.97213, 1.8478, 1.84678, 1.95342, 1.84508, 1.84484, 1.93122, 1.83748, 1.83941, 1.8406, 2.0314, 1.94415, 1.8858, 1.92745, 1.83591, 1.93755, 1.83606, 1.83818, 1.976, 2.07096, 2.07556, 1.89424, 1.96966, 1.96931, 1.96435, 1.96303, 1.95985, 1.95899, 1.96064, 1.87945, 1.8793, 1.95458, 1.95492, 1.99716, 1.95251, 1.95466, 1.87805, 1.95641, 1.99742, 1.95991, 1.96545, 1.96993, 1.99388, 1.98687, 2.0953, 2.05992, 2.06237, 2.04421, 2.0422, 1.96722, 2.04613, 2.04648, 2.05848, 2.04876, 2.0434, 1.96731, 1.96656, 1.96585, 2.04391, 2.06305, 1.97023, 2.06852, 2.05359, 2.06075, 1.97224, 2.06862, 2.05587, 2.0577, 2.05409, 2.0568, 2.08343, 2.04854, 2.06616, 2.04864, 2.04891, 2.06372, 2.07137, 2.06793, 2.04699, 2.04909, 2.04962, 2.04947, 2.04678, 1.96865, 1.97009, 1.95124, 1.8997, 1.8998, 1.89697, 1.89618, 1.89734, 2.07939, 1.94957, 2.00014, 1.89674, 1.89821, 2.07961, 1.89601, 1.89964, 1.98451, 1.89992, 1.8972, 1.94731, 1.89653, 1.89545, 2.08792, 1.89419, 2.0699, 2.06704, 1.89248, 1.91393, 1.93772, 1.87747, 1.81122, 1.81092, 1.80469, 1.80055, 1.80265, 1.79935, 1.92431, 1.79621, 1.79596, 1.79371, 1.79301, 1.7966, 1.79394, 1.79366, 1.79515, 1.91855, 1.92154, 1.79442, 1.79377, 1.79455, 1.91326, 1.7947, 1.79321, 1.79236, 1.91269
2.15186, 1.9629, 1.86737, 1.86596, 2.12132, 1.86272, 1.86017, 1.91073, 1.94815, 1.8551, 1.85547, 1.85397, 1.85213, 1.94439, 1.85058, 1.95955, 1.95659, 1.84416, 1.89358, 1.84379, 1.93787, 1.95854, 1.91466, 1.88794, 1.83504, 1.83709, 1.83793, 1.838, 2.03082, 1.97902, 2.07546, 1.97712, 2.07892, 1.97316, 1.97355, 2.07601, 1.88952, 1.96495, 1.96321, 1.88625, 1.99506, 1.9984, 1.96186, 1.99937, 1.95626, 1.95494, 1.87917, 1.95622, 1.99947, 1.88021, 1.88362, 1.96321, 1.99878, 1.89454, 1.97604, 1.98085, 2.0808, 1.97177, 2.06023, 2.04743, 1.97032, 1.96885, 1.9673, 2.04833, 2.04475, 1.96719, 2.04601, 2.04479, 2.04566, 2.07232, 2.06343, 2.05388, 2.05982, 1.97178, 1.97255, 2.07212, 2.06533, 2.05866, 2.05697, 1.97475, 2.07934, 2.05735, 1.97237, 2.06575, 2.07687, 2.07887, 1.97232, 2.06518, 2.0661, 2.0519, 2.04576, 2.04651, 2.05479, 2.04883, 2.05141, 1.97147, 2.09137, 1.95192, 1.89883, 1.89789, 1.89665, 2.0028, 1.99988, 1.89654, 2.00308, 2.00384, 1.89829, 1.99521, 1.89844, 1.89797, 1.8981, 1.98024, 1.89669, 1.89721, 1.89747, 1.89713, 1.89684, 1.8948, 1.89355, 2.06895, 2.06931, 1.89275, 1.82344, 1.86845, 1.86556, 1.86163, 1.81049, 1.80672, 1.80292, 1.85134, 1.79853, 1.79697, 1.79599, 1.91957, 1.92296, 1.79269, 1.91959, 1.79334, 1.79192, 1.91407, 1.7938, 1.91769, 1.7939, 1.79447, 1.79233, 1.79103, 1.79078, 1.79151, 1.79228, 1.84728
1.86936, 1.91822, 1.95531, 1.86869, 1.97026, 1.86576, 1.96703, 1.86303, 1.86158, 1.96456, 1.85739, 1.96965, 1.85554, 2.02233, 1.85151, 1.95876, 1.84967, 1.84663, 1.84464, 1.84588, 1.84364, 1.84275, 1.96082, 1.84069, 1.8388, 1.9445, 1.83699, 2.02015, 1.84069, 1.98006, 1.99737, 1.97935, 2.07786, 1.97551, 1.97442, 1.99693, 1.96892, 2.092, 1.96566, 1.96443, 1.96275, 1.96061, 1.95846, 1.88137, 1.8798, 1.87991, 1.99781, 1.87914, 1.95883, 2.00366, 2.0014, 1.96344, 1.96762, 1.97225, 1.97594, 2.00039, 2.09684, 2.07283, 1.97185, 2.04823, 1.96903, 1.97011, 1.97145, 1.96963, 1.96828, 2.05316, 2.05214, 2.06137, 2.04772, 2.08258, 2.06016, 1.97235, 2.07501, 2.07177, 1.97213, 2.07675, 2.06292, 2.06872, 1.9726, 2.05998, 2.06637, 2.06514, 2.06029, 2.05744, 2.06155, 1.9751, 2.05691, 2.07074, 2.0488, 2.04764, 2.05527, 2.05048, 2.05253, 2.05249, 2.05022, 2.04886, 2.01709, 1.89996, 1.89827, 1.89948, 1.89813, 1.94483, 1.94665, 1.94554, 1.89659, 1.89774, 1.89977, 1.89902, 1.89657, 1.89907, 1.89633, 2.00647, 1.89936, 1.89756, 1.89531, 1.89738, 1.89597, 1.89637, 2.07738, 1.89261, 1.89506, 1.92195, 1.82232, 1.82068, 1.81676, 1.92526, 1.92414, 1.80437, 1.80316, 1.80004, 1.92103, 1.84727, 1.79407, 1.92753, 1.79044, 1.90502, 1.79342, 1.92333, 1.91814, 1.92122, 1.79129, 1.79363, 1.84411, 1.90092, 1.79082, 1.79229, 1.78786, 1.79167, 1.78928, 1.84686
1.92072, 1.92103, 1.87291, 2.11333, 1.97232, 1.864, 1.9602, 1.86608, 1.86319, 1.96354, 1.86136, 1.9503, 1.85868, 1.852, 1.85496, 1.85263, 1.85122, 1.84776, 1.84577, 2.038, 1.89435, 1.95219, 1.95572, 1.89264, 1.83999, 1.94896, 1.83887, 1.83959, 1.84392, 1.98415, 1.98105, 2.00436, 1.97573, 2.08028, 1.97498, 1.97352, 1.97057, 1.96965, 1.96465, 1.96351, 1.96328, 1.95921, 1.88371, 1.95819, 1.88022, 2.00197, 1.95823, 1.88205, 1.9596, 1.96138, 1.96275, 1.96317, 1.97051, 2.09748, 1.97961, 2.09379, 2.10739, 2.06534, 2.04908, 1.97323, 2.04809, 1.97126, 1.97098, 2.04886, 2.05197, 2.05984, 2.07668, 1.96977, 1.97226, 1.97052, 2.05639, 1.97148, 2.04923, 1.9737, 2.05309, 2.05958, 1.9751, 2.05784, 1.97882, 1.97608, 2.06807, 1.97439, 1.97503, 2.06734, 2.06371, 1.97399, 2.05436, 2.05573, 2.04952, 2.06715, 2.04819, 1.97179, 1.97484, 1.96947, 1.97068, 2.05974, 2.01428, 2.01212, 2.08668, 1.8975, 1.89777, 1.8935, 1.89362, 1.98641, 1.94648, 2.07978, 1.89676, 1.89732, 2.09348, 2.09753, 1.89785, 1.9931, 1.8964, 1.94713, 1.89527, 1.89534, 1.89613, 2.08582, 1.89543, 2.07029, 1.98624, 1.9236, 1.82247, 1.9234, 1.81162, 1.92324, 1.8093, 1.80606, 1.80274, 1.92409, 1.84842, 1.79855, 1.79532, 1.9236, 1.79424, 1.79229, 1.78932, 1.9181, 1.84378, 1.84411, 1.92143, 1.78988, 1.87186, 1.79282, 1.79389, 1.79236, 1.9173, 1.7923, 1.79095, 1.78955
2.18331, 1.87411, 1.92471, 1.93444, 1.87211, 1.86745, 2.13125, 1.86652, 1.86503, 1.96847, 2.04622, 1.86219, 2.04475, 2.04757, 1.90632, 2.04461, 1.854, 1.85062, 1.85107, 1.84704, 1.89656, 1.84551, 1.84775, 1.84453, 1.84329, 1.84383, 1.84493, 1.84087, 1.84397, 1.84517, 1.98148, 1.9053, 1.9804, 1.90207, 1.97619, 2.00371, 1.97041, 1.97141, 2.10084, 1.96563, 2.00026, 2.00436, 1.96125, 1.96258, 2.00532, 1.96005, 1.88306, 1.88279, 2.08765, 1.88649, 2.00359, 2.00383, 1.89272, 1.97535, 2.00337, 1.98391, 2.09356, 2.04972, 2.07654, 2.05122, 2.04997, 1.97124, 2.05555, 1.97226, 2.0488, 2.04827, 2.04931, 2.05873, 2.07019, 2.06659, 2.05225, 1.97337, 2.05919, 2.06285, 1.97422, 1.97473, 1.97622, 2.06075, 2.06188, 2.05925, 1.9768, 1.97615, 1.97577, 2.0754, 2.06689, 2.07368, 1.9743, 2.06297, 2.05929, 2.06306, 2.04615, 1.97, 1.9702, 1.97037, 2.06132, 2.05196, 2.05139, 1.90257, 2.09686, 1.89743, 1.89645, 1.89503, 1.89414, 1.94486, 1.89664, 1.89675, 2.00044, 1.89697, 1.89984, 1.89736, 1.89974, 2.09017, 1.89816, 1.89744, 1.89728, 1.89633, 1.89666, 1.89467, 2.07107, 1.89297, 1.8939, 1.87481, 1.82203, 1.82043, 1.93175, 1.92509, 1.92432, 1.92419, 1.85291, 1.79979, 1.84564, 1.79596, 1.79577, 1.79451, 1.92696, 1.92445, 1.79191, 1.79247, 1.79355, 1.79281, 1.91797, 1.79312, 1.79238, 1.90936, 1.79239, 1.79192, 1.78922, 1.91764, 1.79116, 1.78961
1.97026, 1.92607, 1.87573, 1.8741, 1.87415, 1.97199, 1.87001, 1.91996, 1.8671, 1.8665, 1.86576, 1.8627, 1.86014, 1.8586, 2.0549, 1.96652, 1.85618, 2.02534, 1.85122, 1.89967, 1.94746, 1.84742, 1.84602, 1.89667, 2.04145, 1.94972, 1.84451, 1.84589, 1.8465, 1.84769, 1.9862, 1.98263, 1.98109, 1.9806, 1.97816, 2.0067, 2.00445, 2.08365, 1.96964, 1.96826, 1.96549, 1.96385, 2.00627, 1.96256, 1.88425, 1.96027, 1.96044, 2.00723, 2.00509, 1.9625, 1.96643, 1.96991, 1.96898, 1.90065, 1.98153, 1.98416, 2.10086, 2.05614, 1.97686, 1.97631, 2.05141, 2.05229, 2.05262, 1.97251, 1.97187, 2.06074, 2.06177, 2.06648, 2.06475, 2.04972, 1.97259, 2.06844, 2.07203, 2.06361, 2.06041, 2.06488, 2.07049, 2.06714, 2.07, 2.0594, 2.0718, 2.06613, 1.97673, 1.97602, 2.06968, 2.0758, 2.06118, 1.97284, 1.97284, 1.9718, 2.04881, 1.97238, 1.97137, 2.05337, 2.056, 2.05417, 1.90162, 1.90055, 2.09836, 1.89886, 1.89692, 2.00379, 1.8958, 1.89568, 1.8926, 1.89595, 1.99752, 1.89826, 2.01305, 1.90061, 1.89681, 1.89732, 1.89703, 2.08051, 2.08977, 1.89711, 1.8958, 1.89546, 1.89642, 1.89594, 2.06675, 2.07196, 1.88187, 1.86832, 1.81419, 1.92121, 1.85507, 1.85415, 1.85138, 1.90062, 1.79707, 1.79558, 1.92422, 1.79324, 1.90941, 1.84271, 1.84228, 1.88751, 1.8963, 1.79177, 1.92427, 1.79007, 1.79359, 1.91694, 1.79152, 1.91699, 1.79106, 1.7898, 1.78888, 1.838
1.92855, 1.97725, 1.87664, 1.87615, 1.8744, 1.87436, 1.87398, 1.87217, 1.86988, 1.86667, 1.86595, 1.86554, 1.96242, 1.97206, 1.86129, 1.85851, 1.85804, 1.85559, 1.94806, 1.903, 1.85173, 1.85042, 1.89933, 1.84742, 1.89674, 1.84522, 1.84506, 1.8453, 1.95144, 1.84954, 1.98732, 1.91038, 1.98386, 1.98191, 2.00774, 1.97661, 1.97621, 2.00826, 2.00754, 1.96992, 1.96567, 1.96602, 1.96564, 1.96465, 1.96184, 1.95905, 1.96182, 1.96257, 2.00697, 1.96661, 1.96818, 2.00776, 2.00736, 2.08357, 1.98464, 1.91372, 2.09917, 2.07273, 2.07723, 1.97676, 1.97592, 1.97357, 1.97369, 1.97273, 1.97266, 2.05132, 2.06774, 2.08069, 2.07368, 2.07121, 2.06538, 1.97596, 2.06602, 1.9756, 1.97587, 2.07342, 2.07276, 2.05404, 2.06217, 2.06325, 2.0734, 2.06365, 2.05189, 1.97674, 1.97569, 2.06826, 2.06153, 2.0564, 2.05025, 2.05173, 2.06845, 1.97151, 1.97146, 2.05197, 2.05089, 2.04983, 1.9037, 1.90286, 1.94891, 1.89839, 1.89645, 1.89614, 1.89573, 1.89379, 2.00403, 1.89623, 2.00298, 1.99891, 1.89765, 1.89932, 1.89758, 1.89602, 1.89676, 1.98006, 1.94641, 1.94442, 1.89505, 1.89459, 1.89449, 1.89558, 1.89448, 1.89275, 1.8717, 1.81466, 1.9253, 1.80755, 1.88386, 1.80057, 1.7994, 1.79869, 1.92217, 1.79486, 1.79492, 1.79417, 1.79558, 1.79283, 1.79156, 1.8946, 1.91847, 1.7934, 1.79204, 1.92087, 1.79009, 1.91714, 1.84266, 1.79223, 1.91973, 1.7923, 1.78835, 1.78776
1.88086, 1.98118, 1.88034, 1.98295, 1.87574, 1.87663, 1.9264, 1.87566, 1.97704, 1.86951, 1.91798, 1.91835, 1.86755, 1.86567, 2.05145, 1.86137, 1.86, 1.91072, 1.9068, 2.14961, 1.85466, 1.85056, 1.84937, 1.84973, 1.8479, 1.89921, 1.84911, 1.94551, 1.89953, 1.84961, 1.98785, 2.01157, 1.98656, 1.9073, 1.97999, 1.97665, 2.11082, 1.97537, 1.97227, 2.08341, 2.00983, 1.89046, 1.89057, 1.96488, 2.00825, 1.96128, 2.01122, 1.96189, 1.96554, 1.96623, 2.09593, 1.89415, 1.97601, 2.01092, 1.90806, 1.91493, 2.09414, 2.08685, 1.97879, 2.06374, 2.06832, 1.97556, 1.97453, 2.05282, 2.05869, 2.05364, 2.05257, 2.05362, 2.05247, 2.05178, 1.976, 1.97581, 2.06609, 2.07148, 2.05394, 2.05487, 2.05563, 2.0729, 2.05486, 2.06687, 1.97785, 2.06689, 1.97964, 2.07958, 2.07273, 2.06983, 2.0674, 2.05137, 2.05131, 2.06721, 1.97242, 1.97212, 1.97196, 2.05602, 2.05013, 2.05572, 1.90613, 1.95217, 2.00217, 1.89749, 1.89494, 1.98536, 1.89556, 1.89493, 1.89516, 1.89693, 1.89583, 1.94742, 1.89642, 1.89693, 1.89683, 1.89671, 2.00091, 1.9459, 1.89312, 1.89538, 1.89582, 2.07773, 1.89315, 1.89323, 1.89633, 1.92582, 1.81673, 1.81168, 1.8097, 1.8077, 1.80608, 1.80317, 1.79825, 1.92772, 1.79597, 1.79578, 1.79371, 1.79332, 1.79412, 1.79354, 1.90644, 1.79173, 1.79239, 1.79411, 1.78976, 1.79243, 1.90479, 1.79209, 1.91078, 1.88578, 1.84126, 1.79087, 1.78964, 1.78938
1.90723, 1.8828, 1.88034, 1.87967, 1.87755, 1.98723, 1.87749, 1.87593, 1.98062, 1.87179, 1.97935, 1.8724, 1.8713, 1.9184, 1.95647, 2.05093, 1.86307, 1.9689, 1.85845, 1.85602, 1.85521, 1.96778, 1.97069, 1.9009, 1.90117, 1.90241, 1.95506, 1.85111, 1.85269, 1.99309, 2.01519, 1.98765, 2.01474, 2.01433, 2.01452, 1.97722, 1.97803, 2.01213, 1.97359, 1.97329, 2.01011, 1.96869, 1.96494, 1.96562, 2.10577, 2.01141, 2.0112, 1.96382, 2.01318, 1.89063, 1.96955, 2.10084, 2.01051, 1.981, 1.98522, 2.00921, 2.11061, 2.07329, 2.06255, 2.07074, 1.97734, 1.97625, 1.97782, 2.05598, 2.05679, 2.05112, 1.9755, 1.97709, 2.06923, 2.07323, 2.07126, 2.07681, 2.06553, 2.06493, 2.07287, 2.06214, 1.97962, 2.07338, 2.07537, 2.07604, 1.97631, 2.06559, 2.06249, 1.97703, 2.05812, 2.06616, 2.06506, 2.06334, 2.06427, 1.97244, 2.05901, 1.97567, 1.97376, 2.05197, 2.05139, 2.05038, 1.95485, 1.90302, 1.90009, 2.10402, 2.10246, 1.89415, 1.89392, 1.89346, 1.89384, 2.00622, 1.89531, 1.89599, 2.00063, 1.89685, 1.89735, 1.89722, 1.89682, 1.89371, 1.89317, 1.89432, 1.89599, 1.89626, 1.98917, 1.89628, 1.8959, 1.81997, 1.9284, 1.81205, 1.80827, 1.80448, 1.92028, 1.80147, 1.84924, 1.79948, 1.79575, 1.90685, 1.79372, 1.79222, 1.91217, 1.79242, 1.79287, 1.79248, 1.92042, 1.91759, 2.01653, 1.79194, 1.90969, 1.78893, 1.90705, 1.78921, 1.84554, 1.84419, 1.78858, 1.78713
1.88479, 1.8854, 1.88097, 1.98654, 1.9838, 1.88248, 2.16703, 1.87978, 1.9861, 1.96818, 1.92457, 1.87272, 1.87275, 1.86814, 1.86927, 1.86702, 2.04829, 1.86462, 1.97203, 1.86144, 1.85923, 1.85529, 1.85484, 2.14498, 1.96605, 2.03834, 1.85263, 1.85487, 2.03092, 1.85478, 1.99238, 1.99158, 1.99104, 2.01791, 1.98253, 1.98001, 1.98008, 1.97908, 1.97565, 1.9722, 1.89601, 1.9705, 1.96837, 1.96689, 1.88995, 1.96708, 1.96677, 2.0136, 1.89198, 1.96875, 1.97027, 1.97293, 1.97652, 2.10128, 1.98921, 2.01081, 2.09915, 2.07427, 2.07931, 2.0559, 1.98026, 1.98022, 1.97895, 2.06183, 2.05506, 2.07057, 2.06564, 1.97902, 1.98077, 1.97747, 2.05644, 2.06897, 1.97985, 1.98054, 1.97914, 2.06238, 2.05479, 1.98083, 2.07007, 2.0665, 2.07946, 2.07629, 2.07289, 2.0761, 2.06665, 1.97796, 2.05965, 1.97676, 2.07651, 2.05614, 1.97294, 1.97391, 1.9732, 2.05343, 2.05453, 2.05843, 1.90633, 1.89986, 1.89893, 2.08969, 1.89579, 2.10474, 1.89157, 1.89111, 1.89332, 1.89413, 1.89144, 1.94518, 2.00073, 1.99286, 1.8992, 1.89661, 1.89632, 2.10273, 1.89369, 1.8946, 1.89628, 1.89449, 1.89945, 1.89565, 1.94574, 1.89618, 1.815, 1.8106, 1.80693, 1.80444, 1.80205, 1.80169, 1.84842, 1.79503, 1.91212, 1.92645, 1.92417, 1.79418, 1.92102, 1.79327, 1.79255, 1.92201, 1.84151, 1.78979, 1.78874, 1.79095, 1.78871, 1.79049, 1.78709, 1.79167, 1.84547, 1.84355, 1.78646, 1.788
2.0391, 1.96676, 1.88507, 1.88374, 1.93427, 1.87949, 1.88381, 1.88167, 1.87836, 1.87974, 1.98547, 1.92449, 1.87367, 1.87248, 2.05524, 1.86643, 1.91728, 1.96263, 1.9146, 1.85947, 1.91101, 1.85842, 1.85826, 1.98699, 1.85614, 1.85768, 1.85509, 1.85612, 1.85622, 1.85766, 1.91994, 1.99379, 2.01947, 1.98889, 1.98612, 1.98618, 1.98067, 2.01709, 1.97623, 1.97657, 1.8962, 1.89637, 1.96993, 1.96828, 2.10718, 1.96748, 1.89016, 1.96858, 1.89358, 1.97604, 1.97154, 1.97645, 2.01338, 2.01409, 2.09727, 2.01311, 2.0974, 2.07813, 2.07705, 2.07878, 2.05833, 1.97922, 1.98031, 1.97915, 2.05838, 2.06026, 2.0701, 2.05617, 2.05623, 2.08388, 1.98078, 2.06751, 2.07487, 2.06631, 2.059, 2.07254, 2.08344, 1.98053, 1.97997, 2.07044, 2.07791, 2.0794, 2.06858, 1.98061, 2.06708, 1.97709, 2.06347, 2.06596, 2.06466, 2.05971, 2.06246, 1.9739, 1.9749, 2.05324, 2.05214, 1.97227, 1.90778, 1.90141, 1.89638, 1.94857, 1.89612, 1.89501, 1.89301, 1.89256, 1.89276, 1.89465, 1.89368, 1.89489, 2.00268, 1.99592, 1.89576, 1.89611, 1.94651, 1.89572, 1.8949, 1.89468, 1.89306, 1.89263, 1.89271, 1.94751, 2.0679, 1.93215, 1.81402, 1.86088, 1.90915, 1.80221, 1.80186, 1.92748, 1.92696, 1.79679, 1.84651, 1.79391, 1.79476, 1.92412, 1.79302, 1.92348, 1.79017, 1.84077, 1.90756, 1.78871, 1.91759, 1.78892, 1.78791, 1.78834, 1.78702, 1.91607, 1.78962, 1.84445, 1.78424, 1.78657
1.91491, 1.89202, 1.88811, 1.88691, 1.88514, 1.88623, 1.99656, 1.94407, 1.88567, 1.87735, 1.87936, 1.98668, 1.92518, 1.87344, 1.98253, 1.97926, 1.98017, 1.97922, 1.96209, 1.91545, 1.97963, 1.8613, 1.85928, 1.85811, 1.85832, 1.85975, 1.85832, 1.90737, 1.9087, 1.99709, 1.92029, 1.99611, 1.99384, 1.98966, 1.98994, 1.9851, 1.90731, 1.97919, 1.97973, 1.97827, 1.97641, 1.97244, 1.97144, 1.97285, 1.97199, 2.10769, 1.96871, 1.9702, 2.01725, 1.97084, 2.0178, 1.90019, 1.98216, 1.98361, 2.01437, 2.01194, 2.10128, 1.98406, 2.06166, 2.06221, 2.06134, 2.06157, 1.9825, 1.98066, 1.98, 2.07955, 1.98006, 2.06537, 2.05742, 2.07634, 2.05834, 2.07183, 1.98415, 2.06311, 2.08272, 2.06969, 2.08032, 2.06605, 2.0735, 1.98229, 2.07255, 2.06981, 2.0665, 2.06908, 1.9803, 1.97896, 2.07268, 1.97853, 2.06671, 2.05022, 2.06859, 1.97641, 1.97354, 1.97201, 1.97304, 2.04937, 1.90506, 2.01333, 2.008, 1.89765, 1.89407, 1.89193, 2.02552, 2.00553, 1.88859, 1.8909, 1.97911, 1.89146, 1.89488, 1.89419, 1.99766, 1.89526, 1.89535, 1.94504, 1.94396, 1.89306, 1.89389, 1.89558, 1.94478, 1.89468, 1.89474, 1.81555, 1.81366, 1.80775, 1.80738, 1.80234, 1.79912, 1.93023, 1.87074, 1.89793, 1.79523, 1.79544, 1.92173, 1.7911, 1.79043, 1.92139, 1.79255, 1.7907, 1.78783, 1.90388, 1.78896, 1.91381, 1.83713, 1.78709, 1.78675, 1.92051, 1.78659, 1.88342, 1.91492, 1.91227
1.91679, 1.89258, 2.00411, 1.88709, 1.88729, 1.88761, 1.88552, 1.88542, 1.88493, 1.88529, 1.88254, 1.88015, 1.98849, 1.87627, 1.87553, 2.06179, 2.0654, 1.87137, 1.86761, 2.05099, 1.86388, 1.8623, 1.85908, 1.85943, 1.90959, 1.95462, 1.8594, 1.90943, 1.96212, 1.86024, 2.00271, 1.92358, 2.02502, 2.02395, 1.98996, 2.0218, 1.98623, 2.02237, 1.98096, 1.98096, 1.975, 1.9731, 1.97247, 1.97284, 1.97355, 1.8942, 1.96824, 1.97195, 1.97025, 2.02108, 1.89976, 1.97708, 1.90527, 1.91072, 1.9908, 2.0144, 2.10759, 2.06987, 2.06345, 2.07605, 2.06613, 2.06042, 1.9807, 2.0658, 2.0628, 2.05882, 2.06007, 2.06026, 2.05942, 2.08457, 2.07207, 2.07321, 2.07882, 2.07413, 1.98264, 2.08971, 1.98225, 1.98265, 1.98199, 2.06328, 1.98117, 2.0687, 2.0584, 2.06237, 2.07052, 2.05941, 1.97842, 2.06872, 2.07265, 2.07007, 2.07319, 1.97584, 1.97577, 1.9757, 1.97362, 2.07619, 2.04976, 1.90163, 1.90016, 2.01035, 1.89273, 1.89136, 1.94211, 2.00163, 1.88821, 2.09984, 2.00367, 1.88867, 2.08243, 1.8915, 1.94555, 1.89425, 1.89263, 2.00411, 2.00332, 1.9938, 1.99556, 1.89624, 1.94391, 1.89539, 2.07032, 1.98606, 1.98442, 1.80433, 1.80368, 1.92868, 1.93257, 1.79893, 1.79722, 1.79484, 1.7941, 1.79269, 1.79338, 1.79333, 1.92359, 1.78865, 1.78871, 1.7897, 1.8395, 1.7889, 1.7881, 1.90649, 1.918, 1.78568, 1.8378, 1.89596, 1.78583, 1.83418, 1.78492, 1.78461
1.96907, 1.89598, 2.00301, 1.89174, 2.07882, 1.88878, 1.88726, 1.88896, 1.88892, 1.88268, 1.99458, 2.07689, 1.88047, 1.87996, 2.06967, 1.87605, 1.87248, 1.87216, 1.87096, 1.87004, 1.86659, 1.86669, 1.86367, 1.86237, 1.91148, 1.91093, 1.86276, 1.86231, 1.86312, 2.00396, 1.92387, 2.02571, 1.99796, 1.91747, 1.9914, 1.99007, 2.02467, 1.98634, 1.9827, 1.9801, 1.97945, 1.97624, 2.10094, 1.89647, 1.97498, 1.97194, 1.97048, 2.02068, 1.97365, 1.97569, 1.97747, 1.98042, 2.02451, 1.98809, 1.99218, 2.09779, 2.12522, 2.07364, 2.0669, 2.07592, 2.09245, 2.06285, 1.9854, 2.06315, 1.98322, 2.06189, 2.08398, 2.06005, 1.98339, 2.06938, 2.0727, 2.06669, 2.07613, 1.98369, 2.07974, 2.0621, 2.06339, 2.06633, 2.05967, 2.08252, 2.08535, 1.98245, 2.06006, 1.98236, 2.07819, 2.06137, 2.06253, 2.06878, 2.07227, 2.07446, 2.06181, 1.97537, 2.05299, 1.97417, 1.97548, 1.97367, 2.01597, 2.00619, 2.10339, 2.08962, 2.10507, 1.89207, 1.8871, 1.88644, 1.8872, 1.98733, 1.88946, 1.88951, 1.89028, 1.89254, 1.99711, 1.89109, 1.89177, 1.89267, 1.89022, 1.89366, 1.8938, 1.89402, 1.89297, 1.89355, 1.89515, 1.81203, 1.91116, 1.80742, 1.80085, 1.79967, 1.79932, 1.92949, 1.92742, 1.92729, 1.79226, 1.79261, 1.92039, 1.92136, 1.91893, 1.92253, 1.7892, 1.78699, 1.78697, 1.91849, 1.9079, 1.91781, 1.91094, 1.78597, 1.78435, 1.78532, 1.78301, 1.78285, 1.78385, 1.78363
2.03592, 1.89956, 1.89668, 1.94515, 1.89434, 1.98624, 1.89026, 2.00355, 2.08056, 1.88921, 1.99804, 1.98907, 1.88145, 1.98744, 2.05862, 1.97332, 1.87548, 1.87167, 1.92253, 1.92013, 1.967, 1.95879, 1.86533, 1.9812, 1.91366, 1.86376, 1.8638, 1.91422, 2.0406, 1.92843, 2.00473, 1.99964, 1.99906, 1.99664, 1.99535, 1.9911, 1.98698, 1.91014, 1.90682, 1.90494, 1.90374, 2.02537, 2.02579, 2.02452, 2.11393, 1.972, 1.97516, 1.89695, 2.02073, 2.115, 2.02328, 2.02198, 1.98381, 1.99019, 2.09473, 2.01776, 2.01839, 2.08566, 2.07715, 2.0731, 2.08552, 2.06576, 1.98615, 1.98431, 2.08195, 2.06154, 2.06, 1.98478, 1.98554, 1.98416, 2.07553, 2.07224, 2.0758, 1.98537, 1.98597, 2.07353, 2.07446, 2.0702, 2.06672, 2.07007, 1.98374, 2.08215, 1.98249, 2.07689, 2.06027, 2.0588, 2.07237, 2.0652, 2.08103, 1.97667, 1.97593, 1.97504, 1.97619, 1.97541, 1.97323, 2.05299, 2.06257, 2.08023, 2.1027, 1.89329, 1.89258, 2.10443, 1.88925, 2.00995, 1.98941, 1.88636, 1.93788, 1.93775, 1.88856, 2.00299, 1.89112, 2.00053, 1.89053, 1.89049, 1.94312, 1.89268, 1.89236, 1.98597, 1.89601, 1.89353, 1.89357, 1.86167, 1.85798, 1.85639, 1.92137, 1.92113, 1.79698, 1.84728, 1.84441, 1.79324, 1.7942, 1.79356, 1.78982, 1.92315, 1.79124, 1.78957, 1.78795, 1.88664, 1.92444, 1.78672, 1.91355, 1.78513, 1.78843, 1.914, 1.78487, 1.91523, 1.78564, 1.7829, 1.91734, 1.78198
1.97419, 2.00719, 1.98224, 1.94894, 1.89536, 1.89308, 1.89033, 1.89097, 1.88914, 1.88865, 1.9462, 1.94579, 2.00631, 2.0015, 1.87894, 2.07932, 1.87615, 1.87547, 1.87446, 1.87131, 1.86935, 1.96718, 1.97631, 1.97676, 1.86524, 1.86607, 1.94404, 1.8658, 1.86945, 2.00698, 2.00992, 1.92839, 2.03454, 2.02959, 1.9957, 1.99387, 1.99308, 1.99001, 1.98641, 1.98582, 2.02767, 2.02719, 1.90162, 2.02572, 2.02572, 1.97521, 1.97404, 1.89884, 1.97631, 1.97706, 1.97923, 2.1106, 1.98705, 2.02253, 1.99501, 2.02136, 2.02002, 1.99096, 2.076, 2.0732, 2.06663, 1.98802, 1.98868, 1.98656, 2.06007, 2.06301, 2.0724, 2.09693, 1.98626, 1.987, 1.98639, 2.06284, 2.06055, 2.07162, 1.98736, 2.07055, 2.08749, 1.98592, 2.08071, 2.0668, 1.98404, 2.07494, 2.07613, 2.06993, 2.06592, 2.06206, 1.9827, 2.07017, 2.05564, 2.06226, 2.05284, 2.05578, 1.97687, 1.97575, 1.97574, 2.06492, 2.01491, 1.89732, 2.01045, 1.89365, 2.01076, 1.88792, 1.88771, 2.10489, 1.88866, 2.00769, 1.88554, 2.00655, 1.88631, 1.88947, 1.89007, 1.88985, 2.07653, 1.89194, 1.89177, 1.89305, 1.89273, 1.89136, 1.89116, 1.89311, 2.07987, 1.80678, 1.80571, 1.80262, 1.80049, 1.79912, 1.79932, 1.7946, 1.92384, 1.79378, 1.88972, 1.79355, 1.79186, 1.84117, 1.84067, 1.79, 1.789, 1.78562, 1.78595, 1.78577, 1.91927, 1.78557, 1.78286, 1.78378, 1.92035, 1.78366, 1.77887, 1.7821, 1.78262, 1.78223
1.93181, 1.90283, 1.90226, 1.90126, 1.94778, 1.89568, 1.96192, 1.89418, 2.00854, 1.9892, 1.88793, 1.88735, 1.88612, 1.88495, 1.8817, 1.87861, 1.87971, 1.99132, 1.98709, 1.92413, 1.87388, 1.92104, 1.86877, 1.86931, 1.86837, 1.86692, 1.86731, 1.86958, 1.86869, 2.00887, 2.00906, 2.11218, 2.00066, 2.00252, 2.03187, 2.12276, 1.9937, 2.12492, 2.1186, 2.02736, 1.98293, 1.98371, 1.98073, 1.97916, 1.97754, 2.02825, 2.02741, 2.10336, 1.97889, 2.02718, 2.02506, 1.90736, 1.90992, 2.02392, 2.02035, 2.02375, 2.11509, 2.0923, 2.08709, 2.06921, 2.06822, 2.06924, 1.98796, 1.98727, 1.98505, 2.08067, 2.06942, 2.08777, 2.1049, 1.9877, 1.98671, 1.98916, 2.08262, 2.08381, 2.0794, 2.09114, 2.07993, 1.98727, 1.98726, 2.08199, 2.08513, 2.06974, 2.07538, 2.06952, 2.08363, 2.06867, 2.07304, 2.05977, 2.05825, 2.06747, 2.05783, 1.97706, 1.97442, 1.97645, 1.97639, 1.97509, 1.90288, 1.89768, 1.89594, 2.09473, 1.88987, 1.88678, 2.00005, 2.01229, 1.88608, 1.88589, 1.88416, 1.88545, 1.88765, 1.88756, 1.88786, 1.93921, 1.99751, 1.95373, 2.06508, 1.89217, 1.89323, 2.07415, 1.98258, 1.89334, 1.89307, 1.80704, 1.80428, 1.80339, 1.80196, 1.79499, 1.7961, 1.7964, 1.92473, 1.79325, 1.79254, 1.79015, 1.84036, 1.78989, 1.78834, 1.78759, 1.78645, 1.7869, 1.7864, 1.78626, 1.88988, 1.99231, 1.78245, 1.90559, 1.99421, 1.78068, 1.7801, 1.7817, 1.91059, 1.77919
1.92765, 1.90652, 2.01383, 2.01349, 2.07607, 2.0103, 1.89745, 1.89674, 1.89532, 1.89357, 1.89213, 1.89019, 1.88939, 1.88686, 1.88367, 1.93769, 1.87999, 1.87981, 1.87863, 1.8766, 1.92364, 1.92114, 1.87199, 1.87034, 1.97873, 1.86826, 1.86983, 1.97177, 1.87225, 1.92371, 2.01168, 2.03512, 2.01043, 2.0019, 1.99964, 2.03486, 2.12851, 1.99265, 1.99127, 1.9114, 2.12094, 2.03235, 1.98034, 1.97996, 1.97946, 1.90045, 1.97972, 2.02837, 1.97765, 1.9811, 1.98251, 1.98636, 2.02603, 1.91463, 1.99581, 2.12733, 2.11455, 1.99576, 2.07235, 2.07776, 2.06658, 2.0721, 1.99286, 1.98846, 2.0704, 2.08857, 2.06582, 2.07316, 2.0793, 1.98916, 2.07298, 2.07593, 2.08725, 2.07656, 2.08012, 2.07255, 2.07631, 1.98894, 2.07955, 2.07719, 2.0867, 2.06915, 2.07186, 2.07001, 2.07694, 2.08064, 2.06929, 2.06021, 2.07252, 2.07232, 2.05979, 1.97863, 1.97666, 1.97747, 2.07214, 2.06357, 1.94908, 1.94848, 1.89283, 1.88968, 1.88985, 1.88663, 1.99021, 1.88257, 1.88466, 1.88604, 1.88384, 1.88384, 1.88647, 2.00374, 1.88344, 1.93656, 1.88846, 1.88761, 1.88838, 1.89021, 1.89237, 1.89199, 1.89241, 1.88939, 1.89013, 1.80728, 1.9301, 1.92811, 1.7988, 1.84813, 1.7954, 1.79482, 1.79401, 1.79378, 1.78961, 1.89375, 1.78576, 1.83897, 1.91739, 1.84052, 1.78756, 1.78671, 1.92112, 1.78536, 1.78527, 1.78393, 1.78384, 1.90702, 1.78182, 1.83225, 1.78221, 1.91248, 1.91279, 1.77835
2.04036, 1.90366, 1.90592, 1.90416, 1.90298, 2.01718, 1.96815, 1.8994, 1.95013, 2.01029, 1.89365, 1.9426, 1.88714, 1.88782, 1.88486, 2.0029, 1.88, 1.87853, 1.87719, 1.87523, 1.87545, 1.87488, 1.87197, 1.8714, 1.87027, 1.87058, 1.92804, 1.87266, 1.87352, 2.01394, 2.01102, 1.93223, 2.00706, 2.11887, 2.00316, 2.11132, 1.99711, 1.91749, 1.99254, 2.03459, 1.91069, 2.11059, 1.98319, 1.98271, 1.97979, 1.97885, 1.90493, 1.97905, 1.98219, 1.90638, 2.10213, 1.98585, 1.98959, 2.0242, 2.00043, 2.02374, 2.12142, 2.09331, 2.07131, 2.08646, 2.06975, 2.07162, 2.06746, 2.06742, 2.07068, 2.06997, 2.0669, 2.06591, 2.08646, 2.06595, 1.99077, 1.99004, 2.08323, 2.07924, 2.07612, 2.07545, 2.06679, 2.07608, 2.07405, 2.06982, 1.98937, 2.06867, 2.07262, 2.076, 2.08613, 2.08143, 2.07218, 2.06998, 1.98291, 2.07067, 1.97927, 2.06176, 1.97848, 1.97836, 1.97764, 2.06163, 1.94875, 2.00686, 1.89356, 1.89135, 1.93796, 1.93737, 1.95816, 1.88413, 1.88286, 1.88436, 1.88351, 1.88351, 1.88353, 1.88289, 1.93624, 1.98714, 1.88647, 1.8879, 1.9386, 1.88988, 1.88944, 1.89078, 1.89148, 1.89025, 1.89264, 1.80741, 1.97536, 1.92257, 1.8508, 1.90314, 1.79746, 1.79461, 1.79295, 1.89665, 1.78986, 1.79021, 1.78839, 1.92108, 1.92121, 1.78759, 1.78551, 1.91704, 1.78431, 1.78448, 1.88986, 1.78469, 1.78076, 1.78279, 1.87534, 1.8713, 1.78011, 1.77817, 1.78165, 1.83046
1.98442, 1.91157, 1.95966, 1.90812, 1.90598, 1.95521, 1.90099, 1.90232, 1.89955, 2.00351, 2.00452, 1.89299, 1.89057, 1.88968, 1.88459, 1.97869, 2.0833, 1.88145, 1.88047, 1.87893, 1.93545, 1.87552, 1.8728, 1.87242, 1.87173, 2.00127, 1.87515, 1.9237, 1.87875, 1.87914, 2.01003, 2.01048, 2.12066, 2.12063, 1.92691, 2.11293, 1.99702, 1.99536, 1.99388, 1.9849, 2.03775, 1.98663, 1.98299, 1.98379, 1.98128, 2.03357, 1.97968, 1.98126, 1.97973, 1.98236, 2.02876, 2.03102, 2.12424, 2.02699, 1.99741, 2.00542, 2.12117, 2.09709, 2.08573, 2.09629, 2.08604, 1.99321, 2.0702, 2.07116, 2.07686, 2.08184, 1.99078, 2.08647, 2.06877, 1.99328, 2.08738, 2.0871, 2.07438, 2.07565, 2.07933, 2.08344, 1.9895, 2.07895, 2.07632, 1.98909, 2.07259, 2.08043, 2.0796, 1.98696, 2.08273, 2.07226, 2.08316, 2.07274, 1.98223, 2.06573, 2.06994, 2.05887, 1.97921, 2.05894, 2.05576, 2.06701, 1.89817, 1.89567, 1.94172, 1.88973, 1.88767, 1.88698, 1.88453, 2.01111, 1.88373, 1.88302, 1.93175, 1.88368, 1.88419, 1.88394, 1.88386, 1.93327, 1.93561, 1.88376, 2.00091, 1.88676, 1.8888, 1.88889, 1.88778, 1.88882, 1.8901, 1.80682, 1.85436, 1.85269, 1.79606, 1.84606, 1.84385, 1.95632, 1.91683, 1.78938, 1.78674, 1.92035, 1.88473, 1.92317, 1.78338, 1.83528, 1.78445, 1.78263, 1.78329, 1.83355, 1.78218, 1.78288, 1.83281, 1.83043, 1.77693, 1.91606, 1.78198, 1.77995, 1.8598, 1.77871
1.9383, 2.04263, 1.91339, 2.00493, 1.91087, 2.01757, 2.00344, 2.00913, 1.95005, 1.89908, 1.89816, 2.09182, 2.01193, 2.00651, 2.00806, 1.88685, 2.00296, 1.88488, 1.99808, 1.88047, 1.92717, 1.877, 1.87279, 1.87469, 1.87473, 1.87202, 1.87306, 1.98039, 1.87833, 2.01753, 2.01571, 2.01693, 1.93419, 2.0094, 2.00481, 2.0041, 2.03838, 2.11516, 1.99411, 2.03861, 1.91318, 1.98832, 2.11584, 2.12648, 1.90732, 1.98328, 1.98262, 1.90482, 1.98549, 2.03131, 1.98945, 1.98789, 1.99137, 1.99307, 2.02877, 2.0063, 2.11454, 2.09287, 2.07439, 2.08042, 2.07913, 2.07609, 1.996, 1.99382, 1.9913, 1.99279, 2.08299, 2.07067, 2.09125, 2.0837, 1.99316, 2.08094, 2.08787, 2.08865, 2.08097, 2.09348, 1.99264, 2.08444, 2.07779, 2.07317, 1.98927, 2.07049, 2.08, 2.07396, 2.08487, 2.06204, 2.0878, 2.0677, 2.07073, 2.07328, 1.97986, 1.97846, 1.97919, 1.97922, 2.05739, 2.05854, 1.89885, 1.89558, 1.94507, 1.88964, 1.88745, 1.88454, 1.88355, 1.88568, 1.88285, 1.8809, 1.99149, 1.87984, 1.88216, 1.88239, 2.10595, 1.93307, 1.88518, 1.88364, 1.88361, 1.88533, 1.88792, 2.07656, 1.97908, 1.8908, 1.93742, 1.80848, 1.90789, 1.91998, 1.79687, 1.79534, 1.79397, 1.92005, 1.78973, 1.78732, 1.92038, 1.78843, 1.92139, 1.92429, 1.7849, 1.83394, 1.78176, 1.78345, 1.96728, 1.78231, 1.9668, 1.78232, 1.78288, 1.78152, 1.78199, 1.78055, 1.91061, 1.77833, 1.77725, 1.82945
1.94132, 2.01568, 2.01829, 1.91137, 2.01781, 1.91097, 1.90591, 1.9921, 1.95266, 1.9029, 1.89963, 2.09953, 1.8946, 2.00884, 1.98347, 1.98647, 2.00383, 1.98373, 1.88428, 1.88201, 1.87946, 1.87852, 2.06897, 2.07326, 2.09017, 1.87571, 1.87784, 1.93021, 1.94237, 2.04527, 1.9399, 2.0119, 2.01233, 2.00901, 2.00771, 2.11774, 2.04118, 1.92282, 1.99679, 1.99421, 2.11465, 1.91371, 1.98673, 1.9104, 1.98752, 1.98482, 2.1136, 1.98411, 1.98324, 1.90792, 1.99329, 1.98868, 1.91608, 1.99319, 1.99998, 2.02755, 2.12231, 2.10994, 2.08626, 2.09044, 2.08713, 1.9967, 1.99658, 1.99277, 2.06989, 2.06881, 2.09021, 2.09075, 2.07416, 1.99348, 2.0851, 2.08391, 1.99428, 2.08094, 2.07989, 2.07738, 2.09635, 2.0825, 1.99279, 2.07921, 2.10049, 2.0829, 2.08821, 1.9892, 2.10808, 1.98932, 2.08011, 2.08591, 2.07441, 2.07258, 2.06647, 1.98146, 1.9795, 1.97906, 2.06668, 2.0709, 2.11447, 2.01491, 1.89041, 1.94148, 1.88436, 2.0089, 1.93495, 1.88335, 1.88221, 1.88128, 1.88124, 1.88191, 1.9321, 1.97902, 2.10573, 2.00452, 1.8815, 1.8824, 1.93382, 1.88562, 1.88419, 2.0834, 1.97896, 1.99666, 1.88563, 1.92236, 1.80288, 1.92092, 1.79669, 1.79646, 1.79585, 1.7917, 1.78939, 1.90439, 1.83691, 1.78514, 1.78525, 1.91823, 1.78271, 1.78237, 1.97241, 1.78281, 1.96565, 1.77971, 1.91358, 1.88782, 1.91332, 1.78169, 1.77993, 1.78082, 1.77958, 1.77878, 1.77727, 1.77637
2.05488, 1.91644, 1.91602, 1.91677, 1.91178, 2.00655, 1.96133, 2.01667, 1.90358, 1.90257, 1.89957, 1.94791, 1.99829, 1.89487, 1.96539, 1.88964, 1.8874, 1.88606, 2.00387, 1.88353, 1.87895, 1.88121, 1.99425, 2.0732, 1.87871, 2.06598, 1.87846, 1.98144, 1.94388, 1.94492, 2.01805, 1.94121, 2.04508, 2.0428, 2.0083, 2.0072, 2.13478, 2.0012, 1.99822, 1.99574, 1.91715, 1.98995, 1.98936, 1.98734, 1.98649, 1.98353, 2.03838, 1.9835, 1.98537, 1.98677, 2.03445, 1.99015, 1.91765, 1.99899, 2.00688, 2.03082, 2.03062, 2.00185, 2.07754, 2.07891, 1.99686, 1.99689, 1.99541, 1.99502, 2.0737, 2.09313, 2.09202, 2.07965, 1.99628, 2.06762, 2.08289, 2.09283, 2.08114, 1.99384, 2.07782, 2.09752, 1.99315, 2.08118, 2.07242, 2.07316, 1.99219, 2.08339, 1.99059, 2.07499, 2.07744, 2.07973, 1.98808, 2.06309, 1.98615, 2.07392, 2.05871, 1.98249, 1.98241, 1.98011, 1.98019, 2.07864, 1.89842, 2.02092, 2.00597, 1.89011, 2.00891, 2.01218, 1.88367, 1.88271, 1.88237, 1.88248, 1.87983, 2.00327, 2.10489, 2.0044, 1.88003, 1.8818, 1.87967, 1.97106, 1.88235, 1.88438, 1.88483, 1.88538, 1.99237, 2.07204, 1.88431, 1.80865, 1.80585, 2.10692, 1.79967, 1.91054, 1.89389, 1.79048, 1.78964, 1.78634, 1.83677, 1.83573, 1.78234, 1.7853, 1.78162, 1.78068, 1.78255, 1.84461, 1.89247, 1.83155, 1.78057, 1.77917, 1.91129, 1.78126, 1.77977, 1.78187, 1.91118, 1.77654, 1.77842, 1.90541
2.05617, 1.91902, 1.91826, 2.03239, 1.91411, 1.9136, 1.91369, 1.90715, 1.90729, 1.95517, 1.90119, 1.949, 1.89623, 1.94513, 1.895, 2.08911, 1.889, 1.97513, 1.97652, 2.00726, 1.96882, 1.99964, 1.88259, 2.00238, 1.88063, 1.88106, 1.88394, 2.06446, 1.88097, 2.04922, 2.05079, 2.04373, 2.01639, 2.0466, 1.93455, 2.00658, 1.92905, 2.00259, 2.00026, 1.99644, 2.0417, 1.99303, 1.99087, 1.98925, 1.98584, 1.91105, 1.98644, 1.98736, 2.03866, 1.98867, 1.98902, 1.99189, 1.99399, 1.99684, 2.00338, 2.0104, 2.12062, 2.00306, 2.0868, 2.09033, 2.11213, 1.99987, 1.99766, 1.99591, 2.07375, 2.09078, 2.09703, 2.07252, 2.07347, 2.0941, 2.0854, 2.09013, 2.09085, 2.09105, 2.09354, 1.99457, 1.99406, 1.99327, 2.08431, 2.08977, 1.99264, 2.0819, 1.9913, 1.99077, 1.98962, 2.08075, 2.07449, 1.98718, 1.98584, 1.9836, 1.98348, 1.98237, 1.98113, 1.98218, 2.07489, 2.07567, 2.01317, 1.89608, 1.89435, 1.89107, 1.88861, 2.00801, 1.88328, 1.883, 1.98466, 1.87976, 1.87954, 1.87891, 1.87988, 2.09762, 2.00505, 2.00324, 2.00023, 2.08662, 1.88174, 1.88022, 1.88139, 1.98201, 1.88367, 1.93684, 1.93477, 1.80913, 1.8039, 1.91474, 1.84796, 1.84635, 1.91848, 1.78721, 1.78495, 1.91729, 1.78591, 1.78335, 1.78412, 1.78119, 1.78203, 1.7795, 1.78097, 1.78272, 1.77933, 1.83014, 1.77895, 1.77917, 1.77678, 1.77849, 1.77843, 1.82784, 1.77765, 1.77634, 1.77695, 1.77722
2.05589, 1.92269, 1.92148, 1.92024, 1.91536, 1.91544, 1.91153, 1.91084, 1.90757, 1.90679, 1.90154, 2.00752, 1.89974, 1.99713, 1.89675, 1.89625, 2.08616, 1.88733, 2.00065, 1.93738, 1.99427, 1.88391, 1.88229, 2.00292, 2.00004, 1.97678, 1.88459, 1.8837, 1.88597, 1.95112, 2.05241, 1.94562, 2.01704, 2.01467, 2.01137, 2.01152, 2.00481, 2.0039, 2.00208, 2.12594, 1.92075, 1.91763, 1.91683, 1.99146, 1.99403, 1.98994, 1.91144, 1.98751, 1.98507, 1.9129, 1.99093, 1.99342, 1.99464, 2.03502, 2.03588, 2.13218, 2.03874, 2.0975, 2.09987, 2.07954, 2.07688, 2.07673, 1.99987, 1.99776, 1.99694, 2.09798, 1.99717, 2.0761, 2.10421, 2.08633, 2.09382, 1.99633, 2.08997, 2.08926, 2.09055, 1.99661, 2.08273, 2.08966, 2.0711, 2.08687, 1.99444, 2.08559, 1.99276, 2.07785, 1.98924, 2.08173, 2.0837, 2.07997, 2.08147, 2.08382, 1.98399, 1.98333, 1.9812, 1.98202, 2.06492, 1.98091, 1.89998, 1.89686, 2.00457, 2.00802, 1.88787, 2.0125, 1.88381, 1.88354, 1.8826, 1.8796, 1.92775, 1.87634, 1.87841, 1.87711, 2.00347, 1.87756, 2.00532, 1.87921, 1.97014, 2.00107, 1.88075, 1.88011, 2.09129, 2.0073, 1.93276, 1.96717, 1.80573, 1.79961, 1.84848, 1.79563, 1.79208, 1.88722, 1.78677, 1.91426, 1.91461, 1.78222, 1.91163, 1.78219, 1.78016, 1.77939, 1.77902, 1.77905, 1.83067, 1.8307, 1.77838, 1.8626, 1.89433, 1.77866, 1.82801, 1.90661, 1.7792, 1.77697, 1.77592, 1.77758
1.94573, 1.92182, 1.92078, 2.01703, 1.91837, 1.917, 2.11036, 1.91162, 1.9588, 1.90485, 1.90412, 1.89938, 2.01155, 1.99673, 1.89602, 1.9447, 1.94408, 1.94152, 1.94118, 1.88862, 1.88765, 1.88692, 1.88587, 1.88306, 1.88448, 1.88405, 1.93477, 1.88609, 1.88936, 2.02485, 2.12847, 2.02058, 2.02055, 1.94158, 2.01631, 2.01192, 2.00326, 2.00408, 2.00626, 2.00062, 1.92045, 1.99948, 1.99481, 1.99043, 1.91449, 1.98911, 1.98698, 1.98868, 1.91346, 1.91351, 1.91664, 1.91882, 2.03831, 2.03639, 2.03649, 1.93568, 2.03422, 2.09349, 2.0961, 2.08684, 2.0808, 2.07665, 1.99936, 1.99976, 1.99776, 2.07302, 2.07157, 2.0902, 2.09127, 2.09241, 2.07366, 2.08269, 2.09035, 2.07364, 1.99654, 2.0831, 1.99588, 2.09115, 2.07242, 2.09339, 2.08229, 2.07998, 1.9929, 1.99292, 2.08591, 2.0775, 2.07959, 2.07372, 1.98728, 2.08337, 2.08009, 1.98438, 1.98282, 1.98338, 2.07243, 2.05519, 1.89852, 2.10657, 1.88996, 2.10779, 1.88683, 1.88511, 1.88266, 2.01393, 1.87921, 2.09766, 1.87647, 1.87692, 1.87617, 1.87591, 1.87652, 1.87827, 1.8771, 1.87778, 1.87914, 1.87808, 1.93239, 2.07495, 2.07734, 1.88004, 1.98859, 1.8068, 1.80347, 1.79917, 1.89621, 1.79387, 1.85591, 1.78917, 1.78618, 1.78704, 1.88058, 1.77947, 1.90112, 1.78038, 1.78182, 1.77929, 1.77886, 1.91072, 1.77605, 1.90824, 1.77564, 1.77863, 1.90274, 1.77706, 1.77545, 1.77607, 1.82658, 1.82752, 1.90182, 1.82564
1.94967, 1.97244, 1.92021, 1.92192, 1.91852, 2.03041, 1.91542, 2.03062, 1.912, 1.9089, 1.90647, 1.99608, 1.90138, 1.90239, 2.02044, 1.89656, 1.89634, 1.89584, 1.89029, 1.89086, 1.93899, 2.00646, 1.88663, 1.88623, 1.88663, 1.88625, 1.99394, 1.88862, 1.97635, 2.14925, 2.02448, 2.05284, 2.01794, 2.01753, 2.01369, 1.93493, 2.0098, 2.00807, 1.92721, 2.00165, 1.9995, 2.04883, 1.99474, 1.9921, 1.99037, 1.91179, 1.99, 2.04322, 1.99111, 2.04085, 1.99252, 1.9956, 2.03998, 1.9282, 2.00881, 1.93784, 2.14822, 2.0974, 2.00597, 2.09343, 2.00432, 2.0805, 1.99888, 2.00073, 1.99994, 2.07634, 1.99957, 2.11071, 2.08576, 2.09028, 1.99649, 2.07953, 2.09115, 1.99979, 1.99802, 1.99706, 1.99674, 2.09685, 1.99749, 2.08625, 2.0899, 1.99341, 2.06935, 2.076, 2.08039, 2.08306, 2.07392, 2.07527, 2.07654, 2.07976, 2.06798, 1.98386, 1.97969, 1.9822, 2.07036, 2.07606, 1.89718, 2.01093, 1.89245, 1.88912, 1.88576, 1.98647, 1.88311, 1.87876, 1.87849, 1.8767, 1.87423, 1.86997, 1.87451, 1.875, 1.87368, 1.87432, 1.87567, 1.87315, 1.87856, 1.87575, 1.87604, 1.87949, 1.87714, 1.87707, 1.90284, 1.80792, 1.90978, 1.80007, 1.79444, 1.85534, 1.85445, 1.7873, 1.91313, 1.90766, 1.78346, 1.78282, 1.77965, 1.77786, 1.77877, 1.77854, 1.77956, 1.77848, 1.90656, 1.90664, 1.77842, 1.77514, 1.77593, 1.77337, 1.77597, 1.89556, 1.77591, 1.77658, 1.82702, 1.82497
1.99771, 1.97536, 1.92369, 1.92393, 2.03844, 1.96936, 1.91793, 1.91607, 1.91326, 2.03169, 1.99451, 1.95506, 1.90386, 2.00675, 2.00788, 1.89879, 1.89342, 2.02057, 1.89216, 1.94117, 1.89017, 1.9381, 2.00315, 1.88689, 1.8872, 1.88829, 1.99054, 1.89097, 2.0659, 2.03182, 2.02718, 2.02757, 2.02237, 2.01783, 2.0167, 2.05326, 2.00976, 2.0136, 2.00646, 2.05171, 2.00085, 1.99844, 1.99545, 1.99295, 1.98985, 1.91652, 2.13124, 1.98997, 1.98975, 1.9928, 1.91684, 1.92049, 2.03834, 2.00322, 2.00949, 2.03867, 2.12598, 2.09122, 2.10033, 2.08145, 2.00544, 2.08304, 2.00146, 2.00161, 2.09635, 2.0825, 2.09341, 2.08234, 2.09562, 2.10682, 2.08961, 2.07746, 2.09297, 2.08727, 2.08257, 2.08689, 1.99686, 1.99742, 1.99751, 2.10791, 2.09009, 2.09418, 2.08289, 2.08332, 1.99323, 2.07927, 2.0793, 2.0902, 2.07649, 1.98493, 2.08358, 2.06095, 1.98244, 1.9829, 1.98069, 1.98015, 2.00049, 1.89526, 1.88976, 1.88882, 2.10818, 1.88198, 2.00687, 1.92791, 2.09015, 1.87592, 2.00237, 1.87163, 1.8742, 2.00746, 1.87008, 1.87292, 1.87382, 1.87574, 1.87382, 1.87685, 1.87826, 1.87433, 1.87711, 1.87611, 1.90241, 1.80349, 1.79994, 1.79913, 1.90389, 1.90566, 1.90814, 1.90354, 1.78513, 1.78137, 1.78317, 1.90022, 1.90645, 1.9008, 1.90869, 1.88015, 1.90969, 1.90771, 1.77561, 1.77615, 1.91024, 1.91071, 1.77552, 1.9067, 1.77492, 1.91008, 1.77431, 1.90806, 1.90636, 1.82667
