1.78278, 1.7848, 1.78211, 1.78148, 1.78036, 1.78194, 2.05639, 2.05726, 1.77895, 2.03859, 1.78324, 1.82774, 1.83152, 1.88893, 1.89049, 1.83066, 1.8302, 1.86832, 1.78206, 1.782, 1.78192, 1.88727, 1.87902, 1.83454, 1.83447, 1.78206, 2.03537, 1.78269, 1.78557, 1.78544, 1.78652, 2.05258, 1.78723, 1.78381, 1.78625, 1.78529, 1.78746, 1.83568, 1.78853, 1.83546, 1.78384, 1.78197, 1.96111, 1.88132, 1.78532, 1.78585, 1.87876, 1.78669, 1.88581, 1.78646, 1.78718, 1.78577, 1.78489, 1.7875, 2.05249, 1.78591, 1.78819, 1.78904, 1.85526, 1.85404, 1.8551, 1.85677, 1.85562, 2.01268, 2.01381, 2.01378, 1.85682, 2.01351, 1.85596, 1.85904, 2.01786, 1.85872, 1.93431, 1.86004, 1.86175, 1.86085, 2.04405, 2.01399, 1.94127, 2.01545, 1.93836, 1.9396, 2.04236, 1.93436, 1.93265, 1.93494, 1.94428, 1.85826, 1.93471, 1.93481, 1.9354, 1.9453, 1.93446, 1.94564, 2.03121, 1.93731, 2.02419, 1.9404, 1.94113, 1.95417, 2.02761, 1.86206, 1.95055, 1.94417, 1.94264, 1.94575, 1.94879, 1.94886, 2.04344, 2.05511, 2.02823, 2.01072, 1.93068, 2.02656, 2.0141, 1.93409, 2.01101, 1.935, 1.93395, 1.93778, 1.933, 1.93458, 1.93421, 1.93465, 2.01454, 2.01672, 2.017, 2.04447, 2.0247, 2.03196, 2.02514, 2.03889, 2.03245, 2.01988, 2.0349, 2.02806, 1.94427, 1.94433, 2.02793, 2.0461, 2.02888, 2.03745, 1.9489, 2.02563, 2.03553, 2.03426, 2.02753, 2.04258, 2.03866, 2.0376, 1.9524, 2.03718, 2.03093, 2.03756, 2.035, 2.0322, 2.03096, 2.0319, 2.04481, 2.04876, 2.04056, 2.04285, 2.03829, 2.04699, 2.0412, 2.03824, 2.04182, 2.03877, 1.95908, 2.05604, 2.03327, 2.05228, 2.05235, 2.03631, 2.05465, 2.05635, 2.05628, 2.04866, 2.0493, 1.96257, 1.96278, 1.96261, 1.9653, 2.04697, 1.96611, 2.04607, 1.96598, 2.0481, 2.04505, 2.06906, 2.06982, 2.0483, 1.9041, 1.90598, 1.95269, 2.09792, 1.9056, 2.07686, 1.90223, 2.0898, 2.08679, 1.90202, 1.90322, 1.9012, 1.9032, 1.90464, 1.90437, 1.90227, 1.90173, 2.10129, 1.90292, 2.08675, 2.08393, 1.9004, 2.1169, 2.07979, 1.90201, 1.90312, 1.95298, 1.90463, 1.9541, 2.07997, 2.09256, 1.90308, 1.9528, 1.90371, 1.90357, 2.08807, 1.95472, 1.95211, 1.90063, 1.90472, 1.90652, 1.95183, 1.95451, 1.95375, 1.90378, 1.90317, 2.08428, 1.90413, 1.90402, 1.90393, 1.90441, 1.90299, 1.90728, 1.82742, 1.82458, 1.93468, 1.93798, 1.93262, 1.82037, 1.94218, 1.94031, 1.8173, 1.81763, 1.81464, 1.81314, 1.81092, 1.81018, 1.91403, 1.81423, 1.81061, 1.92823, 1.93415, 1.80986, 1.80924, 1.86234, 1.91954, 1.91584, 1.90001, 1.87578, 1.85819, 1.93509, 1.93261, 1.8792, 1.87654, 1.85114, 1.93118, 1.80041, 1.80027, 1.80077, 1.93221, 1.85205, 1.87354, 1.87164, 1.85181, 1.79825, 1.79734, 1.80129, 1.79917, 1.93105, 1.80027, 1.79831, 1.79639, 1.9309, 1.79471, 1.90298, 1.79315, 1.79627, 1.9268
1.78259, 1.78402, 1.77808, 1.782, 1.78457, 2.05399, 2.0492, 1.77629, 1.77876, 1.78124, 1.77677, 1.77887, 1.77866, 1.82903, 1.77993, 1.88952, 1.89116, 1.78144, 1.8326, 1.8338, 1.77997, 1.77963, 1.78322, 1.78635, 1.78584, 2.05304, 1.78544, 1.78215, 2.06345, 1.78235, 1.78396, 1.78617, 1.78377, 1.89569, 1.78535, 1.78731, 1.78932, 1.78322, 2.0607, 1.7864, 1.96369, 1.7843, 1.8703, 1.78375, 1.78393, 1.83378, 1.78466, 1.78269, 1.78371, 1.78545, 1.78511, 1.78714, 1.78366, 1.78555, 1.78685, 1.78652, 1.79041, 1.79201, 1.79344, 1.85591, 1.85666, 1.85721, 1.85837, 2.01235, 2.0106, 1.85778, 2.01197, 2.01057, 2.01138, 1.85727, 1.85721, 2.05233, 1.93362, 2.01335, 2.03449, 2.01684, 2.0133, 2.01569, 2.0322, 1.94073, 1.93893, 1.93858, 1.9417, 2.03848, 1.93902, 1.93337, 1.86006, 2.01764, 1.94456, 1.9343, 1.94452, 1.94399, 1.94605, 1.93876, 1.94065, 1.93802, 1.95289, 2.02696, 2.03477, 1.94067, 2.02821, 1.86336, 2.03246, 1.94438, 1.94346, 1.94596, 1.94683, 2.04061, 2.0353, 2.0362, 2.01733, 2.02081, 2.01333, 1.93191, 2.02445, 1.93365, 2.03465, 1.9319, 1.93153, 1.93348, 1.93434, 1.9353, 1.938, 1.93494, 1.93822, 2.01532, 2.03835, 1.93728, 2.03451, 2.01668, 2.03236, 2.02753, 2.03366, 2.03173, 1.94395, 2.02159, 2.04157, 2.02927, 2.02381, 2.02309, 2.04503, 2.01739, 2.02444, 2.02899, 1.95093, 2.0362, 2.02895, 2.0388, 2.0385, 2.05252, 2.02816, 2.03505, 2.03463, 2.04131, 2.03846, 2.03744, 1.95465, 2.0552, 2.04199, 2.05215, 2.03822, 2.04649, 2.04795, 2.04641, 2.04616, 2.03509, 2.03478, 2.0357, 2.05566, 2.04124, 2.05249, 2.0385, 2.05634, 2.05501, 2.04157, 1.96505, 2.03769, 2.03784, 1.96374, 2.0376, 1.96549, 1.96874, 2.03724, 1.96526, 1.96385, 2.0473, 2.04453, 1.966, 2.04818, 2.04148, 2.05692, 2.10687, 1.90658, 1.95565, 1.95472, 1.95438, 1.95311, 2.07858, 1.90289, 1.95053, 1.90401, 1.90343, 1.90372, 1.90136, 1.90084, 2.00183, 1.9028, 1.90276, 1.90067, 1.90196, 1.89904, 1.90348, 1.90295, 1.90235, 2.08575, 1.9049, 1.90446, 1.95276, 1.90336, 1.90255, 1.90252, 1.90074, 2.09041, 1.90122, 1.90348, 2.08771, 1.90011, 2.0893, 2.08671, 1.90148, 1.99321, 1.95419, 1.90334, 1.90431, 1.99121, 1.90333, 2.07881, 2.07801, 1.90673, 1.90396, 1.90069, 1.90719, 1.9057, 1.90359, 1.9035, 1.82672, 1.82348, 1.823, 1.93602, 1.81981, 1.81852, 1.93245, 1.81733, 1.93162, 1.81432, 1.9342, 1.92342, 1.86546, 1.86235, 1.91645, 1.92828, 1.81027, 1.80813, 1.81069, 1.92926, 1.859, 1.80917, 1.93345, 1.80917, 1.8076, 1.80511, 1.85746, 1.85579, 1.91829, 1.80215, 1.87945, 1.87609, 1.89701, 1.80389, 1.80413, 1.80326, 1.79722, 1.80391, 1.80243, 1.85065, 1.7976, 1.85094, 1.79953, 1.89518, 1.89256, 1.93402, 1.93371, 1.79673, 1.79268, 1.7954, 1.79419, 1.79692, 1.79901, 1.92239, 1.7966
2.05299, 1.78183, 1.78163, 1.96012, 1.77702, 1.77929, 2.04239, 1.77901, 1.77818, 1.7794, 2.05074, 1.77861, 1.78011, 1.77992, 1.7798, 1.7819, 1.77954, 1.78008, 1.77984, 1.77981, 1.77973, 1.86959, 1.78515, 1.9662, 1.78287, 1.78498, 1.78545, 1.78687, 1.78556, 1.78571, 1.8375, 1.78686, 1.78616, 1.78618, 1.78741, 1.78778, 1.78228, 1.78387, 1.78569, 1.7828, 1.78487, 1.78322, 1.78245, 1.83262, 2.0382, 1.785, 1.78661, 1.78245, 1.88215, 1.78589, 1.78678, 1.78446, 1.78592, 1.78544, 2.05154, 1.78888, 1.79011, 1.7914, 1.86124, 1.85634, 1.8563, 1.85763, 1.85626, 1.85628, 2.01787, 2.01077, 2.01159, 2.01452, 2.01518, 2.01751, 2.01395, 1.85863, 2.0114, 1.85714, 2.04322, 2.03404, 1.93524, 1.85886, 2.02157, 2.02167, 1.93493, 1.85873, 1.93168, 1.94097, 1.94272, 1.94103, 2.01857, 2.01815, 1.85844, 1.94005, 1.94119, 1.93345, 1.93451, 1.93611, 1.94819, 1.93699, 1.94872, 1.85938, 1.93713, 1.9379, 1.94791, 1.93773, 1.94892, 1.95156, 1.94859, 1.94607, 1.94691, 1.87531, 2.03686, 2.05371, 2.01774, 2.0153, 2.01598, 2.01464, 2.00716, 2.01206, 2.01388, 2.02729, 1.93433, 1.93482, 1.93392, 1.93619, 1.93494, 1.93555, 1.93854, 1.93721, 2.0167, 2.02042, 2.03779, 2.02576, 2.03703, 2.0345, 2.05232, 2.03986, 2.04558, 2.04565, 2.03371, 2.04383, 2.03817, 2.03534, 2.02775, 2.02814, 2.02156, 2.02165, 2.03058, 2.03549, 2.0279, 1.95211, 2.02805, 1.95178, 2.04633, 2.04185, 2.03482, 2.05142, 2.03184, 2.03164, 2.03238, 2.05606, 2.05288, 2.05178, 2.04975, 2.034, 2.03879, 2.04363, 2.04248, 2.03531, 1.95961, 2.05528, 2.06115, 2.039, 2.07144, 2.04547, 2.04982, 2.05473, 2.04186, 2.04177, 2.05689, 2.03841, 2.04834, 2.04502, 2.03858, 2.04247, 2.04146, 2.04258, 1.96445, 1.96859, 1.96655, 1.96568, 2.04537, 2.04196, 1.96718, 2.07631, 1.90381, 1.90666, 1.95519, 1.90191, 1.95722, 1.90091, 1.9002, 1.90071, 1.90234, 1.901, 2.09687, 2.0893, 1.90426, 1.90231, 1.99616, 1.99306, 1.90411, 1.90261, 1.90353, 2.08384, 2.08083, 1.89968, 1.89957, 1.90366, 2.09317, 1.90184, 1.90497, 2.09388, 1.90325, 2.09376, 1.90414, 1.90256, 1.9586, 1.90439, 1.90255, 1.90389, 1.90323, 2.09704, 1.90384, 1.90104, 1.99345, 1.99056, 1.90295, 1.90486, 2.08688, 2.08636, 1.90312, 1.90277, 1.90362, 1.90029, 1.9051, 1.90501, 2.07984, 2.0802, 1.9377, 1.94284, 1.94102, 1.93883, 1.93733, 1.93864, 1.81743, 1.81671, 1.93468, 1.93723, 1.93608, 1.86506, 1.81605, 1.80902, 1.8121, 1.81025, 1.93347, 1.93536, 1.80741, 1.8095, 1.80903, 1.93867, 1.93668, 1.80701, 1.80606, 1.80478, 1.85613, 1.85346, 1.96855, 1.96665, 1.85416, 1.91619, 1.80275, 1.92743, 1.802, 1.93195, 1.80213, 1.79879, 1.79678, 1.79591, 1.85013, 1.79714, 1.91737, 1.9151, 1.79493, 1.79424, 1.79366, 1.79441, 1.79641, 1.79524, 1.92475, 1.93151, 1.79337, 1.792
1.78136, 1.78455, 1.77967, 1.78328, 2.04254, 2.05075, 1.78033, 1.77858, 1.77825, 1.77815, 2.06571, 1.77704, 1.77748, 1.7775, 1.7785, 1.7793, 1.77904, 1.88685, 1.78265, 1.7828, 1.88564, 1.78547, 1.78576, 1.78315, 1.78749, 2.05526, 1.78625, 1.88619, 1.83709, 1.78384, 1.78289, 2.06654, 1.78435, 1.78403, 1.78579, 1.78635, 1.78326, 1.7849, 1.78244, 1.7845, 1.78373, 1.7827, 1.78176, 1.78155, 1.78294, 1.78513, 1.78294, 1.78265, 1.78295, 1.88612, 1.78246, 1.78271, 1.78824, 1.78446, 1.83661, 1.96403, 2.05327, 2.05004, 1.85745, 1.85613, 1.85755, 1.85729, 1.85563, 1.85738, 1.85815, 1.85524, 2.0085, 2.01353, 2.01221, 1.85864, 2.0139, 1.85869, 1.86187, 2.01475, 2.01755, 2.03418, 2.03073, 2.01574, 1.85977, 2.01839, 2.03577, 2.02792, 1.85818, 1.8579, 1.85893, 1.93364, 1.93157, 1.93292, 1.94377, 1.94157, 1.9327, 2.03162, 1.93471, 1.94471, 1.94739, 1.93753, 1.93421, 1.94917, 1.9478, 1.86106, 1.95228, 1.94146, 1.94148, 1.9515, 1.95186, 1.95313, 2.0558, 2.04155, 2.03495, 2.04129, 2.0146, 2.02458, 2.01143, 2.00958, 2.00965, 2.0102, 2.01162, 2.02006, 1.9327, 1.93143, 1.93278, 1.93406, 1.93743, 1.93584, 1.93731, 1.93578, 2.01514, 2.01617, 2.0243, 2.02683, 2.03239, 2.04272, 2.04612, 2.03834, 2.03105, 1.942, 2.03498, 2.03841, 2.04067, 2.03946, 2.03113, 1.94553, 2.04845, 2.02548, 2.02556, 1.94907, 2.03631, 2.03251, 2.03128, 2.04437, 2.03982, 2.02866, 2.03093, 2.0286, 2.05473, 2.0316, 2.04664, 2.03863, 1.95637, 2.03503, 2.0474, 2.05389, 2.05181, 2.05142, 2.04827, 2.03398, 2.03756, 2.04056, 1.95921, 2.05868, 2.03662, 2.04935, 2.04324, 2.03462, 1.96164, 2.03773, 2.07752, 2.03608, 1.96267, 2.04444, 2.0405, 2.04085, 1.96381, 2.03873, 2.04261, 2.03953, 2.06041, 2.04427, 2.05214, 2.0517, 2.04775, 1.904, 1.90428, 1.90191, 2.07879, 2.08331, 2.07559, 1.9039, 1.9029, 1.9014, 1.89828, 1.90451, 1.90237, 2.00291, 1.90265, 1.90379, 1.90328, 1.99674, 1.99505, 1.89884, 2.09281, 1.90519, 1.90343, 1.903, 1.90151, 1.90233, 1.90374, 1.9632, 2.11041, 2.09063, 2.10026, 2.09947, 2.08822, 1.96387, 1.96184, 1.90341, 1.89757, 2.08028, 2.07898, 2.07723, 2.07994, 1.95455, 1.95457, 2.08941, 2.10899, 1.9032, 1.90315, 2.10071, 2.10115, 1.90301, 2.07558, 1.90251, 2.07877, 1.90317, 2.07666, 1.82439, 1.82151, 1.9355, 1.8186, 1.9372, 1.93376, 1.81591, 1.81793, 1.92067, 1.81399, 1.81356, 1.81599, 1.81716, 1.81298, 1.81263, 1.81185, 1.81067, 1.81103, 1.89926, 1.81251, 1.9026, 1.93828, 1.80944, 1.80721, 1.93145, 1.93858, 1.80686, 1.80573, 1.85603, 1.91632, 1.91772, 1.80462, 1.9035, 1.8519, 1.85173, 1.80364, 1.80216, 1.80093, 1.79999, 1.93218, 1.79959, 1.93039, 1.79808, 1.79704, 1.91829, 1.93124, 1.79337, 1.79453, 1.79246, 1.79077, 1.794, 1.79543, 1.9345, 1.79363, 1.79622
1.78499, 1.78053, 1.78177, 1.78392, 2.04425, 2.04267, 1.77941, 1.77887, 1.77984, 1.77993, 1.77937, 1.77959, 1.78043, 1.7781, 1.78041, 1.88582, 1.77994, 1.77928, 1.78151, 2.05656, 1.78426, 1.78598, 1.78619, 1.96166, 1.784, 1.78672, 1.78746, 1.78562, 1.88824, 1.89005, 1.89239, 1.89413, 1.83669, 1.78205, 1.78472, 1.78881, 1.83612, 1.7824, 1.78536, 1.87528, 1.78577, 1.78573, 1.78341, 2.04469, 1.78423, 1.78194, 1.78257, 1.88868, 1.7886, 1.86578, 1.83576, 2.02416, 1.78541, 1.83811, 1.78429, 1.78666, 1.79056, 1.79074, 1.85758, 1.85888, 1.8567, 1.8564, 1.85758, 1.86207, 1.85864, 1.85535, 2.03779, 2.02069, 2.01769, 1.93598, 2.04269, 2.01188, 1.86132, 1.93385, 1.93772, 2.01121, 2.01646, 1.93248, 2.01551, 2.01423, 2.01213, 1.93864, 1.93105, 1.93265, 1.93892, 1.85893, 1.93426, 1.93197, 1.94147, 1.94199, 1.9348, 1.93448, 1.94411, 1.93594, 1.93806, 1.93237, 2.02836, 1.85887, 1.95112, 2.03389, 1.93724, 1.95293, 1.95282, 1.95195, 1.94544, 1.95204, 1.95207, 1.95076, 2.04971, 2.03138, 2.01332, 2.00865, 2.01724, 2.01862, 2.01134, 2.00907, 1.93276, 2.0073, 2.01577, 1.93208, 1.93309, 1.93532, 1.93855, 1.93668, 2.01675, 2.01426, 2.01447, 2.01791, 2.015, 2.031, 2.03868, 2.02508, 2.03091, 2.03186, 2.02712, 2.02976, 2.03079, 1.94581, 2.02532, 2.03234, 2.02357, 2.04916, 2.04508, 2.02465, 2.04031, 2.03881, 2.03595, 2.03101, 2.02748, 2.03496, 2.03086, 2.03971, 1.95252, 1.95252, 2.04281, 2.04442, 2.03544, 2.03182, 2.03147, 2.04083, 2.0408, 2.03702, 1.95775, 2.03805, 1.958, 2.03918, 2.04741, 1.95628, 2.03837, 2.05558, 2.04494, 2.03597, 2.03809, 2.03756, 2.03622, 1.96123, 2.05129, 2.03916, 2.03961, 2.04569, 2.04397, 2.04263, 2.03761, 2.0405, 2.04112, 2.04182, 2.0505, 2.06489, 2.04866, 2.05634, 2.04997, 2.08575, 2.07684, 1.90139, 1.90402, 1.9017, 1.95203, 1.9031, 1.9019, 1.89967, 1.90043, 1.90019, 2.09296, 1.9538, 1.95155, 1.9513, 1.95184, 1.98592, 1.95436, 1.97534, 1.95162, 1.90272, 2.08902, 1.90376, 1.90335, 1.90157, 1.90299, 1.90363, 1.90479, 1.90511, 2.09626, 2.10122, 2.09879, 1.90155, 2.08627, 2.11103, 1.90325, 1.90579, 1.90666, 2.07979, 1.90031, 1.9928, 1.9029, 1.90307, 2.08727, 1.90663, 2.08605, 2.0805, 1.90328, 1.90552, 1.90497, 1.90298, 2.0798, 2.08216, 2.08093, 1.82686, 1.93759, 1.9362, 1.82041, 1.82043, 1.82108, 1.81975, 1.81704, 1.93466, 1.91779, 1.93545, 1.81452, 1.81468, 1.9407, 1.90843, 1.93487, 1.81267, 1.81112, 1.98587, 1.93772, 1.80684, 1.80621, 1.80745, 1.80872, 1.8063, 1.93745, 1.80311, 1.93248, 1.80688, 1.80299, 1.80278, 1.80669, 1.80045, 1.80249, 1.80198, 1.79829, 1.79964, 1.92657, 1.7964, 1.92308, 1.93332, 1.79809, 1.79779, 1.92529, 1.93486, 1.79296, 1.79584, 1.97272, 1.79342, 1.79278, 1.78991, 1.78795, 1.79345, 1.92801, 1.79197
1.78209, 1.78301, 1.78288, 1.78303, 1.77833, 1.777, 1.77996, 1.77845, 2.06318, 1.77838, 1.78202, 1.88093, 1.88183, 1.78171, 1.77802, 1.78285, 1.78235, 1.78089, 1.78223, 1.83234, 1.78282, 1.78249, 1.78245, 1.78358, 1.88503, 1.83356, 1.78389, 1.88155, 1.96273, 1.78712, 1.78581, 1.78508, 1.78511, 1.78489, 1.78607, 1.78875, 2.05123, 1.78462, 1.78712, 1.87567, 1.87554, 1.88474, 1.88534, 1.88596, 1.78029, 1.78393, 1.87275, 1.83345, 1.83432, 1.84567, 1.83754, 1.87149, 1.83737, 1.87202, 1.83674, 1.78846, 1.78652, 1.79019, 2.01171, 2.01148, 1.85842, 1.93395, 1.8576, 1.85944, 1.85963, 1.86113, 1.85882, 1.8578, 1.85705, 1.85784, 2.01242, 2.01444, 2.01521, 2.01799, 1.93486, 2.01104, 2.04254, 2.03125, 2.01451, 1.85846, 1.9288, 1.86021, 2.01537, 1.94112, 1.93791, 1.94148, 1.93366, 1.93452, 1.93452, 1.94249, 1.945, 1.94231, 1.93485, 1.93773, 1.93386, 2.02334, 1.93493, 1.93539, 1.93418, 2.04138, 1.86195, 1.93792, 1.95197, 1.86469, 1.94638, 1.95395, 1.95284, 1.95439, 2.03821, 2.04876, 2.0126, 2.01026, 2.01794, 2.01702, 2.01438, 2.01335, 2.01242, 2.01211, 1.93057, 2.00625, 1.93421, 2.01014, 1.93588, 1.93515, 1.93475, 1.93475, 2.01313, 2.01509, 2.02814, 1.94126, 2.02847, 2.02388, 2.03406, 1.94444, 2.0582, 1.94244, 2.02946, 2.03204, 1.94619, 2.0403, 1.94875, 2.03439, 2.05098, 2.04672, 2.04256, 2.0494, 2.02847, 2.03147, 2.03016, 2.03094, 2.0475, 2.03934, 2.0358, 2.04233, 2.039, 2.03834, 2.05148, 2.04548, 2.04759, 1.95587, 2.03735, 2.0486, 2.0428, 1.95438, 2.04095, 2.04192, 1.95909, 2.05599, 2.06156, 2.05492, 2.04526, 2.03921, 2.04566, 2.04894, 1.9615, 1.96309, 2.05605, 1.96217, 2.04852, 2.04727, 2.0452, 2.04108, 2.04222, 2.04113, 1.96621, 1.96582, 1.9657, 2.06038, 2.04833, 2.05089, 1.96991, 1.96928, 1.90426, 1.90026, 1.89945, 2.08512, 2.00114, 1.99924, 1.89889, 1.90233, 1.90287, 1.95105, 1.90332, 1.90323, 2.08594, 1.95463, 1.95566, 1.95502, 1.95289, 1.95534, 1.9542, 1.90479, 1.90432, 1.90302, 2.00012, 1.95833, 1.90531, 1.903, 1.90307, 1.90374, 1.90632, 1.9033, 1.95278, 1.90032, 1.99023, 1.95226, 1.90051, 1.90649, 1.90354, 2.00048, 1.89933, 2.08254, 1.95183, 1.95187, 1.95135, 1.98712, 1.95305, 2.0839, 1.9981, 1.90279, 1.90136, 2.07682, 1.90393, 1.90289, 2.08237, 1.8295, 1.82644, 1.93794, 1.82293, 1.93981, 1.93731, 1.93694, 1.86964, 1.92166, 1.92311, 1.8129, 1.81095, 1.81063, 1.90641, 1.93795, 1.93838, 1.81065, 1.80928, 1.81086, 1.90689, 1.93468, 1.85844, 1.80632, 1.80731, 1.80638, 1.90345, 1.80622, 1.93514, 1.80281, 1.80698, 1.80434, 1.80226, 1.93136, 1.85159, 1.80123, 1.93059, 1.9317, 1.93144, 1.93061, 1.79881, 1.79763, 1.98454, 1.79733, 1.79586, 1.9334, 1.79466, 1.79572, 1.79231, 1.84248, 1.96207, 1.84259, 1.79074, 1.78651, 1.93047, 1.92382
2.04017, 1.78236, 1.78151, 1.77996, 1.781, 1.78152, 1.78243, 1.78121, 1.77866, 1.78254, 1.78116, 1.78064, 1.78117, 2.049, 1.77863, 2.04025, 1.78185, 1.83251, 1.78051, 1.78238, 1.83343, 1.78513, 1.78249, 1.78472, 1.78535, 1.78515, 1.96258, 1.789, 1.7866, 2.04312, 1.78441, 1.78626, 2.05562, 1.7893, 1.7851, 2.07249, 1.78654, 1.78345, 2.05528, 1.78484, 1.78391, 1.88013, 1.88642, 1.7857, 1.78426, 1.78201, 1.78387, 1.78348, 1.78098, 1.83444, 1.83751, 1.83124, 1.87463, 1.83746, 1.8371, 1.78727, 1.78715, 1.78706, 2.00979, 2.01168, 2.01113, 1.8578, 2.01369, 2.01229, 1.85701, 2.01362, 2.02088, 2.01146, 2.01144, 2.01192, 2.01011, 1.86161, 1.86237, 2.01053, 1.85935, 2.02913, 1.85701, 1.93817, 1.85872, 1.85983, 1.85884, 1.9322, 2.04935, 1.93997, 1.93999, 1.94134, 2.01697, 1.93394, 1.94419, 1.94097, 1.93284, 1.93114, 1.94407, 1.94498, 1.93539, 1.93358, 1.85922, 1.85886, 1.93825, 1.93721, 1.86257, 1.939, 1.93947, 1.93938, 1.9554, 1.94847, 1.94923, 2.03125, 2.03172, 2.04419, 2.02129, 2.02306, 2.01763, 1.93321, 2.00831, 2.01011, 2.01066, 2.00826, 1.93286, 2.01164, 2.00819, 2.00798, 2.00971, 2.01083, 1.93763, 2.01185, 2.01181, 2.01602, 2.01337, 2.03199, 2.0259, 2.03541, 2.01661, 2.0326, 2.03197, 2.0474, 2.01638, 2.01653, 1.94645, 2.03423, 2.04141, 2.03849, 2.02465, 2.03566, 2.04401, 2.02514, 2.05215, 2.0479, 2.0282, 2.03394, 2.02849, 1.9543, 2.03891, 2.0384, 1.95556, 1.95577, 2.04235, 2.04578, 2.04436, 2.06324, 1.95899, 2.04461, 2.04839, 2.05176, 1.95927, 2.0437, 2.05513, 2.03538, 2.03393, 2.06221, 2.03732, 2.05151, 2.05342, 2.05498, 2.05873, 2.0381, 2.03915, 2.05883, 2.03913, 2.04108, 2.04664, 2.03842, 1.96364, 1.96459, 2.04189, 2.04091, 1.96617, 2.04123, 2.05235, 2.04064, 2.04877, 1.98742, 1.90277, 1.90076, 1.90094, 1.90215, 2.0039, 2.00316, 2.09762, 1.89707, 1.95242, 1.89966, 1.90022, 1.90155, 1.90155, 1.90306, 1.95359, 1.95147, 1.90362, 1.98796, 1.95547, 1.98933, 1.90273, 2.08242, 2.08244, 2.10059, 1.90257, 1.90536, 1.90496, 1.90529, 1.90316, 1.95481, 1.95338, 1.95447, 1.98862, 1.98841, 1.90018, 2.10395, 1.903, 1.90236, 1.9008, 2.09282, 1.8993, 1.98812, 1.90007, 1.98922, 2.07396, 1.9498, 1.95189, 1.90083, 1.9012, 2.08328, 2.08366, 1.90338, 1.8307, 1.8298, 1.82619, 1.82666, 1.87299, 1.87097, 1.94129, 1.94132, 1.95806, 1.81599, 1.812, 1.93964, 1.81433, 1.90902, 1.81544, 1.81391, 1.93645, 1.8643, 1.86167, 1.86111, 1.85964, 1.8073, 1.80831, 1.80722, 1.80749, 1.85784, 1.93699, 1.91474, 2.11344, 1.93492, 1.80176, 1.93975, 1.9374, 1.80301, 1.80063, 1.80002, 1.93185, 1.79811, 1.93366, 1.93374, 1.93065, 1.80042, 1.91797, 1.93027, 1.92359, 1.91991, 1.84236, 1.84155, 1.79239, 1.79224, 1.79146, 1.84104, 1.88079, 1.78893, 1.78819, 1.91684
1.78581, 1.7861, 2.04655, 1.78257, 2.05203, 1.78075, 1.78013, 1.78061, 1.78152, 1.78336, 1.7796, 1.78022, 1.78033, 1.78163, 1.78169, 1.78184, 1.83312, 1.87128, 1.87018, 1.78517, 1.7854, 1.78606, 1.78535, 2.03952, 1.78274, 1.78501, 1.7844, 1.78421, 1.78304, 1.78554, 1.83366, 1.83467, 1.78542, 1.78518, 1.78816, 1.77973, 1.83408, 1.78354, 1.78363, 1.88303, 1.78502, 1.78615, 1.78347, 1.83358, 1.83332, 1.89642, 1.89745, 1.78367, 1.83398, 1.87157, 1.78335, 1.78438, 1.87591, 1.83379, 1.78714, 2.0766, 1.78584, 1.78599, 2.01654, 2.01637, 2.01689, 2.02028, 1.85756, 2.01308, 2.01269, 1.8585, 2.01396, 2.02081, 2.02806, 2.01398, 2.01445, 1.85763, 1.85991, 2.01172, 1.85628, 2.01793, 2.01569, 1.85827, 1.86196, 1.93938, 2.03595, 1.85983, 1.85735, 1.94134, 1.85824, 1.8572, 1.93376, 1.93486, 1.93519, 1.94364, 2.02049, 1.85856, 1.94594, 1.94651, 1.95008, 1.93778, 1.93805, 1.93748, 1.93879, 1.9396, 1.93767, 1.9516, 1.93834, 2.03535, 2.04556, 2.04711, 1.94612, 1.87197, 2.03288, 2.04337, 2.01779, 2.00369, 2.01531, 2.0231, 2.02456, 2.01896, 2.01963, 2.0213, 2.00681, 2.0146, 2.01176, 2.01019, 2.01157, 2.01352, 2.01457, 2.01153, 2.01332, 1.9365, 2.02409, 2.04514, 2.03215, 2.01687, 2.03076, 2.01683, 2.01701, 2.01702, 2.0176, 2.01742, 2.05551, 1.94747, 1.94794, 2.02408, 2.04609, 2.04531, 2.03512, 2.03546, 2.05028, 2.04666, 1.95233, 1.95137, 1.95223, 2.03236, 2.03763, 2.04852, 2.0463, 2.05888, 2.04172, 2.04156, 1.95815, 2.04426, 2.04203, 2.04144, 2.04146, 1.95758, 2.03977, 2.04476, 2.03829, 1.95892, 1.95879, 2.037, 2.03805, 2.04177, 2.03873, 1.96189, 2.05763, 2.04119, 2.04009, 2.04179, 2.04114, 2.04193, 2.03725, 2.03878, 1.96388, 1.96607, 1.96541, 1.96529, 2.04451, 2.04442, 2.04487, 2.04792, 2.06235, 1.90483, 2.07693, 2.08689, 1.90001, 2.08611, 1.90033, 1.89959, 2.00221, 1.89932, 1.90035, 1.99437, 1.89781, 1.89895, 1.90034, 2.00046, 1.90285, 1.96173, 1.95228, 1.99324, 1.99336, 1.97935, 1.95418, 1.90267, 1.90108, 2.00133, 1.90499, 2.0968, 2.09403, 1.90622, 1.90609, 1.9043, 1.90506, 1.95417, 1.90237, 1.90306, 1.90227, 2.10194, 2.09343, 1.9029, 2.08558, 2.102, 1.89986, 1.99331, 1.95072, 1.90017, 1.89947, 1.90155, 1.98626, 1.9519, 1.90367, 1.90305, 1.90152, 2.08296, 1.90422, 1.82412, 1.92391, 1.93404, 1.82426, 1.82319, 1.82055, 1.93676, 1.92123, 1.93183, 1.81595, 1.9444, 1.81073, 1.93463, 1.81583, 1.81355, 1.8101, 1.86447, 1.92333, 1.86228, 1.86435, 1.90895, 1.90734, 1.92251, 1.80606, 1.85782, 1.85493, 1.80631, 1.80659, 1.80479, 1.80403, 1.80569, 1.93157, 1.80273, 1.80163, 1.80245, 1.80245, 1.80315, 1.80035, 1.79759, 1.93553, 1.93201, 1.79477, 1.91848, 1.91374, 1.79073, 1.84302, 1.79222, 1.84056, 1.83895, 1.83961, 1.8383, 1.78794, 1.78726, 1.78638, 1.92815
2.04608, 2.04851, 1.88546, 1.83186, 1.8337, 1.83156, 1.83078, 2.02707, 1.83391, 1.78015, 1.78077, 1.78122, 1.7829, 1.78527, 1.78262, 1.89257, 1.78324, 1.83264, 1.78289, 1.83417, 1.83369, 1.7845, 1.78515, 1.78512, 1.7876, 1.78577, 1.78647, 1.9612, 1.96638, 1.83454, 1.8356, 1.83688, 1.83468, 1.78759, 1.78847, 1.83665, 1.83528, 1.87256, 1.78378, 1.78442, 1.78442, 1.78515, 1.78246, 1.78206, 1.83403, 1.83317, 1.78574, 1.78347, 1.78253, 1.78315, 1.78435, 1.83527, 1.78167, 1.78917, 1.78556, 1.78387, 1.78482, 1.78618, 2.01674, 2.01793, 2.01848, 2.01205, 2.00999, 2.01775, 2.01902, 1.86069, 1.85967, 1.85873, 1.85775, 1.85786, 2.014, 2.01401, 2.03139, 2.03579, 1.93596, 1.85889, 2.01653, 1.93438, 1.85881, 1.85887, 1.93457, 1.85973, 2.01907, 1.94114, 1.94059, 1.94227, 1.93393, 1.94185, 1.93132, 1.93236, 1.94852, 1.93198, 1.94932, 1.93448, 1.93521, 1.93232, 1.94771, 1.85773, 1.8583, 1.95153, 1.93703, 1.95187, 1.95105, 1.86489, 1.94166, 2.02724, 1.95475, 1.94566, 1.87791, 1.88941, 2.01794, 2.00851, 2.00753, 2.01701, 1.93377, 2.01263, 2.01514, 2.01042, 2.0174, 2.01713, 2.01246, 2.01095, 2.01219, 2.01217, 2.01183, 2.01334, 2.0138, 2.03417, 1.93852, 1.93937, 2.01911, 2.02544, 2.02501, 2.0175, 2.03458, 2.03094, 2.0207, 2.0315, 2.01929, 2.02839, 2.04148, 1.94711, 1.94655, 1.94794, 1.94865, 1.9506, 2.028, 2.03503, 2.04456, 2.02905, 2.02807, 2.04655, 2.04856, 2.04572, 2.04688, 2.04864, 2.03922, 2.03445, 2.03404, 2.03382, 2.03283, 2.04614, 2.05098, 2.0308, 1.95813, 2.05826, 2.03534, 2.03645, 2.03731, 2.06679, 2.03741, 2.03731, 2.034, 2.03785, 2.03574, 2.03773, 2.05847, 2.05933, 2.03827, 2.04423, 2.04486, 2.03847, 2.04474, 2.04312, 1.96482, 2.03907, 1.96822, 1.96605, 2.04075, 2.05316, 2.05288, 1.90124, 1.90094, 1.90055, 1.90055, 2.0763, 2.07679, 1.90299, 2.1, 2.08128, 1.89953, 2.08294, 1.90002, 2.07298, 1.89919, 2.09519, 1.90382, 1.9026, 2.097, 2.09988, 1.90259, 1.98995, 1.9871, 1.90274, 1.90301, 1.90348, 2.0837, 2.08379, 1.90387, 2.08297, 2.07755, 1.95282, 1.95188, 1.90117, 1.90361, 2.11826, 2.08743, 2.10135, 2.10349, 1.90322, 2.07931, 1.89976, 1.89792, 1.90259, 1.95357, 1.95149, 1.95267, 1.95052, 1.95088, 1.95135, 1.90031, 1.90229, 1.90091, 2.00066, 1.90534, 1.82677, 1.93463, 1.82546, 1.82325, 1.82281, 1.82265, 1.82056, 1.86867, 1.82074, 1.9293, 1.81596, 1.81288, 1.81276, 1.86472, 1.87356, 1.86462, 1.8625, 1.85949, 1.80899, 1.8083, 1.85953, 1.85782, 1.8083, 1.80815, 1.94077, 1.90236, 1.80491, 1.80329, 1.9354, 1.8032, 1.80369, 1.80087, 1.93313, 1.7991, 1.80081, 1.80239, 1.80163, 1.79908, 1.79781, 1.79767, 1.91159, 1.79586, 1.79536, 1.9247, 1.79318, 1.84108, 1.91514, 1.79021, 1.78855, 1.78605, 1.7875, 1.78616, 1.93415, 1.78376, 1.78544
1.84443, 1.78089, 1.78239, 1.83585, 1.83705, 1.83488, 1.78538, 1.783, 1.87136, 1.83407, 1.78204, 1.78296, 1.88943, 1.959, 1.78575, 1.78667, 1.78472, 1.83489, 1.88165, 1.78551, 1.78515, 1.83416, 1.78648, 1.78591, 1.78891, 1.78537, 1.78508, 1.78527, 1.96889, 1.78579, 1.88543, 1.83667, 1.8347, 1.78593, 1.78588, 1.88834, 1.89001, 1.78417, 1.78423, 1.78564, 1.78463, 1.78303, 1.78229, 1.8906, 1.88519, 1.78024, 1.78077, 1.78559, 1.77938, 1.89306, 1.88482, 1.78572, 1.78089, 1.78232, 1.78258, 1.7848, 1.78509, 1.78549, 2.01063, 2.01114, 2.01642, 2.01817, 2.01463, 2.01697, 2.01666, 2.01705, 1.8583, 2.02382, 2.02645, 1.85969, 1.93626, 1.93705, 2.01571, 2.01289, 1.85844, 1.93106, 1.93167, 2.01452, 1.94123, 1.8583, 1.93712, 1.85922, 1.93831, 1.93902, 1.85808, 1.8575, 1.85508, 1.85551, 1.94242, 1.94323, 1.85633, 1.93418, 1.94455, 2.03078, 1.94887, 1.93406, 1.93399, 2.04968, 1.94978, 1.93607, 1.86174, 1.86259, 1.93931, 1.94194, 1.95404, 1.94728, 2.03489, 1.87267, 2.03754, 2.05192, 2.01505, 2.01097, 2.01814, 2.00978, 2.00995, 2.0101, 2.02791, 2.03232, 2.01156, 2.01044, 2.01539, 2.01445, 2.01374, 2.01385, 2.0148, 2.01412, 1.93811, 2.02462, 2.03541, 1.93888, 2.02144, 2.03342, 2.032, 2.01939, 2.02252, 2.02312, 1.94395, 2.02158, 2.02055, 2.04355, 2.04357, 2.04194, 2.01447, 2.05186, 2.0391, 1.94934, 2.05197, 2.05252, 2.02744, 2.03936, 1.9528, 2.02796, 1.95257, 2.04139, 1.95465, 2.04013, 2.06179, 2.0578, 2.03815, 2.03063, 2.03398, 2.03493, 2.03573, 2.03399, 2.03377, 2.05488, 1.95856, 2.05685, 2.05681, 2.03619, 2.06516, 2.03584, 2.0362, 2.0385, 2.03658, 2.05049, 2.06251, 2.06972, 2.06447, 2.03665, 2.03909, 2.04117, 2.04243, 2.03778, 2.04255, 2.04108, 1.9625, 2.04092, 2.04073, 2.04393, 2.06162, 1.90254, 1.90194, 2.07629, 1.99949, 2.07608, 1.90303, 1.89694, 1.90019, 2.09459, 1.95013, 2.08277, 2.09018, 2.0027, 1.89844, 1.89973, 1.90007, 1.89762, 1.90262, 1.90153, 1.90341, 1.90251, 1.99995, 2.00378, 1.90542, 1.90256, 1.90301, 1.9031, 1.90324, 1.90303, 1.90333, 1.90714, 1.9029, 1.90183, 1.89959, 1.90101, 1.9002, 2.08384, 1.90342, 2.08071, 1.90073, 1.89917, 1.90093, 2.08098, 1.89589, 1.89982, 1.89903, 2.07839, 2.07583, 1.90327, 1.89824, 1.9004, 1.9045, 1.90026, 1.90006, 1.83011, 1.82696, 1.91985, 1.87325, 1.93547, 1.82026, 1.93572, 1.93503, 1.93782, 1.81646, 1.81508, 1.86563, 1.81283, 1.81223, 1.80958, 1.92514, 1.86105, 1.86943, 1.86886, 1.80966, 1.86102, 1.85874, 1.80886, 1.80819, 1.80482, 1.8042, 1.93862, 1.94446, 1.8054, 1.80267, 1.79951, 1.80118, 1.8029, 1.80245, 1.80055, 1.92665, 1.80344, 1.86139, 1.92892, 1.80041, 1.79958, 1.79417, 1.79468, 1.79589, 1.85711, 1.79076, 1.79063, 1.78805, 1.78897, 1.78271, 1.78319, 1.78372, 1.7832, 1.78544, 1.93798
1.78575, 1.78616, 1.7857, 1.83841, 1.78486, 1.7848, 1.78599, 1.83488, 1.7837, 1.83738, 2.05838, 1.78248, 1.78243, 1.7842, 1.7889, 1.78477, 1.87539, 1.8812, 1.8838, 2.04905, 2.04196, 1.78577, 1.78517, 1.78495, 1.87833, 1.83768, 1.88365, 1.78549, 1.78633, 1.78886, 1.88862, 1.88649, 1.78926, 1.83496, 1.88486, 1.78534, 1.78333, 1.78227, 1.78364, 1.78493, 1.78215, 1.83072, 1.78276, 1.78022, 1.78304, 1.78344, 1.88715, 1.89541, 1.88014, 1.77997, 1.7813, 1.783, 1.78475, 1.78308, 1.78391, 1.78323, 1.78519, 1.78328, 2.01754, 2.01331, 2.01742, 2.01356, 2.01658, 2.01448, 2.01581, 2.01363, 2.02939, 2.01067, 2.01156, 2.01459, 2.03859, 1.85796, 1.85945, 1.85893, 1.93229, 1.93305, 2.01755, 1.93849, 1.93859, 1.85865, 1.94085, 1.93414, 2.03495, 1.8579, 1.93409, 1.85767, 1.85648, 1.92747, 1.93108, 1.94471, 1.93394, 1.93778, 1.93506, 1.93499, 2.03513, 2.03499, 2.03417, 1.9519, 1.93574, 1.85671, 1.95345, 1.93761, 1.86467, 1.86371, 1.94459, 1.95289, 1.94504, 1.8736, 2.03565, 2.03386, 2.02128, 2.00686, 2.02223, 2.02154, 2.00862, 2.03104, 2.02881, 2.02077, 2.01621, 2.01772, 2.01591, 2.01728, 2.01357, 1.93484, 2.01522, 1.93759, 1.937, 2.01712, 2.01792, 1.93852, 2.02469, 2.03091, 2.03413, 2.03027, 2.02089, 1.94213, 1.94469, 2.04581, 2.04121, 2.04071, 2.02313, 2.02109, 2.02067, 2.03912, 2.04279, 2.01721, 2.02432, 2.0276, 2.0334, 2.031, 2.03478, 2.03172, 2.03489, 2.036, 2.03779, 2.03196, 2.04811, 2.05214, 2.0341, 2.03178, 2.05602, 2.03351, 2.05644, 2.03348, 2.04092, 2.05615, 2.04141, 2.05522, 2.04085, 2.04026, 2.04095, 2.03609, 2.03793, 2.04839, 2.0372, 2.03847, 2.06512, 2.06717, 2.03961, 2.04271, 2.04225, 2.04185, 2.04361, 2.0392, 2.04372, 2.04131, 1.9648, 1.96354, 2.04916, 1.966, 2.06106, 2.11007, 2.07485, 1.89589, 1.9503, 1.94765, 1.89752, 1.89793, 1.8962, 1.90036, 1.89657, 2.08006, 2.00481, 1.90062, 1.90188, 1.99668, 1.9945, 1.98977, 1.90155, 1.89988, 1.95247, 1.9041, 2.09144, 2.08329, 1.90612, 1.90493, 1.90113, 1.90349, 1.95451, 1.90657, 1.90379, 1.90245, 1.90268, 2.09641, 1.90049, 2.08728, 1.9019, 1.90123, 1.90089, 2.08267, 1.90028, 2.10707, 2.10409, 1.89957, 2.07779, 1.89731, 1.89721, 2.07993, 2.07983, 1.89893, 1.90273, 1.90213, 1.89996, 1.90064, 1.82962, 1.93566, 1.93179, 1.82733, 1.87463, 1.87539, 1.82067, 1.81963, 1.81875, 1.93492, 1.93282, 1.93989, 1.93694, 1.94143, 1.94071, 1.93695, 1.81285, 1.87177, 1.87172, 1.87326, 1.80877, 1.80853, 1.80772, 1.80812, 1.80663, 1.89721, 1.80671, 1.80388, 1.85291, 1.85345, 1.85283, 1.80235, 1.80042, 1.80224, 1.93431, 1.93086, 1.8024, 1.798, 1.79892, 1.79866, 1.9281, 1.79755, 1.93266, 1.79555, 1.79325, 1.86123, 1.93781, 1.7837, 1.93929, 1.937, 1.78388, 1.78189, 1.78292, 1.78086, 1.78657, 1.78221
1.78847, 1.79143, 1.78751, 1.78813, 1.78811, 1.78853, 1.78788, 1.78521, 1.78703, 1.78616, 1.78685, 1.78889, 2.07233, 1.78641, 1.78605, 1.7843, 1.78326, 1.78522, 1.88242, 1.78609, 1.78281, 1.78374, 1.78644, 1.83482, 1.78391, 1.83778, 1.78523, 1.78289, 1.78289, 1.78588, 1.78308, 1.785, 1.78402, 1.78377, 1.78287, 1.78512, 1.78262, 1.89121, 1.78578, 1.78499, 1.8856, 1.83407, 1.78204, 1.78299, 1.89199, 1.78266, 1.78037, 1.78079, 1.82962, 1.89218, 1.88633, 1.88747, 1.78203, 1.78188, 2.05971, 1.78254, 1.7825, 1.78371, 2.01973, 1.85946, 1.85749, 1.85933, 2.01659, 2.0176, 2.01795, 1.85812, 1.93855, 2.02123, 2.01451, 1.8594, 2.01405, 1.85891, 2.01745, 2.0177, 2.01166, 2.04176, 1.86059, 1.93239, 1.93788, 1.93344, 2.02126, 2.02157, 2.0394, 1.94126, 1.94146, 2.02158, 1.94228, 1.93107, 1.94473, 1.94521, 1.94483, 1.94499, 2.02043, 1.8582, 1.94783, 2.0382, 1.93383, 1.93735, 1.9482, 2.02848, 1.93367, 1.86226, 1.94225, 1.86224, 1.95283, 1.95285, 1.9548, 1.95447, 2.04251, 2.04137, 2.04641, 2.02337, 1.9314, 2.01763, 2.01539, 1.93416, 2.03842, 2.01964, 2.01757, 2.01717, 2.01414, 2.01252, 2.01106, 1.93809, 2.01476, 2.01378, 2.02533, 2.0206, 2.02143, 2.01976, 2.01493, 2.03732, 2.049, 2.03508, 2.02587, 1.9439, 1.94403, 2.02969, 2.02604, 2.02289, 2.02407, 2.04521, 1.94775, 2.02407, 2.04617, 2.03033, 2.02714, 2.04852, 2.03122, 2.03376, 2.03526, 2.05015, 2.05297, 2.05431, 2.0457, 2.03077, 2.03122, 2.03143, 2.05295, 1.95507, 1.95504, 2.03875, 2.03714, 2.03521, 2.03405, 2.05093, 2.03776, 2.04574, 2.0377, 2.05533, 1.95894, 2.06561, 2.03494, 2.03696, 1.96214, 2.05536, 2.06522, 2.03881, 2.06839, 2.04206, 2.04167, 2.0439, 2.04247, 2.04457, 2.04414, 2.04024, 1.96582, 1.96651, 1.96499, 2.03915, 2.04222, 1.89998, 1.90301, 1.94769, 1.89603, 1.96477, 1.94851, 1.98681, 1.89778, 2.00292, 2.08993, 2.00193, 2.00167, 1.90093, 1.89933, 1.89926, 1.89973, 1.90245, 1.95271, 1.9028, 1.9796, 1.95415, 1.95498, 1.90564, 1.9074, 1.90664, 1.90562, 1.90376, 1.95641, 1.95528, 1.95339, 1.95361, 1.90346, 2.09762, 1.99146, 1.90141, 1.90095, 1.90151, 2.09805, 1.9012, 2.083, 1.8985, 1.89863, 1.89779, 2.07933, 1.89894, 2.10232, 1.89798, 1.89702, 1.89728, 1.90328, 1.89802, 1.89933, 1.90287, 1.89958, 1.82849, 1.82512, 1.93515, 1.82551, 1.87582, 1.82016, 1.93681, 1.81989, 1.81708, 1.81681, 1.81609, 1.81533, 1.81706, 1.81211, 1.80946, 1.81328, 1.81227, 1.81019, 1.93441, 1.93476, 1.93903, 1.93798, 1.80801, 1.80786, 1.80568, 1.80451, 1.80025, 1.85476, 1.85293, 1.85501, 1.85176, 1.79951, 1.93656, 1.80242, 1.79831, 1.79999, 1.80062, 1.93141, 1.7968, 1.79661, 1.92492, 1.79622, 1.93195, 1.7906, 1.93518, 1.93283, 1.78731, 1.78691, 1.78448, 1.7841, 1.78348, 1.78522, 1.78171, 2.1287, 1.78247
1.78978, 1.78828, 1.79191, 1.79223, 1.79211, 1.78518, 1.88425, 1.78595, 1.78674, 1.7869, 1.78639, 1.78614, 1.78549, 1.89242, 1.78611, 1.78487, 1.78578, 1.78723, 1.78777, 1.78944, 1.78519, 1.78663, 1.78901, 1.88619, 1.78545, 1.78892, 1.9639, 1.88307, 1.78673, 1.78336, 1.78452, 1.78706, 1.78653, 1.78616, 1.78702, 1.88962, 1.91831, 1.83372, 1.83479, 1.83575, 1.83643, 1.83417, 1.83379, 1.87528, 1.88753, 1.89682, 1.83227, 1.7804, 1.839, 1.78154, 1.78109, 1.78001, 1.78476, 1.78308, 1.78292, 1.78392, 1.77953, 1.78668, 2.02497, 1.85884, 1.86187, 1.85943, 2.02027, 2.0154, 2.01414, 2.01365, 2.01261, 2.012, 2.0133, 2.01304, 2.01408, 2.01342, 2.01372, 2.01396, 1.9379, 2.03803, 1.85918, 2.02847, 1.86033, 1.93889, 1.8607, 1.94109, 1.85995, 1.85786, 1.85776, 1.85637, 1.93289, 1.85564, 1.93191, 1.934, 1.9461, 1.93171, 1.94807, 2.04169, 1.94905, 1.95143, 1.93754, 1.95062, 1.93394, 1.93408, 1.95375, 1.93922, 1.94035, 1.9418, 1.944, 1.94427, 1.95203, 1.94605, 2.04178, 2.05679, 2.03556, 2.02205, 2.02567, 1.93207, 2.02228, 2.01046, 2.01436, 2.01333, 2.00703, 2.01437, 2.01383, 2.01361, 2.01368, 2.01043, 2.01117, 2.01408, 2.01459, 2.01564, 1.93818, 2.02166, 2.0173, 2.03398, 1.94132, 2.03199, 2.03374, 2.01695, 1.94403, 1.94454, 2.04143, 2.03482, 2.02405, 2.02202, 2.02351, 2.02443, 2.02882, 2.03448, 2.03431, 2.02676, 2.02679, 2.05181, 2.03476, 1.95268, 2.05961, 2.02911, 2.03211, 2.03346, 2.03794, 2.03451, 2.0419, 2.04329, 2.04526, 2.04521, 2.04896, 2.0587, 2.05218, 2.04943, 2.04298, 1.95886, 1.95758, 2.06007, 1.9597, 1.95969, 2.05434, 2.05256, 2.03515, 2.05834, 2.0552, 2.05837, 2.04047, 2.04361, 2.039, 2.03795, 2.05197, 2.04124, 2.04536, 1.96469, 2.04445, 1.96572, 2.06254, 2.05831, 2.04444, 2.0826, 2.08337, 1.98576, 1.89713, 1.89811, 1.8991, 2.09296, 2.09098, 2.00701, 1.89724, 1.89679, 1.89628, 2.09849, 1.90009, 1.8995, 1.89967, 1.90062, 1.90016, 1.90419, 1.99686, 1.90463, 1.95515, 1.95567, 1.95624, 1.9048, 1.95414, 2.07572, 2.06618, 1.90388, 1.95586, 1.95406, 1.95243, 1.90121, 1.90068, 1.89978, 2.0006, 1.90266, 1.8997, 1.90046, 1.90173, 1.89742, 1.89759, 2.08237, 1.89732, 1.90093, 2.0823, 1.89767, 2.07917, 1.89887, 1.89848, 1.89808, 1.95303, 1.95271, 1.83102, 1.88012, 1.82723, 1.8275, 1.82474, 1.82466, 1.82295, 1.91614, 1.91397, 1.93465, 1.86867, 1.81948, 1.93708, 1.93288, 1.92858, 1.92585, 1.81399, 1.81035, 1.93584, 1.93432, 1.93357, 1.80371, 1.93436, 1.80766, 1.80547, 1.80679, 1.80393, 1.91098, 1.85425, 1.9231, 1.85393, 1.85281, 1.85069, 1.79803, 1.79784, 1.9348, 1.90425, 1.79977, 1.98234, 1.79929, 1.80245, 1.79831, 1.79644, 1.79352, 1.79112, 1.93826, 1.93701, 1.78811, 1.78536, 1.78067, 1.77866, 1.77878, 1.77904, 1.77911, 1.78228, 1.78253
2.06298, 1.79344, 2.0455, 1.7923, 1.78907, 1.78691, 1.78727, 1.78585, 1.78636, 2.07446, 1.78754, 1.78715, 1.78874, 1.78536, 1.78892, 1.78563, 1.78703, 1.78553, 1.90138, 1.78849, 1.78858, 1.88988, 1.78551, 1.88238, 1.78617, 1.78842, 1.88269, 1.78334, 1.78687, 1.78809, 1.78599, 1.88752, 1.78531, 1.78518, 1.78692, 1.78288, 1.78574, 1.78139, 1.78328, 1.78501, 1.78293, 1.7859, 1.90698, 1.7819, 1.7788, 1.83157, 1.77888, 1.77887, 1.78059, 1.78216, 1.78011, 1.78561, 1.77983, 1.7791, 1.78258, 1.89363, 1.7819, 1.78349, 1.85983, 1.85838, 1.85893, 1.86142, 1.8619, 1.86159, 2.01887, 1.85983, 2.01529, 2.01661, 1.86101, 1.85946, 1.94125, 2.01726, 1.94173, 2.01472, 2.0163, 2.04123, 1.93869, 1.93244, 1.85914, 1.85944, 1.94002, 1.93844, 1.93125, 1.86085, 1.85528, 1.93305, 1.93107, 1.93093, 1.93186, 1.93151, 1.93203, 1.93395, 1.94816, 1.93179, 1.93196, 1.94952, 1.8584, 1.93436, 1.9359, 1.85887, 2.04406, 1.94191, 2.03948, 1.95115, 1.94458, 1.95242, 1.95309, 1.95046, 2.0546, 2.03104, 2.02692, 2.01521, 2.01439, 2.00774, 2.0167, 2.02467, 2.01088, 2.01774, 1.93434, 2.01289, 2.01701, 2.01569, 2.01697, 2.01395, 2.01153, 2.01723, 2.02424, 2.02031, 2.01842, 2.01609, 2.03403, 2.01415, 2.01325, 1.94196, 2.01263, 2.01318, 1.9425, 2.02867, 2.02758, 2.02114, 2.02845, 1.94781, 2.04245, 2.04643, 2.0419, 2.02425, 1.94821, 2.02681, 2.02602, 2.02867, 2.03023, 2.0286, 1.95311, 2.03063, 2.03761, 2.03475, 2.03947, 2.03145, 2.03164, 2.04508, 2.04541, 2.0409, 2.04154, 2.03517, 2.0359, 2.05118, 2.05267, 2.03418, 2.03245, 2.05224, 2.05808, 1.95854, 2.04949, 2.03578, 2.03837, 2.06993, 1.96035, 2.03706, 2.04258, 2.04563, 2.04355, 2.04426, 1.96501, 1.96101, 2.04568, 2.04453, 1.96483, 2.04153, 2.04339, 1.96514, 2.05355, 1.89312, 1.94915, 1.8987, 1.90025, 1.89594, 1.89339, 1.89654, 1.89725, 1.89953, 1.9944, 1.89693, 1.89806, 1.89987, 1.89903, 1.89888, 2.08129, 1.9012, 1.90101, 1.95244, 2.08304, 2.08231, 1.90341, 1.90099, 1.95548, 2.06462, 1.95477, 1.95534, 2.08241, 1.90624, 1.95477, 1.95471, 1.95459, 1.95412, 1.90293, 1.90105, 1.89958, 1.90242, 1.9492, 1.90049, 1.89962, 1.89581, 1.89619, 2.10043, 2.10132, 2.08328, 1.89529, 1.89753, 1.89799, 1.89797, 1.89817, 1.8995, 1.90202, 1.89594, 1.90071, 1.83037, 1.82843, 1.8271, 1.82419, 1.82156, 1.82091, 1.93736, 1.93641, 1.81799, 1.86679, 1.8661, 1.81426, 1.8131, 1.81215, 1.81055, 1.81161, 1.81327, 1.80995, 1.93696, 1.93878, 1.93835, 1.80631, 1.80756, 1.80386, 1.80433, 1.80621, 1.94069, 1.85641, 1.80599, 1.80342, 1.80264, 1.80016, 1.80059, 1.92462, 1.80193, 1.92834, 1.80009, 1.93094, 1.79653, 1.79638, 1.79619, 1.79479, 1.79472, 1.79369, 1.79056, 1.78975, 1.78785, 1.78705, 1.78558, 1.78099, 1.77897, 1.78308, 2.12883, 1.77885, 1.7803
1.79258, 1.79257, 1.79163, 1.79109, 1.79163, 1.79209, 1.79083, 1.79089, 1.78906, 1.78919, 1.7892, 1.78524, 1.78576, 1.78746, 1.78995, 1.78954, 1.78673, 1.78559, 1.78629, 1.78627, 1.78568, 1.78534, 1.78869, 1.78622, 1.78651, 1.78412, 1.78933, 1.78672, 1.78634, 1.78896, 1.78402, 1.78497, 1.89064, 1.8907, 1.78243, 1.78366, 1.83418, 1.78336, 1.78494, 1.7839, 1.88454, 1.77982, 1.77994, 1.78101, 1.77715, 1.88332, 1.78001, 1.77937, 1.77643, 1.7768, 1.77852, 1.83002, 1.78186, 1.78165, 1.78172, 1.77933, 1.91934, 1.78507, 1.86357, 1.86233, 1.85947, 1.86164, 1.85978, 2.01617, 2.01754, 2.01539, 2.0208, 2.03106, 2.01816, 2.01525, 2.01586, 2.0308, 2.01329, 1.8613, 1.86203, 2.04251, 2.01583, 1.86115, 2.01668, 1.85928, 1.93369, 1.93163, 1.94254, 1.94164, 1.93452, 1.93504, 1.9335, 1.93352, 1.94633, 1.93234, 2.02976, 2.02745, 1.94873, 1.94994, 1.93378, 1.93341, 1.85637, 1.95184, 1.93788, 1.95463, 1.95343, 1.95258, 1.93946, 1.95356, 1.94291, 1.94884, 1.95711, 2.03439, 2.0314, 2.04669, 2.01731, 2.00937, 2.01011, 2.0138, 2.01083, 1.93298, 2.0305, 1.93393, 2.01084, 2.0311, 1.93609, 2.01188, 2.01262, 2.01727, 2.0171, 2.01556, 2.02801, 1.93886, 1.93817, 2.05116, 2.03497, 2.01736, 2.0167, 2.01666, 2.01678, 2.01705, 2.01854, 2.01956, 2.02109, 2.03838, 2.04148, 1.94859, 2.04191, 2.04523, 2.02509, 2.02457, 2.02762, 2.02854, 2.02757, 2.02697, 2.0429, 2.05228, 2.02867, 1.9568, 2.05993, 2.04901, 2.04151, 2.04631, 1.95682, 2.04525, 2.03136, 2.03834, 2.0535, 2.04654, 2.05005, 2.04181, 1.95697, 2.03447, 2.03231, 1.95856, 2.05587, 2.03327, 2.03444, 2.03749, 1.95952, 1.96067, 2.03947, 2.0406, 2.0376, 1.96291, 1.96298, 1.96176, 1.96011, 1.96276, 1.96639, 1.96479, 2.06443, 2.04453, 2.05317, 2.05624, 2.06601, 1.99002, 1.95157, 1.95145, 1.89936, 1.89623, 1.89237, 1.89634, 1.89677, 1.89609, 1.89619, 1.94724, 1.89883, 2.00364, 2.00247, 1.94825, 1.99755, 1.90182, 1.952, 1.95428, 1.90311, 1.90266, 1.90333, 2.09325, 1.90591, 1.95815, 1.90402, 1.95595, 1.95632, 1.99338, 1.90351, 1.95669, 1.90248, 1.90035, 2.1022, 2.09904, 1.9001, 1.89968, 1.95056, 1.89846, 1.89937, 1.8987, 1.89646, 2.12208, 2.09039, 1.89666, 1.89398, 1.89298, 2.07917, 1.89705, 1.89892, 1.89907, 1.89845, 1.89804, 1.89783, 1.82618, 1.83004, 1.82659, 1.82409, 1.8227, 1.82064, 1.93882, 1.93671, 1.86829, 1.92049, 1.93465, 1.9308, 1.92933, 1.81371, 1.81343, 1.81003, 1.80802, 1.93876, 1.80684, 1.9443, 1.81001, 1.93451, 1.80629, 1.85282, 1.94198, 1.80613, 1.80456, 1.80288, 1.93812, 1.80257, 1.93742, 1.80103, 1.80438, 1.80324, 1.80183, 1.79933, 2.11809, 1.9302, 1.88083, 1.79802, 1.79551, 1.93895, 1.93699, 1.79367, 1.79031, 1.78865, 1.93188, 1.93402, 1.78576, 1.78591, 1.78194, 1.78219, 1.78137, 1.78183, 1.78569
1.89825, 1.89952, 1.79304, 1.79237, 1.89087, 1.79124, 1.7922, 1.79269, 1.78675, 1.78831, 1.78735, 1.78638, 1.78546, 1.78744, 1.78621, 1.83743, 1.78699, 1.78639, 1.78728, 1.78712, 1.78629, 1.7862, 1.78586, 2.05954, 1.7869, 1.78627, 1.78683, 1.78497, 2.05609, 1.78472, 1.88979, 1.78617, 1.78502, 1.9697, 2.06527, 1.78193, 1.83419, 1.78494, 1.88736, 1.88829, 1.78519, 1.84667, 1.84846, 1.77898, 1.77918, 1.8958, 1.77794, 1.89382, 1.77742, 1.77636, 1.78053, 1.78173, 1.89031, 1.82897, 1.77924, 1.781, 1.78205, 1.78607, 1.86279, 1.86024, 2.01333, 1.93612, 1.93809, 1.85849, 2.01803, 2.04296, 1.86151, 1.86117, 1.85928, 1.8614, 1.86076, 2.04097, 1.93719, 1.85871, 1.93573, 1.93212, 1.85833, 1.93688, 1.93706, 1.93247, 1.9419, 2.01805, 1.94119, 2.02223, 1.94115, 1.85781, 1.9447, 1.944, 1.93383, 1.93264, 1.93326, 1.93463, 1.93041, 1.85536, 2.03912, 2.03437, 1.9336, 2.02865, 1.93343, 1.93649, 1.9374, 1.94881, 1.94069, 1.94242, 1.95341, 1.86859, 1.95501, 1.95274, 2.03012, 2.04515, 1.93272, 2.02865, 2.02115, 2.0061, 2.02055, 2.02807, 2.02894, 1.93453, 2.01239, 2.01347, 2.01782, 2.01085, 2.02027, 2.014, 2.01393, 2.0142, 2.04034, 2.02868, 2.01367, 2.0392, 2.01618, 2.01623, 2.01753, 2.01714, 2.03497, 2.04897, 1.94469, 2.02137, 2.0216, 2.03911, 2.04566, 2.03924, 2.03881, 2.04219, 2.02503, 2.02526, 2.02836, 2.04444, 2.02982, 2.0282, 2.02771, 2.02938, 2.03044, 2.05342, 2.03837, 2.03073, 2.03921, 2.05161, 2.05126, 2.03079, 2.03204, 2.04087, 2.0319, 2.06255, 2.0505, 1.95944, 2.046, 1.95928, 2.03473, 2.03564, 2.03652, 2.03737, 1.95837, 2.05141, 2.05087, 2.04336, 2.0378, 2.03572, 2.03902, 2.03964, 1.95837, 1.96163, 1.96232, 1.96237, 1.96149, 1.96246, 2.04865, 1.9645, 2.03931, 2.05266, 2.05564, 1.89731, 1.94536, 1.95302, 1.89327, 1.89583, 1.89636, 1.89738, 1.89943, 1.94775, 1.94631, 1.89834, 1.94752, 2.00677, 2.00525, 1.89938, 1.89928, 1.90277, 1.97211, 1.90262, 2.08348, 2.08189, 1.9019, 1.90409, 1.90451, 1.90643, 1.90357, 1.90288, 1.90368, 2.10395, 2.07914, 1.9024, 1.90568, 1.95393, 1.95206, 1.90283, 1.9012, 1.90051, 2.08683, 1.89763, 1.89975, 1.89924, 1.89917, 1.89759, 1.89956, 1.89568, 1.89529, 2.08311, 2.08306, 1.89606, 2.08225, 1.89909, 1.98685, 1.99473, 1.83304, 1.93102, 1.92898, 1.82564, 1.92149, 1.82093, 1.82332, 1.92586, 1.81993, 1.86865, 1.8156, 1.81546, 1.81416, 1.81017, 1.81129, 1.92368, 1.81379, 1.80867, 1.90713, 1.90272, 1.80659, 1.94106, 1.80998, 1.8045, 1.85627, 1.92557, 1.80691, 1.805, 1.80337, 1.80289, 1.80373, 1.9374, 1.93691, 1.8026, 1.93644, 2.11727, 1.9341, 1.7982, 1.79899, 1.79644, 1.91876, 1.79899, 1.79692, 1.94389, 1.79242, 1.7926, 1.93189, 1.78957, 1.78596, 1.78453, 1.78386, 1.7798, 1.77849, 1.7764, 1.78311, 1.78623
1.79032, 1.79161, 1.79153, 1.89001, 1.7926, 1.79087, 1.79121, 1.7929, 1.79016, 2.06289, 1.79004, 1.78862, 1.78953, 1.79283, 1.78673, 1.7858, 1.78573, 1.78608, 1.78624, 1.78766, 1.78841, 1.78815, 1.78925, 1.78653, 1.96913, 1.96856, 1.78685, 1.78748, 1.97257, 1.96673, 1.83685, 1.83888, 1.78527, 1.83597, 1.78529, 1.78594, 1.83458, 1.90732, 1.8773, 1.87816, 1.88557, 1.78305, 1.78065, 1.78214, 1.77878, 1.97278, 1.97442, 1.82933, 1.77783, 1.83021, 1.83005, 1.77803, 1.89577, 1.7783, 1.77952, 1.77976, 1.89, 1.78098, 1.861, 1.85877, 1.86004, 1.86067, 1.86146, 2.02225, 1.8605, 1.94071, 1.8612, 1.93843, 1.86118, 1.93824, 1.86195, 2.01661, 2.01625, 2.01635, 1.93408, 1.85948, 1.94158, 1.9337, 2.04179, 1.94176, 2.03056, 1.93439, 1.94382, 1.94146, 1.93252, 1.94404, 2.04611, 1.94409, 1.85617, 2.04218, 1.93172, 2.03366, 2.03972, 1.93255, 1.93321, 1.93218, 1.9377, 2.03173, 1.95205, 1.95163, 1.95199, 1.85898, 1.95243, 1.86222, 1.95399, 1.94458, 2.03895, 1.95879, 2.03892, 2.05978, 2.03818, 2.01729, 2.0243, 2.00784, 2.02996, 2.01472, 2.01436, 2.0233, 2.01394, 2.01424, 1.93471, 2.01593, 2.01435, 2.02065, 2.01199, 2.01806, 2.03179, 2.01501, 2.01564, 2.01491, 2.01783, 2.03951, 2.02814, 2.02806, 2.03281, 2.03937, 2.03496, 2.03485, 2.02138, 2.02208, 2.02158, 2.06957, 2.0417, 2.04282, 2.02643, 2.02543, 2.04631, 2.04847, 2.03792, 2.02852, 2.0285, 2.04389, 1.95245, 2.03194, 2.03314, 1.95495, 2.03062, 2.05509, 2.05272, 2.04531, 2.03262, 2.05591, 2.04167, 2.0419, 2.03749, 1.95683, 2.05404, 1.95825, 2.05515, 1.95878, 2.03573, 2.03576, 2.05646, 2.03769, 1.96022, 2.0638, 2.03774, 2.03923, 2.03623, 2.04139, 1.96158, 1.96202, 1.96207, 1.96005, 1.96242, 1.96447, 1.96545, 2.05009, 2.05254, 1.96396, 2.05944, 1.89396, 1.9633, 1.96155, 1.89408, 1.89247, 1.89648, 1.94476, 1.96831, 1.8936, 1.98802, 1.89636, 1.94872, 1.89666, 2.08704, 1.89878, 1.89912, 1.99986, 1.90395, 1.90345, 1.90163, 1.90632, 1.90456, 1.90394, 1.90555, 1.90559, 2.07947, 2.09967, 1.90448, 2.10062, 1.9033, 2.0809, 1.90435, 1.90301, 1.89832, 1.89764, 2.0896, 1.89963, 1.90122, 1.89984, 1.89915, 1.89689, 2.11719, 1.89584, 1.89642, 1.89619, 1.89628, 1.89699, 1.8964, 2.07922, 1.898, 1.89806, 1.89579, 1.90073, 1.9838, 1.93151, 1.92147, 1.93352, 1.82613, 1.82437, 1.82011, 1.92888, 2.10521, 1.81821, 1.81667, 1.94075, 1.81302, 1.81242, 1.81163, 1.81288, 1.80939, 1.81117, 1.81044, 1.93802, 1.98744, 1.8069, 1.85618, 1.80638, 1.80717, 1.92398, 1.80507, 1.85413, 1.80189, 1.80427, 1.9402, 1.93725, 1.80161, 1.93729, 1.93751, 1.89518, 1.79589, 1.80191, 1.93469, 1.93247, 1.79314, 1.87839, 1.79396, 1.79463, 1.7929, 1.79207, 1.78955, 1.78863, 1.78911, 1.78639, 1.78379, 1.78335, 1.78223, 1.9354, 1.93321, 1.92939
1.79255, 1.7927, 1.79208, 1.79258, 1.79419, 1.79489, 1.79323, 1.79081, 1.79304, 1.78904, 1.79186, 1.7876, 1.78945, 1.78811, 1.78904, 1.89063, 1.78599, 1.78927, 1.78608, 1.7856, 1.78644, 1.78815, 1.78872, 1.96711, 1.78769, 1.78816, 1.78682, 1.78936, 1.78982, 1.83681, 1.83828, 1.88576, 1.78884, 1.7881, 1.78725, 1.90382, 1.9114, 1.91084, 1.91289, 1.78395, 1.88933, 1.89697, 1.78044, 1.77983, 1.77707, 1.77955, 1.77692, 1.77686, 1.77933, 1.7774, 1.77814, 1.77647, 1.7717, 1.78064, 1.77857, 1.77818, 1.84706, 1.84726, 1.86318, 1.86424, 1.86168, 1.86267, 1.86316, 2.01874, 2.01749, 2.01373, 2.03798, 2.04157, 2.01685, 2.04778, 1.85949, 1.8597, 1.93748, 1.94309, 1.9386, 1.93832, 1.85971, 1.86108, 1.85898, 1.86131, 2.02073, 1.94106, 1.94394, 2.02486, 1.94245, 1.93413, 1.93154, 1.94758, 1.93262, 1.92956, 1.85506, 1.93199, 1.85566, 1.92916, 1.95032, 1.93284, 1.85599, 1.93766, 2.04256, 2.03485, 2.03345, 1.93664, 1.95562, 1.94137, 1.86712, 1.95457, 2.03072, 1.95212, 2.0355, 2.05823, 2.0425, 2.00942, 2.00877, 2.02526, 2.01032, 2.01155, 1.93503, 2.01683, 1.93334, 1.93272, 1.93476, 1.93414, 1.93466, 2.0157, 1.93743, 2.02045, 2.02371, 2.01666, 2.01521, 2.03149, 2.01497, 2.04426, 2.01868, 2.01685, 1.94238, 1.94399, 1.94232, 1.9455, 1.94785, 2.02233, 2.02471, 2.02385, 2.02532, 2.02357, 2.03904, 2.04405, 2.04872, 2.03857, 2.04092, 2.0493, 2.06151, 2.03634, 2.03427, 2.03405, 2.05275, 2.03824, 2.03166, 2.03208, 2.03514, 2.03284, 1.95524, 1.95548, 2.02857, 2.04531, 2.04197, 1.95744, 2.05239, 2.04172, 2.03112, 2.03564, 2.03593, 2.03686, 2.05518, 2.03598, 2.03468, 2.0345, 2.03833, 2.03918, 2.05164, 2.0385, 2.03768, 1.95936, 1.96052, 1.96186, 1.96107, 1.96598, 1.96432, 1.96362, 2.05903, 2.06548, 2.04059, 1.98863, 1.8944, 1.89375, 2.09674, 1.89421, 1.89275, 1.89333, 1.94541, 1.98712, 1.89563, 1.94807, 1.94778, 1.96746, 1.8948, 1.99977, 1.95061, 1.90335, 1.90692, 1.95447, 1.95389, 1.95174, 1.90427, 1.90466, 1.90572, 1.90692, 1.9058, 1.90655, 1.90503, 1.9058, 1.90615, 1.90419, 1.90203, 1.90353, 1.90191, 1.90233, 1.90101, 2.08679, 1.8964, 2.0808, 1.90178, 1.89784, 1.89999, 1.89702, 1.89616, 2.08139, 1.89715, 2.0923, 2.08268, 1.89642, 1.89993, 1.8983, 1.89826, 1.94923, 1.83227, 1.82698, 1.92675, 1.82796, 1.98562, 1.93455, 1.93684, 1.93554, 1.93387, 1.93599, 1.93596, 1.93496, 1.87506, 1.87185, 1.81289, 1.94365, 1.80766, 1.81055, 1.80989, 1.94038, 1.8127, 1.85829, 1.80744, 1.80661, 1.85499, 1.85566, 1.85417, 1.80268, 1.79706, 1.91615, 1.80294, 1.80055, 1.91269, 1.80097, 1.80096, 1.80007, 1.80111, 1.92012, 1.79586, 1.93419, 1.93721, 1.93382, 1.79597, 1.79294, 1.79453, 1.91166, 1.90963, 1.78883, 1.93641, 1.93275, 1.78676, 1.92545, 1.78345, 1.78536, 1.93734, 1.78733
1.79393, 1.79514, 1.79294, 1.79683, 1.7956, 1.79446, 1.7956, 1.79444, 2.05356, 1.78891, 2.06171, 2.04589, 2.04777, 1.7895, 1.7887, 1.89107, 1.78994, 1.79098, 1.7886, 1.78615, 1.78787, 1.78769, 1.78876, 1.78908, 1.78876, 1.78917, 1.78753, 1.7886, 1.7874, 1.78889, 1.78682, 1.78716, 1.78537, 1.78569, 1.89734, 1.78802, 1.87868, 1.83376, 1.89018, 1.78081, 1.77878, 1.88371, 1.88408, 1.89032, 1.77642, 1.78272, 1.77517, 1.77612, 1.77803, 1.77412, 2.07093, 1.77828, 1.7751, 1.77829, 1.77898, 2.0549, 1.77892, 1.78156, 1.86357, 2.01619, 2.0143, 1.86472, 1.86098, 1.86231, 2.01504, 2.01756, 2.01479, 2.01671, 2.01739, 2.01961, 2.0532, 1.86071, 1.8603, 1.94143, 2.01431, 2.02139, 1.8604, 1.86098, 1.93922, 1.93103, 2.03594, 1.85947, 1.93169, 1.9317, 1.9424, 1.94471, 1.94502, 1.93187, 2.02433, 2.02783, 1.95081, 2.02862, 1.85561, 1.85465, 1.93098, 1.93268, 1.9328, 1.95297, 1.93415, 2.03492, 1.95506, 1.93782, 1.94089, 1.86365, 1.86829, 2.041, 1.87273, 1.96028, 2.05923, 2.05562, 2.02996, 2.0076, 2.01182, 2.01527, 2.01727, 2.02446, 2.01422, 2.01642, 2.01044, 1.93316, 1.93307, 1.93643, 1.93565, 1.93561, 2.02127, 1.93893, 2.01988, 2.01714, 2.01451, 2.01674, 2.03794, 2.0155, 1.94212, 2.03526, 2.05266, 2.03737, 2.03804, 2.04195, 1.94661, 2.02236, 2.02406, 2.02548, 2.02377, 1.94827, 2.04475, 2.03255, 2.0326, 2.05465, 2.04055, 2.04143, 2.04148, 2.04413, 2.04509, 1.95413, 1.9541, 2.03652, 2.03425, 2.04385, 2.05402, 2.04851, 2.04639, 2.0492, 2.05447, 2.03297, 2.04422, 1.96134, 2.03237, 2.03415, 2.05975, 2.05483, 2.05128, 2.03415, 2.04597, 2.03884, 2.04578, 1.95977, 1.95938, 2.03664, 2.03715, 2.03692, 1.96114, 2.03838, 1.96188, 1.96247, 1.96518, 1.96159, 2.05164, 2.04552, 2.05663, 2.04064, 2.04437, 1.89622, 1.893, 1.89255, 1.89326, 1.89133, 2.08995, 1.95284, 1.89614, 1.89477, 1.8962, 1.89308, 2.09628, 2.08226, 2.07986, 1.95058, 1.8973, 1.90044, 1.90046, 1.90233, 2.06554, 1.95564, 1.90578, 1.90514, 1.9035, 1.90349, 1.90581, 1.90575, 1.90294, 1.90367, 1.90508, 2.10399, 1.90313, 1.90108, 1.99832, 1.90194, 1.90365, 1.90307, 1.90264, 1.90149, 2.10187, 2.09095, 2.08563, 1.89753, 1.89833, 1.89928, 2.06768, 1.965, 1.94776, 2.10374, 1.89971, 1.89781, 1.89777, 1.89904, 1.8319, 1.82835, 1.82646, 1.93127, 1.93146, 1.9352, 1.82329, 1.82221, 1.98599, 1.94107, 1.94053, 1.9377, 1.81244, 1.81254, 1.98759, 1.81125, 1.9362, 1.93862, 1.99042, 1.94208, 1.85844, 1.80577, 1.85662, 1.85472, 1.92366, 1.85471, 1.92154, 1.80287, 1.80155, 1.80459, 1.85156, 1.85247, 1.91655, 1.79896, 1.88055, 1.8789, 1.92127, 1.84945, 1.90313, 1.9315, 1.9285, 1.79556, 1.7956, 1.79563, 1.79412, 1.79644, 1.79093, 1.78923, 1.78938, 1.92694, 1.88086, 1.78907, 1.78518, 1.90525, 1.8375, 1.78581
1.7976, 1.79404, 1.79417, 1.79338, 1.79333, 1.79627, 1.79332, 1.79264, 2.06257, 1.79643, 1.79119, 1.79279, 1.79371, 1.78998, 1.79418, 1.78968, 1.78698, 1.78938, 1.79106, 1.78651, 1.78954, 1.78944, 1.78597, 1.84121, 1.78694, 1.78769, 1.78794, 1.78915, 1.78414, 1.78583, 1.78888, 1.78447, 1.78566, 1.78818, 2.06134, 1.78487, 1.83451, 1.83512, 1.78411, 1.83369, 1.8917, 1.89124, 1.783, 1.83168, 1.77849, 1.77923, 1.77605, 1.77564, 1.77665, 1.77885, 1.77347, 1.77595, 1.77737, 1.77854, 1.77944, 1.78169, 1.78202, 1.78075, 2.01758, 2.01862, 2.01971, 1.86228, 1.93458, 2.02086, 2.01689, 2.01717, 1.93883, 2.04034, 2.01648, 1.93631, 1.86021, 2.05146, 2.01863, 1.94254, 1.94077, 1.94237, 2.0199, 1.9428, 1.94488, 1.93463, 1.86079, 1.93216, 1.94548, 1.94587, 1.93368, 1.9354, 1.94898, 2.02444, 1.85505, 2.02798, 2.02709, 2.03875, 2.03906, 1.93363, 1.95179, 1.93366, 1.93379, 1.9519, 1.95235, 1.93474, 1.93561, 1.95497, 1.95598, 1.95508, 1.94097, 1.94825, 1.94717, 1.94852, 2.06304, 2.05503, 2.00699, 2.03837, 2.03863, 2.01132, 2.01726, 2.01848, 2.0317, 2.01224, 1.93629, 1.93515, 1.93562, 1.93447, 1.93613, 1.9365, 2.01487, 2.01636, 2.01566, 2.02361, 2.0155, 2.01384, 2.02729, 2.04073, 1.93795, 2.01837, 2.01794, 2.01951, 2.03729, 2.03938, 2.02383, 2.02494, 2.02488, 2.02419, 2.0252, 1.94868, 2.03451, 2.05547, 2.03805, 2.03847, 1.95329, 2.03132, 2.04168, 2.03838, 1.95144, 1.95322, 2.04237, 2.03884, 2.03252, 2.03742, 1.9559, 2.0555, 2.0491, 1.95659, 2.04985, 2.04853, 2.03388, 1.95774, 2.05653, 2.03562, 2.05415, 2.05436, 2.05628, 2.03718, 1.95905, 2.0351, 2.03574, 1.95997, 2.04591, 2.03592, 1.96022, 2.04488, 2.03972, 2.03785, 1.9618, 1.96104, 1.96175, 1.96272, 2.04917, 2.03813, 1.96398, 2.04243, 2.04508, 1.89498, 1.89414, 1.89409, 1.89323, 1.89386, 2.07876, 1.89228, 1.89264, 2.0846, 1.89362, 1.89639, 1.89537, 2.09673, 2.08286, 1.89754, 1.89695, 1.90163, 1.9017, 2.08122, 1.90218, 1.90238, 1.99328, 1.90424, 1.99657, 2.08247, 2.09814, 2.11057, 2.09745, 1.90693, 1.90389, 2.10046, 1.9529, 1.90443, 1.90344, 1.9032, 1.90283, 1.95459, 1.90006, 1.9009, 1.90142, 1.8987, 1.94975, 1.89909, 2.0633, 2.06273, 1.89712, 1.95089, 1.89695, 1.89769, 1.89985, 1.89915, 1.89822, 1.89822, 1.82985, 1.82932, 1.8272, 1.92102, 1.92868, 1.92139, 1.93401, 1.93745, 1.93599, 1.91273, 1.9378, 1.94284, 1.94124, 1.93814, 1.81375, 1.93989, 1.93728, 1.80953, 1.94058, 1.80886, 1.8048, 1.93728, 1.80744, 1.87251, 1.85498, 1.85579, 1.93829, 1.85143, 1.80078, 1.80432, 1.80346, 1.80254, 1.79978, 1.93333, 1.80012, 1.85611, 1.7993, 1.93352, 1.93423, 1.93379, 1.7968, 1.93356, 1.79721, 1.79788, 1.79627, 1.79437, 1.7892, 1.7889, 1.7907, 1.78975, 1.90825, 1.9055, 1.91113, 1.90821, 1.90578, 1.78747
1.79876, 1.80046, 1.79611, 1.79633, 1.79429, 1.79484, 1.79334, 1.79428, 1.79961, 1.79154, 1.79253, 1.78985, 1.79058, 1.89313, 1.89077, 1.79391, 1.7924, 1.79196, 1.7886, 1.88302, 1.79041, 1.79314, 1.78929, 1.79063, 1.79226, 1.79003, 2.05596, 1.78857, 1.84496, 1.79005, 1.78925, 2.05894, 1.7867, 1.89579, 1.7879, 1.78477, 1.78691, 1.7856, 1.78371, 1.78613, 1.89284, 1.78062, 1.77918, 1.77947, 1.77575, 1.7762, 2.07261, 2.07212, 1.77636, 1.77726, 1.77648, 2.06006, 1.77599, 1.77925, 1.78124, 1.83091, 1.83004, 1.78296, 2.01921, 2.01925, 1.86216, 1.8622, 1.86213, 2.01828, 2.02327, 1.86228, 1.93821, 1.9393, 1.86185, 2.01815, 1.86143, 1.94235, 1.94194, 1.94143, 1.93554, 1.94443, 1.94199, 1.85866, 1.9378, 2.01744, 1.94743, 1.93212, 1.93442, 1.93521, 2.02487, 1.93376, 1.8554, 1.93456, 1.93189, 1.93259, 1.93374, 2.02261, 1.93074, 1.95172, 2.04085, 1.9346, 1.95471, 2.04635, 1.93833, 2.03822, 2.04981, 1.93825, 1.93814, 1.95764, 1.95813, 1.94763, 1.94917, 1.94901, 1.87907, 2.03501, 2.02439, 2.00966, 2.01123, 2.02373, 2.03944, 2.03926, 2.03178, 2.01355, 1.93663, 1.93509, 1.93772, 1.93536, 1.93621, 1.93711, 2.01777, 2.01874, 2.02055, 2.02764, 1.93923, 1.93801, 2.02138, 1.9395, 2.01746, 1.9409, 2.01875, 2.04437, 2.02057, 2.02128, 2.0342, 2.02176, 2.04854, 2.02418, 2.04196, 1.9482, 2.02437, 2.04826, 2.04188, 2.03759, 2.04407, 2.04182, 2.07595, 2.03382, 2.04173, 1.95438, 1.95405, 2.04133, 1.95678, 2.05811, 2.04028, 2.04241, 1.95633, 2.04257, 2.05134, 1.95815, 2.07695, 2.03388, 1.95878, 1.95887, 2.05271, 2.0528, 2.04907, 1.95941, 2.03513, 2.04241, 2.04491, 2.04495, 2.03688, 2.05273, 2.03799, 2.03811, 2.03923, 2.03785, 2.04157, 2.0371, 2.03774, 2.03835, 1.96485, 2.04678, 2.04439, 2.05909, 2.04773, 2.09222, 2.07979, 1.8936, 1.89288, 1.8907, 2.09438, 1.95195, 1.95119, 2.07856, 2.07857, 1.89723, 1.89577, 2.08331, 2.10003, 1.90103, 2.0804, 1.8995, 1.90224, 2.08352, 1.90154, 1.90445, 1.90455, 1.90354, 1.95626, 1.90332, 1.90484, 1.90331, 1.90353, 1.95492, 1.90361, 1.90334, 1.90501, 1.95422, 1.90442, 1.9043, 1.90353, 1.95322, 2.11092, 1.89771, 1.89945, 1.90067, 1.96705, 1.96487, 1.90046, 2.06397, 1.94904, 1.96853, 1.89645, 1.89972, 1.89855, 1.89724, 1.89985, 1.831, 1.83038, 1.82911, 1.93712, 1.93376, 1.88243, 1.82301, 1.82038, 1.87032, 1.81738, 1.81805, 1.81321, 1.94492, 1.81279, 1.81228, 1.90646, 1.80803, 1.93824, 1.80749, 1.80829, 1.80715, 1.80654, 1.80629, 1.80393, 1.80506, 1.80445, 1.80515, 1.94128, 1.8032, 1.80052, 1.93659, 1.80207, 1.80077, 1.80173, 1.79993, 1.8, 1.93316, 1.79981, 1.84765, 1.93247, 1.79964, 1.79775, 1.90156, 1.89898, 1.79487, 1.79385, 1.79462, 1.79012, 1.93136, 1.93056, 1.79127, 1.79072, 1.79166, 1.79034, 1.91179, 1.79048, 1.9008
1.79926, 1.87907, 1.87992, 1.88554, 1.88309, 1.86498, 1.88984, 1.79652, 1.7931, 1.79567, 2.06785, 1.79372, 1.79439, 1.79025, 1.79205, 1.79257, 1.79055, 1.79067, 1.78757, 1.78878, 1.78926, 1.78907, 1.89321, 1.79093, 1.79205, 1.79259, 1.83819, 1.8396, 1.83967, 1.78975, 1.79161, 1.78588, 1.78749, 1.89462, 1.78847, 1.78449, 1.78616, 1.78582, 1.89207, 1.7864, 1.8904, 1.78121, 1.78261, 1.78208, 1.77964, 1.77626, 2.05571, 1.77966, 1.77846, 1.77663, 1.77596, 1.77764, 1.77489, 1.77895, 1.82995, 1.83056, 1.78192, 1.83243, 1.86308, 1.86556, 1.86193, 1.86212, 2.01147, 1.86789, 1.94089, 2.01806, 2.01718, 1.86441, 1.86191, 2.04293, 1.93984, 1.94207, 1.86173, 1.86271, 2.03947, 1.94497, 1.93762, 1.93476, 1.93349, 1.94385, 1.93458, 1.93361, 2.02064, 1.94365, 1.94574, 1.93253, 1.94535, 2.03487, 2.03503, 1.93195, 1.93291, 2.04024, 1.93502, 1.95304, 2.03152, 1.93088, 1.85722, 1.93677, 1.93657, 1.8579, 1.86114, 1.86218, 1.94074, 1.93945, 1.95577, 2.03831, 1.94554, 1.9541, 2.05312, 2.05301, 2.03833, 2.04246, 2.00985, 2.03236, 2.02487, 2.02387, 2.01115, 2.02151, 2.0284, 1.93394, 1.93439, 1.93736, 1.93797, 2.01477, 2.01889, 2.01949, 1.93864, 2.01516, 1.9412, 2.01798, 2.02662, 2.0293, 2.03451, 2.02426, 2.04988, 2.04205, 2.03281, 2.02787, 1.94429, 2.02367, 2.03732, 2.02535, 2.04497, 2.03388, 2.02652, 1.95061, 1.95046, 2.02788, 2.02825, 2.0279, 2.02829, 1.95149, 2.0588, 2.05297, 2.04075, 2.04205, 2.05213, 2.05425, 2.05229, 2.03131, 2.03037, 2.02947, 2.04843, 2.04271, 2.04542, 2.03432, 2.04499, 2.04689, 2.04302, 2.04153, 2.04163, 2.03168, 2.0381, 2.05983, 1.95887, 2.03894, 2.04452, 1.96028, 1.96058, 2.04226, 2.03778, 2.03959, 2.04304, 2.04263, 2.03876, 2.04157, 2.04482, 2.04184, 2.03818, 1.96299, 1.96662, 1.89489, 1.89598, 1.89459, 1.8942, 1.89563, 2.07954, 1.89515, 1.99083, 1.89573, 2.0832, 2.08337, 1.89636, 1.89964, 1.89643, 2.08353, 2.08274, 2.09762, 1.90356, 1.97748, 1.97566, 1.90134, 1.90057, 2.07859, 1.9016, 1.95598, 1.90541, 1.95508, 1.95583, 1.90355, 1.90633, 1.90562, 1.90609, 1.90727, 1.95452, 1.95423, 1.90393, 1.90485, 1.89994, 1.90029, 1.90021, 1.99761, 1.95143, 1.95018, 1.94933, 1.90129, 1.8993, 2.07974, 1.90014, 2.07583, 1.89806, 1.9011, 1.90226, 1.83443, 1.92846, 1.83237, 1.82814, 1.82306, 1.87736, 1.92279, 1.92172, 1.87006, 1.81903, 1.81735, 1.93855, 1.81332, 1.81357, 1.93476, 1.80994, 1.86308, 1.86179, 1.9267, 1.80645, 1.9243, 1.80786, 1.80745, 1.93695, 1.8033, 1.93473, 1.93545, 1.93386, 1.80438, 1.80332, 1.80332, 1.79896, 1.79603, 1.80134, 1.8001, 1.86095, 1.84845, 1.80032, 1.92768, 1.79734, 1.79485, 1.93112, 1.93159, 1.79597, 1.84789, 1.84391, 1.9094, 1.79474, 1.89525, 1.93228, 1.79336, 1.78977, 1.91849, 1.79545, 1.79015, 1.79215, 1.8965
1.85037, 1.88892, 1.84899, 1.79848, 1.79799, 1.79497, 1.79955, 2.0628, 1.79572, 2.06307, 2.07249, 1.793, 1.79509, 1.79409, 1.79485, 1.79525, 1.79123, 1.79315, 1.79285, 1.79138, 1.79221, 2.06354, 1.79249, 1.79235, 1.79335, 1.79143, 1.84032, 1.84122, 1.7928, 1.8787, 1.79208, 1.83969, 1.79132, 1.87949, 1.78705, 1.79067, 1.78537, 1.78767, 1.78902, 1.89736, 1.90331, 1.78198, 1.7817, 1.78181, 1.78181, 1.77861, 1.77963, 1.78085, 1.77714, 1.77729, 1.77876, 1.7797, 1.77983, 1.77936, 1.78043, 1.78327, 1.78162, 1.78281, 2.02077, 1.86228, 1.86532, 1.86378, 2.02158, 2.02017, 2.02327, 1.86478, 2.01875, 1.86487, 1.93819, 1.85834, 1.85912, 1.93731, 1.86237, 1.86213, 1.93577, 1.85763, 1.94259, 1.93728, 1.93596, 2.04217, 1.94435, 2.02081, 1.93417, 1.93437, 1.9343, 1.93421, 1.93197, 1.85633, 1.93281, 1.93196, 2.0257, 1.94958, 1.92732, 1.92853, 1.93094, 1.95259, 1.95362, 1.93259, 1.95583, 1.95515, 1.95566, 2.03474, 1.94514, 1.95856, 1.95856, 1.95798, 1.95503, 2.0346, 1.95801, 2.05239, 2.0384, 2.03193, 1.93394, 2.01321, 2.03035, 1.93468, 2.01273, 2.03666, 2.02793, 2.01807, 1.93415, 1.93459, 2.01018, 2.01718, 2.01717, 1.93694, 2.01399, 2.05279, 2.0177, 2.02248, 1.94151, 2.03877, 2.03475, 2.01626, 2.01849, 2.03423, 2.02177, 2.02169, 2.04031, 2.02355, 2.03112, 2.03625, 2.02363, 2.02485, 2.02831, 2.04205, 2.03854, 2.03069, 2.03887, 2.04125, 2.0372, 1.95217, 2.04569, 1.9538, 2.04454, 2.05234, 2.05164, 2.03488, 2.05244, 2.03176, 2.04325, 2.0453, 2.04623, 2.03797, 2.04829, 2.05146, 2.03464, 2.0534, 2.05253, 1.95816, 1.9596, 2.03401, 2.07153, 2.05299, 2.03381, 2.0517, 2.04159, 2.0339, 1.95882, 2.0385, 2.04114, 1.96066, 2.03887, 2.03839, 2.03737, 2.04169, 1.96191, 2.05212, 2.04929, 2.05125, 1.96467, 1.89687, 1.89324, 1.89216, 1.8932, 1.89548, 1.89573, 1.9917, 2.08822, 1.89277, 1.89661, 1.89764, 2.09954, 1.89638, 1.89775, 2.10056, 1.89683, 1.90072, 1.90046, 1.95247, 1.90222, 1.90283, 1.90232, 1.90583, 2.09772, 2.09636, 1.9061, 1.98609, 1.98518, 1.90743, 2.07993, 1.90577, 1.90642, 2.00065, 1.95499, 1.99859, 1.90517, 1.90471, 1.90425, 2.0925, 1.90089, 2.10493, 1.9007, 1.90217, 1.95219, 1.95095, 1.89956, 2.07684, 2.0793, 1.90151, 1.90015, 1.89954, 1.89842, 1.89763, 1.83035, 1.83137, 1.82711, 1.87628, 1.87324, 1.87277, 1.82047, 1.87015, 1.86999, 1.81855, 1.8165, 1.8116, 1.81367, 1.93478, 1.81296, 1.80949, 1.94137, 1.94051, 1.80658, 1.80824, 1.80481, 1.80585, 1.80523, 1.90316, 1.80368, 1.85398, 1.91386, 1.90914, 1.90525, 1.90265, 1.80283, 1.79743, 1.93062, 1.79982, 1.79972, 1.80289, 1.80008, 1.93062, 1.79688, 1.84704, 1.7977, 1.79706, 1.79578, 1.79678, 1.84639, 1.79294, 1.92683, 1.7933, 1.79329, 1.79236, 1.79102, 1.79052, 1.79069, 1.79109, 1.9236, 1.84132
1.8829, 1.80042, 1.80103, 1.79793, 2.05175, 1.79518, 1.79899, 1.97325, 2.05886, 1.79629, 1.97363, 1.79628, 1.79636, 1.79776, 1.90047, 1.90181, 1.79534, 1.7931, 2.07331, 1.79051, 1.79122, 1.79241, 1.89762, 2.04935, 1.78906, 1.79128, 1.88202, 1.84171, 1.84524, 1.83899, 1.87901, 1.78952, 1.78841, 2.0526, 1.78981, 1.89451, 1.88612, 1.78634, 1.78811, 1.78429, 1.78598, 1.78367, 1.7827, 1.89981, 1.78148, 1.78172, 1.90012, 1.77853, 1.78122, 2.0582, 2.06067, 1.78111, 1.78204, 1.78385, 1.83251, 1.78157, 1.78506, 1.78689, 2.02076, 2.02089, 1.86537, 1.86566, 1.86503, 1.86441, 1.94416, 2.01808, 1.86238, 1.86296, 1.86144, 1.94206, 1.94239, 1.94125, 1.93979, 1.93806, 1.94506, 1.9447, 1.9362, 1.9375, 1.94428, 1.94417, 1.9352, 1.94629, 1.94563, 1.94767, 1.93366, 1.93433, 1.93523, 1.93083, 1.93197, 1.93296, 1.94965, 2.02673, 1.93351, 1.95166, 1.95154, 1.93324, 1.93546, 1.95553, 1.9348, 1.95696, 1.95463, 1.86032, 1.94109, 1.8652, 1.94498, 1.94562, 1.9555, 1.95415, 1.95626, 2.05194, 2.02936, 2.00858, 2.00996, 1.93607, 2.01289, 1.93494, 2.01181, 2.01173, 2.01227, 1.93419, 1.93562, 2.00879, 2.00923, 2.01655, 2.02115, 2.01459, 2.0141, 2.05504, 2.05135, 1.94174, 1.93934, 2.02151, 2.01446, 2.01496, 2.02187, 2.02041, 2.01899, 2.02073, 2.02095, 2.02419, 2.02401, 2.02348, 2.04436, 2.05893, 2.02366, 2.05124, 2.05957, 2.05215, 2.02403, 2.02418, 2.04164, 2.04505, 2.0417, 2.02797, 2.0508, 2.05865, 2.03138, 2.0409, 2.03396, 2.04236, 2.04236, 2.03236, 2.0317, 2.0398, 2.0482, 2.03837, 1.95922, 2.04076, 2.03776, 1.95958, 2.05251, 2.03785, 2.0478, 2.03582, 2.03489, 2.05472, 2.0551, 2.03473, 1.95661, 2.03825, 1.9601, 2.04496, 2.03885, 2.04023, 2.04407, 1.96212, 2.04398, 1.96481, 2.03872, 2.04551, 2.04073, 1.89575, 1.8953, 1.89387, 1.8944, 1.94401, 1.94519, 1.94487, 1.90005, 2.06281, 1.8954, 2.09643, 1.89479, 1.89761, 1.89835, 1.98217, 1.95122, 1.90207, 1.89953, 2.09253, 1.9039, 1.99952, 1.90207, 2.08158, 1.90699, 2.09823, 2.10418, 1.96192, 1.96189, 1.90298, 1.95675, 2.08963, 1.90644, 1.90478, 1.90504, 1.96255, 1.955, 1.95499, 1.90075, 1.90278, 1.95319, 1.90408, 1.90229, 1.89997, 1.90388, 1.89975, 2.07948, 2.0789, 2.07719, 1.90143, 2.08025, 1.90057, 1.89973, 1.90038, 1.8306, 1.82873, 1.82785, 1.82783, 1.87489, 1.872, 1.87081, 1.86976, 1.92213, 1.81457, 1.81383, 1.90652, 1.90429, 1.93998, 1.81362, 1.81152, 1.81074, 1.80647, 1.80662, 1.94248, 1.80628, 1.93855, 2.13538, 1.93874, 1.93748, 1.80358, 1.85255, 1.89807, 1.90871, 1.90608, 1.93816, 1.93699, 1.79894, 1.92865, 1.79994, 1.79784, 1.79941, 1.80011, 1.79872, 1.85694, 1.84717, 1.79718, 1.79602, 1.91408, 1.91146, 1.79367, 1.79396, 1.89827, 1.79199, 1.79414, 1.79276, 1.79287, 1.79091, 1.78821, 1.79279, 1.79273
1.80172, 1.85209, 1.79885, 1.79925, 1.80084, 1.79665, 1.79788, 1.79709, 1.79609, 1.79931, 1.79617, 1.79479, 1.79564, 1.79556, 1.79093, 1.79632, 1.88569, 1.79374, 1.79275, 1.79427, 1.7899, 1.79231, 1.7919, 1.79203, 1.79357, 1.79237, 1.89832, 1.7909, 1.79233, 1.84192, 1.84094, 1.7905, 2.05177, 1.79165, 1.78919, 1.89683, 1.78502, 1.78719, 1.78619, 1.89549, 1.78309, 1.78343, 1.89984, 1.78263, 1.78251, 1.78258, 1.90321, 1.78126, 1.78196, 1.78218, 2.06609, 1.83075, 1.88114, 1.83381, 1.7832, 1.78382, 1.83408, 1.78583, 2.02456, 1.86534, 1.86574, 1.86434, 1.86519, 2.02245, 2.02021, 1.86503, 2.01948, 2.01811, 2.01966, 2.03652, 1.93946, 1.94304, 1.94127, 2.03107, 1.93709, 1.93575, 1.93561, 1.94473, 1.936, 1.9354, 1.94596, 1.85845, 1.93487, 1.85666, 2.04755, 2.02712, 1.94852, 2.02726, 2.04217, 1.95153, 1.95103, 1.95018, 1.95201, 1.8554, 1.9318, 1.95235, 1.93437, 1.93395, 1.93405, 1.93518, 1.95504, 2.03528, 1.9449, 1.94412, 1.95887, 1.95791, 1.87053, 1.9575, 1.95979, 2.05464, 2.04854, 2.03798, 2.01181, 2.01104, 2.02747, 2.01381, 2.01328, 2.01438, 1.93554, 1.93552, 1.94044, 1.93801, 2.01491, 2.01583, 2.01687, 2.02038, 1.94087, 2.01557, 2.01659, 2.01658, 1.93953, 2.01635, 1.94192, 2.01741, 1.94314, 2.04556, 2.02083, 2.0212, 2.04914, 2.0243, 2.02726, 2.02402, 2.0212, 2.02141, 2.05188, 2.02899, 2.03483, 1.95257, 1.9532, 2.02127, 2.03163, 2.0548, 1.95433, 2.04167, 1.95659, 2.03932, 2.03184, 2.0363, 2.03553, 2.04494, 2.04197, 2.04785, 2.03232, 2.03589, 2.0345, 2.05205, 2.0359, 2.04621, 1.95789, 1.95629, 2.04614, 2.04642, 2.0407, 2.05617, 2.0545, 2.03478, 2.04535, 2.03531, 2.04093, 2.03451, 2.0341, 2.03865, 2.04313, 2.04197, 2.04188, 2.0376, 2.06344, 2.04054, 1.96191, 2.04871, 2.04309, 1.89281, 1.894, 1.89404, 1.99964, 1.9458, 1.94626, 1.94683, 1.89606, 1.8963, 1.94765, 1.89674, 1.89634, 1.97551, 1.97486, 1.98544, 1.94997, 1.90066, 1.94865, 1.90075, 2.00228, 1.90553, 1.95368, 1.99693, 1.95627, 1.9066, 1.90394, 1.90651, 1.90649, 1.95856, 1.90451, 1.90589, 1.9993, 1.90621, 1.95472, 1.90614, 1.95594, 1.90302, 1.90045, 1.90325, 1.95791, 2.00286, 1.90162, 1.90246, 1.90086, 1.90144, 1.89973, 1.90369, 1.90049, 2.07372, 1.90152, 1.90359, 1.90178, 1.83332, 1.8317, 1.9338, 1.93377, 1.93273, 1.82682, 1.93643, 1.82087, 1.87049, 1.92221, 1.91794, 1.81635, 1.81366, 1.81166, 1.81393, 1.81279, 2.02777, 1.93816, 1.80703, 1.93179, 1.80645, 1.93599, 1.80267, 1.80689, 1.80438, 1.80347, 1.93777, 1.85444, 1.85454, 1.90485, 1.8022, 1.85011, 1.85006, 1.93434, 1.93388, 1.90437, 1.80068, 1.80048, 1.7979, 1.7958, 1.84834, 1.79611, 1.9148, 1.84756, 1.79305, 1.79749, 1.79543, 1.79519, 1.79564, 1.84204, 1.79296, 1.79313, 1.79226, 1.91708, 1.91562, 1.79012, 1.79057
1.79986, 2.074, 1.8026, 1.80286, 1.80361, 1.79898, 1.79643, 1.79841, 1.79673, 1.79719, 1.79597, 1.79696, 1.79605, 1.79614, 1.79311, 1.79592, 1.79205, 1.89379, 1.79481, 1.79519, 1.79085, 1.79268, 2.05663, 1.79088, 1.79304, 1.8973, 1.79412, 1.79449, 2.06958, 1.79095, 1.79026, 1.79243, 1.79311, 1.79213, 1.79113, 1.90973, 1.78802, 1.78912, 1.78663, 1.78803, 1.78329, 1.78516, 1.78515, 1.78646, 1.78514, 1.78384, 1.90045, 1.78504, 1.78378, 1.90746, 1.8429, 1.83487, 1.8347, 1.88185, 1.83484, 1.78723, 1.78814, 1.78913, 2.02025, 1.86451, 1.86462, 1.86479, 1.86447, 1.86891, 1.94224, 2.02351, 1.86375, 1.93951, 2.02775, 1.93933, 1.938, 1.86169, 1.94775, 1.94502, 1.94481, 1.94505, 1.93966, 1.94875, 1.94514, 1.94507, 1.94523, 1.94939, 1.94655, 1.93087, 1.93378, 1.94874, 1.934, 2.02911, 1.95212, 1.93373, 2.04836, 1.95491, 1.95285, 1.95437, 1.9548, 1.95552, 1.95527, 1.9358, 1.9595, 1.86158, 1.93902, 1.93999, 1.94142, 1.94378, 1.94369, 1.95762, 1.95928, 1.95913, 1.95554, 2.04838, 2.013, 2.01111, 2.0103, 2.01196, 2.02835, 2.0114, 1.93522, 2.01682, 2.01208, 1.93733, 1.93697, 1.93555, 1.93769, 2.02069, 2.01448, 2.01013, 2.0137, 2.01499, 2.01733, 2.01762, 2.01847, 2.02057, 2.04118, 2.0192, 1.94223, 2.02347, 2.0225, 2.02153, 2.05469, 2.02494, 2.025, 2.02534, 2.04565, 2.04062, 1.94831, 1.94867, 1.95183, 1.95248, 2.02687, 2.0454, 2.04007, 1.95266, 1.95799, 2.03185, 1.95707, 2.049, 2.03776, 2.03469, 2.05141, 2.053, 2.0425, 2.04098, 2.03515, 2.04855, 2.04767, 2.05521, 2.04859, 2.04359, 2.03593, 1.9589, 2.04892, 2.04279, 1.9586, 2.04228, 2.06276, 2.06369, 2.043, 2.03756, 2.03596, 2.04188, 2.0397, 2.03858, 1.96017, 1.9598, 1.96179, 2.03789, 2.036, 2.05382, 2.04593, 2.0594, 2.03846, 1.89774, 1.89619, 1.89891, 1.89546, 1.94738, 1.94621, 1.89734, 2.01013, 1.89381, 1.89491, 1.89924, 1.89708, 1.94993, 1.89629, 1.94923, 1.94967, 1.90112, 1.89938, 1.90282, 1.99641, 1.99462, 1.95214, 1.90309, 1.90499, 1.90351, 1.90676, 1.9052, 2.09782, 1.90374, 1.90658, 1.90668, 2.0762, 1.90647, 1.90585, 1.9031, 1.90382, 1.90666, 1.90568, 1.90605, 1.90376, 1.99388, 1.90168, 1.99339, 1.90294, 1.90273, 1.90223, 1.90074, 1.90193, 1.90239, 1.90348, 1.90178, 1.98254, 1.9799, 1.83178, 1.93447, 1.93118, 1.82659, 1.82515, 1.82347, 1.82135, 1.9288, 1.82066, 1.81632, 1.92897, 1.81565, 1.81474, 1.93833, 1.81275, 1.80902, 1.93455, 1.80906, 1.93752, 1.94092, 1.93942, 1.8064, 1.805, 1.85639, 1.80225, 1.89273, 1.80292, 1.80524, 1.80233, 1.80369, 1.80075, 1.8522, 1.93648, 1.93377, 1.93175, 1.93396, 1.80028, 1.79866, 1.79889, 2.01112, 1.79831, 1.8478, 1.79608, 1.91471, 1.84955, 1.92857, 1.79576, 1.84478, 1.79383, 1.84403, 1.79349, 1.92262, 1.9211, 1.79293, 1.78972, 1.84408
1.80023, 1.8034, 1.80176, 1.80002, 1.79878, 1.90046, 1.85086, 1.7992, 1.79921, 1.79915, 1.8006, 1.7992, 1.79814, 1.79774, 1.79574, 1.79938, 1.79547, 1.8965, 1.897, 1.79398, 1.79573, 1.79574, 1.84509, 1.7913, 1.79176, 1.90237, 1.90071, 1.79435, 1.7903, 1.79409, 2.07928, 1.7927, 1.84188, 1.78858, 1.91057, 1.91194, 1.792, 1.84211, 1.78862, 1.78885, 1.78864, 1.90262, 1.90302, 1.78797, 1.78584, 1.78602, 1.8949, 1.90089, 1.87833, 1.85561, 1.84598, 1.84715, 1.83699, 1.78542, 1.78606, 1.78909, 1.78902, 1.78912, 1.86572, 2.02071, 2.01462, 1.93816, 1.93847, 1.94158, 1.86633, 1.86597, 1.94107, 1.94462, 2.04076, 1.86272, 1.93858, 1.94551, 1.9392, 1.93817, 1.94529, 1.93755, 1.93573, 1.94577, 1.85894, 2.04909, 1.93458, 1.93431, 2.02459, 1.85801, 1.93422, 1.93713, 2.02752, 1.9308, 1.95196, 1.85792, 1.92906, 1.95146, 1.95028, 1.93451, 2.03879, 2.03446, 1.95593, 1.93552, 1.93669, 2.03552, 1.93797, 2.0346, 1.94527, 1.94414, 1.94552, 2.03459, 1.94864, 1.9489, 1.95767, 2.03467, 2.04442, 2.02048, 2.03157, 2.01399, 2.01286, 2.01492, 2.026, 2.01869, 2.02307, 1.93748, 1.9364, 1.93673, 1.93732, 2.01423, 2.02025, 2.01537, 2.01438, 2.01486, 2.01741, 2.04665, 2.01756, 1.94089, 1.9408, 2.0189, 2.01767, 2.03957, 2.03759, 2.02183, 2.02229, 1.94553, 1.94864, 1.94826, 2.04953, 2.03752, 1.95042, 2.03084, 1.95199, 2.0339, 2.04933, 2.05158, 2.04519, 2.04778, 2.0434, 1.95365, 2.03651, 2.02135, 1.95656, 2.05607, 1.96131, 2.06757, 2.04751, 2.05138, 2.03464, 2.03595, 2.05518, 2.0656, 2.03451, 2.02999, 1.95798, 1.95875, 2.0432, 2.03724, 2.04437, 2.04304, 2.03601, 2.03693, 1.95865, 2.0392, 2.03501, 1.95918, 2.03823, 1.96101, 1.96113, 1.96327, 1.95583, 2.04128, 2.04526, 2.03764, 1.96245, 1.965, 2.0488, 1.89806, 2.07275, 1.89897, 1.89817, 1.89505, 1.89523, 1.8942, 1.89645, 1.89528, 1.98449, 1.89669, 2.10301, 1.90003, 1.89701, 2.0027, 2.00188, 1.89937, 1.90249, 1.90158, 1.90414, 1.90348, 1.90301, 1.90309, 2.07758, 1.90478, 1.90654, 2.0779, 1.90318, 1.95534, 1.903, 2.09396, 2.10677, 2.09409, 2.10646, 2.0071, 1.90419, 1.90457, 1.90367, 1.95484, 1.90372, 1.90317, 1.90329, 1.90352, 1.90023, 1.90198, 1.90146, 1.90333, 2.07697, 1.90376, 1.95385, 1.90002, 1.90248, 1.88239, 1.8821, 1.83191, 1.82902, 1.82644, 1.9311, 1.93622, 1.8207, 1.82086, 1.81946, 1.93369, 1.93104, 1.81416, 1.93391, 1.93041, 1.80919, 1.93559, 1.90578, 1.93666, 1.8079, 1.85482, 1.80789, 1.80455, 1.93911, 1.80191, 1.85342, 1.80138, 1.80371, 1.93336, 1.8006, 1.8012, 1.93022, 1.79921, 1.79837, 1.93389, 1.8006, 2.10583, 1.80019, 1.80029, 1.86389, 1.8617, 1.79867, 1.91995, 1.92093, 1.92045, 1.8511, 1.79685, 1.79772, 1.7947, 1.90024, 1.79461, 1.79584, 1.9181, 1.7929, 1.79427, 1.7924, 1.79114
1.80367, 1.80225, 1.79997, 1.80305, 1.80119, 1.79986, 1.79811, 1.80282, 2.08383, 2.07231, 1.79739, 1.80115, 1.79901, 1.79802, 1.85877, 1.85751, 1.79772, 1.79752, 1.79465, 1.7948, 1.79342, 1.79432, 1.79292, 1.90086, 1.79332, 1.79273, 1.79379, 1.89259, 1.79438, 1.79252, 1.79239, 1.79093, 1.84365, 1.79206, 1.89255, 1.79082, 1.79207, 1.79233, 1.7904, 1.89417, 1.89589, 1.87824, 1.78664, 1.78878, 1.78888, 1.78768, 1.90576, 1.78736, 1.89244, 1.90298, 1.88874, 1.88901, 1.88313, 1.7837, 1.78738, 1.78944, 1.79151, 1.79182, 1.86756, 2.0251, 2.0243, 2.02417, 1.86679, 1.86715, 1.86355, 1.86294, 1.86436, 2.04221, 1.9379, 1.93832, 1.94255, 1.93915, 1.94521, 2.02059, 2.03066, 1.93892, 1.93838, 1.93593, 2.05158, 1.93513, 1.85896, 1.93752, 1.85863, 1.9361, 1.95158, 1.93623, 1.95293, 1.95324, 1.93267, 1.9309, 1.92861, 1.92872, 1.93061, 1.85754, 1.93583, 1.95819, 1.93357, 1.93484, 2.03275, 1.96139, 1.95523, 1.95913, 1.95928, 1.86453, 1.94523, 2.03922, 1.95872, 2.05015, 1.87529, 1.89321, 2.04201, 2.02124, 2.01455, 1.9371, 1.93719, 2.03031, 2.01468, 2.01683, 2.02081, 1.93593, 1.93777, 1.93807, 1.93623, 1.9365, 2.0181, 2.02155, 2.03729, 2.02812, 2.01837, 2.01805, 2.01779, 2.03613, 2.02043, 2.01739, 1.94467, 2.02114, 2.02032, 2.04534, 2.02378, 2.05754, 2.04394, 2.04471, 2.0448, 1.95194, 1.95139, 2.04806, 1.95092, 2.03789, 2.03225, 2.03483, 2.03057, 2.03681, 2.03147, 2.04902, 1.95605, 2.04276, 2.04271, 2.04705, 2.04319, 2.03904, 2.03614, 2.0345, 2.03551, 2.03495, 2.06323, 1.95828, 2.04249, 2.03434, 1.95918, 2.03522, 2.03393, 2.05858, 2.05186, 1.95857, 2.05774, 2.03298, 2.03887, 2.03596, 2.04261, 2.03869, 2.03857, 1.95986, 1.95995, 1.9593, 1.95948, 1.9623, 1.96178, 2.05539, 2.04117, 1.96504, 2.058, 1.99708, 2.10168, 1.89753, 1.89605, 1.89897, 1.97204, 1.89718, 1.89542, 1.89762, 1.99982, 1.99949, 1.89883, 1.9006, 1.89891, 2.00397, 2.00311, 2.08119, 2.08016, 1.90272, 1.90211, 1.90302, 1.90386, 1.90361, 1.95506, 1.90512, 1.90589, 1.95519, 1.90485, 1.95641, 1.95671, 1.90537, 1.90594, 1.95513, 1.90665, 2.09059, 1.90694, 1.90387, 1.90607, 2.07789, 1.90399, 1.90327, 1.90433, 1.95612, 1.95463, 1.98785, 1.90112, 1.90049, 1.90411, 1.90435, 1.90301, 1.90276, 1.90296, 1.83589, 1.83314, 1.95329, 1.951, 1.82687, 1.92434, 1.91843, 1.82032, 1.82055, 1.81791, 1.9139, 1.8143, 1.81589, 1.92772, 1.81468, 1.813, 1.9375, 1.94098, 1.80878, 1.8562, 1.85667, 1.85803, 1.85607, 1.93339, 1.80076, 1.90329, 1.8029, 1.89705, 1.80197, 1.80007, 1.91669, 1.80232, 1.94141, 1.9404, 1.79746, 1.80067, 1.93415, 1.80097, 1.93052, 1.92953, 1.79567, 1.79531, 1.80076, 1.79955, 1.79648, 2.00831, 2.00712, 1.79446, 1.92682, 1.79359, 1.91454, 1.91147, 1.7948, 1.99616, 1.79133, 1.79129, 1.79341
1.80358, 1.97363, 1.80586, 1.80352, 1.80238, 1.8022, 1.89994, 1.80057, 1.8009, 1.80248, 1.80052, 1.80042, 1.80044, 1.79828, 2.07036, 1.79701, 1.80062, 1.79961, 1.79549, 1.79583, 1.79677, 1.97631, 1.79613, 2.07547, 1.9, 1.79546, 1.79595, 1.79419, 1.89364, 1.79508, 1.79398, 1.79487, 1.79285, 1.79233, 1.88924, 1.79238, 1.79326, 1.89745, 1.79162, 1.84118, 1.79041, 1.90613, 1.90698, 1.79074, 1.78933, 1.90844, 1.90979, 1.88653, 1.88761, 1.89604, 1.78731, 1.78865, 1.78895, 1.79102, 1.78897, 1.79066, 1.79142, 1.79293, 1.86892, 2.02563, 1.86417, 1.86757, 1.86731, 1.86551, 1.94633, 1.94391, 1.94364, 1.94793, 1.94092, 2.02198, 1.94508, 1.9463, 1.9454, 1.93877, 1.86213, 1.94533, 1.9482, 2.02376, 2.02493, 1.85881, 1.94952, 2.02595, 1.95009, 1.9341, 1.934, 1.93451, 1.93422, 1.93333, 1.93084, 1.93198, 1.85502, 1.95612, 1.93145, 2.03239, 1.93376, 1.95626, 1.93461, 1.957, 1.95881, 1.94142, 1.93826, 1.95976, 1.95957, 1.9424, 1.94495, 1.96152, 1.95334, 1.95539, 2.03814, 2.04693, 2.0392, 2.02188, 2.01199, 1.938, 1.93665, 2.02141, 2.01747, 2.02243, 1.93733, 1.93629, 1.93736, 1.93762, 1.93905, 1.93706, 1.93758, 1.93874, 2.01548, 1.94108, 2.0253, 2.01722, 2.02093, 2.0187, 2.01923, 1.94414, 2.04507, 2.0199, 2.02142, 2.02123, 2.0477, 2.02003, 2.04505, 2.03463, 1.95135, 2.03708, 2.03081, 2.03522, 2.02728, 1.95121, 2.03851, 2.03817, 1.95451, 1.95404, 2.04164, 2.04405, 1.95458, 2.04137, 2.04593, 2.04095, 2.06555, 1.95858, 2.06062, 2.04471, 2.04476, 2.04529, 2.03541, 1.95825, 2.03506, 2.05453, 2.04812, 2.0444, 1.9577, 1.95881, 1.95825, 2.04891, 2.05592, 2.05321, 2.04418, 2.03452, 2.03641, 2.03365, 1.95971, 1.95868, 1.95905, 1.96112, 1.9614, 1.96169, 2.03857, 2.03907, 2.04651, 2.03823, 2.05556, 1.948, 1.90224, 1.89873, 1.89637, 1.89773, 1.89784, 1.95707, 1.89595, 1.95041, 1.94861, 1.89899, 1.89873, 1.89957, 1.89696, 1.89574, 1.90109, 1.90068, 1.90285, 1.90221, 2.08952, 1.90424, 1.99414, 1.9045, 1.90369, 1.9046, 1.90807, 1.90371, 2.09648, 1.90722, 1.90694, 1.90638, 1.90591, 1.9925, 1.90647, 1.9047, 1.90607, 1.95476, 1.9053, 1.90347, 2.08735, 1.90671, 1.90503, 1.90374, 1.90177, 1.90069, 2.08577, 1.90459, 1.9048, 1.90468, 1.96974, 1.96933, 1.96894, 1.8317, 1.93811, 1.82807, 1.87562, 1.8748, 1.82433, 1.87236, 1.87074, 1.86861, 2.11003, 1.81653, 1.93405, 1.81552, 1.81299, 1.81047, 1.93126, 1.93531, 1.80987, 1.93699, 1.86109, 1.85761, 1.92176, 1.85512, 1.85437, 1.80394, 1.8022, 1.92083, 1.90337, 1.8041, 1.85278, 1.85155, 1.85253, 1.92972, 1.80154, 1.93233, 1.80073, 1.79946, 1.79704, 1.79823, 1.79723, 1.92942, 1.79629, 1.84855, 1.79764, 1.79588, 1.79366, 1.79721, 1.79894, 1.79695, 1.92139, 1.79746, 1.79478, 1.79521, 1.79555, 1.88829, 1.91866, 1.79083
1.9005, 1.80468, 2.05835, 2.05655, 1.80054, 1.8021, 2.09668, 2.05811, 1.80141, 1.79974, 1.80329, 1.80105, 1.85055, 1.85221, 1.80117, 1.79957, 1.79662, 1.79785, 1.79685, 1.79796, 1.79919, 2.06375, 2.06222, 1.79669, 1.90094, 1.79706, 1.79665, 1.79892, 1.79657, 1.79711, 1.79476, 1.79568, 1.79705, 1.79379, 1.89555, 1.79207, 1.79247, 1.79347, 1.88581, 1.79207, 1.79185, 1.84328, 1.88599, 1.84077, 1.87735, 1.79223, 1.79283, 1.79221, 1.7901, 1.78789, 1.78996, 1.79094, 1.79234, 1.79216, 1.79051, 1.79079, 1.79193, 1.79458, 1.8722, 2.03104, 1.86754, 1.86646, 2.02072, 1.86693, 1.86453, 2.02067, 2.02742, 1.86166, 1.94475, 1.93852, 1.941, 1.94577, 1.94123, 1.94146, 1.93862, 1.94396, 1.94115, 1.93634, 2.02541, 1.95103, 2.02828, 1.93476, 2.03529, 1.85768, 1.93323, 1.93499, 1.95492, 1.95225, 1.93374, 1.95353, 1.93212, 2.05754, 2.05203, 1.93137, 1.93337, 1.93406, 1.8588, 1.8575, 2.03951, 1.96125, 1.86255, 1.94187, 2.04261, 2.03756, 1.96073, 1.94806, 1.94993, 1.95834, 2.05558, 2.04579, 2.01641, 2.01092, 2.01258, 2.02866, 2.01146, 2.01096, 2.03516, 2.01204, 1.93845, 1.93605, 1.93871, 1.94069, 1.93902, 2.01631, 1.94051, 2.01622, 2.01559, 1.93881, 2.0168, 1.94143, 1.94315, 1.9423, 2.02072, 2.0208, 2.02011, 2.0242, 2.04185, 2.02315, 2.02363, 2.02236, 2.05615, 1.94835, 1.95011, 1.9503, 1.95207, 2.03501, 2.05501, 2.03454, 2.03478, 2.03511, 2.04617, 2.03141, 2.02993, 2.03571, 2.04902, 2.05386, 2.04895, 2.04915, 2.05404, 2.05519, 2.05184, 2.03567, 2.05203, 2.04629, 2.04567, 2.04386, 2.0371, 2.0434, 2.04361, 2.05166, 2.03161, 2.03148, 1.95921, 2.041, 2.0339, 2.03372, 2.03429, 2.03424, 1.95812, 1.95861, 1.96011, 1.96096, 1.95981, 1.95954, 1.95955, 1.95973, 2.04981, 2.04857, 1.95929, 2.06664, 2.0391, 1.89734, 2.07379, 1.89743, 1.89767, 1.89915, 1.8988, 1.89996, 1.94884, 1.89901, 1.89932, 1.89874, 1.89975, 1.96536, 1.94919, 1.98688, 1.90039, 1.90284, 1.90156, 1.99722, 1.8997, 1.90184, 1.90355, 1.95454, 1.95456, 1.95286, 1.90624, 2.08307, 1.90612, 1.90679, 1.96373, 1.98708, 1.99394, 1.9067, 1.90387, 1.90478, 1.90572, 1.90535, 1.90177, 2.09277, 1.90399, 2.09637, 1.90413, 1.90368, 1.90299, 1.90416, 1.90125, 1.90005, 1.90025, 1.90197, 1.98795, 1.98631, 1.90336, 1.83459, 1.83108, 1.92951, 1.87843, 1.87738, 1.82322, 1.87408, 1.87226, 1.8199, 1.93468, 1.93339, 1.81723, 1.9354, 1.81281, 1.86105, 1.81304, 1.93505, 1.8089, 1.80654, 1.85889, 1.85692, 1.80851, 1.85744, 1.85466, 1.93437, 1.80591, 1.80359, 1.80128, 1.80107, 1.93705, 1.93434, 1.80152, 1.7992, 1.80028, 1.80101, 1.79857, 1.89646, 1.91729, 1.84822, 1.80149, 1.79973, 1.92867, 1.79866, 1.92457, 1.79574, 1.79994, 1.79707, 1.79457, 1.92373, 1.92064, 1.79332, 1.79397, 1.79448, 1.79887, 1.92048, 1.79273, 1.79031
1.80566, 1.80726, 1.80511, 1.80602, 2.05561, 1.89805, 1.90007, 1.80299, 1.90415, 1.80338, 1.9005, 1.80338, 1.85448, 1.85199, 1.85203, 1.87437, 1.79786, 1.79808, 1.79785, 1.79932, 1.84722, 1.79773, 1.79936, 1.79635, 1.79617, 1.79674, 1.89358, 1.79771, 1.79708, 1.79661, 1.79889, 1.85674, 1.79626, 1.79606, 1.79594, 1.79629, 1.79524, 1.7956, 1.79483, 1.79116, 1.90752, 1.90803, 1.90881, 1.89451, 1.89565, 1.90277, 1.79187, 1.79092, 1.91743, 1.89655, 1.79214, 1.89736, 1.90248, 1.9041, 1.79245, 1.79433, 1.79399, 1.79561, 1.86905, 2.02414, 1.86796, 1.86991, 1.94459, 1.94475, 1.86724, 1.86618, 1.94427, 1.94747, 1.94766, 1.9426, 1.94732, 1.94521, 1.94062, 1.93806, 1.94927, 1.9402, 1.95039, 1.93842, 1.94974, 1.9359, 1.95156, 1.85799, 1.93802, 1.93661, 1.93457, 1.85514, 1.85733, 1.85731, 1.93068, 1.95348, 1.95819, 1.95606, 1.93364, 1.95708, 1.93559, 1.93369, 1.85843, 1.95532, 1.85896, 1.9389, 1.86429, 2.05965, 1.86512, 1.86651, 1.87134, 1.94787, 1.94826, 1.95151, 2.06174, 2.05627, 2.01747, 2.01415, 2.01432, 1.93847, 1.93723, 2.03139, 1.93793, 2.0239, 2.01378, 1.93825, 1.93901, 1.93854, 2.01388, 2.01463, 2.01468, 2.01534, 1.94109, 1.94081, 2.03205, 2.01987, 2.03696, 2.02118, 2.02038, 1.94436, 2.02153, 1.94479, 2.02493, 2.02439, 2.02483, 2.02507, 2.02696, 2.02807, 2.04153, 1.95115, 2.05968, 2.04896, 1.9519, 2.03834, 2.04253, 2.0279, 2.03626, 1.95462, 2.05354, 2.02945, 1.95531, 1.96129, 2.0379, 2.03453, 2.05207, 2.03416, 2.03419, 2.0589, 2.03471, 2.03903, 2.03592, 2.05245, 2.05163, 2.05266, 2.05889, 2.058, 2.04342, 2.03532, 2.05187, 2.03972, 2.03484, 2.05522, 2.05136, 2.04591, 2.03475, 1.95995, 1.95894, 1.95865, 1.96049, 1.96231, 1.96158, 2.03486, 2.03952, 2.03962, 1.96231, 2.04135, 2.05412, 1.89894, 1.89858, 1.89965, 1.89881, 1.94832, 1.89787, 1.89597, 2.07587, 2.07637, 1.89941, 1.89966, 1.90022, 1.90111, 1.9002, 1.89931, 1.98564, 1.90355, 1.96874, 2.00047, 1.90492, 1.90535, 1.9042, 1.9559, 1.95618, 1.95473, 1.95436, 1.90688, 1.90739, 1.9045, 1.95909, 1.90303, 1.9053, 1.90724, 1.95516, 1.90335, 1.90695, 1.95479, 2.00603, 1.90337, 1.90504, 1.90278, 2.07264, 1.90345, 1.90368, 1.90444, 1.90311, 1.97824, 1.90312, 1.89994, 1.90377, 1.90347, 1.90295, 1.83363, 1.8342, 1.82875, 1.82642, 1.82128, 1.82769, 1.82244, 1.92075, 1.91961, 1.817, 1.81679, 1.81409, 1.93184, 1.81495, 1.81011, 1.81372, 1.81107, 1.8078, 1.80671, 1.91161, 1.93449, 1.85768, 1.86846, 1.80477, 1.80585, 1.80594, 1.80159, 1.80275, 1.93463, 1.93542, 1.89465, 1.80018, 1.80038, 1.80086, 1.80035, 1.80001, 1.921, 1.91873, 1.85058, 1.84933, 1.84902, 1.79977, 1.89579, 1.89331, 1.9277, 1.89991, 1.92441, 1.79782, 1.84854, 1.79325, 1.79691, 1.79562, 1.79541, 1.79587, 1.89371, 1.79563, 1.7958
1.80922, 1.80699, 1.80894, 1.80566, 1.80709, 1.80749, 1.80655, 1.80177, 2.06175, 1.80549, 1.80621, 1.88779, 1.80335, 1.80354, 1.85178, 1.79887, 1.80103, 1.80089, 1.98286, 2.08365, 1.79904, 1.801, 1.79974, 1.79672, 1.7979, 1.79807, 1.79847, 1.79826, 1.79812, 1.7991, 1.79892, 1.79722, 1.79702, 1.79798, 1.79508, 1.79688, 1.84759, 1.84908, 1.79456, 1.89678, 1.89799, 1.7951, 1.79573, 1.89919, 1.89915, 1.79454, 1.79289, 1.89838, 1.79299, 1.79351, 1.79595, 1.79295, 1.90659, 1.79524, 1.79627, 1.79625, 1.79712, 1.86602, 1.86606, 1.94364, 1.94265, 1.94243, 1.86884, 1.86833, 1.94541, 1.94237, 1.94699, 1.94434, 1.86663, 2.03858, 1.94028, 1.93978, 1.93883, 1.94084, 1.94147, 1.94115, 1.94178, 1.93799, 1.93755, 1.93697, 1.95125, 1.93584, 1.93481, 2.03104, 1.93478, 2.04538, 1.93249, 1.93126, 1.85617, 1.95621, 1.95648, 1.93071, 1.93106, 1.93282, 1.93406, 1.93442, 1.93507, 1.93686, 1.93705, 1.93794, 1.86147, 1.96203, 1.86778, 1.94324, 1.94568, 1.94866, 1.9606, 2.04514, 1.88247, 2.0555, 1.89588, 1.93785, 1.93767, 1.93957, 1.94023, 2.02492, 2.01498, 2.01401, 1.93815, 1.93773, 2.0156, 2.0153, 1.93933, 2.01656, 2.01723, 2.01671, 2.01559, 1.94166, 2.04858, 2.01842, 2.01842, 2.02058, 2.02036, 2.05302, 2.02103, 2.03603, 2.02461, 1.94763, 2.04937, 2.04556, 1.94725, 2.03868, 2.03923, 2.03647, 2.03444, 2.02979, 2.03727, 2.03239, 1.95277, 2.04203, 2.04556, 2.0405, 2.05224, 2.05339, 2.03228, 2.04141, 2.03294, 2.03558, 1.95868, 1.9589, 1.95932, 2.05274, 2.04192, 1.95884, 2.03491, 2.03773, 2.05821, 2.03677, 2.03775, 1.95766, 2.05122, 2.03544, 2.04672, 2.05253, 1.96014, 2.04235, 2.03486, 2.05368, 2.04198, 2.03856, 1.96136, 1.95996, 1.95956, 1.96064, 2.03844, 2.04212, 2.04474, 1.96149, 2.04417, 2.03939, 2.06858, 1.89902, 1.89827, 1.89929, 1.94958, 1.90016, 1.89834, 1.89726, 1.99346, 1.99881, 1.89572, 1.90035, 2.07894, 2.07754, 1.95, 1.95089, 1.90188, 1.9536, 1.95205, 1.9561, 1.90438, 1.90198, 2.07659, 1.90504, 2.07307, 1.90647, 1.95629, 1.90753, 1.90618, 1.98606, 1.90704, 1.90762, 1.902, 1.90655, 1.90383, 1.90589, 1.90409, 1.9561, 1.9051, 1.90487, 1.90374, 1.89996, 2.08691, 2.07295, 1.90664, 1.90381, 1.9029, 1.90065, 1.9517, 1.95218, 1.89934, 1.90029, 1.89967, 1.98274, 1.83181, 1.82928, 1.82796, 1.826, 1.82376, 1.82037, 1.82033, 1.81949, 1.815, 1.91079, 1.81679, 1.81541, 1.81561, 1.93051, 1.93708, 1.9137, 1.91253, 1.80708, 1.80617, 1.93644, 1.90068, 1.85495, 1.80292, 1.93376, 1.80246, 1.80497, 1.93503, 1.80238, 1.80246, 1.80027, 1.80292, 1.80184, 1.94125, 1.93764, 1.79611, 1.80004, 1.79828, 1.85102, 1.79931, 1.79908, 1.79783, 1.79871, 1.79959, 1.79934, 1.79776, 1.79724, 1.84648, 1.85066, 1.84873, 1.79555, 1.91356, 1.79251, 1.84627, 1.84392, 1.91344, 1.9218
1.81059, 1.80329, 1.80608, 1.80588, 1.80939, 1.81156, 1.80559, 1.80596, 1.80509, 2.08636, 1.80638, 1.80154, 1.88951, 1.8035, 1.80225, 1.85214, 1.85297, 1.80279, 1.80196, 1.97851, 2.05961, 1.97755, 1.8018, 2.05885, 1.79901, 1.80038, 1.79761, 1.79808, 1.799, 1.79858, 1.84875, 1.84816, 1.89609, 1.79719, 1.79585, 1.79779, 1.7994, 1.79667, 1.79565, 1.79905, 1.79647, 1.90353, 1.90418, 1.79543, 1.79614, 1.79758, 1.90207, 1.79625, 1.79438, 1.79166, 1.79614, 1.79617, 1.84522, 1.79748, 1.79633, 1.7978, 1.79819, 1.79989, 1.86847, 1.94827, 1.95107, 1.86758, 1.94169, 1.9461, 1.86965, 1.86961, 2.02507, 1.86561, 1.86511, 2.02729, 1.94226, 2.02825, 1.94906, 1.94517, 1.95105, 1.8614, 1.94724, 1.94986, 1.93767, 1.93694, 1.95445, 1.9351, 2.04224, 1.93553, 1.95642, 2.0489, 1.95336, 1.95443, 1.95542, 1.93514, 1.9345, 1.95873, 1.9567, 1.95615, 1.96104, 1.96175, 1.93785, 1.93692, 1.96115, 2.0397, 1.93902, 2.038, 1.94378, 1.95891, 1.94529, 1.96039, 1.96152, 2.03943, 2.04255, 2.05332, 2.05845, 2.02759, 2.02252, 1.93909, 1.94028, 2.03405, 2.01496, 2.01429, 2.01852, 2.01482, 2.01854, 2.01846, 2.0149, 2.01781, 1.93933, 2.01694, 2.01707, 2.02735, 2.03606, 1.94111, 2.01822, 2.01784, 2.03942, 2.04125, 2.04513, 1.94507, 2.03446, 1.94515, 2.02347, 2.03942, 2.04366, 2.03933, 1.94885, 2.03821, 2.04216, 2.0432, 2.04005, 1.95401, 2.03097, 2.03037, 1.95295, 1.95524, 2.02982, 2.05169, 2.03562, 2.05095, 2.03445, 2.03312, 2.0384, 2.04652, 2.0524, 2.04455, 2.03586, 2.04184, 1.95901, 2.0354, 2.05362, 2.03807, 2.05188, 2.05465, 2.05116, 2.04236, 1.95855, 2.05418, 1.95797, 2.04196, 2.04914, 1.95883, 2.03999, 1.96123, 1.9595, 1.96004, 1.95943, 1.96112, 1.96022, 2.04145, 1.96251, 2.05582, 1.96223, 2.04021, 2.05898, 1.9965, 1.90006, 1.89975, 1.94925, 1.89824, 1.89741, 2.07956, 1.89903, 1.89918, 2.00266, 1.99987, 1.89724, 2.07683, 1.95136, 1.95133, 1.95289, 1.95445, 1.95366, 1.98916, 1.90626, 1.90234, 2.0901, 1.90432, 1.9041, 1.96181, 1.90574, 1.90474, 1.90606, 1.96759, 2.08994, 1.90316, 1.9033, 1.95407, 1.9072, 2.08705, 1.95298, 1.90404, 1.90127, 1.90177, 1.90283, 1.90342, 1.90303, 1.90158, 1.90237, 1.90332, 2.09333, 1.90274, 1.9033, 2.06953, 1.9003, 1.90197, 1.89922, 1.83495, 1.8306, 1.8273, 1.82703, 1.93028, 1.82153, 1.82077, 1.82093, 1.81997, 1.93568, 1.8158, 1.98289, 1.9815, 1.86441, 1.8647, 1.81296, 1.80784, 1.8082, 1.80673, 1.80929, 1.80718, 1.9313, 1.80604, 1.85498, 1.8052, 1.85372, 1.85191, 1.80005, 1.98975, 1.93448, 1.79827, 1.92545, 1.80131, 1.80033, 1.79825, 1.92905, 1.93247, 1.93087, 1.79602, 1.79978, 1.79919, 1.79883, 1.79624, 1.79874, 1.92798, 1.79948, 1.92379, 1.79646, 1.90378, 1.79378, 1.79737, 1.79605, 1.79582, 1.79435, 1.79545, 1.91709, 1.79532
1.81195, 1.81102, 1.80731, 1.81022, 1.80986, 1.80931, 1.80818, 1.80841, 2.08992, 1.8027, 1.80432, 1.80735, 1.85542, 1.80261, 1.80289, 1.80357, 1.80554, 1.80312, 1.89221, 1.80071, 1.79991, 2.05996, 1.80163, 1.79945, 1.79999, 1.9043, 1.79983, 1.8006, 1.79946, 1.90418, 1.84919, 1.84953, 1.89571, 1.7989, 1.79766, 1.79896, 1.79687, 1.79778, 1.79689, 1.79495, 1.79633, 1.79763, 1.90578, 1.79378, 1.79615, 1.79562, 1.79276, 1.79346, 1.79608, 1.7971, 1.90397, 1.79628, 1.8476, 1.79789, 1.79994, 1.79764, 1.80031, 1.90253, 1.86945, 1.94768, 1.86776, 1.86889, 1.94874, 1.9437, 1.94326, 2.02708, 1.94425, 1.94819, 1.94451, 1.94294, 1.94422, 1.9503, 1.94237, 1.94083, 1.94085, 1.94072, 1.95125, 1.95265, 1.9522, 2.03896, 1.93426, 1.93783, 1.95507, 1.95256, 2.04273, 2.04519, 1.93466, 1.95499, 2.03389, 1.93623, 2.03447, 1.93316, 2.03618, 1.9342, 1.93436, 1.9346, 1.85905, 1.85942, 2.03778, 2.03735, 1.93975, 1.94133, 1.94375, 2.04948, 1.96162, 1.87491, 1.95061, 1.95327, 1.95577, 2.05214, 2.02115, 2.01836, 2.02184, 2.01455, 2.04525, 1.93698, 2.0251, 2.01662, 1.94029, 1.93961, 2.01597, 2.01858, 1.93865, 1.93944, 1.94118, 1.94099, 2.01802, 2.01802, 2.0199, 1.94145, 2.02866, 1.94454, 2.03178, 2.03622, 2.04299, 2.04434, 2.04165, 1.94948, 2.04816, 2.04585, 2.04445, 2.04402, 2.03975, 2.03274, 1.95168, 2.04559, 2.03924, 2.02635, 2.02914, 2.03007, 2.03096, 2.0305, 1.95521, 1.95644, 2.03586, 1.95755, 2.03171, 2.04064, 1.95772, 2.04831, 2.05443, 2.04672, 1.95781, 2.04423, 2.06207, 1.95919, 1.96114, 1.95915, 2.06394, 2.04806, 2.04108, 2.04543, 2.04724, 2.05113, 2.04507, 2.04856, 1.95901, 2.05558, 2.0535, 1.96162, 1.95971, 1.96142, 1.96035, 1.96014, 1.95916, 1.96158, 1.96181, 1.96193, 2.05231, 2.05251, 2.06553, 1.89972, 2.08808, 1.89989, 1.90121, 2.09141, 1.89767, 1.89938, 1.90065, 1.9495, 1.94786, 1.89758, 1.90003, 1.95206, 1.89943, 1.90146, 1.96631, 2.00037, 1.90249, 1.90215, 2.09682, 1.90235, 1.90495, 2.08393, 1.90628, 2.09609, 1.90523, 2.07548, 1.90489, 1.90485, 1.90501, 2.10001, 1.90643, 1.90576, 1.9539, 1.90499, 1.95338, 1.95274, 2.07378, 2.08276, 1.90609, 1.98251, 1.98735, 1.90412, 1.90309, 1.90419, 1.95148, 1.90212, 1.90289, 1.90209, 1.90253, 1.89923, 2.0742, 1.83046, 1.82995, 1.82956, 1.93109, 1.82724, 1.82307, 1.92092, 1.82044, 1.92509, 1.93379, 1.93384, 1.98316, 1.98263, 1.81567, 1.81338, 1.80938, 1.93375, 1.93804, 1.93939, 1.9376, 1.93729, 1.93131, 1.80573, 1.80447, 1.80488, 1.80278, 1.85232, 1.85446, 1.7995, 1.80024, 1.8016, 1.79876, 1.92724, 1.80337, 1.80314, 1.79979, 1.79877, 1.93119, 1.79627, 1.79994, 1.80055, 1.92752, 1.79674, 1.92951, 1.92776, 1.92461, 1.92522, 1.92251, 1.79631, 1.79565, 1.79928, 1.79701, 1.84735, 1.92005, 1.79614, 1.79483, 1.79563
1.8612, 1.80975, 1.86152, 1.80919, 1.80925, 1.80947, 1.81061, 2.06266, 2.06366, 2.06258, 1.80584, 1.80777, 1.80872, 2.08127, 1.80631, 1.98079, 1.80381, 1.9102, 1.88871, 1.80244, 1.80355, 1.80326, 1.80221, 1.80296, 1.80357, 1.80165, 1.80267, 1.90438, 1.90521, 1.90623, 1.79915, 1.80203, 1.90274, 1.79756, 1.79817, 1.7986, 1.79866, 1.98574, 1.98573, 1.90387, 1.79874, 1.89756, 1.90052, 1.89464, 1.90365, 1.90292, 1.79692, 1.79699, 1.79627, 1.79542, 1.79576, 1.79938, 1.79842, 1.79795, 1.98282, 1.8007, 1.98297, 1.80393, 1.86977, 1.94817, 1.9445, 1.86956, 1.94931, 1.8689, 1.86864, 1.86924, 1.95152, 1.9505, 1.94681, 1.94018, 1.949, 2.02754, 1.94249, 1.93854, 1.93789, 1.93772, 1.9398, 1.8636, 1.95439, 1.95262, 1.93715, 1.93723, 1.9549, 1.93664, 1.93688, 2.04459, 1.93383, 1.93428, 1.95887, 1.93595, 1.95905, 1.93399, 2.03578, 1.93468, 1.93541, 1.85894, 1.93459, 1.9355, 1.86174, 1.86154, 1.86334, 2.0482, 1.94169, 1.96233, 1.96173, 1.95171, 2.03864, 1.95969, 2.05434, 2.05513, 2.01981, 1.93955, 1.94036, 2.04521, 2.01696, 2.02217, 2.02016, 2.01483, 2.01632, 1.94178, 1.9379, 2.01727, 2.01687, 2.01733, 2.01985, 2.01812, 2.02033, 2.01757, 2.04538, 2.03842, 2.02152, 2.02212, 1.9437, 2.03709, 2.03343, 2.0332, 2.05009, 2.03389, 2.02473, 2.04097, 2.02541, 2.02435, 2.03138, 1.95102, 2.02867, 2.02846, 2.02867, 2.02899, 2.03686, 2.03013, 1.95457, 2.0319, 2.03078, 2.04382, 1.95694, 2.04152, 2.05285, 2.04962, 1.95898, 2.0318, 2.03233, 2.04913, 2.04152, 2.04841, 2.03941, 2.05336, 2.04837, 2.06118, 2.05688, 2.04528, 2.05673, 2.04176, 2.04247, 1.95849, 2.04939, 1.96053, 2.04903, 2.05173, 2.0455, 1.95933, 1.95878, 1.95799, 1.95884, 1.96082, 1.96044, 2.04886, 2.04961, 2.05923, 2.04549, 2.045, 2.06669, 2.07307, 2.07304, 1.90216, 1.90178, 1.89946, 1.90268, 1.9012, 1.95058, 1.90011, 1.89816, 2.00225, 1.9945, 1.99468, 1.90089, 2.10493, 2.07595, 2.07567, 1.90331, 1.90214, 1.90386, 2.07685, 1.90729, 1.90507, 1.90421, 2.10038, 2.09115, 1.90384, 1.906, 1.90565, 1.90561, 1.90365, 2.08285, 1.9027, 1.90651, 1.9039, 2.06876, 1.90344, 1.90293, 2.07328, 1.90418, 1.90268, 1.90599, 1.90066, 2.07356, 1.97922, 1.90037, 2.07279, 1.90031, 1.90302, 2.07656, 1.90084, 2.07696, 1.82986, 1.83055, 1.82459, 1.93467, 1.9819, 1.93082, 1.93062, 1.82118, 1.81955, 1.81873, 1.98752, 1.98581, 1.80983, 1.80857, 1.81245, 1.93592, 1.91362, 1.80699, 1.94164, 1.94086, 1.90627, 1.80594, 1.90287, 1.90021, 1.80637, 1.9385, 1.79992, 1.80105, 1.80087, 1.79873, 1.93063, 1.79952, 1.79959, 1.93206, 1.8006, 1.79968, 1.79869, 1.79807, 1.7954, 1.79795, 1.79623, 1.9285, 1.92611, 1.79667, 1.84745, 1.88954, 1.79626, 1.92459, 1.95859, 1.79611, 1.91651, 1.79345, 1.79549, 1.90701, 1.91686, 1.91388, 1.79624
