1.93230369692046,1.8574621549344,1.85570084145425,1.9243635053397,2.06206965764684,1.92740058101627,2.03505967741348,1.9620460932014,1.84617070743465,1.92009827053372,2.04820764452743,1.91946038943551,1.84330500279939,1.84197211692252,1.96047519198938,1.95966593984985,1.90851168401839,1.95859963114836,1.90815942132236,1.90699790648681,1.83480309502766,1.90656947888353,1.90539844343457,1.90546508772841,1.90839743665752,1.83450795601207,1.83453651785229,1.90893059100826,1.83665009402846,1.95026909441794,1.94949792473204,1.91265315085008,1.84283849274249,1.91911764735289,1.92070758979172,1.94456624698763,1.94562303507572,1.94386172159558,1.91762291104811,1.9172896895789,2.01517111600794,2.00445090531257,1.98963683085254,1.98708530645968,1.9858761885571,1.91071094571522,1.90860689015245,1.91060621896775,1.9069883858734,1.9072930455024,1.90723592182196,2.00167088619797,1.99869093420183,1.90673132931143,2.0007949897646,1.90700742710021,2.00983957250048,2.00431761672489,1.90689317973934,1.90636002538859,1.99912888241851,1.90416076369176,1.99286431879724,1.90383706283595,1.90444638209395,1.90472247988273,1.98377213299433,1.98398158648926,1.97808832679083,1.97676496152737,1.99272150959615,1.99069361894063,1.99344507621502,1.97769798164118,1.98262965938558,1.97633653392409,1.98138245902937,1.98786599675899,1.98058272750325,1.97413727222726,1.8936024034243,1.98088738713225,1.89121272945934,1.96488323599644,1.96952929533867,1.95740955447258,1.95495323621379,1.970357588705,1.97552728178457,1.97687920888825,1.96944360981801,1.88074957532594,1.87979751398532,1.96075128977816,1.87914059166029,1.96202705197459,1.87490391869454,1.87279986313177,1.87001984401716,1.86906778267654,1.87112423517228,1.86941052475916,1.87136225050743,1.86961045764069,1.86800147397505,1.94148156824403,1.81174416935787,1.81152519524953,1.80907839760413,1.80523206978803,1.80490836893222,1.8934500736098,1.79880565573885,1.79868188776457,1.89815325663245,1.89880065834408,1.84154368931924,1.79329322057667,1.79229355616902,1.99468275595782,1.96787270860599,1.79003717079175,1.98053512443622,1.89467823273919,1.79055128391569,1.78871380552829,1.78859003755401,1.7897991554566,1.89354527974386,1.90755010206436,1.78878044982214,1.78650502321806,1.78777126480108,1.96985299619448,1.78575289475897,1.78332513834039,1.86732551042321,1.7867335179398,1.78529590531547,1.89132697682022,1.88938477168535,1.78560056494447,1.78492460139263,1.78337274140742,1.86471686234991,1.86557371755647,1.78371548349004,1.78183992264902,1.6536924662017,1.65163601370596,1.69680180370493,1.81172512813106,1.81244869474993,1.74399548435941,1.64013511271128,1.63927825750472,1.63899263910254,1.63705995458108,1.63571754809081,1.63566042441037,1.63348972455376,1.63141423083121,1.62965291735106,1.63071922605256,1.8548535068611,1.80362308612239,1.80263294232814,1.79900558862038,1.62805345429882,1.62655871799405,1.62590179566903,1.62488309003456,1.73206615576146,1.79867236715117,1.62556857419981,1.62557809481322
1.96549255525444,1.93306534599296,1.93270356268352,1.85477734195385,1.9632837729442,1.92369706240126,1.92351617074655,1.92345904706611,1.91895579692498,1.91979361090473,1.96170335111878,1.91741345755318,1.91378610384542,1.96099882572672,1.9111488939319,2.04616071264509,1.90924477125067,1.90841647788433,1.9077595555593,1.90787380292017,1.95701920932293,1.90589351533169,1.90748345777052,1.95579105019353,1.95444864370326,1.95422966959492,1.95388692751229,1.90790236476039,1.83574563575487,1.83748790800821,1.9117582131899,1.9505071097531,1.91800373558436,1.91751818430065,1.91857497238873,1.85166410137003,1.94386172159558,2.03688763518746,2.04876936071839,1.91672797338793,1.91660420541365,2.00272767428605,1.99176944825553,1.98733284240824,1.91038724485941,1.91040628608622,1.90864497260608,1.90769291126546,1.90848312217817,1.90710263323427,1.90505570135194,1.9877231875579,1.90705503016724,2.00370829746689,1.98566673506216,1.99086498998194,1.99336891130777,1.90517946932622,1.90478912417657,1.9881896976148,1.99063649526019,1.99132197942544,1.90528419607369,1.98946545981123,1.90324678480477,1.98737092486187,1.98775174939811,1.90122841476265,1.90092375513366,1.98661879640278,1.98676160560387,1.98381973606136,1.98472419433495,1.98131581473553,2.000499850749,1.9894178567442,1.89621105149759,1.97188088684999,1.98743756915571,1.89346911483661,1.89272650699093,1.97771702286799,1.97338514376817,1.98671400253684,1.98812305332096,1.97522262215557,1.88705222140084,1.97537495197007,1.88451973823479,1.88373904793548,1.88287267211552,1.95729530711171,1.97464186473779,1.96421679305801,1.87835990136098,1.9597421047571,1.9677298994049,1.87400898103435,1.87141937418787,1.87144793602809,1.87298075478649,1.86993415849651,1.86861079323304,1.86849654587217,1.86864887568667,1.8668494797529,1.95856154869473,1.80847859895954,1.80961155195488,1.80377541593689,1.80383253961732,1.80495597199925,1.89632529885847,1.89444021740404,1.79822489832108,1.84461884744944,1.8431621935983,1.89881017895748,1.8974487312404,1.79132245360159,1.99958587186201,1.79095114967875,1.79203649960705,1.78975155238957,1.79085594354469,1.79178896365849,1.78930408355948,1.8940784340946,1.78712386308946,1.8962300927244,1.8942212432957,1.78675255916662,1.7881044862703,1.78716194554308,1.97131917065903,1.9706527277206,1.83405096656857,1.78439144704188,1.98074457793116,1.8885279164788,1.88778530863311,1.83107101457243,1.83742126371436,1.7831823291393,1.78179231958199,1.83166129260362,1.78163998976749,1.65429226484629,1.65216916805671,1.64948435507616,1.64749454687427,1.64643775878618,1.6452476821104,1.68944236954194,1.68742399949983,1.68667187104074,1.63705995458108,1.74989826467125,1.63439418282735,1.6804549104865,1.63091915893409,1.62981476777897,1.71981312630769,1.62794872755136,1.62851996435573,1.72048908985953,1.80148094810599,1.62554001235959,1.62643495001977,1.62685385700964,1.79507357528363,1.62446418304469,1.62326458575551,1.62228396257467,1.62529247641103,1.62457843040557
1.93211328465234,1.96375980361451,2.04951196856407,1.85397761042773,1.85199732283924,1.85149273032871,2.04981662819307,1.92064094549788,1.84873175244092,1.96321712865036,1.9143668612632,1.91502378358822,1.91490953622735,1.91389083059289,1.83982045829272,1.91207239343231,1.90784524107996,1.90755010206436,1.90704550955384,1.90557933508928,1.90443686148054,1.90495097460447,1.9048367272436,1.90435117595988,2.03616406856859,2.03645920758419,1.83482213625447,1.90693126219296,1.83560282655378,1.95090697551616,1.95080224876869,1.94971689884038,1.91456679414473,1.94696544156599,1.91774667902239,1.85180691057112,1.94557543200869,2.03379343583045,2.00291808655418,2.00046176829538,1.99913840303192,1.98661879640278,2.01241965873355,2.00320370495636,1.98124917044169,1.9082165450028,1.90814038009555,1.90797852966764,1.90561741754291,1.90734064856943,1.90576974735741,1.99631078085028,1.9065313964299,1.99601564183469,2.00123293798128,1.98636173984081,1.99796736758296,1.90497001583129,1.90480816540338,1.98856100153764,1.99292144247768,1.99194081929684,2.00407960138973,1.98547632279403,1.99707242992278,1.99083642814172,1.99965251615585,1.90138074457715,1.9931118547458,1.98361980317983,1.89841031319442,1.8974582518538,1.89703934486393,1.98361028256642,1.89680132952878,1.97690777072846,1.97152862415397,1.89447829985766,1.97414679284067,1.97952593941517,1.99232164383309,1.98569529690238,1.97666975539331,1.98165855681815,1.88886113794801,1.98993196986813,1.97929744469342,1.97595570938784,1.96918655325604,1.98991292864132,1.98562865260853,1.98346747336533,1.96532118421313,1.87895970000557,1.97401350425298,1.95997059947885,1.87294267233286,1.95735243079215,1.8722286263274,1.87206677589949,1.86978182868201,1.86848702525876,1.86965806070773,1.86837277789789,1.86958189580048,1.96897709976111,1.81234396800246,1.80633646094315,1.80507973997353,1.80621269296887,1.99380685952445,1.9014569094844,1.80057648983241,1.80086210823459,1.84568515615094,1.9732708964073,1.97307096352577,1.79446425602563,1.79316945260239,1.89373569201198,1.79356931836545,1.78971346993594,1.79223643248858,1.79097971151897,1.89614440720375,1.79057984575591,1.78904702699751,1.78802832136305,1.8384018868952,1.78709530124924,1.83645968176034,1.88841366911792,1.78985627913704,1.78884709411598,1.78889469718301,1.78751420823911,1.78637173463037,1.78822825424458,1.78623844604268,1.78291575196392,1.88672852054503,1.88275842475464,1.88357719750758,1.78270629846899,1.7839630194386,1.78316328791248,1.78160190731387,1.70013401839709,1.650769637886,1.75804790974695,1.69334582103848,1.64412424972847,1.64344828617664,1.68832845777342,1.68678611840161,1.63701235151405,1.63501302269875,1.63242341585227,1.63435610037372,1.68019785392453,1.74275780461661,1.62814866043289,1.80400391065863,1.80129053583787,1.62735844952017,1.6247783632871,1.80260438048792,1.62583515137518,1.71435781482594,1.62299800858014,1.62418808525591,1.62222683889424,1.62405479666822,1.62388342562691,1.62292184367289,1.79194129347299
1.92800990027427,1.92817175070217,1.85564371777381,1.93042813607944,1.95994203763863,1.92167869235915,2.04321884310258,1.84817955686336,1.91580447388753,1.9594279245147,1.96192232522712,1.96309336067608,1.83937298946263,1.95846634256067,1.91030155933875,1.91337671746895,1.90842599849773,1.83567899146103,1.91001594093657,1.9048367272436,1.90384658344936,1.90470343865591,1.90543652588819,1.90432261411967,1.90675989115165,2.04449460529901,1.90532227852732,1.90788332353358,1.90890202916804,1.90895915284848,1.911596362762,2.02154992699009,1.84320979666533,1.94549926710144,1.92108841432797,1.94443295839995,1.94642276660184,1.91704215363034,1.91671845277453,2.01335267884736,2.01764647549355,1.98582858549006,1.98445761715957,2.00917312956204,2.0006521805635,1.90912100327639,1.90741681347668,1.90704550955384,1.90644571090925,1.90546508772841,1.90553173202225,1.90539844343457,1.99136958249247,1.90459871190845,1.99269294775593,1.97664119355309,2.00391775096183,1.97423247836132,1.99007477906923,1.99832915089239,1.99407343669983,1.99053176851272,1.99062697464678,1.90171396604637,1.90223759978371,1.99039847992504,1.90154259500506,1.89917196226692,1.89872449343683,1.8982199009263,1.97651742557881,1.98131581473553,1.98271534490624,1.99913840303192,1.89384041875945,1.89382137753264,1.9927976745034,1.97687920888825,1.97570817343928,1.89168876012965,1.97997340824526,1.97428960204176,1.97397542179936,1.98715195075352,1.88736640164324,1.96738715732227,1.96447384961998,1.97363267971673,1.97334706131455,1.97365172094355,1.97314712843302,1.97632701331069,1.87779818517002,1.98159191252431,1.96099882572672,1.87532282568441,1.96399781894967,1.95546734933772,1.87183828117774,1.87217150264696,1.86978182868201,1.8713146474404,1.86919155065082,1.8680871594957,1.86764921127902,1.96669215254362,1.80927833048566,1.85771921149636,1.99344507621502,1.80555577064384,1.80352787998832,1.80434665274126,1.80159519546687,1.84729413981658,1.8450091925991,1.79745372863518,1.84217204980405,1.79498788976297,1.79391206044807,1.79198889654002,1.8411723853964,1.83941107191626,1.8391730565811,1.79148430402949,1.89551604671894,1.78858051694061,1.7902656655135,1.79001812956494,1.78930408355948,1.98026854726085,1.79031326858053,1.78937072785332,1.88706174201424,1.78951353705441,1.78864716123445,1.78590522457347,1.78576241537237,1.7859528276405,1.89464015028557,1.78645742015103,1.8322420500214,1.7850388487535,1.87733167511312,1.78264917478855,1.87796955621133,1.78442952949551,1.78328705588676,1.7822588296389,1.64976045286494,1.6463235114253,1.64500966677525,1.64378150764585,1.64026840129897,1.81200122591983,1.63528912048753,1.63658392391077,1.73149491895709,1.63408000258494,1.62874845907748,1.80773599111386,1.62953866999019,1.62836763454123,1.62457843040557,1.62712043418502,1.62591131628243,1.62402623482801,1.80240444760639,1.62417856464251,1.72053669292656,1.67552323274209,1.62185553497139,1.62187457619821,1.62268382833773,1.62235060686852,1.62299800858014,1.6235502041577
1.93290349556505,1.92885723486742,1.92748626653693,1.85353966221104,1.92732441610902,1.92131690904972,1.92177389849321,1.92306870191645,1.91758482859449,1.91758482859449,1.91530940199041,1.84298130194358,1.91238657367471,1.91076806939566,1.91075854878225,1.95810455925124,1.95708585361677,1.95684783828162,1.83506015158963,1.95668598785371,1.90557933508928,2.05817572676371,1.90492241276426,1.90471295926932,1.90663612317737,1.90451302638779,1.83334644117651,1.83469836828019,1.95107834655747,1.90867353444629,1.83821147462708,1.91434782003638,2.02016943804619,1.91730873080571,1.9209836875805,2.01737989831818,2.02597701222397,1.86799195336164,2.00283240103352,2.00290856594077,1.98560009076832,1.98493364782988,1.91074902816884,1.98141102086959,1.9823535615968,1.90859736953905,1.91042532731303,1.90660756133715,1.90343719707289,1.90548412895522,1.90466535620229,1.9046843974291,2.00042368584175,1.9877327081713,1.97632701331069,1.97622228656322,2.00661208455578,1.9757367352795,1.97507029234107,1.97401350425298,1.90332294971202,1.9726615771493,1.98162999497793,1.9003715595561,1.90075238409234,1.90079046654597,1.98284863349393,1.98160143313772,1.8982199009263,1.89798188559114,1.98708530645968,1.98013525867316,1.97868812543542,1.97070033078763,1.89414507838845,1.97091930489597,1.89387850121307,1.97616516288278,1.97656502864584,1.89057484836113,1.97916415610573,1.96674927622406,1.97200465482428,1.88639529907581,1.97744092507921,1.97561296730522,1.96858675461145,1.96723482750777,1.96816784762158,1.97375644769101,1.98654263149553,1.96704441523965,1.96370267993408,1.97916415610573,1.96260780939237,1.96643509598165,1.87364719772492,1.9583616158132,1.87234287368827,1.87336157932273,1.86908682390335,1.86822044808339,1.8680871594957,1.86767777311924,1.86883928795479,1.96117971738144,1.95722866281787,1.85640536684631,1.85412994024223,1.80562241493769,1.90675989115165,1.80181416957521,1.89090806983034,1.85492967176835,1.89538275813125,1.89573502082728,1.79649214668115,1.79559720902097,1.79493076608253,1.79440713234519,1.79499741037638,1.78991340281747,1.83914449474088,1.8391730565811,1.79062744882294,1.89446877924426,1.78905654761092,1.7891898361986,1.89424980513592,1.79012285631241,1.97344226744861,1.78821873363117,1.78842818712611,1.88487200093082,1.78823777485798,1.83304178154752,1.7871809867699,1.97070033078763,1.83548857919291,1.83472693012041,1.83357493589826,1.83197547284602,1.78278246337624,1.78374404533026,1.96654934334253,1.7818018401954,1.780573681066,1.69655426775637,1.64715180479164,1.81288664296661,1.6438576725531,1.80832626914505,1.63875462376738,1.63709803703471,1.81143950972887,1.63241389523886,1.63335643596607,1.6312523804033,1.62964339673766,1.8062602960359,1.62716803725205,1.62634926449912,1.62395006992076,1.62279807569861,1.62283615815223,1.6244737036581,1.67035353966253,1.67038210150275,1.62269334895114,1.62153183411558,1.62054169032134,1.62092251485759,1.62064641706881,1.62077018504309,1.71707118964671,1.61914216015063
1.95987539334479,1.92915237388301,1.96061800119047,1.93029484749175,1.85385384245345,1.92426829920564,1.92224040855012,1.92105985248775,1.91634714885168,1.91517611340272,1.91459535598495,1.9172896895789,1.96041806830894,1.91027299749854,1.91094896105037,1.91055861590072,2.04631304245959,1.95983731089116,1.90512234564579,1.90349432075333,1.83276568375874,1.90377041854211,2.03623071286244,1.83306082277433,1.90510330441897,1.9040750781711,1.90489385092404,1.90502713951172,1.90586495349147,1.90651235520309,1.83630735194584,1.84027744773622,2.02600557406419,1.91733729264593,1.91748962246043,1.92181198094684,1.92716256568112,1.93433158757598,2.0258722854765,2.00384158605458,2.00395583341545,2.0000333406921,1.91089183736994,1.9895797071721,2.00282288042011,1.90807373580171,1.90695030341977,1.90626481925453,1.90536036098094,1.90381802160914,1.90232328530437,1.99743421323221,1.9043797378001,1.90537940220775,1.99309281351899,1.97955450125538,1.99007477906923,1.9963488633039,1.98047800075579,1.98431480795848,2.01930306222623,1.98947498042464,1.97951641880176,1.97408966916023,1.98791359982602,1.986342698614,1.89889586447814,1.89747729308061,1.99016046458988,1.98180136601925,1.89484960378051,1.89549700549213,1.990350876858,1.89342151176958,1.96879620810639,1.89400226918736,1.97432768449539,1.98007813499273,1.89040347731981,1.89086998737672,1.89086998737672,1.98301048392183,1.97091930489597,1.96656838456934,1.97509885418129,1.97291863371127,1.95469617965182,1.96196992829415,1.88360575934779,1.97346130867542,1.96782510553896,1.87883593203129,1.9572857864983,1.9625030826449,1.87535138752463,1.9623507528304,1.96132252658253,1.95293486617168,1.87111471455887,1.87139081234765,1.86937244230554,1.86826805115042,1.86723982490255,1.87134320928062,1.86766825250583,1.95350610297605,1.85653865543399,1.85535809937163,1.85353014159764,1.85231150308165,1.80326130281295,1.80157615424006,1.79984340260013,1.99385446259148,1.79640646116049,1.79792023869208,1.79578762128909,1.79511165773725,1.79298856094767,1.79511165773725,1.79182704611212,1.79057984575591,1.78930408355948,1.85800482989855,1.7908845053849,1.79062744882294,1.7905703251425,1.96276965982027,1.78711434247605,1.78869476430148,1.78866620246126,1.79234115923605,1.78732379597099,1.78730475474418,1.78766653805361,1.78693345082133,1.78423911722738,1.78926600110585,1.83295609602686,1.78570529169194,1.86744927839749,1.83149944217571,1.83139471542825,1.88070197225891,1.78245876252042,1.87693180935006,1.86920107126423,1.64690426884308,1.69403130520373,1.69319349122398,1.64160128717583,1.63996374166997,1.63756454709161,1.63694570722021,1.81154423647634,1.81036368041397,1.63129046285693,1.71739489050252,1.62789160387092,1.8073361253508,1.62567330094728,1.72333575326798,1.62381678133307,1.62302657042036,1.67090573524009,1.62295992612651,1.66799242753779,1.66821140164614,1.78348698876829,1.71899435355476,1.62090347363078,1.61642878532987,1.61799016592848,1.61915168076404,1.7964159817739,1.61655255330415
1.93089464613634,1.9326750008433,1.95693352380228,1.92643899906225,1.85191163731859,1.85124519438015,1.91999354378626,1.84678954730606,1.9205171775236,1.91555693793897,1.91322438765445,1.91579495327413,1.84088676699422,1.95966593984985,1.83797345929192,1.91045388915325,1.90787380292017,1.90557933508928,1.95708585361677,1.9040750781711,1.90897819407529,1.91003498216338,1.83128046806737,1.90346575891311,1.90339911461927,1.90466535620229,1.95120211453175,1.90722640120855,1.94803175026749,1.90798805028105,2.02593892977035,2.01988381964401,1.94978354313423,1.91669941154771,1.94369987116767,1.94316671681692,2.03364110601595,2.03613550672838,2.01257198854805,2.00908744404139,1.99378781829764,2.00580283241625,1.99802449126339,1.91002546154997,1.90794996782742,1.90667420563099,1.90536988159435,1.90658852011034,1.97658406987265,1.90411316062473,1.90339911461927,2.00096636080591,1.9032943878718,1.90368473302145,1.99209314911134,1.90259938309315,2.00336555538427,1.98206794319462,1.97975443413691,1.98732332179484,2.00104252571316,1.98059224811666,1.97288055125765,1.97256637101524,1.90179965156703,1.9797353929101,1.89787715884367,1.98951306287826,1.98535255481975,1.9923502056733,1.97843106887345,1.98800880596008,1.98483844169582,1.97461330289757,1.97484179761932,1.98012573805976,1.89129841498,1.97313760781961,1.96434056103229,1.88927052432448,1.98350555581895,1.88844223095814,1.97420391652111,1.9691199089622,1.97329945824752,1.97369932401058,1.88516713994641,1.96475946802216,1.97783127022886,1.96994820232854,1.87949285435632,1.96215081994887,1.95759996674071,1.95998964070566,1.96155102130428,1.95495323621379,1.95704777116315,1.97305192229896,1.9665112608889,1.87090526106394,1.86765873189243,1.87020073567188,1.86924867433126,1.86939148353235,1.8685441489392,1.93626427209744,1.95467713842501,1.80806921258308,1.80637454339678,1.80404199311226,1.98646646658828,1.79919600088851,1.79931024824938,1.79913887720807,1.90132362089672,1.90193294015471,1.89829606583355,1.89764866412193,1.79366452449951,1.83997278810722,1.97716482729043,1.83990614381338,1.83854469609629,1.79153190709652,1.83928730394198,1.83734509880711,1.79022758305988,1.78971346993594,1.78968490809572,1.78986579975044,1.83679290322956,1.78898038270367,1.835022069136,1.78898038270367,1.78700961572858,1.78832346037864,1.78689536836771,1.84742742840427,1.84448555886176,1.8325562302638,1.83348925037761,1.83251814781018,1.83076635494344,1.78335370018061,1.78330609711358,1.78163046915409,1.78262061294833,1.69375520741495,1.69243184215149,1.64256286912986,1.64096340607762,1.63729796991624,1.63436562098713,1.63346116271354,1.80711715124246,1.72656324121268,1.6306335405319,1.62829146963398,1.62767262976258,1.80486076586519,1.62493069310159,1.62469267776644,1.80272814846221,1.62121765387318,1.78559104433106,1.62091299424418,1.66787818017692,1.61913263953722,1.6673926288932,1.66679283024861,1.79540679675284,1.61584802791209,1.68352054800329,1.61882797990823,1.72958127566244,1.61553384766968
1.85613878967093,1.92764811696483,1.92684838543871,1.85464405336616,1.95694304441568,1.92202143444177,1.92140259457037,1.92163108929212,1.8451615224136,1.9171468803778,1.91688030320243,2.04674147006287,1.91131074435981,2.04249527648371,1.83580275943531,1.83582180066212,1.90599824207916,1.90737873102305,1.95449624677029,1.90378945976892,1.83204211713987,1.90650283458968,1.90419884614539,1.90336103216564,1.90277075413446,1.94925038878348,1.90490337153744,2.03368870908298,1.94867915197911,1.90727400427558,1.94747003407652,1.91035868301919,1.9169850299499,1.91655660234662,1.84438083211429,1.94327144356439,1.93881579649029,1.86663050564456,1.99374021523061,2.026024615291,2.00635502799381,1.9832675404838,1.99463515289079,1.9974151720054,1.9103682036326,1.91063478080797,1.90480816540338,1.90625529864112,1.90501761889832,1.9045320676146,1.99318801965305,1.99304521045196,1.99431145203498,1.90368473302145,2.00022375296022,1.99962395431563,1.90181869279384,1.90387514528958,1.99512070417451,1.9984910013203,1.9708050575351,1.99693914133509,1.9843433697987,1.98048752136919,1.98244876773087,1.98967491330617,1.98749469283615,1.98291527778777,2.00976340759323,1.98751373406296,1.97493700375338,1.89447829985766,1.98390542158201,1.89155547154196,1.97990676395141,1.98092546958588,1.98012573805976,1.97710770360999,1.97498460682041,1.9675870902038,1.96752996652337,1.97733619833174,1.97348034990223,1.88554796448266,1.97023382073072,1.97923080039957,1.97033854747819,1.9740420660932,1.96670167315703,1.96708249769327,1.96120827922165,1.95708585361677,1.95618139534319,1.96115115554122,1.96392165404242,1.95044046545925,1.95733338956534,1.87087669922372,1.87064820450197,1.87032450364616,1.86786818538736,1.86768729373264,1.86570700614416,1.86710653631487,1.86711605692827,1.95949456880854,1.80814537749033,1.80688865652071,1.8058033065924,1.9665112608889,1.80258533926111,1.80174752528137,1.79913887720807,1.98428624611826,1.79577810067569,1.89923860656076,1.89519234586313,1.8445522031556,1.84143896257178,1.84105813803553,1.84068683411269,1.83968716970504,1.83847805180245,1.83873510836442,1.83792585622489,1.79151286586971,1.97440384940264,1.88788051476717,1.78827585731161,1.97821209476511,1.87312356398758,1.78837106344567,1.83560282655378,1.83476501257404,1.78678112100684,1.786105157455,1.89750585492083,1.9608084134586,1.78526734347525,1.78633365217674,1.97405158670661,1.96255068571193,1.78577193598578,1.78178279896859,1.78301095809798,1.78235403577296,1.78185896387584,1.74624234912328,1.73356089206623,1.64117285957256,1.63848804659201,1.63715516071514,1.80509878120035,1.63329931228564,1.63022415415544,1.6293958607891,1.62826290779376,1.62664440351471,1.62561617726684,1.62271239017795,1.62265526649751,1.62197930294568,1.79947209867729,1.66727838153233,1.68994696205247,1.61901839217635,1.61760934139223,1.61791400102123,1.61912311892382,1.61737132605708,1.61243964831267,1.79541631736625,1.61458178632906,1.61751413525817,1.61594323404615,1.61465795123631
1.92841928665073,1.85571036206766,1.95705729177656,1.92290685148855,2.0424857558703,1.92121218230225,1.92091704328666,1.84543762020238,1.84160081299968,1.91453823230451,1.91386226875267,2.04508488333019,1.91376706261861,1.90963511640032,1.90992073480251,1.83541241428566,1.90549364956863,1.90582687103784,1.90466535620229,1.83094724659815,1.83089964353112,1.90531275791391,1.90217095548987,1.95155437722778,1.90094279636047,1.90479864478998,1.90346575891311,1.90370377424826,1.90508426319216,1.83428898190373,1.90756914329118,1.90842599849773,1.83843044873542,1.91602344799587,1.94074848101175,1.94127211474909,2.04029601478688,2.01027752071716,1.91506186604185,1.99120773206456,1.99925265039279,1.91082519307609,1.91385274813926,1.99413056038026,1.90820702438939,1.90702646832702,1.90728352488899,1.90432261411967,1.90397035142364,1.9023708883714,1.98980820189385,1.98378165360773,1.98457186452045,1.98692345603178,1.99236924690012,1.99316897842624,1.98182040724606,1.90184725463406,1.98701866216584,1.99890038769676,1.99148382985334,2.00797353227286,1.90061909550466,1.98466707065451,1.99323562272008,1.97364220033014,1.9757272146661,1.97916415610573,1.97267109776271,1.97666975539331,1.97412775161386,1.89325014072827,1.98337226723127,1.96329329355761,1.89142218295428,1.97799312065677,1.97752661059987,1.97490844191316,1.98300096330843,1.97326137579389,1.97405158670661,1.95663838478668,1.98376261238092,1.97100499041663,1.97602235368169,1.97672687907375,1.96017053236038,1.96196040768074,1.96588290040409,1.88142553887778,1.95030717687157,1.94799366781386,1.94685119420512,1.95410590162064,1.96904374405495,1.8730093166267,1.87353295036404,1.95768565226136,1.87139081234765,1.86883928795479,1.86647817583006,1.86619255742787,1.94472809741554,1.94688927665874,1.86898209715589,1.95076416631506,1.80783119724792,1.9986528517482,1.80397534881842,1.8050226162931,1.80292808134373,1.80229020024552,1.80036703633747,1.84658009381112,1.84519008425382,1.89444973801745,1.89248849165577,1.88966086947413,1.98061128934347,1.89154595092856,1.79051320146206,1.78744756394527,1.79165567507081,1.79268390131867,1.79161759261718,1.79040847471459,1.79156998955015,1.97641269883134,1.88618584558087,1.7924173241433,1.83541241428566,1.78883757350257,1.78856147571379,1.83526008447116,1.78432480274804,1.78878997043554,1.78637173463037,1.96091314020606,1.95824736845233,1.7870286569554,1.78427719968101,1.78366788042301,1.96533070482654,1.97337562315477,1.97336610254136,1.78291575196392,1.77979299076669,1.64171553453671,1.63989709737613,1.7347414481286,1.63556521827631,1.6337086986621,1.63213779745008,1.81161088077018,1.80961155195488,1.62868181478363,1.72796277138339,1.72571590661953,1.6244832242715,1.72029867759141,1.80209026736399,1.70993072959206,1.62075114381628,1.61886606236185,1.61849475843901,1.61723803746939,1.66508864044891,1.61636214103602,1.61757125893861,1.72391651068576,1.720593816607,1.61390582277723,1.61713331072192,1.83789729438467,1.61527679110772,1.61339170965329
1.93302726353933,1.85459645029913,1.92657228764993,1.92695311218618,1.9271435244543,1.84814147440973,1.95656221987943,1.91895579692498,1.83935394823582,1.84136279766453,1.84159129238628,1.91417644899507,1.91128218251959,1.91176773380331,1.83580275943531,1.90535084036753,1.95262068592927,1.90462727374866,1.83277520437214,1.90333247032542,1.90429405227945,1.90368473302145,1.90074286347894,1.90209479058262,1.90509378380557,1.95022149135091,1.82937634538613,1.94869819320592,1.94539454035397,1.83247054474314,1.83626926949221,1.90843551911114,2.02976621635963,1.91327199072149,1.9174420193934,1.92006970869351,2.03603077998091,2.04583701178928,2.00146143270303,1.91444302617045,2.00705955338587,1.91032060056557,2.00054745381604,1.98802784718689,1.90578878858422,1.90700742710021,1.90577926797081,1.90536036098094,1.90463679436207,1.90480816540338,1.98023046480722,1.98255349447833,1.98683777051112,1.99990005210441,1.9895701865587,1.99267390652912,1.98819921822821,1.90151403316484,1.99408295731323,1.99505405988066,1.9949588537466,1.89892442631836,1.98486700353604,1.98069697486413,1.89750585492083,1.97879285218289,1.89594447432222,1.98510501887119,1.97388021566529,1.97539399319688,1.89270746576411,1.9768125645944,1.98341034968489,1.97739332201218,1.89061293081475,1.9854191991136,1.88806140642189,1.88840414850451,1.88845175157155,1.96741571916249,1.97660311109947,1.9568192764414,1.88669995870481,1.97088122244235,1.96509268949138,1.97082409876191,1.96664454947659,1.96783462615236,1.88141601826437,1.96407398385692,1.87860743730954,1.94675598807106,1.96375028300111,1.87476110949344,1.95906614120526,1.87349486791042,1.96400733956308,1.86999128217694,1.86902017960951,1.86894401470226,1.86651625828368,1.86571652675756,1.86645913460325,1.86632584601556,1.9374448281598,1.96042758892235,1.95802839434399,1.98977011944023,1.80480364218475,1.80101443804909,1.80307089054483,1.80186177264224,1.8462373517285,1.84538049652194,1.8443903527277,1.88201581690896,1.79571145638184,1.97336610254136,1.79229355616902,1.79139861850884,1.98100163449313,1.79151286586971,1.79188416979255,1.7902656655135,1.87965470478423,1.8860811188334,1.78893277963663,1.87832181890736,1.78933264539969,1.83733557819371,1.83715468653899,1.83631687255925,1.83545049673928,1.83461268275954,1.871000467198,1.78654310567168,1.7842676790676,1.88051155999078,1.97041471238544,1.78512453427416,1.78205889675737,1.97428008142835,1.78267773662877,1.7810401911229,1.97061464526697,1.96140821210318,1.87487535685432,1.63920209259747,1.81245821536333,1.63766927383908,1.63596508403937,1.63650775900352,1.63212827683667,1.80938305723313,1.8568528356764,1.62871989723726,1.62564473910706,1.62437849752403,1.62412144096207,1.62163656086305,1.62376917826604,1.79862476408414,1.79529254939197,1.61661919759799,1.61584802791209,1.6144770595816,1.79582570374272,1.70734112274558,1.61550528582947,1.61471507491675,1.71622385505356,1.61231588033839,1.79313137014876,1.78940881030694,1.79017997999285,1.8422482147113
2.04035313846732,1.92620098372709,1.92383035098895,1.92482049478319,1.92423021675201,1.92000306439966,1.91871778158983,1.91795613251733,1.91668989093431,1.91607105106291,1.95322048457386,2.04023889110644,2.03962957184845,1.95401069548657,1.9088353848742,1.90712167446109,2.03613550672838,1.90397987203704,1.90334199093883,1.90395131019682,1.95009772337663,1.95070704263463,1.94998347601576,1.90127601782968,1.83145183910868,1.90122841476265,1.90168540420615,1.9482031213088,1.90273267168083,1.90367521240804,1.94454720576082,1.90609344821322,1.9113012237464,1.94415686061117,1.91507138665525,1.92076471347216,1.93872059035623,1.8651548105666,1.9126721920769,1.91143451233409,2.01039176807804,1.98125869105509,1.99707242992278,1.99585379140678,1.98177280417903,1.98322945803017,1.90573166490378,1.90445590270735,1.90280883658808,1.90403699571748,1.90186629586087,1.99362596786973,1.9734232262218,1.98810401209414,1.90143786825759,1.99027471195076,1.90170444543296,1.90082854899959,1.99015094397647,1.97216650525218,1.99929073284642,1.99569194097888,1.89804852988499,1.98206794319462,1.89957182802998,1.98540967850019,1.98628557493356,1.98909415588839,1.97503220988744,1.97346130867542,1.9865045490419,1.89167923951624,1.98057320688985,1.99002717600219,1.89122225007275,1.96710153892009,1.96725386873459,1.97409918977364,1.97146197986012,1.97960210432242,1.97217602586559,1.97012909398326,1.97417535468089,1.97363267971673,1.97659359048606,1.96074176916475,1.9735850766497,1.88164451298612,1.96276013920686,1.97578433834653,1.87796003559792,1.97105259348366,1.96652078150231,1.97298527800511,1.95717153913743,1.96304575760905,1.95878052280308,1.86965806070773,1.86796339152142,1.86732551042321,1.86602118638656,1.86554515571625,1.94517556624563,1.94146252701722,1.93937751268126,1.94763188450443,1.95572440589969,1.80530823469528,1.805184466721,1.80434665274126,1.80322322035933,1.84923634495145,1.84786537662095,1.84519960486722,1.79720619268661,1.79524494632494,1.79489268362891,1.79259821579802,1.97335658192795,1.7916461544574,1.79214122635452,1.97652694619222,1.78954209889463,1.79158903077696,1.78973251116275,1.79096067029215,1.78940881030694,1.78943737214716,1.79104635581281,1.78954209889463,1.79108443826643,1.78832346037864,1.78889469718301,1.83446035294504,1.78546727635678,1.78594330702709,1.78568625046512,1.78607659561478,1.78486747771219,1.78391541637157,1.78290623135052,1.96445480839317,1.78222074718527,1.78168759283452,1.87388521306007,1.96935792429735,1.77731763128108,1.63817386634961,1.63745982034414,1.6349368577915,1.80960203134147,1.68033114251222,1.62781543896367,1.63022415415544,1.62764406792236,1.62604460487012,1.79866284653776,1.67066771990493,1.72627762281049,1.61917072199085,1.61864708825351,1.61855188211945,1.79528302877856,1.61619076999471,1.71295828465523,1.61426760608666,1.79492124546913,1.61443897712797,1.61260149874058,1.61306800879748,1.61317273554495,1.60961202613103,1.61003093312091,1.70292355812511,1.78915175374498,1.79215074696793
1.95569584405947,1.92679126175828,1.92687694727893,1.92712448322749,1.92210711996243,2.0404769064416,1.91863209606917,2.03481214146492,2.03792538204874,2.03803962940961,1.91223424386021,1.91214855833955,1.9089877146887,1.90870209628651,1.90764530819843,1.83475549196063,1.95346802052242,1.90384658344936,1.90229472346415,1.90097135820069,1.89988600827238,1.90082854899959,1.8291764125046,1.82775784110708,2.02598653283738,1.90123793537606,1.90318966112433,1.90447494393417,1.83229917370183,1.90770243187886,1.90569358245016,1.90418932553198,1.91027299749854,1.94133875904293,1.84166745729352,1.9151475515625,1.93783517330946,1.94265260369299,1.91181533687034,1.91049197160688,1.910682383875,1.98258205631855,1.98028758848766,1.97939265082748,1.97796455881655,1.97682208520781,1.97738380139877,1.9023804089848,1.90133314151012,1.90239945021162,1.90141882703078,1.90084759022641,1.98317233434974,1.90111416740178,1.98674256437706,1.99961443370223,1.98384829790158,1.89932429208142,1.98406727200992,1.98356267949939,1.98139197964278,1.98150622700365,1.89689653566284,1.97815497108467,1.89532563445082,1.89441165556382,1.98084930467863,1.98100163449313,1.99071266016744,1.89354527974386,1.98709482707309,1.98903703220795,1.97383261259826,1.98544776095382,1.98006861437932,1.88802332396827,1.97356603542289,1.97601283306828,1.96941504797779,1.96731099241502,1.9672729099614,1.9532871288677,1.95325856702749,1.96752996652337,1.95303959291914,1.95145917109372,1.94969785761357,1.96120827922165,1.96722530689437,1.87821709215989,1.87788387069067,1.94684167359171,1.95653365803922,1.96307431944927,1.95613379227616,1.95724770404468,1.87119087946612,1.86928675678488,1.86749688146452,1.86704941263443,1.86633536662897,1.86486919216441,1.86548803203581,1.8640885018651,1.93645468436556,1.97389925689211,1.94202424320818,1.80484172463838,1.9834293909117,1.87616063966415,1.84846517526554,1.8480843507293,1.79837722813558,1.85141656542146,1.79523542571153,1.79662543526884,1.7950259722166,1.89301212539311,1.89094615228397,1.79170327813784,1.89187917239777,1.79242684475671,1.79399774596873,1.79228403555561,1.97048135667928,1.79006573263197,1.88932764800492,1.97698393563571,1.87793147375771,1.87725551020587,1.87550371733913,1.96515933378522,1.78776174418767,1.88129225029009,1.88118752354262,1.78478179219154,1.87877880835086,1.78397254005201,1.78267773662877,1.78344890631467,1.7831918497527,1.78270629846899,1.78308712300523,1.78099258805587,1.78093546437543,1.87415179023545,1.87221910571399,1.63773591813292,1.80709811001565,1.63321362676498,1.6327851991617,1.62931017526844,1.67654193837655,1.62721564031908,1.62425472954975,1.6238643844001,1.6224838954562,1.62230300380149,1.62095107669781,1.61895174788251,1.61926592812491,1.61196361764236,1.61769502691289,1.6143247297671,1.79506405467022,1.6143342503805,1.61235396279202,1.61110676243581,1.61152566942568,1.61167799924018,1.78547679697019,1.61211594745686,1.61286807591595,1.61126861286371,1.70565597417268,1.61073545851296
1.93010443522363,1.9546580971982,1.9252870048401,1.95362987095033,1.84812243318292,1.91780380270283,1.9546676178116,1.95490563314676,2.04884552562564,1.91532844321722,1.91486193316032,1.95622899841022,1.95205896973831,1.95320144334705,1.9535917884967,1.90469391804251,1.90443686148054,1.95056423343353,1.95145917109372,1.82968100501513,1.90079998715938,1.89989552888579,1.90272315106743,1.9000764205405,1.90339911461927,1.94630851924097,1.90055245121081,1.9019138989279,1.90429405227945,1.83103293211881,1.83008087077819,1.90776907617271,1.90811181825533,1.94046286260957,1.9137575420052,1.91400507795376,2.01989334025741,2.02532008989894,1.97639365760453,2.00588851793691,1.98733284240824,1.97962114554923,1.97922127978617,1.99031279440438,1.97663167293968,1.97692681195528,1.98312473128271,1.90251369757249,1.90279931597468,1.90087615206662,1.89992409072601,1.97755517244008,1.98720907443396,1.97970683106988,1.98297240146821,1.98217266994209,1.9002192297416,1.9901890264301,1.97090978428256,1.89746777246721,1.97997340824526,1.97924984162639,1.97459426167076,1.89850551932848,1.89473535641963,1.8951542634095,1.97269965960293,1.9821917111689,1.98379117422114,1.98491460660307,1.9844956996132,1.98700914155243,1.98964635146595,1.97792647636293,1.88836606605089,1.98544776095382,1.97633653392409,1.88619536619428,1.97825017721874,1.97275678328336,1.97279486573699,1.88377713038911,1.9661970806465,1.88434836719348,1.88374856854889,1.88154930685206,1.97099546980322,1.9760413949085,1.9638930922022,1.96941504797779,1.87598926862284,1.96976731067382,1.87404706348798,1.96228410853655,1.96202705197459,1.95239219120752,1.86843942219173,1.86790626784099,1.86729694858299,1.86652577889709,1.86440268210751,1.86723982490255,1.86543090835538,1.86449788824157,1.93837784827361,1.9394441569751,1.95016436767047,1.98997005232176,1.99001765538879,1.8020997879774,1.79941497499685,1.79973867585266,1.79863428469754,1.79608276030468,1.7965683115884,1.79555912656734,1.79567337392822,1.79355027713864,1.89051772468069,1.78984675852363,1.79229355616902,1.79223643248858,1.79175088120487,1.79031326858053,1.79030374796713,1.79136053605521,1.88723311305555,1.860546833678,1.88258705371333,1.78891373840982,1.87766489658233,1.78866620246126,1.78738091965143,1.78927552171926,1.78443905010891,1.96164622743834,1.78230643270593,1.78576241537237,1.78504836936691,1.78575289475897,1.96653982272912,1.77895517678695,1.78222074718527,1.78130676829828,1.78121156216421,1.77977394953988,1.94714633322071,1.63421329117263,1.8065649556649,1.62971956164491,1.63119525672287,1.8048702864786,1.62899599502604,1.62595891934946,1.62444514181788,1.62099867976484,1.62192217926524,1.62064641706881,1.61943729916622,1.79304568462811,1.61868517070713,1.61812345451617,1.79444521479882,1.79140813912224,1.6152482292675,1.61419144117941,1.61196361764236,1.61110676243581,1.78774270296086,1.79051320146206,1.61168751985358,1.61059264931187,1.60917407791435,1.60837434638823,1.60821249596032,1.61052600501803
1.9285144927848,1.9265151639695,1.92378274792192,1.85057875144172,1.91823223030611,1.9177561996358,1.91630906639806,1.91626146333103,1.91461439721176,2.04345685843774,1.95271589206333,1.9117582131899,1.83643111992012,1.90815942132236,1.90770243187886,1.90528419607369,1.8313280711344,1.94957408963929,1.9011522498554,1.9003715595561,2.03966765430207,1.82595844517331,1.90246609450546,2.03673530537297,2.03257479731446,1.900228750355,1.90074286347894,1.90229472346415,1.90250417695908,1.83143279788187,2.02318747249596,1.83573611514147,1.90761674635821,1.83790681499808,2.03289849817027,2.03542146072291,2.02875703133858,2.02053122135563,1.91084423430291,1.98882757871301,1.97914511487892,1.9917218451885,1.98200129890078,1.99678681152059,1.90441782025373,1.90538892282116,1.90373233608848,1.90361808872761,1.90085711083981,1.90105704372134,1.98379117422114,1.90032395648907,1.90122841476265,1.90079046654597,1.98095403142609,1.99409247792664,1.89826750399333,1.89794380313752,1.97129060881881,1.98401966894289,1.89598255677584,1.99483508577232,1.89681085014218,1.89611584536353,1.98016382051338,1.9735850766497,1.89379281569242,1.89274554821774,1.89173636319668,1.89117464700572,1.89065101326838,1.98079218099819,1.97135725311265,1.88477679479676,1.98677112621728,1.9864950284285,1.97137629433947,1.98383877728817,1.95900901752483,1.88265369800718,1.97953546002857,1.97714578606362,1.96612091573925,1.88173971912018,1.96079889284519,1.8814636213314,1.95893285261758,1.94324288172417,1.96875812565276,1.87707461855115,1.9535917884967,1.96039902708213,1.95437247879601,1.87278082190496,1.8713146474404,1.95025957380454,1.96102738756694,1.86737311349024,1.93857778115514,1.86662098503115,1.8653071403811,1.86472638296332,1.86481206848397,1.86471686234991,1.94500419520432,1.96150341823725,1.93694023564927,1.97452761737692,1.89504001604863,1.80150950994621,1.79877709389864,1.79752989354242,1.79704434225871,1.79675872385652,1.79752037292902,1.79593995110359,1.84198163753593,1.79357883897886,1.89111752332528,1.79283623113317,1.79229355616902,1.83908737106045,1.8380972272662,1.83783065009083,1.83725941328646,1.78843770773951,1.78969442870913,1.88233951776477,1.88370096548186,1.78895182086345,1.78832346037864,1.78700009511518,1.87721742775224,1.78654310567168,1.8646978211231,1.78246828313383,1.95747619876643,1.94972641945379,1.78382973085092,1.95294438678508,1.8290240826901,1.88404370756448,1.77726050760064,1.8274817433183,1.82546337327619,1.7768796830644,1.77722242514702,1.63657440329737,1.63152847819208,1.63092867954749,1.62730132583974,1.62444514181788,1.62533055886465,1.80018614468275,1.61907551585679,1.61760934139223,1.61983716492928,1.61965627327456,1.61930401057854,1.61799968654189,1.61592419281934,1.66219437397342,1.79177944304509,1.61246821015289,1.69936284871119,1.61194457641555,1.79148430402949,1.61045936072418,1.84587556841906,1.61044984011078,1.60803160430561,1.70132409507287,1.60865996479041,1.60786023326429,1.60722235216608,1.6080220836922
1.92496330398429,1.92549645833503,1.92254506817911,1.92097416696709,1.84816051563655,1.94987874926829,1.91410028408782,1.91512851033569,1.91372898016498,2.02612934203847,1.95048806852628,1.90878778180717,1.90458919129504,1.90507474257875,1.90496049521788,1.90599824207916,1.82876702612814,1.9025232181859,1.90157115684528,1.82955723704085,1.82850044895276,1.8994575806691,1.89992409072601,1.94399501018326,1.90077142531916,2.01658016679206,1.8280910625763,1.90103800249453,1.90051436875719,1.90412268123814,1.90566502060994,1.90974936376119,1.90841647788433,1.91185341932396,1.91308157845336,1.91319582581424,1.93571207651988,1.9351408397155,1.99943354204751,1.90990169357569,2.00209931380124,1.90673132931143,1.98885614055323,1.97721243035746,1.90414172246495,1.90280883658808,1.90272315106743,1.90428453166604,1.9040655575577,1.90230424407755,1.90026683280863,1.97395638057254,1.90000025563326,1.90043820384994,1.99317849903964,1.89882922018429,1.97094786673619,1.89844839564805,1.89832462767377,1.98020190296701,1.96745380161612,1.97919271794595,1.98103019633334,1.97658406987265,1.89682037075559,1.89301212539311,1.97713626545021,1.89151738908834,1.89066053388178,1.89100327596441,1.98014477928657,1.97260445346887,1.98076361915797,1.97517501908854,1.88668091747799,1.96761565204402,1.88296787824958,1.96305527822246,1.96352178827936,1.96372172116089,1.97267109776271,1.88227287347093,1.9724997267214,1.96568296752256,1.96706345646646,1.96668263193021,1.96529262237291,1.97071937201444,1.87734119572652,1.87602735107647,1.96009436745313,1.96052279505641,1.87279034251836,1.95967546046326,1.95118307330494,1.86902970022292,1.95405829855361,1.94149108885743,1.94367130932745,1.86493583645825,1.8670113301808,1.86401233695785,1.86413610493213,1.86171786912696,1.96043710953575,1.93511227787529,1.93370322709117,1.97996388763185,1.9700434084626,1.79922456272873,1.80202362307015,1.79958634603816,1.79543535859306,1.79719667207321,1.79614940459853,1.79607323969128,1.8846911092761,1.84104861742212,1.79242684475671,1.7933408236437,1.79194129347299,1.83842092812201,1.83776400579699,1.83779256763721,1.83735461942052,1.88403418695107,1.88153978623865,1.79007525324538,1.78937072785332,1.88050203937738,1.7871905073833,1.78643837892421,1.87443740863763,1.78572433291875,1.78371548349004,1.78356315367554,1.78573385353215,1.78499124568647,1.78198273185012,1.78212554105121,1.7798120319935,1.82777688233389,1.82724372798315,1.8603849832501,1.77586097742993,1.86209869366321,1.82352116814133,1.63238533339864,1.62854852619595,1.62973860287172,1.62718707847886,1.62467363653963,1.71389130476904,1.62041792234706,1.62115100957934,1.61800920715529,1.62091299424418,1.6173998878973,1.61746653219114,1.61703810458786,1.66251807482923,1.61225875665795,1.6112495716369,1.61382965786998,1.61099251507493,1.61181128782786,1.61180176721446,1.66101381791106,1.65850037597182,1.60495644617541,1.70354239799651,1.60779358897045,1.60702241928455,1.78521021979481,1.60520398212397,1.65423514116585
1.93034245055878,1.92473480926254,1.85217821449396,1.92241177959143,1.92196431076134,2.04839805679555,1.91991737887901,1.91709927731077,1.91328151133489,1.91062526019456,1.83841140750861,1.83863990223036,1.9025327387993,1.90369425363486,1.90420836675879,1.90457015006823,1.90327534664498,1.82930970109229,1.82910024759735,1.82930970109229,1.89919100349373,1.9463656429214,1.90031443587566,1.8994480600557,1.82652016136428,1.90025731219522,1.82619646050847,1.90150451255143,2.03210828725756,1.83032840672675,1.83187074609855,1.90735968979624,1.91000642032316,1.91302445477292,1.84108669987575,1.84222917348449,1.93393172181292,1.86271753353461,1.91019683259129,1.9963488633039,1.90743585470349,1.99857668684095,1.97678400275418,2.0135621323423,1.98706626523287,1.90219951733009,1.9045320676146,1.90280883658808,1.90155211561846,1.89866736975639,1.89958134864338,1.90032395648907,1.89924812717417,1.89936237453504,1.9728043863504,1.97733619833174,1.98032567094129,1.89725831897227,1.97812640924446,1.98606660082522,1.98495268905669,1.89619201027078,1.97646982251178,1.99404487485961,1.96520693685226,1.96477850924898,1.89183156933074,1.98002101131229,1.88783291170014,1.98355315888598,1.97079553692169,1.97355651480948,1.96931984184373,1.97001484662238,1.98368644747367,1.88527186669388,1.9795735424822,1.97658406987265,1.96457857636745,1.88466254743588,1.96642557536825,1.88118752354262,1.88062580735166,1.87954997803676,1.96668263193021,1.87981655521213,1.88041635385672,1.87860743730954,1.96369315932067,1.95353466481627,1.96038950646872,1.97316616965983,1.95818072415849,1.95058327466035,1.95490563314676,1.94061519242406,1.93998683193926,1.94010107930013,1.93740674570618,1.86406946063829,1.86183211648784,1.86219389979727,1.86249855942627,1.86231766777155,1.86221294102408,1.95408686039382,1.86215581734365,1.80304232870461,1.98069697486413,1.98145862393662,1.79989100566716,1.79650166729456,1.97899278506442,1.79559720902097,1.89931477146801,1.89770578780236,1.8411723853964,1.84071539595291,1.8393253863956,1.78923743926563,1.84816051563655,1.84659913503793,1.8359455686364,1.83606933661068,1.83589796556937,1.78896134147685,1.78589570396006,1.78612419868181,1.7881140068837,1.87907394736645,1.7862670078829,1.78614323990862,1.78697153327496,1.96401686017648,1.78413439047991,1.78489603955241,1.78266821601536,1.87121944130634,1.78154478363343,1.78160190731387,1.77933600132319,1.95470570026523,1.77845058427642,1.77884092942607,1.82476836849754,1.82433994089426,1.85440603803101,1.62881510337132,1.62788208325751,1.62792968632454,1.80229972085893,1.62403575544141,1.62369301335879,1.61872325316076,1.72498281938725,1.79321705566942,1.79146526280268,1.6644698005775,1.61276334916848,1.61362972498845,1.66155649287521,1.66094717361721,1.65970949387441,1.6118684115083,1.60790783633133,1.60835530516142,1.60871708847085,1.65901448909576,1.60775550651683,1.60801256307879,1.6057180952479,1.60622268775843,1.60532775009825,1.7859528276405,1.60455658041235,1.60501356985584
1.95013580583026,1.95032621809838,1.92070758979172,1.92047909506997,1.95383932444526,1.95017388828388,1.91773715840899,1.91365281525773,1.91447158801067,1.83903976799342,1.9111393733185,2.02149280330965,1.83220396756777,2.03830620658499,1.83244198290293,1.94798414720046,2.03624023347584,1.82913833005098,1.90061909550466,1.90036203894269,1.94656557580293,1.89970511661766,2.03485022391854,1.94316671681692,1.90072382225213,1.82496830137907,1.82695810958096,1.82827195423101,1.89946710128251,1.82831003668464,1.82858613447342,1.90790236476039,1.9083688748173,1.83546001735269,1.91269123330371,1.93384603629226,1.91459535598495,2.02301610145465,1.99253109732802,1.99445426123607,1.98904655282136,1.99304521045196,1.90462727374866,1.90339911461927,1.90358952688739,1.90272315106743,1.90108560556156,1.90036203894269,1.90105704372134,1.9015997186855,1.89821038031289,1.9900366966156,1.99600612122128,1.97990676395141,1.97793599697633,1.9815823919109,1.9691199089622,1.89755345798786,1.89656331419362,1.98796120289305,1.96316000496992,1.97695537379549,1.9669682503324,1.97684112643462,1.97731715710493,1.96420727244461,1.89077478124266,1.89158403338218,1.97765037857415,1.88900394714911,1.97657454925925,1.9823535615968,1.88604303637978,1.88535755221453,1.88411035185832,1.96924367693648,1.88403418695107,1.97646982251178,1.96710153892009,1.88198725506874,1.96889141424045,1.88052108060419,1.9626554124594,1.96440720532614,1.96638749291462,1.97048135667928,1.87845510749505,1.96023717665422,1.87717934529862,1.87578933574131,1.87517049586991,1.95695256502909,1.94521364869925,1.95715249791062,1.95618139534319,1.94652749334931,1.94733674548884,1.93681646767499,1.86391713082379,1.86521193424703,1.86780154109352,1.85986134951276,1.8590140149196,1.86205109059618,1.86083245208019,1.95388692751229,1.93270356268352,1.80295664318395,1.80343267385426,1.80055744860559,1.97548919933094,1.98006861437932,1.79422624069048,1.86847750464536,1.89753441676105,1.8971535922248,1.83951579866373,1.7921126645143,1.88368192425504,1.8396300460246,1.83852565486948,1.83649776421396,1.8373165369669,1.83628831071903,1.78933264539969,1.88129225029009,1.7868763271409,1.97024334134413,1.78805688320327,1.78590522457347,1.78876140859532,1.78278246337624,1.78429624090782,1.78348698876829,1.78277294276283,1.77931696009638,1.95707633300337,1.8743802849572,1.7790408623076,1.77829825446192,1.7781078421938,1.77721290453361,1.94768900818486,1.96072272793794,1.96730147180162,1.77329041181026,1.81984621136654,1.62920544852097,1.80495597199925,1.80305184931802,1.62289328183267,1.8002527889766,1.62213163276017,1.61947538161985,1.61785687734079,1.66594549565546,1.66375575457204,1.61536247662837,1.78922791865223,1.61266814303442,1.78091642314862,1.77927887764276,1.60857427926976,1.7884186665127,1.61068785544593,1.60743180566102,1.60862188233679,1.65433986791332,1.6064892649338,1.7089025033442,1.6026334165043,1.6037092458192,1.60411863219566,1.78706673940902,1.7841058286397,1.78584810089303
1.92366850056105,1.92407788693751,1.95007868214982,1.92341144399908,1.845475702656,1.91785140576986,1.91376706261861,1.8442380229132,1.95016436767047,1.83760215536908,1.95341089684198,1.90849264279158,1.9072930455024,2.02026464418026,2.02237822035643,1.82800537705564,1.94987874926829,1.89907675613285,1.90233280591777,1.82591084210628,1.82585371842584,1.89781051454983,1.94495659213729,1.9437474742347,1.8971440716114,1.94217657302268,1.89737256633315,1.8262535841889,1.82863373754045,2.02319699310936,1.93786373514968,1.90660756133715,1.90623625741431,1.91354808851026,1.91028251811194,1.93383651567886,1.93430302573576,2.02882367563242,1.99212171095156,1.99270246836933,1.98510501887119,1.990350876858,1.98915127956882,1.90180917218043,1.99023662949713,1.90084759022641,1.90056197182422,1.90137122396375,1.89913387981329,1.89894346754517,1.97605091552191,1.89894346754517,1.89801044743136,1.97720290974406,1.96602570960519,1.96633036923419,1.98627605432016,1.99023662949713,1.89697270057009,1.99578714711294,1.89464967089898,1.98867524889852,1.89174588381009,1.98240116466384,1.97309000475258,1.9858761885571,1.89027018873213,1.98204890196781,1.98026854726085,1.97807880617743,1.97686016766143,1.96176999541262,1.97506077172766,1.96733003364184,1.88385329529636,1.88113992047559,1.88357719750758,1.8822252704039,1.95325856702749,1.97735523955855,1.97079553692169,1.96023717665422,1.97005292907601,1.87916915350051,1.96642557536825,1.96333137601124,1.96398829833626,1.97030998563797,1.96010388806654,1.87373288324558,1.87324733196186,1.94079608407878,1.95771421410158,1.95801887373058,1.95432487572898,1.86752544330474,1.96485467415623,1.93597865369525,1.86418370799917,1.86499296013869,1.86589741841228,1.86064203981206,1.85671954708871,1.86151793624543,1.86147985379181,1.95339185561517,1.80347075630789,1.80161423669368,1.80074786087372,1.79913887720807,1.97537495197007,1.97430864326857,1.84154368931924,1.84179122526781,1.84159129238628,1.79264581886505,1.79340746793754,1.78956114012144,1.88655714950371,1.78728571351736,1.83658344973462,1.84737030472383,1.83626926949221,1.83460316214613,1.96853915154442,1.88112087924878,1.78633365217674,1.78539111144953,1.78557200310425,1.89402131041417,1.83166129260362,1.95347754113583,1.78405822557267,1.7828871901237,1.87523714016375,1.8742279551427,1.77946928991088,1.86895353531567,1.77932648070979,1.77824113078148,1.77644173484771,1.77573720945565,1.77556583841434,1.7751945344915,1.77387116922804,1.77127204176815,1.76954881074163,1.62794872755136,1.80497501322607,1.80341363262745,1.800566969219,1.62071306136265,1.61997997413037,1.61790448040783,1.61466747184972,1.6124777307663,1.61460082755588,1.61068785544593,1.6106307317655,1.61230635972499,1.66380335763907,1.77848866673004,1.60895510380601,1.60846955252229,1.7825730098813,1.6054039150055,1.6112495716369,1.60710810480521,1.70722687538471,1.60409007035544,1.69942949300504,1.60344266864382,1.6032522563757,1.60208122092674,1.7838106896241,1.60497548740222
1.8533206881027,1.92573447367019,1.92312582559689,1.92200239321496,1.84570419737775,1.94745099284971,1.84247670943305,1.91409076347442,1.91304349599974,1.90924477125067,1.90830223052345,1.90776907617271,2.03578324403235,1.90601728330597,1.9039132277432,1.90110464678837,1.90197102260834,1.90171396604637,2.01970292798929,1.82482549217797,1.89857216362233,1.89676324707515,1.89498289236819,2.02373014746011,1.89804852988499,1.89832462767377,1.8980770917252,1.89867689036979,2.02734798055446,1.82859565508683,1.93688311196884,1.90447494393417,1.93860634299536,2.02220684931512,1.93355089727667,1.93295109863208,1.93126595005919,1.85860462854314,1.97828825967236,1.99614893042237,1.99568242036547,1.98550488463425,1.99427336958136,1.98986532557429,1.90079998715938,1.90446542332076,1.89921956533395,1.89800092681796,1.89797236497774,1.89803900927158,1.8974487312404,1.89710598915777,1.97001484662238,1.96920559448286,1.89709646854437,1.99593947692744,1.99368309155017,1.97795503820314,1.97741236323899,1.98323897864358,1.99233116444649,1.98731380118143,1.98008765560613,1.97990676395141,1.89165067767603,1.97703153870274,1.89025114750532,1.97780270838865,1.96660646702297,1.97741236323899,1.97317569027324,1.97380405075805,1.95717153913743,1.96366459748045,1.8823776002184,1.88187300770787,1.95739051324577,1.8803782714031,1.88005457054729,1.96131300596912,1.96321712865036,1.87862647853636,1.97273774205655,1.95918038856614,1.96047519198938,1.960208614814,1.96741571916249,1.96762517265743,1.9629695927018,1.96069416609772,1.87218102326037,1.96415014876417,1.87074341063603,1.94206232566181,1.9535822678833,1.95744763692621,1.95453432922392,1.95342041745539,1.94012964114035,1.86138464765775,1.86157505992587,1.85935675700223,1.86059443674503,1.86019457098197,1.8582333246203,1.93722585405146,1.92512515441219,1.80151903055962,1.80022422713638,1.79628269318621,1.97739332201218,1.79649214668115,1.79528302877856,1.79307424646833,1.85957573111057,1.84038217448369,1.83826859830752,1.7916461544574,1.79068457250337,1.78945641337398,1.78821873363117,1.78453425624297,1.78592426580028,1.96533070482654,1.96770133756468,1.78545775574338,1.88136841519734,1.7841058286397,1.83246102412974,1.83150896278912,1.78241115945339,1.82961436072129,1.78230643270593,1.7821160204378,1.78145909811278,1.87428507882313,1.77942168684385,1.77945024868407,1.77742235802855,1.77775557949777,1.77839346059598,1.77622276073937,1.82206451429018,1.77400445781573,1.77161478385077,1.76970114055613,1.87107663210525,1.6253972031585,1.6243213738436,1.80148094810599,1.62206498846633,1.62013230394487,1.79338842671073,1.6163335791958,1.61581946607187,1.61152566942568,1.61198265886917,1.78912319190476,1.61464843062291,1.61076402035318,1.60896462441941,1.68135936876009,1.70570357723972,1.70328534143454,1.6706201168379,1.785495838197,1.60450897734532,1.78575289475897,1.60408054974204,1.78009765039569,1.78063080474644,1.60178608191114,1.59990100045672,1.60060552584878,1.60313800901482,1.59983435616288
1.94985018742807,1.95025005319113,1.94826024498924,2.02339692599089,1.84442843518132,2.01995046393785,2.02014087620598,1.91334815562873,1.94676550868446,1.91322438765445,1.90792140598721,1.90756914329118,2.03051834481872,1.90601728330597,1.90181869279384,1.90070478102531,2.02654824902834,1.9003715595561,1.90059053366444,1.94443295839995,1.89781051454983,1.89817229785927,1.89818181847267,1.89951470434954,1.9414434857904,1.82476836849754,1.82542529082256,1.89875305527704,1.82585371842584,2.02255911201115,1.90142834764418,1.82960484010788,1.93330336132811,1.93519796339594,1.91025395627172,1.9129863723193,2.02994710801435,1.9399011464186,1.97787887329589,1.97735523955855,1.98677112621728,1.97545111687732,2.00022375296022,1.9998714902642,1.90226616162393,1.89951470434954,1.89824846276652,1.8977629114828,1.89718215406502,1.97251876794821,1.89509713972907,1.96961498085932,1.96857723399805,1.96823449191542,1.96998628478216,1.99354028234908,1.89462110905876,1.89491624807435,1.97294719555149,1.9866568788564,1.98366740624686,1.97821209476511,1.98153478884387,1.9874280485423,1.9728139069638,1.88873736997373,1.98597139469116,1.88786147354036,1.96719674505415,1.97765037857415,1.98678064683068,1.88609063944681,1.96948169227163,1.97046231545247,1.88142553887778,1.97073841324125,1.88034970956288,1.95053567159332,1.97319473150005,1.96071320732453,1.97587002386719,1.87893113816536,1.87908346797985,1.87847414872186,1.98040183584854,1.95501988050763,1.95993251702523,1.95630516331747,1.95648605497218,1.95431535511557,1.96862483706508,1.97018621766369,1.95860915176177,1.94514700440541,1.86788722661417,1.95460097351776,1.96014197052016,1.93361754157051,1.93681646767499,1.86142273011137,1.85904257675982,1.85954716927035,1.86048018938416,1.85812859787283,1.85810003603261,1.92438254656651,1.80255677742089,1.80178560773499,1.79913887720807,1.79800592421273,1.89172684258328,1.84349541506751,1.84157225115946,1.79038943348778,1.79162711323059,1.7891898361986,1.83735461942052,1.87788387069067,1.87686516505621,1.78639077585718,1.78677160039343,1.78505788998032,1.78568625046512,1.78524830224844,1.78314424668567,1.88080669900637,1.78466754483066,1.84652297013068,1.87200013160565,1.78251588620086,1.87255232718321,1.87503720728222,1.87503720728222,1.87380904815282,1.77976442892647,1.825787074132,1.82454939438919,1.96659694640956,1.77631796687343,1.82498734260588,1.82470172420369,1.82152183932603,1.81930353640238,1.77110067072684,1.7721193763613,1.77038662472138,1.95668598785371,1.62488309003456,1.6226267046573,1.71373897495454,1.61744749096433,1.61777119182014,1.6177140681397,1.70347575370267,1.61313465309132,1.61250629260652,1.61087826771406,1.60670823904215,1.60952634061038,1.78819969240436,1.60574665708812,1.60726995523311,1.60489932249497,1.60328081821592,1.78613371929521,1.78282054582986,1.60410911158226,1.60414719403588,1.60461370409278,1.60097682977162,1.69201293516161,1.7004481986395,1.5984824290592,1.60206217969992,1.60163375209665,1.60089114425096
2.0224924677173,1.92569639121656,2.03887744338936,1.92395411896323,1.9176038698213,1.91432877880957,1.94623235433372,1.94680359113809,1.94673694684425,1.91152019785475,1.91016827075107,1.90710263323427,1.90527467546028,1.90431309350626,1.82890983532923,2.02384439482098,1.94732722487543,1.89933381269482,1.82577755351859,2.03233678197931,2.02932826814295,1.89705838609074,1.89640146376571,1.89517330463632,1.89533515506422,1.89735352510633,1.9394346363617,1.89682989136899,1.90017162667457,1.89884826141111,1.90127601782968,1.90089519329344,1.83230869431524,1.93428398450895,1.93394124242632,1.91232944999427,2.02651968718812,1.85729078389308,1.90379898038233,1.97660311109947,2.00015710866638,1.9729662367783,1.99036039747141,1.90010498238072,1.89937189514845,1.97300431923193,1.89819133908608,1.89931477146801,1.97063368649378,1.97233787629349,1.97393733934573,1.96967210453976,1.89510666034247,1.96730147180162,1.96842490418355,1.89586830941497,1.98336274661786,1.98225835546274,1.89344055299639,1.97430864326857,1.98232499975659,1.97093834612278,1.97016717643688,1.96936744491076,1.89127937375318,1.99061745403338,1.88755681391136,1.97761229612052,1.96638749291462,1.976803043981,1.97457522044395,1.98997957293516,1.88275842475464,1.88244424451224,1.97603187429509,1.96733003364184,1.97898326445101,1.95350610297605,1.88054964244441,1.96721578628096,1.87860743730954,1.97555584362478,1.95027861503135,1.96356939134639,1.96135108842275,1.95270637144993,1.96007532622632,1.95180191317634,1.96671119377043,1.87081005492987,1.9621984230159,1.86982943174904,1.94993587294873,1.95014532644366,1.95253500040862,1.95751428122005,1.93808270925802,1.95054519220672,1.86133704459071,1.86063251919866,1.86014696791494,1.86081341085337,1.85820476278008,1.86012792668813,1.85735742818693,1.95788558514289,1.93793990005693,1.80182369018862,1.79766318213011,1.84418089923276,1.84203876121637,1.84182930772143,1.79342650916436,1.79301712278789,1.79216978819474,1.9574285956994,1.78859955816742,1.8351743989505,1.83514583711028,1.78551487942381,1.78469610667088,1.78476275096472,1.7850388487535,1.78521974040822,1.87937860699545,1.78275390153602,1.8762368045714,1.78279198398964,1.78168759283452,1.78169711344793,1.77667022956946,1.96386453036198,1.87441836741082,1.86989607604288,1.77757468784305,1.77553727657412,1.77329041181026,1.77389973106826,1.77508980774403,1.77586097742993,1.95699064748271,1.76992963527788,1.76945360460757,1.76927271295285,1.76949168706119,1.86462165621585,1.6247878839005,1.71501473715097,1.62135094246087,1.61902791278976,1.79157951016356,1.6157147393244,1.61428664731347,1.78711434247605,1.60992620637344,1.61136381899777,1.60825057841395,1.60836482577482,1.68466302161203,1.6052611058044,1.60460418347938,1.60528966764462,1.60407102912863,1.60189080865861,1.78240163883999,1.6032617769891,1.60459466286597,1.60209074154014,1.60415671464929,1.78372500410345,1.60067217014262,1.70403746989363,1.67118183302887,1.6014147779883,1.60134813369446,1.60056744339515
1.94563255568913,1.92302109884942,1.92256410940593,1.91807037987821,1.94687023543193,1.84180074588121,1.91184389871056,1.91108224963806,1.90974936376119,1.83647872298715,1.90797852966764,1.83232773554205,1.90502713951172,1.90214239364965,1.90225664101052,1.94416638122457,1.94418542245139,1.90048580691697,1.82519679610082,1.94244315019805,1.89441165556382,1.89563029407981,2.03190835437603,1.89708694793096,1.89757249921468,1.93770188472177,1.93730201895871,1.89759154044149,2.00931593876314,2.01712284175621,1.90067621918509,1.90034299771588,1.83140423604165,1.93092320797656,1.92981881682144,2.00907792342798,1.92802894150108,2.01606605366813,1.98631413677378,1.97469898841823,1.98717099198034,1.90179013095362,1.97286151003083,1.99364500909655,1.9763555751509,1.97493700375338,1.96929128000351,1.89697270057009,1.96673023499725,1.97263301530908,1.96672071438384,1.96524501930588,1.99008429968263,1.99623461594303,1.98043039768875,1.98028758848766,2.01396199810536,1.9794307332811,1.9771172242234,1.97781222900205,1.98383877728817,1.97603187429509,1.96977683128723,1.97777414654843,1.98312473128271,1.98128725289531,1.97355651480948,1.97075745446806,1.96924367693648,1.8842341198326,1.97364220033014,1.97631749269728,1.88197773445534,1.88201581690896,1.95831401274617,1.97072889262785,1.88129225029009,1.95963737800963,1.96516885439863,1.87824565400011,1.87738879879355,1.87840750442801,1.87712222161818,1.96220794362931,1.96701585339943,1.87450405293148,1.87447549109126,1.95944696574151,1.96027525910785,1.8716193070694,1.86898209715589,1.9572857864983,1.95287774249124,1.95723818343127,1.95770469348818,1.95682879705481,1.94086272837263,1.93392220119951,1.93080896061569,1.86105142618853,1.86149889501862,1.85890928817214,1.85844277811523,1.85787154131086,1.85748119616121,1.95956121310238,1.79998621180122,1.79951018113091,1.79831058384173,1.79386445738104,1.79555912656734,1.79344555039117,1.79266486009186,1.791027314586,1.7914938246429,1.78878044982214,1.78784742970833,1.78524830224844,1.83437466742438,1.83228013247502,1.78461994176363,1.78376308655707,1.78261109233492,1.78298239625777,1.78237307699977,1.88186348709446,1.88158738930568,1.78024998021019,1.77952641359132,1.77769845581733,1.77909798598804,1.77912654782826,1.77738427557493,1.86280321905527,1.77429959683132,1.95506748357466,1.77387116922804,1.77206225268086,1.86786818538736,1.77267157193886,1.86550707326263,1.76916798620538,1.96062752180388,1.76862531124123,1.76878716166914,1.76592145703387,1.77357603021245,1.62236964809533,1.71308205262951,1.61613364631427,1.78951353705441,1.61452466264863,1.61204930316302,1.78320137036611,1.61058312869846,1.60917407791435,1.60745084688783,1.77034854226775,1.60717474909905,1.60536583255187,1.60460418347938,1.60276670509198,1.6017099170039,1.60146238105533,1.5995677789875,1.77869812022498,1.59970106757519,1.60180512313796,1.82536816714213,1.60087210302415,1.60019613947231,1.64750406748767,1.64705659865758,1.59931072242553,1.59735899667727,1.59653070331093
2.01942683020051,1.92085991960622,1.84801770643545,1.94516604563222,1.84314315237148,2.01641831636415,1.83939203068945,1.91419549022189,1.91010162645722,1.91033964179238,1.90574118551719,1.90536988159435,1.9026850686138,1.83083299923728,1.90133314151012,1.89809613295202,1.89825798337992,1.8976010610549,1.89472583580623,1.9391299767327,1.89491624807435,2.0257104350486,1.94032957402188,1.8945354235381,1.93811127109824,1.82231205023874,1.89508761911566,1.89796284436433,1.89763914350852,2.00623126001953,1.9332843201013,1.90424644921242,1.90435117595988,1.90536036098094,1.90708359200746,1.90570310306356,1.83921113903473,2.02573899688882,1.9897320369866,1.985733379356,1.90164732175253,1.9878755173724,2.00751654282937,1.99574906465931,1.96923415632307,1.97379453014464,1.89405939286779,1.89502097482182,1.89410699593482,1.96760613143062,1.97705057992956,1.9835722001128,1.89214574957315,1.89374521262539,1.98270582429283,1.98324849925699,1.9792688828532,1.9769648944089,1.97697441502231,1.97390877750551,1.98053512443622,1.98043039768875,1.9705003979061,1.97322329334027,1.9715857478344,1.96440720532614,1.96390261281561,1.97698393563571,1.97011957336985,1.97187136623659,1.96988155803469,1.88235855899158,1.96642557536825,1.8816159511459,1.96694920910559,1.87966422539763,1.87923579779435,1.97230931445327,1.87739831940696,1.87774106148958,1.97333754070114,1.87820757154648,1.96653982272912,1.96901518221473,1.96407398385692,1.87272369822452,1.96045615076257,1.97003388784919,1.9617414335724,1.97349939112905,1.95283966003761,1.95623851902362,1.95492467437357,1.9626554124594,1.95652413742581,1.94673694684425,1.86249855942627,1.95010724399004,1.94058663058385,1.85925203025476,1.85843325750183,1.8563863256195,1.85619591335137,1.85579604758831,1.94447104085357,1.94507083949816,1.80340411201404,1.79867236715117,1.79801544482614,1.79522590509813,1.79413103455641,1.79189369040596,1.79160807200377,1.78865668184786,1.78758085253296,1.78757133191955,1.78863764062104,1.86470734173651,1.78394397821179,1.83150896278912,1.83030936549994,1.7814971805664,1.96911038834879,1.77999292364822,1.87043875100703,1.8873092779628,1.88632865478197,1.78019285652975,1.87163834829621,1.97659359048606,1.87509433096266,1.87031498303275,1.77513741081106,1.7756610445484,1.95801887373058,1.77453761216647,1.77502316345019,1.77024381552028,1.87451357354488,1.77010100631919,1.81828483076792,1.7653502202295,1.76594049826068,1.76621659604946,1.76631180218353,1.76409349925988,1.62161751963624,1.61938969609919,1.61813297512957,1.615400559082,1.61127813347712,1.78802832136305,1.60865996479041,1.60859332049657,1.60867900601723,1.60874565031107,1.60726995523311,1.60588946628921,1.65314027062414,1.66029025129219,1.68859503494879,1.60214786522058,1.78183992264902,1.60127196878721,1.77911702721485,1.5989489391161,1.59936784610597,1.82534912591531,1.59743516158452,1.64818003103951,1.64619974345102,1.59524542050109,1.59487411657825,1.64623782590465,1.59538822970218,1.7676637292872
1.92123122352906,2.03352685865508,1.91774667902239,2.02627215123956,1.9169850299499,1.91326247010808,1.91133930620003,1.91100608473081,1.90955895149307,1.90732160734262,1.90423692859901,2.0166372904725,1.94569919998297,1.9009903994275,1.90149499193803,1.82612029560122,1.8966870821679,2.02922354139548,1.89523994893016,1.89543036119828,1.89498289236819,1.82175985466118,1.89504953666204,1.81906552106723,1.93793990005693,2.03041361807126,2.02593892977035,1.89604920106969,2.01237205566652,1.93213232587915,1.82869086122089,1.90136170335034,1.90154259500506,1.83122334438693,1.90783572046655,1.90995881725613,2.01919833547876,2.01297185431111,1.98183944847287,1.98018286174019,1.99327370517371,1.98689489419156,2.00580283241625,1.97020525889051,1.89609680413672,1.89387850121307,1.8937642538522,1.96824401252883,1.96769181695127,1.9635884325732,1.97000532600898,1.96644461659506,1.97320425211346,1.96439768471273,1.96754900775018,1.96287438656774,1.89182204871734,1.96326473171739,1.89074621940244,1.88911819450998,1.88902298837592,1.97728859526471,1.95716201852402,1.97493700375338,1.97693633256868,1.88669995870481,1.96688256481174,1.9695768984057,1.9635884325732,1.88353911505395,1.88206341997599,1.97820257415171,1.97986868149779,1.95854250746792,1.96309336067608,1.97130012943222,1.96827257436905,1.87778866455661,1.95978970782413,1.87777914394321,1.95671454969393,1.96412158692395,1.9632742523308,1.96529262237291,1.87364719772492,1.87337109993614,1.93901572937182,1.95818072415849,1.87096238474437,1.95075464570166,1.9528206188108,1.94683215297831,1.94839353357692,1.94893620854108,1.94679407052468,1.94595625654494,1.9365213286594,1.94834593050989,1.93179910440993,1.85861414915654,1.85781441763042,1.85786202069746,1.85552947041294,1.85597693924303,1.85656721727421,1.85557707347997,1.85412041962882,1.87091478167734,1.79583522435612,1.98122060860147,1.79304568462811,1.95309671659958,1.78852339326017,1.78963730502869,1.89128889436659,1.78765701744021,1.78561960617128,1.78523878163503,1.97236643813371,1.89719167467843,1.88375808916229,1.88309164622386,1.87565604715363,1.78009765039569,1.77833633691554,1.85174026627727,1.77667022956946,1.77626084319299,1.9545152879971,1.7748803542491,1.95837113642661,1.87080053431647,1.77423295253748,1.77356650959904,1.86917250942401,1.94786037922618,1.76917750681879,1.76741619333864,1.94539454035397,1.7676637292872,1.76695920389515,1.76536926145631,1.76574056537915,1.86717318060871,1.8622415028643,1.75987586752094,1.62072258197606,1.61702858397446,1.61577186300484,1.7870286569554,1.7887233261417,1.60918359852775,1.60803160430561,1.60913599546072,1.60610844039756,1.780878340695,1.60427096201016,1.60323321514889,1.65940483424541,1.60066264952921,1.68086429686296,1.59856811457985,1.59964394389475,1.59853955273963,1.8279387327618,1.6001770982455,1.77860291409092,1.5980254396157,1.59571193055799,1.64557138296622,1.59771125937329,1.84454268254219,1.64609501670356,1.64426705892957,1.86120375600303,1.59620700245512
1.84868414937389,1.92132642966312,1.91717544221802,1.84318123482511,1.91475720641285,1.9108347136895,2.01612317734856,1.90870209628651,1.90675037053824,2.02591988854353,1.90755962267777,1.901142729242,1.90112368801519,1.90065717795828,2.02910929403461,2.02290185409377,1.89688701504943,1.89532563445082,1.89558269101278,1.8188751087991,1.94015820298057,2.01896032014361,1.89393562489351,1.89390706305329,1.82228348839852,1.89420220206889,2.0229399365474,1.93422686082851,1.89550652610553,1.90087615206662,1.90020970912819,1.93078991938888,1.90393226897001,1.90263746554677,1.90775003494589,1.90954943087966,1.92820031254239,2.01553289931738,1.99004621722901,1.98995101109494,1.97162383028803,1.97726003342449,1.96983395496766,1.97303288107214,1.97110971716409,1.96884381117342,1.89371665078517,1.89288835741883,1.96687304419834,1.96598762715156,1.97140485617969,1.99692010010828,1.89263130085686,1.98284863349393,1.89047012161366,1.98666639946981,1.97618420410959,1.89025114750532,1.96735859548205,1.98555248770128,1.96788222921939,1.88847079279836,1.99943354204751,1.88757585513818,1.9674252397759,1.96370267993408,1.97669831723353,1.97626988963025,1.9606656042575,1.96425487551164,1.97123348513837,1.88247280635246,1.96018957358719,1.96400733956308,1.96713010076031,1.9737374064642,1.8780742829588,1.87732215449971,1.87748400492761,1.87629392825184,1.97299479861852,1.96069416609772,1.87461830029235,1.94250027387849,1.94101505818712,1.8725332859564,1.95353466481627,1.87093382290416,1.96622564248672,1.95240171182093,1.95519125154894,1.94509940133838,1.95270637144993,1.94802222965408,1.86578317105141,1.93490282438035,1.94394740711623,1.9425097944919,1.85781441763042,1.85707180978474,1.85653865543399,1.85649105236696,1.85582460942853,1.85473925950022,1.85522481078394,1.94250027387849,1.79787263562505,1.84583748596544,1.79605419846447,1.8407058753395,1.79265533947846,1.79218882942155,1.79096067029215,1.83467932705338,1.78621940481587,1.8320992408203,1.97394685995914,1.88411035185832,1.78240163883999,1.7816495103809,1.77966922279241,1.77827921323511,1.82545385266278,1.87075293124944,1.89759154044149,1.8948400831671,1.77312856138236,1.77305239647511,1.97341370560839,1.77337609733092,1.77205273206746,1.77066272251015,1.8720762965129,1.77203369084065,1.77168142814462,1.76983442914382,1.76921558927241,1.94412829877095,1.76576912721937,1.86774441741308,1.76602618378134,1.76388404576495,1.76258924234171,1.7611992327844,1.76095169683584,1.75988538813435,1.61701906336105,1.79190321101937,1.61422952363304,1.61192553518874,1.60995476821366,1.61080210280681,1.60739372320739,1.60513733783012,1.88391041897679,1.77559440025456,1.77558487964116,1.69187964657393,1.60142429860171,1.60196697356586,1.59856811457985,1.59629268797577,1.6472374903123,1.59928216058532,1.5963402910428,1.5967972804863,1.68756680870092,1.59841578476535,1.59614035816127,1.59811112513635,1.64417185279551,1.64389575500673,1.64283896691864,1.70708406618361,1.70480863957953,1.59291287021657
2.01621838348262,2.03645920758419,1.92034580648228,1.94340473215208,1.94330000540461,2.02148328269625,1.83817339217345,1.91050149222028,1.90823558622961,1.90684557667231,1.83236581799568,1.90385610406276,1.90365617118123,1.82803393889586,1.9006857397985,1.89839127196761,1.82485405401819,1.82398767819823,1.89520186647653,2.02240678219665,1.89373569201198,1.89206006405249,1.82034128326366,1.89290739864564,2.0126481534553,1.89104135841803,1.89443069679063,1.89479248010007,1.93232273814727,2.0108011544545,1.89890538509154,1.93070423386822,1.93072327509503,1.90457015006823,1.90465583558888,1.83605029538387,1.91065382203478,2.02619598633231,1.98584762671688,1.97092882550938,1.9806588924105,1.96663502886318,1.97744092507921,2.00590755916372,1.96890093485386,1.96983395496766,1.89732496326612,1.96603523021859,1.8908414255365,1.96641605475484,1.89089854921694,1.9618937633869,1.97675544091396,1.98029710910107,1.9685105897042,1.97224267015943,1.98047800075579,1.98602851837159,1.88888969978823,1.98152526823047,1.97633653392409,1.97647934312519,1.95598146246166,1.98599043591797,1.9745085761501,1.97000532600898,1.88531946976091,1.96799647658027,1.97955450125538,1.96205561381481,1.88102567311472,1.95990395518501,1.96299815454202,1.9671205801469,1.87847414872186,1.88136841519734,1.87725551020587,1.95403925732679,1.96123684106187,1.96105594940716,1.87468494458619,1.95725722465809,1.95396309241954,1.96307431944927,1.93936799206785,1.96057991873685,1.95734291017874,1.9575904461273,1.95679071460118,1.95362987095033,1.95772373471499,1.86533570222131,1.86584981534525,1.94859346645845,1.86156553931246,1.9537345976978,1.93147540355412,1.93109457901787,1.85754784045505,1.85591981556259,1.85538666121185,1.85517720771691,1.85420610514948,1.85417754330926,1.94075800162516,1.94404261325029,1.9632837729442,1.96514029255841,1.84123902969025,1.84130567398409,1.79074169618381,1.78966586686891,1.78809496565689,1.83268951885149,1.78333465895379,1.78464850360385,1.78141149504574,1.78074505210731,1.77926935702935,1.96222698485612,1.77838393998258,1.77714626023977,1.77775557949777,1.87165738952303,1.89663947910087,1.77439480296538,1.77082457293806,1.87064820450197,1.77235739169646,1.86991511726969,1.96138917087637,1.95658126110625,1.76735906965821,1.81603796600406,1.76853962572057,1.76788270339555,1.93881579649029,1.86599262454634,1.86657338196412,1.76456000931679,1.85979470521891,1.85780489701702,1.95107834655747,1.75918086274229,1.75871435268539,1.93500755112782,1.70756961746733,1.70607488116256,1.61252533383333,1.83421281699648,1.60921216036797,1.60780310958386,1.70369472781101,1.70142882182034,1.60291903490648,1.60164327271005,1.69025162168147,1.60032942806,1.77588001865675,1.7787362026786,1.7741091845632,1.59251300445351,1.59555008013009,1.59389349339741,1.59469322492353,1.59442664774816,1.59280814346911,1.71962271403957,1.59312232371151,1.59614035816127,1.59478843105759,1.6415441634954,1.64758023239492,1.64518103781656,1.59242731893286,1.59223690666474
1.92208807873562,1.91739441632637,1.9166708497075,1.84230533839174,1.91133930620003,1.83831620137455,1.94078656346538,1.90965415762713,1.8339462398211,1.90644571090925,1.90442734086713,1.90238992959821,1.90203766690218,2.02688147049756,1.93948223942873,1.9403676564755,1.89742016940018,1.89395466612032,1.93646420497897,1.93773996717539,2.02465364696051,1.89225047632062,1.93426494328214,2.0218641072325,1.93428398450895,1.89188869301118,1.89379281569242,1.89455446476491,1.89661091726065,1.82270239538839,1.82282616336267,1.82622502234868,1.8261012543744,1.82822435116398,1.9049890570581,2.02532008989894,1.92377322730851,2.03655441371825,1.98654263149553,1.98010669683294,1.99614893042237,1.97382309198486,1.9731185665928,1.89531611383741,1.96659694640956,1.96790127044621,1.96637797230122,1.88933716861832,1.89042251854663,1.88935620984513,1.88816613316936,1.98038279462172,1.97607947736213,1.95780942023564,1.95686687950843,1.97864052236839,1.97335658192795,1.97487035945954,1.97677448214078,1.97041471238544,1.8874616077773,1.96602570960519,1.97090978428256,1.88232047653796,1.96536878728016,1.97196657237065,1.88217766733687,1.97030046502457,1.970357588705,1.96871052258573,1.88086382268681,1.87824565400011,1.96878668749298,1.95852346624111,1.87725551020587,1.87790291191749,1.96793935289983,1.95779037900883,1.97237595874712,1.96448337023338,1.87241903859552,1.95240171182093,1.95296342801189,1.96038950646872,1.95418206652789,1.95764756980774,1.87140033296106,1.86961045764069,1.94969785761357,1.86415514615895,1.95722866281787,1.96504508642435,1.86385048652995,1.94400453079667,1.95040238300563,1.9443567934927,1.94111978493459,1.94428062858545,1.94409973693073,1.85550090857272,1.85421562576288,1.92398268080345,1.85466309459298,1.85329212626248,1.8510166996584,1.92968552823376,1.79754893476924,1.84312411114467,1.84072491656631,1.86951525150663,1.78698105388837,1.78642885831081,1.78496268384625,1.87706509793774,1.78329657650017,1.97433720510879,1.77941216623044,1.82603461008056,1.77753660538942,1.88518618117322,1.77626084319299,1.7742710349911,1.77522309633172,1.77399493720232,1.77256684519139,1.77004388263875,1.77079601109784,1.96936744491076,1.87137177112084,1.76860627001442,1.76890140903001,1.76831113099883,1.83001422648435,1.85492967176835,1.81386726614745,1.81326746750286,1.76291294319752,1.76265588663555,1.76159909854746,1.76038046003147,1.76141820689274,1.75984730568072,1.75788605931905,1.94942175982479,1.75636276117406,1.75363034512648,1.61402959075151,1.88529090792069,1.61004997434772,1.78320137036611,1.78251588620086,1.60554672420659,1.60177656129774,1.60255725159705,1.7767273532499,1.77572768884225,1.59912031015741,1.7790313416942,1.59658782699136,1.59773030060011,1.70373281026463,1.70138121875331,1.6646126097786,1.64356253353751,1.59399822014488,1.59132292777774,1.59117059796324,1.76436007643526,1.76702584818899,1.59346506579413,1.76575960660597,1.68634817018493,1.64095388546421,1.59175135538102,1.76271301031599,1.58975202656572
1.91840360134742,1.91849880748148,1.91677557645496,1.94058663058385,1.91155828030837,1.91097752289059,1.90782619985314,1.90840695727092,1.94133875904293,1.90480816540338,1.90199958444856,1.90367521240804,1.90088567268003,2.02949011857085,1.90104752310794,1.89705838609074,1.89662995848746,2.02376822991373,1.93781613208264,1.8946877533526,1.89208862589271,1.81846572242264,2.01360021479592,1.8903749154796,1.89430692881635,1.8922314350938,1.89298356355289,1.89291691925905,1.895306593224,1.82158848361987,1.89479248010007,1.89808661233861,1.90107608494815,1.9005238893706,1.83080443739706,1.83441274987801,1.91170108950946,2.0118769837694,1.97947833634813,1.985733379356,1.98228691730296,1.98398158648926,1.9828105510403,1.97345178806202,1.97860243991477,1.8914507447945,1.89014642075785,1.88826133930342,1.88875641120054,1.88769962311246,1.88760441697839,1.95969450169007,1.96380740668154,1.98012573805976,1.9746609059646,1.88767106127224,1.88802332396827,1.97294719555149,1.97638413699112,1.8862239280345,1.96722530689437,1.88460542375545,1.97302336045874,1.96630180739397,1.97324233456708,1.88137793581075,1.96113211431441,1.88103519372812,1.95625756025044,1.96947217165823,1.87956901926357,1.96978635190063,1.88093998759406,1.95978018721073,1.97648886373859,1.96428343735185,1.96300767515543,1.87637009315909,1.95679071460118,1.9568192764414,1.96516885439863,1.96704441523965,1.96279822166049,1.95383932444526,1.95454384983732,1.8713146474404,1.86996272033672,1.95041190361903,1.95213513464556,1.94904093528854,1.95755236367368,1.94713681260731,1.94050094506319,1.93542645811769,1.94914566203601,1.95366795340395,1.9488124405668,1.94667982316381,1.85649105236696,1.93008539399682,1.85522481078394,1.85322548196864,1.85149273032871,1.85217821449396,1.85076916370984,1.94042478015594,1.7954924822735,1.7927315043857,1.79316945260239,1.79047511900844,1.7859528276405,1.78449617378935,1.88806140642189,1.8323943798359,1.78005004732866,1.87472302703982,1.86471686234991,1.82453987377579,1.77613707521871,1.77356650959904,1.77290006666061,1.77324280874323,1.81859901101032,1.81788496500486,1.76943456338076,1.76869195553507,1.87496104237497,1.7688823678032,1.95709537423018,1.87072436940922,1.9469749621794,1.76373171595045,1.85877599958445,1.76265588663555,1.81097299967197,1.76324616466673,1.9225165063389,1.80812633626352,1.76208464983118,1.87357103281767,1.871305126827,1.75622947258637,1.94988826988169,1.75530597308597,1.85812859787283,1.85707180978474,1.92871442566633,1.61077354096659,1.78461042115022,1.78205889675737,1.77989771751416,1.60405198790182,1.64905592747288,1.64713276356483,1.5984919496726,1.59773982121351,1.59745420281133,1.59805400145592,1.59482651351122,1.59778742428054,1.77113875318046,1.77002484141194,1.59176087599443,1.59159902556652,1.59216074175749,1.76560727679147,1.59303663819086,1.59123724225709,1.58937120202947,1.58998052128747,1.59059936115887,1.58960921736463,1.59132292777774,1.5887999652251,1.58919983098816,1.58508692599669
1.92094560512687,1.9409769757335,1.91649947866618,1.91318630520083,1.83775448518358,1.94052950690341,1.90870209628651,1.94136732088315,1.94064375426428,1.90277075413446,1.90224712039712,1.90109512617497,1.9015997186855,1.89924812717417,2.02498686842973,1.89440213495041,1.89564933530663,2.03683051150703,1.89444973801745,1.89327870256848,1.89368808894495,1.89077478124266,1.89401178980076,1.93670222031412,1.81881798511867,1.9317419807295,2.01734181586456,1.81937970130963,1.81909408290745,1.82235965330577,1.89420220206889,1.89799140620455,1.89731544265271,1.82672009424581,1.90568406183675,2.00727852749421,2.00784976429858,2.0114104737125,1.99013190274966,1.97968778984307,1.97626036901684,1.98013525867316,1.97970683106988,1.89177444565031,1.89349767667683,1.88878497304076,1.89074621940244,1.88709030385446,1.88886113794801,1.8856050881631,1.88756633452477,1.98051608320941,1.95696208564249,1.97368980339717,1.98306760760227,1.97648886373859,1.88717598937512,1.97288055125765,1.96974826944701,1.97326137579389,1.9757272146661,1.99020806765691,1.97328993763411,1.9683582598897,1.96458809698085,1.88202533752237,1.88388185713657,1.97553680239797,1.96514029255841,1.88034970956288,1.96842490418355,1.96801551780708,1.96933888307054,1.87748400492761,1.87535138752463,1.87564652654022,1.96259828877896,1.87547515549891,1.87373288324558,1.87396137796732,1.87342822361658,1.9538964481257,1.9674347603893,1.96181759847965,1.95805695618421,1.95090697551616,1.86878216427436,1.95983731089116,1.94342377337889,1.9469749621794,1.95902805875164,1.955591117312,1.95643845190515,1.93418877837489,1.94993587294873,1.93642612252534,1.93708304485037,1.96995772294194,1.85553899102634,1.92954271903266,1.85396808981432,1.92402076325707,1.92773380248549,1.85118807069972,1.85090245229753,1.95350610297605,1.94428062858545,1.79299808156108,1.7890279857707,1.78839010467248,1.78726667229055,1.88772818495268,1.88642386091603,1.88489104215763,1.77867907899817,1.88309164622386,1.8820729405894,1.87509433096266,1.77455665339329,1.97384213321167,1.77219554126855,1.77189088163955,1.81674249139612,1.76906325945791,1.76881572350935,1.81510494589025,1.76670214733318,1.76602618378134,1.76377931901748,1.76531213777588,1.76417918478054,1.76364603042979,1.86496439829847,1.76116115033078,1.75986634690753,1.93776852901561,1.75886668249988,1.80603180131415,1.80444185887532,1.85814763909964,1.85825236584711,1.75105977950681,1.83879223204486,1.7519642377804,1.85398713104114,1.74915565682557,1.71053052823665,1.60804112491901,1.82919545373142,1.60505165230947,1.60470891022685,1.60151950473577,1.64823715471995,1.64710420172461,1.59813968697657,1.59685440416674,1.5932651329126,1.76681639469405,1.59462658062969,1.59577857485184,1.68699557189655,1.76931079540648,1.68085477624956,1.76630228157012,1.81251533904377,1.59104682998896,1.59051367563821,1.59166566986036,1.76701632757558,1.76420774662076,1.59151334004586,1.76237026823336,1.68362527475076,1.58714337849242,1.58475370452747,1.58814304290007
2.02081683975781,1.91787044699668,1.83992518504019,1.83876367020464,2.02139759717559,1.91000642032316,1.910377724246,1.93960600740301,1.90439877902692,1.90445590270735,1.90092375513366,1.94022484727441,1.89795332375092,1.8969917417969,1.89574454144069,1.89408795470801,1.89411651654823,1.89226951754743,1.89196485791843,1.89198389914524,1.88974655499479,1.88887065856142,1.8882232568498,1.89091759044375,1.81788496500486,1.93043765669285,2.01231493198609,1.89163163644921,2.02274000366587,1.89318349643442,1.82092204068144,1.82341644139386,1.92658180826334,1.9243635053397,1.90352288259355,1.91008258523041,1.92105033187434,2.00247061772409,1.89649666989978,1.89433549065657,1.89325966134167,1.97164287151484,1.89069861633541,1.89102231719122,1.89343103238298,1.88793763844761,1.88987984358247,1.88979415806182,1.95828545090595,1.88672852054503,1.88604303637978,1.97033854747819,1.88503385135872,1.97095738734959,1.88507193381235,1.88448165578116,1.97129060881881,1.96767277572446,1.97070985140103,1.96764421388424,1.88541467589497,1.97309952536599,1.9692722387767,1.96124636167528,1.96107499063397,1.96175095418581,1.88062580735166,1.96769181695127,1.97629845147047,1.87852175178889,1.96616851880628,1.96638749291462,1.96711105953349,1.97247116488118,1.97264253592249,1.96018005297379,1.95979922843754,1.96229362914996,1.87366623895173,1.87236191491508,1.95355370604308,1.95323952580067,1.96368363870726,1.86817284501636,1.96633988984759,1.95595290062144,1.86758256698518,1.96671119377043,1.9705003979061,1.94748907530333,1.8643931614941,1.95313479905321,1.86154649808565,1.93185622809037,1.8583856544348,1.93039957423922,1.9302091619711,1.9300568321566,1.92536316974735,1.93068519264141,1.92475385048935,1.92612481881984,1.85138800358125,1.85097861720478,1.85098813781819,1.85118807069972,1.94739386916927,1.96376932422792,1.87719838652543,1.87693180935006,1.78649550260465,1.88496720706488,1.88374856854889,1.88332014094561,1.88108279679515,1.7770415334923,1.77563248270819,1.77216697942833,1.97352795296927,1.76997723834491,1.77020573306666,1.77032950104094,1.76843489897311,1.8136387714257,1.76505508121391,1.83847805180245,1.8373165369669,1.87149553909512,1.7607422433409,1.86967710193454,1.86805859765549,1.75934271317019,1.95331569070792,1.95280157758399,1.80678392977324,1.75896188863395,1.75579152436969,1.80385158084414,1.94166245989875,1.84810339195611,1.94321431988395,1.75206896452786,1.7505932694499,1.85504391912922,1.85134992112762,1.7476609205208,1.77923127457573,1.6084790731357,1.60628933205227,1.60362356029854,1.64913209238013,1.68689084514908,1.68528186148344,1.64403856420782,1.59588330159931,1.59480747228441,1.59502644639275,1.59208457685024,1.59120868041687,1.76333185018739,1.58823824903414,1.5894092844831,1.68080717318253,1.58989483576681,1.58875236215807,1.58623892021884,1.76376979840407,1.63790728917423,1.63703139274086,1.5857248070949,1.58888565074576,1.58870475909104,1.69346006839935,1.58524877642459,1.75881907943285,1.58743851750802
1.91694694749627,1.91612817474334,1.94040573892913,1.93940607452148,1.90923525063726,1.90755962267777,1.90812133886874,1.90672180869803,1.90378945976892,1.9036085681142,1.89890538509154,1.89840079258102,1.8985340811687,1.89713455099799,2.00720236258696,1.81954155173754,1.8949924129816,1.89446877924426,1.93634995761809,1.93337000562195,1.9335985003437,1.81688530059721,1.81673297078271,1.81481932748807,1.8903749154796,1.89199341975865,1.89009881769082,1.92840976603733,1.89054628652091,1.89171732196987,1.89431644942976,1.82195978754271,1.8256347443175,1.92464912374188,1.89980984336513,1.91907004428586,1.99646311066478,2.00561242014813,1.98094451081269,1.98533351359294,1.98349603520555,1.9832675404838,1.96817736823499,1.97289959248446,1.88793763844761,1.88779482924652,1.88802332396827,1.88476727418335,1.88402466633767,1.88363432118801,1.96790127044621,1.97615564226937,1.97102403164344,1.97452761737692,1.97587002386719,1.88257753309993,1.97407062793342,1.97347082928883,1.96926271816329,1.98036375339491,1.96105594940716,1.97053848035972,1.97712674483681,1.966044750832,1.97348034990223,1.9665017402755,1.95013580583026,1.87935956576863,1.95655269926603,1.87759825228849,1.87743640186058,1.9645024114602,1.96623516310012,1.96058943935025,1.9537345976978,1.95731434833852,1.95705729177656,1.87416131084885,1.87278082190496,1.97056704219994,1.95413446346086,1.96110355247419,1.9634265821453,1.95164006274843,1.86820140685658,1.86740167533046,1.86678283545906,1.9542011077547,1.86457405314882,1.8674683196243,1.95594338000803,1.95633372515769,1.94775565247871,1.95183999562996,1.96324569049058,1.9477366112519,1.85630064009884,1.85279705436536,1.85294938417986,1.93035197117219,1.9280575033413,1.85088341107072,1.8491601800442,1.84862702569345,1.84815099502314,1.93719729221124,1.79176040181827,1.78900894454388,1.87442788802423,1.78520069918141,1.89369760955836,1.87380904815282,1.87999744686685,1.87673187646853,1.77659406466221,1.77509932835744,1.77197656716021,1.77085313477828,1.76906325945791,1.76833017222564,1.76815880118433,1.76685447714768,1.76391260760517,1.81248677720355,1.81160136015677,1.76113258849056,1.76076128456772,1.7627415721562,1.96415014876417,1.75931415132998,1.75901901231438,1.75670550325668,1.75728626067446,1.86441220272091,1.925753514897,1.80242348883321,1.80219499411146,1.80129053583787,1.75094553214593,1.7510502588934,1.74849873450054,1.74803222444364,1.74831784284583,1.7467374210204,1.74527124655584,1.94060567181066,1.77708913655933,1.60697481621752,1.72192670248386,1.71943230177144,1.60127196878721,1.76938696031373,1.76923463049923,1.5967972804863,1.64141087490771,1.59167519047377,1.63958291713372,1.64029696313919,1.71034963658194,1.58692440438408,1.58827633148776,1.58886660951894,1.58907606301388,1.67837941676395,1.5877241359102,1.58668638904893,1.75940935746404,1.58780982143086,1.58605802856412,1.58312567963501,1.85251143596318,1.584344318151,1.58465849839341,1.63311842063092,1.75569631823562,1.58315424147523
1.93739722509277,2.01868422235483,1.91201526975187,1.9111393733185,1.90951134842604,1.90876874058036,1.90691222096615,1.93782565269605,1.83095676721156,1.90154259500506,1.82765311435961,1.89803900927158,1.8980770917252,1.89456398537832,2.01799873818958,2.00670729068984,2.01585660017319,1.89155547154196,1.89018450321147,1.8182467483143,1.93095176981678,1.89190773423799,1.88859456077264,2.02599605345078,1.81554289410694,1.88749969023093,1.92770524064527,1.81734229004071,1.8180944184998,1.8920695846659,2.01058218034616,2.00287048348715,1.92259267124615,1.92182150156024,1.92440158779332,1.90185677524746,1.99289288063746,2.01161040659403,1.99011286152285,1.98652359026872,1.96999580539557,1.97396590118595,1.97839298641983,1.96002772315929,1.8882232568498,1.88750921084433,1.88528138730728,1.88578597981781,1.88396754265723,1.88356767689417,1.97323281395367,1.8825394506463,1.95764756980774,1.88332014094561,1.88411987247173,1.96648269904868,1.97153814476737,1.97170951580868,1.97382309198486,1.97791695574952,1.96660646702297,1.96848202786398,1.96140821210318,1.95924703285998,1.97367076217036,1.96766325511105,1.9801923823536,1.87770297903596,1.94771757002508,1.96077033100497,1.95384884505867,1.96734907486865,1.9488124405668,1.97312808720621,1.95770469348818,1.95052615097991,1.94416638122457,1.94339521153867,1.95703825054974,1.94729866303521,1.9428239747343,1.94719393628774,1.94756524021058,1.94982162558785,1.94975498129401,1.94719393628774,1.86464069744266,1.94772709063849,1.94556591139528,1.94302390761583,1.94687975604534,1.94729866303521,1.95110690839769,1.94222417608971,1.95375363892461,1.9375971579743,1.95139252679987,1.92802894150108,1.92770524064527,1.92738153978946,1.92688646789234,1.85241622982911,1.84806530950249,1.84673242362562,1.84658961442453,1.84792250030139,1.93125642944578,1.97576529711972,1.78586714211984,1.78158286608706,1.77991675874097,1.87796003559792,1.82496830137907,1.87375192447239,1.77525165817194,1.87756016983486,1.76924415111263,1.76901565639088,1.76782557971511,1.87780770578342,1.76528357593566,1.7639602106722,1.76167526345471,1.75999963549522,1.80884990288239,1.81797065052552,1.80596515702031,1.75860962593792,1.75700064227227,1.95767613164796,1.95752380183346,1.94560399384891,1.75092649091912,1.80169040160093,1.79936737192982,1.79823441893448,1.75034573350134,1.82207403490358,1.855015357289,1.85416802269585,1.7464327613914,1.74618522544284,1.74427158214819,1.83454603846569,1.94022484727441,1.74260547480211,1.65421609993904,1.65069347297875,1.64997942697328,1.71646187038871,1.59837770231173,1.5980254396157,1.59492171964528,1.59347458640754,1.59212265930386,1.63925921627791,1.6375455058648,1.63737413482349,1.6372408462358,1.58704817235836,1.58703865174496,1.58742899689461,1.5864864561674,1.75865722900495,1.58250683976361,1.63163320493955,1.75683879184437,1.75722913699402,1.75576296252947,1.58134532492805,1.58459185409956,1.75238314477027,1.69863928209232,1.66805907183164,1.75192615532677,1.58220218013461
