2.3177214907972,2.28821635765154,2.27949378064223,2.27871911059387,2.27773155726743,2.27686488335349,2.27710702890498,2.27695304674586,2.27707384756577,2.2776087649625,2.27663623964635,2.2764871455163,2.27633030381375,2.27621123155531,2.27671209033342,2.27729299077124,2.2781123001483,2.27788407064557,2.27835320726341,2.27865489456132,2.28016405912439,2.2785736564312,2.27811999703394,2.27900328599594,2.27923414096987,2.27947643741843,2.28007929163014,2.28031950409764,2.27989941428371,2.27998694284185,2.28014856077121,2.28068561483145,2.28143265742094,2.28139151381034,2.28222372068571,2.28240386762688,2.28274774970801,2.28287026181809,2.2833175155484,2.2837388845177,2.28397841341882,2.28452125822413,2.28503176549531,2.28610987403596,2.28719281338669,2.28749968475251,2.28917535444979,2.29156847820239,2.30039804185157,2.33600542707215,2.35238436385434,2.35496969784061,2.3544585178739,2.35563564805553,2.3565415411679,2.35803732250126,2.35977856424905,2.35944233678689,2.3589176848005,2.35860664783307,2.35844714055811,2.35839046504948,2.3580559369264,2.35837729471071,2.35871693212522,2.35826159223293,2.36036472697535,2.35971643112513,2.36100276545168,2.36148908205823,2.3609688797833,2.36209872153322,2.36177767900858,2.36138684315172,2.36253206890494,2.36245324554868,2.36281302058116,2.36213384761615,2.3618537837237,2.36119251847214,2.35807390277904,2.35566350518775,2.34965263152721,2.33813874266374,2.30635277758216,2.29740774063131,2.29707149542747,2.2965595519073,2.29540368102986,2.29482132485367,2.29491311769619,2.29501444746938,2.2950495672664,2.29496628992832,2.29470893235103,2.29456051328456,2.29465824228337,2.29451873321025,2.2947627977362,2.29562996234883,2.29597027123266,2.2961388754758,2.2956482472881,2.29550917148412,2.29532835419052,2.29618616729684,2.29687827985121,2.2963806001563,2.29658661829183,2.29696621439969,2.29677713486512,2.29592094473718,2.29681608889655,2.29712902438455,2.29715602484822,2.29723611209942,2.29765712099929,2.29798916876078,2.2992037799625,2.31157047464036,2.35848608189071,2.37005867715444,2.37010131721473,2.37059283083661,2.37036422636789,2.37114121141881,2.3721458791218,2.37335740776184,2.37493084205516,2.37593178430505,2.37633506695877,2.37814273924853,2.3767866661238,2.37659872154407,2.37691199435286,2.37740595899182,2.37812057814513,2.37892286936943,2.37920806516806,2.37841662113295,2.37878028575992,2.3793291693556,2.37961324739903,2.37944963163499,2.37929474864954,2.36974356217807,2.33139927407395,2.31839667144462,2.30985578220988,2.30721421791917,2.30611874513715,2.30516851966989,2.30423912842429,2.30409245786184,2.30480775549577,2.30474833046208,2.30391500011724,2.30419021522621,2.30475303202148,2.30479971306887,2.30452447400511,2.30401321416857,2.30453175113462,2.30396286071145,2.30508837843308,2.30500544036557,2.30446772048044,2.30449605076243,2.30471571740181,2.30519653809246,2.30532970513431,2.30563287535799,2.30605860287335,2.30646824640387,2.30576920061376,2.30622001713892
2.31775369604119,2.28934162618857,2.28116937938529,2.27888830810772,2.27756952344458,2.27719535587603,2.27664623708379,2.27652627092823,2.2771674838978,2.27740332225819,2.27758049787849,2.27758873782544,2.27699778319436,2.27642547424891,2.27664993765641,2.27705826235306,2.27750202719293,2.27800567389977,2.27842798678817,2.27921433769551,2.27937943558586,2.27895494189547,2.27870409497435,2.27913084499653,2.27957270700089,2.27997710044443,2.28044490932515,2.28006516330105,2.27996469658458,2.28019939578607,2.28050867642197,2.28149934784681,2.28276504082455,2.28278671459829,2.28296117879733,2.2829982067589,2.28317819222242,2.28315434478561,2.28391649295667,2.28404349375332,2.28443370056179,2.28509110298121,2.285860163303,2.28660071826887,2.28732896468799,2.28767263475064,2.28910818768015,2.29001495344991,2.2928485793093,2.30901725377545,2.34562542198053,2.35472986846276,2.35556597643031,2.35616885078625,2.35703909599443,2.35860565314907,2.3592329289616,2.35909743652026,2.35901171502765,2.35886194139767,2.35868977080183,2.35869701771958,2.35931302262489,2.35914306588747,2.3594112769315,2.35948675169943,2.36079830231461,2.35979550608744,2.36070100323878,2.36422581553917,2.36544914942301,2.36600442159135,2.36541114595855,2.36343327705613,2.36357978255731,2.3631607712509,2.36282602666553,2.36268827421436,2.36233991834853,2.36205744513837,2.36089325777007,2.35888955434435,2.35841512754374,2.34796706545304,2.31458447895444,2.29968325220551,2.29778749403526,2.29821166797879,2.29667632103182,2.29577554325482,2.29606065925725,2.29570137083963,2.29520066828696,2.29548090558286,2.29504637722824,2.29506586252601,2.29531425819021,2.295179363085,2.29493864064481,2.29577166650631,2.29585315305158,2.29557890931982,2.29552989212842,2.29576782341733,2.29601916695143,2.2962577290917,2.29624926076578,2.296896523136,2.29699300412919,2.29693360374631,2.29658599888803,2.296538322742,2.2971928675128,2.29736663416273,2.29762253181708,2.29787949510996,2.29772378823716,2.29867885703428,2.30130509479426,2.31975754448741,2.36144433040093,2.37030826289541,2.36990917559487,2.36997621825437,2.37018443577992,2.37055063694535,2.37174650334439,2.37385181306566,2.37558382638973,2.37632866961901,2.37684153218911,2.3779045246742,2.37711538251369,2.377443472884,2.37763734925582,2.37837139887346,2.37885028564984,2.37963292066798,2.37976528364216,2.3787766411075,2.37904637628128,2.37934574597175,2.37972590425679,2.37995357064133,2.37783605225786,2.35968704568025,2.31809695297596,2.30823362195053,2.30871293147567,2.30746949095221,2.30556442278095,2.304822205529,2.30431755862872,2.30438542268822,2.30416599131624,2.30424339214717,2.30402622792702,2.30436552406658,2.30484714148494,2.30455795461779,2.3042009059859,2.30402372104114,2.30498066448207,2.30617022294667,2.30630829372577,2.30513296279321,2.30464661716381,2.30480637575116,2.30511222704614,2.30552400057261,2.30598136457148,2.30644832118865,2.30668764026705,2.30641771694759,2.30573973095972,2.30610610594884
2.31922709739679,2.28863008421982,2.27965890223257,2.2781167911661,2.27738366062549,2.27713724148552,2.2767984452582,2.27655868999133,2.27725157562956,2.27725537001311,2.27715453964716,2.27719991588321,2.27731856190584,2.27713404927691,2.27703252701715,2.27753249065254,2.27787836394234,2.27850181380476,2.27862069108871,2.27890930671637,2.27931804561651,2.27921670690621,2.27953026153665,2.27940119444922,2.27973346624222,2.28031210058449,2.28122267523884,2.28034431608924,2.28026800473533,2.28072257679264,2.28099380785811,2.28211211757669,2.28416767261398,2.28309244155857,2.28332228512212,2.28299533041563,2.28280401198217,2.28347010429984,2.28420516281853,2.28418157125161,2.2847646287107,2.28529282681841,2.28721735981646,2.28674465958902,2.28624873742294,2.28718940972395,2.28875058727642,2.28941376991638,2.29103649837523,2.30227962027647,2.34434048956208,2.35601080746716,2.35794389220049,2.35765271700228,2.35845737990847,2.35956755288021,2.35912414886009,2.35884872409453,2.35912757379774,2.35939064029617,2.3596742704854,2.35987359288284,2.36214448610203,2.36231127203888,2.36193391977022,2.36084622425564,2.36105097114387,2.36124158420835,2.36227797409318,2.3660633995242,2.36653495875806,2.36570652744219,2.36561681934085,2.36499197214485,2.36407974786603,2.36351401367805,2.36294218745107,2.3618066546183,2.36155346898247,2.36123586740491,2.36079344639117,2.36012472330448,2.35983326419549,2.35498739108575,2.33375713230977,2.30396989708453,2.29710012401721,2.29677887801735,2.29580716350573,2.29560789935289,2.29596333752111,2.2964628675801,2.29598338791564,2.29632540361277,2.29561711816521,2.29650023255237,2.29604765835164,2.29557083689088,2.29549825499383,2.29579937512897,2.29592477841358,2.29535165933481,2.29553348188845,2.29581156778682,2.29596393250412,2.29646860597813,2.29602075488225,2.29634849095928,2.29741627741686,2.29711872813741,2.29693772999906,2.29734110917516,2.29738143723701,2.29767488621229,2.29820060553159,2.29844100072062,2.29872382034036,2.30143589144409,2.31032450921457,2.35169369406072,2.36859329678878,2.37051772889643,2.37113397903223,2.37060875936028,2.37140671687297,2.37132041828009,2.37221838322341,2.37562820850381,2.37650192163196,2.37681812603492,2.37713248749408,2.3777029761333,2.3778682037815,2.37861918983356,2.37875560897249,2.37934772328898,2.37942926921398,2.37990651624215,2.37971271575525,2.37955729714935,2.37979925896179,2.37952338710214,2.37795655537327,2.37026610856865,2.36020098385425,2.3263969054564,2.30926886999524,2.3071332884313,2.3070136741984,2.30650467805098,2.3053390594458,2.30525961886617,2.30436140556592,2.3038145608339,2.30365507938261,2.30354798834756,2.30409713223501,2.30413513317184,2.30427868693787,2.30413828810294,2.304392243035,2.30425754734916,2.30495394829238,2.30501006941021,2.30607475783688,2.30592743717753,2.3055126602845,2.30585121410487,2.30637251415099,2.30610355169689,2.30627010510082,2.30613807683342,2.30619684292234,2.3062453370333,2.30635866310688,2.3061585927022
2.31850982506754,2.28787367788737,2.2796043287037,2.27817708715858,2.27815585071491,2.27851915788995,2.27738470235564,2.27710647754103,2.27731628705067,2.27724980625914,2.27714629417327,2.27779465568083,2.27701531106821,2.27698410381168,2.27721652579493,2.27784092545846,2.27844721583764,2.27841074237303,2.27844150176028,2.27863222848362,2.27901009130298,2.27943275660249,2.27987614395353,2.27990367071112,2.27957252918402,2.27962869928713,2.28026234860786,2.28024869905787,2.28023523345328,2.28064308816682,2.28124263372298,2.28201038448835,2.28300388431329,2.28289153884579,2.28324148707677,2.28275388953796,2.28254818761205,2.28366998828141,2.28460538557008,2.28501443456947,2.28532249042013,2.28530001725574,2.28620114734925,2.28648210534314,2.2863943269729,2.28749589793604,2.28792559572286,2.28952901395502,2.29176360586889,2.30049111884953,2.33847643403968,2.35628952229213,2.35908971178127,2.35847861835746,2.35897910069935,2.35955674831113,2.35942305250549,2.35952865635921,2.36006004659914,2.35991710285738,2.3615662359539,2.36167228908887,2.36236737327946,2.36257536300315,2.36279681575046,2.36234965646451,2.36245662861573,2.36437589434165,2.36434324896481,2.36580204053126,2.36555131132344,2.36548999291029,2.3653841083433,2.36532424839393,2.36509379679397,2.36413106915872,2.36374504415161,2.36245781854188,2.3612826410669,2.36151258970045,2.36046636475572,2.35920638103625,2.35961807145205,2.35303960246802,2.32211426273922,2.3015291489477,2.29739213074195,2.29686529266963,2.29686993422168,2.29695846310159,2.29623264864404,2.29731096871241,2.29631273310793,2.29602733720611,2.29617397373637,2.29647087123287,2.29684310549553,2.29691385873302,2.29696095930444,2.29639694650053,2.29603958526042,2.29575499774981,2.29560472462167,2.29569051773038,2.29630460562194,2.2964927457723,2.29631671279533,2.29665260500747,2.29727268655745,2.29771374097916,2.29813965987316,2.29881888179494,2.29840327196036,2.29856985610111,2.29940487543756,2.29950193494232,2.29911763865348,2.30353401654694,2.32094998920486,2.36181707159211,2.37122464933955,2.37192732903948,2.37442881137475,2.37349381630619,2.37613464500722,2.37387964200547,2.37414847161642,2.37521787151602,2.37659945514161,2.37742455171151,2.37783850787219,2.37913644868369,2.37901809290419,2.37918656290587,2.37919245609081,2.37970216429565,2.37964198672849,2.37996444840197,2.37995345343088,2.38029734131809,2.38004403216108,2.37957139891396,2.37054272417857,2.33221329248978,2.31937631283139,2.31016830364459,2.30731721654407,2.30664904156671,2.30594774876887,2.30559875621922,2.3049840634213,2.30442052055769,2.30421934412905,2.30401521905116,2.30426461459987,2.30419601073533,2.30421432106389,2.30384721897987,2.30400131054492,2.30435323202441,2.30431545230115,2.30463765493796,2.30476853051279,2.30439205894395,2.30512306260452,2.30597355825666,2.30592721914834,2.30643830156835,2.30643760304133,2.30641317937883,2.30620906024449,2.30626458225416,2.30663573522884,2.30659730963121,2.30665550295118,2.30659711568629
2.31805962436991,2.28781596672953,2.2796217159673,2.2784413669286,2.27918034905753,2.27967025614654,2.2785449607201,2.27760673975049,2.27747393824042,2.27757984461341,2.27764619284542,2.27877813681806,2.27734320854407,2.27720445903395,2.27802828025392,2.27795059615925,2.27812597355685,2.27807832440709,2.27843819348069,2.27885757917195,2.27902299137018,2.27940535163578,2.27964089690029,2.28005875753187,2.27988003374709,2.27963636198244,2.28000576683559,2.28036984972625,2.28007386411578,2.28079374933064,2.28149489277911,2.28279150011966,2.28408053971869,2.2836464675956,2.28290941411174,2.28280852242102,2.28306846258771,2.28396476058031,2.2845796250226,2.28503346633159,2.28496883191339,2.28568125493985,2.28610702389256,2.28610822799656,2.28665629825301,2.28735682460007,2.28743889161778,2.28845878611449,2.28993419581054,2.29324864310873,2.31097872580063,2.34920937159875,2.35860630144875,2.35844364727097,2.35884128389161,2.3594894812103,2.35993860820118,2.36088103399225,2.35990917238393,2.35934469463226,2.36112144424637,2.36202600844477,2.3622445936359,2.36336849619662,2.36393831271667,2.36362701869419,2.36503225935865,2.36686809306282,2.3656188367098,2.36491182531426,2.36429447489431,2.36516579781293,2.365243524944,2.36486612193102,2.36493654862949,2.36453925015342,2.36322424611686,2.36544716354269,2.36346376567878,2.36227448931933,2.36125937544903,2.36047386023556,2.35957717004333,2.35796265858011,2.34499784062498,2.31390917476677,2.29972388185678,2.29836081014573,2.29856813118472,2.297786804212,2.29690541174184,2.29724290090404,2.29637000566665,2.29674158513635,2.29678212593764,2.29648360454743,2.29729074795829,2.29699561676601,2.2971486325839,2.29686493012664,2.29703260573767,2.29683601815492,2.29660552971043,2.29624417489008,2.29687668375936,2.2972595792127,2.29680022839815,2.29704345162568,2.29745374835494,2.29776664447382,2.29829602937824,2.2988568772761,2.29873823410958,2.29885565599001,2.29962964685022,2.29999757326426,2.3000761306259,2.31090404115748,2.35325468636455,2.3714016198632,2.37356765797047,2.37328324534517,2.37520249745663,2.37611596833339,2.37711550653099,2.3768710768898,2.37620519704644,2.37602765363261,2.37679501051918,2.37786256090877,2.37862847555766,2.3795791257451,2.3791499947171,2.37916465773031,2.37964791884017,2.37996182329532,2.37999036255474,2.38076366681313,2.38077909261385,2.3805351135685,2.38027253329343,2.37940697046579,2.36900331299154,2.32211165578468,2.30855894065678,2.30701451659024,2.30629120351083,2.30579387884841,2.3053806054786,2.30566621459209,2.30498357661565,2.30417288817389,2.30452347597536,2.30433769936371,2.30455013391412,2.30483213126673,2.30463082893141,2.30414706357428,2.30435495858228,2.30576933581239,2.30487043653711,2.30436092334715,2.3042914720708,2.30470889129545,2.30513900200901,2.30586921346814,2.30677895004757,2.30707788569172,2.30667601835213,2.30677032780421,2.30664732655708,2.30714630633382,2.30692324681888,2.30632715547942,2.30685829505694,2.307351798563
2.31949857443571,2.28911124106086,2.28009257907329,2.27950068733165,2.27930517306035,2.27951071188631,2.28001916299025,2.27856710991872,2.27851059893572,2.27940171672143,2.2781867479823,2.27813675563501,2.2774520700773,2.27759058703676,2.27819386030737,2.27824410854683,2.27802129831512,2.27840790563539,2.278728805035,2.27927203365428,2.27937307366551,2.27984275167391,2.27996075164302,2.28009848825872,2.28011478449893,2.2802299936892,2.28034457634133,2.28069087983584,2.28064786969136,2.28116846393497,2.28170227217255,2.28267197909162,2.28277064105154,2.28282103110963,2.28259598879121,2.28289929319354,2.28322386849623,2.28383514374057,2.28497264828573,2.28594242255329,2.28592699459126,2.28574539349226,2.28600721302567,2.28635906074221,2.28770484928667,2.28727391755303,2.28756960571841,2.28843426665573,2.2889967720889,2.2910782666176,2.30128218815414,2.33895001811037,2.35616300056468,2.35829867998832,2.35851852030952,2.35912416143892,2.35942031932107,2.35995226454198,2.36070758840436,2.36160238743501,2.36153763478502,2.36219505821676,2.36315703761606,2.36653967557709,2.36710734075257,2.36522959465039,2.36505731758324,2.36534181902393,2.36513387266449,2.36493505274938,2.36473299119173,2.36480022819865,2.3648928031617,2.36399352117514,2.36324566667048,2.36384994015281,2.36326998831645,2.36470301572557,2.36530496506612,2.36458728475964,2.36202893618675,2.36109466237666,2.36031893987373,2.3599675293253,2.35945033114918,2.34367274391983,2.30676739621617,2.29861691948531,2.29830228935413,2.29806791155973,2.29837020827868,2.29841333267127,2.29735508918327,2.29748449863662,2.29709119061472,2.29671518253216,2.29712374870932,2.29768924266553,2.29724379819053,2.29752166105487,2.2989427235961,2.29775043332715,2.29734796654688,2.29753150440678,2.29781012088905,2.29852254435387,2.29786734112469,2.29788941880097,2.29795117336016,2.29837805711211,2.29900291391142,2.30012627305566,2.29983831636784,2.29941217561892,2.29933464204885,2.29990111847253,2.30102794111138,2.31361979762505,2.36210102850881,2.3762146429647,2.37578775527081,2.3753694657854,2.37478446002118,2.37651271878861,2.37665084774674,2.377075959872,2.37715232759906,2.37678296571825,2.37731149864638,2.37822915004816,2.37892855896098,2.37924599156328,2.37966536014081,2.37997086284883,2.38041578641216,2.380661155807,2.38043900113482,2.38186103377922,2.38174546761637,2.38077429654121,2.37849188144883,2.37031699072515,2.35868538323274,2.3184360035146,2.30801369849145,2.3061044198558,2.30571459573741,2.30645572405683,2.30604343866601,2.30558654389666,2.30444787798235,2.30463953764366,2.30482762033095,2.30457841853101,2.30450280943116,2.30541978759618,2.30618886937418,2.30489222997152,2.30464899553168,2.30566601052186,2.30573387728392,2.3050086087149,2.30492243417234,2.3061018117846,2.30565314817915,2.30553055658477,2.30626259726565,2.3074362156136,2.30668790057929,2.30709356522061,2.30676605310982,2.30718188007868,2.30695109147485,2.3069173486402,2.30721476564834,2.3078046804998
2.32211299601594,2.29416514936301,2.28128107298255,2.27955485326692,2.27927447213565,2.27934148819563,2.28058613701247,2.27896651972906,2.27840726516257,2.28031638609111,2.27850894692772,2.27765281722707,2.27800289098962,2.27857649913311,2.27873689435018,2.27869218838894,2.27879284198884,2.27921214038047,2.27899029304191,2.27910352598737,2.27938069080768,2.2797533053138,2.28027060051005,2.28057104666852,2.28080647690046,2.28095397081623,2.28103589892367,2.28129666008063,2.28131343594051,2.28162366255892,2.28214638530533,2.28312523976729,2.2826452224087,2.28256959720282,2.28296337339507,2.28348980430429,2.28354034233189,2.28392345452084,2.28524116840541,2.2877670245659,2.28735115115829,2.28634137778749,2.2866594627486,2.28660649998725,2.28692997800715,2.28724666740159,2.28765332484509,2.28863174521209,2.28909476832082,2.29030518707659,2.29380151353389,2.31013080919502,2.34222776432496,2.35624915572772,2.35846810873617,2.35905866500698,2.3601688686312,2.36302772721861,2.3666920074281,2.36712553603936,2.36531771908909,2.36404861046598,2.36442166894762,2.36670214330715,2.36737495981138,2.36696690881728,2.3655261554988,2.36513520765818,2.36522456803596,2.36506373293266,2.36507238972617,2.36449670981123,2.36511415376821,2.36433179614017,2.36395553865338,2.36365987234753,2.36448316477997,2.36636458554163,2.36569666234702,2.36619112295702,2.36341543107495,2.36165084743967,2.36094163545841,2.36164284416016,2.36575522714977,2.35250494496634,2.30894875569342,2.2986647318988,2.29852576876027,2.29854866699179,2.29903345536257,2.2981923999337,2.29753240980572,2.29808713527712,2.29800934204749,2.29741326812059,2.29749811266898,2.29767365997177,2.29795534288855,2.2978039222097,2.29830528160505,2.29772697137455,2.29769367744888,2.29827719103252,2.29817678029337,2.29832109815111,2.29795230751837,2.29817588949738,2.2981783894942,2.29864367749536,2.29945898825279,2.30138896863438,2.30038031487136,2.29930563831774,2.29962300882907,2.30258642001598,2.31263771327044,2.32572714995709,2.367178504531,2.37572146708354,2.375761733409,2.37565800465884,2.37559749492717,2.3779640095335,2.37706387310983,2.37695924949972,2.37699465903972,2.37753264141219,2.37871261161562,2.37881226790679,2.37890365038409,2.37951497221127,2.38028053152539,2.38109502843643,2.38138041770177,2.38122063909808,2.38084638849601,2.381471828808,2.38153600928415,2.37928676243352,2.36364555457203,2.33018812738704,2.31935958543576,2.30982507568896,2.30722387683991,2.30602556229309,2.30633420468871,2.3061700643972,2.30612706423347,2.30501885295898,2.30424769574338,2.3046481783601,2.30566030999691,2.30517316748873,2.30530763722562,2.30541586369476,2.3052742742106,2.3046956404896,2.30487428411461,2.30570817822112,2.3054418446893,2.30501782767819,2.30566165407328,2.30650329650162,2.3068286052703,2.30633926564768,2.30606279572594,2.30658933030816,2.30699390000184,2.3077178067066,2.30782735296717,2.30734846488057,2.30696830133348,2.30709342684757,2.30725207966449,2.307614747708
2.32879009449007,2.31669763093188,2.28735484388806,2.28045534882247,2.28020569866029,2.27972937117773,2.27969238996827,2.27846317119608,2.27778935597021,2.27817023827632,2.27839846252508,2.27844400685034,2.27925009046288,2.27871793356109,2.27924047951938,2.27970428255849,2.27950863757931,2.27960164713883,2.27930110172312,2.27925175304379,2.2797640618419,2.2804794081139,2.28063880239875,2.28081951339699,2.28075582140914,2.28081760063002,2.28160678109928,2.28241000553936,2.28234759829249,2.28254189394536,2.28308469143868,2.28305829563334,2.2831343439835,2.28322638289076,2.28356138697068,2.28420389492183,2.28390825307332,2.28403805958229,2.28495145370814,2.28599124383381,2.28606205827889,2.28654468004651,2.28676770460404,2.28718951036625,2.28724622210362,2.28766165366847,2.28836632647533,2.28869050732029,2.2891595602002,2.29006289817358,2.2910814203834,2.29465953498629,2.30996160237899,2.34233066280555,2.356759826464,2.3592475692773,2.36129184072971,2.3659459029649,2.36802099317538,2.36870140099264,2.36798000720698,2.36678526156216,2.36649369793278,2.36697741061349,2.36759672728681,2.36665378907439,2.36587648075515,2.36550618512431,2.36560293180659,2.36574769807093,2.36596278379929,2.36513463956252,2.36863900461874,2.36659812388012,2.36773158269126,2.36607192719143,2.3673823108439,2.36669071164304,2.36663906276209,2.36632255900091,2.36533868058021,2.36122073504734,2.36069663728511,2.36378645599461,2.36911018965516,2.35461017110731,2.30915097431355,2.29893790825168,2.29953729781367,2.29965280485003,2.29866665149275,2.29857485104362,2.29760965267075,2.29770232177805,2.29845925280971,2.29813757785626,2.29794812681363,2.29763099737802,2.29811714980099,2.29808621246627,2.29892490556163,2.29933550100147,2.29843910039729,2.29800483996392,2.29820927206682,2.29821219930433,2.29851457057453,2.29862630480771,2.29926845559948,2.29972703582458,2.29972917004831,2.30092786988578,2.30172645532996,2.30069217122201,2.30259207297028,2.31981572445526,2.35713771915454,2.36745524847155,2.37511183300249,2.37584559690392,2.37542191148039,2.37517882165077,2.37569550975178,2.37773560391578,2.37700978713498,2.37726338246883,2.37780401140582,2.37855926846129,2.37959203412933,2.38000293181769,2.38044167125888,2.38104091744548,2.38143506483372,2.38205163857966,2.38170816464403,2.38132623184471,2.38098230254681,2.37997883949268,2.3766359467594,2.37059802041875,2.33180936106157,2.31306254017592,2.309028411041,2.30877797244572,2.30672483965252,2.30546589538727,2.30583168432784,2.30557096977982,2.30492887939261,2.30460567920362,2.30464271289158,2.30521197184076,2.30510950084352,2.30492166685494,2.30481074887267,2.30467294123239,2.30441143669445,2.30446698379931,2.30459195368136,2.30542284635889,2.30568530223291,2.30580034674798,2.30639092091617,2.30654331173677,2.30704799770045,2.30694964921763,2.30668495108623,2.30701219830601,2.30749969305136,2.3078466882243,2.30809384778204,2.30731542166625,2.30725399406043,2.30743550390703,2.30759648661851,2.30804535906391
2.32912736699814,2.3218847095123,2.28926211887371,2.2808706624049,2.28044103878156,2.27971617926549,2.2787971195719,2.27864932036221,2.27853096139552,2.27878865688099,2.27900748067778,2.27906441225883,2.27936560504592,2.27851298728096,2.27949252181831,2.28076044519534,2.27992100603432,2.27991217723249,2.2799204225187,2.28010370893511,2.28037666168898,2.28094698733072,2.2810108744534,2.28106643128422,2.28090688168745,2.28143282422051,2.28224610299685,2.28253845494583,2.28279703326852,2.2830975213454,2.28375065877839,2.28350031544708,2.28360609490501,2.28389952850999,2.28416401187478,2.28471339354886,2.28456444280609,2.28420729475172,2.28451931772737,2.28554327688919,2.2861373162,2.28658758259844,2.28685294969643,2.28721489686648,2.28764980762517,2.28916136022326,2.29037362049721,2.28922933685756,2.29005471837391,2.29006016934263,2.29085299036348,2.29259892682205,2.29639346891372,2.31302643516269,2.35044608931194,2.36026245262783,2.36401872507909,2.36577973891299,2.36728962921484,2.36738697906681,2.36743665240896,2.36702280390364,2.36678299765818,2.3667278665446,2.36704708761282,2.36657262342871,2.36623874025598,2.36585142378076,2.36635213068363,2.36705204264371,2.36650869754011,2.36594484902279,2.37049238190107,2.37056888732817,2.37046719415903,2.36872959184675,2.3675510959514,2.36718258552087,2.36709069266053,2.36491123000448,2.36416793952248,2.36212016355842,2.36307247716495,2.36666831627765,2.37034431615397,2.35558786902463,2.31071400223114,2.3000719910639,2.29988551045756,2.30008036747955,2.29892379106195,2.29924769946878,2.29835180154474,2.29943148784485,2.30042615203462,2.29867632324403,2.29821910070831,2.29828996823379,2.29827122503841,2.29845472128401,2.2992511537802,2.29902426083663,2.29843465280746,2.29820923709374,2.29867437662259,2.29856643788072,2.29855763002255,2.29885915339693,2.29942206681998,2.29987571546482,2.29973560623965,2.30097694327035,2.30094425880624,2.30297711196472,2.31936280401017,2.35680416008807,2.37432067118185,2.37824210803218,2.37729003499683,2.37639116788133,2.37607915838032,2.37681954678062,2.37847551914066,2.37793144727188,2.37774286458203,2.37827130986896,2.37886792411586,2.37953886029846,2.38102998668733,2.38201481771526,2.38249299993938,2.38243083886704,2.38201323377434,2.38212465645943,2.381847403886,2.38167282241869,2.37845999446166,2.30802785622065,2.11591012689106,2.29596066893606,2.3187457362934,2.3093153162636,2.30769139917501,2.3073617127682,2.30684537833307,2.30588371139679,2.30548049843608,2.30516863318788,2.30462364436969,2.30457728634965,2.3049705342966,2.3049561784967,2.30501001339765,2.30469148321931,2.3045630167169,2.30438903389288,2.30442409078147,2.30461226822351,2.3048154589101,2.30529409896592,2.30631864230531,2.30670139564412,2.30672055072194,2.30650416419332,2.30673244695834,2.3072231358289,2.30709603385161,2.30726429634504,2.30763761832981,2.30806821434714,2.30829250257234,2.30883079660137,2.30825512663195,2.3081132010352,2.30832003558981,2.30812396175004
2.32994002088092,2.32320055761064,2.29034542466725,2.28216330149231,2.28074749373235,2.27986180262097,2.27892720756883,2.27910138113946,2.27952410626995,2.27926603851336,2.2793332011073,2.27935310427704,2.27955763485136,2.27899393660216,2.28016437971421,2.280812172407,2.28031259073349,2.28014704397664,2.28062094511009,2.28047190673039,2.28056225777246,2.28083718363303,2.28072887037259,2.28116830650806,2.28160199817349,2.28199359316691,2.28222113709349,2.28233913196054,2.28286242563706,2.28289944543731,2.28299266904219,2.28348253399832,2.28429381585112,2.28505744783394,2.28477681172846,2.28464254621602,2.28492197868253,2.28507697278922,2.28518670211471,2.28573407256068,2.28635023716566,2.28647902021608,2.28672652385398,2.28746824891269,2.2884040733156,2.29100259029759,2.29051330282486,2.28970476785418,2.29009151858884,2.29008159395135,2.29066974597251,2.29208155934061,2.29378743972492,2.30391715835587,2.34286373315397,2.35985184467933,2.36482405058859,2.36592668233093,2.36683531846937,2.36755257281981,2.36726720405882,2.36682504490124,2.36640976865486,2.36640939656285,2.36650472530532,2.36643221744762,2.36653292556666,2.36669125041455,2.36742239996167,2.36973984814583,2.37141236833782,2.37110453444128,2.37182995785003,2.37125691916718,2.37095088073669,2.37063935875139,2.37032633646602,2.36769580146277,2.36734463572799,2.36711506132638,2.36690829019631,2.36472227089333,2.36897498855669,2.37087557413091,2.37132912451687,2.36175072379688,2.32077769287029,2.30308337178739,2.30062244382012,2.29970066122358,2.29966378271229,2.29994663174013,2.30049308271026,2.30128545365777,2.30009560923416,2.2988834909193,2.29847820522398,2.29915537114889,2.29925421980432,2.29954085417914,2.29946199354921,2.29911004806204,2.29901737129051,2.29888048056868,2.29886952723843,2.2994263613393,2.29942681323206,2.30013410749385,2.3005791628035,2.30015347561011,2.29981595779981,2.30018368479532,2.30094072149201,2.31166471109844,2.35476240998279,2.37614617442144,2.37630367207797,2.37723856265487,2.37775711995388,2.37694716422074,2.37707461817197,2.37858712967537,2.37957685465674,2.37966010546075,2.38064571950962,2.38092436576708,2.38121906438694,2.38109410432743,2.38195637549351,2.38159955031279,2.38167932635591,2.38187124131966,2.38202661960155,2.38205688465089,2.38192861844295,2.38165146706988,2.36801365536004,2.07906326851103,1.30551060242501,2.06556823250011,2.30621035346797,2.30749238314479,2.30669096290846,2.30610720555405,2.30659521746874,2.30642772524308,2.30564413552776,2.30507500183827,2.30501469301894,2.30515719425737,2.3054539161321,2.30510394173284,2.30525956975208,2.30495063493922,2.30468683763293,2.30456555181776,2.30440242497216,2.30477234546675,2.30572769117579,2.3061924510019,2.30680352121955,2.30675419882427,2.30721457560342,2.30744110982956,2.30711953429275,2.30734766306816,2.307723007286,2.30749923437025,2.30744685342155,2.30768944229798,2.30833558344594,2.3088305972493,2.30864937903477,2.30877053470774,2.30996548979336,2.30891992847677
2.33105317801613,2.32556667054104,2.29792200782075,2.2896764209536,2.28310187440711,2.280883733703,2.27995610879683,2.27942364780678,2.27992533636316,2.27918947269333,2.27950401207893,2.27987572007125,2.28006484993699,2.27988839308814,2.28033947204532,2.28110967107202,2.28059266796599,2.28019959200484,2.28082326693251,2.28202269009385,2.28179131082203,2.28138500534388,2.28076234033483,2.28101077045705,2.28160708188064,2.28168544820652,2.28182908768608,2.28262726069481,2.28295040666229,2.28288485268734,2.28303696650791,2.28342385229678,2.28352134372527,2.28385087275807,2.28430127431697,2.2850989072391,2.28489172634335,2.28482299830206,2.28532557824267,2.28551138500285,2.28624379237842,2.28650384049253,2.28702959077282,2.28814177279321,2.28800094975336,2.2894078824593,2.28950225023077,2.28968296306061,2.28971768763021,2.29001942486824,2.29046272704227,2.29173847366242,2.29300531239739,2.29744075925758,2.31352603223082,2.34734312458934,2.36366283209902,2.36599344604497,2.36684251832158,2.36724917336962,2.36731704503688,2.36697833865153,2.36627779814389,2.36601122760224,2.36615253980025,2.36631934973155,2.36691903250825,2.36841384359062,2.36943741214893,2.36977003346352,2.37195123103118,2.37204260665619,2.37200667308394,2.37152346579949,2.37155010765281,2.37063799103919,2.36997962771254,2.36907946155013,2.36702114249911,2.36672618062643,2.36636148513304,2.36640592263227,2.37030746689569,2.37160261695016,2.37201921898357,2.37064511801973,2.3551616975958,2.32010202057179,2.30323552490571,2.30021812197748,2.30033357319751,2.3003509614676,2.30040520227131,2.30070485854903,2.30039280832211,2.29921527954375,2.29893536800282,2.29960939112408,2.29952002163395,2.29976605844564,2.29967753791242,2.2995736886768,2.29936153383149,2.29950393232574,2.29937506978065,2.29990782394764,2.30100814491412,2.30164922524589,2.30105390833424,2.30151698782814,2.30101644180711,2.30120776640267,2.30437170737136,2.32388270632585,2.36731011149836,2.37771271626534,2.37693866925467,2.37729533511416,2.37736074926064,2.37910252051592,2.37906303883504,2.3783682393776,2.37855094404797,2.37957675621269,2.38193051926074,2.38243770966034,2.38385473741959,2.38232563489978,2.38187365304893,2.38140307243074,2.38179461215847,2.38194095841566,2.38179107008339,2.38166620816226,2.38002751525662,2.37210210759394,2.35926899461769,2.25691001549082,2.05549287089654,2.24502551219404,2.30666823881831,2.30649576178072,2.30584975693561,2.30585678220555,2.30533729102959,2.30527869010421,2.30520438676181,2.30517782158589,2.30568900348189,2.30585398995459,2.30613791946675,2.3055084267556,2.30543342043367,2.30547142733856,2.30510229178698,2.30638428885375,2.30593057426742,2.30581346504366,2.30645492047372,2.30658827500568,2.30688514651772,2.30712271880041,2.30759415009841,2.30758674653434,2.30749929798673,2.30781870186787,2.30780976331204,2.30771428252944,2.30774741768984,2.3076754407143,2.30854668147192,2.30868769081935,2.30863960517329,2.30861200801745,2.3090828018535,2.30917600141256
2.33222919787416,2.33146608474821,2.32604166234804,2.31902389987066,2.28885511176335,2.28080575235616,2.28033067937748,2.27980516913251,2.27998174986251,2.2801597584821,2.28121646510475,2.28034887295291,2.2797997463239,2.27977443434185,2.28007998721962,2.28094207758083,2.28141234354561,2.28076003996711,2.28102735957755,2.2809989226775,2.28177777084237,2.28183075282657,2.28151296482382,2.28151531346302,2.28191879763731,2.28211632486406,2.28208353834305,2.28311884800714,2.28293125048726,2.28286377506962,2.28326044091827,2.28377092529867,2.28349631147338,2.28368005323511,2.2841561442816,2.28510715765706,2.28578204754278,2.28529533311067,2.28541002585621,2.28596663264204,2.28656558837184,2.28692930155583,2.28701588538057,2.28782433072099,2.28787373922669,2.28832535622641,2.28869743778035,2.2891552834456,2.28977569077791,2.2902469407071,2.29050372061584,2.29152152415069,2.29245924017588,2.29450129243564,2.29881613242688,2.31672590097949,2.35782151108012,2.36704698635883,2.36712608515673,2.36705067924895,2.36705956162156,2.36714923601109,2.36671071232341,2.36620096568742,2.36600857303953,2.3665280153517,2.36849888801625,2.3710916970285,2.37305755609496,2.37302940803766,2.3724151178059,2.37184059258573,2.37190551973583,2.37148840264403,2.37240114885764,2.37232110497665,2.37157000024057,2.37125935209232,2.36844027054553,2.36718211088142,2.36713472533544,2.3689916974872,2.37056379572421,2.37122240090271,2.3720381232359,2.37285976647959,2.37300138671221,2.35629120208883,2.31241256766315,2.3012700848003,2.3011338129476,2.30077298607447,2.30088731460382,2.30031768483276,2.3000101647053,2.29930869154523,2.29938755767889,2.29975358111514,2.29941606818411,2.29987958837317,2.30037465577956,2.300530274823,2.30008850154258,2.30004228360302,2.30011153334957,2.30088114678358,2.30081886698735,2.3012553166278,2.30153334559092,2.30378155146701,2.31179435305108,2.31445231692386,2.32397914654215,2.36243599502453,2.38050501989495,2.3796216238994,2.37973739404154,2.377661542908,2.37798789185562,2.37955504884406,2.37972205734133,2.37933307491732,2.37922309686874,2.37997235111616,2.382241170363,2.38224202978424,2.38244501345072,2.3821370463174,2.38199216095322,2.38204858915283,2.38204538005351,2.38184648346276,2.38143919339935,2.3811678905877,2.37138175013378,2.33255774638748,2.31978433063537,2.30967940924359,2.30354856575913,2.30613417216451,2.30644780545329,2.30576674339602,2.3052180698997,2.30507787814805,2.30501514561039,2.30536563018227,2.30511225773448,2.30530583757959,2.30527020500316,2.30559855843259,2.30577446945555,2.30586603137144,2.30572027804542,2.30631410199717,2.30583944749539,2.30641080736805,2.30783910168289,2.30679632194165,2.30628488098374,2.30698258606935,2.30691585468707,2.30748668690431,2.30745442373402,2.30732078980077,2.30776616804649,2.30768858736719,2.30747148377891,2.30736871192215,2.30772118608315,2.30765716765517,2.30800537227462,2.30831530911465,2.30878520130258,2.30898450764697,2.3091440209901,2.30958893757325
2.33252472504503,2.33334370531719,2.33416230531544,2.32956331533687,2.29783437988216,2.28336552319898,2.28060335005424,2.28014031589748,2.28045997621116,2.28055431738921,2.28063972438599,2.28067909633897,2.2797989351635,2.27994702603725,2.28042748353726,2.28120738289493,2.28228701278856,2.28141276232217,2.28062985410238,2.28087740074752,2.28156233421791,2.28163153839975,2.28238099041086,2.28223877163456,2.28239624326709,2.28319130928897,2.28254846833512,2.28305153004341,2.28296967616458,2.28312369438266,2.28360896101985,2.28415412623352,2.2838413453682,2.2841591284059,2.28505579203261,2.28509714563236,2.28586299875798,2.28601452833309,2.28596873734698,2.28653604822137,2.28702441787204,2.28738805493921,2.28727450603697,2.28740048171577,2.28775845336214,2.28817571459568,2.28830064750998,2.28876936689489,2.28974010592523,2.28998363873214,2.29030356548096,2.29151969258169,2.29243081059867,2.29391232703401,2.29523613765613,2.30667772580131,2.34854208617112,2.36507563495081,2.36702564551733,2.3671433714256,2.3671396804638,2.36768928071081,2.3677490937802,2.36705623815069,2.36744143352655,2.3677092675421,2.37179217546446,2.37348878427441,2.37341390588576,2.37355356858544,2.37327407418043,2.37172657820405,2.37157000226389,2.372121719601,2.37247236401109,2.37248467218912,2.37258733580713,2.37192450246903,2.37081397516953,2.36745966391943,2.36642702148186,2.36726118522154,2.3686826261457,2.37081242373907,2.37314146673236,2.37398480761298,2.37546213897091,2.36576780454815,2.32455192489457,2.31214182345378,2.30342262702757,2.30114772780171,2.30118368913479,2.30047588107232,2.30036846987052,2.30044282888774,2.30086403361854,2.30104204147996,2.30063289868442,2.30060669692335,2.30244041804041,2.30286003693567,2.30220945423491,2.30056685342838,2.30037349054851,2.30098346717572,2.30113681161243,2.30169266132938,2.30366242417082,2.32065572478882,2.35627162676504,2.3659581975291,2.36829938704365,2.3785651881275,2.38192246152516,2.38143855427727,2.38475924433958,2.38106900338026,2.38132195241747,2.38154568693041,2.38103558454002,2.38081483669987,2.38050425502254,2.38057932631069,2.38147959556264,2.3823352019604,2.38271151664712,2.38288864120836,2.38314293498332,2.38321148675702,2.38303724064241,2.38219320326894,2.38113795854693,2.37822224124129,2.35982372019385,2.31957468418513,2.30896761594286,2.30818346595438,2.30712279981146,2.30571926324192,2.30574056549134,2.30559942619059,2.3051692725993,2.30499382304408,2.30525424943196,2.30595845640444,2.30553908445499,2.30652495063232,2.30627190646733,2.30592761738876,2.30566520642294,2.30614370029751,2.30613897851044,2.30680192278547,2.3068115443017,2.30674613013171,2.30717594134358,2.30700310265905,2.30740041774709,2.308257897503,2.30748750844249,2.30770726236077,2.30796061175236,2.30798643964437,2.3082049880341,2.30836527831717,2.30841153990963,2.30790765654013,2.30795040375293,2.30822249042092,2.30879503958665,2.30893503066244,2.30976534641641,2.3103194737307,2.31021072274085,2.31054815368593
2.33297607398443,2.33356721622968,2.33553615379566,2.33604392251493,2.32412994046956,2.29545008251644,2.28288172290195,2.28147722321566,2.28174578933388,2.28290644373304,2.28092283170378,2.28082996187884,2.28030049953234,2.28091441843444,2.281787419673,2.28150863930562,2.28202205111612,2.28144903836549,2.28093057779569,2.28138370440529,2.28177521418671,2.28259500564257,2.28274878454392,2.28266172046203,2.28268569337875,2.28309944795441,2.2834141411078,2.28364563541645,2.28361443256955,2.28383841593135,2.28414532761318,2.28444213800247,2.28426571995547,2.28502873720977,2.28532638388687,2.28546759365068,2.28583856623696,2.28598361313478,2.28621955623121,2.28682514760635,2.28680123665273,2.2871353241948,2.28774669409082,2.2881572037382,2.28840826061014,2.28833143017729,2.28825082148107,2.28880855864297,2.29009921419442,2.29005977117334,2.29014240074207,2.29183146411112,2.29247737011418,2.29331979189818,2.29482752577716,2.29928021258596,2.31748366088839,2.35716051515114,2.3674859655295,2.36777954142513,2.36812196897938,2.36953944457052,2.37094746998887,2.37014625008227,2.37150536705649,2.36965197985802,2.37304824989546,2.37372534225289,2.37335802543677,2.37369769741164,2.37389917792292,2.37259310548524,2.37234387910371,2.37438231302663,2.37329575044997,2.37233180226855,2.37151951454268,2.3702679434655,2.36868125225543,2.36773550973448,2.36736295354036,2.36684066044689,2.36771719776374,2.37055078725814,2.3753493032632,2.37599049362109,2.37558353271266,2.37367160009425,2.36604696032266,2.35514314972467,2.31265198052228,2.30186528405557,2.30164793395498,2.30085038118517,2.30066013437992,2.30141835152639,2.30196039918316,2.301714919432,2.30159629451713,2.30149818129837,2.30229854825976,2.30162222314835,2.30194782800166,2.30119917258725,2.3014802174828,2.30157112599038,2.30188587382864,2.30277224108586,2.31320772211956,2.35702768973068,2.37584362810793,2.37800548303127,2.37788157926487,2.38006415400746,2.38249477674267,2.3839564598275,2.38548751149929,2.38438423242616,2.38414294416133,2.38414763141437,2.38435146592537,2.38276031433577,2.38237830132272,2.38209942852041,2.38215373659791,2.38278544303866,2.38345458686668,2.38376827298255,2.38387576156079,2.38347585661641,2.3834154492545,2.38079545286921,2.37161895781067,2.36075782717707,2.32693127383358,2.3109296749963,2.3083405907883,2.30832936485336,2.3074243574026,2.30589378299317,2.30551198576898,2.3060421528612,2.30550854737093,2.30607281407266,2.30613109455409,2.30577763631075,2.30588502557845,2.30645676105094,2.30606657091361,2.30560766118513,2.30573820644182,2.30630625578185,2.30653403916224,2.30662347576875,2.30653790279378,2.30731199255088,2.30711804363586,2.30801752810431,2.30745074938945,2.30724000395095,2.30735475572665,2.3079979417763,2.30859566582133,2.30859384408937,2.30871398054434,2.30857713217985,2.30874294076505,2.3085382980906,2.30875639326102,2.30927024469343,2.30939406018927,2.30926528406102,2.30997127180851,2.31129420973604,2.31118449374693,2.3111237652668
2.33392696984987,2.33531263155958,2.33617164978003,2.33663069003773,2.33540178629087,2.32357076152127,2.29582166143153,2.2837295776499,2.2814383927583,2.28175905288235,2.28139163303447,2.28196603160569,2.28180618260104,2.28175609021677,2.28259940223881,2.28251618209129,2.28181343866801,2.28167140577565,2.2816105765377,2.2819306986842,2.28272376137961,2.28413867830816,2.2832405967661,2.28245546810272,2.28271516031893,2.28349521005773,2.28461688828749,2.28444213342868,2.28351903042171,2.28394442858944,2.28468881242002,2.28445690568101,2.28481379259952,2.28556125432821,2.28587889936019,2.28611848464653,2.28627394290169,2.28635688824035,2.28667070534113,2.28708765854279,2.28705742625604,2.2873238934162,2.28763086118821,2.28816054795256,2.28856391245832,2.28872392745319,2.28887906548831,2.2896360541632,2.29028067541362,2.29052876540409,2.29058360875888,2.29153409671086,2.292164373849,2.29301573551563,2.29454852457646,2.2962937014712,2.30723010199333,2.34797793914913,2.36579859871576,2.36775747654664,2.36850560954581,2.37089519756342,2.37221018474941,2.37224402022004,2.37208285426667,2.37159325732619,2.37272525598833,2.37360710639537,2.37466693099754,2.37474702046324,2.37397578349303,2.37396973970582,2.37279880093147,2.3741187873825,2.37338595722204,2.37213338241796,2.37162591379184,2.37099206361564,2.36960995634065,2.37083720780169,2.37094400841405,2.36829876846762,2.36955290351466,2.3720929740652,2.3755362261301,2.37597373433609,2.37559565599515,2.37589042601937,2.37689936953842,2.37002001818002,2.32731538440946,2.31361458264688,2.30426202945262,2.30166779652498,2.30140451307836,2.30269195789523,2.30244765028614,2.30178782575334,2.30088251011246,2.29701067156574,2.29697329813841,2.30098104798446,2.3045200045743,2.31170805674352,2.30718667470331,2.31129573608845,2.30718687770395,2.31427935352116,2.32588861074857,2.3640090066906,2.37408086974259,2.37474138850175,2.37585605483675,2.37991535351685,2.3823511045335,2.38390245083284,2.38457963804645,2.38454698152868,2.38508971558243,2.38487833427631,2.38516729160532,2.38372963118311,2.38328978858031,2.3835239627142,2.38328870712293,2.38356230907807,2.38393037417179,2.38391577615771,2.38372279424842,2.38335738304643,2.38282519978948,2.37317334548235,2.33260854954826,2.3194863279696,2.31060705127218,2.30744623107081,2.30689682802321,2.30700162988889,2.30728971201072,2.30671048971728,2.30592858521615,2.30613590593177,2.30589533147734,2.30655546448908,2.3069390846433,2.30648689117896,2.30626252467015,2.30642218098371,2.30609401934261,2.30595597487262,2.30650999094232,2.30657694881499,2.30695438898004,2.30717717107993,2.30737834587209,2.30883921108674,2.30796038458714,2.30789158754935,2.30772729476967,2.30743900866867,2.3073809253185,2.30829956053937,2.30833395870051,2.30838885811986,2.30861150169107,2.30898498030931,2.30906651001459,2.30913186728245,2.30915337266375,2.30935228910591,2.30987470109925,2.30990401898324,2.31022361132264,2.31132762670764,2.31138426551296,2.3112080746731
2.33491232862161,2.33505226088048,2.33563282425781,2.33595576370045,2.33733895579948,2.33696574742284,2.32415557853118,2.29806157152571,2.29070601468109,2.28425222827338,2.28205354207644,2.28214083685692,2.28200792331985,2.28167044861201,2.2819899101963,2.28338713455811,2.28214330800434,2.28175426942732,2.28193326693166,2.28274377991932,2.28316137912949,2.28350829205497,2.28335707854613,2.28301138044953,2.28320700317223,2.28368935945621,2.28405160661168,2.28419407451609,2.28423389911916,2.28483574983051,2.28518767978467,2.28501222122781,2.28520674947212,2.28560621026553,2.28639157063876,2.28682785788606,2.28749405575328,2.28734270400765,2.28708050897497,2.28696818899155,2.28733540174981,2.28744209730484,2.28776085916455,2.2883596720648,2.28867378272222,2.28908222350054,2.28931698329925,2.28996464906944,2.29073951350582,2.29086846451519,2.29097639320328,2.29124567312045,2.29234276905452,2.29265884259609,2.29382620833399,2.2949367178766,2.29877875543337,2.31567884858075,2.35251618202926,2.36654565789999,2.36934008033135,2.37116126257803,2.37211105711928,2.37252974047879,2.37290952077344,2.37339966939483,2.37373421879524,2.37421691855844,2.37457295514083,2.37402402070882,2.37380332057838,2.37364996553809,2.37327602917229,2.37399184840352,2.37431650951515,2.37276113992407,2.37207342757129,2.37319264666945,2.3711492133506,2.37050193749796,2.37151024352672,2.37165483337248,2.37664773884899,2.37662019810517,2.37716364026525,2.37849051288288,2.37801341690814,2.37729639394389,2.37788798395106,2.37839020504649,2.37138572395004,2.3610789980919,2.32485186754537,2.31522776773765,2.31512445888713,2.31366505242058,2.3045080716326,2.30019290175155,2.23393132980162,1.9860286805925,1.99021382058619,2.24820638910455,2.31530266506891,2.34940195158163,2.33379449243578,2.35164307855942,2.33391646596158,2.35926165940624,2.37108387834376,2.37792078737654,2.3760180345869,2.3731292010172,2.37424080314982,2.37978907499423,2.38193874292816,2.38325021782932,2.3841598880849,2.38425310455245,2.38449840355723,2.38451568604843,2.38512357947978,2.38450290257269,2.38481157998854,2.38543290339511,2.38454903112146,2.38459258197901,2.38419682095428,2.38401999604441,2.38395448783104,2.38176237159847,2.37320500943783,2.36102497189812,2.32011790076204,2.30903165956999,2.30773128580091,2.30653960277702,2.30627619134297,2.30687245959309,2.30670639605965,2.30618531879806,2.30639968697432,2.30598221007686,2.30565281812427,2.3060694037728,2.30688385096834,2.30677834956549,2.30617579441842,2.30602308259156,2.30580544626544,2.30614601750142,2.30631556360227,2.30677122881866,2.30726447061939,2.30770239405511,2.30775463444155,2.308149788167,2.3076422843438,2.30784070749595,2.30788318300671,2.30801821804754,2.30781284766068,2.30826082044657,2.30852698447381,2.3086120738262,2.30845443906806,2.30871001741836,2.30909734586969,2.30915224286638,2.3091439906105,2.30925374851191,2.31027234172427,2.31053859335164,2.31121913309434,2.3118163167149,2.3117291783878,2.31207450285979
2.33491967390843,2.33524619047787,2.33545030040201,2.33606624732607,2.33729496826349,2.33895947656963,2.33728665456554,2.3322905074537,2.32512632927477,2.293133700911,2.29118426268085,2.29141444574578,2.28368847193301,2.28176652890392,2.28187935335926,2.28209060432194,2.28202952343158,2.28223618242713,2.28228284479234,2.28293038926306,2.28359731756778,2.28351375804868,2.28425992363866,2.2844445458665,2.28449267875316,2.28405806833223,2.28407531883158,2.28398231938282,2.28487314067597,2.28561956079005,2.28515080877163,2.28505713960711,2.28523986339071,2.28606002040562,2.28682515821833,2.2869594989175,2.28724376480307,2.28747178092492,2.2875073185507,2.28739170989649,2.28805201045037,2.28787635029734,2.28833753063903,2.28937395721707,2.28999563730989,2.28966235526785,2.28956514243461,2.29001847239279,2.29090145296777,2.29099849306051,2.29142747011114,2.29151528380861,2.29244789715169,2.29253790955194,2.29344225296491,2.29445389843182,2.29616955105473,2.29981804071978,2.31851459271768,2.35967415898706,2.37008618352865,2.37153253371693,2.37223338333051,2.37248736265271,2.37292664006466,2.37372798274397,2.37393930789505,2.3750389293379,2.37463067533334,2.37402674537697,2.37391636698999,2.37359812597581,2.37384706124226,2.37417914959561,2.37393464258001,2.37434436376833,2.37317284441421,2.37298073999514,2.3720725778744,2.37169345091516,2.37343696795903,2.37775699513439,2.38117251377702,2.37999233533396,2.37861634300857,2.37906440616583,2.38054108529811,2.38033417346386,2.3789707746336,2.38060087480879,2.38323784996287,2.383897570507,2.37179733104859,2.36756806387285,2.36753652100318,2.35894203699298,2.32389123139616,2.2474561497658,1.79749610723282,0.985994130070004,1.06191062811828,2.09715401394151,2.33247279595339,2.3690400909749,2.37282555511318,2.37836886983812,2.37271121625104,2.37738612109753,2.38172961511551,2.38486235224342,2.38256776244815,2.37542942376317,2.37554261006287,2.38078562027456,2.38302166685224,2.38379872353797,2.38388516653439,2.38448251680198,2.38441984052156,2.3841758590606,2.38475809064138,2.38466469917626,2.38528824296411,2.38549932445853,2.38476875178167,2.38457924291971,2.3846278164488,2.38433136221699,2.38191514678451,2.3655036289537,2.32979853458244,2.31886814417456,2.31023640199967,2.30761720488694,2.30641111587059,2.30651233041515,2.30610970463772,2.30641249987334,2.30612230786604,2.30564861257461,2.30600126156364,2.30589226146617,2.30595730331263,2.30621371102878,2.30699684231737,2.30668545391269,2.30627765958508,2.3069010118993,2.30623762223047,2.30616420757833,2.30652196365571,2.30705000198888,2.30715937923695,2.30739160360213,2.30764638687781,2.30844046041588,2.30782113358153,2.30752046159523,2.30767042510716,2.30816911255401,2.30823105411225,2.30840717773845,2.30865543639185,2.30875532940223,2.30940031367082,2.30955009932725,2.30958048965978,2.30969268964082,2.30945701427799,2.30965539827855,2.31014134502172,2.31095150348094,2.31144947245437,2.3113328112783,2.31210468037172,2.31316551816411
2.3353464081287,2.33550943529071,2.33547941726128,2.33651870385609,2.33862961624242,2.34081673821175,2.34170751945928,2.34174109815172,2.3344725528562,2.30849911401645,2.32829720000666,2.32757692296133,2.29151357093566,2.28250840083887,2.28271479150499,2.28330783424542,2.28324751565505,2.28313003633702,2.283096269405,2.28306352547109,2.28347253941339,2.28412397103982,2.28545468925199,2.28696203517737,2.28599205263974,2.28520034128163,2.28454037987252,2.28438317304733,2.28462435791432,2.28520816411607,2.28585915242467,2.28599991154044,2.28566534850873,2.28619797093597,2.28634234193142,2.28699740960349,2.28694328927042,2.28750128748402,2.28751049911587,2.28816531645887,2.2886851764221,2.2886109523936,2.28887878515983,2.28997146564184,2.29185943706475,2.29071013258701,2.28983228063121,2.28991457481295,2.29059568244169,2.29112504579977,2.29126620185758,2.29258316877726,2.29302687029738,2.2930420479075,2.29346460755493,2.2942881592056,2.29612473665954,2.29739427839711,2.3085247737348,2.34932827197285,2.36195010375765,2.37097633326028,2.37276805020086,2.37294729090321,2.37339641171353,2.374291697831,2.37435402849074,2.37480750085871,2.37498928049802,2.37441632097884,2.37434598781208,2.37436661799175,2.37453639830758,2.37467638871191,2.37438767398895,2.37435975135932,2.37397723706568,2.37396440308741,2.37348457306059,2.37199428403008,2.37364535729367,2.37845880876899,2.38175395288351,2.38217158301593,2.38189453443163,2.38200970427608,2.38253226333865,2.38152025828494,2.38050923430096,2.38304096960625,2.38262356779227,2.38490605437102,2.38263594126817,2.38169287119562,2.38342069671152,2.3792325525304,2.36797705603658,2.10808874261145,1.25759806403284,1.79360792390482,2.05361549442321,2.3141742789134,2.3717670983877,2.37941259089617,2.38069575616403,2.38119538503065,2.38047354017319,2.38113509802575,2.38195854082399,2.382772004212,2.38353023644095,2.38221819464112,2.38202227997087,2.38300342785855,2.38384641905926,2.38440273537477,2.38408094556753,2.38441789193125,2.38457977996376,2.3851017457214,2.38551950060333,2.38482101268205,2.38537703093551,2.38545289137825,2.38532896175959,2.38511441514196,2.38342685427949,2.37487839259981,2.36277155822559,2.3288807442786,2.311175508336,2.30802629733952,2.30775397858089,2.30739358998314,2.30711412431287,2.30800978212021,2.30632154320376,2.30626210306351,2.30634292428317,2.30594922958383,2.30638173178143,2.30650808098426,2.30682688114744,2.30715945222892,2.3069358721473,2.3068845012589,2.30711572773462,2.30806336783505,2.30708265588564,2.30673126833841,2.30733288931493,2.30793722195163,2.30780131495463,2.30763299813381,2.30790084248833,2.3086704108046,2.30799624957141,2.30822715001537,2.30793297390463,2.30816734648166,2.30855011787865,2.30872233402004,2.30949490187761,2.30957897897835,2.31000336376921,2.31099093087413,2.31091320249863,2.3100758224024,2.31004371732595,2.31010012730685,2.31026190013605,2.31082253261202,2.31154446141019,2.31147708960325,2.31264640098019,2.31500282126471
2.33696054225401,2.33682677937694,2.33702900602524,2.33830909799661,2.34176297523237,2.34132833478364,2.34149251987678,2.3414301647994,2.34059347957318,2.33614961758799,2.34329569495979,2.3381173401906,2.30289419225481,2.29443389359816,2.29279611033863,2.28701758157824,2.2847010093949,2.28392142199003,2.28374607620564,2.28398218532243,2.28418947297979,2.28458821398905,2.28558876125123,2.28617369901757,2.2854303851529,2.28472320965359,2.28451507400891,2.28450891478211,2.2846327174357,2.2853096940451,2.28605956911887,2.28639447947288,2.28602861489223,2.28614905972263,2.28636408966852,2.28753288592444,2.28751891554007,2.28763782933315,2.28741123864241,2.28812603405081,2.28885173273277,2.28864901879521,2.28925087120318,2.28948885913098,2.29106305607407,2.29197424966401,2.29073382126894,2.28987458429409,2.29076011610464,2.2915954601555,2.29145998705543,2.2924897679145,2.29321537222464,2.29368400380501,2.29403678213816,2.29407846371857,2.29514105757582,2.29636753571039,2.2992029057106,2.30894681063436,2.32016668020697,2.35467887016257,2.37043091652007,2.37265884784947,2.37342346487522,2.37475594617547,2.3744357399177,2.37420414438697,2.37442777539649,2.37468276568987,2.37474491863642,2.37520728439198,2.37538339070938,2.37512186132249,2.37426404560043,2.37411691346014,2.37465448966552,2.37596074244429,2.37538775280929,2.37331186192118,2.37330729417148,2.37633270824066,2.38024592507633,2.38175030858199,2.38282658291538,2.38311457803352,2.38261547436548,2.38187754257377,2.38093777865758,2.38176986484014,2.38146287969604,2.38271211945491,2.38387861577673,2.38291469036525,2.38347047005994,2.38257487961385,2.38188715538638,2.3188843715486,2.12315758902795,2.31582425415841,2.37903632376471,2.38276400181668,2.38331359025515,2.38429690084125,2.38196897865602,2.38239216986586,2.38357000335473,2.38354273423458,2.38405062099766,2.38464880041738,2.38484873828344,2.38443460186495,2.38387689706535,2.38338097479793,2.38322179087407,2.38319425155398,2.38321007588492,2.38342424901211,2.38371621358263,2.38475997726094,2.38533531737697,2.3846337754923,2.38536775290997,2.38551971949543,2.38345257436324,2.37490447298083,2.36486195513696,2.3317012828849,2.32076420237599,2.31249803805549,2.3099904626165,2.30800186395094,2.30731400964902,2.30684108030397,2.30701046382964,2.30725522650101,2.30707399450015,2.30811521665513,2.30721277055738,2.30737693514012,2.30727169928257,2.30807305791872,2.30740225033092,2.30752658602423,2.30686628621126,2.30705833386994,2.30808275881855,2.30780857854143,2.30779967180731,2.30738353947169,2.30756680563925,2.30825524032131,2.30809606365962,2.30803763183484,2.30819863481653,2.30851939642732,2.30808743325052,2.30854840035891,2.30851833690786,2.30889216695866,2.30909521856252,2.30987380712718,2.3102735058283,2.30991312384393,2.31043698825563,2.31058431896944,2.31058937560888,2.30998871297289,2.31036362227854,2.3108720514198,2.31088866389569,2.3113179442848,2.3114850414865,2.31204628921432,2.31323104122284,2.31505202653572
2.33822397707245,2.33995560241213,2.34100117753981,2.34125730122085,2.34209202643929,2.34199976583953,2.34218798182336,2.34146959374339,2.34168151071626,2.34248804383195,2.34448211153574,2.34422104116767,2.33831029938251,2.33801975691737,2.32902209435877,2.29557314773617,2.29277030964381,2.2867236432051,2.28513292724003,2.28479401723181,2.28484334704892,2.28522875722336,2.28554365972718,2.28584877263232,2.28573836166204,2.28520677924996,2.28515614542544,2.28502900543341,2.28528262906161,2.28628002685923,2.28602500381736,2.28628551623398,2.28629975272345,2.28630235981713,2.28662538024949,2.28726669487156,2.28769305437408,2.28761064026981,2.28766072836324,2.28778471909583,2.28882967791121,2.28915303929963,2.29046512281778,2.29068513423823,2.29099473511447,2.29209298027837,2.2916018179054,2.29123323076812,2.29221600795133,2.29176450416122,2.29144705221417,2.29193728365995,2.29282558173312,2.29463765843776,2.2944362766065,2.29423624463761,2.29481362176511,2.29555229708918,2.29632968845404,2.29836069305358,2.30175645113594,2.31857781345764,2.35427866659777,2.3699969087512,2.37243137298642,2.37350836558546,2.37398186512734,2.37431582729722,2.37473284830495,2.37537936558506,2.3756064898678,2.37694892734137,2.37741514264681,2.37694048931969,2.37579672750929,2.37575474842039,2.37564857486972,2.37629020854683,2.37660782020473,2.37573424451775,2.37524872719831,2.37988671188215,2.38177011388786,2.38221223110125,2.38282608328394,2.3832507325881,2.38292272895257,2.3824423848091,2.38222873249266,2.38394724655771,2.38261178701101,2.382969544619,2.38374348775144,2.38352016276571,2.38405098284641,2.38367276838142,2.38394580887548,2.38339028148723,2.38132881995428,2.38622247444923,2.38648286259802,2.38651237792765,2.38577157899313,2.38726386351725,2.38478437884133,2.38514305250725,2.38588221422184,2.38520650083914,2.38522429677016,2.38633892993815,2.38722875204845,2.38546469126048,2.3850002533363,2.38349693193444,2.38257431521746,2.3822550082817,2.38262001800197,2.38279815703234,2.38259811696778,2.38286933063774,2.38351761989193,2.38392069362053,2.3851884120978,2.38567373531175,2.37531126495041,2.33439864514427,2.32141666357773,2.31142678587428,2.30935452491811,2.30980599949533,2.30889666281322,2.30769985228416,2.30716497568979,2.30630502453218,2.30661042614015,2.30667546763646,2.30668528015726,2.30768932953405,2.30787885573847,2.30843305240966,2.30860144133586,2.3077790209928,2.30769855062403,2.30821116394726,2.3080705393436,2.30743503516675,2.30782008366523,2.30800093048716,2.30832801899549,2.30778374365149,2.30808872123464,2.3081349515229,2.30799715309613,2.30828491621383,2.3084955113349,2.30844342348207,2.30836664673709,2.30888613432017,2.30876994827073,2.30935366685033,2.30955971504947,2.30966857099571,2.30969352978553,2.30997286050168,2.31087508178832,2.31111179022613,2.31109064035039,2.31065314539709,2.3107931372999,2.31201993391161,2.31162999928307,2.3114800976644,2.31202616150903,2.31252010148199,2.31293178927632,2.3136779668025
2.33873700182672,2.34061265390072,2.34157779034485,2.34192090188326,2.34196011420589,2.34222959943541,2.34285784702583,2.34258933894802,2.34263895820031,2.34328200189331,2.34459438652718,2.3452452765934,2.34665261191382,2.34986865493297,2.34181312407006,2.31272263617304,2.32733433131983,2.3046576557451,2.29792409454576,2.29797744737293,2.29724700450423,2.29592921944142,2.28782699536173,2.28548179521114,2.28589643894614,2.28570796558933,2.28617871545932,2.28604497344988,2.28610627938058,2.28637730070819,2.28630692754493,2.2867147499002,2.28655730744402,2.28671102255605,2.28755686346741,2.28755591478696,2.28798727608754,2.28768626496804,2.28817207189855,2.28838333615179,2.28907709891545,2.28915659465059,2.28995626437812,2.29035953871179,2.2906172326969,2.29124114363079,2.29150093310461,2.2917364539316,2.29238938901306,2.29219233218092,2.29185557654996,2.29273034789954,2.29294853332258,2.29404294570029,2.2944552585371,2.29390645833582,2.29393714169639,2.2951670371211,2.2963248687097,2.29780534562659,2.29915462090415,2.30235181016437,2.31898444038192,2.35451036705856,2.37029305803355,2.37323874607283,2.37419028795774,2.37507640991686,2.37504388293683,2.37551700117805,2.37617531078098,2.37708406355092,2.37779440454422,2.37831262395653,2.37909388033676,2.37859684476062,2.37694893736443,2.3772880479119,2.37800512419953,2.37778445234135,2.37917057327653,2.38290677533322,2.38357439445354,2.3830788033182,2.3834722867564,2.38452207112945,2.38447988223032,2.38365934247508,2.38265041193083,2.38387434620592,2.3853282454483,2.38770209150184,2.38595811538721,2.38620124695691,2.38751352045531,2.3848377089679,2.38424545854242,2.38581193433873,2.38513100169031,2.38561004067688,2.38572659868204,2.38706611932999,2.38722343010605,2.38561496273977,2.38483057871184,2.38612232536958,2.38584531650377,2.38403259357956,2.38486692055698,2.38614740073288,2.38646555472799,2.38624102558767,2.3856071834698,2.38381633500299,2.38313152462496,2.38275350813325,2.38226606968011,2.38203036253206,2.3812554768751,2.38161520477917,2.38244677696344,2.38288559951321,2.38185777096381,2.3752086771641,2.36346659589455,2.32154853708511,2.31041211308979,2.30843550062866,2.30791982821683,2.30795085561944,2.307042173361,2.30716851958136,2.30708773021988,2.30648502533723,2.30615750193478,2.30615766400369,2.30731478959472,2.30823736052983,2.30877021107493,2.3080106089579,2.30805935619815,2.30731044436247,2.3073141804384,2.30786715725718,2.30899900114944,2.30833321509018,2.30859510540849,2.30935986175514,2.30935376758714,2.30869515256596,2.30857739381338,2.3085803165397,2.30820955858887,2.30832308956016,2.30908572663076,2.30914047969544,2.30917914573153,2.30904990791983,2.30889714769491,2.30962204336985,2.30963314011367,2.3096289911799,2.30990309739167,2.31045606468952,2.31127034320984,2.3117502296108,2.31112352354536,2.31154539711191,2.3117318215356,2.31210074261619,2.31234646841799,2.31255261395652,2.31333609645165,2.31360039057216,2.3138539121119,2.31420792892615
2.33920124195434,2.34008145034159,2.34118942023679,2.34151759832447,2.34170401708238,2.34230739724038,2.34275131420951,2.34414113373187,2.344517477345,2.34499170984272,2.34589037017376,2.34617798749941,2.34748836989687,2.35007055674752,2.34910562773088,2.34450301317609,2.34951089960097,2.34755493356403,2.34843932072996,2.34844469426904,2.3464956730704,2.34053798802452,2.30711826205445,2.29670050732379,2.2906298729208,2.29727329649192,2.29932476132248,2.2996134302118,2.29951049391067,2.3003123510038,2.30015701034873,2.30041661035911,2.29771113935015,2.29170638517943,2.29849466992983,2.30059561927579,2.29937766221844,2.2907067314502,2.28925295503165,2.28892743023118,2.28902647492604,2.28911400301359,2.28977450557647,2.29035321343479,2.29074009227924,2.29050372129985,2.29124070560536,2.29136090638285,2.29181026990452,2.29209383479542,2.29251164979578,2.29331366545369,2.29305303114307,2.29375937550919,2.29458286718779,2.29389230011725,2.29417304440294,2.29551274334288,2.29629503227209,2.29652312643953,2.29724558977782,2.29893344455829,2.30249426327124,2.31975986955103,2.35507776803604,2.37213069844393,2.37501689608731,2.37527313920943,2.37526850760204,2.37565054698136,2.37674556391512,2.3786167519681,2.37867854327362,2.37944624552476,2.3797166267953,2.37929690059665,2.37900048882089,2.3796483783441,2.379348359591,2.38090729118349,2.38734255807668,2.38877901695819,2.38726042852571,2.38473757657314,2.38402791706095,2.38416089259997,2.38481834337489,2.38512324299274,2.38415964240425,2.38695986874949,2.38843847235773,2.38949704344583,2.39028776228392,2.38976558277915,2.3879229867563,2.38650504929181,2.38568501204652,2.3874983872953,2.38633062766293,2.3866690005439,2.38858049486728,2.3871999681615,2.38608538190066,2.38635547332997,2.38574801336513,2.38653408285778,2.38577340206362,2.38496069867726,2.38526278024572,2.38563292491563,2.38623365172466,2.38643620875502,2.38670442231821,2.38655703782399,2.38520566071056,2.38400392777357,2.38220693517296,2.38155640864333,2.38144127458133,2.38158909322523,2.38200041083964,2.38004064354891,2.36475376267375,2.33178410093364,2.3226937942101,2.31250063306118,2.30875409731736,2.30748227144957,2.3067664624167,2.30705539619388,2.30690510695428,2.3074018401623,2.30695767910696,2.30654605655073,2.30630950905409,2.30690884515316,2.30718932804896,2.30743505157872,2.30800701300253,2.30779590889095,2.30760314419056,2.30724285858423,2.30757665056621,2.30914873890218,2.30911300867065,2.30889955917954,2.30935122820853,2.30945264859676,2.30972595681341,2.3093035436917,2.30916386553501,2.30942838219324,2.30896988143302,2.30862797850449,2.3089633083237,2.30971645133562,2.31043942357678,2.30985931022803,2.30970125351416,2.31011312144632,2.30973328165,2.31006863390473,2.31031021642622,2.31087597992709,2.31140953719006,2.31144007778846,2.31151182158563,2.31205401384369,2.31254481228637,2.31234757093501,2.31267446966634,2.31381450169458,2.31533629305923,2.31482818360858,2.31423220421816,2.31466257226665
2.33988758118178,2.34063966275544,2.34150306143283,2.34213361054956,2.34232172875265,2.34269885431775,2.34301846388437,2.34423939002031,2.34569394414396,2.34743483051591,2.3470385875672,2.34768574867678,2.35071769276026,2.35024215731152,2.35104616532551,2.35351089085878,2.3560938313839,2.35719564753995,2.35862345578375,2.35853456500939,2.35912620553076,2.35947420659414,2.35157280754958,2.34135958561252,2.31592344537627,2.34208808393323,2.35098040409882,2.35160403809956,2.35110384730631,2.35363925360262,2.35484639018298,2.35440409796808,2.34389931525085,2.31828497695552,2.34407994258982,2.35240735890496,2.34608507685944,2.31134322333585,2.30334966745922,2.30115672608422,2.29228716710519,2.28993586418226,2.29040600692497,2.29082873898083,2.29197299316675,2.29137872569027,2.29151081156988,2.29164041470248,2.29150744899745,2.29216438359613,2.2924463645235,2.29294193409003,2.29339476953795,2.29385676313308,2.29438530237375,2.29452086891495,2.2952049364317,2.29611888431519,2.2959487876725,2.29615204310665,2.29680574739287,2.29787469012861,2.29919116324564,2.3026731121533,2.31930276865329,2.35603446491221,2.3724244663107,2.37506521284484,2.37557351335083,2.37601636228868,2.37686647570333,2.3783267138934,2.3788498209858,2.37951156188941,2.37924983679259,2.37922838780318,2.37945485197239,2.38017901742362,2.38042442141154,2.38107516115501,2.38799988437478,2.38913970051218,2.38712944738679,2.38733080897755,2.38597912075369,2.38563495189687,2.38537507461211,2.38529673928549,2.38516060951186,2.38732065367864,2.38844579848035,2.3892433497274,2.38958823762232,2.38991455773639,2.38818067844717,2.38926887780526,2.38966998679816,2.38845569234484,2.38903849818925,2.38902394750589,2.38920153372535,2.38863647830356,2.38709274440823,2.38707563149809,2.38740617751982,2.38814055757587,2.38682290872987,2.38580161564093,2.38607216098981,2.38615237069287,2.3864025130365,2.38762557872886,2.38783086427235,2.38826759882591,2.38613344221186,2.38469373391177,2.38268225751527,2.3812187432591,2.38107404355876,2.37938533984102,2.37126217531435,2.36135737919645,2.32852135350686,2.31247124086907,2.30997373373918,2.30895650808404,2.30844784516911,2.30801362936244,2.30698859516829,2.30740984237451,2.30811284023049,2.30724630257977,2.30701015974861,2.30694028183538,2.3073663147035,2.30806491778022,2.30779660633128,2.30743170471793,2.3074609213859,2.30738906834573,2.30762978028639,2.30759998903418,2.30831846082759,2.30973904000753,2.30966985169703,2.30884463013954,2.30941934919775,2.31019016688302,2.31017664983182,2.30972490675169,2.30929516097016,2.30892981622818,2.30934288489388,2.3096602530137,2.30978827275419,2.31115409777425,2.31208883084047,2.31081692035313,2.31055899039368,2.31057790929454,2.31076367117788,2.31077099623579,2.31086155509868,2.31197864738621,2.31259636319301,2.31218039995038,2.31290743192849,2.31334551762457,2.31359541486757,2.31363907878557,2.31380187940656,2.31452174202345,2.31416358222667,2.3144979008373,2.31477827222309,2.31502019980489
2.34017100026649,2.34101289889021,2.34180617180947,2.34311714327719,2.34457434014028,2.34489164017598,2.3450200348526,2.34570002035201,2.34645096693999,2.34857232720987,2.34992192122571,2.34994379642397,2.35187183797011,2.35171467321387,2.35342001541722,2.35395230043495,2.35586226136301,2.35761256761827,2.3579348936301,2.35893639705148,2.35920117206387,2.36022074942919,2.36052786378527,2.35812677600725,2.35180706302934,2.35973753843334,2.36273416063723,2.36362290142423,2.36409139275198,2.36662151353871,2.36807894892274,2.36779049419987,2.36537162789448,2.3602244913186,2.36815257546525,2.36896892136836,2.36678055608006,2.35769492381692,2.35752306381653,2.34944631208243,2.31313650718427,2.30409428611241,2.30222202122353,2.29362495456271,2.29236489501501,2.29237404724335,2.29224878378524,2.29193955324723,2.29202090956919,2.29342746538749,2.29303433607036,2.29338362923244,2.29389006178555,2.29377758621506,2.29435836801485,2.29507119202527,2.29572119473812,2.29609578330212,2.29593272305564,2.29592388815669,2.2968164712862,2.2977552707848,2.29929032468159,2.30017851513376,2.3036202772694,2.32043700285704,2.35603561395598,2.37252407961222,2.37561329515835,2.37596485068035,2.3764951155462,2.37735866023429,2.37774069048622,2.37836888383427,2.37886471740613,2.37926094926919,2.37938780051094,2.37983355845604,2.38042681311358,2.38155459474655,2.38771571047475,2.38882466631793,2.38801005921941,2.38792479500699,2.3878110904109,2.38795093271601,2.38641480512103,2.38593671100082,2.38536898253649,2.38670290465938,2.38769447666105,2.3882950321857,2.38868157706285,2.38965268881481,2.38885871901691,2.39031739386347,2.39025499964442,2.38956147067946,2.38958866414712,2.38894690909575,2.38884674144998,2.38879880247028,2.38840653540149,2.38741625649513,2.38844851781711,2.38928765031639,2.38804397287469,2.38763135438836,2.38817699236568,2.38867887573487,2.38855257385509,2.38777834949869,2.38722200553786,2.38675565889269,2.38574704567263,2.3848387380303,2.38337832452013,2.38253739751818,2.37913088093027,2.36329907713056,2.33055333954878,2.32060759462161,2.31249445699553,2.31010565697218,2.30938113996717,2.30907845897092,2.30969930687873,2.30936656337188,2.30719240415652,2.30718192156265,2.30813040294416,2.30743501358378,2.30829133338357,2.30881195422719,2.3086084055009,2.30831405706491,2.30810870438524,2.30799636333626,2.30793742889082,2.30781510849406,2.30780899420417,2.30820718000985,2.30878782899803,2.30925901094068,2.30955911744831,2.30934137275079,2.3096604721007,2.30977252503249,2.30968279222493,2.31015908407515,2.30977544791447,2.30883010980106,2.30946777203467,2.31027171190557,2.31052248674678,2.31181559107774,2.31123999689319,2.31102386222132,2.31078705233844,2.31105594282688,2.31097249078865,2.31091464132338,2.31134309845259,2.31306593663165,2.31267997803775,2.31288415690133,2.31368431763419,2.31377679527531,2.31436812431755,2.31387507910788,2.31381284774363,2.31401497103804,2.31431503027283,2.31496948469963,2.31541697776267,2.31617550400322
2.3411066727993,2.34160375137608,2.34223334494166,2.34373283734664,2.34473648035311,2.34569508536918,2.34676102876061,2.34642490761598,2.34751907585839,2.34927628664849,2.35111320106453,2.35127507884829,2.35264962803354,2.35497702014149,2.35617096532154,2.35454020919836,2.35580672670636,2.35892757075043,2.35760227850652,2.35819711310862,2.35825557614878,2.3590905941351,2.35975405260431,2.36001606914982,2.36028339200373,2.36164214151946,2.36270067006607,2.36432466763184,2.36639475695361,2.3687167911892,2.36890009786029,2.36782435707546,2.36808639812498,2.36905223596582,2.37063295967539,2.36969098587771,2.37079841717716,2.36992643855281,2.37097529601372,2.36909587768773,2.3589621302017,2.35685264343129,2.34846206081606,2.31194937657808,2.29474169517185,2.29250837371627,2.29286363032417,2.29399214435971,2.29349404384239,2.29335145905097,2.29318715918423,2.29322275320312,2.29357206391878,2.29418209123379,2.29431023448698,2.2944916257438,2.29486961859704,2.29546081085779,2.29563009869884,2.29614229032085,2.2970136193831,2.29807664609606,2.29901933635835,2.30104383789378,2.30077926363443,2.30359565985676,2.3208416978639,2.35468033021818,2.36376590508171,2.36652291898937,2.37430529290002,2.37688138624568,2.3775485939625,2.37785215845029,2.37807066388352,2.37822703897074,2.37909694192632,2.38001448713602,2.37990788075345,2.38177396683588,2.38893698991575,2.38917907983173,2.3894842299858,2.38932191985291,2.38920852927163,2.38918805083387,2.38912108361243,2.38895943494578,2.38698438597828,2.38789535783709,2.38830280135327,2.38843210028652,2.38922684405898,2.39011333801909,2.38996364932792,2.3903769086843,2.39018998907041,2.38961113156576,2.38897463374965,2.38873978244493,2.38890999927381,2.38827589695515,2.38845531394616,2.38856319478893,2.3891347424985,2.38935474837021,2.39022963497131,2.38989291229046,2.38831691999356,2.3887254451134,2.3890440747082,2.38819610651183,2.38671011969998,2.38584547797943,2.3849150924765,2.3839672519614,2.38350006177219,2.3813309038953,2.36489024536297,2.3285441368104,2.31259166530898,2.3099387349486,2.30933354535769,2.30905301909303,2.30863714790711,2.30860963090315,2.30999961118621,2.30929658540188,2.30717444527458,2.30656280766541,2.30761106150835,2.30815984557374,2.30865872680093,2.30939291286571,2.30905516992239,2.3091404752684,2.30833817612599,2.30827761153404,2.30843840398087,2.30821889755605,2.30836418840405,2.30847741734704,2.30856125603811,2.30916690969688,2.30964897334656,2.30917895141902,2.30914802584171,2.30944207334554,2.30983659833915,2.31020351369496,2.30967090387142,2.30972638353172,2.30974591903724,2.31012114373658,2.31066600185118,2.31106540513546,2.31061595245151,2.31135344977461,2.31104341562011,2.31065533541232,2.31062989922639,2.3108666165474,2.31163001649405,2.3125128485871,2.31266666951339,2.31320710806698,2.31384238162524,2.31405295781907,2.31416750295706,2.3135077711745,2.31367795524638,2.31402302600928,2.31478802296219,2.31511016227368,2.31571682862339,2.3164426606398
2.34191239363826,2.3427573806203,2.34332523018696,2.34406513149733,2.34455431701878,2.34539343963266,2.34639060327498,2.34748405579302,2.34914889204843,2.34979703820021,2.35098618480145,2.3518906168335,2.35228512226099,2.35445729420921,2.3579702793624,2.35547355033766,2.35542711672752,2.35667655948576,2.35682151849088,2.35739939862947,2.35799918627788,2.35902254648336,2.35950016049937,2.36027222956786,2.36162627832941,2.36264082187227,2.36471552046569,2.3657526811139,2.36770359939388,2.36898943218107,2.3674723147881,2.36721039317915,2.36803365628688,2.36889387191416,2.3694125034729,2.37324121788516,2.37359465252403,2.36975633514133,2.36991015644584,2.36986014140737,2.36885059565911,2.3685412629096,2.36692967937671,2.35092833086018,2.31159320588976,2.29407785005861,2.2920972760266,2.29435809247321,2.29370387872363,2.29375003341676,2.29381576673785,2.29346080123343,2.29360761101104,2.29487248798426,2.29470778765325,2.29455511705779,2.29481396403316,2.29610467489724,2.29607385460156,2.29733048528321,2.29817180873201,2.29870249945144,2.2986982550217,2.29948598643806,2.29987799421888,2.30096135964736,2.30451407918458,2.31379679762202,2.31688667215771,2.32496096623356,2.35842794159671,2.37423974564982,2.3771579959483,2.37688972648088,2.37705410081172,2.37727240953707,2.37799185864917,2.37888363041662,2.38049097803068,2.38287354459511,2.38848830216225,2.38949929108088,2.38942212751641,2.38920879713658,2.38871784263574,2.38876043725179,2.3891563858661,2.38987520355826,2.39076294311924,2.38998374436417,2.38830900588076,2.3888746958979,2.38922857635133,2.38921840941522,2.38888029571459,2.38973351918083,2.3893646347599,2.38893226660195,2.38872368630905,2.38893520230451,2.38962592637945,2.388867994269,2.38866330918843,2.38853465327253,2.3885420307453,2.38890210351133,2.3894170019673,2.38933603515585,2.38900268795965,2.38889237750084,2.38900345622142,2.38892200492361,2.38764050908406,2.38539449857879,2.38249993912174,2.37455183698778,2.37200626898723,2.36335243475714,2.32869703934735,2.31223658164413,2.30983975742525,2.30936486845117,2.30825368076483,2.30834484295448,2.30826423161863,2.30840151214069,2.3089515385707,2.30867958422881,2.30767094916853,2.30747405109238,2.30836657884053,2.31050321549896,2.30902535998654,2.30895167132692,2.30912883006482,2.30897059194339,2.30931005184163,2.3097700608019,2.3089158261232,2.30858239656727,2.30860789090769,2.30888784662141,2.30928113893819,2.30956115421513,2.30924248754751,2.30924039177081,2.30952159419353,2.30996420577744,2.31032891637546,2.31077304441917,2.31090517759041,2.31246918533159,2.3118134943188,2.31075548313355,2.31128885674583,2.31165583117559,2.31098999601984,2.31131629020287,2.31147038582622,2.31123972852847,2.31130200203625,2.31212691779723,2.31306965154515,2.31234880621807,2.31258558694017,2.31368603040651,2.31441579643712,2.31435958838556,2.31379020116685,2.31215439362778,2.31474766292677,2.31535520538597,2.31565567977031,2.31630006229574,2.316182587797,2.31659718322925
2.34309296121649,2.34524402857642,2.34479574870841,2.34474796010784,2.34524658765242,2.34630995053719,2.34771207253713,2.34847951940304,2.34960118109402,2.3504044708927,2.35105261684053,2.35329516901296,2.35301222466754,2.35367476561383,2.35535326136763,2.35530274045181,2.35599158517757,2.35641964960516,2.35730625866988,2.35780145287035,2.3589981021606,2.36005525085392,2.36111092024062,2.36256620622874,2.3630305352412,2.36561392793015,2.36649212460493,2.36596175666109,2.36680115410949,2.36785766557733,2.36845716869835,2.36842864282957,2.37256547297139,2.37241488721446,2.37022824926843,2.37250941342001,2.37224886505903,2.36969659837891,2.37067130612695,2.36981421245222,2.36876117083592,2.36810661936085,2.36850059956128,2.36516571590189,2.33986708336946,2.30038659570866,2.29191700320428,2.29313026431571,2.29297743065136,2.29314802984879,2.29352904042687,2.29352947852981,2.29425020654011,2.29514541477479,2.2952652020105,2.29493720086081,2.29476152775844,2.29577121951716,2.29643954111122,2.29865533062785,2.29853676547703,2.29891212291909,2.29882658276528,2.29875013338426,2.29902134425724,2.29987332895718,2.30138426327753,2.3032076287455,2.30377670395447,2.30599557819053,2.32272151069652,2.35627528578926,2.36648849990733,2.37429976616649,2.37629925290505,2.37652692432316,2.37738450860201,2.3790164867277,2.38413963250292,2.38689079258546,2.3883584685005,2.3886686875762,2.38859088100862,2.38820976456904,2.38788035730522,2.38782501684136,2.38799335168623,2.38875357651829,2.39006663596124,2.38995683290882,2.38831260439324,2.38864392138664,2.38849470356294,2.38862206384049,2.38923036311484,2.39071075411326,2.38927130415947,2.38919419273116,2.38981539518643,2.3898548357812,2.39020349877238,2.39027791376922,2.39060761073123,2.38952691867249,2.38894441651531,2.38919290807407,2.38888503344611,2.38848225549162,2.38855099520572,2.38831046082436,2.38868222659234,2.38637249249613,2.37675856892994,2.37287865868612,2.36468305706055,2.33316327301725,2.32341693687417,2.3208787457137,2.31237297821372,2.30885919947095,2.30857244368577,2.3086715116458,2.30799174203264,2.30816909966118,2.30817247773136,2.30817073517662,2.30812372239477,2.30819712632092,2.30812139323524,2.30810706642688,2.3081422477896,2.30849924883094,2.3085356644639,2.3090793412498,2.30906592337119,2.3089696357271,2.30940238694121,2.30943357878104,2.30884617679652,2.30868005859798,2.30899390260328,2.30928564020652,2.30943447279962,2.30941771410877,2.30918751629196,2.31004404812531,2.31040065751981,2.31034340069689,2.31067287840581,2.31063747203242,2.31087098834819,2.31122842832053,2.31150716372975,2.3113564782499,2.31249365692228,2.31286103963363,2.3120473109313,2.31175152416589,2.31207313453625,2.31232340447737,2.31221466802545,2.31272604634981,2.31340875854305,2.31359324484643,2.31425183501719,2.31355782354457,2.31427685710356,2.31512164706367,2.3151147998838,2.31524311827258,2.31550597076831,2.31563012600402,2.31554872116269,2.31718654227858,2.31805246706575,2.31902011886957
2.34350567512504,2.34511431292526,2.34483047385836,2.34528377990379,2.34622137435617,2.34764494057233,2.3486183175706,2.34914488965354,2.34979835506995,2.35092366367157,2.35189906831431,2.35324512850164,2.3540506249504,2.354957069768,2.35680082718012,2.3572047157158,2.35742096992458,2.35732515335989,2.35843476631886,2.35958450905586,2.36145261533521,2.36207404627836,2.36467816497026,2.36505162309627,2.36490142612545,2.36710709011601,2.36800851559118,2.36756488795961,2.37000893687889,2.36867017504431,2.37052658442984,2.36921591054389,2.37221837251276,2.3726265982916,2.3717432594445,2.37143742381957,2.37137077516006,2.37092870223935,2.37216750292389,2.36947423080786,2.36906402618287,2.36838302174054,2.36894197851036,2.36103883426236,2.32279021926693,2.29659478220298,2.29212895161357,2.29295669760474,2.29321469180684,2.29358646551724,2.29384846166598,2.29409158764348,2.29500183593527,2.29513533525329,2.29508212930075,2.29527386062406,2.29558252916804,2.29672041428114,2.29729320131429,2.29808590485028,2.29786092527724,2.29778588523465,2.29818180525963,2.29808263882172,2.29837701061071,2.29959999683533,2.30082897167703,2.30163240034066,2.30275389370877,2.30283891755955,2.30593594003998,2.31512168640567,2.32540894469098,2.35660017057587,2.36438864358883,2.36678290537666,2.37517305840454,2.37828867008975,2.3821705473028,2.38695127605689,2.38797159129069,2.38774545903698,2.38775168648013,2.38733004396418,2.38715574494785,2.387431389609,2.38794204145037,2.38801442969537,2.38864117110734,2.38964456160254,2.38909301294148,2.38795646532593,2.38791909691922,2.3881061673639,2.38827729333635,2.38900928755239,2.38914998531227,2.38961384411196,2.3897205147392,2.38968853124197,2.38990961934455,2.38990042169449,2.39011125886149,2.38985903080556,2.38939995358127,2.38899698740482,2.3883273624157,2.38758087858678,2.38535809326167,2.37705158136715,2.37522604034624,2.36707978491198,2.33294256004663,2.32393431005184,2.32214383194245,2.31345535400248,2.31074070727611,2.31158242981616,2.31013352323476,2.30891062563611,2.30832817877766,2.30863074209904,2.30824427419131,2.30818628011334,2.30792873406335,2.30885126819898,2.30886837185053,2.30904776604797,2.30882818237929,2.30891365997174,2.30870908528768,2.3087662659939,2.30901564526033,2.30915189857021,2.30905481946849,2.30916524988252,2.30970178079861,2.30944476015442,2.3094516100138,2.30903155550565,2.30947509754898,2.31026786750007,2.3102088530541,2.30999780197054,2.3099532966558,2.31037001154371,2.31037291324004,2.31095823012418,2.31130867903725,2.31116530250319,2.31211214161871,2.31169984944929,2.31116988973862,2.31111816469873,2.31163846393501,2.31155341744495,2.31165529543325,2.31192646604168,2.31247322986487,2.31322012084793,2.31335143302921,2.31314884883323,2.31317607263711,2.31368027251759,2.31449716056696,2.31438380644912,2.31471863035491,2.31558532515943,2.31546849400221,2.3160399221522,2.31529878773836,2.31562990829236,2.31573662245015,2.31749022712658,2.31806453891545,2.31839383803005
2.34321962560725,2.34454244525673,2.34506592591541,2.34615543762774,2.34697320266692,2.34828952191411,2.34893889670019,2.34944799791587,2.35092394605326,2.35375935580351,2.35501733123746,2.35656504766217,2.35713579491878,2.35650149021918,2.35749405820757,2.35860100471318,2.35915767241506,2.35927578457931,2.36213871001194,2.36336485456649,2.36397288439819,2.36362705165741,2.36400948205532,2.36446225058961,2.36601254203803,2.36775851837952,2.36995464855495,2.36922819427434,2.36867135368641,2.36832590318934,2.37178992992045,2.37167478966034,2.37170920616597,2.37174364971458,2.37123499210511,2.37072667427132,2.37083371748042,2.37094400575334,2.37130982141279,2.37059899705814,2.37063278031105,2.3700549067141,2.37045157109226,2.36477809062763,2.3402303216316,2.30175225830697,2.29305256433754,2.29210439356041,2.29309274545829,2.29409871973325,2.29452051134563,2.29431196053151,2.29504995916023,2.29531465947551,2.29522545884549,2.29578408084625,2.29625203425297,2.2964834670703,2.29671677605502,2.29733887185616,2.29732286365839,2.29717649126111,2.2977303236175,2.2983016063012,2.29898405634691,2.30127602462383,2.30017713145338,2.30032120159116,2.30104068257869,2.30143837040429,2.30257369153848,2.30408169834325,2.3070945060861,2.31569591285921,2.31792496969485,2.3268566824405,2.35852910659256,2.36949033822775,2.38320236958418,2.38706328032222,2.38711091238258,2.38670903535873,2.38679617959703,2.38676208986502,2.38643148082784,2.38665909353378,2.38750553884849,2.38796787285281,2.38847765886345,2.38937914564486,2.38924104920763,2.38792126461063,2.38761548468497,2.38740349175996,2.38759649903204,2.3877645491214,2.38845774411676,2.38898257710571,2.38921210028038,2.38942979167891,2.38995391396037,2.38972266097744,2.38959158134014,2.38963603619082,2.38902878214692,2.38849872134619,2.3856603068634,2.37669779319044,2.36645331793366,2.33317796282537,2.32417242731722,2.32214968256581,2.3131801016549,2.3105364583748,2.31033778308144,2.30995479649317,2.31069278599431,2.31047505762485,2.30967485117473,2.30851541430086,2.30803336545316,2.30813254805494,2.3078484116121,2.30774737807515,2.30824690867971,2.30950272886955,2.30879858745257,2.30844259393531,2.30893159781547,2.30875496375556,2.30898072226856,2.30932377791475,2.31017415956133,2.310108964559,2.30891524614029,2.30954824335515,2.30970896335549,2.30942815087518,2.30943667337064,2.31028171523315,2.31047802213261,2.31026812075068,2.31034970581993,2.3104098904813,2.3109467812173,2.31073199494989,2.31099683815939,2.31223010128574,2.31176217845972,2.31179731294731,2.31257096558094,2.31159579292193,2.31126663269155,2.31145242972983,2.31211220976473,2.31158797248831,2.31177682811309,2.31165457123268,2.31183962070794,2.31273532258105,2.31302780165476,2.31333560695819,2.31364271286829,2.31404519853789,2.31459499106811,2.315393532873,2.31496842554289,2.31543723149342,2.31527388868225,2.31558028725664,2.3155111154909,2.31622600328561,2.31731031335126,2.31753295059924,2.31784527196099,2.31833153556655
2.34410726703755,2.34527309828029,2.34569748138574,2.34651023961954,2.34738872910897,2.34860248784242,2.34947589207412,2.35066842752764,2.35224647078608,2.35428873608292,2.35540843976698,2.35595108083302,2.35707365470604,2.35858122921958,2.35881819263474,2.35975302258392,2.36112357852716,2.36150904867519,2.362543269552,2.36330519557431,2.3636643198949,2.3637313850834,2.36470487098177,2.36568519139526,2.36582462289555,2.36687384471948,2.36875311371819,2.36890964291272,2.36865571296539,2.36824352217952,2.37172406638089,2.37380326491313,2.37222492534676,2.37143862215585,2.37061208173592,2.37017109240449,2.3697144928259,2.3697483689155,2.37012676369614,2.37051848390699,2.37072844533985,2.37023428429013,2.36777038328437,2.35097556130464,2.31331987872778,2.29616999468758,2.29377245983714,2.29259592541411,2.29320635260731,2.29398982226101,2.29488008221325,2.29486461694932,2.29496222616871,2.29503924175095,2.29514919197001,2.29614260492178,2.29726542298893,2.29771063561495,2.29682572890486,2.29686257276162,2.29695523034552,2.29747957477834,2.29780207578575,2.29820146444819,2.29920280251367,2.29981935255221,2.30033017822571,2.30036735073127,2.30025099128282,2.30115802153005,2.3018701254957,2.3026054642958,2.30384599729356,2.30450790460246,2.30536277463076,2.30892794733783,2.31929619101317,2.32986999943302,2.36613422543897,2.37423181971669,2.37577191051132,2.3835750435894,2.38545915031613,2.38556847564495,2.38567923124067,2.38613980736657,2.38660784986206,2.38717860004425,2.38781607910572,2.38850742151231,2.38890871601001,2.38786884311134,2.38709770772391,2.38651803232063,2.38667087071557,2.3870092336451,2.38770743386162,2.38848742264705,2.38884566323158,2.38901527189222,2.38935053588562,2.38720885272442,2.38084470111599,2.3852815471144,2.37862090069503,2.37598380768186,2.36671376122198,2.33263434016814,2.32190539428479,2.31318925619349,2.31071491265095,2.31043885471976,2.30961537638862,2.3093914446956,2.30953496107279,2.30913661003367,2.30983047283186,2.30953117122389,2.30934430479796,2.30816289520995,2.3083132626816,2.30797422879577,2.30849074362368,2.30836412034182,2.30870693883806,2.30881838367604,2.30932894651615,2.30940224755498,2.30976707591128,2.3095261642534,2.31000983750477,2.3097797106255,2.30972864604643,2.31010731321536,2.30957227995644,2.30938295311062,2.310024184164,2.30981787084181,2.30984565333731,2.31044605901963,2.31058753693913,2.3104576134553,2.3101858806563,2.31086580600552,2.31066569703614,2.31121838361603,2.31220730749078,2.31215897367918,2.31179966162129,2.31156845404487,2.31159083728558,2.31168187626049,2.31138877983555,2.31216655443788,2.31332709487466,2.31193006741877,2.31179669240585,2.31201199608179,2.31233935345948,2.31305261063638,2.31326718600448,2.31355704681213,2.31415892354224,2.31539679168216,2.31552512719098,2.31532688991795,2.31502976955179,2.31581766618818,2.31623019137311,2.31640194496976,2.31606894203314,2.31671627308896,2.31886773711231,2.31813300034178,2.31779608133608,2.31858014661399
2.34529258594486,2.34559570595813,2.34605075074371,2.34730064014509,2.34830282882109,2.34960957368245,2.35091239198519,2.35316448260158,2.35407866685127,2.35483313830669,2.35553006383152,2.35593212066354,2.35670877276456,2.35829406280276,2.35877172576806,2.35935606818733,2.36023209621355,2.36150505447975,2.36184160272577,2.3623722630748,2.36264759171639,2.36331495104871,2.36421447913281,2.36497943728363,2.36530655622122,2.36595959417578,2.36724378114892,2.36824017640939,2.36856260754208,2.36942516086047,2.37123465121229,2.37287181329929,2.37283917834622,2.37286853587708,2.37049033415759,2.37012577059809,2.36945336430901,2.36909233597804,2.36921483092739,2.36947069369122,2.36967268208995,2.36956248460132,2.35917847821384,2.31633081286448,2.29738361064816,2.29472653374997,2.29424224586902,2.29300274026829,2.2936569997479,2.29422840114823,2.29524901764653,2.29597859092392,2.29670105259373,2.29616795283769,2.29571661758676,2.29627402570618,2.29686061001382,2.29713097964147,2.29717769710791,2.29741329735326,2.29723320489692,2.29781460941356,2.29818413380362,2.29859319153619,2.29887132779862,2.29915259033759,2.30012572581861,2.29987411938499,2.29984488583308,2.30080528410542,2.30196996197255,2.3024292529724,2.30340423874366,2.30355135436695,2.30432950046226,2.30542665330315,2.30832292964133,2.30970613997093,2.31890365659796,2.32091030578893,2.32972087669494,2.36353188555061,2.37179634351787,2.37214716603319,2.37488071664442,2.38359510607427,2.3859805539774,2.38645502918274,2.386877491695,2.38713168703725,2.38532527100737,2.37665192436352,2.37480988722682,2.37407480904953,2.37395724918416,2.37461282109278,2.37536750979101,2.37827787635555,2.38442064511123,2.37976563812815,2.38487566297805,2.370366750152,2.34227164498813,2.3595093526292,2.33287004595665,2.32378985547733,2.32147166909718,2.31280913521344,2.31129628272983,2.31021837326615,2.30932634516742,2.30912523836073,2.30913846180037,2.30972792268455,2.31127651535185,2.30992499611788,2.3090653401238,2.30931372631729,2.30871420083059,2.30804068981614,2.30837337214254,2.30881583001277,2.30912025882562,2.30896907900534,2.30892315012145,2.30922928552431,2.31000056271365,2.31000765549194,2.30961617916646,2.31029800546425,2.31182077921559,2.31189721038435,2.31009033089038,2.31015397377426,2.30999630474891,2.30969978938228,2.31060280262583,2.31082863758352,2.31198487154496,2.31109726333735,2.31075025900707,2.3109402488435,2.31067474829727,2.31106910856339,2.31142736356402,2.31265976623639,2.313181927912,2.31155507953915,2.3118027643198,2.311820442414,2.31161372476278,2.31176866033581,2.31156078911974,2.31258552833127,2.31364535181148,2.31222086533828,2.31183499214504,2.31253937839511,2.31321493052074,2.31418160559927,2.3144101992211,2.31449344764812,2.31501892142445,2.31590781193972,2.31547645211539,2.31587946550297,2.31576010944762,2.3160418341353,2.31699452058895,2.31716483772282,2.31661614243521,2.31727390683947,2.31782176096408,2.31780633985381,2.31859792668435,2.32017400065893
2.34587036429579,2.34648914390203,2.34694493150465,2.34776210846473,2.34889605409528,2.35004485026196,2.35117109259264,2.35243968894998,2.35336401369589,2.35445337755728,2.35527271615277,2.35577752788865,2.35647442235434,2.35771080766685,2.35851704561817,2.3590338984292,2.35943194801274,2.36057065797279,2.36153604405358,2.36231494325614,2.36253333665386,2.36285770090454,2.36407384599779,2.36479353245741,2.36485067253966,2.36530946609939,2.36653568780236,2.36754453762418,2.36893384407012,2.37059692833183,2.3724985957871,2.37255175583249,2.37287135084666,2.37321525695513,2.37112061426764,2.37039440976184,2.36901807776937,2.36860795276924,2.36875633689314,2.36874814411108,2.36887328788779,2.36705035434293,2.34909183780665,2.30561841697417,2.29448519641976,2.29416034534575,2.29521520650241,2.29420396253595,2.29431178139231,2.29463246489548,2.29530423575975,2.29620805708647,2.29670252372848,2.29690340577555,2.29656361285107,2.29723534682807,2.29753170968437,2.29731040059914,2.29754566145583,2.29766943198178,2.29758166869241,2.29824019639111,2.29850436712937,2.29953737884208,2.2996940200896,2.29954708478572,2.29988986078733,2.29974965433904,2.30013170595506,2.30120964327023,2.30223968368095,2.30259555407796,2.30263400535145,2.30286493211883,2.30354579737898,2.30426820657194,2.30528917375091,2.30559747842285,2.3064417829147,2.30672589077525,2.30913056695801,2.31776289812197,2.32043278830001,2.32084954116485,2.3299902901464,2.36422647754556,2.37291552189837,2.37351979890214,2.37391600449804,2.37385206907338,2.36594699471022,2.33181939681562,2.3235734125996,2.32430484698573,2.32377604082209,2.32462877517702,2.32451575771346,2.33300184721781,2.35865752751822,2.34149880395202,2.35904240047383,2.33074794782924,2.31582063939118,2.31924977059365,2.31214917760166,2.30983664158243,2.30977415378388,2.30932075994918,2.30948124960161,2.30909063859754,2.30846913925961,2.30898216062251,2.30930362847276,2.3094273120866,2.30968625836888,2.30917657811332,2.30944991862246,2.31019461183912,2.30863570779397,2.30831003873398,2.3089916692102,2.31000156136099,2.30982963281596,2.30970974710532,2.30988346922794,2.31027820857515,2.31084796107548,2.3107833328229,2.31043665261876,2.31040622489456,2.31038000683251,2.3107037931644,2.31031688759018,2.31055156106846,2.31066735352905,2.31109848579702,2.3113565774767,2.31138893497285,2.31153592899093,2.31160052444025,2.31114166659216,2.31134172345046,2.311335490107,2.31149456268734,2.3123509793358,2.31270805332675,2.31275677056088,2.31178860934565,2.31217054315576,2.31230571154698,2.31198678953358,2.31188682536403,2.31221493589688,2.31344966667296,2.31430465719287,2.31287607098018,2.31283735101961,2.31320067446772,2.31364984086511,2.31429439927767,2.31463988020244,2.31515591218026,2.31536062099024,2.31535485231534,2.31591520971286,2.3167796409373,2.31597328874982,2.31641061851948,2.3170590890858,2.3170470494562,2.31665148603061,2.31748085523953,2.31772908687298,2.3189392604429,2.32007116297176,2.3199070454169
