2.22826001564511,2.22865853637555,2.2292611161505,2.2293239362527,2.22939325371305,2.23077807377059,2.23140815997966,2.2318837010387,2.23210544040032,2.23262976166542,2.23348977187416,2.23404642512932,2.23480477023028,2.23539066629972,2.23610301893065,2.23661473586453,2.2370318934749,2.2377208353787,2.23823453384046,2.23853188736726,2.23950990956868,2.23995832807974,2.24075960509798,2.24132138952336,2.24206500592494,2.24278075310399,2.24390635423677,2.24448613135681,2.244880361854,2.24576831811582,2.2465996528926,2.24754410611003,2.2482143498534,2.24904211378376,2.25102155931084,2.2528715764874,2.25571337396184,2.27497971409769,2.30789319776464,2.30859793669616,2.30940701524199,2.31010232330696,2.31083292280025,2.31089953434016,2.31097303916893,2.31079132563494,2.30966907583886,2.30916010762314,2.30849293641426,2.30876253312618,2.30884528843338,2.30786421425943,2.30811854863487,2.30807784535639,2.30830563426127,2.3075923162496,2.308434791645,2.3077821870264,2.30717230590428,2.3078773475751,2.3086143464427,2.30898108709702,2.3092910297837,2.30963428696517,2.31029331999371,2.31032360388819,2.31125860041876,2.31188582705199,2.31258963260679,2.31342040163834,2.31480418458324,2.31653642843348,2.31640409867408,2.31719292303046,2.31633076082394,2.31721492241345,2.31799584544498,2.31824424211642,2.31746183291503,2.31896956930905,2.27342215457805,2.27247715518663,2.27070344815833,2.2711462821754,2.27108495805078,2.27068387146936,2.27098292420827,2.27115938828843,2.2711798416977,2.27095535281188,2.27083948262429,2.27153780636612,2.27110330077841,2.27049781312131,2.27112362753563,2.27155655275375,2.27192444047249,2.27228977704431,2.27268510299661,2.27278815220696,2.27372557807649,2.27299318775627,2.27315703793851,2.27321212653462,2.27345928116518,2.27423278633744,2.27442984507875,2.2744588426604,2.27453016434708,2.27493593543003,2.27535230014632,2.27538903070408,2.27602371539485,2.2765266789493,2.27708683562517,2.27690636419223,2.27690553025695,2.27736487346452,2.27762642043714,2.27802858615993,2.27930876333644,2.27963075886043,2.27948361496808,2.27942181477166,2.28027139302047,2.28124197548851,2.28224998279276,2.28304074717538,2.28548356013474,2.28503482398762,2.34904896357862,2.35003642382824,2.35129972381611,2.35158597442519,2.35441404398265,2.35332268109525,2.35311527453003,2.35300577570987,2.35310585859245,2.35315575780774,2.35279310369345,2.35318120094261,2.35311938726825,2.35307490989717,2.35237148851711,2.35408099298293,2.35460725190713,2.35480324737736,2.35465831720177,2.3565972901729,2.35939948509458,2.35866792781003,2.35788812800625,2.35855617035131,2.357449499114,2.35698941335413,2.35712370643164,2.35674170610108,2.35603437339879,2.35583088363509,2.35512716305434,2.35423346569394,2.35491306736632,2.35587566283423,2.35187700488296,2.29079939631912,2.29053131542755,2.28963482376733,2.28959708167413,2.28952554831447,2.28980481827758,2.28956937528381,2.28966773829426,2.28990826485427,2.28978464410921,2.28957913096336
2.22823249587311,2.22943788105755,2.22989528954751,2.23010506067961,2.23015644278102,2.23096374849388,2.23152717249875,2.23208007931761,2.2324720071962,2.23312487537993,2.23380243768556,2.23441994940152,2.23504308439131,2.23549164629217,2.23599982533706,2.23649243216883,2.23718416501942,2.2378806743838,2.2383760224134,2.23882542748894,2.23949890878223,2.24031465406876,2.24105276093389,2.24159735404271,2.24231960391118,2.24312890225517,2.24420439746571,2.24481120357656,2.24519849056401,2.24598425793367,2.24677793697761,2.24781300397851,2.24856319581453,2.24970644697318,2.25171159427032,2.25363881093138,2.25556525216087,2.28299177754768,2.30907812209648,2.30921564208478,2.30992415433542,2.31069270731651,2.31124814408018,2.31136322667492,2.3110390486058,2.3107605176454,2.31034736058356,2.30990703962536,2.30956437018483,2.30922242711652,2.30908385711159,2.30892331083755,2.30880931460606,2.30878342152401,2.30868343968493,2.30850112067766,2.30896847913015,2.3087767313536,2.30870346261322,2.30864930801773,2.30890280037849,2.30929406886037,2.30983093312675,2.31046983830087,2.31124967606231,2.31135803485438,2.3118826147698,2.31247211572785,2.31317844053226,2.31421557388118,2.31537417084014,2.31632369196799,2.31671984051137,2.31722719572414,2.31749453862418,2.31802747089489,2.31853587088044,2.31881837423191,2.31851277208712,2.31873701151098,2.29733202525822,2.27180432467777,2.27082816596585,2.27098773227685,2.27138894067916,2.27130975576454,2.27118233764797,2.27124999576816,2.27110109646756,2.27112056692336,2.27125254171613,2.27144513617412,2.27133485680563,2.27115115094244,2.27155403693714,2.27188634042867,2.27212618388294,2.27236183456842,2.27255054676739,2.27273439935623,2.27321179455157,2.27327131606633,2.27344713552689,2.27359145158108,2.27376117930736,2.27407807001566,2.27440495169542,2.27462527502237,2.27479412157835,2.27514164568475,2.27546608586372,2.27595491474374,2.27648804571351,2.27703096376002,2.27731861221304,2.27741711414584,2.27741054782686,2.27764869824267,2.27791877120657,2.27834273780205,2.27894113123071,2.27936891322904,2.27957046652084,2.2797247025836,2.28012841252958,2.28086592744246,2.28154474414908,2.28253812444081,2.28418399852435,2.28506360197765,2.34966498080175,2.35097116634179,2.35219387629986,2.35293600598748,2.35385056270332,2.35368906066731,2.3534106223865,2.35321914022521,2.35314891911195,2.35331403500703,2.35370096698916,2.35409621042298,2.35418924133877,2.35432275489034,2.3544245895874,2.35501302634864,2.35547661614585,2.35576043378049,2.35630885645685,2.35741915033573,2.35840747862929,2.35845866025735,2.35818930799002,2.35834809803249,2.35802914664247,2.35770549899183,2.35795946774568,2.3579867395239,2.35802477701435,2.35626926286175,2.35545922919916,2.35518721243603,2.35529772389982,2.35459321328506,2.35323425655795,2.32245186289763,2.29039144208335,2.28982345062142,2.28986557422004,2.29003512942668,2.28969924958702,2.28966648822906,2.28986593404624,2.29010120869665,2.29015255856474,2.29017764986614
2.22803562214823,2.23080661294935,2.23054050924624,2.23105192473577,2.23004724900237,2.23153425422672,2.23145419480453,2.23219950404447,2.23256278267892,2.23348850780264,2.23431797024985,2.23458784666684,2.23522280304228,2.2355251343326,2.23584190246999,2.2363212353244,2.23714788183126,2.23799876706925,2.23857660725303,2.23883374470071,2.23953291935254,2.24056527413589,2.24129550189732,2.24170941913303,2.24244019016859,2.24341415812545,2.24479295069781,2.24510850982935,2.24511002755447,2.24619867038119,2.24708666471025,2.24864325750471,2.24899543604766,2.24971404829653,2.25225520491904,2.25371542253439,2.25677265541146,2.29166197486543,2.31090933369272,2.30976638794276,2.31075583855472,2.31123351301646,2.31173382195041,2.31199275786173,2.31113664110728,2.31089358515658,2.31127380782676,2.31075231682509,2.31082849929754,2.30954390113789,2.30950675706192,2.31003893481786,2.30964910507862,2.30963822300248,2.30935517349183,2.3087810114996,2.31038118375092,2.30983172544839,2.31038918582945,2.30920571709892,2.30917843540359,2.30960934986787,2.3104461673676,2.31138708543861,2.3128949500537,2.31221063229403,2.31255510024489,2.31317283396491,2.31366276335265,2.31491102832897,2.31638664562393,2.31679667227893,2.31718401635273,2.31775175240834,2.31822349330469,2.31877030960177,2.31865938712318,2.31936960504605,2.3189714565215,2.31906528121366,2.31975530213428,2.27342758513163,2.27168309566799,2.27211669510534,2.27340581480306,2.27264291051094,2.27147628922125,2.27148373309704,2.27087240301183,2.27123510009828,2.27172714160698,2.27167549528693,2.27158636971297,2.27130673980875,2.27210090629342,2.27250489904615,2.27232018588042,2.27245453638639,2.27245509232609,2.27248500103895,2.27324660014337,2.27346888242382,2.27373539273682,2.27402737911643,2.27398861075103,2.27408293327984,2.27450049563255,2.27480282925281,2.27496050449489,2.27539449643452,2.27560165533399,2.27645958612132,2.27694350292771,2.27782229131343,2.27785033553298,2.27815854145145,2.27773760765096,2.27790926889541,2.278148689014,2.27856430339413,2.27889955737887,2.27935899122134,2.279734860796,2.27998271262008,2.28015097139609,2.28142302123663,2.2815294468137,2.28217036873052,2.28324872932025,2.28478614222678,2.35010808551079,2.35230245875477,2.35264989084979,2.35304259033669,2.35331068997953,2.3537122573686,2.35345547090784,2.35357761629279,2.35316121363432,2.35356855997965,2.35477912857362,2.35567309961125,2.35560056938247,2.35597101804925,2.35614815842178,2.35639558427742,2.3567614553016,2.35689368742152,2.35767577966821,2.35863394121395,2.35858106460648,2.35887497849652,2.35849468654895,2.35887766665497,2.35893761369603,2.35808023465344,2.35946118435031,2.35952347488236,2.36202883403141,2.35546707247169,2.35469321618989,2.35483837991395,2.35534908283469,2.35458127448552,2.35400842245592,2.35435362255431,2.29130492667601,2.29040983133167,2.29103475501762,2.29188984050377,2.28996982975668,2.28982996707669,2.29022229827224,2.29051502064062,2.29073595394529,2.29086047661323
2.22836883912578,2.2296820993829,2.23025122323791,2.23059462358657,2.23084249819871,2.23139055120668,2.23194911933402,2.2324803488976,2.23287614931794,2.23365532217738,2.23443964727751,2.23503556039326,2.23550206679217,2.23576884953752,2.23610347450012,2.23654023978998,2.23736363835627,2.23817247985286,2.23872557444303,2.23924664139789,2.23988847882325,2.24089926744475,2.24161683202074,2.24209772187114,2.24279090636085,2.24355869545495,2.24468137493904,2.24547346307711,2.24604907647988,2.24696158010246,2.2478432428398,2.24882726578837,2.24956602221334,2.25094807968508,2.25283777459469,2.25407371531763,2.27984616452484,2.30175543388865,2.31041789922941,2.31052495193194,2.3111905354581,2.31164209860145,2.31210904599928,2.31237852312038,2.31178075476628,2.3117737310505,2.31189337333645,2.31123150071195,2.31070917977211,2.31021510865235,2.31006317011108,2.31029256623375,2.31023389621499,2.3102616626087,2.31008094030501,2.30979950985699,2.30995149825742,2.31000016166956,2.31027141262089,2.3106488452854,2.31041746666894,2.31080025723493,2.31117952623364,2.31169057590414,2.31239330067687,2.31281445419815,2.31359397618717,2.31420843857377,2.315068114438,2.31607956552492,2.31684359935432,2.31745411133424,2.31772121015963,2.31814815312816,2.31861375561026,2.31910484916597,2.31968577637727,2.32039775857949,2.32057834294572,2.32009225965517,2.32040385389174,2.27278757338163,2.27192850356253,2.27221559218302,2.27244324161392,2.27220783824609,2.27204977616772,2.27232094042089,2.27250004502221,2.2719811682748,2.27198183117278,2.27188267332145,2.27200552460436,2.27206043808777,2.27220671521768,2.27242196468822,2.27242900047577,2.27261180650003,2.2727165268333,2.27294871266327,2.27347826313621,2.27376475108621,2.2739757814016,2.27409763582502,2.27426012048084,2.27456763184266,2.27485549002498,2.27509438733625,2.27526013373463,2.2756106972577,2.27591742552887,2.27654924441919,2.27696276275935,2.27732920023314,2.27757159803299,2.27784396804077,2.27793014342621,2.27810860908359,2.27830385975997,2.27868082232894,2.27919941535959,2.27969377566689,2.28001882905155,2.28024307223861,2.28036293521654,2.28087919743673,2.28120239847955,2.28196594639387,2.28328248718202,2.28446902633407,2.31556189183622,2.35241061026397,2.35270090526975,2.35304038859955,2.35330482083408,2.35372229854204,2.35430369441606,2.35445554945367,2.35421645598637,2.35485975003556,2.35641121336074,2.35692419688939,2.35697267823224,2.35732605752762,2.35773148514138,2.3574708154292,2.35762456738841,2.35771537358999,2.3581717606974,2.3585292935968,2.35860005232165,2.35848061556852,2.35838692111268,2.35856802943638,2.35865891304046,2.35912292797516,2.35877852256595,2.35910259247195,2.35955109757498,2.35841214279733,2.35677252076956,2.3560253449237,2.35595524782186,2.35512363855924,2.3539389008335,2.35383704533599,2.29082288704358,2.29040519154048,2.2906983803429,2.29102140801986,2.29059766567082,2.29048931206334,2.29077108258005,2.29123321540585,2.29167482871767,2.29153542915235
2.22804213911898,2.2291636029522,2.22996635177597,2.23026014222466,2.23122661115557,2.2313694067233,2.23226927007592,2.23266163577398,2.23279951287916,2.23370704388567,2.23489675109271,2.23540411022093,2.23574971968774,2.23591851615761,2.23621375884994,2.23650468892881,2.23742840843071,2.23835614861634,2.23892923083838,2.23948264086306,2.24007305785498,2.24134260163558,2.24192226622499,2.24228456832601,2.24302367343186,2.2435722270589,2.24473446301255,2.2458176604918,2.24663553296804,2.2478328036781,2.24900745386437,2.24979463570478,2.25023444702241,2.25175933731026,2.25357469602302,2.25476283799398,2.31290216787253,2.31194786595956,2.30895912325203,2.30986103492392,2.31135110211809,2.31156990525926,2.31256881035889,2.31354507966818,2.31205454093577,2.31255153900264,2.31353274331428,2.31176700867125,2.31072933597693,2.31063335062689,2.31036566092073,2.31095685220604,2.31097153398969,2.31114908156911,2.31114582126727,2.3103696924356,2.30985810454222,2.31013144982657,2.31019374349805,2.31285749294355,2.31112245451979,2.31219485719181,2.31195185043025,2.31205479860105,2.31218071002767,2.31332248003358,2.31490779963135,2.31523977955525,2.31654947943426,2.31751927072464,2.31768602035391,2.31858325039234,2.31835824236693,2.31877839781548,2.3188506334016,2.31930340262903,2.32001203448611,2.3214737588238,2.32300571594377,2.32126354375623,2.3225981739143,2.27416935793469,2.27293384738002,2.27391260065522,2.27326871954569,2.27245069927277,2.27256542652115,2.27327166925375,2.27486828249045,2.27225868404197,2.2724654283079,2.27189380205467,2.27246065217869,2.27281255834837,2.27230001063285,2.27272297470932,2.27235018281292,2.27280325509595,2.27290199903409,2.27319181334646,2.27411419258938,2.27416538343751,2.27428875234197,2.27421791939706,2.274459998983,2.27525312060818,2.27528011348839,2.27543888083232,2.27545924091941,2.2759125264029,2.2760920469147,2.27686574144108,2.2770340487385,2.27702865545633,2.27733975492642,2.27786939785393,2.27806475854331,2.27829485090911,2.27836141465025,2.27873099915357,2.27968231063833,2.28022125475299,2.2804216383941,2.28077796563697,2.28054854419372,2.28123817928275,2.28119722702086,2.28188421379954,2.28310417949001,2.28434927319674,2.28598009992326,2.35255799685591,2.35261166638649,2.35280609461478,2.35266778337714,2.35321680469779,2.35521366619883,2.35548568783797,2.35431230161582,2.35531942168058,2.35934798420897,2.35897663707463,2.35846137552028,2.3589685836733,2.36019079330529,2.35841911672442,2.35883153830865,2.35861086325571,2.35906194514871,2.3589584761634,2.3590503385317,2.35836079768224,2.358454663317,2.35862405932049,2.35833428694718,2.36120769528329,2.3578559195247,2.35889273276011,2.35899091424131,2.36208925194813,2.35719121037793,2.35567317249106,2.3565549295175,2.35652765594439,2.35458238974382,2.35553930998413,2.29157507292908,2.29096057828311,2.29156743910435,2.29196650978942,2.2917458245336,2.29118077208171,2.29138319785331,2.29202216475218,2.2933706334005,2.29209130050825
2.22858291199937,2.22936591865335,2.2300441437388,2.23048165417349,2.23119036797224,2.23182291426685,2.23242620156787,2.23288537337154,2.23319501098075,2.23391648631668,2.23462901522161,2.23539766931778,2.23593542528742,2.23627398775796,2.23673133735285,2.23721734882134,2.23792093785842,2.23868595142928,2.23921865191227,2.2399043052493,2.24051015224543,2.24145981403407,2.24220127596452,2.24271299048404,2.24351418321775,2.24422741739959,2.24519465029607,2.24616147910024,2.24695288022163,2.24791215490326,2.24859793702189,2.24968087361059,2.25052467626957,2.25229934608014,2.2546317665989,2.25577701091757,2.31344018575531,2.31328575167157,2.31233919648889,2.31221713003774,2.31252428508361,2.31275150498874,2.31292653194095,2.31300835478145,2.31238159151511,2.31225895414215,2.31222095365659,2.31180980422294,2.31152869234467,2.31146047497951,2.31153153791402,2.31181712657958,2.31168536011947,2.31170153648354,2.31138912266494,2.31096830878308,2.31046889496436,2.31067938996916,2.31114050920581,2.31212764643026,2.31205642243428,2.31247106453801,2.31264289880947,2.31293418788649,2.31328302647703,2.31408319777226,2.31496074251711,2.31548986670475,2.31625792276528,2.3172279522618,2.31800569203731,2.31839187255131,2.31860247993333,2.31893400838907,2.31946209705186,2.32029899634288,2.32114036573036,2.3219231513147,2.32225149155786,2.32177792266648,2.32230148064382,2.3018506972028,2.28493454445459,2.27365562267028,2.27328798838677,2.27286886130157,2.27288053295025,2.27347757398026,2.27434582718505,2.27350932319677,2.27317289297141,2.27282988184744,2.2730979690996,2.27333066501076,2.2729413599455,2.27283825442988,2.273005245964,2.27330989496111,2.27358120499584,2.2739627361293,2.27441155280271,2.27456730476737,2.27477068333445,2.27496256329955,2.27494279346222,2.27531243916171,2.27573925189154,2.27590640921625,2.27605525952382,2.27628227599605,2.27653655745066,2.2770109667841,2.2772575007781,2.27744096068305,2.27784539670503,2.27822068334851,2.27845216112298,2.27863210137128,2.27881688853056,2.27925711786584,2.27980727771912,2.28022583472882,2.28065935491308,2.28106476063232,2.28099008002449,2.28124361642366,2.28152909805406,2.28188867204124,2.28282347548998,2.28400978641904,2.28511962136255,2.30629919710291,2.31970118815377,2.33197210803352,2.3529713546152,2.35399786881093,2.35673015242553,2.35756860120035,2.3578505260411,2.35851615614229,2.35967400669156,2.35959101825466,2.35932911780158,2.35960827492061,2.35996257321455,2.35954527255059,2.35940211520111,2.359210096126,2.35929254473625,2.35924660014477,2.35883910287072,2.35845565975182,2.3588083959523,2.359273703163,2.3603143764943,2.36127532718121,2.36026323126901,2.36006918470209,2.3601327262557,2.35991319991119,2.35789362189735,2.3569673534858,2.35750437991754,2.35701563496927,2.3545169210928,2.32829518665621,2.2917642935039,2.29144393458147,2.29190568850712,2.29193593803983,2.29179515724195,2.29169435791941,2.29180607278611,2.29243485327025,2.29339540371849,2.29253241431285
2.22875542103196,2.22952766728798,2.23014466425689,2.23044265737149,2.23113789102287,2.23241900682207,2.23253906566604,2.23301423609705,2.23318065256432,2.23402567415883,2.23447968412795,2.23542071054116,2.23611080264199,2.23646942638804,2.23721502982514,2.23781248373937,2.23821257242643,2.23899021165288,2.2393784636948,2.24033436172082,2.24079940048778,2.24159515621949,2.24245709786963,2.24287193514286,2.24406298574758,2.24486779799222,2.24548106509467,2.24642963663683,2.24710297849872,2.24850337806036,2.24858119304783,2.25071932470558,2.25084260361837,2.25209801544056,2.25570768654224,2.25628752183108,2.31349559897296,2.31397408315206,2.31386907556312,2.31297611116314,2.31333590648903,2.31359670588993,2.31351460955239,2.31320933923029,2.31247660895155,2.31187527645329,2.31153034488334,2.31192042663387,2.31229210760163,2.31226093278213,2.31261368371157,2.31323861888861,2.31250010099532,2.3126499545531,2.3119709227793,2.31163513371374,2.31058923734445,2.31117448590336,2.31168275582123,2.31266275872367,2.31255321501519,2.31323599361486,2.31338386745303,2.3140382134223,2.31391300166599,2.31504822826497,2.31544877227915,2.31575198086003,2.31598405470557,2.31717320362826,2.31893698037735,2.31851140807311,2.31897512090317,2.31918501120998,2.31970859520666,2.32138384805026,2.32188477428177,2.32227771238976,2.32212927916129,2.32156624970379,2.32306948525894,2.32452537660204,2.29367960051999,2.27515202531623,2.27450212450194,2.27376116921791,2.27316044489001,2.27375815348786,2.27571239939134,2.27434902528066,2.27397464434076,2.27316049536775,2.27371135751912,2.27451583731263,2.27335929961684,2.27282491102798,2.27354649277571,2.27383735325821,2.27424322506755,2.27475336981358,2.2751736746813,2.27493961737771,2.27523411184688,2.27599550848319,2.27509103194192,2.27549213406908,2.27648034928476,2.27639281923995,2.27666882684527,2.27668046024646,2.2769383712667,2.27739307017525,2.27753551064405,2.2777100717212,2.27843592834803,2.27887977050556,2.27890933221106,2.27896914467152,2.27910709943677,2.27974450086598,2.28024090404118,2.28024514292775,2.28094651276582,2.28195512745728,2.28136779908765,2.28178370162221,2.28250416691312,2.28213558999713,2.28243598260373,2.2833367024709,2.28478315302591,2.28576503243412,2.28721472694453,2.2893530066053,2.35288438826066,2.35368151593253,2.36010244263942,2.3597020529439,2.3604889106065,2.36088516252789,2.36133846981718,2.36064686858895,2.36012417007593,2.36049894575848,2.36076538507167,2.36064992936959,2.36034605055826,2.35997656786975,2.3599737185311,2.36013393958576,2.35887327513455,2.35811859206092,2.35951446111348,2.35962883836998,2.36268702983599,2.36351236730892,2.36221126195532,2.36144930753396,2.36178433142475,2.35993300618168,2.35680954396968,2.35629941621274,2.35897324248627,2.36011183036277,2.36853527485005,2.29340603997103,2.29328932690299,2.2925409767845,2.293960533417,2.29320342909412,2.29277214228075,2.29269884484659,2.29231740080581,2.29274197951284,2.29544377143537,2.29229624593345
2.22905174428122,2.22971530666383,2.23039801482868,2.23090053338136,2.23149660337629,2.2321378217127,2.23265199760491,2.23324612417243,2.23363646860174,2.23431819893804,2.23489608668557,2.23565089875315,2.23635598279609,2.23688134462695,2.23765368244748,2.23808400811178,2.23871952635774,2.23950192714754,2.24014237671065,2.24095228984688,2.24146897910682,2.24218166500437,2.24291264799165,2.24347077112252,2.24424399858623,2.24499801869823,2.24583635050034,2.24669682850805,2.24739986437119,2.24836256167288,2.24906544779449,2.2502065462048,2.25097497757985,2.25273326587886,2.25476489382389,2.28404188351291,2.31381715249684,2.31440372827311,2.3144689603173,2.31450771965678,2.31450692410197,2.31455307398983,2.31433829445181,2.31420401802532,2.31306950243785,2.31247404303784,2.31212835039619,2.31228885329319,2.31248656736335,2.31285704853483,2.3130035710998,2.31300390201619,2.31257360495527,2.3122677099815,2.31193610576594,2.31174506474447,2.311584582448,2.3119401630537,2.31256291934677,2.3131713723678,2.31326252559421,2.31367562649702,2.31391272151489,2.31429888063343,2.31479945944732,2.31546793819035,2.31587038037326,2.31627086502078,2.31676204652856,2.31774144430294,2.31865699034433,2.31941282376741,2.31985502284325,2.32039950114517,2.32102876171547,2.32194782437538,2.32216474546247,2.32272219937739,2.32300855020942,2.32302367291319,2.32388228950563,2.32473905802489,2.30227148938701,2.27592936168309,2.27543651272665,2.27466491579893,2.27355940073439,2.27324637006766,2.27377212002873,2.27388236599986,2.2738638485685,2.27388368425379,2.27402177228232,2.27415977275171,2.27380742005703,2.27373003359914,2.27403220642725,2.2742490556734,2.27446258559154,2.27475547104697,2.27494396950495,2.27496084753209,2.27519596589705,2.27540173595822,2.27538063433992,2.27563600835423,2.27620939076348,2.27650527019541,2.27675831660318,2.27690213419978,2.27708927868484,2.27757665319711,2.27775547135797,2.27793490355819,2.27836649183837,2.27897573867256,2.27906440515452,2.27922469297299,2.27941627542301,2.27975583399176,2.28013586319746,2.28041869631704,2.28091533957883,2.28140831301813,2.28157348672747,2.28216007805172,2.28246511817724,2.28237948480053,2.28271172049601,2.28334250443452,2.28424717147061,2.28531886687664,2.28652250306649,2.28792740467054,2.32364651944195,2.35687549218875,2.35907822319094,2.36013901452257,2.36081197718818,2.36120397824793,2.36129076853656,2.36081683040243,2.36040656045222,2.36037952464057,2.36044164460484,2.36047172620589,2.36050334092802,2.36078188234661,2.36126136630505,2.36201804422034,2.36196476755197,2.36167135866359,2.36186485779703,2.36250785747586,2.36333134588578,2.36352839556449,2.36292125973877,2.36214653909471,2.36177923537872,2.3605458742211,2.35963621486595,2.35992327037603,2.36131089790335,2.36288590923519,2.36518660797621,2.34332281189839,2.32892799594785,2.31698445225564,2.29509105188151,2.29431266606618,2.29353577965426,2.29314961861135,2.29278570726962,2.29339437825032,2.29404140479401,2.29312218091873
2.22916108365671,2.22972907042878,2.23062579199462,2.23123579568276,2.23175787117126,2.23206102429878,2.2325246739704,2.23342348810109,2.23381581009216,2.23460379986197,2.23533102237493,2.23571768825862,2.23656465718739,2.23696750567933,2.23844934086775,2.23820643472864,2.23896145937376,2.23990502713899,2.24078490608814,2.24179233719571,2.24213849614292,2.24255111097445,2.24328646992447,2.24387402178408,2.24441394449838,2.24527558062745,2.24599000584322,2.24692072663462,2.24759486372582,2.24901945078588,2.25025504261233,2.25127156170417,2.25140110356236,2.25312627769844,2.25506512971964,2.3116898536132,2.31308203555166,2.31436570704679,2.31427414861304,2.31513422784582,2.31534902524141,2.31552937308392,2.31531762493546,2.31624396175447,2.31336841968237,2.31279878366674,2.31244882915323,2.31280744108499,2.31268829990079,2.31378687624919,2.31367732701833,2.31333743713233,2.31276282461046,2.31199419949492,2.31197593932786,2.31184953802633,2.31228090830804,2.31265379380752,2.31357651883702,2.31440332987589,2.31369830517346,2.31454623881648,2.31447010646389,2.31473310736516,2.31547349676974,2.31643294206683,2.31636342822532,2.31695888023566,2.31726556030016,2.31843734496029,2.31874442504849,2.32077390456572,2.32087736932397,2.3218310484706,2.3220537142325,2.32343219520366,2.32190158819055,2.32319426218027,2.3240366775027,2.32373377916567,2.32518020324563,2.3263226406636,2.31092386735788,2.27679752763847,2.27641212803798,2.27588750232811,2.27371976711768,2.27286423821681,2.27292438137975,2.27391916307739,2.27389333964117,2.2745188303047,2.2742868874305,2.27431262252088,2.27406923479733,2.27434276857144,2.27464106358998,2.27463743255336,2.27469835644603,2.27493811608571,2.27505500985859,2.27477667538969,2.27515504380237,2.27511072098612,2.27544416795758,2.27563611855617,2.27623247618479,2.27665608089073,2.27705054110815,2.27713343938482,2.27711808066734,2.27807785813323,2.27796467802219,2.27798670260334,2.27816751014969,2.27976335894549,2.27916790204719,2.27946100939749,2.27966805173509,2.27978438697566,2.28030327836985,2.28040190243502,2.2809070616526,2.28125878870947,2.28148329390512,2.28311097603943,2.28323372139051,2.2828828701246,2.2833205618182,2.28368900368737,2.28422192147707,2.28532090198041,2.2861249011557,2.28783253232928,2.29053754637998,2.35896376550482,2.35953543068724,2.36045280962996,2.36067422384321,2.36111463135804,2.36147613269625,2.36096117930589,2.36070371872203,2.36048054230784,2.36044387947584,2.36053105122195,2.36076078699887,2.36183084427241,2.36261613965523,2.36495136463673,2.3655842347468,2.36503778314439,2.364241508936,2.36548651623492,2.36491307462031,2.36454762310078,2.36415495215668,2.36288804904257,2.36288985694063,2.36092577460105,2.36108694099059,2.36215043370285,2.36299771346966,2.36481917074582,2.36547343176326,2.36514517397811,2.36457395965808,2.32896267866708,2.29719936162589,2.29561174376655,2.29435800386836,2.29438057783483,2.29361510062064,2.29485144538798,2.29472454544089,2.29351734335713
2.22942560877028,2.23013394483079,2.23092048938391,2.23152559416334,2.23209270843358,2.23243853696313,2.23306647121462,2.23392969333706,2.23460269699607,2.23505290553227,2.2356023034954,2.23624548235392,2.23693439175031,2.23748219370221,2.23840295583161,2.2389514477774,2.2394604717491,2.24020570577953,2.24083030631171,2.24161154816404,2.24229983845641,2.24303529272007,2.24356203001301,2.24392257290527,2.24461840105167,2.24566822503849,2.24651115441518,2.24724500224089,2.24798294902674,2.24900963577521,2.24995218246327,2.25087867848294,2.25130743621923,2.25237938283917,2.28368122340377,2.31293388399937,2.31400841973248,2.31511858021535,2.31548947273001,2.31567977634173,2.3156915749256,2.31542091617049,2.31525105609728,2.3153172598711,2.31474456713714,2.31490455837872,2.31460723804888,2.31404319452023,2.31375586521002,2.31448640817536,2.31401048503371,2.31364213045596,2.31329379471925,2.31298202282161,2.31299523006895,2.31258285160325,2.3126014522428,2.31301657075554,2.31354419330028,2.31412960363307,2.31424511965234,2.31466287651036,2.31499087771387,2.31550228428559,2.31641999207222,2.31714243025806,2.31769029055646,2.31812204291433,2.31878112312127,2.31969360269759,2.32025362389506,2.32089072652585,2.3213069833228,2.3219354805868,2.32253242521073,2.32329069943592,2.32348306481025,2.3239720296528,2.32455313842179,2.32524469106583,2.32645682690156,2.32734440328887,2.31912440575966,2.30034862936121,2.27583649872265,2.27517030164764,2.27370869064579,2.27278163063711,2.27291379759647,2.27338997989732,2.2738518413435,2.27434911632,2.27427481226649,2.27429444413108,2.27457172041885,2.27465603789899,2.27485774757164,2.27495826938619,2.27501540791122,2.27503318604319,2.27514334293932,2.27522090347914,2.27550335979395,2.27571247229023,2.27595239476941,2.27624020109702,2.27653217754577,2.2768145786473,2.2770242057229,2.2771584822784,2.27734475605766,2.27781912060931,2.27802139412807,2.27821363983615,2.27873376641776,2.27950879608515,2.27962759389245,2.27976974202156,2.27993746338635,2.28027325145367,2.2804607885365,2.28074187383074,2.28104628640128,2.28133003767758,2.28166477689031,2.28236753569853,2.28268550038977,2.28294180860582,2.2833170864176,2.28347462485918,2.28378321681354,2.28450396337963,2.28555406141834,2.28750356717193,2.28926063696245,2.32326022975024,2.36093133176839,2.36116419977262,2.36129277335752,2.36142149520249,2.36149502861985,2.36139280373478,2.36119764032622,2.36081997992753,2.36082782981194,2.36139955641004,2.36281253063972,2.36357909207482,2.36461836603775,2.3654662280328,2.36575509163352,2.36528074753997,2.36496114518081,2.36527623157575,2.36496023582848,2.36451024907107,2.36372893218857,2.36278238204005,2.36211717711727,2.3612843265138,2.36133803285791,2.36214913774453,2.36347541008681,2.36483341317449,2.36561886105295,2.36587051625288,2.36549603941935,2.34209979548913,2.32264550294719,2.29568153554141,2.29509646328995,2.29446975008465,2.29379571031658,2.29387798872284,2.29377499929145,2.29360110591641
2.22946600876021,2.23027475165533,2.23118427890487,2.2317774811452,2.23262277838396,2.23256064911785,2.23323530653433,2.23437896500814,2.23565806714601,2.23530193976047,2.23598043196384,2.236510463607,2.23722845815116,2.23754762042354,2.23875056385636,2.23979470320801,2.23960567051247,2.24037242053926,2.2407677732844,2.24145824899807,2.24262130139856,2.24354104999664,2.24375246145971,2.2436361175804,2.24440682658905,2.24649424106252,2.24707460748536,2.24765088269396,2.2484901033616,2.24978114793402,2.25081442664674,2.2522455794013,2.25205845721828,2.25349936301326,2.3140439944096,2.31403842974474,2.31512826383946,2.31573714031556,2.31612480053293,2.31563795411081,2.31615963363587,2.31513315004714,2.31522088045432,2.31512905370023,2.3156078546906,2.31750420988209,2.31725988031395,2.31521928638332,2.31399426527686,2.31650010019591,2.31437596916119,2.31406112341606,2.31402952940593,2.31374070572872,2.31465258857044,2.31292353817254,2.31274050728188,2.31347333151566,2.3136008587151,2.3144979916351,2.31458829939365,2.315111088367,2.31554049435262,2.31615532316584,2.31753389508245,2.31829478682792,2.31920809491034,2.31931814994451,2.32026231647436,2.32135784188209,2.32189614931804,2.3213713537477,2.32177474738408,2.32236913206546,2.32286374772548,2.32402669071183,2.32479087365231,2.32466747664402,2.32469620705166,2.32560197462722,2.3272230037617,2.32827641654528,2.33156629914991,2.33341712935384,2.27522521431397,2.27504982461909,2.27388710446525,2.27323186221137,2.27386641377028,2.27375156909163,2.27434505163502,2.27499156866892,2.27432938880162,2.27407962153778,2.2754249809046,2.27490079794439,2.27523187141818,2.27526552575438,2.27545064361569,2.27508933650625,2.27542334939996,2.27546761017666,2.27589473511723,2.27635633676166,2.27646813966858,2.27700080790008,2.27685018849874,2.27701910724818,2.2771578945887,2.2771700597007,2.27746630247143,2.27784095536774,2.27808675112966,2.27819598910991,2.27909356607453,2.28007787553683,2.2800731437964,2.28005283378668,2.28011068818106,2.28096542850281,2.28069471784966,2.28108932691568,2.28123940840522,2.28142460619973,2.28158093048414,2.28215437324596,2.28230169429815,2.28307536872415,2.28394369904122,2.28385282690921,2.28416297413213,2.28475678372698,2.28549835627572,2.28752192370871,2.28907257476327,2.2902397237318,2.36215139793906,2.36157671755188,2.36141490573882,2.36124336654292,2.36126495133462,2.36170872686797,2.36193815055457,2.36095476500922,2.36092942732349,2.36132558377586,2.36624011907643,2.36551055496912,2.36715562584423,2.3667908819569,2.36698185594587,2.36567667903941,2.36552956712542,2.36597521330754,2.36545766013763,2.36501388271024,2.36383463982517,2.36286313688945,2.36180449187878,2.36096410223108,2.36078871088014,2.36149110318029,2.36366627590649,2.3654592062692,2.36657386366738,2.36746771873454,2.369552083,2.36980150536658,2.37080124595675,2.29536223762097,2.29537015566774,2.29499852009754,2.29453788282391,2.29432356542017,2.29384413207255,2.29414558341241
2.22995699827561,2.23072140904802,2.23150602686192,2.23209326896823,2.23264513221546,2.23309757053642,2.23373911698678,2.23453855807371,2.2351559308302,2.23552679480451,2.23617325511996,2.23699669537536,2.23765543113929,2.23814093808735,2.2388606094453,2.23959430272681,2.24004872213481,2.24072321813601,2.24123182624703,2.2418376776988,2.24257114879976,2.24348909019428,2.24402540075054,2.24429383314959,2.24507714483945,2.24624620131605,2.24726261280753,2.24797569268104,2.24904818465543,2.25039667581697,2.25171673056156,2.25265196824608,2.27404220586738,2.28924876417252,2.31464356592076,2.31455565654975,2.31509126614063,2.31589445663807,2.31622154264113,2.31627588085073,2.316125658713,2.31572283962985,2.31551916369522,2.31557659435707,2.31603169597527,2.31670341053148,2.31657359143507,2.3158067212178,2.31542540712108,2.31591517487437,2.31547351996526,2.31535451569365,2.31517861598378,2.31523300787972,2.31505128443745,2.31465046692473,2.31451160717554,2.31474993423321,2.31510631956547,2.31558324713889,2.31568302033006,2.31585324221474,2.3161866538285,2.31676587021186,2.31770457744467,2.31844259325207,2.31934020107131,2.31987849476014,2.32062580931249,2.32134973509498,2.32176148595407,2.32196597296999,2.32230787629329,2.32280725597415,2.32332467318501,2.32387708824146,2.3246613667291,2.32532201123767,2.32621308694245,2.32745919767999,2.32856748207384,2.32989981019744,2.33170912666797,2.33253591277296,2.30894409341561,2.29705002337479,2.27420021781237,2.27366714240876,2.27389361276184,2.2740516528033,2.27425344573842,2.27465640451709,2.27432610173854,2.27466491427856,2.27506791948356,2.27522063715305,2.2752936174605,2.27545077164977,2.27566382753798,2.27555681632594,2.27576802207525,2.27606813577811,2.2762126943987,2.27635575284321,2.27669888751473,2.27704178412679,2.2772078278333,2.27723732297188,2.27731840727731,2.27755675436038,2.2777820393081,2.2778540334289,2.27825418084806,2.27872181117011,2.27926220970365,2.27961917461912,2.2801263600964,2.28024097943065,2.28034798747395,2.28082625219779,2.28104641241002,2.28116852004402,2.28140102207706,2.28160105755031,2.28177536284198,2.28218748382727,2.28252742137227,2.28315503154104,2.28369360494265,2.28389772493311,2.28412547240307,2.28458261354207,2.28539383801067,2.28721136884808,2.28912844667068,2.290421602969,2.31751553763607,2.33703625064925,2.3611567762492,2.36134561878347,2.36200483449484,2.36328827519124,2.36374285606136,2.36375079830906,2.36370714052653,2.36408472589779,2.36554701845284,2.36587473406968,2.36651258333288,2.3666662687277,2.36650507222818,2.36607886743916,2.36589543403779,2.36606083826525,2.36586213541529,2.36516498531321,2.36430832756082,2.36344401081618,2.36263948192873,2.36168082456562,2.36171302890804,2.36251095324874,2.36417353118221,2.36560977902336,2.36726193202579,2.36825580416694,2.36917074799056,2.36975545691224,2.37006797569739,2.33198945850016,2.29645028574493,2.29594986823787,2.29542443545811,2.29492647420032,2.29440843511684,2.29441673914535
2.23039272534518,2.230945593231,2.23181244277633,2.23236041706386,2.23274356797817,2.23347539428348,2.23395399994934,2.23464219160334,2.23493251073696,2.2353767392836,2.23636366045372,2.23744305288115,2.23804129219101,2.23846159043565,2.23897407696063,2.23978063696661,2.24014058403995,2.24097074185432,2.24162116424961,2.24202647127649,2.24254990276265,2.24363951267837,2.24430166357293,2.24442257539213,2.24533540540546,2.24655509082818,2.24804421093162,2.24848145400905,2.24965993994479,2.25116286486079,2.25315359556383,2.25409697986422,2.28391627391779,2.31558434803802,2.31650305850496,2.31521597175996,2.31480043058205,2.31573952026361,2.31597171352295,2.31671270619324,2.31636428718921,2.31619755459253,2.31582299827243,2.31575243544548,2.3164126721548,2.31678088624829,2.31671579236972,2.31622514168153,2.31615104280287,2.3163737930588,2.3163746307789,2.31685393946306,2.31634766580477,2.31706671624621,2.3158732392425,2.31614901286213,2.31611901458505,2.31610009054613,2.31668012339733,2.31716876512586,2.31686920390055,2.31663294872022,2.3168131993914,2.31728658780006,2.31806988331761,2.31868955591358,2.31992453411481,2.32048221514332,2.32124114980995,2.32167786019713,2.32206166102203,2.32255278680813,2.3229476008997,2.32351696603458,2.32375405607132,2.32380733728223,2.32476632521391,2.32599926067624,2.32735864039288,2.32898372122689,2.32897026644262,2.32972305933582,2.33117843379665,2.33131521504269,2.33106079416401,2.33218513565287,2.2756986141437,2.27456023929142,2.2749908520569,2.27503341284158,2.27477288622478,2.27576174057903,2.27462778277654,2.27572839980083,2.27540654697288,2.2757936808083,2.27546359937555,2.27564262686644,2.27632193661436,2.27577071603415,2.27616724959592,2.276841821638,2.27652998579879,2.27621725450205,2.27700305769317,2.27740551518813,2.27775417744229,2.27742329171737,2.27743578588579,2.27799085747599,2.27843550431731,2.27753441077977,2.27835092665136,2.27923569910662,2.279652589246,2.27916320857284,2.28058083778066,2.28043557707286,2.28029477298605,2.28100038257719,2.2816745184333,2.28116934501431,2.28163272998834,2.28187643811396,2.28184062197974,2.28242374844924,2.2825078128079,2.28332860598684,2.28391536983584,2.28427159626857,2.28463302015529,2.28516269552662,2.28554392187369,2.28698804341326,2.2889999778897,2.2905798987579,2.29159143358494,2.3257811033561,2.36134050505483,2.36153961493749,2.36239477886612,2.36557254903658,2.36553266666041,2.36635693152406,2.36609121079116,2.36560542253932,2.36670105696381,2.36641658307381,2.36670262840908,2.36713898502054,2.36659498794623,2.36656845324506,2.36639283256914,2.36679622587625,2.36708444799107,2.36570238898072,2.36515601955262,2.36442817255505,2.36395094572513,2.36172610146201,2.36207118799538,2.3628184892767,2.36491060346008,2.36543187071545,2.36828030715951,2.36896379377111,2.36915884702604,2.37015862829336,2.36997387191608,2.37020791313398,2.29671955478806,2.29591361666238,2.2958266458122,2.29550995734293,2.29472525606135,2.29490105403278
2.23078517938003,2.23148926104683,2.23219369837438,2.2326649775243,2.23304623278248,2.23368433117162,2.23432566144273,2.2349666674182,2.23540086828763,2.23604540023334,2.2368800457432,2.23779241965928,2.23835823518809,2.23872047396554,2.2392480175261,2.23989530268305,2.24049028485232,2.24118103649689,2.2416306075616,2.24229046114255,2.24302905770943,2.24409260569406,2.24485219515794,2.24535397173891,2.24595261780186,2.24670037753872,2.24796612425021,2.2489052340666,2.25065669728263,2.25269029884941,2.25356827295129,2.2793209230327,2.29437550018562,2.31469727123285,2.31511274920207,2.31506289352753,2.31518224320838,2.31568808104938,2.31585325206438,2.31624921784127,2.31573186840827,2.31581070455998,2.31600342963212,2.31621353366679,2.31679796257748,2.3167412658397,2.31659628832697,2.31643749719832,2.31636790147833,2.31668619778222,2.31661805668313,2.31662904472691,2.31647247942455,2.31655301127176,2.31640712813859,2.31672049828312,2.31738953040477,2.31708899170266,2.3170363480839,2.31698735706464,2.31703238936671,2.31715946617253,2.31740362831754,2.31791533968863,2.31870118276189,2.31964851713512,2.32072243163431,2.32110174811963,2.32157338543493,2.32187750134129,2.32241346532383,2.32298208537163,2.32366971382731,2.32456360313083,2.32520221706218,2.32550918541569,2.32610710206214,2.32676496072062,2.32767685763799,2.32858556253175,2.32913112702392,2.3298866995839,2.33084951971161,2.33107931447171,2.33118930102726,2.3314517499967,2.31517207618748,2.3036780325672,2.29305496624479,2.27542664232061,2.27515311100944,2.27481825746045,2.27398055707044,2.27471019725223,2.27511226223139,2.27542751591016,2.27562745656703,2.27568968012335,2.27609312099857,2.27652830048473,2.2766060342362,2.27688695761424,2.27696056511505,2.27725402970883,2.277426109253,2.27743324727229,2.27746445025271,2.27744790097048,2.27772154281504,2.27826351792406,2.27829137028573,2.27812449312627,2.278436573509,2.27900485999328,2.27949732548512,2.28007591518108,2.28051592215322,2.28063133973503,2.28083475996328,2.28111390316991,2.28154496396924,2.28176501702578,2.28207855911782,2.28238040239632,2.28264976471702,2.28298657266229,2.2832787734345,2.28372960564586,2.28417964558838,2.28465038782058,2.28512957243153,2.28523077260056,2.28560220237344,2.28671019798368,2.2883139110288,2.28977017101477,2.29067000344582,2.31530825428682,2.33347205621801,2.36170207712417,2.36282960956123,2.36477851001702,2.36585056467122,2.3664609198971,2.36661672623082,2.36669515818296,2.36691656067714,2.36681428174601,2.36695564591506,2.36711086763386,2.3669648382448,2.36681139922341,2.36670693731695,2.36690183093839,2.36684536607125,2.36637306687589,2.36635998959165,2.36558211060367,2.36498237180355,2.36445231561499,2.36517574112722,2.36575615597324,2.36737958124572,2.36852883423845,2.37021144950978,2.37103396193022,2.37139901267229,2.37153017383434,2.37105594363465,2.3710299656104,2.35563002831862,2.35095418897971,2.34081458975198,2.32899017806138,2.31821271702424,2.31186396594089
2.23143473059337,2.23183369447062,2.23260833721217,2.2330134369978,2.23304903366145,2.23397328013398,2.23454222201927,2.23526126765368,2.23564212882447,2.23645510901959,2.23744904407896,2.23830472553649,2.23864085374536,2.23878487860557,2.23940020155313,2.24019518308543,2.24060166937847,2.24136068916997,2.24144952650966,2.24242654113903,2.24339758836041,2.24466153720047,2.2453936653404,2.24624448878181,2.24663219835238,2.24717035352841,2.24909781598384,2.24961419254362,2.25156544697971,2.25486893083903,2.25397875216073,2.31434622995552,2.31477001248756,2.31348038427222,2.31421460935863,2.31479080962227,2.31490953847154,2.31551833678403,2.31526978144253,2.31665281973772,2.31464799466736,2.31547320736182,2.31643630709284,2.31643571563997,2.31800583889781,2.31687773012133,2.31669454534018,2.31679989677676,2.31635133808363,2.31753917267134,2.31687809620919,2.31675437010965,2.31659855596154,2.31640671056782,2.31665558475947,2.31701580823318,2.31984000081265,2.31803700308087,2.31761679287398,2.31679153530718,2.31732619286648,2.31773743793934,2.31797193692913,2.31852955716629,2.31918187397553,2.32073500372793,2.32232680865219,2.32188583285482,2.32232257336333,2.32185837862021,2.32298928270546,2.3234234623,2.32446938372559,2.3261537408069,2.32697966176758,2.32721380492934,2.32749625485693,2.32760591752898,2.32815429668902,2.32842791641197,2.32878591302909,2.32920015425907,2.33046990767256,2.3304899084764,2.33124246955588,2.33117518876389,2.33232329821602,2.33477563278166,2.33605276228426,2.27631859024497,2.27609983709651,2.27581170083051,2.27373487184026,2.27550423892122,2.2759834090524,2.27572994876768,2.27659916397638,2.27614752764332,2.27638475934961,2.27801584039588,2.2771684176675,2.27745119908507,2.27758547704168,2.27873688511789,2.27831999353389,2.27774215037062,2.27758396899037,2.27761294096162,2.27813244455953,2.27925635224647,2.2786610250241,2.2784223294707,2.27855014338928,2.27910003321828,2.27938879592936,2.2813441767301,2.28084603558898,2.28083692572909,2.28143180207326,2.28114972180266,2.28180126807171,2.28229319226905,2.28257665336179,2.28298556564463,2.28350243706762,2.28372572971882,2.28394778193282,2.28413205243629,2.2844830143057,2.2851433720137,2.28636956246404,2.28561264686715,2.28580269102637,2.28635409869206,2.28773282743219,2.2892186210045,2.29025895469606,2.29047385890055,2.29186713836572,2.36224047763164,2.36347351011322,2.36500697955906,2.36591031919599,2.36631260292031,2.36677220384639,2.36757532865251,2.36763010582805,2.36740444841017,2.36753501355647,2.36768270783171,2.36763944293947,2.36733813922022,2.36720092998064,2.36757532420927,2.36735512952296,2.36685081653907,2.36869555464535,2.36703101281094,2.3662960400119,2.36622215901886,2.36817412826121,2.37186360814915,2.37017557488258,2.37119319507045,2.37276603796703,2.37309375686472,2.37315798676486,2.37278884560532,2.37153746072465,2.37212639120142,2.37403369471365,2.37433262460233,2.37454494598765,2.37471058658221,2.3751311067123,2.37734998522287
2.23150927253076,2.23234875938466,2.23316228703722,2.23375425725084,2.23396590542775,2.23449024070311,2.23510320614675,2.23567479202095,2.23603477826755,2.23676707115846,2.23749699047473,2.23833585502603,2.23889079806261,2.23920315872722,2.2398312232589,2.24057723380587,2.24138048277243,2.24198372159564,2.24242207446765,2.24344250740002,2.24423417866309,2.24512748214774,2.24565300345261,2.2461735237958,2.24677463087239,2.24753890473799,2.24886312945369,2.2499512674745,2.25184289492963,2.25397152931256,2.28285516170021,2.31519875166016,2.31549016702991,2.31478953956323,2.31487412223703,2.31525371760293,2.31558141096423,2.31597503821589,2.3160185339511,2.31653274157267,2.31604951068265,2.3173492054342,2.31802269660249,2.31879564267872,2.31991867519161,2.319594961677,2.31853658398738,2.31792812693847,2.31767230681547,2.31812636570477,2.31784067536331,2.31734365869625,2.31698194508464,2.31678961912807,2.31691179175192,2.31727343021548,2.31807435702096,2.31784649317072,2.31763911673292,2.31748727431183,2.31771267647549,2.31807793189592,2.31846255451621,2.31903686292851,2.31998357703284,2.3210128012248,2.32185552174267,2.32202408453338,2.32229553685667,2.32261298730047,2.32332126204077,2.32399047246974,2.32489100581918,2.32603368170514,2.32708359612584,2.32752941795987,2.32800134956084,2.32823270409125,2.32869013942926,2.32921422371534,2.32961324751036,2.33007930151633,2.33082798719067,2.33122485877253,2.33213693731794,2.3332857079195,2.33420606567627,2.33555400120697,2.3361945596307,2.3141678665668,2.30222309418084,2.27404194127212,2.272384159436,2.27349910605319,2.27551884863829,2.27627126486415,2.27709342019075,2.27692866744461,2.27718488470321,2.27755667216555,2.27753422499567,2.27767037272576,2.27785428687256,2.27828665853591,2.27821098966035,2.27801006452581,2.27785376021694,2.27795394659559,2.2782648764196,2.27863845802346,2.27859580136233,2.27871742393793,2.27877103712367,2.27923261669219,2.27963621410198,2.28042561261319,2.28076868936691,2.28073758517964,2.28111968751197,2.28138649034696,2.2819254838096,2.28245510758086,2.28302004913776,2.28383164388528,2.28408264224395,2.28429284924352,2.28419818867079,2.28437012353371,2.28466205069621,2.28539824079353,2.285943079847,2.28603629772964,2.28619586858772,2.28667576987454,2.28749964182485,2.28838892917103,2.28908407822599,2.28967991491171,2.29070871559385,2.3279744546331,2.3646269184551,2.36531908592963,2.36608109889719,2.3666244426905,2.36707291900528,2.36765429316855,2.36782518431186,2.36787640305629,2.36788617627841,2.36789062344224,2.36785208811636,2.36771515917574,2.36761692104211,2.3677272841417,2.36771907789093,2.36783215959226,2.3684422609462,2.3679846102,2.36774431286149,2.36723909703841,2.36815913906876,2.36985937405053,2.37112492165666,2.37285306168528,2.37423950739251,2.37487770443966,2.37481733406078,2.37442469418317,2.37398471177341,2.37438816565718,2.37482098767326,2.37545113689841,2.37570227098426,2.37603929078419,2.37598421522253,2.37633409305362
2.23186057890268,2.23266860361533,2.23369846028795,2.2348416352409,2.23448596206277,2.23506415400293,2.23552435241192,2.23609116025256,2.23600285262921,2.2371038453159,2.23753315907039,2.23853238903407,2.23914510662002,2.2392774443422,2.24015309947408,2.24101659185353,2.24222820315525,2.24250256017365,2.24283323608665,2.24464686858284,2.24524351783969,2.24595132927046,2.24602755414831,2.2464575587416,2.24743667225018,2.2486943979752,2.25014300378619,2.25081951319166,2.25210937848965,2.25477446471528,2.31894559803703,2.31483961828999,2.31570241951658,2.31418758259323,2.31427578958244,2.31532973613782,2.31583445000177,2.31676467705872,2.31637513562142,2.31754365451218,2.31546161146936,2.32038971282492,2.31978999983711,2.3209204384671,2.32348734881784,2.32309135436812,2.32014615078612,2.31894196592398,2.31841931510675,2.31965862838603,2.31907480571914,2.31802635577388,2.31741118208951,2.3170711731702,2.31704725106156,2.3172688420204,2.31751773082687,2.317861888182,2.3178419699126,2.31784691712101,2.318193978315,2.31854499093288,2.31902701411374,2.31943526306618,2.32071832867885,2.32172975112665,2.32217180126821,2.32232564978205,2.32248037274524,2.32299991001739,2.32395549605554,2.32446282347054,2.3253553898406,2.32629405134753,2.32778418695834,2.32810815504111,2.32884017289469,2.32896153354571,2.32938499368539,2.33021259005261,2.33044785924151,2.3305139642862,2.33128273736309,2.33112670502921,2.33250102922555,2.33518931525918,2.33510122468967,2.33625470151953,2.33659206237213,2.33737019442402,2.3396655133899,2.27640138217923,2.3091703219266,2.34379523799703,2.27752162109075,2.27748768749657,2.2794010169633,2.27847168755857,2.27895006106743,2.27843958966044,2.27855870339879,2.27863944935179,2.27874314479563,2.27908855583356,2.27897735001105,2.27889150072625,2.2785990149064,2.27879864039205,2.27902580327041,2.27896196333111,2.27903565489568,2.27974252056674,2.27945753358136,2.28019427706166,2.28005216838665,2.2806076637929,2.28162046869122,2.28097073422311,2.28145625787485,2.28169232327193,2.28239183944258,2.28280618944814,2.28350780870037,2.28545721991502,2.28489372087918,2.28531973223686,2.28424995649899,2.28448557248456,2.28444752590147,2.28588107191822,2.28612464302288,2.28660305989017,2.28674845692081,2.2872381168874,2.28793236867594,2.28858994662857,2.28887218473857,2.28937712610285,2.2909694180822,2.29225506309399,2.36638768181571,2.36630395250036,2.36636162627182,2.36671891028725,2.36687461246733,2.36792215113127,2.36799215594809,2.36837558524794,2.3683583780585,2.36837337208107,2.36847946488725,2.36842449920407,2.36835693019399,2.36838509660767,2.36832674119725,2.36863342094259,2.3696191118171,2.36920893068741,2.36983283910134,2.36722140266043,2.36763857026419,2.36913163041068,2.37223775414828,2.37525078879707,2.37665638969699,2.37740833616306,2.37655820292197,2.37577321083706,2.37545361540264,2.37691431813045,2.3758856003128,2.37778733572279,2.37791435344869,2.3787837504044,2.37746349299758,2.37668445583107
2.23205969492463,2.23304174542874,2.23387984969903,2.23448784344173,2.23490498449923,2.23559212014856,2.23623610096492,2.23688239074236,2.23736906162801,2.23770220055636,2.2380765741905,2.23883130073318,2.23965153545057,2.24027448402335,2.24097560152973,2.24153441948431,2.24226027325323,2.24284931270914,2.24347826677391,2.24451897109303,2.24565328261054,2.24608217169244,2.24644690784128,2.24723753189592,2.2482602106976,2.24956065501095,2.25068431377699,2.25154007780326,2.25242164786161,2.28646216020616,2.3178136266412,2.31716490990877,2.31740729700082,2.31699898271887,2.31694396789489,2.31736274820005,2.31838126526852,2.31894941117643,2.31955947903984,2.3196572789113,2.31924773054603,2.32029152753181,2.32037695892724,2.32077514754585,2.32144858191575,2.32117338032184,2.32027209067369,2.31949245589028,2.31911635176233,2.31921301723356,2.31883474206918,2.31825432014393,2.31783585491156,2.31761400561796,2.31759201901539,2.31793127043992,2.31821632871743,2.31846708048728,2.31870696534335,2.31896851851963,2.31919595574053,2.31956752213425,2.31991409117219,2.32049455111374,2.32128436340306,2.3219027273914,2.32241223518269,2.32285781380345,2.32343449728173,2.3241893225292,2.32496339846642,2.32555272320716,2.32603928400406,2.32673895865589,2.32770349644939,2.32847634173311,2.32918480846032,2.32960735778392,2.33023297485012,2.33083170395889,2.33136121677817,2.33211050926526,2.33261750009067,2.33331186831684,2.33436992280696,2.33550662565248,2.33615568720212,2.3370018778353,2.33737851804701,2.33846971829143,2.34051087110475,2.34331153047007,2.34540414271195,2.34495137331056,2.30603920121266,2.27859280251112,2.2790178021489,2.27891851587215,2.27884567502653,2.27873282008335,2.27889250226944,2.27932437878891,2.27954926875201,2.27956492925096,2.27940800640817,2.27924799939961,2.27946361872219,2.27968592644547,2.27966380324983,2.27960032642462,2.27959375971458,2.27980575814899,2.27977013662043,2.28011848428093,2.28033578534514,2.28060471203609,2.28091440913146,2.28100105471326,2.28141867384345,2.28188483754713,2.28225586045034,2.28271057624762,2.28323698041149,2.28415495145684,2.28448228035083,2.28489232541108,2.28475207357108,2.28489580076098,2.28521705227495,2.28581774174376,2.28629469347282,2.28698860019719,2.28714757418014,2.28739069102148,2.28774076197658,2.28781100022088,2.28820914138804,2.28883660367419,2.29027290056486,2.2914207095193,2.31490242767648,2.33082551237295,2.34426612086932,2.36631825404452,2.36668815077691,2.36757346203391,2.36830452603901,2.36894480007991,2.36907310053491,2.36890411976957,2.36900947169062,2.36937345422626,2.36946134120957,2.36976886850158,2.36993512733193,2.36969777778271,2.36983284522128,2.36984288181517,2.37019582665957,2.37057095996211,2.37168262706834,2.37272149195478,2.37399233959382,2.37539207335415,2.37642788180491,2.37733932676255,2.37714000593201,2.37661100665366,2.37647698924163,2.37720550159639,2.37922494607828,2.38028296806362,2.37989453387693,2.37929471669149,2.37819397706317,2.37781222518216
2.23233955206212,2.23333414286515,2.23403604335946,2.23432798089834,2.23497178870811,2.23636623907765,2.23672623212953,2.23760906821117,2.23875260148747,2.23832428594531,2.23824046611849,2.23895003282936,2.24008150445519,2.24111993259745,2.24199205154008,2.24200440621317,2.24247972845587,2.24317022410228,2.2439899294675,2.24453298836058,2.24743238744962,2.24684136445368,2.24727957199383,2.24859040722738,2.2494613102907,2.25131259695424,2.25183041891826,2.25230971160782,2.2532072537157,2.31794981073453,2.31826570549145,2.31883919943174,2.31889831757098,2.31871602568642,2.31830650896813,2.31859748111881,2.32126000087033,2.32132646110302,2.32360616820622,2.32240599172263,2.321342543289,2.32168737802311,2.32092721285275,2.32044949723889,2.32058694868786,2.31989964262901,2.32051152635116,2.31987606455309,2.31948546200211,2.31946426838192,2.31886066365458,2.3185711860422,2.31826495143206,2.31822064054077,2.31782265414333,2.3188961245553,2.31908309797527,2.31932669133842,2.31978052702619,2.32016091586134,2.32028513200245,2.32075498429432,2.32083263447476,2.32161670204476,2.32202827278464,2.3224505263392,2.32282034643202,2.32353863521339,2.32445093175243,2.32541556437786,2.32638934418211,2.32690177002976,2.32678817824594,2.32721892384646,2.32780879770889,2.32921066458798,2.3299157118971,2.33037476866316,2.33135413432135,2.33163081176764,2.33228969380052,2.33408662171825,2.33399297149946,2.3351304264045,2.33599904902225,2.33581200244287,2.33630561141833,2.3371621828153,2.3367076047162,2.33780576756336,2.33942263302804,2.34118291041392,2.34442365941633,2.34325350741855,2.34609694130462,2.27837114856789,2.27839300726305,2.27887894721167,2.27866269990648,2.27886952306433,2.2789692273831,2.27997590923084,2.28002636211345,2.27986427109741,2.27969011075485,2.2790111171745,2.27990351590267,2.28012097239832,2.27995162669125,2.28002988399106,2.28006343045972,2.28036420500275,2.28020292280674,2.28069850961924,2.28116574071562,2.28140996008113,2.28138467518501,2.2818377340508,2.28224270743288,2.28294389304963,2.28272808007624,2.28324318440424,2.28338118198334,2.28407509110637,2.28448370348036,2.28536089513892,2.28516445254795,2.28519675048188,2.28579271646692,2.28588834000064,2.28636559083532,2.28792249060945,2.28759995881518,2.28772713552095,2.28848575405119,2.28766246206238,2.28850381259743,2.28873087458772,2.2902086022571,2.29143723542262,2.29332646080838,2.29439815472341,2.32894889581708,2.36623693994192,2.36657326972443,2.36765522365621,2.36842145099217,2.36925310708901,2.36955220482352,2.36895996823131,2.36940531997848,2.3708693884829,2.37082530295518,2.37168165516131,2.37233280350956,2.37077365926771,2.37055199701284,2.37066744869081,2.37098360879316,2.3736097419973,2.37591741494625,2.37653729252898,2.37621002497041,2.37637124302271,2.37667288126259,2.37872982743531,2.37828316507721,2.37737557032678,2.37712299388612,2.3762512452159,2.38335229716319,2.38468966589148,2.38177865320008,2.38025584110152,2.37829547112707,2.378477812458
2.23267900690524,2.23376710264851,2.23435753891059,2.23465570122308,2.23525608565735,2.23606946228282,2.23692492356322,2.23774986347892,2.23851323666378,2.23911130107669,2.23913880667442,2.23962136434086,2.24044086583295,2.24134457001543,2.24210289459936,2.24261145146361,2.24321601135385,2.24372572636892,2.24445368465875,2.24522616135942,2.24651448858727,2.2470291867018,2.2478074232836,2.24908560413552,2.25012750123328,2.25109422403901,2.27322706313467,2.2874886019338,2.30017369319707,2.31914142704795,2.31958795999033,2.31971265752038,2.32005025375796,2.31999363454704,2.32009464527935,2.32043417343124,2.32136133757352,2.32169346647302,2.32237524674322,2.32219528656043,2.32192720359529,2.32174466117538,2.32138222269932,2.32130400760471,2.32147678172267,2.32095707037946,2.32067296362098,2.3202474567655,2.3199184268138,2.31977215844965,2.31973180542899,2.31906313328208,2.31872612044429,2.31864156484277,2.31886093579631,2.31958931754458,2.32037503700109,2.32018403682595,2.32010549188646,2.32028811450738,2.32056650095608,2.32095176550364,2.32130443788121,2.32189841930671,2.32249626995056,2.32322253631591,2.32375418072703,2.32423351379401,2.32494013864965,2.32568951160988,2.32640635763839,2.32690997474842,2.32728380522959,2.32788288139736,2.32870727939584,2.32965232163935,2.33038050611717,2.33085422160921,2.33154300739725,2.33220706642044,2.33288663543292,2.33373460194454,2.33436288791065,2.33527630586887,2.33589600518433,2.33647672254358,2.33729296100671,2.33806740199994,2.33869074292299,2.34027811528503,2.34135085833104,2.3436358152154,2.34501129467775,2.34483370888564,2.34543208778809,2.337204209811,2.33682663969775,2.33386203078064,2.32729085617789,2.31768142361179,2.3074716026933,2.2993790897886,2.29481778897517,2.29312132451606,2.29232696826442,2.29002117224868,2.2874128696498,2.28464303289873,2.28314754597559,2.28366136889189,2.28604036996387,2.28929840259788,2.29168686229197,2.28143358492776,2.2817431614186,2.28211576155313,2.28266878422117,2.28288653749067,2.28292691782158,2.28324070023901,2.28323761374531,2.28344212733746,2.28354638618221,2.28392255564078,2.28417961133785,2.28482850091313,2.28509348832113,2.28516099184976,2.28550886832676,2.28589663971781,2.28644075635166,2.28724482366705,2.28759333262539,2.28789846938967,2.28813676740081,2.28803688225694,2.2881613494845,2.28846676115907,2.28953955220353,2.29078883584196,2.29216595735494,2.29316051099561,2.31563250652991,2.32818058561968,2.34368713486524,2.36784269154286,2.36853482152806,2.36927536133084,2.36973053229617,2.36993485454667,2.37052304162217,2.37139814900913,2.37153001069759,2.37177147069524,2.37210077106151,2.37187120040655,2.37196594558937,2.37186866978246,2.37244139380158,2.37410568731332,2.37760208521155,2.37855603624279,2.37841269793129,2.37853227903366,2.37840031561523,2.37866667703128,2.37851811595498,2.37800451446852,2.37782746653793,2.37867604401017,2.38166190394423,2.38282362212146,2.38228416936292,2.38184789848529,2.38088676500103,2.38108614758889
2.23288699704601,2.23446435503822,2.23470017609735,2.23469377509653,2.2352477799341,2.23596915069967,2.2369536857202,2.23779349056062,2.2383295141077,2.24061302522474,2.23964157075874,2.2399973181259,2.24069857141017,2.24182316876522,2.24279814704267,2.24349907032793,2.24456770431535,2.24465857515663,2.24559466352201,2.24594497466306,2.24709552441909,2.24739243961638,2.24826988608748,2.24981648648315,2.25051088725149,2.25147855192704,2.32189876052197,2.32242772708334,2.32269141554012,2.32282041914907,2.32126935835155,2.32029246457382,2.32084771641501,2.32063838099602,2.32117843124122,2.32178942745862,2.32209065919259,2.32202289476062,2.32218090845975,2.32225362088193,2.32252533769342,2.32217618114606,2.32182216019155,2.32203125466705,2.3232839482786,2.32183010015623,2.32121514215654,2.32076021644395,2.3203513788181,2.32015925308213,2.32135815471794,2.31946651080995,2.31916122781844,2.31904548997804,2.31939172140086,2.3204970682343,2.32274281776445,2.32119303726492,2.32038761146164,2.32037801158217,2.32095426682315,2.32133608781661,2.32179677276922,2.32246959687615,2.32283300543082,2.32448522403391,2.32482718324665,2.32500078946421,2.32557873749361,2.32612488188521,2.3268083631003,2.32725940311968,2.32782082523426,2.3286445129791,2.32947689704412,2.33062919299768,2.3312055918163,2.33143374615287,2.33201955070735,2.33283520530864,2.33358784287537,2.33376545168083,2.33480930254834,2.33594881631977,2.33594280047522,2.33693030878346,2.33818400641542,2.33884901718715,2.33949185285881,2.34290285728258,2.34117629346068,2.3458837816667,2.34542936294222,2.34424380841359,2.34465375245391,2.34695974473665,2.35194064636795,2.35099829357065,2.3521094165954,2.35218857348858,2.35314840463162,2.35537335791996,2.35494469002748,2.35661196514395,2.28025762524295,2.35770236724533,2.3585839738253,2.35801602472806,2.35859827171225,2.3605253872759,2.36313938439123,2.35838144165213,2.32191358830119,2.2814784494259,2.28165764596626,2.35942639615134,2.28337601021234,2.28341543987427,2.28293150822542,2.28382456088606,2.28369308357993,2.28402597799079,2.28388421393034,2.28426899309669,2.28392951241854,2.28511913460592,2.28568003891711,2.28530047772197,2.28550944545865,2.28583003952087,2.28642665866049,2.28700306487483,2.287683244974,2.28818299889508,2.28846938711858,2.28867254655118,2.28853151636169,2.28851532846179,2.2892240296965,2.29003929026822,2.29108890822533,2.29254098435655,2.29274074526119,2.29370341791133,2.29473817806628,2.36775581771213,2.36852528208388,2.36882988711556,2.36935157270619,2.36984300896897,2.3710013780482,2.37242077231974,2.37201834402104,2.37181931264404,2.37263935685145,2.3729752486105,2.37398593027253,2.37300002464351,2.37293545793203,2.37315015134677,2.38227460105242,2.382373198012,2.3808448435533,2.38134841310022,2.3800648565705,2.37941551918519,2.37951022335985,2.37893112079526,2.37820173823497,2.37917468305656,2.38200468099515,2.38265934569548,2.38278404394651,2.38401982096111,2.3822465878089,2.38374124402219
2.23350340941572,2.23449239322488,2.23506231943953,2.23548722547814,2.23581568431738,2.23637467345643,2.23722543317676,2.23799809222817,2.23876530136654,2.23955776477109,2.23975587622683,2.24019961600276,2.24080033692647,2.24187278401463,2.24316595248693,2.24380956517202,2.24456295818097,2.24514934456683,2.24591980588643,2.24669591327855,2.24761207810713,2.24807656399923,2.26871980275637,2.27843626788115,2.28842214810174,2.29991782138147,2.32283282196285,2.32304576700573,2.32307698041842,2.32246220920129,2.32170931624285,2.3214888892387,2.32200241555873,2.32231012170269,2.32214137833567,2.32251605185451,2.3224439791434,2.32228213217979,2.32225782126493,2.32227302911943,2.32227960772958,2.32205610300768,2.32191567091134,2.32202404485595,2.32246539840559,2.32244307951659,2.32213855546029,2.32146957064594,2.32120952629686,2.32161154660311,2.32162550192311,2.32022391340854,2.31969655055485,2.31950939231527,2.3199285450232,2.32091705749771,2.3222372176176,2.32165758561758,2.32121228328352,2.32149595243305,2.32177682837244,2.32206390045017,2.32234877291633,2.32279828984888,2.32337428344803,2.32429518765945,2.32509166764416,2.32553441124008,2.32616451964938,2.3266831480274,2.3271387042663,2.32758186624636,2.328424943705,2.32945574346122,2.33022456563965,2.33090005963992,2.33149108154866,2.33190078875446,2.33251891316658,2.33327533738563,2.33397000857059,2.33465285388787,2.33542605796008,2.3363762112852,2.3371608035028,2.33807792745666,2.33919115872488,2.33969424178996,2.34051795765894,2.34273244583591,2.34327473489381,2.3450631883976,2.34564737824867,2.34555439350418,2.34602530282749,2.34768949620454,2.34970884577355,2.35035842313822,2.35121544562539,2.35195400726612,2.35273471557368,2.35373988209544,2.35413039586361,2.35469980103898,2.35474788795368,2.35625327934068,2.35719993659593,2.35793432998514,2.35917590713575,2.36124986982276,2.36265930042769,2.36347073177145,2.36735855593859,2.36926660998876,2.36937078119657,2.36581348235305,2.34386198308225,2.33621734533811,2.32746046011947,2.31882466261109,2.31110454546761,2.30427180180191,2.29917941741534,2.28504537336768,2.28489231597024,2.2854720777473,2.28560251367177,2.28543167525179,2.28573447986796,2.286459250545,2.28674789259694,2.28723984013951,2.28790607366342,2.28855520569855,2.28869269477736,2.2885826177205,2.28852410914663,2.28859743113415,2.28906560414549,2.28984692574144,2.29075845669953,2.29169587343289,2.29229335504454,2.29338424899908,2.29438098034795,2.32950960618069,2.36801792674518,2.36830378447487,2.3690343085448,2.36988324925996,2.37080129341421,2.37168918690701,2.37191828163012,2.37206164793273,2.37251436551974,2.37296702163976,2.37353546526301,2.3735435198877,2.37397564562022,2.37451172275034,2.38156795955472,2.38158661444579,2.38168023982714,2.38207066294475,2.38161114591614,2.38114055337731,2.38101803545927,2.38051432640613,2.38048288398738,2.3804830266966,2.38150395405027,2.38215438624901,2.38259375026768,2.38330579646727,2.38321490029988,2.38351816926672
2.23426355031401,2.23478883992543,2.23543066320464,2.23647988951149,2.23618483678301,2.23687960783753,2.23764610982753,2.23842733000516,2.23938378001204,2.23948452682328,2.24007094200966,2.24080484161905,2.24120233356058,2.24228787601285,2.24477418903439,2.2442967760164,2.24493636798064,2.24548705025659,2.24626807769816,2.24718478548209,2.2484270219558,2.24894342290218,2.286955109789,2.31865487743376,2.3192522896989,2.32230579426937,2.32376946182631,2.32385923850365,2.32405434241598,2.32233326282335,2.32136352628559,2.3217099607104,2.32295935489007,2.32440717539882,2.3224541469195,2.32395703015743,2.32298720063679,2.3227129755604,2.32241455323461,2.32251476699641,2.32233850279231,2.32207753904113,2.32201140364125,2.32185791155207,2.32229397201977,2.32345017455479,2.32363885492682,2.32199614637523,2.32161959299975,2.32355980573148,2.32349893440715,2.32030280059259,2.32014129434425,2.31965089581078,2.31988632382265,2.3212766656068,2.32371890083371,2.32227074298452,2.32152173446884,2.32270553654955,2.32278726095157,2.32296324365178,2.32298321692468,2.32330042829817,2.32354303974548,2.32454875778802,2.32577474487013,2.32621038970684,2.32699511919342,2.32753171411141,2.32757079906206,2.32778495595844,2.32908576376431,2.33087423426105,2.331045143706,2.33159663068867,2.33207156554403,2.33248183277152,2.3331707170087,2.3338235597263,2.33466354134322,2.33559667936389,2.33621247325419,2.33724626323166,2.33835900240283,2.33928548032673,2.34096791861394,2.34050230082011,2.34033127872248,2.34422661967586,2.34384792145081,2.34523985338149,2.34591790840359,2.34596035094908,2.3461458234186,2.3480811269768,2.34990227461251,2.35051408886526,2.35110605257504,2.3519974750369,2.35247209869336,2.35333749327967,2.35426128642042,2.35463636167478,2.35451076583741,2.35646009832381,2.35698727752074,2.35842084052763,2.35964874658656,2.36285207271063,2.36296202314835,2.36351879592077,2.36578785396555,2.36512342643243,2.36638221202642,2.36368414133645,2.3625435893188,2.36343680119298,2.36496968264262,2.36408771293552,2.36392989965801,2.36431178667615,2.3215209188855,2.28560589773363,2.28483900741839,2.28627475876565,2.28616300552285,2.28582821752314,2.28618719198878,2.28783491993629,2.28717337949126,2.28732759436015,2.28822257153012,2.28942506711152,2.28937913501724,2.2885534875193,2.28879240010625,2.2888558730887,2.28917104350315,2.29016944499301,2.2911193040542,2.2919043200177,2.29192693443056,2.29280729200918,2.29408683074343,2.29616267121082,2.36822550429188,2.36814304886668,2.36897436948136,2.3698651810437,2.37039729283161,2.37116250414802,2.37130199628282,2.37153080467485,2.37210237333708,2.37269366915103,2.37361941191591,2.37370166238396,2.37363625829612,2.37422452362454,2.38341797383562,2.38225992332225,2.38259120134514,2.38390348901264,2.38343592441421,2.38286988137128,2.3833004511792,2.3822364036484,2.38309469180663,2.38114195450056,2.38161748395053,2.38230406629661,2.38266899695178,2.38374702151108,2.38398003178234,2.3837313672188
2.23416261906176,2.23498659434429,2.23550625354011,2.23622966322974,2.2367472500227,2.23787382483613,2.23839248912162,2.23894980672819,2.23947229742004,2.23997243731687,2.2406030571833,2.24108352057284,2.24176589019362,2.24293122751479,2.24447816920566,2.2449494495137,2.2452879374218,2.2654760113407,2.27136932756542,2.28024652644321,2.29056415639767,2.30052230767993,2.3090017319171,2.31976014156937,2.32152457761686,2.32286146603339,2.32389112863278,2.32406091333979,2.32353776497789,2.32293124736694,2.32277128672177,2.32331599037927,2.32370298538211,2.3241705600748,2.32388996399259,2.32457443234673,2.32393906963343,2.32332000617214,2.32303787431698,2.32319566138377,2.32304149896325,2.32257553585671,2.32243805873327,2.32236111856766,2.32252232863853,2.32201015451204,2.32165714195498,2.32150057953473,2.32154267439527,2.32236754380926,2.32280381257219,2.32202195097708,2.32118029268505,2.32063407457621,2.32094965284591,2.32172353974637,2.32258499786595,2.32238089891545,2.32232442496966,2.32278595482784,2.32317177868123,2.32338939860314,2.32360039207478,2.3240313428097,2.32480410254055,2.32546451152306,2.32620057930589,2.32667455352383,2.32733964095056,2.32797004193895,2.32823657821118,2.32866210929015,2.3296300856961,2.33075402109851,2.33144171618155,2.33201837567219,2.3325203189827,2.33304359353747,2.33378326091158,2.3347028809172,2.33564554849954,2.33634796114073,2.33685882741134,2.33763819322119,2.33867100063457,2.33976102429851,2.34090718200644,2.34128693239166,2.34199266603213,2.3437318215891,2.34461277276899,2.34605498253674,2.3466854293148,2.3471773186416,2.34799775569589,2.34895737141133,2.35008354731948,2.35101721297025,2.35166273487784,2.35224293458177,2.3530076496736,2.35407894396428,2.35512314731441,2.35575831273209,2.35674154951929,2.3575657614487,2.35814567094254,2.35936641603423,2.36043491675074,2.36240041441705,2.36328396615305,2.36384428091874,2.36543045832591,2.36613452960523,2.36590103347908,2.36507809611825,2.36423789873219,2.36375351504677,2.36376369835641,2.36362799655077,2.3634286562788,2.36341319184884,2.33837921897473,2.32504769885018,2.30866780315076,2.28660941542875,2.28646856845578,2.28617426133179,2.28637295638254,2.28702764042974,2.28729693828757,2.28754967789669,2.2882009340625,2.28890155811315,2.28907194958869,2.28879161256097,2.28892805719442,2.2891676836072,2.28950608153942,2.29006826075785,2.29103438445166,2.29153251572026,2.29157501905386,2.29240694456586,2.29373611083984,2.29485699331356,2.31389643480611,2.32691437668166,2.33722644502871,2.34921647199296,2.37033480790401,2.37038227990798,2.3706376355839,2.37115736516137,2.37159292967304,2.37215706945045,2.37296304601215,2.37377476882189,2.37473127911555,2.37808343749833,2.38148323597534,2.38216922838369,2.38261599510171,2.3830314812281,2.38287769056218,2.38252029355989,2.382529015916,2.38242145460677,2.38273740626619,2.38225684723183,2.38183847182739,2.38217893476639,2.38245001628531,2.38292051770009,2.38307237676403,2.38317984097419
2.23447806198679,2.23579189436912,2.23589366930606,2.23673439984671,2.23708385947531,2.24008938526035,2.23942089660645,2.23988032811634,2.24012968844742,2.24108549905112,2.24225596172593,2.24212235844085,2.24282625893465,2.24370285542342,2.24540343693826,2.24534305739703,2.24545167642294,2.28656833725389,2.32911955224192,2.32828253796485,2.3272667959355,2.32562802400358,2.32656420039237,2.32751716049923,2.3260094050845,2.32325486556079,2.32422516428798,2.32387339575471,2.32224256525323,2.32251789938069,2.32316616273502,2.3250554048199,2.32446757244064,2.32491737466315,2.32440086281879,2.32678562113768,2.3249842709192,2.32389357450073,2.32334496954245,2.32439940527047,2.32412982976418,2.32296917895801,2.3230330971265,2.3228351283497,2.32355805151961,2.32058811412317,2.31967249540318,2.32104458245477,2.32092708850879,2.32162325616827,2.32355780498189,2.32395860908958,2.32218453255973,2.32103447829099,2.32154713641755,2.32235462485293,2.32260150247934,2.32262498832679,2.32282550088888,2.32303709830494,2.32392844062229,2.3239968959945,2.32424768751762,2.32472018682467,2.32614233093599,2.32662781954212,2.32694488332231,2.32730377656331,2.3278155421542,2.32906703753536,2.32877058320288,2.32932453122512,2.33025267322008,2.33144224645145,2.33193137869767,2.33288145039293,2.33307023047335,2.33372161562315,2.33452299876647,2.33560410064938,2.33719167137314,2.33745172859821,2.33759053246504,2.33808529552868,2.33899104666329,2.34048942028619,2.34178411489368,2.34214795595211,2.34289361321904,2.34427475172415,2.34499690022082,2.34781002384586,2.34772334475727,2.34812825729025,2.34965256322962,2.34954187952457,2.35023092591614,2.35153614625338,2.35197295787573,2.35178477562485,2.35278919983653,2.35419131562637,2.35581500209981,2.35601355730383,2.35885711872227,2.35858218598601,2.35830459823877,2.35996393888466,2.35988690670719,2.3626646182086,2.36369467727477,2.36298392135714,2.365513420358,2.36776288203834,2.36559119992532,2.36637980686973,2.36629651458335,2.36474755873427,2.36346208798152,2.36378704752841,2.36324214110631,2.36291979838696,2.36382638182426,2.36343906634281,2.36433585036205,2.28646964036347,2.2867677606181,2.28653984276612,2.28678366538834,2.28706171235178,2.28786913345788,2.28748192644959,2.28823854083244,2.28889902781177,2.28938496815232,2.28863028399081,2.28911144678816,2.28949760270236,2.28987142711438,2.29004119101945,2.29222076083894,2.29274088419098,2.29174418221715,2.29202798296508,2.29336932696111,2.29416138842642,2.29496137226563,2.29586963889673,2.29724424328218,2.29719069018696,2.37121546307455,2.37022927633822,2.37041675946979,2.37107432909887,2.37080949244636,2.37103861921464,2.37178506249352,2.37275238358184,2.37286252687505,2.38147466246637,2.382383219901,2.38234247567016,2.38241033577734,2.38262339639668,2.38247591873855,2.38187515235438,2.38197706648428,2.38241304611159,2.38330153172822,2.38341181539001,2.38138674014156,2.38228154988938,2.38227910545974,2.38255596467949,2.38229105697387,2.38269154985971
2.23479624057024,2.23558728269374,2.23616319570647,2.23687645676399,2.23792736464837,2.23960489470512,2.24012124812338,2.24068291050686,2.24086168678605,2.24146318920699,2.24227645661219,2.24296952181253,2.24375928292039,2.24428608287145,2.26884124203504,2.28245796086333,2.29550123984924,2.30503159843181,2.32754188041085,2.32681521815956,2.32616989558584,2.32594634366284,2.32646599920091,2.3266371877678,2.32564718099012,2.32432020954793,2.32429012366625,2.32419619133971,2.3236609704859,2.32376140228844,2.32429440908868,2.32452895063909,2.32443817004251,2.32457216189688,2.3246326937053,2.32511818125098,2.32473214255569,2.32410259520309,2.32380007553034,2.32404284820096,2.32416434848804,2.32397696581957,2.324146791048,2.32449628222326,2.32443611859355,2.3235677117519,2.32285980433369,2.32232627570954,2.32196021112154,2.32236492975532,2.32306577026123,2.32339428176956,2.32282957946311,2.32253117892596,2.32253805162805,2.32284833108157,2.32283881481181,2.32289410409627,2.32311718269388,2.32353571582599,2.32424047310707,2.3247650741142,2.32495110218809,2.32536775303339,2.32624858913764,2.32692451328296,2.3275316762945,2.32792674512718,2.32852381023047,2.32933230606096,2.32963433736407,2.33021779424839,2.33101249176646,2.33185762558036,2.33261487756579,2.33342480907303,2.3339762371065,2.33452189654816,2.33528271237848,2.33608043516842,2.33702690726835,2.3377800722051,2.33826973278503,2.33900255528026,2.34020492331566,2.34128566088664,2.34221289823893,2.34291752932265,2.34380917362648,2.34517432330331,2.34686353599517,2.34825116669492,2.34851772402143,2.34896791459471,2.3500321391353,2.35077425368312,2.35161680122233,2.35270649444515,2.35369118247384,2.3547085454067,2.35567654374648,2.35661939119705,2.3572553775694,2.35774279907477,2.35938023079328,2.3603413213701,2.36110302510492,2.36184611787163,2.36251466281556,2.36327784196554,2.36368713399527,2.36451863254279,2.365726751479,2.36645172275816,2.36593849856792,2.36605545617561,2.36600914928564,2.36565170424516,2.3652499188491,2.36532864331359,2.3648080285799,2.36478162729339,2.36464752854881,2.36406103187105,2.36382935338879,2.28823085793262,2.28733679741202,2.28682219315195,2.2867768215133,2.28711334831151,2.28768396908922,2.28787020559612,2.28838730667858,2.28886310696331,2.28913740351549,2.28926409980114,2.28962179199179,2.28992512278926,2.29026743167247,2.29069458473516,2.29148052647866,2.29174818925897,2.29164890134118,2.29206751149292,2.2926637784259,2.29323553395555,2.29415185833342,2.2951351619475,2.29617441728183,2.29633878550557,2.31528673658908,2.3252847619576,2.3374222439056,2.34812323564017,2.370723464458,2.37095848709581,2.37150879094479,2.37260895904228,2.37402458271463,2.37985279240753,2.38118366902495,2.38157293532938,2.38169777161312,2.38177999083752,2.38174519786279,2.38154770614328,2.38172483478919,2.38199304193987,2.38261995842783,2.38282822567587,2.38223544996635,2.38205414381938,2.38189931518288,2.38209022999334,2.38212424944542,2.38228819208102
2.23559334399294,2.23620172939054,2.23693743082604,2.237132463637,2.23825247503203,2.24017184852856,2.24007479133915,2.24086869041771,2.24065247845996,2.24156005531763,2.24251486963253,2.24342432546991,2.24422499166824,2.24443469358631,2.32977855970176,2.33005849805968,2.32593499838608,2.32721514429759,2.32750345004763,2.32595744531118,2.32508123073739,2.32558133532877,2.32655755436988,2.32671001470455,2.32574005966572,2.32374217058376,2.32407138943094,2.32444763479366,2.32420517242818,2.32448439425515,2.32580623037844,2.32450689130289,2.32444724063526,2.3245803486768,2.32448272992254,2.32458700419696,2.32484459436944,2.32429649799082,2.32388431698656,2.3239839384741,2.32464064050987,2.32484163058959,2.32533954196464,2.32679895099928,2.32623482164562,2.32658042112022,2.3260495117726,2.32369358568182,2.32247316610323,2.32286786084571,2.32318502382565,2.32388340035039,2.32348433072092,2.32401891352591,2.32323572218918,2.32395554826298,2.32311319690977,2.32328048783691,2.32344535781827,2.32382133523382,2.32496543196354,2.32604182066261,2.32570708761234,2.32585074443719,2.32655768741123,2.32760507527666,2.32841929222573,2.32872114829048,2.32914714877609,2.33040852584016,2.33026645536816,2.33123354175807,2.33196607181632,2.33274337767666,2.33324840707606,2.33460228042825,2.33502271136224,2.33543355760377,2.33632002323842,2.33645728778757,2.33739210602432,2.33853840306917,2.33905231022895,2.33977127242039,2.34159654514451,2.34256016610926,2.34302317948533,2.34389178635752,2.34453250677844,2.34595516663566,2.34929230178814,2.35007180387226,2.34949407220496,2.3494434706773,2.35088390331301,2.35200187018814,2.35276388661639,2.35388645588474,2.3553772617517,2.35754264796081,2.35851034974722,2.35893793031493,2.35826992621582,2.3579392914059,2.36039863656613,2.36213134759999,2.36370536140841,2.36343276553567,2.36482116300843,2.36399425215523,2.36304050639758,2.36526635593495,2.36597191899576,2.36601416256444,2.36541647828617,2.36559812132721,2.365525903444,2.36573690237778,2.36562309743583,2.36644702468464,2.3648552333981,2.36585353980295,2.36526203333433,2.36474382265433,2.36427072815356,2.28975572660944,2.2870053090321,2.28699060451476,2.28703850664636,2.28747775817383,2.28832422129598,2.2880940411921,2.28869903801097,2.28906997792571,2.28916957800369,2.28972270139916,2.29028726464276,2.29035326234993,2.29066598451282,2.29110610777823,2.29156297220257,2.29164892251736,2.29188083255121,2.29254982353205,2.29234576408541,2.29224400624224,2.29335212657562,2.29433541839312,2.29579111390382,2.29540193827469,2.29649584131019,2.29705235971468,2.2978420323429,2.2987370916646,2.37083386311593,2.30233094086627,2.37135551980274,2.37211151853655,2.37357428085706,2.38041485284793,2.38123810219703,2.38065769777938,2.38053097248598,2.38057368551987,2.38073830204304,2.38057009094082,2.38125873414286,2.38130196278589,2.3823011839313,2.38290029770241,2.382542559569,2.38174819120252,2.38129250460704,2.38172841312122,2.38170084702772,2.38160772112878
2.23647428465982,2.23709435593234,2.23795421384195,2.23838472624242,2.23890393238576,2.26210002115424,2.26477922768999,2.26993082136765,2.27526998170466,2.28536391224033,2.29595707069917,2.30182157697138,2.30772177332954,2.30977548398731,2.32823835187431,2.32833700181737,2.32770250998637,2.32820873811407,2.32864996451449,2.32857573165917,2.32725897879515,2.32699235084356,2.32706580103711,2.32675116923671,2.32587418668608,2.32506077794522,2.32511589153376,2.32526842164336,2.32545786427991,2.32547545690944,2.3258038595321,2.32485162314632,2.32454829331167,2.32436058684948,2.32439040523924,2.32454069979578,2.32466057267832,2.32456606773618,2.3245891437955,2.3249715626262,2.32534860307612,2.32571876582657,2.32581726693465,2.32621150753672,2.32626956680837,2.32622220781276,2.32561767706697,2.32418312373696,2.32318523304098,2.32299552582907,2.32299656539864,2.323351997522,2.32348644918138,2.32368510533616,2.32355601041646,2.32371711395152,2.32380078506211,2.32389928023903,2.32413402454356,2.32462590516774,2.32526588137938,2.32597620586638,2.32626976295741,2.32679640785412,2.32784884095089,2.32949821188206,2.32931803548247,2.32955543890345,2.33003609867249,2.33088044972988,2.33168178930627,2.33267823878487,2.33316990870697,2.33358659789349,2.33403115186463,2.33482926285724,2.33554902629719,2.33604310800397,2.33653008337,2.33707593250458,2.33787374735139,2.33890536459784,2.33981824109355,2.34082850061779,2.3425274298914,2.3440769308278,2.34451414685884,2.34525596483561,2.34624653849712,2.34742766094867,2.34891302467933,2.34967679004784,2.3501432008386,2.35079518617332,2.35182210572339,2.35262978927124,2.35350269754729,2.35464809963893,2.35577470887963,2.35694718774571,2.35779648415936,2.3583649549231,2.35845829722036,2.358825430473,2.36010824840972,2.36139381978963,2.36258101068317,2.36308536520439,2.36361183850693,2.36400794573714,2.36453209867636,2.36581420459421,2.36633563349486,2.36663659739463,2.36576284167117,2.36524864245542,2.36501203790572,2.36515912193778,2.36518132613516,2.36543424985443,2.3651230863625,2.36534975965873,2.36523163341522,2.36478606608598,2.3247609310908,2.28935142861314,2.28815064752097,2.28744059595511,2.28738181696072,2.28779769599853,2.28840029049227,2.28885638494194,2.28930201462327,2.28972326951525,2.2896977145371,2.29001659479253,2.290365745422,2.29060053152795,2.29093440857533,2.29138870866164,2.29164600237537,2.29187000450639,2.29211270447979,2.29246882761755,2.29254994524923,2.29273358135394,2.2932963444958,2.29360058042524,2.29431402908157,2.29485264303976,2.29583058271921,2.29657227622415,2.29714849845714,2.29772950718487,2.29801598968876,2.29923136693795,2.3184743709652,2.32868213766944,2.33994849195812,2.35054103736823,2.3564664473669,2.37939449665936,2.3794008689579,2.37964864629286,2.37993523114323,2.38004391009434,2.38020050082543,2.38027939694825,2.38097621836561,2.38147469122216,2.38147021742768,2.38095333328128,2.38043986050409,2.38064176318322,2.38087540760058,2.38117331733157
2.23692792898652,2.23707114212805,2.23819095721219,2.23830814738822,2.23890007519309,2.32993673690654,2.33042618161342,2.33024656278501,2.33174027899063,2.33282553035454,2.33235515722413,2.33104908620035,2.32858616064389,2.32706673587347,2.32755188478374,2.3282475434587,2.32859619831245,2.3292371601019,2.33019147002409,2.33245871003089,2.32779109174311,2.32759443587962,2.3274550005028,2.32692533519691,2.3258076572506,2.32536244499581,2.32619471876041,2.32620792785044,2.32708853204505,2.32629950102545,2.32727745284054,2.32476893984684,2.32480267156215,2.3242149751146,2.324215180339,2.32480730721699,2.32482321322765,2.32502813650646,2.32516208969272,2.32606964572584,2.32626624469763,2.32702916307461,2.32629180274237,2.32616475868099,2.32654009164478,2.32658210842409,2.32621111864857,2.32451174623653,2.32335306047109,2.32302545679277,2.32268901454125,2.32322404483428,2.32369891261466,2.32398908588878,2.32360755990321,2.32387540576419,2.32460114532528,2.32468480226584,2.32482216095229,2.32534544503468,2.32575026893533,2.32649033477663,2.32690007724384,2.3274616283554,2.32824615667412,2.33384140491039,2.32992289378291,2.33039140429296,2.33067105640787,2.33157212804831,2.33294220672583,2.33474013973915,2.33442670685346,2.33456833477412,2.33436892678389,2.33535388492466,2.33624361951392,2.33665615932975,2.33678143799644,2.3373525088833,2.33830679413562,2.33933047012034,2.34048620729427,2.34129001594792,2.34353196077878,2.34687225343362,2.34562989386839,2.34637850990741,2.34780518624814,2.34859809322264,2.34935648271458,2.3495757579455,2.35062078498791,2.35176871217914,2.35295544957058,2.35314113830284,2.35383542516821,2.35514840033,2.35602320395159,2.35649265200278,2.35731686793737,2.35806085406548,2.35824403376546,2.35850172260566,2.35948378694795,2.36039714661159,2.36177645631306,2.36231227230207,2.36230376745932,2.3636751478757,2.36512900839396,2.36681958728065,2.36660665562576,2.3680558477716,2.36541906826433,2.36416465211179,2.3634934029103,2.36375373966583,2.36353944083001,2.36396154676908,2.3639110228049,2.36430445376769,2.36464464900601,2.36401904311487,2.29013860216527,2.2890552011798,2.28833237568681,2.2877178846238,2.28791750499221,2.28854893775325,2.28901009206407,2.28982756096488,2.29001426772704,2.29090237542444,2.28993463480686,2.29038105757624,2.29062572105666,2.29082907745783,2.29118064535673,2.29191176984356,2.2919031099702,2.29218914788656,2.29248299484502,2.2929906797236,2.29309240992324,2.29359504813933,2.29445352969159,2.29369572198755,2.2938982474726,2.29440678181368,2.29557242624859,2.29619223848651,2.29649719869761,2.29734587761122,2.29855334390075,2.29826085971492,2.29923774671262,2.30009188147699,2.30147212726223,2.30220162918608,2.30276348245184,2.37902793146529,2.37885639643476,2.37916921716307,2.37958985239266,2.37989949836849,2.38001991556167,2.37992630030037,2.38074821126722,2.38116996825642,2.38154338270577,2.38105920213008,2.38021142512918,2.38042874498043,2.38062464228695,2.38138651650996
2.28308456012137,2.29336521233752,2.29898150782986,2.30512582756946,2.30714002843067,2.32914796396101,2.32936849541579,2.32978026736928,2.33052132895345,2.33116583202915,2.33107679551223,2.32990410184241,2.32865560682136,2.32796028892101,2.32888057418534,2.32953929283353,2.32918932819133,2.32956413117684,2.32983611517748,2.33046600271424,2.32953419902809,2.32865032596931,2.32793321441829,2.32713566310054,2.32633429361127,2.32621736441425,2.32647083830905,2.32657112109164,2.32674053996324,2.32658654116189,2.32652177414841,2.32560310015272,2.32597670082503,2.32640821077629,2.32649123428587,2.32660658455283,2.32604643008044,2.32580970909903,2.32571419889487,2.32605409100231,2.32626958265225,2.3265835952973,2.32639072121133,2.32625136194121,2.32615444628179,2.32585725700233,2.3252903711626,2.32455587444791,2.32388965086505,2.32367574335955,2.32378566561915,2.32408597061483,2.32430878961399,2.32441682857477,2.32440743113617,2.32459431453334,2.32512861397647,2.32557624376216,2.32610377592432,2.32713728884687,2.32684106537599,2.32702973349488,2.32753373904509,2.32815066151185,2.32923415226828,2.33097527431557,2.33081793803941,2.33140994483041,2.33188287308837,2.33258565467119,2.33364038277525,2.33486265468345,2.33500185093464,2.33515112775085,2.3357490813129,2.33634532592291,2.33696957243342,2.33724215463715,2.33750418606321,2.33824684587085,2.339199631209,2.34031578375657,2.34118145581321,2.34214017868757,2.34362076533167,2.34526650384894,2.34582012172791,2.34648463267812,2.34738130405721,2.34824286957575,2.3491158988868,2.34985620611385,2.3506707458678,2.35159087845074,2.35251293780319,2.35330326393268,2.35429910646128,2.3555702971835,2.35635395261572,2.35718964384653,2.35801514792235,2.35837486954814,2.35900718419642,2.3589849552401,2.35921399636098,2.36003227074604,2.36104789306799,2.36184655829508,2.36239969854711,2.36360721775754,2.36495462190487,2.36569614092785,2.36562058287536,2.36581702702336,2.36434164892238,2.36420248908263,2.36324212409546,2.3628615117764,2.36282717910159,2.36297227519736,2.36318688743979,2.36355199313377,2.33614935341043,2.31677666636854,2.2895622483,2.28895399523327,2.28831772822163,2.28772692931875,2.28787009070139,2.28853619542591,2.28911462010375,2.28964741247836,2.29009821480052,2.29053535205082,2.29055045943168,2.2906931186102,2.29078673720056,2.29099368724339,2.29129121105277,2.29186017482205,2.29217019828215,2.2926651335401,2.2927456553102,2.29287143012595,2.29306130373908,2.29345362691998,2.29387442762053,2.29377338918287,2.2940995148396,2.2946969032738,2.29545377610913,2.2957687456562,2.29586771857139,2.29646557205951,2.2972237198714,2.29765512894162,2.29839445960918,2.29914348420677,2.29994134633886,2.3006390400512,2.30119993338488,2.31588303316187,2.31684541476852,2.31695728747183,2.31850144477365,2.32219221784848,2.32719895256049,2.33199609260094,2.33562571686885,2.33797239215749,2.3393976665554,2.34020257539945,2.34048628962712,2.34024395814681,2.33935194622858,2.33761795676431
2.32857329749277,2.3315404123307,2.3312403496728,2.33143252266324,2.33329747923097,2.32941800850605,2.32940404334493,2.33021337556791,2.33007938856805,2.33057020734871,2.33123285456009,2.32943927973919,2.32911204409115,2.32796311294829,2.33072077827305,2.33188302632588,2.32859962415268,2.32932127753493,2.32866209413875,2.32992588700281,2.33089632796926,2.329429527987,2.3285578461949,2.32733231716144,2.32640391831961,2.32673652249497,2.32720227608431,2.32715860904055,2.32696024990568,2.32696107259362,2.32678397230784,2.32536917758013,2.32733150449968,2.32923998647717,2.32879692917854,2.32937458083337,2.32709930692337,2.32672532165367,2.32608172594727,2.32621318389881,2.3264339985962,2.32677819018075,2.32676291625002,2.32647910028718,2.32616580730086,2.32549269693612,2.32470485840837,2.3246810146538,2.32416737170074,2.32406211040062,2.32483937148874,2.32505647669886,2.32502439775769,2.3250917793387,2.32492324892195,2.32516659541253,2.32568247696879,2.32639873885264,2.326951943326,2.33023923400591,2.32758309767866,2.32722422976715,2.32802216157696,2.32835457921734,2.32909936501408,2.33036572807814,2.33084086834008,2.3323112565389,2.33268323550839,2.33302388389598,2.33389268150967,2.33567665290166,2.33506462267282,2.33493816817571,2.33664505418613,2.33703591308434,2.33755565863727,2.3373509341998,2.33737461183566,2.33842198676209,2.33964906282843,2.34104699062231,2.34131018735365,2.34208418733081,2.34305416973864,2.34446788809545,2.34542665610976,2.34593772698609,2.34658714628156,2.34742319196636,2.34866611141626,2.34961414780105,2.35018552295594,2.35095729343378,2.35176662257034,2.3527556085331,2.35377994629606,2.35584246161962,2.35605587181152,2.35777687787417,2.35922241619534,2.35920870552658,2.36179212854659,2.36039046731555,2.35902674815529,2.35958175116081,2.36029386849456,2.36140210041192,2.36190988303311,2.36364042745899,2.36592114135364,2.36620071130272,2.36556158660114,2.36604703686341,2.36248626068045,2.36555746753208,2.36308116213405,2.36255272532573,2.36269235309658,2.36255255496914,2.36298466186431,2.36377992602287,2.32205149288025,2.28910303836285,2.28828588417161,2.28796178504685,2.28813650238865,2.28774611564189,2.28802875235996,2.2892108890135,2.28951736800558,2.28971175418648,2.29022692955023,2.29067940786173,2.29105636892925,2.29117961960993,2.29089124976104,2.29116947461947,2.29126583716836,2.29212223852988,2.29242328479163,2.29361069489342,2.29307014174269,2.29281184557647,2.29299455445546,2.29360786507614,2.29427706912272,2.29416128836537,2.29461343185034,2.29541325816516,2.29652562130336,2.29657341662799,2.29610237196886,2.29647777355792,2.29706103162494,2.29722315132522,2.29755173639517,2.29791091407525,2.29833880820368,2.29888519308853,2.2999915897452,2.29979768892932,2.30019323147576,2.30032711720383,2.30103058502992,2.30212962214347,2.30275561518009,2.30275827509257,2.30283461796703,2.3030799452342,2.30360375173788,2.30321791364634,2.3034840970259,2.30369066075393,2.30402485461489,2.3038894324818
2.33141756358011,2.33193291044173,2.3319452566286,2.33222174920098,2.33282388752217,2.33208473114228,2.33181885399273,2.33188901099901,2.33167767373511,2.33158076614955,2.33179430165826,2.33102163362714,2.33065336228511,2.33028639383903,2.33088040150917,2.3309219024136,2.33046203002444,2.33005656159982,2.32943353295063,2.32970537612465,2.33002843783908,2.3299880658876,2.32953898945322,2.32905286165367,2.32814997037227,2.327960498511,2.32812007468759,2.32819469261285,2.32831502579339,2.32860247429713,2.32868215860755,2.32844047248145,2.32889597367519,2.32950223949653,2.32922632472314,2.32923189531241,2.32870101091701,2.32797212249299,2.32722340516582,2.32697086743217,2.32699642601087,2.32731908823626,2.32740572234786,2.32712472711512,2.32644419134879,2.32571240161949,2.32519075525319,2.32530685648424,2.3250797503688,2.32496147757757,2.3252014633526,2.32531478376456,2.32538271196231,2.32539189066322,2.32560529651767,2.32593058884014,2.32655806842557,2.32701707326185,2.32750800330755,2.32855148772611,2.32821902655879,2.3282002187178,2.32858301749962,2.329011382723,2.32981636664101,2.33099165391505,2.3323131581157,2.33355148762659,2.33355047947512,2.33346745258157,2.33364864078181,2.33436430564272,2.33453413801346,2.33487037777994,2.33580754775788,2.33634645266617,2.33697193931568,2.33719813981373,2.33767122043216,2.33848923093414,2.33944431296292,2.3403501764149,2.34093190689193,2.34177900394251,2.34262327197491,2.34361428649337,2.34466272708285,2.34536934419505,2.34633594432823,2.34721977247581,2.34815533849265,2.34899871224362,2.34964411107863,2.35060136109626,2.35135722705798,2.35234987828173,2.35405907895407,2.35675691835422,2.35820376073342,2.35906715607243,2.36284515927578,2.36435689388994,2.3647864357744,2.3639909398794,2.36282420584744,2.36036339678817,2.36004648019247,2.34995969224819,2.35052731243718,2.34919415137238,2.34592873812744,2.34110638634461,2.33587521335602,2.33113328589064,2.32694567655008,2.32292300369197,2.31858304449115,2.31380161052751,2.30910360210937,2.30555753291147,2.30377205017595,2.30328594679142,2.30086009340594,2.28865396651847,2.28831807877862,2.28796705530395,2.28792377840703,2.28781748747848,2.28817608453106,2.28881679478943,2.28946040220516,2.2899197532639,2.29049053780666,2.29104350046907,2.29135667085186,2.29131401738795,2.29136582658096,2.29161493133584,2.29187456951212,2.29224366783543,2.29276931768881,2.29319949782477,2.2931705979505,2.29314248489604,2.29327593252936,2.29359076030198,2.29404369427706,2.29431416114516,2.29471366390957,2.29533112351758,2.29609374241182,2.29639226913642,2.29653179105371,2.29713095024017,2.29694815404592,2.29681249983441,2.29684860984368,2.2971629749177,2.2978633570614,2.29845616507923,2.29922816117502,2.299750087688,2.29992741823228,2.30006588608393,2.30058417597367,2.30120212876724,2.30178064703225,2.30200817183806,2.30215029190861,2.30237128429793,2.30262546703321,2.30243765301417,2.30287759071941,2.30325719773917,2.3031509276271,2.30323811710773
