1.76538, 1.76621, 1.7625, 1.7648, 1.76614, 1.76175, 1.76296, 1.76234, 1.76024, 1.76061, 1.75775, 1.76096, 1.75582, 1.75472, 1.75563, 1.7563, 1.75648, 1.75274, 1.75438, 1.75548, 1.75607, 1.85635, 1.86335, 1.75443, 1.80516, 1.7545, 1.80271, 1.75427, 1.75202, 1.75079, 1.74814, 1.74864, 1.85861, 1.74603, 1.74591, 1.74555, 1.7454, 1.74405, 1.8605, 1.74304, 1.7382, 1.7436, 1.79245, 1.8422, 1.74435, 1.74545, 1.74708, 1.82485, 1.8265, 1.82664, 1.82443, 1.82494, 1.82404, 1.98053, 1.98219, 1.89725, 1.89723, 1.97959, 1.90251, 1.99904, 1.90224, 1.89716, 1.89687, 1.90534, 1.8957, 1.89329, 1.90557, 1.90666, 1.90653, 1.90962, 1.98641, 1.89202, 1.89154, 1.89114, 1.91017, 1.81706, 1.89282, 2.00291, 1.89283, 1.89243, 1.89282, 1.89349, 1.89653, 1.91399, 1.91623, 1.82683, 1.91618, 1.91733, 1.99972, 2.00447, 1.9901, 1.9674, 1.9674, 1.96964, 1.96902, 1.9727, 1.89075, 1.97032, 1.97041, 1.97036, 1.96829, 1.97745, 1.9709, 1.97217, 1.97172, 1.97134, 2.00058, 1.99066, 1.9968, 1.97439, 1.99432, 2.00034, 2.00518, 1.97897, 1.97886, 1.97715, 2.00618, 2.0002, 2.00704, 1.97992, 1.9975, 1.987, 1.98727, 1.90899, 2.00537, 2.00254, 1.91093, 1.99095, 2.00015, 1.99859, 1.99286, 1.988, 1.99098, 1.99715, 2.00376, 2.00399, 1.91138, 1.9906, 2.00653, 2.00732, 2.00501, 2.0109, 1.99132, 2.01238, 1.98938, 1.99267, 1.99652, 1.99665, 1.9963, 1.99422, 1.91595, 2.025, 1.9961, 2.00096, 1.84813, 1.848, 1.95427, 1.90022, 1.90024, 1.84926, 1.84959, 1.90287, 1.90251, 1.85148, 1.92984, 1.90273, 1.90594, 1.90404, 1.85548, 1.95572, 1.85725, 1.90831, 1.95114, 2.05609, 1.86113, 1.86165, 1.96341, 1.8599, 1.86188, 1.95458, 1.8601, 1.85984, 1.91148, 1.85942, 1.8592, 1.91297, 1.95817, 1.85563, 1.85638, 1.85629, 1.85597, 1.85927, 1.85784, 1.85769, 1.85907, 1.85754, 1.78872, 1.88896, 1.88688, 1.89156, 1.89349, 1.77907, 1.82767, 1.77592, 1.77317, 1.86908, 1.76948, 1.7716, 1.98556, 1.86502, 1.76553, 1.76583, 1.76455, 1.76211, 1.76488, 1.76422, 1.89648, 1.81511, 1.81378, 1.76227, 1.81064, 1.81001, 1.76132, 1.89212, 1.86225, 1.88926, 1.75832, 1.81094, 1.80789, 1.8726, 1.75607, 1.75712, 1.75742, 1.75561, 1.75628, 1.80341, 1.75558, 1.75428, 1.88183, 1.87584
1.76447, 1.7656, 1.76734, 1.76458, 1.81409, 1.81507, 1.76197, 1.75945, 1.76105, 1.85869, 1.85441, 1.76078, 1.75677, 1.75886, 1.75866, 1.85708, 1.75569, 1.7551, 1.75638, 1.75305, 1.75772, 1.86243, 1.75769, 1.75735, 1.75407, 1.75414, 1.75736, 1.75453, 1.75433, 1.93539, 1.75175, 1.74906, 1.75079, 1.74897, 1.86473, 1.86483, 1.74738, 1.86053, 1.86166, 1.74792, 1.86882, 1.80606, 1.7964, 1.74406, 1.79592, 1.79768, 1.74937, 1.99323, 1.97869, 1.82548, 1.90004, 1.90292, 1.90054, 1.90258, 1.8237, 1.82336, 1.90056, 1.9032, 1.82126, 1.90527, 1.90428, 1.8985, 1.90425, 1.8178, 1.89412, 1.9006, 1.89322, 1.89106, 1.81739, 1.89255, 1.89352, 1.90808, 1.89433, 1.89213, 1.81456, 1.91149, 1.91327, 1.8166, 1.89387, 1.81651, 1.9148, 1.91681, 1.89919, 1.90001, 1.90112, 1.91736, 1.82904, 1.91451, 2.00029, 1.97608, 1.96845, 1.96852, 1.98529, 1.99641, 1.98004, 1.97745, 1.96909, 1.8933, 1.8912, 1.97617, 1.96933, 1.96628, 1.96926, 1.97349, 1.89409, 1.97537, 1.97473, 1.97421, 1.97568, 1.97885, 1.97736, 1.97792, 1.9003, 1.98011, 1.90649, 2.0013, 1.90424, 1.99705, 1.99678, 1.98365, 1.9828, 2.01148, 1.90648, 1.99748, 2.00254, 2.0166, 2.00728, 2.00594, 1.99357, 1.9964, 1.99079, 2.00445, 1.98894, 1.98909, 2.00457, 1.91204, 1.99267, 1.99132, 1.9136, 1.9903, 2.00764, 1.99005, 2.02132, 1.91627, 1.99014, 1.9906, 1.99258, 1.91442, 1.91531, 1.99152, 1.99004, 1.99983, 1.99715, 1.99195, 1.852, 1.85123, 1.84956, 1.9017, 1.85234, 1.85022, 1.84929, 1.90274, 1.84992, 1.85138, 1.90458, 1.90423, 1.90386, 2.03427, 1.85783, 1.95092, 1.95496, 1.85948, 1.86224, 1.85787, 2.05542, 1.85822, 1.85861, 1.86154, 1.85819, 1.86111, 1.86173, 1.85922, 2.03317, 1.86148, 1.90886, 1.85959, 1.85859, 1.85655, 1.85821, 1.85803, 1.85746, 2.04188, 1.85778, 1.86033, 1.85753, 1.90784, 1.78925, 1.78505, 1.88732, 1.78231, 1.78131, 1.77911, 1.88563, 1.77607, 1.77509, 1.77358, 1.77161, 1.8928, 1.76878, 1.76793, 1.76658, 1.89329, 1.89733, 1.76395, 1.76351, 1.814, 1.76381, 1.76149, 1.76465, 1.75822, 1.76248, 1.88146, 1.89335, 1.89004, 1.89423, 1.76077, 1.75862, 1.75793, 1.80972, 1.75933, 1.8301, 1.81102, 1.75708, 1.7574, 1.80643, 1.75611, 1.75474, 1.88247, 1.87991, 1.87929
1.76837, 1.76794, 1.76886, 1.76718, 1.76421, 1.86532, 1.84842, 1.76335, 1.76427, 1.76268, 1.7623, 1.76154, 1.84684, 1.76185, 1.75823, 1.80766, 1.75638, 1.75906, 1.7543, 1.75503, 1.75422, 1.75531, 1.75486, 1.75821, 1.86076, 1.9363, 1.75587, 1.80528, 1.87342, 1.87434, 1.75252, 1.80604, 1.75179, 1.75171, 1.86459, 1.75134, 1.74774, 1.74843, 1.74749, 1.74679, 1.74509, 1.80734, 1.808, 1.74515, 1.74767, 1.74921, 1.75092, 1.97855, 1.98044, 1.9029, 1.82456, 1.8257, 1.90377, 1.82454, 1.82328, 1.90355, 1.98352, 1.90349, 1.89996, 1.90426, 1.81976, 1.89635, 1.89656, 2.00995, 2.00709, 1.89431, 1.90913, 2.00615, 1.89334, 1.89226, 1.90803, 1.89038, 1.99303, 1.91126, 1.81338, 1.89257, 1.91298, 1.89339, 1.89128, 1.91342, 1.89572, 1.914, 1.99234, 1.90119, 1.90232, 1.91729, 1.90495, 1.9142, 2.00479, 1.84911, 1.96701, 1.97835, 1.97015, 1.89424, 1.96606, 1.96728, 1.98037, 1.89254, 1.89298, 1.97569, 1.97048, 1.89462, 1.96975, 1.89429, 2.00261, 1.99118, 1.89601, 1.97623, 1.98763, 1.9941, 1.97926, 1.9786, 1.9007, 2.01015, 1.99311, 1.99532, 1.90469, 1.90694, 1.98368, 1.98584, 1.98414, 1.98429, 2.00092, 2.00703, 2.00001, 2.00055, 1.99562, 2.00083, 2.017, 2.00342, 2.00591, 1.99453, 2.00654, 2.0016, 1.99459, 2.01701, 2.00032, 1.91299, 1.99946, 1.99911, 1.99115, 2.00677, 1.91288, 2.01817, 1.98898, 1.99285, 1.99279, 1.91215, 1.90998, 1.91485, 1.9934, 1.91738, 2.00003, 1.99797, 1.85101, 2.036, 1.85256, 1.84879, 1.85035, 1.85533, 1.84875, 1.9453, 1.8517, 1.85401, 1.85404, 1.85143, 1.95549, 1.85471, 1.85475, 1.85942, 1.85757, 1.85844, 2.02878, 1.8597, 1.85941, 1.86132, 1.85876, 1.91005, 1.8593, 1.86137, 1.86078, 2.05177, 1.86139, 1.85816, 1.85846, 1.90918, 1.85835, 1.85895, 1.85612, 1.90718, 1.85433, 1.85817, 1.85924, 1.90972, 1.85591, 1.85914, 1.839, 1.90589, 1.78534, 1.88766, 1.88971, 1.77806, 1.77731, 1.77307, 1.88918, 1.77433, 1.88951, 1.76831, 1.89297, 1.8971, 1.89284, 1.76589, 1.76337, 1.76276, 1.89376, 1.76166, 1.81117, 1.76362, 1.76215, 1.76032, 1.7591, 1.86469, 1.76014, 1.76139, 1.75675, 1.76096, 1.76176, 1.82434, 1.75943, 1.87787, 1.87952, 1.81364, 1.9623, 1.75811, 1.7561, 1.75782, 1.75603, 1.87768, 1.75516, 1.75605
1.76822, 1.76733, 1.76597, 1.76765, 1.76674, 1.76364, 1.76213, 1.76165, 1.93923, 2.02486, 2.02024, 1.76096, 1.82251, 1.82294, 1.76309, 1.7594, 1.75796, 1.75765, 1.75761, 1.75765, 1.75719, 1.75691, 1.86295, 1.75857, 1.75507, 1.86175, 1.75393, 1.80661, 1.75471, 1.84789, 1.75396, 1.75303, 1.75361, 1.8584, 1.8408, 1.75052, 1.74988, 1.75029, 1.74923, 1.85286, 1.85808, 1.84991, 1.74812, 1.74733, 1.74791, 1.9397, 1.75198, 1.75186, 1.82763, 1.98272, 1.90057, 1.9006, 1.90349, 1.8234, 1.82495, 1.90325, 1.8236, 1.8998, 1.98447, 1.90426, 1.98993, 1.82107, 1.89775, 1.90544, 1.9045, 1.98358, 1.81782, 1.8946, 1.91164, 1.89215, 1.98677, 1.91112, 1.91086, 1.88837, 1.88719, 1.9109, 1.91397, 1.91623, 1.8932, 1.81412, 1.98988, 1.89436, 1.89568, 1.8217, 1.91702, 1.91588, 1.90808, 1.91632, 2.02502, 1.97189, 1.97242, 1.8932, 1.89249, 1.98616, 1.97908, 1.97928, 1.97186, 1.8957, 1.89316, 1.89284, 1.89462, 1.97349, 1.9771, 1.89566, 1.97403, 1.9739, 1.89761, 1.98888, 1.99335, 1.97606, 2.00133, 2.01067, 1.99663, 1.99372, 1.99589, 2.00069, 1.90682, 1.90654, 1.99349, 1.98696, 2.00586, 1.99251, 1.98624, 1.98667, 1.99262, 1.90992, 1.9964, 2.00392, 1.99712, 2.0313, 1.98972, 1.9898, 2.00279, 1.9885, 1.99579, 1.99031, 2.01783, 1.91358, 2.00421, 1.91317, 2.0104, 1.99414, 1.91351, 2.00569, 1.99059, 1.99138, 1.914, 1.9147, 1.91363, 1.91559, 2.00503, 1.99441, 1.99686, 2.00314, 1.85181, 1.85126, 2.04966, 1.84981, 1.9258, 1.89951, 1.90132, 1.95546, 1.95471, 1.85466, 1.85348, 1.85161, 1.85424, 2.03534, 1.85861, 1.85735, 1.85593, 1.9517, 1.91046, 1.9095, 1.86115, 1.91001, 1.9113, 1.91139, 1.85995, 1.86156, 1.86195, 2.04694, 1.85804, 1.8583, 1.85859, 1.85992, 1.85826, 1.85917, 1.91076, 1.94304, 1.90935, 2.04577, 1.85851, 1.85723, 1.94375, 1.85934, 1.78873, 1.90997, 1.90694, 1.78484, 1.8796, 1.7772, 1.77745, 1.77508, 1.87012, 1.77229, 1.88394, 1.89572, 1.88587, 1.89122, 1.81545, 1.81486, 1.81853, 1.81531, 1.89032, 1.86416, 1.76198, 1.89302, 1.76132, 1.8774, 1.7619, 1.7588, 1.75916, 1.76108, 1.89309, 1.89017, 1.88779, 1.88737, 1.75576, 1.76172, 1.75782, 1.75582, 1.96601, 1.75626, 1.75509, 1.75626, 1.87268, 1.75514, 1.75228, 1.75269
1.82077, 1.76866, 1.77086, 1.76897, 1.76834, 1.76703, 1.86515, 1.76477, 1.76661, 2.01742, 1.76445, 1.76542, 1.76376, 1.7614, 1.76446, 1.76191, 1.75994, 1.76055, 1.93898, 1.93902, 1.7589, 1.8625, 1.75864, 1.76025, 1.75788, 1.75583, 1.75878, 1.75552, 1.75444, 1.7548, 1.75524, 1.8025, 1.80384, 1.75217, 1.86869, 1.86996, 1.75078, 1.87121, 1.75046, 1.84861, 1.75018, 1.74885, 1.75003, 1.7509, 1.75068, 2.02525, 1.75129, 1.98256, 1.827, 1.82465, 1.8251, 1.8259, 1.9013, 1.90142, 1.97946, 1.9836, 1.90297, 1.90465, 1.82327, 1.89889, 1.89993, 1.90385, 1.82093, 1.98354, 1.90734, 1.8194, 1.90973, 1.98574, 1.90935, 1.9982, 1.99755, 1.89074, 1.8913, 1.91467, 1.89383, 1.89311, 1.9898, 1.91317, 1.9136, 1.91665, 1.81618, 1.9161, 1.91785, 1.91623, 1.90047, 1.91878, 1.91046, 1.91725, 1.99502, 1.99864, 1.97011, 1.96991, 1.89308, 1.96895, 1.97417, 1.89293, 1.89314, 1.8932, 1.89304, 1.89337, 1.97489, 1.97471, 1.99264, 1.99155, 1.97277, 1.99381, 1.97379, 1.99314, 1.97564, 1.97368, 1.97794, 1.90007, 2.00359, 2.00296, 1.99289, 1.99729, 1.90306, 2.013, 1.98611, 1.90651, 1.99885, 1.90916, 1.9098, 1.98845, 1.90966, 1.98464, 2.00096, 1.99454, 1.91236, 2.00725, 1.99631, 2.00025, 1.99012, 1.99051, 2.01082, 2.01055, 1.99199, 1.91305, 1.91209, 2.01416, 1.91333, 2.00412, 2.00413, 1.99011, 1.99062, 1.91183, 1.91443, 1.91381, 1.91466, 1.99283, 2.01733, 2.00419, 2.01192, 2.00367, 1.90165, 1.85451, 2.02878, 1.85226, 1.85233, 1.91035, 1.90226, 1.85344, 1.85521, 1.85426, 1.85233, 1.9038, 1.85281, 1.8582, 1.85678, 1.8567, 1.85788, 1.9069, 1.94813, 1.94703, 1.86199, 1.86059, 1.86168, 1.86222, 1.85899, 2.05943, 1.94618, 1.86038, 1.8616, 1.91007, 1.85921, 2.04627, 1.85669, 1.85892, 1.85839, 1.85757, 1.86166, 1.85958, 1.85798, 1.90776, 1.92501, 1.94193, 1.89481, 1.78552, 1.83179, 1.87355, 1.87159, 1.82798, 1.82643, 1.77224, 1.89234, 1.77251, 1.77044, 1.89126, 1.89282, 1.76796, 1.89281, 1.81631, 1.88224, 1.81367, 1.76298, 1.76205, 1.87958, 1.86261, 1.81122, 1.81268, 1.87596, 1.88914, 1.7596, 1.76217, 1.76016, 1.75801, 1.758, 1.75872, 1.75854, 1.81022, 1.75937, 1.75548, 1.75854, 1.88319, 1.75793, 1.87945, 1.75671, 1.88332, 1.88105, 1.87902
1.8693, 1.76814, 1.76974, 1.76905, 1.76579, 1.76605, 2.02382, 1.76573, 1.76337, 1.76689, 1.76376, 1.81424, 1.81425, 1.7653, 1.76237, 1.75987, 1.76103, 1.76172, 2.02007, 1.76069, 1.86425, 1.86592, 1.76117, 1.75957, 1.76117, 1.75896, 1.85781, 1.75554, 1.75681, 1.75733, 1.80661, 1.75576, 1.75418, 1.75506, 1.755, 1.75252, 1.75428, 1.75413, 1.75407, 1.7521, 1.75053, 1.8648, 1.75109, 1.75249, 1.75173, 1.75121, 1.75253, 1.82988, 1.98643, 1.8301, 1.82691, 1.82702, 1.82496, 1.90296, 1.90252, 1.9065, 1.90056, 1.9034, 1.9001, 1.98467, 1.98329, 1.90632, 1.89459, 1.99318, 1.9089, 1.89511, 1.98724, 1.98583, 1.81651, 1.89539, 1.91158, 1.99449, 1.8932, 1.89137, 1.89271, 1.91347, 1.89274, 1.89296, 1.91642, 1.91414, 1.82005, 1.8209, 1.99423, 1.99958, 1.91779, 1.90604, 1.83049, 1.90645, 2.01273, 1.96603, 1.98126, 1.96855, 1.9685, 1.96762, 1.9667, 1.98181, 1.89328, 1.89387, 1.89153, 1.96898, 1.97347, 1.97684, 1.97062, 1.97215, 1.97178, 1.8973, 1.97199, 1.98966, 1.97638, 1.97644, 2.0069, 2.00083, 2.00686, 2.0094, 1.98689, 1.90637, 1.97199, 1.97574, 2.00037, 1.98327, 1.99685, 2.01115, 1.99448, 1.98321, 1.91037, 1.98635, 2.01699, 2.0033, 1.9111, 1.91172, 1.99784, 2.00252, 1.98961, 1.99992, 1.99251, 1.91423, 1.99414, 1.9868, 2.00666, 1.98663, 2.00117, 1.98804, 2.00598, 1.9896, 1.91251, 1.99215, 1.91431, 1.91341, 1.91463, 1.91332, 2.00473, 2.00207, 2.01423, 1.99579, 1.85204, 1.85038, 1.8516, 1.85151, 1.85287, 1.90232, 1.85299, 1.8539, 1.94845, 1.92046, 1.90385, 1.85503, 1.85472, 1.90625, 1.95207, 1.85458, 1.85693, 1.91016, 1.91056, 1.90711, 1.86105, 1.85883, 1.86292, 1.9186, 1.93445, 1.86143, 1.86032, 1.85915, 1.86077, 1.8587, 1.85838, 1.85923, 1.85904, 1.85634, 1.85894, 1.85876, 1.85572, 1.85804, 1.85482, 1.85763, 1.94137, 1.85852, 1.78648, 1.78638, 1.83436, 1.78041, 1.83098, 1.82787, 1.77397, 1.88971, 1.77523, 1.89226, 1.7696, 1.76757, 1.77192, 1.76598, 1.76498, 1.8167, 1.76789, 1.81637, 1.76304, 1.76459, 1.76326, 1.76109, 1.75953, 1.89274, 1.89, 1.75947, 1.76189, 1.7613, 1.85671, 1.75694, 1.80796, 1.75987, 1.88847, 1.75873, 1.88311, 1.85916, 1.75898, 1.75636, 1.87963, 1.75484, 1.7565, 1.75525, 1.87904, 1.75462
1.77047, 1.77099, 1.77164, 1.76795, 1.76958, 1.76964, 1.86844, 1.76768, 1.76651, 1.86494, 1.76476, 1.8173, 1.8149, 1.83785, 1.81411, 1.76127, 1.76268, 1.81087, 1.76254, 1.75931, 1.75908, 1.86151, 1.76111, 1.76122, 1.75934, 1.7618, 1.75809, 1.75765, 1.75853, 1.75884, 1.75609, 1.75624, 1.75337, 1.85797, 1.87142, 1.75429, 1.85741, 1.75178, 1.7542, 1.85583, 1.85861, 1.75374, 1.86021, 1.86407, 1.75217, 1.75401, 1.75493, 1.82796, 1.83026, 1.82798, 1.82659, 1.90327, 1.9063, 1.902, 1.90502, 1.90705, 1.82358, 1.90667, 1.89884, 1.90299, 1.90952, 1.90755, 1.90869, 1.90724, 1.89563, 1.91005, 1.89351, 1.89759, 1.89549, 1.81477, 1.91273, 1.89007, 1.9113, 1.91144, 1.91449, 1.81441, 1.8942, 1.89266, 2.01761, 1.89294, 1.8981, 2.00451, 1.89592, 1.99383, 1.82788, 1.90479, 1.90713, 1.91712, 1.99344, 1.99329, 1.97075, 1.97244, 1.89379, 1.98887, 1.97314, 1.96979, 1.89312, 1.89416, 1.96958, 1.97049, 1.89341, 1.97481, 1.89634, 1.99667, 1.9752, 1.99431, 1.97577, 2.00059, 1.97594, 1.98984, 1.90097, 1.89957, 1.98068, 1.98182, 2.00818, 1.90531, 1.99078, 1.99712, 1.90698, 2.00463, 1.993, 1.99099, 1.99104, 2.00668, 1.98495, 1.98424, 1.98628, 1.98877, 1.98823, 2.01153, 2.0049, 2.00819, 2.00582, 2.00689, 1.992, 1.98743, 1.99694, 2.00614, 1.99686, 1.99019, 2.01039, 2.01056, 1.91546, 1.98854, 1.91337, 1.91315, 1.91477, 1.91466, 1.91486, 1.99384, 1.91619, 1.99406, 2.01756, 2.01945, 1.94843, 1.85198, 1.85287, 1.90238, 1.85134, 1.84967, 2.02863, 1.85401, 2.03008, 1.85553, 1.90405, 1.85438, 1.90521, 1.85651, 1.92137, 1.94864, 1.85942, 1.90985, 1.90961, 1.90999, 1.90971, 1.86233, 1.85941, 1.86078, 1.8587, 1.86136, 1.86224, 1.85813, 1.91109, 1.96205, 1.95617, 2.0491, 2.03416, 2.0453, 1.85885, 1.85976, 1.93406, 1.93208, 1.85591, 1.85913, 1.85887, 1.85603, 1.85527, 1.8894, 1.78245, 1.77715, 1.78055, 1.87695, 1.87562, 1.77282, 1.7717, 1.88895, 1.77259, 1.7686, 1.89056, 1.88936, 1.7658, 1.76246, 1.76599, 1.82746, 1.76338, 1.75967, 1.76179, 1.89208, 1.89133, 1.85452, 1.76093, 1.76125, 1.89374, 1.89147, 1.81093, 1.87729, 1.81044, 1.80939, 1.76145, 1.7561, 1.75779, 1.88179, 1.88371, 1.75839, 1.80947, 1.75515, 1.75759, 1.75508, 1.75803, 1.75612
1.77249, 1.77248, 1.77253, 1.77173, 1.77131, 1.77126, 1.76998, 1.76682, 1.76933, 1.76793, 1.85197, 1.85131, 1.81547, 1.76147, 1.76255, 1.76341, 2.02774, 1.86779, 1.76514, 1.7629, 1.8105, 1.76048, 1.76173, 1.76054, 1.81124, 2.03193, 1.75963, 1.76113, 1.76144, 1.75929, 1.81068, 1.8551, 1.75587, 1.85959, 1.75775, 1.75857, 1.75476, 1.8614, 1.75638, 1.8609, 1.75353, 1.756, 1.752, 1.75537, 1.75586, 1.75711, 1.75832, 1.82693, 1.90362, 1.90464, 1.90213, 1.90364, 1.90736, 1.90316, 1.90676, 1.82677, 1.98184, 1.99254, 1.89965, 1.9087, 1.90166, 1.90033, 1.90994, 1.91094, 1.90957, 1.91016, 1.91028, 1.89362, 1.91218, 1.91113, 1.89193, 1.91132, 1.99091, 1.9138, 1.88999, 1.81544, 1.81658, 1.89294, 1.91626, 1.91692, 1.89727, 1.99971, 2.00119, 1.90106, 1.82665, 1.83081, 1.91694, 2.00056, 2.01073, 1.85173, 1.98992, 1.89405, 1.89554, 1.9731, 1.9738, 1.97222, 1.89415, 1.9725, 1.97287, 1.97303, 1.97243, 1.97134, 1.97073, 1.89668, 1.99716, 1.97334, 1.97489, 1.97582, 1.97689, 1.99057, 1.98047, 1.90216, 1.99093, 1.90223, 1.98936, 1.90164, 1.9905, 2.00231, 2.00455, 1.90802, 1.99709, 1.99764, 2.00372, 1.98966, 2.01133, 1.99668, 1.98718, 2.00293, 1.91373, 2.00411, 2.00809, 1.9119, 1.99257, 2.00897, 1.99187, 1.91432, 2.00069, 1.99048, 2.01105, 2.00043, 2.0067, 2.00568, 2.00678, 1.99708, 1.91182, 1.91533, 1.91454, 1.99126, 1.91392, 1.99325, 1.91463, 1.91481, 1.99317, 1.91811, 1.85289, 1.85204, 1.90283, 1.85335, 1.85433, 1.94743, 1.95236, 1.94586, 2.04894, 2.03356, 1.90638, 2.01753, 1.93893, 1.90739, 1.90879, 1.85866, 1.85713, 1.86037, 1.90934, 1.85832, 1.91011, 1.86154, 1.85978, 1.85937, 2.05061, 1.8557, 1.8591, 1.85954, 1.85882, 1.91014, 1.85993, 1.85746, 2.05843, 1.85868, 1.86108, 1.85827, 1.85772, 1.90755, 1.90658, 1.85481, 1.85622, 1.85641, 1.93773, 1.78556, 1.78196, 1.7808, 1.77682, 1.8867, 1.77515, 1.93806, 1.7753, 1.77236, 1.77285, 1.89412, 1.89197, 1.86917, 1.76508, 1.86116, 1.85956, 1.81359, 1.89165, 1.76098, 1.75818, 1.75908, 1.76069, 1.75848, 1.76159, 1.76189, 1.89704, 1.89023, 1.75693, 1.75883, 1.81051, 1.75946, 1.75964, 1.75851, 1.75964, 1.76071, 1.7583, 1.80909, 1.81096, 1.75698, 1.75534, 1.88128, 1.80674, 1.87583
2.02447, 1.77509, 1.76826, 1.77044, 1.7727, 1.7743, 1.76852, 1.768, 1.76981, 1.77149, 1.81844, 1.76756, 1.76499, 1.81603, 1.76629, 1.76786, 1.76531, 1.76508, 1.76198, 2.02538, 2.02337, 1.86962, 1.76204, 1.7615, 1.76234, 1.8114, 1.81651, 1.85587, 1.7592, 1.75993, 1.76198, 1.75851, 1.76073, 1.75731, 1.75763, 1.75604, 1.75664, 1.75752, 1.75504, 1.7559, 1.75802, 1.75769, 1.75755, 1.75875, 1.75959, 1.75532, 1.75887, 1.90558, 1.82783, 1.90593, 1.83034, 1.90588, 1.99034, 1.8995, 1.98619, 1.90103, 1.90776, 1.90115, 1.90999, 1.90031, 1.90075, 1.89865, 1.91029, 1.82079, 1.89732, 1.91342, 1.89461, 1.81973, 1.89547, 1.89446, 1.81676, 1.91283, 1.91374, 1.91584, 1.91523, 1.81504, 1.91534, 1.91902, 1.89195, 1.89431, 2.01545, 1.82093, 1.82084, 1.90369, 1.91704, 1.91807, 1.90695, 1.99597, 1.84092, 1.85166, 1.89595, 1.96915, 1.98055, 1.97299, 1.97241, 1.97017, 1.89482, 1.97465, 1.97196, 1.97539, 1.89474, 1.89598, 1.89587, 1.98141, 1.97273, 2.00098, 1.99709, 1.90088, 1.99592, 1.9928, 2.00529, 1.98597, 2.01405, 1.99751, 1.90444, 1.99513, 1.99369, 1.98748, 1.99351, 1.99463, 1.98631, 1.99291, 1.90876, 1.90934, 2.00452, 1.99115, 2.00014, 2.00036, 1.98687, 2.01401, 1.91215, 2.00396, 1.91444, 2.00202, 2.0005, 1.99098, 1.99928, 1.91433, 1.91369, 1.99801, 2.01181, 1.99045, 2.01016, 1.99425, 1.99249, 1.91464, 1.91718, 1.91521, 1.91589, 1.91391, 1.99371, 1.91677, 1.9943, 1.9929, 1.95001, 1.90367, 1.90325, 1.8544, 1.852, 1.85297, 1.85312, 1.95691, 1.85155, 1.85234, 1.85408, 1.90655, 1.91729, 1.90839, 1.8562, 2.0315, 1.85638, 1.85769, 1.85879, 1.91443, 1.86072, 1.85965, 1.86163, 1.86001, 2.04857, 1.85886, 1.86165, 1.86055, 1.90833, 1.85856, 1.85593, 1.85787, 1.85787, 1.85804, 1.85766, 1.85791, 2.04651, 1.8579, 1.85806, 1.85618, 1.85627, 1.85779, 1.88564, 1.7835, 1.87899, 1.88373, 1.89029, 1.77664, 1.77554, 1.8908, 1.77279, 1.93766, 1.82202, 1.76845, 1.7657, 1.76577, 1.76404, 1.76601, 1.7652, 1.8142, 1.76361, 1.76271, 1.81294, 1.81004, 1.96578, 1.75817, 1.75825, 1.76084, 1.75886, 1.88855, 1.75524, 1.88788, 1.75833, 1.85926, 1.75911, 1.75708, 1.75939, 1.88512, 1.75993, 1.75735, 1.86467, 1.75501, 1.75883, 1.75809, 1.75833, 1.75623
1.77482, 1.77565, 2.05009, 1.77373, 1.77482, 1.77232, 1.76995, 1.77169, 1.76719, 1.76777, 1.77167, 1.76602, 1.76617, 1.76789, 1.76863, 1.76819, 1.76501, 1.9473, 1.76188, 1.7642, 1.76349, 1.86708, 1.7634, 1.76426, 1.86563, 1.81181, 1.8128, 1.76115, 1.75971, 1.76062, 1.76159, 1.75918, 1.75772, 1.86532, 1.76055, 1.75634, 1.7559, 1.75856, 1.75543, 1.75597, 1.75604, 1.86549, 1.7575, 1.8095, 1.75883, 1.75832, 1.86266, 1.83031, 1.90473, 1.82893, 1.82922, 1.90538, 1.90614, 1.82802, 1.90157, 2.01101, 1.9105, 1.90967, 1.90738, 1.82382, 1.90885, 1.91099, 1.90649, 1.82156, 1.99075, 1.89487, 1.914, 1.81838, 2.00094, 1.89543, 1.89455, 1.88998, 1.91652, 1.99373, 1.8166, 1.91709, 1.9923, 1.89206, 1.81836, 1.8177, 1.9954, 1.89774, 1.89977, 1.9063, 1.82747, 1.92203, 1.90821, 1.83354, 1.92091, 1.85325, 1.9718, 1.98777, 1.98257, 1.97289, 1.89561, 1.89565, 1.89621, 1.97298, 1.97689, 1.97274, 1.97319, 1.8956, 1.97428, 1.97583, 1.89665, 1.97399, 1.98756, 1.9865, 1.99414, 1.9011, 1.99238, 1.99405, 2.00131, 1.9997, 1.9978, 1.99582, 1.90754, 1.98326, 1.9072, 1.98204, 1.98462, 1.99966, 1.90985, 1.91046, 1.99326, 1.99477, 1.91139, 1.91367, 2.00287, 1.99816, 1.99629, 1.91407, 2.00074, 1.91333, 2.01126, 1.91297, 1.99884, 2.00794, 2.00556, 2.00387, 2.00034, 1.91269, 1.99289, 1.99995, 1.91388, 1.91432, 1.91129, 1.91359, 1.9136, 1.99268, 1.91548, 2.00686, 2.01054, 2.01411, 1.85325, 1.8547, 1.85432, 2.02986, 2.03744, 1.90407, 1.90315, 1.90203, 1.85279, 1.85286, 1.85465, 1.85595, 1.92043, 1.85779, 1.85576, 1.85752, 1.85491, 2.03882, 2.03749, 2.03066, 2.0418, 1.85686, 1.85933, 1.85982, 2.04795, 2.04109, 1.90889, 1.85934, 1.90802, 1.85798, 2.02973, 1.85846, 1.93859, 1.94209, 1.85906, 1.90844, 1.90677, 1.85475, 1.85787, 2.03069, 1.855, 2.03028, 1.78554, 1.78544, 1.78368, 1.7791, 1.87702, 1.77797, 1.88123, 1.89006, 1.77247, 1.77279, 1.77374, 1.7688, 1.76794, 1.89, 1.89587, 1.89329, 1.89012, 1.76412, 1.76255, 1.76401, 1.81181, 1.81293, 1.75921, 1.76138, 1.7594, 1.75756, 1.75908, 1.86507, 1.75986, 1.76239, 1.758, 1.93817, 1.88572, 1.75796, 1.88565, 1.88383, 1.75763, 1.88219, 1.75683, 1.80737, 1.75792, 1.80761, 1.87858, 1.75537
1.77638, 1.77757, 1.77352, 1.77443, 1.77312, 1.77517, 1.77213, 2.02772, 2.0285, 1.77068, 1.76961, 1.77028, 1.768, 1.94545, 1.76772, 1.85096, 1.86188, 1.76711, 1.76674, 1.76547, 1.76486, 1.76438, 1.76471, 1.7618, 1.86885, 1.76212, 1.8634, 1.76295, 1.76055, 1.76315, 1.76, 1.75827, 1.94395, 1.7607, 1.86561, 1.7594, 1.8657, 1.86485, 1.75859, 1.75918, 1.75802, 1.75786, 1.7602, 1.75825, 1.75904, 1.76232, 1.76288, 1.82861, 1.83115, 1.90771, 1.82835, 1.82977, 1.83031, 1.83025, 1.90467, 1.90519, 2.00088, 1.91004, 1.90684, 1.91032, 2.0002, 1.89819, 1.89997, 1.98983, 1.82301, 1.90945, 1.89623, 1.89558, 1.89703, 1.89256, 1.89305, 1.91656, 1.89476, 1.89417, 1.89359, 1.89034, 1.91642, 1.8929, 1.89361, 2.01826, 1.81965, 1.82029, 1.90039, 1.82491, 1.90338, 2.00452, 2.00738, 2.01165, 2.01162, 2.00785, 1.97548, 2.00034, 1.9723, 1.97323, 1.97409, 1.97314, 1.99417, 1.97889, 1.97412, 1.97307, 1.97551, 1.976, 1.98837, 1.99426, 1.98323, 1.97617, 1.98629, 1.98682, 1.98751, 1.99989, 1.9861, 1.98062, 1.97973, 1.97985, 1.97955, 1.98948, 1.98467, 1.98439, 1.98369, 1.98863, 1.98537, 2.00383, 1.98741, 1.99421, 1.99764, 1.91228, 1.91186, 1.99522, 2.00149, 1.99747, 1.99966, 1.91382, 1.99994, 2.00532, 2.00175, 2.01767, 2.01283, 1.99789, 1.99123, 1.91388, 1.91411, 1.99194, 2.00046, 1.9913, 1.91339, 1.91191, 1.911, 1.91432, 1.91629, 1.91508, 2.0077, 1.99212, 1.99225, 2.00473, 2.02809, 1.8556, 1.85448, 2.06287, 1.85543, 1.90388, 1.85359, 1.85233, 1.95782, 1.85438, 2.03509, 2.03191, 2.06241, 1.85782, 1.85831, 1.85798, 2.03134, 1.85949, 1.85937, 2.03509, 1.85811, 1.86177, 1.86026, 1.85987, 1.85778, 1.85874, 1.85708, 1.85929, 2.02414, 1.85901, 2.02876, 1.85838, 2.04529, 2.03868, 1.85502, 1.93478, 1.85486, 2.02776, 2.02505, 2.03199, 1.85515, 1.79243, 1.78461, 1.77863, 1.88954, 1.77886, 1.88604, 1.77713, 1.77589, 1.77199, 1.94243, 1.76538, 1.76558, 1.76834, 1.87211, 1.86994, 1.89734, 1.85827, 1.76409, 1.86189, 1.8592, 1.89573, 1.89538, 1.81221, 1.75839, 1.75786, 1.76123, 1.7598, 1.75773, 1.75869, 1.75879, 1.75829, 1.75711, 1.75763, 1.88722, 1.88438, 1.88156, 1.85154, 1.84942, 1.75502, 1.8101, 1.75796, 1.75571, 1.80672, 1.75735, 1.87541
1.7792, 1.77713, 1.777, 2.0555, 1.77817, 1.77581, 1.77453, 1.77476, 1.77162, 1.77181, 1.77339, 1.77366, 1.77156, 1.77092, 1.76875, 1.76918, 1.76922, 1.7664, 1.76574, 1.85473, 1.7641, 1.76591, 1.76592, 1.76437, 1.76551, 1.76454, 1.76488, 1.76227, 1.7622, 1.76239, 1.76191, 1.76197, 1.76178, 1.85867, 1.80981, 1.8111, 1.81121, 1.75895, 1.75927, 1.75796, 1.7598, 1.76046, 1.76076, 1.9411, 1.94166, 1.76206, 1.7617, 1.83072, 1.83074, 1.90576, 1.9063, 1.90779, 1.82882, 1.91164, 1.90686, 1.90699, 1.90667, 1.9099, 1.90984, 1.89934, 1.82389, 1.91055, 1.91075, 1.91149, 1.89866, 1.89859, 1.89456, 1.91458, 1.89475, 1.91612, 1.91558, 1.8907, 1.89371, 1.89426, 1.89586, 1.89296, 1.91606, 1.81734, 1.81693, 1.89615, 1.89678, 1.92054, 1.82402, 2.01768, 1.92033, 1.82905, 1.91816, 1.91742, 1.99797, 1.89524, 1.9782, 1.97205, 1.97845, 1.97595, 1.97485, 1.96995, 1.89634, 1.97574, 1.97623, 1.9767, 1.97482, 1.97276, 1.98521, 1.99165, 1.99376, 1.98898, 1.98871, 1.99211, 1.89966, 1.96811, 1.90328, 1.991, 1.98416, 1.99684, 1.9964, 2.00217, 1.90565, 1.98228, 1.99814, 1.90728, 2.01736, 1.98574, 1.99299, 1.99709, 2.00477, 1.99435, 2.0015, 1.98823, 1.98928, 2.00035, 1.99743, 2.0006, 1.91337, 2.00331, 1.91449, 2.00321, 1.98682, 1.98646, 2.00093, 2.00279, 1.9131, 1.99535, 2.00139, 1.99754, 1.98999, 1.91503, 1.9141, 1.91293, 1.9135, 1.91379, 1.99764, 1.99632, 2.01072, 1.91678, 1.85657, 1.85579, 1.856, 1.85509, 1.85398, 1.95692, 2.0519, 1.85427, 1.855, 1.85541, 1.85259, 1.85252, 1.95441, 2.03083, 1.85759, 1.85813, 1.85939, 1.85899, 2.05191, 2.04854, 1.85886, 1.94783, 1.8617, 2.03887, 2.05565, 1.85543, 2.02751, 2.02767, 2.02892, 1.85723, 1.85567, 1.85752, 1.85442, 2.03248, 1.85556, 2.04812, 1.85703, 1.85272, 2.03579, 2.03483, 2.03231, 1.78466, 1.78288, 1.89004, 1.78174, 1.93776, 1.93726, 1.77607, 1.7727, 1.88879, 1.77183, 1.76935, 1.87547, 1.7688, 1.76483, 1.7688, 1.81612, 1.7635, 1.75977, 1.76508, 1.76387, 1.89355, 1.89473, 1.89656, 1.89652, 1.76081, 1.75826, 1.7567, 1.89255, 1.75929, 1.75795, 1.75531, 1.7569, 1.75786, 1.75733, 1.7577, 1.80957, 1.75939, 1.75793, 1.75651, 1.76035, 1.8798, 1.75759, 1.75507, 1.87984, 1.808
1.77902, 1.87016, 1.82724, 1.7781, 1.77655, 1.77807, 1.77938, 1.7739, 1.77442, 2.04906, 1.77258, 2.03502, 1.76942, 1.77076, 1.8665, 1.77189, 1.76851, 1.76986, 1.76853, 1.77048, 1.76736, 1.76601, 1.76679, 1.8678, 1.86251, 1.86713, 1.76581, 1.76327, 1.7619, 1.86577, 1.76294, 1.76213, 1.81304, 1.76275, 1.85092, 1.76364, 1.81172, 1.81053, 1.76034, 1.7611, 1.76071, 1.76156, 1.76204, 1.9417, 1.94316, 1.76265, 1.76503, 1.91008, 1.83062, 1.82867, 1.90976, 1.90586, 1.9098, 1.90523, 1.98841, 1.90392, 1.91042, 1.9076, 1.90273, 1.90084, 1.90243, 1.89952, 1.91197, 1.89903, 1.82059, 1.89549, 1.89557, 1.99978, 1.89444, 1.915, 1.81728, 2.00072, 1.89345, 1.91867, 1.89242, 1.81774, 2.0136, 1.89432, 1.8972, 1.89439, 1.921, 1.92153, 1.89953, 1.90059, 1.90182, 1.90437, 1.92142, 1.83585, 2.03059, 2.01731, 2.00064, 1.97324, 1.97363, 2.00438, 1.97293, 1.89686, 1.89692, 1.97884, 1.97592, 1.97794, 1.9775, 1.97849, 1.97867, 1.97556, 1.97474, 1.98327, 1.98686, 1.99369, 1.90154, 1.89996, 1.9903, 1.98897, 1.99085, 2.01878, 2.00105, 1.99737, 1.90742, 1.99735, 1.98585, 1.98672, 1.90849, 1.98517, 1.90973, 1.98769, 2.00422, 1.9949, 2.00675, 1.91201, 1.91264, 1.99912, 1.99702, 1.91354, 1.91519, 1.9875, 2.00246, 1.9937, 2.01473, 1.91443, 1.98619, 1.99692, 2.00018, 1.99939, 1.98788, 1.99011, 1.98926, 1.91353, 1.91368, 1.91561, 1.9137, 1.91592, 2.01044, 2.00764, 1.91802, 2.03146, 1.95031, 1.85598, 2.011, 1.90657, 1.85478, 1.96064, 1.85265, 2.04882, 1.85134, 1.85493, 1.85333, 1.85442, 1.85826, 1.85648, 1.85904, 1.85592, 1.85866, 1.85844, 1.86127, 1.85944, 1.90876, 1.85909, 1.86162, 2.0315, 1.85913, 1.85804, 1.85967, 1.85767, 1.85658, 1.85851, 1.85836, 1.85533, 1.85482, 1.85533, 1.85705, 1.85432, 1.95766, 1.8563, 1.85241, 1.85461, 1.85543, 1.8351, 1.86574, 1.78052, 1.78346, 1.88782, 1.77326, 1.77306, 1.7739, 1.77392, 1.77426, 1.76638, 1.8205, 1.76662, 1.76716, 1.76624, 1.89174, 1.86801, 1.7615, 1.76276, 1.8805, 1.76271, 1.75957, 1.7618, 1.75837, 1.75857, 1.75883, 1.89125, 1.75877, 1.88988, 1.80698, 1.80814, 1.75856, 1.75854, 1.88921, 1.88492, 1.75834, 1.88202, 1.75809, 1.88207, 1.882, 1.75842, 1.75691, 1.75408, 1.88176, 1.87963
1.78014, 1.78235, 1.83023, 1.82933, 1.77901, 1.82737, 1.94957, 1.87056, 1.77451, 1.77317, 1.77535, 1.87331, 1.77368, 2.02814, 1.77193, 1.77025, 1.77167, 1.77264, 1.77123, 1.76605, 1.76874, 1.76876, 1.81774, 1.7682, 1.86873, 1.87035, 1.76778, 1.76523, 1.76441, 1.76166, 1.76433, 1.76394, 1.765, 1.81369, 1.85161, 1.7643, 1.76158, 1.85178, 1.76259, 1.94323, 1.94289, 1.76165, 1.76259, 1.81375, 1.76504, 1.7655, 1.76707, 1.98831, 1.83241, 1.90684, 1.83208, 1.90892, 1.90951, 1.91166, 1.82889, 1.90586, 1.90504, 1.90469, 1.90333, 1.90268, 1.98945, 1.90034, 1.91288, 1.89913, 1.89791, 2.00409, 1.82041, 1.9175, 1.89442, 1.99786, 1.89468, 1.81804, 1.81671, 1.81799, 1.89328, 1.89369, 1.89614, 1.8975, 1.89608, 1.89399, 1.8217, 1.89803, 1.90031, 1.8274, 1.92101, 1.90752, 1.91991, 1.92281, 2.02216, 2.01111, 1.97676, 1.97505, 1.97332, 1.97264, 1.89668, 1.97493, 1.89686, 1.89613, 1.89655, 1.97672, 1.89796, 1.8973, 1.98296, 1.9751, 1.99054, 1.98366, 1.8998, 1.99022, 1.98979, 1.9905, 1.98909, 1.98988, 1.99286, 1.99651, 1.98264, 1.98272, 1.98818, 1.99515, 1.98483, 1.98597, 1.98601, 2.00433, 2.00557, 1.98749, 1.91313, 1.91171, 2.00097, 1.99016, 1.99745, 1.99693, 1.99664, 2.00001, 1.9137, 1.99673, 1.99011, 2.01036, 1.91284, 1.99034, 2.01288, 2.01081, 1.99133, 1.99001, 2.00725, 1.99033, 1.99272, 1.91371, 1.91543, 1.91636, 1.91414, 1.91734, 1.99421, 2.02067, 1.99448, 1.85773, 1.85739, 1.85776, 1.90669, 1.90633, 1.90474, 1.90398, 1.95142, 2.03827, 1.85345, 1.85472, 1.95215, 1.85413, 1.85466, 2.03778, 1.85601, 1.85584, 1.85675, 1.862, 1.85701, 1.86149, 1.85948, 2.04927, 2.04619, 1.85557, 1.90971, 1.93546, 1.93327, 1.85786, 1.85506, 1.85856, 1.85416, 1.85601, 1.85689, 1.85677, 1.85584, 1.85575, 1.85382, 1.85476, 1.90589, 1.90423, 1.85239, 1.83896, 1.78245, 1.8328, 1.78166, 2.08335, 1.7751, 1.89414, 1.82375, 1.88655, 1.88983, 1.89004, 1.8865, 1.76905, 1.76536, 1.89189, 1.76323, 1.76309, 1.76307, 1.81449, 1.76246, 1.76, 1.75788, 1.85899, 1.76079, 1.87482, 1.75941, 1.75868, 1.75891, 1.75804, 1.75914, 1.75756, 1.87511, 1.8087, 1.75977, 1.75946, 1.88781, 1.75801, 1.7548, 1.81436, 1.81524, 1.87631, 1.87312, 1.80712, 1.91394, 1.87589
1.87275, 1.78187, 1.77822, 1.77892, 1.78073, 1.86789, 1.77808, 1.77781, 1.86543, 1.77818, 1.86983, 1.87489, 1.77352, 1.87254, 1.77522, 1.76889, 1.77232, 1.77285, 1.77209, 1.87496, 1.76777, 1.767, 1.77118, 1.76841, 1.76926, 1.86953, 1.76791, 1.76769, 1.84293, 1.76246, 1.76473, 1.76473, 1.76203, 1.81512, 1.76448, 1.76342, 1.85223, 1.76522, 1.7619, 1.94798, 1.94502, 1.7645, 1.7651, 1.76603, 1.76722, 2.02112, 1.76777, 1.8341, 1.99222, 1.91228, 1.83019, 1.91327, 1.9098, 1.91337, 1.91051, 1.90619, 1.91066, 1.90298, 1.91338, 1.90246, 1.91382, 1.91263, 2.00288, 1.91613, 1.82101, 1.89581, 1.89446, 1.81992, 1.89577, 1.89548, 1.91998, 2.01389, 1.92154, 1.92142, 2.00706, 1.89575, 1.89593, 1.92462, 1.81626, 1.89495, 1.89895, 1.92398, 1.82362, 1.92328, 1.90669, 1.9088, 1.91792, 1.92214, 2.00332, 1.85564, 1.98864, 1.98743, 1.97607, 1.97427, 1.97582, 1.89768, 1.97554, 1.89705, 1.89747, 1.89917, 1.97948, 1.97764, 1.97619, 1.97833, 1.9996, 1.99412, 1.9719, 1.97546, 1.9785, 1.90314, 1.97041, 1.96945, 1.99036, 1.98238, 1.984, 1.99993, 1.90709, 1.99806, 2.00344, 2.00817, 2.00371, 1.99032, 2.01374, 2.00394, 2.00318, 2.00465, 2.00716, 1.91381, 1.98824, 2.00997, 2.00808, 2.00508, 1.91503, 1.91622, 2.00121, 2.00964, 2.00094, 2.01515, 1.98963, 1.91536, 1.99131, 2.00097, 1.99931, 1.99565, 1.989, 1.91462, 1.91555, 1.918, 1.9937, 1.99566, 1.91562, 2.02099, 2.02423, 2.0164, 1.85883, 1.85505, 1.85588, 1.85618, 1.85586, 2.05048, 1.85476, 2.03534, 1.85545, 1.85281, 1.85812, 1.91051, 1.91106, 1.95518, 2.02966, 2.02882, 1.85805, 1.85757, 1.8564, 2.04039, 2.04279, 1.85927, 1.85849, 1.85636, 1.85584, 2.02399, 1.93657, 1.85838, 2.04852, 1.85588, 1.85495, 1.85822, 1.85524, 2.02572, 1.85457, 1.85844, 1.85571, 1.85501, 1.85212, 1.906, 1.85176, 1.8693, 1.86976, 1.87277, 1.78013, 1.77845, 1.77682, 1.77225, 1.82305, 1.89538, 1.77018, 1.7721, 1.77147, 1.88531, 1.88742, 1.7648, 1.76376, 1.81512, 1.81417, 1.81687, 1.81461, 1.76013, 1.75952, 1.76084, 1.75861, 1.75616, 1.89019, 1.76209, 1.75919, 1.89315, 1.8094, 1.87235, 1.87415, 1.80807, 1.80776, 1.75447, 1.88629, 1.88518, 1.75929, 1.81668, 1.81695, 1.86657, 1.7588, 1.8795, 1.75588, 1.76027
1.78309, 1.78342, 1.78175, 1.87888, 1.78118, 1.78018, 1.78042, 1.77862, 1.77531, 1.77903, 1.7769, 1.87898, 1.88088, 1.77597, 1.77336, 1.8231, 1.77353, 1.87559, 1.76947, 1.77188, 1.7711, 1.87503, 1.81981, 1.88695, 1.77015, 1.76992, 1.77123, 1.76844, 1.76826, 1.86625, 1.76469, 1.76619, 1.81638, 1.81618, 1.81497, 1.76447, 1.76593, 1.81475, 1.81666, 1.76652, 1.7651, 1.76491, 1.7663, 1.76687, 1.76612, 1.76628, 1.81987, 1.98707, 1.90902, 1.91024, 1.90913, 1.9134, 1.91315, 1.91307, 2.00866, 1.91174, 1.82802, 1.91421, 1.9134, 1.91376, 1.89972, 1.89951, 1.89976, 1.89989, 1.82207, 1.82298, 2.00319, 1.82107, 1.8966, 1.91882, 1.89622, 2.01116, 1.91761, 1.89585, 1.81932, 1.92421, 1.89593, 1.92153, 1.81721, 2.01083, 1.89787, 1.92174, 1.82608, 1.82774, 1.99771, 1.9231, 2.0008, 2.00029, 1.99949, 1.97694, 1.89858, 1.8984, 1.97603, 1.97666, 1.97653, 1.97448, 1.89711, 1.89751, 1.8977, 1.97584, 1.97512, 1.97958, 1.98249, 1.99446, 1.89986, 1.99377, 1.97628, 1.97536, 1.90169, 1.97897, 1.98035, 1.90423, 1.97463, 1.90793, 1.99115, 2.0004, 1.99573, 1.98388, 1.90928, 2.01126, 1.98599, 1.98606, 2, 2.00353, 1.99271, 1.98899, 1.91308, 1.99674, 1.99104, 1.9897, 1.98749, 1.98718, 2.00741, 1.91498, 1.99708, 1.9975, 2.00261, 2.01208, 1.99741, 1.99663, 1.99694, 1.98938, 1.99242, 1.99148, 1.99099, 1.99106, 1.91453, 1.91488, 1.91445, 1.99401, 1.9146, 2.01833, 1.91804, 2.01865, 1.85755, 1.90649, 1.85189, 1.85678, 1.85718, 1.85427, 1.85234, 1.94449, 1.85389, 1.85529, 1.85465, 1.94231, 1.91301, 1.85668, 1.85518, 1.8581, 1.85764, 1.857, 1.85799, 1.85843, 1.85622, 2.04588, 1.85829, 1.85841, 1.85805, 1.85682, 1.90638, 2.04927, 1.85728, 1.90793, 1.90766, 1.90573, 1.90405, 2.02855, 1.85346, 2.03535, 1.85394, 1.90331, 2.02259, 1.854, 1.85475, 1.83422, 1.86925, 1.78176, 1.82762, 1.83782, 1.87553, 1.88409, 1.77336, 1.82148, 1.81982, 1.76825, 1.76754, 1.88537, 1.82038, 1.87298, 1.8895, 1.88771, 1.87537, 1.76235, 1.81567, 1.76207, 1.76096, 1.75976, 1.75961, 1.75976, 1.8911, 1.88635, 1.75727, 1.75616, 1.75523, 1.80705, 1.7587, 1.87297, 1.75936, 1.75785, 1.75624, 1.75892, 1.75814, 1.87355, 1.81514, 1.88531, 1.87823, 1.88199, 1.75554, 1.80653
1.83458, 1.83389, 1.83379, 1.95572, 2.05512, 1.77844, 1.77977, 1.77947, 1.78003, 1.77941, 1.77813, 1.77493, 1.77484, 1.77559, 1.87844, 1.776, 1.82352, 1.82588, 1.87052, 1.7735, 1.7741, 1.77243, 1.86192, 1.77166, 1.76967, 1.77122, 1.76833, 1.87348, 1.76827, 1.85945, 1.76711, 1.76863, 1.76877, 1.76451, 1.76587, 1.76515, 1.8163, 1.81538, 1.76477, 1.86437, 1.76543, 1.76688, 1.76549, 1.76483, 1.7662, 1.76632, 1.92546, 1.91015, 1.99492, 1.99347, 1.91215, 1.91287, 1.83438, 1.83071, 1.82946, 1.91367, 1.82802, 1.82706, 1.90327, 1.90353, 1.9031, 1.91492, 1.90144, 1.92007, 1.90006, 1.89967, 1.92052, 1.89969, 1.92111, 1.92099, 2.01356, 1.92019, 1.89649, 1.89387, 2.00474, 1.89268, 1.92206, 1.89613, 1.92464, 1.89774, 1.90039, 1.89878, 1.82652, 1.90474, 1.92366, 1.90955, 1.83865, 2.00288, 2.0064, 2.00038, 1.99368, 1.97578, 1.899, 1.89698, 1.97793, 1.98633, 1.97251, 1.97253, 1.89811, 1.89799, 1.97691, 1.9767, 1.97587, 1.97588, 1.97921, 1.97641, 1.97897, 1.98982, 1.98031, 1.98332, 1.99467, 1.9919, 1.98916, 1.98417, 1.9937, 1.90781, 2.00452, 1.99078, 1.99073, 1.99822, 1.99647, 2.00241, 1.99074, 1.99846, 2.00402, 1.9901, 1.91482, 2.00037, 1.99615, 1.99044, 1.98875, 1.99732, 2.00738, 1.9978, 1.99585, 1.99812, 2.00342, 1.91471, 2.00064, 1.99757, 1.99179, 1.99302, 1.99422, 1.99628, 1.99294, 1.991, 1.91485, 1.9939, 1.99493, 1.99645, 2.00439, 2.01998, 2.01555, 1.91783, 1.95635, 1.94797, 1.85784, 2.04472, 1.952, 1.85437, 1.8545, 2.02852, 1.85408, 1.85433, 1.85565, 1.95439, 2.03463, 1.91158, 1.85584, 1.85722, 1.90948, 1.85793, 1.86144, 2.04087, 1.85768, 1.85917, 2.04316, 1.9417, 1.85752, 1.9085, 1.85829, 2.04964, 1.85799, 1.90611, 1.90452, 1.85418, 1.85412, 1.85333, 1.85382, 2.04813, 1.85426, 1.85427, 1.90164, 1.85124, 1.90296, 1.83509, 1.78138, 1.82881, 1.83033, 1.84749, 1.82361, 1.87848, 1.77068, 1.87851, 1.76931, 1.82052, 1.81647, 1.76748, 1.82169, 1.76488, 1.76295, 1.81327, 1.84712, 1.81299, 1.76177, 1.89086, 1.76077, 1.75901, 1.75877, 1.75442, 1.89245, 1.75684, 1.8967, 1.89569, 1.75543, 1.75606, 1.80759, 1.817, 1.75511, 1.7589, 1.75916, 1.75658, 1.75784, 1.88285, 1.88144, 1.75795, 1.88263, 1.86001, 1.75649, 1.75768
1.8453, 1.84713, 1.7852, 1.7866, 1.78327, 1.78308, 1.78203, 1.78184, 1.77876, 2.03243, 1.87805, 2.03476, 1.87638, 1.77624, 1.88173, 1.77763, 1.82716, 1.77534, 1.77541, 1.77568, 1.77573, 1.77411, 1.77366, 1.77481, 1.76897, 1.77175, 1.77003, 1.77138, 1.76929, 1.77114, 1.77001, 1.76769, 1.95321, 1.87078, 1.76637, 1.76662, 1.76787, 1.76813, 1.76594, 1.76818, 1.88031, 1.86496, 1.8552, 1.76809, 1.76851, 1.76998, 1.94843, 1.91335, 1.91167, 1.91259, 1.90989, 1.91152, 1.91445, 1.99331, 1.90945, 1.90407, 1.90451, 1.90488, 1.91388, 1.91345, 1.90159, 2.01065, 2.00243, 1.82374, 1.91936, 1.90179, 1.89843, 1.9205, 1.89718, 1.89813, 2.00418, 2.0161, 1.89536, 1.89464, 1.8966, 1.92311, 1.92444, 1.82044, 1.89775, 1.89986, 1.8223, 1.92528, 1.90291, 1.92489, 1.83049, 1.91127, 1.83603, 2.01033, 2.01394, 1.9896, 1.98243, 1.97638, 1.98744, 1.98118, 1.98389, 1.97665, 1.9783, 1.89937, 1.9724, 1.97575, 1.97745, 1.97962, 1.90013, 1.97598, 1.98035, 1.97588, 1.97687, 1.99196, 1.97856, 1.98734, 1.99391, 1.9813, 1.99461, 1.90678, 1.90722, 1.90724, 1.98201, 1.99071, 1.98393, 2.01132, 2.00842, 1.99332, 2.00133, 1.91235, 2.00274, 1.99364, 2.00783, 1.91511, 2.00354, 2.01218, 1.91307, 1.99524, 2.01382, 1.91457, 2.01059, 1.99373, 2.00237, 1.99308, 2.0108, 1.99194, 1.91465, 1.99278, 2.0016, 1.99325, 1.9927, 1.99404, 1.91658, 1.99458, 1.99448, 1.99767, 2.0038, 1.9171, 1.99643, 1.85864, 1.85889, 1.85851, 1.85756, 1.85598, 1.85348, 1.90615, 1.90618, 2.03038, 1.85575, 1.85466, 2.04047, 1.85343, 1.85445, 1.85482, 1.90641, 1.85869, 1.85705, 1.85932, 1.94077, 1.856, 1.85778, 2.05555, 1.86026, 1.85924, 2.04394, 1.85594, 1.85853, 1.85586, 2.04033, 1.90763, 1.906, 1.85533, 1.90597, 1.85322, 1.85458, 1.85148, 1.8522, 2.03209, 1.90391, 1.90249, 1.85077, 1.78063, 1.77975, 1.77897, 1.77743, 1.77573, 1.77376, 1.77225, 1.76983, 1.77217, 1.77011, 1.7682, 1.76667, 1.81707, 1.89977, 1.76259, 1.76265, 1.76431, 1.84686, 1.81295, 1.89141, 1.88741, 1.76074, 1.81126, 1.81008, 1.75895, 1.8909, 1.75592, 1.75659, 1.75885, 1.75487, 1.88761, 1.75909, 1.75654, 1.7577, 1.7566, 1.88359, 1.75632, 1.75516, 1.75802, 1.87561, 1.7556, 1.75612, 1.75725, 1.87889, 1.87667
1.78832, 1.78559, 1.78616, 1.78537, 1.78468, 1.83377, 1.78444, 1.83189, 1.78352, 1.77943, 1.87881, 1.77855, 1.83032, 1.87994, 1.87633, 1.77597, 1.77864, 1.77791, 1.87383, 1.77596, 1.77751, 1.77799, 1.77255, 1.77487, 1.77331, 1.77345, 1.77256, 1.77111, 1.77196, 1.77165, 1.77099, 1.76814, 1.7693, 1.77049, 1.76935, 1.76968, 1.77155, 1.77171, 1.76774, 1.87344, 1.76779, 1.87226, 1.86586, 1.76917, 1.77119, 1.77178, 1.94492, 1.8364, 1.9115, 1.91113, 1.90981, 1.90458, 1.9103, 1.91166, 1.91657, 1.90626, 1.9061, 1.91533, 1.90333, 1.90685, 1.90386, 1.90173, 1.91865, 1.90129, 1.91981, 1.92032, 1.92148, 1.8204, 1.89665, 1.89606, 1.89575, 1.92422, 2.01431, 1.9245, 1.92391, 1.92533, 1.92409, 2.00069, 1.92512, 1.82131, 1.90026, 1.90024, 1.90388, 1.9261, 2.0149, 1.92715, 1.91496, 1.92138, 1.92648, 1.85957, 1.90048, 1.97552, 1.89931, 1.97548, 1.89942, 1.98713, 1.89958, 1.89889, 1.89961, 1.97894, 1.98156, 1.97885, 1.97876, 1.99206, 1.97729, 1.97727, 1.97829, 1.98109, 1.97869, 1.99422, 1.90407, 1.98973, 1.99099, 2.00346, 1.90635, 1.90735, 1.98371, 1.99431, 1.98625, 2.00931, 1.91195, 1.99828, 1.99363, 1.99477, 1.99463, 1.99116, 1.9966, 1.99056, 1.99024, 2.0181, 2.00031, 1.91427, 1.99307, 2.00568, 2.00346, 2.00391, 2.00334, 2.00147, 1.99115, 2.01393, 2.00497, 1.91563, 1.99741, 2.00462, 1.99277, 1.99277, 1.99614, 1.99676, 1.99941, 1.99636, 2.00323, 2.01906, 1.99268, 1.9951, 2.02521, 1.90677, 1.85493, 1.85316, 1.85246, 1.9074, 1.90784, 1.8535, 1.855, 2.04149, 1.85484, 1.85549, 1.85123, 1.85844, 1.85726, 1.85512, 1.94095, 1.90823, 1.9095, 1.85519, 2.03458, 2.03283, 1.85707, 1.85632, 1.85938, 2.04959, 1.85691, 1.85805, 1.85704, 2.03845, 1.85485, 2.05105, 1.85801, 1.85355, 1.8579, 1.84899, 1.85035, 1.85322, 1.85173, 1.84801, 1.851, 1.77986, 1.78003, 1.88522, 1.77465, 1.77437, 1.7734, 1.77324, 1.7709, 1.77014, 1.76681, 1.87944, 1.87588, 1.76374, 1.83019, 1.76472, 1.76487, 1.76214, 1.76171, 1.83878, 1.76304, 1.76169, 1.8773, 1.75857, 1.88853, 1.8872, 1.75648, 1.88953, 1.7596, 1.88709, 1.88579, 1.75512, 1.75819, 1.75808, 1.75614, 1.8584, 1.75871, 1.75942, 1.76044, 1.86858, 1.80701, 1.75853, 1.75758, 1.75782, 1.75529, 1.87912
1.78712, 1.78865, 1.78493, 1.78682, 1.83698, 1.86894, 1.7858, 1.78558, 1.7851, 1.78246, 1.78043, 1.7812, 1.78038, 1.77741, 1.8824, 1.77846, 1.77759, 1.77957, 2.03092, 1.77738, 1.77861, 1.77779, 1.77544, 1.77545, 1.77374, 1.77473, 1.77051, 1.87614, 1.87225, 1.77343, 1.87367, 1.87519, 1.86385, 1.87292, 1.87342, 1.76971, 1.76833, 1.76926, 1.87341, 1.77076, 1.88186, 1.76908, 1.77055, 1.7708, 1.77137, 1.77232, 1.77124, 1.91617, 1.9953, 1.99455, 1.83554, 1.83591, 1.90817, 2.00098, 1.90693, 1.91719, 2.0054, 1.91648, 1.92064, 1.92052, 1.90301, 1.90212, 1.92054, 1.90152, 1.82432, 1.8996, 1.89736, 1.89682, 1.89859, 1.89669, 1.82054, 1.89523, 1.89454, 1.89469, 1.92488, 1.89513, 2.01162, 1.89764, 1.82102, 1.82297, 1.92627, 1.92719, 1.82805, 1.92555, 1.90665, 1.8327, 1.92435, 1.91894, 1.92674, 1.97819, 1.99713, 1.99784, 1.97961, 1.9787, 1.89852, 1.9793, 1.97604, 1.90103, 1.90073, 1.89997, 1.97932, 1.97652, 1.9754, 1.97911, 1.99109, 2.00013, 1.99, 1.97983, 1.97923, 2.01028, 1.99585, 1.99251, 1.9969, 1.99806, 2.00076, 1.98718, 2.00419, 1.91008, 1.98601, 1.98418, 1.91159, 2.00095, 2.00717, 1.99023, 1.99114, 2.01549, 2.01034, 2.0024, 2.00703, 2.0146, 1.99309, 2.01399, 1.91534, 2.00398, 2.00672, 1.99364, 1.99367, 2.00435, 2.00766, 1.99422, 1.99259, 1.99422, 2.00005, 2.0066, 1.9164, 1.99506, 1.99652, 1.9919, 1.9972, 1.99851, 1.99564, 2.01334, 2.00967, 1.85856, 1.85711, 1.85506, 1.85603, 1.85467, 1.85439, 1.90945, 1.91083, 1.91061, 1.95143, 1.85422, 2.03099, 1.95205, 1.85412, 1.91194, 1.91409, 1.95404, 1.90965, 1.85718, 1.86121, 2.0417, 2.05847, 2.04862, 2.0317, 1.85796, 1.85805, 1.85781, 1.85538, 1.85598, 2.04167, 2.02785, 1.8559, 2.03445, 1.85402, 1.85276, 1.85108, 1.85066, 1.85013, 1.85068, 1.84984, 1.84974, 1.8483, 1.77668, 1.78007, 1.77681, 1.77416, 1.77312, 2.07912, 1.77002, 1.77194, 1.76967, 1.76859, 1.76488, 1.76832, 1.87974, 1.76478, 1.76468, 1.86107, 1.88473, 1.88426, 1.76135, 1.76133, 1.75985, 1.76103, 1.76111, 1.75917, 1.7587, 1.80835, 1.75689, 1.75852, 1.75558, 1.75898, 1.75784, 1.75837, 1.88529, 1.75826, 1.75738, 1.85494, 1.88287, 1.80944, 1.80873, 1.86542, 1.75859, 1.87886, 1.87765, 1.87681, 1.86732
1.79197, 1.79135, 1.79192, 1.78751, 1.78912, 1.78917, 1.78876, 1.83594, 1.78651, 1.78399, 1.78292, 1.78103, 1.78218, 1.78047, 1.88213, 1.77962, 1.77907, 1.82886, 1.77982, 1.77766, 1.77714, 1.77908, 1.87582, 1.77708, 1.7755, 1.86292, 1.77204, 2.04123, 1.8608, 1.86155, 1.86347, 1.87545, 1.77243, 1.7738, 1.77222, 1.86652, 1.87654, 1.88279, 1.76913, 1.77189, 1.77239, 1.77003, 1.77208, 1.76888, 1.7709, 1.77363, 1.77247, 1.91787, 1.91847, 1.9139, 1.9119, 1.91749, 1.9971, 1.99713, 2.01015, 1.91813, 1.90777, 1.92702, 1.90293, 1.92025, 1.90541, 1.92023, 1.92115, 1.92154, 1.92124, 2.0028, 1.92785, 1.82357, 1.82289, 1.82061, 1.89712, 1.89627, 1.8964, 1.89623, 1.81966, 1.89768, 1.81686, 1.89616, 1.82356, 1.89968, 1.90056, 1.92742, 2.00667, 2.00826, 1.91004, 1.91044, 1.91433, 1.92703, 2.02439, 2.00834, 1.90143, 1.97932, 1.90184, 1.98793, 1.99088, 1.98949, 1.90181, 1.98013, 1.98092, 1.89969, 1.89773, 1.89947, 1.97874, 1.99, 1.9764, 1.9787, 1.98923, 1.90393, 1.98155, 1.98971, 1.98381, 1.99134, 1.90624, 1.99709, 1.90704, 2.00426, 1.99086, 1.98858, 1.98697, 2.00609, 1.9128, 1.91348, 2.00392, 1.91435, 1.99027, 1.91282, 1.9144, 1.91783, 2.00017, 1.99763, 1.9965, 1.99286, 2.00019, 1.91487, 2.00381, 2.00719, 1.99212, 1.91739, 2.0124, 1.99411, 1.91643, 1.99425, 1.99277, 1.99267, 1.99582, 1.99657, 1.98997, 1.99432, 1.99785, 1.99097, 1.99485, 1.99543, 2.00846, 2.00851, 1.94521, 1.85527, 1.85587, 1.85539, 1.85494, 1.85378, 1.85208, 1.8545, 1.85189, 1.95237, 1.85203, 1.85546, 1.85689, 1.91085, 1.9136, 1.91325, 1.9126, 1.85741, 1.85537, 1.85676, 1.85774, 2.04906, 1.85831, 1.85718, 2.05006, 1.907, 1.95164, 1.85769, 1.85658, 1.85783, 1.85401, 1.8525, 1.94377, 1.93861, 1.85451, 1.85262, 1.85093, 2.0397, 1.85279, 1.85089, 1.84857, 1.77869, 1.88167, 1.88035, 1.77317, 1.77469, 1.77251, 1.8208, 1.81867, 1.8367, 1.7687, 1.88263, 1.88076, 1.76681, 1.76515, 1.8818, 1.88336, 1.88121, 1.87937, 1.89594, 1.75933, 1.81059, 1.75887, 1.88805, 1.8872, 1.88335, 1.75662, 1.75798, 1.85747, 1.75783, 1.75815, 1.75844, 1.7544, 1.75533, 1.75514, 1.7573, 1.88583, 1.75604, 1.75786, 1.80755, 1.86859, 1.75778, 1.88275, 1.87866, 1.8784, 1.87846
1.7927, 1.85635, 1.78942, 1.78935, 1.78878, 1.85842, 1.84591, 1.78492, 1.83783, 1.78559, 1.78426, 1.78343, 1.78148, 1.78197, 1.78053, 2.06241, 1.77919, 1.83038, 1.8715, 1.77881, 1.78018, 1.82684, 1.87895, 1.84388, 1.77687, 1.7762, 1.77592, 1.7734, 1.87029, 1.77456, 1.82356, 1.82457, 1.76956, 1.77513, 1.87492, 1.82291, 1.77108, 1.82012, 1.77332, 1.77346, 1.7705, 1.77139, 1.7713, 1.7747, 2.0299, 1.77244, 1.94809, 1.99814, 2.00055, 1.91703, 1.91978, 1.92024, 1.92078, 1.92062, 2.02157, 1.91899, 1.90759, 1.90716, 1.90715, 1.90443, 1.92062, 1.92165, 2.01397, 2.0196, 1.92347, 1.9241, 2.01225, 1.92251, 1.8973, 1.89783, 1.82077, 1.92434, 1.89683, 1.89603, 1.89663, 1.82079, 1.82211, 1.89629, 1.90319, 1.90005, 1.82546, 1.82286, 1.90504, 1.90618, 1.91056, 1.92779, 1.83806, 1.92137, 2.03373, 1.99017, 1.99276, 1.90102, 1.90284, 1.97947, 1.97745, 1.9758, 1.97993, 1.98223, 1.9002, 1.89962, 1.89815, 1.97922, 1.97761, 1.99954, 1.98966, 1.98264, 2.00677, 1.904, 1.98761, 1.90448, 1.99013, 1.99054, 1.98929, 1.99297, 1.98415, 1.98891, 1.91134, 2.00079, 1.91104, 2.00443, 1.99263, 1.99517, 1.99222, 2.01371, 1.91008, 1.99826, 2.00151, 2.01391, 2.0015, 2.01148, 1.99595, 1.91622, 1.99664, 1.98917, 2.01541, 1.99345, 1.99311, 1.91731, 1.91707, 1.91649, 1.99348, 1.99387, 1.99406, 1.99682, 1.99647, 1.99592, 1.99561, 1.99818, 1.99696, 2.00072, 2.00006, 1.99997, 2.00756, 1.91716, 1.86017, 2.02534, 1.85863, 1.95355, 1.85598, 1.85517, 1.85286, 1.9029, 1.8532, 1.85383, 1.85252, 1.85549, 1.85428, 1.91657, 1.91381, 1.91414, 1.85796, 1.8583, 1.85815, 1.85795, 1.85999, 1.85863, 1.8564, 1.85851, 1.85763, 1.85751, 1.93879, 1.93693, 1.90599, 2.02796, 1.85291, 2.04132, 1.85089, 1.85122, 1.94513, 1.94127, 1.84831, 2.03173, 2.02442, 1.84754, 1.78204, 1.88292, 1.77893, 1.7783, 1.77364, 1.77321, 1.77174, 1.77032, 1.85635, 1.8754, 1.81668, 1.88001, 1.76745, 1.87644, 1.7659, 1.76151, 1.76499, 1.76258, 1.88202, 1.8803, 1.87818, 1.88019, 1.75899, 1.85536, 1.88886, 1.88683, 1.75841, 1.88922, 1.88283, 1.88611, 1.88607, 1.75486, 1.86419, 1.75875, 1.75551, 1.75676, 1.75697, 1.80665, 1.86798, 1.75825, 1.86553, 1.75875, 1.75704, 1.75955, 1.75741, 1.75807
1.79031, 1.79034, 1.79281, 1.7924, 1.7907, 1.78866, 1.78781, 1.84014, 1.78572, 1.78775, 1.78517, 1.78605, 1.78433, 1.78552, 1.78123, 2.03894, 2.03902, 1.78006, 1.78211, 1.77912, 1.78002, 1.7802, 1.86814, 1.88946, 1.7773, 1.77578, 1.77657, 1.77571, 1.77531, 1.77638, 1.83239, 1.8339, 1.77536, 1.77515, 1.77555, 1.87517, 1.77319, 1.824, 1.77518, 1.77552, 1.7744, 1.77425, 1.87131, 1.82426, 1.7746, 1.77611, 1.77821, 1.92036, 1.83967, 2.00371, 2.00339, 2.00329, 1.91628, 2.00495, 1.83462, 1.83376, 1.90649, 1.92133, 1.90937, 2.00102, 1.82919, 1.9043, 1.82484, 2.02539, 1.9252, 1.82448, 1.92477, 1.90056, 1.9003, 1.90011, 1.82054, 2.01641, 1.8988, 1.89657, 1.82037, 1.82114, 1.89728, 1.89748, 1.89949, 1.90111, 1.9035, 1.90413, 1.90403, 1.92893, 1.92772, 1.83488, 1.93075, 2.00807, 2.03049, 1.90349, 1.99681, 1.982, 1.97949, 2.0141, 1.97735, 1.99324, 1.98203, 1.98028, 1.90233, 1.90189, 1.90157, 1.90381, 2.00247, 2.00392, 1.99289, 1.98332, 1.99447, 1.90385, 2.00016, 1.98189, 1.98193, 1.90618, 2.00425, 1.99531, 2.0182, 1.98591, 1.99926, 2.00421, 1.99002, 1.98715, 2.00426, 2.00175, 1.91497, 2.00837, 2.00197, 1.99418, 2.00744, 2.00458, 2.00029, 1.99645, 2.00095, 1.91722, 2.02802, 2.00093, 2.01083, 2.00172, 2.01402, 1.99588, 1.9929, 1.91678, 2.00056, 1.9942, 1.99622, 1.91753, 1.99894, 1.99688, 1.99985, 1.99759, 1.99795, 1.99472, 2.00391, 2.00669, 2.0101, 2.01793, 1.85833, 1.85797, 1.85777, 1.95644, 1.85539, 1.85181, 1.85381, 1.85165, 1.8526, 1.85498, 1.8539, 1.85305, 1.85403, 1.85464, 1.85562, 1.90396, 1.85741, 1.85764, 1.85899, 2.04581, 1.94502, 1.85799, 1.858, 1.85842, 1.8581, 1.85794, 1.85648, 1.85741, 1.85577, 1.85532, 1.85378, 1.90398, 1.85295, 1.90339, 1.85178, 1.85174, 1.85056, 1.84896, 1.85163, 1.85002, 1.84748, 1.78026, 1.77748, 1.77601, 1.77436, 1.77133, 1.82064, 1.81984, 1.82002, 1.81677, 1.84355, 1.81678, 1.81495, 1.81516, 1.81365, 1.81344, 1.76438, 1.76291, 1.7628, 1.88379, 1.75869, 1.75508, 1.88171, 1.75832, 1.85799, 1.882, 1.75941, 1.7574, 1.75618, 1.75805, 1.75663, 1.75737, 1.75585, 1.88648, 1.75725, 1.87249, 1.75788, 1.75873, 1.80766, 1.7593, 1.75652, 1.86608, 1.75856, 1.7579, 1.75314, 1.87941
1.79435, 1.79109, 1.79079, 1.79357, 1.7911, 1.79102, 1.79112, 1.79074, 1.78707, 1.78949, 2.05892, 1.78875, 2.05639, 1.78566, 1.88333, 1.78468, 1.78386, 1.78348, 1.77903, 1.78157, 1.78237, 1.78072, 1.77969, 1.78017, 1.88136, 1.82854, 1.7779, 1.77729, 1.77815, 1.88028, 1.87445, 1.77557, 1.77497, 1.77645, 1.77566, 1.87553, 1.77569, 1.77367, 1.77322, 1.774, 1.77526, 1.77567, 1.77419, 1.95453, 1.86053, 1.82646, 1.82679, 1.83948, 1.92379, 1.99722, 2.00563, 2.00423, 2.00707, 2.00705, 1.91375, 2.02111, 1.99976, 1.90692, 1.82916, 2.00072, 1.90604, 1.92471, 2.00124, 1.82405, 1.92704, 1.92746, 1.92764, 1.92756, 1.90363, 1.9274, 1.92823, 1.92758, 1.92811, 1.89757, 1.92909, 1.93042, 1.89683, 1.82357, 1.89949, 1.82447, 2.00739, 2.00723, 1.90718, 1.90795, 1.93073, 2.01082, 1.92895, 1.92859, 2.00781, 1.98527, 1.98045, 2.00382, 1.98219, 1.98237, 1.99638, 1.90006, 1.9831, 1.98328, 1.90278, 1.90168, 1.90174, 1.90252, 1.98021, 1.90297, 1.99327, 1.97851, 1.98974, 1.9827, 1.99412, 2.00735, 1.9062, 1.90627, 2.00457, 1.90921, 1.98577, 1.99548, 1.98613, 1.98694, 1.98997, 2.00517, 1.98955, 1.9903, 2.00502, 1.98985, 2.02427, 2.0034, 1.91767, 2.00074, 2.00433, 1.9946, 2.00998, 2.00861, 2.00344, 2.00009, 2.01435, 1.99446, 2.0124, 1.9176, 2.00115, 1.99444, 1.99388, 2.0036, 1.99309, 1.99595, 1.99919, 1.99616, 1.99939, 1.99649, 1.99969, 1.91863, 1.99736, 1.99669, 2.01479, 2.01382, 1.85801, 2.02875, 1.85438, 1.85534, 1.85619, 1.85438, 2.03835, 2.02753, 1.85283, 2.03566, 1.85125, 1.85366, 1.85518, 1.85449, 2.03132, 2.02943, 2.04114, 2.03506, 1.85635, 1.85849, 1.94885, 1.90978, 1.90756, 1.86112, 2.02777, 1.85756, 2.04573, 1.85798, 2.03966, 1.85503, 1.85502, 1.85072, 1.85139, 1.85102, 1.85213, 1.90023, 1.85083, 2.0486, 1.84853, 1.84864, 1.84849, 1.77894, 1.8276, 1.77419, 1.77268, 1.87227, 1.82091, 1.77005, 1.88034, 1.76828, 1.86394, 1.86537, 1.8621, 1.81622, 1.81612, 1.81377, 1.76336, 1.87229, 1.76165, 1.76142, 1.80877, 1.75967, 1.75933, 1.85413, 1.85232, 1.75807, 1.75839, 1.81156, 1.7555, 1.75723, 1.75639, 1.8096, 1.75615, 1.75696, 1.75588, 1.75599, 1.8092, 1.75828, 1.80962, 1.86653, 1.86801, 1.75529, 1.87278, 1.75674, 1.88014, 1.75801
1.89919, 1.79607, 2.06225, 1.79373, 1.79303, 1.79301, 1.79255, 1.79083, 1.78913, 1.78911, 1.78706, 2.07157, 1.78687, 1.78515, 1.78723, 1.78368, 1.88631, 1.88567, 1.78341, 1.7853, 1.78518, 1.78233, 1.78189, 2.06529, 1.77949, 1.83063, 1.77798, 1.77867, 1.82779, 1.7794, 1.77646, 1.87882, 1.77584, 1.86607, 1.77821, 1.8949, 1.89557, 1.82642, 1.82584, 1.8268, 1.77538, 1.77556, 1.77717, 1.8601, 1.83944, 1.82705, 1.82894, 1.91697, 1.91577, 1.91516, 1.91439, 1.83685, 1.91375, 1.91484, 1.90831, 1.9096, 1.90713, 1.90769, 1.90625, 1.90666, 1.92583, 2.02107, 1.9042, 1.90347, 1.90129, 1.90309, 1.90061, 1.82383, 2.00874, 1.9295, 1.93059, 1.93039, 2.00563, 2.00633, 1.89891, 2.02416, 1.82225, 1.82217, 1.90065, 1.90143, 1.90636, 1.9045, 1.82966, 1.9115, 1.93257, 1.91689, 1.91818, 1.84461, 2.02416, 1.99178, 1.90401, 1.99058, 1.90324, 1.90262, 1.98733, 1.90329, 1.9024, 1.90311, 1.90301, 1.90321, 1.9788, 1.97912, 1.98059, 1.99926, 1.90307, 1.98199, 1.90356, 1.98523, 1.98923, 1.98631, 1.90723, 1.99154, 2.00978, 2.01752, 1.98872, 1.99254, 2.01697, 1.98842, 2.00666, 1.91494, 2.00804, 2.00731, 1.99078, 1.91404, 1.99411, 2.00904, 1.99746, 1.9972, 1.99353, 1.99407, 2.00139, 1.99631, 1.9943, 1.99633, 2.01686, 2.00342, 1.99604, 2.0071, 1.99325, 1.99407, 2.00435, 1.99577, 1.99356, 1.99662, 2.00334, 1.99899, 2.00026, 1.999, 1.9992, 2.003, 1.91933, 1.99591, 2.03042, 1.91819, 1.85756, 1.85785, 1.85649, 1.85667, 1.90291, 1.85479, 1.85256, 1.95547, 1.95511, 1.85117, 1.85384, 1.85183, 1.85519, 1.85477, 1.85406, 2.04863, 1.94616, 1.85641, 1.85782, 1.85835, 1.90899, 1.86015, 1.85868, 2.05427, 1.86081, 1.90822, 1.90624, 1.8569, 1.85608, 1.85776, 1.85679, 1.85448, 2.03817, 2.03429, 1.8511, 1.84758, 1.8498, 1.84552, 1.84773, 1.84801, 1.84595, 1.7793, 1.82659, 1.86521, 1.77456, 1.77087, 1.87585, 1.77125, 1.76918, 1.76685, 1.84096, 1.86196, 1.76586, 1.85529, 1.81402, 1.81586, 1.76247, 1.76203, 1.76013, 1.7613, 1.82754, 1.84786, 1.76097, 1.80689, 1.8084, 1.75845, 1.88931, 1.87855, 1.75616, 1.75461, 1.759, 1.75858, 1.75664, 1.75339, 1.81592, 1.75811, 1.88202, 1.88497, 1.88196, 1.88156, 1.88061, 1.75771, 1.75633, 1.75818, 1.75607, 1.75708
1.79761, 2.04829, 1.79626, 1.79723, 1.96915, 1.7914, 1.79238, 1.79121, 1.79299, 1.79121, 1.789, 1.78959, 1.78626, 2.04425, 1.7859, 1.78817, 1.78219, 1.78398, 1.78208, 1.78468, 1.78484, 1.78387, 1.78573, 1.87969, 1.78097, 1.78245, 1.78051, 1.83047, 1.83175, 1.78087, 1.87914, 1.77857, 1.77946, 1.77915, 1.82735, 1.82716, 1.77777, 1.77803, 1.77805, 1.77783, 1.9616, 1.95133, 1.77922, 1.77717, 1.82696, 1.77833, 1.7793, 1.92094, 1.92154, 1.92323, 1.91719, 1.83819, 2.00345, 1.91378, 2.01723, 1.83405, 1.83358, 1.83378, 1.90789, 1.90851, 1.90691, 1.90436, 1.92721, 1.82913, 1.90334, 1.90267, 1.92828, 2.00729, 1.90122, 1.92765, 1.90011, 1.82311, 1.92965, 1.89964, 1.82257, 1.89682, 2.02793, 1.90083, 1.9002, 1.93319, 1.93286, 1.8285, 1.90488, 1.9345, 1.93204, 1.84019, 1.91747, 1.93333, 2.00996, 2.02796, 2.00291, 2.00095, 2.00035, 1.99362, 1.99784, 1.90332, 1.97986, 1.90685, 1.90313, 1.90377, 1.98, 1.90463, 1.98832, 1.90588, 1.98057, 1.98999, 2.00411, 2.01481, 1.90646, 2.01099, 2.00379, 1.98406, 2.00197, 2.00284, 2.01496, 1.98779, 1.99041, 1.98968, 1.98892, 1.99067, 1.98947, 1.99149, 2.02115, 1.98945, 2.01371, 1.99703, 2.0184, 2.01143, 1.99342, 1.99736, 2.00754, 1.91756, 2.00704, 1.91806, 2.0075, 1.91813, 2.00481, 1.91785, 1.91765, 1.91823, 2.00771, 1.99913, 1.91755, 2.01833, 1.99689, 2.00366, 2.00335, 2.00227, 2.00679, 2.00666, 2.01673, 2.0182, 1.99681, 1.99616, 1.8579, 2.05483, 1.85679, 1.90332, 1.90472, 1.90312, 1.85223, 1.85121, 1.85186, 1.95555, 1.85175, 1.90146, 1.85087, 1.85473, 1.85232, 1.85269, 1.8556, 1.90957, 1.90846, 1.90742, 1.8579, 1.85926, 1.85888, 1.85883, 1.85822, 1.92307, 1.90777, 1.85509, 1.85855, 1.85443, 2.04234, 1.85486, 1.85473, 1.84968, 1.85275, 1.84999, 1.85089, 1.8481, 1.8467, 1.84937, 1.84791, 1.83057, 1.7773, 1.77489, 1.77337, 1.77207, 1.76725, 1.76857, 1.76874, 1.86496, 1.76784, 1.86108, 1.76365, 1.81647, 1.76687, 1.81497, 1.76406, 1.76505, 1.87225, 1.76174, 1.76231, 1.80984, 1.75773, 1.86688, 1.7575, 1.80728, 1.75821, 1.88228, 1.75474, 1.88339, 1.88022, 1.87522, 1.87199, 1.86798, 1.75488, 1.7557, 1.75796, 1.75622, 1.75618, 1.75598, 1.75875, 1.84892, 1.88125, 1.87827, 1.8736, 1.87391
1.84747, 1.85521, 1.79895, 1.79862, 1.79898, 1.79414, 1.79656, 1.79536, 1.78956, 1.78911, 2.04665, 1.78917, 1.79112, 1.78723, 1.78935, 1.78622, 1.78631, 1.78527, 1.78624, 1.78635, 1.96466, 1.78551, 1.78065, 1.78199, 1.78406, 1.78358, 1.78069, 1.78336, 2.03635, 1.86894, 1.8308, 1.8745, 1.87496, 1.77985, 1.86506, 1.87878, 1.77916, 1.77962, 1.77868, 1.95583, 1.87562, 1.77984, 1.82705, 1.82889, 1.78093, 1.77794, 1.77952, 1.92706, 1.91824, 2.00234, 1.92091, 1.92375, 1.83837, 1.91514, 1.91356, 1.91398, 1.91395, 1.83461, 1.90842, 1.83139, 1.92754, 1.90573, 1.92786, 1.90402, 1.93115, 1.90231, 1.9007, 1.90171, 1.90349, 1.90074, 2.02391, 1.9012, 1.89945, 1.93224, 1.901, 1.89918, 1.93066, 1.90118, 1.90016, 1.90292, 1.93323, 1.93191, 1.90615, 1.91019, 1.83462, 1.93224, 1.93352, 1.93419, 2.01096, 2.00745, 1.98515, 2.00087, 1.97948, 2.00254, 1.98242, 1.98152, 1.98434, 1.90399, 1.90363, 1.90204, 1.98008, 1.98137, 1.90341, 1.98133, 1.99608, 1.99468, 1.90626, 2.0051, 1.90787, 1.99319, 1.99777, 1.97864, 2.0053, 1.98965, 2.00396, 1.98947, 1.98964, 1.98967, 1.99109, 1.91582, 2.00778, 1.99349, 2.01402, 2.01703, 1.99107, 2.01593, 2.01792, 2.01734, 1.99459, 1.99756, 2.00502, 2.01324, 2.00485, 2.00287, 2.00735, 1.92002, 1.92015, 2.01766, 2.01635, 1.99506, 2.00722, 2.0096, 2.00678, 2.01001, 1.99616, 2.00362, 2.00424, 1.99817, 2.00324, 1.99663, 1.99803, 1.99783, 1.92136, 1.85837, 1.85767, 1.85484, 1.90434, 1.85236, 1.95569, 1.90434, 1.85004, 1.85425, 1.85238, 1.85027, 1.8521, 2.05171, 2.03544, 1.85292, 1.94829, 1.85416, 2.04856, 1.8572, 1.85741, 2.03773, 1.85751, 2.05172, 1.85801, 1.95188, 1.85936, 1.9252, 1.90933, 2.04223, 2.02915, 2.03475, 1.855, 1.90553, 1.90402, 1.90263, 1.90267, 1.89997, 1.85073, 1.84739, 1.89691, 1.94366, 1.832, 1.83019, 1.77562, 1.92507, 1.77349, 1.86903, 1.77204, 1.76926, 1.87232, 1.76726, 1.86372, 1.86426, 1.8669, 1.76483, 1.76452, 1.87096, 1.85973, 1.76256, 1.76022, 1.7626, 1.85408, 1.81073, 1.75879, 1.75876, 1.86399, 1.80729, 1.80707, 1.88585, 1.75523, 1.88604, 1.75746, 1.87779, 1.85697, 1.755, 1.80731, 1.75429, 1.7548, 1.8808, 1.75443, 1.876, 1.75756, 1.87656, 1.75784, 1.8735, 1.85109, 1.75721
1.8518, 1.84903, 1.84871, 1.79466, 1.79392, 1.79565, 1.79382, 1.79476, 1.79426, 1.8851, 1.88618, 1.84111, 1.78973, 1.78969, 2.05289, 1.78868, 1.89147, 1.88947, 1.78615, 1.78767, 1.78818, 1.78638, 1.78682, 1.78417, 1.78155, 1.78102, 1.78265, 1.78283, 1.78046, 1.78032, 1.83282, 1.87933, 1.77976, 1.88243, 1.78182, 1.7792, 1.87066, 1.77712, 1.77945, 1.78181, 1.78082, 1.78057, 1.77907, 1.78089, 1.78198, 1.95241, 2.00133, 1.91704, 1.84219, 1.91739, 1.92015, 1.91643, 1.92559, 1.9269, 1.92814, 1.91315, 1.91393, 1.9318, 1.90918, 1.91304, 1.93027, 1.82796, 1.90836, 1.90704, 1.90585, 1.82676, 1.82672, 1.82705, 1.9027, 1.82419, 1.89952, 2.02311, 2.02556, 1.82237, 1.82419, 1.9006, 1.93381, 1.90255, 1.9359, 1.93388, 1.93363, 1.90295, 2.03901, 1.90914, 1.93392, 1.91286, 2.01168, 2.01218, 2.03123, 2.01032, 1.98934, 2.00699, 1.982, 2.00403, 2.01055, 1.90633, 1.98647, 1.98665, 1.90544, 1.90542, 1.98319, 1.90483, 1.98234, 1.90653, 1.98307, 2.0011, 2.02228, 2.00746, 1.90926, 2.00748, 1.90772, 2.0097, 1.91158, 2.01832, 1.9114, 1.99302, 1.99184, 1.91356, 2.01777, 1.99338, 2.01053, 1.91786, 2.01818, 1.91685, 2.01417, 1.92054, 2.03428, 2.02012, 2.01363, 2.00675, 1.99721, 2.01366, 1.99473, 2.00803, 2.00129, 2.00718, 2.00785, 2.01396, 2.00983, 2.01074, 2.00692, 1.99584, 2.00565, 2.00353, 1.91983, 1.9965, 2.00303, 2.00292, 2.00002, 2.00291, 1.99672, 2.00013, 1.99666, 1.95187, 1.85797, 1.90616, 1.90418, 1.93832, 1.94829, 1.97484, 1.97308, 1.85248, 1.85263, 1.85176, 1.85155, 1.8513, 1.85146, 1.95496, 2.04833, 1.85579, 1.85436, 2.0448, 1.85724, 1.8568, 1.8573, 1.85669, 1.91036, 1.91104, 1.91036, 1.8613, 1.85901, 1.85879, 1.85827, 1.85637, 1.8552, 1.85273, 1.85341, 1.90353, 1.90043, 1.89958, 1.84751, 1.84792, 1.84639, 1.84563, 1.77986, 1.77978, 1.77652, 1.77514, 1.77495, 1.77217, 1.76957, 1.77106, 1.76905, 1.76783, 1.76591, 1.76878, 1.86205, 1.85151, 1.86256, 1.76236, 1.76268, 1.76245, 1.76154, 1.87014, 1.84316, 1.82369, 1.75825, 1.80757, 1.8598, 1.7554, 1.75417, 1.75836, 1.75746, 1.7556, 1.80791, 1.7575, 1.75594, 1.75566, 1.75657, 1.8075, 1.86249, 1.75645, 1.86357, 1.87944, 1.87801, 1.75772, 1.88121, 1.75356, 1.75601, 1.8077
1.79912, 1.80024, 1.80088, 1.79716, 1.79571, 1.7979, 1.88976, 1.79575, 2.0633, 2.05563, 1.79559, 1.78927, 1.8417, 1.79223, 1.78792, 1.78951, 1.88767, 1.90632, 2.06195, 1.78832, 1.83738, 1.89242, 1.78675, 1.78275, 1.78556, 1.889, 1.78499, 1.87763, 1.78406, 1.88277, 1.8839, 1.88183, 1.88112, 1.87358, 1.7789, 1.77899, 1.77734, 1.77966, 1.78127, 1.78238, 1.78201, 1.77859, 1.78195, 1.95257, 1.95202, 1.78058, 1.95916, 1.92737, 1.9271, 1.92677, 1.91967, 1.92645, 1.92661, 1.83957, 1.92836, 1.91354, 2.00678, 1.93181, 1.90843, 1.93109, 1.93111, 1.93053, 1.90706, 1.90763, 1.90701, 1.90615, 2.01613, 1.9336, 1.93462, 1.93448, 1.90189, 1.93465, 1.93391, 1.82379, 1.82427, 1.8984, 1.93437, 2.01131, 1.82777, 1.90618, 1.90621, 1.90729, 1.91251, 2.01278, 2.03533, 1.93589, 1.92199, 1.93321, 2.03232, 2.01214, 2.0058, 2.01772, 1.98528, 1.98435, 1.98473, 1.90625, 1.98359, 1.90486, 1.90491, 1.90497, 1.90627, 1.98873, 1.99424, 1.98245, 1.9914, 1.98399, 1.98294, 2.00222, 1.97592, 1.90927, 1.91024, 2.00554, 1.91056, 2.00856, 2.00447, 1.99956, 2.00136, 1.99412, 2.01236, 1.99354, 1.99359, 2.013, 2.02266, 2.0176, 1.91788, 2.01715, 1.99619, 2.01396, 1.99583, 2.00952, 2.01347, 2.00402, 2.0064, 1.99433, 2.00506, 2.01361, 2.0111, 2.02844, 1.92079, 2.02008, 2.0117, 2.00049, 1.99722, 1.99734, 2.00008, 1.99887, 2.00363, 2.00436, 2.00726, 1.99888, 1.99924, 2.00302, 1.99799, 1.92259, 1.94885, 1.90734, 1.90629, 1.93822, 1.94024, 1.93907, 1.94202, 1.85163, 1.85081, 1.94544, 1.85157, 1.84647, 1.85187, 1.85145, 1.85227, 1.85482, 1.85537, 1.85586, 1.85766, 1.85768, 1.85743, 1.90986, 1.9119, 1.85854, 1.86135, 1.86142, 1.85975, 1.85911, 1.90722, 2.03739, 1.85622, 1.85328, 1.852, 1.85143, 1.85208, 1.89995, 2.03858, 2.04206, 1.84856, 1.84741, 1.84058, 1.85181, 1.77848, 1.77832, 1.77058, 1.82136, 1.82026, 1.77167, 1.76962, 1.76818, 1.81697, 1.7667, 1.76589, 1.84866, 1.76283, 1.76257, 1.86946, 1.76245, 1.76282, 1.84173, 1.81035, 1.80928, 1.86149, 1.87327, 1.8099, 1.75481, 1.88078, 1.7568, 1.88565, 1.88237, 1.75594, 1.75705, 1.75611, 1.88138, 1.75701, 1.80701, 1.75557, 1.8624, 1.75526, 1.75439, 1.75618, 1.87615, 1.75759, 1.7563, 1.75679, 1.75794
1.85179, 1.8522, 1.85351, 1.80209, 1.79951, 1.80011, 1.79853, 1.79681, 1.84659, 1.79503, 1.79316, 1.79357, 1.7958, 1.89629, 1.79258, 1.79196, 1.79152, 1.90899, 1.90985, 1.8384, 1.78695, 1.7881, 1.78471, 1.78519, 1.88595, 1.88759, 1.7854, 1.78492, 1.78566, 1.88632, 1.77813, 1.88391, 1.88389, 1.78242, 1.7839, 1.7816, 1.78244, 1.78238, 1.87675, 1.83268, 1.83248, 1.83156, 1.873, 1.87306, 1.78204, 1.83339, 1.78364, 1.92011, 1.92042, 1.92741, 1.92759, 1.93088, 1.84211, 1.84044, 2.00848, 1.93035, 2.00818, 1.93008, 1.92993, 1.93048, 1.90851, 1.83068, 2.03896, 1.9076, 1.90751, 1.90799, 1.93733, 1.90341, 1.90162, 1.90222, 1.8268, 1.90285, 1.90337, 1.93366, 1.93238, 1.89964, 1.93624, 1.8268, 1.93699, 1.90295, 1.82929, 1.83043, 1.90941, 1.83351, 2.01417, 1.93604, 1.92322, 1.84766, 2.01496, 2.02165, 1.90828, 2.00459, 1.98583, 1.99925, 1.98693, 1.98671, 1.98701, 1.90765, 1.90765, 1.90663, 1.90581, 1.98865, 2.00719, 1.98436, 1.98453, 1.99799, 1.98593, 1.98441, 1.90954, 1.99957, 1.9115, 1.99979, 1.99703, 1.91192, 2.00264, 2.00297, 1.91336, 2.02015, 2.00218, 2.02551, 1.91617, 1.99346, 1.99138, 1.91798, 2.00605, 2.01497, 1.99658, 1.99704, 1.99655, 1.9958, 2.01434, 2.01164, 2.0176, 1.99527, 1.99757, 1.99643, 1.99664, 1.99685, 2.02356, 1.91951, 2.01901, 1.91715, 2.01417, 2.01407, 2.00238, 2.00257, 2.0031, 2.00287, 2.00023, 2.00073, 1.99729, 2.00378, 1.99545, 1.85768, 1.85734, 1.8577, 1.85551, 1.90505, 1.94418, 1.90354, 1.90856, 1.95845, 2.05303, 1.85319, 1.85296, 1.85082, 1.85126, 1.91673, 1.85338, 1.85183, 1.85166, 1.90567, 1.85805, 1.85651, 1.85571, 1.86135, 1.85798, 2.02783, 1.85968, 1.91811, 1.9162, 1.85628, 1.85573, 1.85719, 1.85569, 2.03723, 1.85239, 2.02157, 1.84997, 2.03819, 2.03653, 2.03845, 1.8483, 1.84631, 1.78244, 1.87935, 1.77865, 1.77252, 1.77323, 1.82275, 1.85071, 1.86022, 1.76822, 1.8176, 1.81763, 1.8476, 1.85939, 1.81705, 1.76553, 1.76376, 1.86547, 1.81245, 1.75938, 1.75895, 1.81122, 1.76107, 1.86542, 1.88218, 1.75891, 1.75729, 1.75479, 1.88537, 1.75382, 1.88014, 1.88451, 1.75803, 1.80592, 1.8067, 1.80569, 1.87195, 1.86908, 1.75781, 1.88138, 1.80702, 1.75684, 1.87696, 1.87242, 1.75484, 1.87762, 1.87604
1.80312, 1.80323, 1.85521, 1.89697, 1.79972, 1.80234, 1.8031, 1.79927, 1.79938, 1.79612, 1.79742, 1.79606, 1.79603, 1.79465, 1.89698, 1.79349, 1.89601, 1.8821, 1.84194, 1.79191, 1.84015, 1.79096, 1.78795, 1.78915, 1.78879, 1.7885, 1.78511, 1.78583, 1.78513, 1.78282, 1.78366, 1.78302, 1.88234, 1.78238, 1.78213, 1.87924, 1.78394, 1.83284, 1.78162, 1.83378, 1.83445, 1.83409, 1.95604, 1.96188, 1.95501, 1.83489, 1.83532, 2.00865, 1.92459, 1.92053, 1.84174, 1.92016, 1.84249, 1.84038, 1.93353, 1.93212, 1.83733, 1.91074, 1.90976, 1.93115, 1.90771, 1.90792, 1.93537, 1.90709, 1.9069, 1.90698, 1.90625, 1.90351, 1.93514, 1.9025, 1.93828, 1.93831, 2.02107, 1.90263, 1.93863, 1.82467, 1.90263, 1.90183, 1.90245, 1.83056, 1.90653, 1.93763, 1.91032, 1.93879, 1.91619, 1.91742, 2.02986, 1.93776, 2.02147, 2.0168, 1.98821, 1.98684, 2.00021, 2.01034, 1.98714, 2.00419, 1.90795, 1.90736, 1.90821, 1.90789, 1.98789, 1.9859, 1.99016, 1.98532, 1.90811, 2.00742, 1.98648, 2.0066, 1.91021, 2.00914, 1.97633, 1.98739, 1.98953, 1.97932, 1.9134, 2.0009, 2.00082, 2.01116, 2.00492, 2.0247, 1.91725, 2.01464, 2.01249, 2.01734, 2.00369, 1.91882, 2.00606, 2.01804, 2.01949, 2.0105, 2.01178, 1.99694, 1.92061, 1.92038, 2.00429, 1.99831, 1.99808, 1.99591, 1.99712, 2.00326, 2.01021, 2.01167, 1.92118, 2.00042, 1.99803, 1.99717, 2.00334, 2.00363, 2.00453, 2.00095, 1.9971, 2.02538, 1.99985, 1.99763, 1.85903, 1.85761, 1.85469, 1.85178, 1.95807, 1.95502, 1.85338, 1.85152, 1.85077, 1.85119, 2.04628, 2.02886, 1.85161, 1.85148, 1.90265, 1.85252, 1.85336, 1.85528, 1.90669, 1.90667, 1.85617, 2.03902, 1.86162, 2.02986, 1.91111, 1.91041, 1.86005, 1.85825, 1.94517, 1.85909, 1.85299, 1.85291, 2.02489, 2.05656, 1.8476, 1.84836, 2.02746, 1.84744, 1.84946, 1.8422, 1.78278, 1.78145, 1.85888, 1.77301, 1.77197, 1.77538, 1.77456, 1.81848, 1.76941, 1.76568, 1.76764, 1.76564, 1.85065, 1.76669, 1.76505, 1.76, 1.76127, 1.81399, 1.81101, 1.76041, 1.8114, 1.85953, 1.80653, 1.87422, 1.87876, 1.75546, 1.7583, 1.7574, 1.75663, 1.87931, 1.8767, 1.75576, 1.75626, 1.75467, 1.75676, 1.87244, 1.75338, 1.75652, 1.75523, 1.80672, 1.75551, 1.87463, 1.75679, 1.87197, 1.75582, 1.75576
1.80441, 1.80425, 2.05552, 1.80471, 1.80484, 1.85356, 1.85215, 1.79871, 1.80229, 1.79813, 1.84715, 1.79712, 1.7963, 1.79819, 1.90023, 1.79432, 1.79294, 1.79562, 1.84337, 1.8408, 1.84114, 1.79184, 1.7891, 1.78705, 1.7866, 1.78847, 1.88263, 1.78559, 1.78835, 1.78413, 1.78309, 1.8876, 1.78448, 1.88534, 1.7824, 1.78304, 1.78382, 1.96521, 1.78221, 1.83442, 1.83472, 1.86954, 1.87068, 1.87981, 1.78613, 2.04932, 1.78361, 1.93267, 1.92307, 1.92203, 1.93446, 1.93465, 1.9171, 1.91857, 1.8406, 1.83864, 1.91409, 1.93078, 1.91332, 1.83509, 1.9085, 1.90881, 1.83118, 1.83077, 1.9075, 1.90632, 2.01159, 1.82788, 1.82747, 1.90557, 1.90711, 1.90779, 1.9025, 1.90375, 1.82628, 1.94084, 1.82624, 1.90287, 1.90396, 1.90597, 2.01768, 1.90908, 1.90927, 1.91048, 2.01815, 1.93818, 1.92374, 1.92389, 1.94082, 1.99986, 1.99723, 2.00325, 2.00694, 1.99008, 1.90809, 1.98378, 1.90976, 1.90814, 1.98361, 1.90866, 1.98667, 1.90935, 1.9953, 1.99432, 1.98372, 1.98604, 2.00392, 1.98946, 1.98779, 2.02117, 1.97777, 2.01259, 2.00844, 2.00034, 1.91458, 2.00679, 1.91455, 1.99626, 1.91684, 1.91763, 1.91794, 2.00911, 2.02741, 1.99754, 1.91979, 2.01484, 1.99676, 2.01021, 2.01366, 2.00755, 2.00778, 2.00236, 2.00449, 2.0055, 1.99757, 2.00734, 1.92052, 1.99697, 2.00059, 1.99863, 1.99987, 1.99802, 2.00145, 1.99699, 1.99939, 2.00306, 2.00092, 2.00385, 2.0035, 2.00572, 1.99808, 1.99762, 2.01713, 1.9508, 1.85805, 1.85327, 1.85388, 1.85536, 1.96322, 1.94746, 1.90133, 1.85107, 1.84971, 1.84923, 1.84973, 1.85171, 1.85061, 1.85114, 1.90329, 1.94174, 1.9406, 1.90248, 1.8551, 1.85857, 1.85824, 1.85498, 2.03131, 2.03824, 2.03915, 1.91183, 2.02515, 1.94546, 1.85578, 1.85397, 1.85423, 1.85121, 1.8502, 1.84819, 2.03487, 1.84882, 2.02447, 1.84777, 1.84675, 1.94502, 1.77954, 1.77899, 1.77609, 1.77523, 1.77496, 1.77165, 1.77287, 1.76906, 1.85606, 1.76821, 1.76669, 1.76497, 1.7654, 1.7664, 1.76472, 1.76474, 1.85214, 1.81245, 1.7612, 1.76185, 1.8095, 1.80992, 1.8085, 1.80737, 1.75697, 1.87693, 1.75357, 1.75628, 1.88047, 1.87948, 1.87815, 1.87899, 1.75598, 1.75371, 1.88094, 1.87746, 1.85208, 1.75801, 1.75554, 1.75488, 1.87874, 1.87512, 1.87321, 1.75777, 1.87012, 1.9248
1.80521, 1.80632, 1.8055, 1.89659, 1.89947, 1.8546, 1.80324, 1.80185, 1.97562, 1.80117, 1.80085, 1.80034, 1.79957, 1.79626, 1.79618, 1.79451, 1.7942, 1.7967, 1.79383, 1.79291, 1.79327, 1.88731, 2.0628, 1.79195, 1.78948, 1.78977, 1.83836, 1.83824, 1.83795, 1.78669, 1.78441, 1.78434, 1.78433, 1.8892, 1.88841, 1.78392, 1.88835, 1.78438, 1.7855, 1.78699, 1.86338, 1.83547, 1.78548, 1.7865, 1.78634, 1.96355, 1.78622, 1.92338, 2.01432, 1.93264, 1.9236, 1.84086, 1.84565, 1.92067, 1.91691, 1.91617, 1.93419, 1.83575, 1.83563, 1.83614, 1.9357, 1.90726, 2.0113, 1.93697, 1.90642, 1.90411, 1.83037, 1.90644, 1.82813, 1.90343, 1.90403, 1.93947, 1.93833, 1.90109, 1.90244, 1.82718, 1.90424, 1.90523, 1.90641, 1.90749, 1.91082, 1.83329, 1.93924, 1.83767, 1.91873, 2.01794, 2.02472, 1.84927, 2.03436, 1.98894, 2.00467, 1.98942, 1.91321, 1.98715, 1.99827, 1.91126, 1.91095, 1.9101, 1.90838, 1.91017, 1.98731, 1.91051, 1.98624, 1.98593, 1.98743, 1.98764, 1.91147, 1.98965, 1.98922, 2.00812, 2.00084, 1.99064, 1.99015, 1.9142, 2.00297, 1.91478, 2.00441, 2.00349, 2.00508, 2.00598, 1.91909, 2.01048, 1.99765, 2.00357, 2.01975, 2.01521, 2.02423, 2.01533, 2.01932, 1.9997, 1.99763, 2.00886, 1.99724, 1.99685, 2.00765, 1.99694, 1.9974, 2.00419, 2.00658, 1.99852, 1.99943, 2.00752, 1.99827, 2.00887, 2.00025, 2.00299, 2.00292, 1.92135, 2.00471, 2.00282, 1.99635, 1.9995, 1.99705, 1.90704, 1.91029, 1.95393, 1.95268, 1.85442, 1.85197, 2.0487, 1.85188, 1.85106, 1.85012, 1.85054, 1.85216, 1.85134, 1.85161, 1.85162, 2.04919, 1.85335, 1.90329, 1.90319, 1.85681, 1.85559, 2.0301, 1.85918, 1.8585, 1.85962, 2.04836, 1.86204, 1.85801, 1.85712, 2.06321, 2.04801, 1.85325, 1.85398, 1.85125, 1.85201, 1.84953, 2.02725, 2.05665, 2.03611, 1.84738, 1.84611, 1.83152, 1.82996, 1.77811, 2.05839, 1.82512, 1.82209, 1.76988, 1.76983, 1.76817, 1.76634, 1.76541, 1.7682, 1.76589, 1.76551, 1.76297, 1.75914, 1.76419, 1.81271, 1.76175, 1.75863, 1.81069, 1.80977, 1.80845, 1.7579, 1.75556, 1.75785, 1.75783, 1.80641, 1.75583, 1.86263, 1.8051, 1.75456, 1.75577, 1.75502, 1.75529, 1.88202, 1.75444, 1.75813, 1.75719, 1.75558, 1.7554, 1.87854, 1.87376, 1.75511, 1.75476, 1.75799
1.80857, 1.809, 1.80805, 1.80622, 1.9028, 1.80388, 1.86962, 1.80415, 1.8022, 1.80339, 2.05522, 1.79992, 2.0763, 1.80019, 1.79765, 1.9, 1.79409, 1.90075, 1.79554, 1.89615, 2.05508, 1.89615, 1.79353, 1.79174, 1.78987, 1.78842, 1.88052, 1.78995, 1.78796, 1.78912, 1.78874, 1.89136, 1.78439, 1.88868, 1.78539, 1.88667, 1.88792, 1.78679, 1.78857, 1.88873, 1.83547, 1.83785, 1.87158, 1.83688, 1.83782, 1.78859, 1.78892, 1.92452, 1.92251, 1.92377, 1.93197, 1.9324, 1.93436, 1.93449, 1.93418, 1.91982, 2.01499, 1.83789, 1.9117, 1.91228, 1.9391, 1.91135, 2.04459, 1.93874, 2.0161, 1.83101, 1.91035, 1.94128, 1.82805, 1.90564, 1.90418, 1.90393, 1.94111, 1.90305, 1.90449, 1.8285, 1.82755, 1.90557, 1.90732, 1.90807, 1.91299, 2.0281, 2.01791, 1.9444, 1.94512, 1.94777, 2.01841, 1.92415, 2.02413, 1.91363, 2.00441, 2.00694, 2.00801, 2.00476, 1.98786, 1.9965, 1.911, 1.91141, 1.90994, 1.98789, 1.99276, 1.98647, 1.98825, 1.99286, 2.02473, 1.91094, 1.98917, 1.98923, 1.99373, 1.98864, 1.98577, 2.01361, 2.00954, 1.99027, 1.91665, 1.99786, 2.00487, 1.9174, 2.00888, 1.91822, 1.91923, 2.01057, 1.99752, 1.9982, 1.92088, 2.01678, 2.01414, 1.9979, 1.99929, 2.00696, 1.99916, 2.00768, 2.00997, 1.92194, 2.00545, 1.92175, 2.02071, 1.99917, 2.00749, 1.99772, 1.99724, 1.92122, 1.9209, 1.99867, 1.99876, 2.00121, 2.00373, 1.99843, 1.92206, 1.99927, 1.99739, 1.92193, 2.01399, 2.01792, 1.85807, 1.85457, 1.8524, 1.85533, 1.85443, 1.85258, 1.95668, 1.85117, 2.03191, 1.84864, 1.84832, 1.85111, 1.85245, 1.85145, 2.03895, 1.84857, 1.956, 1.8539, 1.85792, 1.85759, 2.05215, 1.85814, 1.85688, 1.85678, 1.85574, 1.85766, 2.02414, 1.85542, 2.02884, 1.85444, 1.85461, 1.85305, 1.90223, 1.85199, 1.84793, 1.84719, 1.8498, 1.84817, 1.9447, 1.84394, 1.78227, 1.78045, 1.77665, 1.77624, 1.77493, 1.82216, 1.81937, 1.76918, 1.76585, 1.76721, 1.76511, 1.81618, 1.76681, 1.76604, 1.76476, 1.84762, 1.86755, 1.75792, 1.85659, 1.75975, 1.86678, 1.75874, 1.8111, 1.8564, 1.8738, 1.75835, 1.7537, 1.75626, 1.8624, 1.75243, 1.80624, 1.75584, 1.75616, 1.75783, 1.757, 1.87876, 1.87602, 1.75497, 1.75694, 1.75619, 1.75341, 1.75517, 1.87522, 1.80709, 1.87218, 1.8762
1.81072, 1.81141, 1.8073, 1.80742, 1.80837, 1.80961, 1.85581, 1.85611, 1.89991, 1.80434, 1.80439, 2.08923, 2.06083, 2.05998, 1.79992, 1.79978, 1.7998, 1.79328, 1.89355, 1.89662, 1.79624, 1.79515, 1.79539, 1.79237, 1.84092, 1.88162, 1.79088, 1.78897, 1.84108, 1.84044, 1.7888, 1.7888, 1.78878, 1.78768, 1.78946, 1.78854, 1.83696, 1.87642, 1.78723, 1.78608, 1.78677, 1.78769, 1.96916, 1.78864, 1.87885, 1.78628, 1.79064, 2.01181, 1.84721, 1.93504, 1.93719, 2.01348, 1.92111, 1.93764, 1.9388, 1.93814, 1.93788, 2.04111, 1.93799, 1.91542, 1.93777, 1.91257, 2.01505, 1.9141, 1.83342, 1.94209, 1.91345, 1.9063, 1.83007, 1.82927, 1.90482, 1.90423, 1.90505, 1.90461, 1.94396, 1.94422, 1.90784, 1.90631, 1.90675, 1.90716, 1.91019, 1.94072, 1.94137, 1.91082, 1.84284, 1.8456, 1.8486, 1.85193, 2.03012, 2.03145, 2.00675, 1.99869, 1.99401, 1.91343, 2.00662, 1.99009, 1.91208, 1.91109, 1.99095, 1.9863, 1.99684, 1.98586, 1.91156, 2.02113, 2.01421, 1.98713, 2.01831, 2.0183, 2.00867, 2.0073, 2.01125, 1.99323, 2.00667, 2.00002, 2.00927, 1.91633, 2.00126, 2.00079, 2.00531, 2.00455, 2.01345, 2.01555, 2.00707, 2.01408, 1.99855, 2.01651, 1.9974, 2.00094, 2.01461, 2.01366, 1.92214, 1.9215, 2.02704, 2.00508, 2.01433, 1.99598, 1.99719, 2.02165, 1.92202, 2.00061, 1.99986, 2.01437, 1.99618, 1.92144, 2.00274, 2.00341, 2.00358, 2.00033, 1.99864, 1.92098, 1.92192, 1.99748, 1.9967, 1.8568, 1.85514, 2.03859, 1.8542, 1.8511, 1.85305, 1.85081, 1.95637, 1.95677, 1.85152, 2.03273, 1.84947, 1.84935, 1.84962, 1.84912, 1.85322, 1.85203, 1.85352, 1.85485, 1.85388, 1.85384, 1.85226, 1.85642, 1.85687, 1.85792, 1.90776, 1.85783, 1.85664, 1.85561, 1.85518, 1.85275, 1.9049, 1.90328, 1.85086, 1.84841, 1.84865, 1.84739, 1.85084, 1.84713, 1.84743, 1.84397, 1.78167, 1.78003, 1.77876, 1.77562, 1.77309, 1.77109, 1.7689, 1.76944, 1.81827, 1.76824, 1.81669, 1.84292, 1.85434, 1.7634, 1.76272, 1.76245, 1.76107, 1.76082, 1.86658, 1.86559, 1.86519, 1.87363, 1.7577, 1.75827, 1.75884, 1.87166, 1.75236, 1.75852, 1.86512, 1.75424, 1.87692, 1.75554, 1.87813, 1.80549, 1.87492, 1.75373, 1.75233, 1.86952, 1.80645, 1.75733, 1.75595, 1.87612, 1.75459, 1.75422, 1.75727, 1.81297
1.86227, 1.81096, 1.812, 1.80963, 1.81058, 1.81165, 1.80715, 1.80828, 1.80891, 1.85403, 1.80306, 1.80514, 1.89981, 1.80266, 1.88969, 1.85128, 1.79867, 1.84892, 1.79841, 1.7974, 1.79819, 1.89819, 1.79512, 1.79606, 1.84379, 1.84311, 1.84254, 1.84282, 1.79256, 1.84143, 1.88875, 1.88562, 1.79, 1.7877, 1.96724, 1.78734, 1.88891, 1.78847, 1.78656, 1.78761, 1.78757, 1.97164, 1.78702, 1.78658, 1.78728, 1.78792, 1.79002, 1.92692, 1.92528, 2.02021, 1.92454, 2.0216, 1.92135, 1.92263, 1.92003, 1.91737, 1.9375, 1.94034, 2.01783, 1.91323, 2.01639, 1.83541, 1.91313, 1.91169, 1.90979, 1.90991, 1.90955, 1.90648, 1.90654, 1.903, 1.90586, 1.9075, 1.90654, 2.02099, 1.90749, 1.83079, 1.90655, 1.90732, 1.90722, 1.9094, 1.91185, 1.91282, 1.91344, 1.84053, 1.94469, 1.94162, 1.84826, 1.94173, 2.02864, 1.8724, 1.9921, 1.99775, 1.99408, 1.91394, 2.00512, 1.91431, 1.98963, 1.91318, 1.99268, 1.99017, 1.99591, 1.99595, 2.0099, 1.9929, 1.99219, 1.91286, 2.01778, 1.91377, 1.91432, 2.01911, 1.99256, 1.99114, 1.9931, 1.994, 1.99512, 2.00697, 2.01122, 1.91842, 2.01683, 1.92055, 1.92109, 1.92125, 2.01001, 2.01272, 2.01626, 2.00597, 2.009, 2.00004, 2.00669, 2.0076, 1.92266, 2.02031, 2.01036, 2.00057, 2.01448, 1.99988, 1.99848, 1.99685, 2.01315, 1.92074, 2.01643, 2.01422, 1.92128, 1.99987, 2.00011, 1.92099, 1.99829, 2.00762, 2.00628, 2.00208, 2.00089, 1.9238, 2.00985, 1.85801, 1.85679, 1.85539, 1.85406, 2.0444, 1.85168, 1.85101, 1.9519, 1.85458, 2.02843, 1.85181, 1.85098, 1.85269, 1.85187, 1.85174, 1.85092, 1.85105, 1.85415, 1.94559, 2.05522, 2.05448, 1.85639, 1.85491, 1.85337, 1.85916, 1.85756, 1.85638, 1.85707, 1.85644, 1.85605, 1.85233, 1.85221, 1.85433, 1.85219, 1.84949, 1.84959, 1.84982, 2.02445, 1.84515, 1.8463, 1.84477, 1.87201, 1.87232, 1.86801, 1.86255, 1.77258, 1.77159, 2.07078, 1.76851, 1.84532, 1.76748, 1.81669, 1.81513, 1.76538, 1.76526, 1.76447, 1.85696, 1.81244, 1.76061, 1.75877, 1.86164, 1.86696, 1.75769, 1.75899, 1.75733, 1.75798, 1.75742, 1.80706, 1.75585, 1.87085, 1.8792, 1.85577, 1.75385, 1.75498, 1.7542, 1.75446, 1.75532, 1.87278, 1.7542, 1.75803, 1.75739, 1.75701, 1.86966, 1.75467, 1.87406, 1.86876, 1.80463
1.8146, 1.81539, 1.812, 1.81136, 1.81266, 1.81087, 1.81007, 1.80848, 1.90755, 1.80702, 1.80638, 1.80412, 1.90038, 1.80338, 1.80624, 1.80349, 1.88979, 1.85159, 1.79922, 1.79901, 1.89598, 1.89147, 1.7956, 1.9162, 1.84503, 1.79274, 1.85526, 1.84413, 1.79262, 1.97848, 1.78988, 1.7897, 1.79002, 1.78946, 1.89153, 1.97214, 1.78937, 1.78708, 1.88633, 1.88574, 1.78868, 1.88126, 1.78885, 1.97257, 1.78903, 1.78918, 1.79015, 1.85053, 1.92721, 2.02081, 2.02108, 1.84693, 1.84569, 2.01769, 2.01682, 1.91934, 1.92102, 2.03703, 1.8414, 1.94293, 1.94329, 1.91732, 1.9416, 1.91302, 1.9116, 2.02759, 1.94472, 1.90975, 1.90856, 1.90608, 1.9067, 1.82883, 1.82919, 2.03145, 1.90752, 1.90653, 1.94447, 1.83222, 2.03742, 1.91374, 1.91191, 1.83779, 1.94382, 1.9443, 1.9444, 1.84552, 1.92779, 1.94137, 2.03718, 2.02378, 1.99311, 1.91691, 1.99333, 2.00352, 2.00087, 2.01033, 1.99204, 1.99586, 1.99722, 2.00015, 1.99823, 1.99716, 1.991, 1.9897, 1.99153, 1.91295, 1.99256, 1.99251, 1.99126, 1.99375, 1.91742, 1.99374, 1.99391, 1.99116, 1.91884, 1.99584, 1.99752, 2.01397, 2.00681, 1.92049, 2.01474, 2.02085, 1.92322, 2.01732, 1.92101, 1.92313, 2.00353, 2.00003, 2.01108, 2.01135, 2.00867, 1.99981, 2.00077, 2.00619, 2.00758, 2.00786, 2.00753, 1.92086, 2.00046, 2.00358, 1.9217, 2.01369, 2.0037, 1.92363, 2.00069, 1.92385, 2.00262, 2.00452, 2.00139, 2.00022, 2.02527, 1.99964, 1.99628, 1.85728, 1.85507, 2.04333, 1.85467, 1.95388, 1.85027, 2.03792, 1.85068, 1.85085, 1.95854, 1.85198, 2.0315, 1.85248, 1.85264, 1.85234, 1.95785, 1.85436, 2.06237, 2.03255, 1.85592, 1.85566, 2.05351, 1.85263, 1.8529, 1.95543, 1.85802, 2.02791, 1.8574, 1.85766, 1.85699, 1.85337, 1.85337, 1.85499, 1.85242, 1.85497, 1.84997, 1.85072, 2.04636, 1.84566, 1.84791, 1.89702, 1.7817, 1.77984, 1.77705, 1.77654, 1.77358, 1.77099, 1.76868, 1.76601, 1.7678, 1.77128, 1.76412, 1.85773, 1.76022, 1.76428, 1.76251, 1.76293, 1.75869, 1.86505, 1.86366, 1.8663, 1.86255, 1.75607, 1.86815, 1.75688, 1.87972, 1.75539, 1.7545, 1.75392, 1.75798, 1.75575, 1.75786, 1.87322, 1.7567, 1.80604, 1.75533, 1.7539, 1.7562, 1.75727, 1.8762, 1.75764, 1.7545, 1.75179, 1.75354, 1.75184, 1.75178, 1.80421
1.8147, 1.86497, 1.81278, 1.86711, 1.81071, 1.91192, 1.81099, 2.08282, 1.80968, 2.08643, 1.80829, 2.0735, 1.80515, 1.80416, 1.85353, 1.85418, 1.96757, 1.85178, 1.80273, 1.90261, 1.79921, 1.80015, 1.89929, 1.79695, 1.79545, 1.79597, 1.79482, 1.79364, 1.90007, 1.97406, 1.79171, 1.89666, 1.97598, 1.97853, 1.89877, 1.78887, 1.87883, 1.78901, 1.8385, 1.97126, 1.97361, 1.9685, 1.7903, 1.83928, 1.83964, 1.84007, 1.84052, 1.92716, 1.9275, 1.92855, 1.94108, 1.92449, 1.92275, 1.93976, 1.94099, 1.92125, 1.91799, 1.83945, 1.91492, 1.94122, 1.91634, 1.83665, 1.91362, 1.83646, 1.83452, 1.83346, 1.83338, 1.94434, 1.90861, 1.91211, 1.83084, 1.83039, 1.83025, 2.02756, 1.90895, 1.94497, 1.90928, 1.9111, 1.90961, 1.8338, 1.94773, 1.83789, 1.91593, 1.94628, 1.94528, 1.94492, 1.92695, 1.85644, 2.02849, 1.91795, 1.91727, 1.99676, 1.99272, 1.91854, 2.00622, 2.00295, 1.99381, 1.99995, 1.99368, 1.91475, 1.99803, 1.99643, 2.00007, 1.99555, 1.99214, 1.99087, 1.917, 1.91524, 1.99511, 2.00428, 1.91682, 2.01899, 1.99779, 2.00302, 2.00754, 1.99773, 1.92183, 1.92108, 1.92095, 1.99876, 2.00053, 1.99989, 2.0086, 2.00739, 2.0174, 2.01391, 2.01419, 2.00425, 2.01887, 1.99885, 2.00723, 2.02725, 2.00836, 2.00689, 2.00782, 2.00614, 2.0042, 2.018, 2.02004, 1.99922, 1.9978, 2.00782, 2.00938, 2.00105, 2.00073, 2.00394, 2.00043, 2.00315, 2.00278, 2.0034, 1.99996, 2.00025, 2.01017, 1.85733, 2.04408, 2.04628, 1.85479, 2.03381, 1.85328, 1.85013, 1.85176, 1.85227, 1.85275, 1.95543, 1.85358, 1.85186, 1.95332, 1.85356, 1.95947, 1.85078, 1.85099, 2.03293, 1.85255, 1.95331, 1.85283, 1.8535, 1.85521, 1.85632, 1.8554, 1.85471, 1.85643, 2.02476, 1.85413, 1.85409, 1.85245, 1.85091, 1.94749, 1.85149, 1.84891, 1.85177, 1.84566, 1.84486, 1.89702, 1.89855, 1.88223, 1.87207, 1.77342, 1.77261, 1.77286, 1.76846, 1.86471, 1.85295, 1.76625, 1.76675, 1.76711, 1.81447, 1.76488, 1.7615, 1.85941, 1.85894, 1.76085, 1.7597, 1.75814, 1.7561, 1.86816, 1.75456, 1.87178, 1.75809, 1.75534, 1.75235, 1.83304, 1.75569, 1.75789, 1.75615, 1.75666, 1.75536, 1.75455, 1.7517, 1.75526, 1.75555, 1.7551, 1.87887, 1.87322, 1.75735, 1.87806, 1.75595, 1.75482, 1.86956, 1.86622, 1.80391
1.81545, 1.8165, 1.81754, 1.81791, 1.81607, 1.81312, 1.81327, 1.80977, 1.8099, 1.80987, 1.80975, 1.80702, 1.80819, 1.80604, 1.85526, 1.8054, 1.8935, 1.85259, 1.80283, 1.80188, 1.7998, 1.7988, 1.90608, 1.89773, 1.79709, 1.90149, 1.79641, 1.79519, 1.79406, 1.79318, 1.97931, 1.79344, 1.79209, 1.90042, 1.79145, 1.8936, 1.85052, 1.83966, 1.78966, 1.9709, 1.97267, 1.78902, 1.78793, 1.7903, 1.96579, 1.79107, 1.79173, 1.85195, 1.85314, 1.9295, 1.92716, 1.9417, 1.94229, 1.92375, 1.92402, 1.94419, 1.92359, 1.91741, 1.94484, 1.84033, 2.04839, 1.91382, 1.91483, 1.91387, 1.91726, 1.83462, 1.8335, 1.83134, 1.90923, 1.9075, 1.90703, 1.83019, 1.82996, 1.8299, 1.94814, 1.90809, 2.02543, 1.9086, 1.91053, 1.9489, 1.91373, 1.83677, 1.91849, 1.9188, 1.92133, 1.92584, 1.94541, 1.94672, 2.02562, 1.91985, 2.01786, 1.99286, 1.99284, 1.9964, 1.91676, 1.91699, 1.997, 1.99766, 1.997, 1.99751, 1.99544, 1.99467, 1.99093, 1.99323, 1.99388, 1.91508, 1.91616, 1.99359, 1.99648, 1.91778, 1.99478, 2.00046, 1.99651, 1.91911, 2.00079, 2.00112, 1.92114, 1.92, 2.00535, 1.92145, 1.99962, 2.03231, 1.99549, 2.00862, 2.0116, 1.9236, 2.01721, 2.01056, 2.00284, 2.00021, 2.01779, 2.01661, 2.00642, 2.00469, 2.0207, 2.00006, 2.00722, 2.00832, 1.99948, 2.00335, 1.99974, 2.00141, 1.92386, 2.02002, 1.99954, 2.00331, 2.00399, 2.00087, 2.00258, 2.00046, 1.92305, 1.99977, 1.99962, 1.85822, 2.04741, 1.85489, 1.85316, 1.85295, 2.04415, 1.85136, 1.84992, 2.05591, 1.85135, 1.85275, 1.8513, 1.85186, 2.04837, 1.85294, 1.90152, 1.90219, 1.90249, 1.85418, 1.85151, 1.85522, 1.8546, 1.85444, 2.04275, 1.95015, 1.8542, 1.85415, 2.03008, 1.85407, 1.85298, 1.85243, 1.85236, 1.85322, 1.84939, 1.8495, 1.84892, 1.85062, 1.84939, 1.90025, 1.89954, 1.846, 1.78092, 1.77789, 1.82989, 1.77344, 1.86493, 1.77137, 1.77001, 1.76792, 1.87593, 1.76791, 1.86128, 1.76501, 1.81326, 1.81177, 1.76176, 1.86193, 1.75878, 1.86332, 1.75831, 1.75727, 1.8691, 1.7573, 1.86887, 1.75436, 1.75648, 1.75495, 1.75398, 1.85833, 2.05805, 1.75612, 1.8784, 1.87698, 1.75473, 1.75547, 1.75355, 1.87962, 1.75586, 1.75166, 1.75065, 1.75411, 1.75396, 1.80405, 1.7524, 1.7543, 1.751, 1.75382
1.82098, 1.81979, 1.86698, 1.86691, 1.86615, 1.81404, 1.90789, 1.9081, 1.81277, 1.81055, 1.86104, 1.81123, 1.8092, 1.90998, 1.80751, 1.85716, 1.80642, 1.85426, 1.85463, 1.8027, 1.80295, 1.85132, 1.89812, 1.90059, 1.8001, 1.8497, 1.90059, 1.90357, 1.98608, 1.97967, 1.7927, 1.84387, 1.79349, 1.79213, 1.79074, 1.8441, 1.84291, 1.84059, 1.84115, 1.84198, 1.97927, 1.78942, 1.78962, 1.97658, 1.79176, 1.96307, 1.79365, 1.92929, 1.93112, 1.93063, 1.94346, 1.94346, 1.92469, 1.9235, 1.92328, 1.84604, 1.84582, 1.91836, 1.91774, 1.91984, 2.0343, 1.9159, 1.94584, 1.91554, 1.91582, 1.91018, 1.91085, 1.83392, 2.02391, 1.90989, 1.90459, 1.90714, 1.90816, 1.94537, 1.9479, 1.94785, 1.95116, 1.83376, 1.83559, 1.91163, 1.94832, 1.9138, 1.94755, 1.9481, 2.02206, 1.92666, 1.92756, 1.92836, 1.94894, 2.04227, 2.0259, 2.01713, 2.00385, 2.00469, 1.99568, 2.0079, 1.99513, 1.91773, 1.99719, 1.99781, 1.99637, 1.99894, 1.91715, 2.01565, 2.02778, 1.99389, 2.01305, 1.99674, 1.99679, 1.91745, 2.00022, 2.00466, 1.91846, 2.0103, 2.00327, 2.00551, 1.92125, 2.01007, 1.92159, 1.92299, 2.00085, 2.00026, 2.00791, 1.92399, 2.01096, 2.00638, 1.92391, 2.02505, 2.00292, 2.02346, 2.02229, 2.00306, 2.00673, 2.00155, 2.01465, 2.02693, 2.0181, 2.01709, 2.01177, 2.00087, 2.01763, 2.00008, 2.01524, 1.99983, 2.00458, 2.00367, 2.00089, 2.00701, 2.00765, 2.01035, 1.99953, 1.92413, 2.00088, 2.01113, 1.85714, 1.85501, 2.04199, 1.85155, 1.85475, 1.85159, 1.85258, 1.85108, 1.90253, 1.85153, 1.95568, 1.95418, 1.85478, 1.90231, 1.9027, 1.85245, 1.90324, 1.90267, 2.04501, 2.02878, 1.85549, 1.85407, 1.85456, 1.85609, 1.85463, 1.94754, 1.85299, 1.85476, 2.02749, 1.85304, 1.85454, 1.85291, 1.85225, 1.85198, 1.84774, 1.84751, 1.84745, 1.84657, 1.89999, 1.84651, 1.7822, 1.8287, 1.82735, 1.77262, 1.86891, 1.77049, 1.81975, 1.86798, 1.7672, 1.76513, 1.85081, 1.7629, 1.76256, 1.76149, 1.76222, 1.86851, 1.86666, 1.86601, 1.8673, 1.75316, 1.75639, 1.87279, 1.75587, 1.75453, 1.87184, 1.85797, 1.80388, 1.87332, 1.75735, 1.75785, 1.75503, 1.87984, 1.87655, 1.87985, 1.87745, 1.7521, 1.80554, 1.84143, 1.8044, 1.7533, 1.80358, 1.75489, 1.7549, 1.87474, 1.75436, 1.75253
1.82115, 1.81797, 1.86919, 1.90285, 1.86785, 1.86889, 1.81661, 1.91078, 1.91608, 1.81328, 1.81315, 1.9134, 1.8113, 1.91394, 1.80716, 1.80801, 1.80765, 1.80604, 1.8045, 1.90895, 1.80314, 1.80086, 1.80242, 1.80282, 1.80034, 1.79721, 1.79974, 1.7999, 1.7943, 1.84721, 1.79541, 1.79362, 1.89446, 1.84396, 1.88637, 1.7933, 1.84293, 1.88229, 1.8508, 1.95858, 1.89658, 1.79195, 1.79194, 1.88944, 1.97917, 1.97865, 1.94415, 2.02393, 1.93111, 1.85133, 1.9293, 1.94529, 1.92641, 1.92757, 1.92351, 1.92382, 1.92053, 1.92131, 1.92096, 1.92082, 1.9184, 1.94799, 1.92017, 1.91448, 1.91655, 1.91513, 1.94807, 1.9482, 1.83454, 1.90693, 1.9053, 1.90838, 1.91013, 1.95155, 1.90985, 1.90865, 2.02707, 1.90818, 1.91347, 1.9142, 1.95139, 1.91668, 1.84226, 1.92021, 1.92511, 1.95093, 1.9519, 1.94865, 2.04306, 2.04566, 1.99988, 1.99911, 1.99964, 1.99657, 2.03046, 1.91955, 1.99658, 1.91789, 1.9173, 1.91875, 1.91731, 1.99724, 2.01836, 1.99455, 1.99666, 1.99398, 1.91686, 2.00973, 2.02397, 2.00701, 2.00421, 1.99588, 2.01711, 1.92018, 2.00287, 2.00394, 1.99839, 1.99947, 2.00254, 2.02065, 2.01836, 2.0036, 2.01394, 2.01164, 2.01349, 2.00426, 1.92409, 2.02462, 2.00436, 2.01099, 2.01371, 2.01116, 2.00096, 2.00738, 2.01301, 2.01552, 2.00347, 2.02501, 2.01907, 1.99989, 1.99978, 2.00795, 2.02466, 2.00365, 2.00307, 2.00414, 2.00418, 2.00394, 2.00321, 2.0033, 1.9242, 2.00167, 2.00741, 1.85516, 2.02956, 1.85534, 1.85451, 2.05151, 1.90273, 1.85193, 1.85305, 1.85219, 1.85102, 1.90306, 2.05674, 1.8525, 1.85305, 1.85379, 1.90225, 1.93741, 1.8529, 1.90341, 1.85287, 2.04054, 1.85333, 1.85422, 1.85284, 1.85513, 1.85552, 1.85361, 1.85398, 1.85431, 1.8544, 1.85392, 2.04753, 1.85118, 1.85003, 1.90069, 1.85028, 2.02472, 1.84904, 2.04837, 1.95086, 1.84629, 1.78207, 1.86388, 1.86848, 1.87078, 1.77126, 1.81934, 1.76804, 1.86778, 1.85942, 1.81615, 1.81408, 1.76232, 1.76054, 1.76018, 1.75915, 1.76121, 1.75719, 1.75656, 1.86924, 1.75431, 1.87259, 1.75716, 1.75591, 1.75633, 1.75597, 1.8595, 1.80395, 1.75253, 1.75123, 1.80669, 1.8048, 1.75499, 1.7545, 1.75341, 1.75494, 1.87696, 1.75208, 1.74947, 1.80589, 1.86084, 1.80306, 1.75525, 1.75243, 1.87262, 1.87026, 1.75128
1.82098, 1.82167, 1.87173, 1.87098, 1.87083, 1.8705, 1.81556, 1.81652, 1.91578, 1.81559, 1.81506, 2.07274, 1.91637, 1.80938, 1.81102, 1.80936, 1.8067, 1.80708, 1.80538, 1.90789, 1.90957, 1.80221, 1.90363, 1.8019, 1.80255, 1.80183, 1.79916, 1.79804, 1.9073, 1.79836, 1.79651, 1.98382, 1.79368, 1.79271, 1.90099, 1.79246, 1.84455, 1.79406, 1.98078, 1.97303, 1.8944, 1.79239, 1.89716, 1.79374, 1.79206, 1.97977, 2.02369, 1.92879, 1.93116, 1.93159, 1.93073, 1.93102, 1.92928, 1.94767, 1.92368, 1.9473, 1.92309, 1.94671, 1.9225, 1.9231, 1.91717, 1.84086, 1.8373, 2.02682, 1.83571, 1.90856, 1.94798, 1.90926, 1.83419, 1.91354, 1.95098, 1.91157, 1.91021, 1.91093, 1.90976, 1.83391, 1.83389, 1.9102, 2.03877, 1.91347, 1.9541, 1.91786, 2.03457, 1.92157, 1.84671, 1.84912, 1.85761, 2.05272, 2.03922, 2.04194, 1.9998, 1.99987, 1.99941, 1.99867, 1.99982, 1.99775, 1.99448, 2.00108, 1.91911, 1.9208, 1.92018, 1.99472, 1.99739, 1.99765, 1.99589, 2.00341, 2.00001, 2.00532, 2.0097, 1.92034, 1.99985, 2.00622, 2.01282, 2.01385, 2.01524, 2.01721, 1.92254, 2.01444, 1.92472, 1.92548, 2.0132, 2.00054, 2.02353, 2.02141, 2.01321, 1.9252, 1.92548, 2.01507, 2.02001, 2.02113, 1.92637, 1.92591, 2.00109, 2.00129, 2.00996, 1.92572, 1.92643, 1.92355, 2.007, 2.02154, 2.0009, 1.9213, 2.01062, 1.99997, 2.00289, 2.00324, 2.00804, 2.00663, 2.00332, 2.00126, 2.00202, 2.00717, 2.01344, 1.85803, 1.85707, 1.85497, 1.85385, 1.95719, 1.85166, 1.85207, 1.85116, 1.85131, 1.85114, 1.85122, 1.95802, 1.8542, 1.85276, 1.85339, 1.9038, 1.90308, 1.85361, 1.85225, 1.85351, 1.85295, 2.05921, 1.85211, 1.85531, 2.02728, 2.03233, 1.85478, 1.85489, 1.85183, 2.04004, 1.85351, 1.85342, 2.03915, 1.85128, 1.84933, 2.02601, 1.84973, 1.89805, 1.85039, 1.93921, 1.84721, 1.86802, 1.82998, 1.77675, 1.77394, 1.77302, 1.76937, 1.87242, 1.81806, 1.83877, 1.76486, 1.81345, 1.76228, 1.76188, 1.76156, 1.75883, 1.75904, 1.75803, 1.75604, 1.754, 1.75271, 1.87235, 1.75617, 1.86932, 1.80392, 1.85695, 1.757, 1.80597, 1.87414, 1.92545, 1.80689, 1.80626, 1.75103, 1.8757, 1.75377, 1.75675, 1.75491, 1.75543, 1.87896, 1.75537, 1.75483, 1.75187, 1.75434, 1.75203, 1.753, 1.87192, 1.75195
1.82214, 1.91695, 1.82369, 1.82424, 1.87188, 1.91618, 1.81726, 1.81924, 1.86807, 1.81492, 1.91806, 2.08591, 1.9927, 1.91743, 1.91058, 1.80979, 1.80903, 1.91105, 1.80929, 1.91061, 1.98621, 1.80358, 1.99045, 1.91034, 1.92035, 1.85313, 1.80265, 1.90989, 1.98996, 1.79834, 1.79902, 1.90626, 1.98612, 1.79456, 1.79374, 1.90261, 1.7958, 1.79669, 1.79056, 1.89646, 1.89248, 1.79465, 1.79556, 1.79374, 1.79276, 1.79332, 1.93493, 1.85679, 2.03098, 2.02942, 2.03149, 1.94736, 2.02907, 1.92776, 1.92576, 1.92499, 1.92355, 1.84583, 1.92332, 1.84284, 1.84206, 1.91836, 1.94956, 1.91849, 1.91831, 1.83612, 1.91148, 1.83686, 1.9123, 1.91141, 1.91096, 1.91075, 1.91168, 1.91068, 2.03032, 1.95238, 1.83389, 1.95168, 1.95292, 1.91349, 1.84067, 1.95291, 2.02878, 2.02896, 1.85037, 1.95211, 1.95013, 1.93748, 1.95127, 2.00467, 2.00496, 2.00021, 2.02083, 2.0272, 2.02444, 1.92218, 2.00164, 1.99745, 1.99962, 2.00058, 2.00026, 1.99465, 1.99578, 1.99698, 1.99682, 1.99628, 1.99657, 2.01435, 2.00654, 2.01048, 2.00886, 1.99796, 1.99995, 2.01515, 1.92236, 2.01644, 2.01554, 2.02084, 2.01484, 2.01747, 2.0044, 2.00235, 1.92673, 2.01573, 2.00788, 2.01344, 1.9266, 2.02451, 2.0099, 2.01764, 2.01728, 2.01116, 2.01091, 1.92473, 1.92539, 2.01158, 2.03167, 1.92375, 2.0168, 2.00285, 2.01447, 2.00734, 2.00173, 2.00361, 2.00467, 2.00479, 2.00394, 2.00312, 2.00482, 1.99983, 1.99925, 2.00165, 1.92354, 1.85773, 1.85632, 1.85461, 1.853, 1.85238, 1.85439, 1.85202, 1.8531, 1.9556, 1.95556, 1.90291, 1.93068, 1.95407, 1.85251, 1.85082, 2.03086, 1.85139, 1.85435, 1.85161, 1.85209, 1.85311, 1.95252, 2.04267, 1.85152, 1.90532, 1.85164, 1.85849, 1.85442, 2.0392, 1.85357, 1.85324, 1.85148, 1.85103, 1.84975, 1.84916, 1.84969, 1.85178, 1.84968, 1.84765, 1.8487, 1.78315, 1.86385, 1.87369, 1.8724, 1.7732, 1.8751, 1.87178, 1.81818, 1.8167, 1.81573, 1.81533, 1.75948, 1.75951, 1.87574, 1.76052, 1.80918, 1.84804, 1.80521, 1.80568, 1.8061, 1.85608, 1.75516, 1.87291, 1.80342, 1.75386, 1.75364, 1.80428, 1.86401, 1.861, 1.92749, 1.75479, 1.87387, 1.752, 1.8518, 1.75496, 1.75252, 1.86332, 1.75486, 1.75276, 1.75311, 1.75311, 1.75525, 1.75439, 1.75493, 1.75522, 1.75104, 1.87577
1.8245, 1.82294, 1.82434, 1.82349, 2.08, 1.82052, 1.9199, 1.86998, 1.82083, 1.87018, 1.92011, 1.81468, 1.81443, 1.81314, 1.81339, 1.81036, 1.91703, 1.81022, 1.80785, 1.99331, 1.80585, 1.80688, 1.91341, 1.80543, 1.92003, 1.80237, 1.90289, 1.91669, 1.91338, 1.8012, 1.80048, 1.8004, 1.90457, 1.79518, 1.79606, 1.79545, 1.88938, 1.89973, 1.79545, 1.7926, 1.79438, 1.7927, 1.79349, 1.79496, 1.89064, 1.84654, 1.79597, 1.93553, 2.03393, 1.94965, 2.03097, 1.93308, 2.03501, 1.94528, 1.92508, 1.92558, 1.95185, 1.92364, 1.92208, 1.92265, 1.95185, 1.91769, 1.95123, 1.91597, 1.83832, 1.95333, 1.95208, 1.95354, 1.9146, 1.91339, 1.95229, 1.95218, 1.95257, 1.90955, 1.83551, 1.83584, 2.03131, 1.95473, 1.91596, 1.91484, 1.95236, 1.91962, 1.84461, 1.92374, 1.85117, 1.92875, 1.93432, 2.03573, 1.95223, 2.02362, 2.0029, 2.00016, 2.00006, 1.92264, 1.99962, 2.00771, 2.0005, 2.00167, 1.91912, 2.00072, 2.00341, 1.99725, 1.99792, 1.999, 1.99795, 2.02468, 1.92314, 2.00575, 2.01775, 2.00296, 2.02554, 2.00804, 1.92175, 1.9237, 2.01459, 2.0007, 2.01778, 2.01801, 2.0142, 2.01422, 2.00423, 2.0024, 2.00943, 1.92824, 1.92816, 2.01228, 1.92729, 2.03519, 2.01406, 1.92687, 2.03201, 2.01416, 2.0168, 1.92649, 1.92535, 2.0075, 2.01793, 1.92721, 2.01693, 2.00032, 1.92457, 1.92435, 2.00097, 2.02335, 2.00661, 2.00669, 2.00673, 2.00956, 2.00465, 2.00049, 2.00026, 1.99859, 2.01378, 1.85786, 1.8556, 1.85388, 2.03432, 1.85526, 1.85406, 1.85317, 1.95323, 1.85151, 1.85283, 1.8516, 1.85162, 1.95604, 1.91448, 1.91298, 1.95557, 1.85258, 1.8513, 1.85321, 2.03274, 1.85333, 1.95032, 1.8547, 1.85788, 1.90573, 1.85393, 1.85255, 1.8534, 2.04842, 1.85222, 1.8534, 1.8549, 1.84935, 1.90734, 1.84966, 1.84809, 1.84719, 2.042, 1.84975, 1.84965, 1.78301, 1.87939, 1.77926, 1.87499, 1.86611, 1.77264, 1.77103, 1.76935, 1.81638, 1.85894, 1.76429, 1.76276, 1.76076, 1.87977, 1.75787, 1.87528, 1.80691, 1.80628, 1.80508, 1.7558, 1.75537, 1.75276, 1.75386, 1.86287, 1.75367, 1.75131, 1.75347, 1.87178, 1.75197, 1.75493, 1.87594, 1.87681, 1.75251, 1.92746, 1.75241, 1.75472, 1.75207, 1.75518, 1.87574, 1.75189, 1.87717, 1.75453, 1.7569, 1.75232, 1.80356, 1.75354, 1.8725
