1.89237355110099,1.71559398839659,1.71576026198876,1.71463432329557,1.80661265156371,1.81103562346426,1.76139127256592,1.76143503256857,1.80003274640615,1.76323664961227,1.76007218373346,1.7600620255279,1.71147706196052,1.71209526653383,1.73959317934726,1.71065717481445,1.88366303210661,1.88791851331306,1.71190547759083,1.71323280446558,1.71370320008186,1.84565650626835,1.84549737713309,1.85891338382619,1.84554220376098,1.84635440007052,1.84768966127356,1.85854701945734,1.84266867722447,1.84309154794321,1.84233714194184,1.83910667878759,1.76708534449265,1.83633806717119,1.83562549411305,1.83613754102031,1.8355610003647,1.85857397429665,1.75904238902324,1.82949717521156,1.82977558889514,1.83061236755867,1.86068045910291,1.82936083591182,1.82930707123196,1.82786926808787,1.75346493981456,1.75265956995189,1.93436927239237,1.84617363174394,1.8624422633529,1.82209739657911,1.82384848494373,1.82480006481746,1.82343542550016,1.85970716743221,1.86259434598704,1.75280909724106,1.86411947406502,1.82599925248786,1.75366528786689,1.75440906374107,1.75504168521165,1.86228906494105,1.85473257111462,1.86327527373401,1.83316109325923,1.83514899509809,1.86380189351854,1.84235962375792,1.84204749268163,1.84193920213266,1.86084010189825,1.86464052530828,1.87168292227589,1.79410586406131,1.93539923781879,1.92779843699848,1.9187805477172,1.91524951069153,1.91559578959004,1.83495711589083,1.83442948783144,1.909489001658,1.91551546534091,1.83328538755728,1.91105600715839,1.91092858607025,1.91009139527898,1.90766251258802,1.91172168324435,1.90701610132246,1.92687618608612,1.90620358428918,1.90220029610518,1.90673713854715,1.92566489354138,1.90755881329291,1.90732936376133,1.92027781454311,1.92558493378466,1.92257617918869,1.91634595852957,1.94503575275662,1.91488180651523,1.91840086334044,1.92138942317982,1.91661868387433,1.90745297537758,1.91024381034837,1.91472614476866,1.92148962122962,1.93290065117208,1.91942218896681,1.9191180515314,1.92186726572106,1.93261745366929,1.92726515907495,1.93370782054437,1.91941981439557,1.91737672234978,1.83983859441132,1.83985163862309,1.91535710949421,1.91557154776574,1.93478373472904,1.92593906315929,1.91494144953949,1.83773262754985,1.91463509686961,1.91501634040377,1.93568918271714,1.9212459382958,1.91956858834897,1.91968613157134,1.92340038490599,1.92366909789162,1.83917749639398,1.92560466462324,1.90765518681629,1.91120868029392,1.91165579993848,1.83899320288258,1.91313544845781,1.91422211559773,1.91738221561536,1.91513257989573,1.91766452142989,1.91665960632902,1.91533822428031,1.91776032019114,1.83882404721143,1.91230321648925,1.91213422125082,1.84452364241198,1.77669498253113,1.77529582132291,1.77557379491362,1.7716397139847,1.77220404137915,1.77015997130457,1.77181309962361,1.76967651373815,1.77199047598263,1.7715331390079,1.77032405152654,1.76924512086929,1.77209043207955,1.86944155098862,1.77150946853495,1.77159745977283,1.771554836226,1.81877206205411,1.85317371801045,1.81862917137302,1.8197676627244
1.71582471221995,1.71565492576053,1.76472034632895,1.7146106998942,1.80647262061767,1.81106491122757,1.76235546065541,1.76143596753979,1.71273794046721,1.74821718282641,1.71351351123456,1.76117416212128,1.7127492381838,1.88502797203201,1.75661790140515,1.71148269148405,1.71261070187737,1.71298069153834,1.71303188474229,1.71365450575749,1.71341295780763,1.84618722404583,1.84650547265022,1.76968973520988,1.84522724798636,1.84602609773719,1.85864653152296,1.85890284726166,1.84220166739736,1.84292407528993,1.84297767512235,1.8391541450929,1.84098379779386,1.83589173380845,1.83490718346596,1.83591400989475,1.76224999582595,1.836265266566,1.83542927141451,1.83509689643102,1.86030704410186,1.75895621371811,1.82910316295285,1.94541876221687,1.83218039097167,1.75600712959614,1.86157094385194,1.82616042742735,1.75381446658485,1.82442976316707,1.82362304528967,1.82021998945767,1.82403485415019,1.75231120629475,1.78638979785629,1.75218673189198,1.86328689889468,1.82606847108856,1.86500675256623,1.82649880728657,1.82810538722377,1.82876662667641,1.82866766152167,1.75735720396393,1.79378858377279,1.7574816783667,1.86411786709089,1.83557054689965,1.84071409330664,1.84198591595761,1.84307459365913,1.86512323597218,1.77856570697061,1.94095950690284,1.93839667385962,1.94397351431103,1.91211623403936,1.91096415511789,1.91886288052356,1.92026825534263,1.93342099260031,1.90791397710687,1.92731369779375,1.91110466689173,1.91561271086442,1.83335362270682,1.83241138837105,1.90757977212281,1.90992694068249,1.90538998768466,1.83176665106235,1.92820907158725,1.92683108918582,1.92919799363501,1.89582347708182,1.83306243707099,1.83250785622193,1.9156414740058,1.92870680735697,1.91455441119945,1.83418937737942,1.91856525906537,1.92523486719266,1.92195650353688,1.91670895803393,1.91860416400565,1.92829480786731,1.83622604294549,1.9085872789183,1.90796361733846,1.9168564654647,1.92040358932553,1.91921529347486,1.92469063341611,1.92144769741014,1.92243670089556,1.91522437734565,1.84000814730872,1.91867846354829,1.91944386935457,1.92117049819955,1.84117681140621,1.92979140001452,1.91605310171327,1.91490073138713,1.92910521358438,1.92423813518315,1.92431719036362,1.92056621584277,1.91507517792211,1.83729210639716,1.92409245765423,1.92372140842903,1.91585748447541,1.86380586164588,1.83905272286152,1.83907225405467,1.83874290673867,1.83826228349648,1.90694522313067,1.91178149085834,1.91246992076921,1.91262070640937,1.91406630506015,1.91513355526592,1.91495233518652,1.9172989005632,1.91284031550889,1.91703610322084,1.91392188620635,1.92518862645468,1.91144756521983,1.83832295653274,1.91295633303112,1.87266334183883,1.91156174660212,1.77548301816215,1.77411691387559,1.77227436176047,1.77200559463731,1.77214331267477,1.7703167199546,1.77034381556625,1.77097211013726,1.77165866091577,1.77091860656218,1.82004438535958,1.81950820060763,1.77162864245902,1.77170608723618,1.77177272529626,1.77072469886016,1.81908768721336,1.81928979776942,1.81840061308931,1.7720871521675
1.71669871131252,1.71645948941402,1.71592654116098,1.71522147419497,1.80697318075435,1.80894426515117,1.764507809789,1.71375288494112,1.80171794249564,1.7646622438494,1.79955400198471,1.76311590281641,1.71234179703173,1.89261451537978,1.80537734029779,1.80592947218488,1.7136580930985,1.7127344821617,1.89173393483516,1.7143847543222,1.71380478178413,1.93507976025036,1.93612142743168,1.93762286640061,1.85321572189937,1.86068719961526,1.84477420302725,1.84570017107255,1.84298364735623,1.84364527367544,1.84396393438864,1.83950562955941,1.84063152643851,1.86127376703275,1.83375843602974,1.76298172711528,1.86212628430894,1.76055523005564,1.83345596101378,1.83367673021332,1.83224871460494,1.83099561189122,1.82951678424735,1.8341561857141,1.83442453186135,1.83489146191972,1.75590180539818,1.82623168944484,1.82636887275019,1.82596371690574,1.94088023693367,1.75352721833018,1.86677971200307,1.94845402068686,1.84676968475282,1.8635050798231,1.82618463837645,1.82607600726933,1.82586652689042,1.82593585831928,1.82597881034501,1.86520941925829,1.83062050546986,1.86654032518706,1.83521559018572,1.83473635366182,1.76250851941803,1.83511865738735,1.83404363284186,1.83599636089542,1.94825859046532,1.94431199604825,1.8625954563086,1.94805788948513,1.94720051571009,1.94828057813782,1.91327710824719,1.93500685942656,1.93291695058975,1.91993534245554,1.91142946250627,1.93108727057502,1.92513734379039,1.9099380916377,1.91055682712693,1.90927949436536,1.83374642584439,1.83363369150286,1.9081389157926,1.90543017192939,1.9102179081072,1.91558741047425,1.90666856246546,1.9063090568948,1.89870774700821,1.94239306857421,1.91498406156706,1.92164011607428,1.92757191919446,1.91333719326018,1.9160764046334,1.91007278555763,1.91563360474196,1.83707883518785,1.85517418229282,1.83729062525682,1.91792427530948,1.92869351198724,1.83875259958471,1.90586975584365,1.92516764409341,1.92069308759615,1.92164856473638,1.91866812557737,1.92110793743425,1.92194101968708,1.91288290497929,1.92158508727923,1.92261152036533,1.92033107419435,1.92153130062124,1.92398063164554,1.84224868515323,1.91749726902803,1.91697087809362,1.93009447626723,1.93015368112945,1.92328274109414,1.91232853390378,1.91255222336711,1.93508024279965,1.92652929003421,1.91962908533141,1.84045650422285,1.8516164563317,1.84008217694916,1.83989680482959,1.91200553004936,1.91094548313548,1.91462687451262,1.92538482554451,1.92516818323919,1.92437804627838,1.91392929801672,1.91490523114864,1.91707929349226,1.91493877792314,1.91762844173889,1.91455115072192,1.91496023648147,1.91595464598975,1.92742862899456,1.91200578415308,1.91862362155573,1.87084934662519,1.77671537077515,1.7731847340652,1.77437997289691,1.77181849746112,1.77270093390366,1.77132462613797,1.82036036488728,1.95408409002551,1.86984688080195,1.77181950830865,1.77117960234396,1.86827340735033,1.77072360494312,1.96222279570214,1.79171718703786,1.7718887466251,1.77180045985545,1.86258588832455,1.76903864174036,1.81741627860728,1.81839979046273
1.71847287146269,1.71817106374335,1.89740997367265,1.82156680823246,1.80750889663575,1.82047405665153,1.71363798556686,1.89274537650174,1.71303765858692,1.71627975945319,1.71532476776546,1.89514070929009,1.80338370570857,1.81019879940829,1.80755333120385,1.71397310877998,1.81263338536579,1.71530459679076,1.88598515215946,1.71477724305988,1.71418425702863,1.77435473154774,1.77444488795782,1.84652579821297,1.84979905791028,1.84722839814143,1.94145545085196,1.77098710125182,1.76989563254926,1.84495085008369,1.8445260486822,1.84022694197874,1.93849607491781,1.83878164769462,1.8358068803478,1.76292770355836,1.83852347026657,1.8383238586888,1.83310436579035,1.83329944540597,1.83277551864358,1.75763487095991,1.93821840143002,1.865736042628,1.83477212885267,1.82573392829187,1.94622305783668,1.75492521327806,1.75409020243053,1.82755871826829,1.82866519266243,1.82791794635801,1.82795455207589,1.82669884976733,1.82561552626073,1.75345061856439,1.82726236874626,1.753670842548,1.9607674036282,1.82565736316174,1.82557315516044,1.75556668222326,1.82932042673722,1.86516156187717,1.83259576225928,1.83423931924992,1.86266853419007,1.86533024086531,1.86560916919994,1.80982000498323,1.76780899587475,1.77534267781312,1.77636379728928,1.9667038646287,1.9477711904476,1.95198998437066,1.94597296894395,1.91165956141555,1.91171672974939,1.92339171859111,1.92798230083657,1.94146214918183,1.91799467330645,1.90900211266574,1.90947348822412,1.90874361707079,1.8368677640854,1.83548302916665,1.83619474964608,1.90362111339901,1.90603479443605,1.90994552464365,1.92532786296226,1.90755931271633,1.90399203998478,1.90767934405003,1.93622668335666,1.91046550984388,1.9185023805156,1.91403597211683,1.83619075585649,1.91020022269019,1.91675003542176,1.91660754754238,1.86418588933504,1.83838234999706,1.92809593439724,1.92794657649299,1.83838748247361,1.90680945195036,1.9279555722716,1.92260504832864,1.84090819241692,1.91389519808405,1.91277698754109,1.91295763976925,1.84113905875466,1.91906279140567,1.92372293806694,1.92114799929895,1.92541383416714,1.92680342650923,1.93244759922599,1.92215486318158,1.9220482645965,1.93005893530529,1.84183696238976,1.94290051352932,1.91361077856774,1.9118277847718,1.84070365669003,1.83977446978284,1.84097199961883,1.93453092730238,1.8617904429426,1.83946708808212,1.9193653293526,1.93117436234911,1.92415651268875,1.91490154206876,1.83737819994039,1.9116378784409,1.91314860406383,1.91498129977182,1.91579721698068,1.9149140861071,1.9202063478116,1.91752553416331,1.91351170913521,1.91502641934833,1.91578882118118,1.92159802134806,1.91777921972261,1.91813476779766,1.86917850155654,1.77739654535289,1.7749735975993,1.77286244900783,1.77366822686896,1.77295153667846,1.87147782149147,1.77096343637422,1.7706519871211,1.86940006222998,1.77145863258794,1.77005611481481,1.76994019912904,1.76953473785056,1.87184485941829,1.80228317478969,1.77239315657315,1.77117875254609,1.77283976697224,1.81978844956584,1.81723726748824,1.81912151686694
1.71909980736141,1.71977172766081,1.82248600322653,1.7167773088315,1.71653994566023,1.71629419079672,1.81839672680678,1.89430928465136,1.71733971619135,1.71679437124724,1.71879605742334,1.89464281200164,1.71500606170435,1.80963956344431,1.80820902326527,1.81276776893115,1.71585435585658,1.71566689447373,1.71432588892563,1.71487187913966,1.71449403619355,1.77611094940058,1.77536328453369,1.94038135710845,1.93636672161474,1.93967899916072,1.94216419990213,1.86185817878191,1.94156095747084,1.87448231721496,1.86226365485065,1.8411230190868,1.8407075268412,1.83899807040151,1.83714513535504,1.76504397633224,1.83865450582616,1.76212234238874,1.76164995655838,1.83407319291975,1.83471647165569,1.86469236614828,1.83403274381862,1.8345800033097,1.83308340092456,1.75581563259157,1.82867141605886,1.75610477146537,1.82863719009551,1.82823617661998,1.82794420724741,1.86671428319267,1.86758879509686,1.82718386638395,1.82616898120898,1.82661438888647,1.94146430875282,1.86695206106446,1.75318252483056,1.79194965498874,1.7563518346241,1.83107574105203,1.83005237920272,1.83349621777164,1.82997175311865,1.86753293507036,1.94020200971967,1.94059139093243,1.76883460904371,1.80465450361654,1.86652230025078,1.86541441006467,1.85206976062167,1.8662690252583,1.93845697754872,1.93379441746976,1.91707723852402,1.91274338184553,1.93015453461491,1.9256262165093,1.93789075671706,1.91294391018515,1.83789208384167,1.91331513104789,1.91156155955426,1.91115033022434,1.91172878062419,1.91212280688689,1.9118857868165,1.90687126877477,1.90763091226536,1.90848848220197,1.90978018837442,1.90828224939864,1.90542670282419,1.90808919213407,1.90914480373927,1.92637879097115,1.91955055617996,1.91691704372469,1.92005954196097,1.92072353238701,1.92395692827844,1.92989741758767,1.92377808933196,1.92509567934165,1.83807400788852,1.92816521793981,1.83846152304425,1.90800199992011,1.93255563010594,1.92653309915795,1.92862076563694,1.91487809122834,1.91342686710642,1.91430783692164,1.84190951884736,1.92687033273081,1.91861796446471,1.91804551506194,1.93616874259694,1.84155929064863,1.84140609148296,1.92108552235516,1.9292304682051,1.9292069026479,1.92292221690012,1.92163997499175,1.92157622595473,1.91287316268852,1.9142300417569,1.84063496145434,1.92366031029942,1.94251825818928,1.86843836671085,1.83892320825683,1.83885678236397,1.931489324713,1.92505900953083,1.9141510952132,1.91751951940637,1.91466758945248,1.91468506012982,1.91640801327736,1.9154959257054,1.91672458298369,1.91342474698485,1.91678236584082,1.91673110175582,1.91521175285802,1.91238852250151,1.91201113802744,1.91289194412794,1.91823607292921,1.86909132085492,1.86501792507968,1.77422690714364,1.7736165151859,1.77190095038093,1.77311580209138,1.87161825406001,1.77261858588145,1.77111680604694,1.7721460968407,1.77179869708171,1.76974860181252,1.86936495140578,1.81907732076339,1.84561841577206,1.84460693986631,1.86842444468366,1.77112543348285,1.76925078482863,1.94137813422212,1.8225946102172,1.77033771618114
1.72183239654588,1.72078831354383,1.71995077070681,1.71790131656996,1.71728692970498,1.71552467074469,1.80728175623685,1.71608917221771,1.80645911818716,1.79174491105225,1.81656230831762,1.8166899619611,1.71561440499216,1.71631591457112,1.76971059094964,1.88445506922503,1.7144473248852,1.71455954126188,1.76482566015372,1.7449772218204,1.71768878360805,1.71745470343391,1.84923840857779,1.93957726701589,1.93709807366966,1.93929022387701,1.84493372728952,1.84558334791528,1.94525824738092,1.88140885122371,1.85961532714658,1.95289679649151,1.8411957051735,1.9541511146605,1.83811939169846,1.8386998292096,1.83755433187798,1.83830007067578,1.86494163167892,1.86389228309915,1.86487263903745,1.76040203088996,1.83206020858734,1.75766359948928,1.82977436534079,1.86641449612092,1.86579622807341,1.86744859051719,1.82947208822799,1.8288174935151,1.82869298992468,1.86779944394967,1.86629936878563,1.82905798941882,1.8269695073633,1.82633782453234,1.75410969606563,1.75498420796971,1.94171325739704,1.85856022585601,1.86819680751339,1.83169939762622,1.8311248021688,1.83311648631532,1.82938406549818,1.86836277621237,1.76348654221687,1.7637993264608,1.76908991577487,1.79663967176574,1.86759706671851,1.86616553028568,1.85506524870636,1.94426944862906,1.94099813027111,1.94197740585541,1.91544409436244,1.93061787896353,1.91212641288785,1.91258921024597,1.83816366215166,1.91263649016148,1.91286406630016,1.91407033503437,1.91353145863545,1.9148361542759,1.83573668072251,1.91326200576981,1.9117780124561,1.90912367216108,1.90915709096805,1.90816453470384,1.91005876058672,1.90848615117955,1.9042336278799,1.93508584008284,1.92038020808772,1.91855117372816,1.91818597891542,1.91622442825337,1.91685186016201,1.92854767455149,1.91150157352039,1.93036433660376,1.92315668576175,1.91804838094044,1.9181061192504,1.91220425486842,1.91920166761062,1.90868116079692,1.92821434328391,1.84036242042583,1.92493962029547,1.9145831966788,1.91307378650727,1.9140621240455,1.84251019128748,1.92756673569199,1.91486432918596,1.91938004101566,1.84198912124855,1.93255313185725,1.92543386657453,1.94443186808888,1.93459856348816,1.84222372542632,1.94149469916641,1.9258286998499,1.93401498611368,1.91240924144532,1.91454313230954,1.91570390457156,1.92519051931263,1.92718384317813,1.92395968420823,1.92731614608816,1.93133566494009,1.93103616498853,1.93086747234511,1.91214133769562,1.91430543279799,1.91451983042089,1.93497174627338,1.91481062330918,1.915157717752,1.91396626972142,1.91917778174335,1.9187677415041,1.91823791542772,1.91457723863579,1.91415272228837,1.91243838416683,1.91204539090596,1.93724173296199,1.85156201612456,1.7751628601771,1.77488986591439,1.8689149253747,1.77218856071526,1.7728634139426,1.77292191172044,1.7723072239374,1.77179287306579,1.86541526816799,1.8597528937211,1.94344632295877,1.77131108988687,1.94359291714318,1.76935461257208,1.84352604339206,1.86944969766866,1.86863126355732,1.76964622197679,1.86922132370606,1.82044227841892,1.7705247113656
1.90121098112824,1.72185028154858,1.72042763887881,1.72093078646302,1.71965723989989,1.71979305512945,1.89710357534129,1.820610669748,1.80618750028193,1.78566241223071,1.71640435932018,1.71701416818127,1.71703060721996,1.76389257562019,1.76365609997914,1.71485939654744,1.71526098934225,1.71512202041143,1.81320204588499,1.75245710777177,1.76568542529195,1.85211089212379,1.86594565443236,1.94446827744257,1.94388082797763,1.94424969431156,1.84801183778319,1.84565593505246,1.9455680280896,1.88919062056503,1.95082860775486,1.84267016361064,1.84059767206893,1.84038863435687,1.83941647917667,1.83970141318806,1.86546480621647,1.76266810874311,1.76246383315731,1.85723867319675,1.95960883493776,1.86638394132778,1.86656268601566,1.833883549027,1.82987900773789,1.96487505625793,1.75837214194473,1.83196519812093,1.75391979635628,1.79174140242841,1.75572946267343,1.82920009621659,1.82859775850962,1.82906478474875,1.82775849766987,1.82774147865444,1.82788182390482,1.86935856670736,1.86952452482417,1.84782834049263,1.83045206221395,1.75691669115223,1.86962600857321,1.86830394696327,1.82938561576865,1.7606892800871,1.86857827832465,1.84073265602463,1.8426731911178,1.78829415524743,1.77106943707482,1.95285849670009,1.86784394387777,1.94011123802528,1.94057511623092,1.92368259751005,1.92567806650005,1.92849272224324,1.91404666352558,1.91302160316691,1.83946572856274,1.92760026268849,1.92618318535953,1.91742365009924,1.91505843058729,1.91502012692137,1.83641646174708,1.91518463965051,1.91564318956703,1.91136244001593,1.91250750137823,1.91240987034817,1.91141430302775,1.83607321833858,1.85360728015387,1.83584447309213,1.93323931936348,1.92225742836207,1.92116196440347,1.91669737252089,1.93381990353633,1.92925850892866,1.9242786092495,1.83645887610505,1.92332653382103,1.92759341035764,1.92364074205841,1.91791872025427,1.91946787153793,1.88893529862153,1.83957100891398,1.92699496497854,1.84109281761564,1.91747719888902,1.91456965437736,1.9166550032986,1.92579504219712,1.9197553580573,1.93579570975457,1.92420631130237,1.84196997180894,1.94461925012238,1.94490603514156,1.84212796424694,1.93490096275028,1.93239992826171,1.93343185309397,1.92220698185669,1.91484638789903,1.91333623974877,1.91565031529409,1.93871564328035,1.84192313692617,1.92251533616753,1.92101338087574,1.92227922253065,1.91859870387859,1.91387520524842,1.91263657918238,1.91163586948061,1.9131476635279,1.92954630108351,1.91561359792745,1.91666166966805,1.91555531349125,1.91976797740338,1.91498646793303,1.92153344464098,1.91303477219599,1.91541000524726,1.91463604826592,1.92154312602959,1.83906980239033,1.91818932904644,1.85055373400428,1.77419433672714,1.77426871715434,1.94541556882664,1.94475170577537,1.80568070352256,1.95177652759249,1.77197528940746,1.77078210911026,1.87826583558546,1.85931325118379,1.86463635361231,1.77186005356388,1.94523274027032,1.94491241098748,1.83621811238225,1.82422009244324,1.76889500963721,1.82891310400272,1.82551398020947,1.82146670076711,1.94497831461555
1.90186089615733,1.90177781804125,1.7204837676896,1.90281981921064,1.7204613719129,1.72044416398633,1.71879896310695,1.81503471961295,1.80947613574928,1.77845021995468,1.76588586427612,1.71724745531363,1.71843703562374,1.76451370308741,1.76427707553696,1.76526754750114,1.71742197125672,1.81023036147644,1.8133283229774,1.74659852353187,1.71945876005463,1.77846996445587,1.85368706842824,1.94703605065103,1.95276101145796,1.77574110432662,1.86586031968768,1.84892751731113,1.94725791653519,1.86584026770966,1.84493435996662,1.94942173334588,1.76859818625371,1.84145931189329,1.83983411461707,1.84015173049291,1.86686901255065,1.83919855865626,1.83833343820966,1.83812982831399,1.83676896009715,1.76077997877152,1.76003173787734,1.75969302063779,1.77903487397074,1.75896580555784,1.86788125738301,1.86723184446159,1.86781647951297,1.82858330255564,1.8284453336824,1.75331656947737,1.86984369660355,1.82902798581085,1.82821538448248,1.75556347844697,1.82969450927754,1.82836139720119,1.96571765166916,1.84278827233673,1.82953752431255,1.75848663714648,1.87061194169115,1.8716467546106,1.83202737816728,1.83414037505645,1.8680355534353,1.76553325000341,1.77088620477675,1.78115261005399,1.77187298364037,1.86809672248929,1.86792955661267,1.86759148070943,1.9351378656112,1.93568844339251,1.93667870562295,1.91586456345869,1.93204918419716,1.92862907690659,1.93038937072415,1.92928689661128,1.9388334670019,1.91747620262532,1.91548805610666,1.91570867044008,1.83750808455832,1.83791460152465,1.91429292939956,1.91115816883354,1.91241959449355,1.83619253237599,1.93793122510406,1.91141163515786,1.86285625029785,1.83651572359228,1.91164182128069,1.91126919935966,1.92576051970845,1.92044671958339,1.92251150906781,1.83881447226358,1.8397847336462,1.91781998135056,1.92208970387716,1.92246881127655,1.93009993572157,1.91863800188057,1.92904950130978,1.88957760953961,1.84106336765883,1.92656728397436,1.84224434869235,1.9271781046797,1.92270986937407,1.935188542429,1.93326652762239,1.9207333817429,1.92438532381876,1.92369924757511,1.93001649175118,1.84242103421462,1.9286758080937,1.9239225054116,1.92710020585015,1.93833228318712,1.84245933396666,1.91625936275557,1.91695654167971,1.91474714605114,1.91712466296484,1.91750307021528,1.92969701664427,1.93440234981648,1.91903886516671,1.92093363118995,1.93347613693291,1.92414028225985,1.931819986168,1.92670497297112,1.93222353588531,1.9346715933724,1.91770460451352,1.91725757973702,1.91656196014779,1.91543914317717,1.92124678545458,1.91413768199001,1.91986835400866,1.9150100566422,1.91572122910529,1.839446418822,1.91213714254225,1.91213398533088,1.85526403060285,1.82400061409203,1.77441682267089,1.85763563680169,1.77510091409508,1.77524408802027,1.76928306268482,1.94156005823137,1.76935270139186,1.7691965129843,1.77009971804548,1.76911504258729,1.87113825486049,1.87034153250918,1.76871309315876,1.80436748298378,1.82363859668132,1.82494394762693,1.86210739327517,1.85916670419326,1.79487411471848,1.77017709752711
1.72008192778603,1.77624053006351,1.72214869836298,1.72243215721415,1.72139955886522,1.72171897745923,1.72073053426335,1.72181663288613,1.82219724052816,1.77179050458301,1.76616017101168,1.76631628418056,1.80561494858818,1.71876059131793,1.74048232190234,1.71776479560209,1.81527607097373,1.71808527802635,1.71941566325043,1.719558581001,1.72031608975836,1.7198340980102,1.85275329445349,1.94604059863698,1.95346673319024,1.94533287983027,1.9476365313397,1.84930317267124,1.84451317516098,1.84228132471797,1.77222709399377,1.94120513875315,1.84551458139341,1.9606620792018,1.83888124195187,1.83977404446465,1.83970493684548,1.96197384705791,1.8371720250291,1.83766276777201,1.83611603993698,1.86860852704335,1.76089925318441,1.75984977096121,1.79170914906671,1.83283812174713,1.83223169677135,1.75917643756454,1.86883311984622,1.83042128047751,1.8318001162236,1.86951814878498,1.82915463645166,1.82858156020294,1.82858778023035,1.75585713874643,1.82877503497646,1.75625122345466,1.75623221679557,1.78970862225172,1.75825681556317,1.75905904500236,1.83399413660664,1.83377037270243,1.83466961910203,1.83590007084404,1.83877787278716,1.83939692041237,1.77057200027074,1.80060757415403,1.86722941352196,1.84848696250497,1.85510953568077,1.95672615391687,1.95777717577833,1.9525140125131,1.93528076158372,1.9175931051269,1.93203878485106,1.92362890551164,1.91451508733112,1.93237612300897,1.91250659107287,1.91386727862339,1.91510634398787,1.91702167600962,1.83872132187119,1.83864379784685,1.83867069376945,1.9102004252572,1.91236054404557,1.83751387517996,1.93911835540289,1.91353699508463,1.91015165835304,1.91173606258971,1.91189338280379,1.83895522232302,1.83862664496822,1.84697387885078,1.83769331776364,1.92410042895031,1.91168508164583,1.91199432923897,1.92170578709866,1.93472713559437,1.92228489899368,1.84146353939515,1.91273946380332,1.89014706045332,1.84160171110341,1.84099787166872,1.84235099806458,1.9272406324174,1.92306308394982,1.92373592102869,1.93306353430364,1.92167340506881,1.93399911818165,1.91977828490865,1.92188420581098,1.92116657537704,1.8440583502978,1.92492830358041,1.9251377208075,1.93196902960228,1.93191469152068,1.93225146485548,1.92802250293125,1.92599200421034,1.93802048851147,1.93648752309245,1.91494958065732,1.8421853389306,1.92014999992137,1.91475942700923,1.9346663871941,1.93143437620433,1.91488767985217,1.90899222538225,1.83930295350303,1.93301602925917,1.91398699422084,1.91863250749935,1.9156967502315,1.92008309396643,1.91519822259579,1.9199087980733,1.91602023368375,1.91560414125333,1.91498895286685,1.83880808896501,1.91654520014726,1.9155783739241,1.85820088434375,1.82511663135083,1.82159789037391,1.7739643606257,1.77270263831602,1.77389175967483,1.96346753892327,1.7715838693866,1.77023002597438,1.77009096434957,1.77098261814604,1.87159233121679,1.76938333197781,1.86897048661046,1.95341384367567,1.79269343241972,1.77027440607116,1.81951232308386,1.86728785497691,1.7698194334172,1.77017347171484,1.77002611395209
1.77782798062506,1.7776238609683,1.778614133528,1.72295277396347,1.75122756014779,1.77049406695934,1.72104674069387,1.72142211817874,1.72140682261793,1.76079360135483,1.76778823966061,1.76707193218561,1.76686703963674,1.76597315336614,1.74926251950701,1.78329573880093,1.71992780825374,1.71930807925361,1.71931515384296,1.71923255271014,1.71912361737208,1.8543899278906,1.85338979352216,1.86965758363456,1.88492639745351,1.94772079088082,1.87362579636097,1.8500367120992,1.84540802650154,1.8434431103302,1.77280160067993,1.84576160412484,1.84531519736556,1.87010853944113,1.83921217653974,1.84097388916502,1.84106270005668,1.841367650493,1.84028095204663,1.83848596715285,1.83848399797386,1.96476630765933,1.83706756396193,1.83444619098097,1.79979568474353,1.76177125401712,1.87130337830463,1.87109299606577,1.83163526666323,1.83075247981453,1.83220397679738,1.82939123952048,1.82957740060472,1.82909566110339,1.82940423139629,1.83015232314077,1.87023627166058,1.83058432822119,1.83142939022994,1.82759480173872,1.87077069560757,1.75950538799658,1.83470621391659,1.83551292052815,1.8363694350255,1.95435218856545,1.84167588689507,1.84070015586888,1.84669317160991,1.84484432201775,1.94552408664328,1.84903671086682,1.87179631165297,1.95680994438608,1.95872487172551,1.96106120472021,1.95120290985031,1.84349342837436,1.92575080560106,1.92204005701311,1.9149304091646,1.93956031152104,1.92841317651683,1.84142882094437,1.84159386415152,1.84087952577305,1.84015694190223,1.91706787824309,1.91693183023861,1.91326356831386,1.91267659525888,1.91181338926473,1.92590394950717,1.83959024502094,1.91046952663813,1.91908106742476,1.91243075721769,1.83907072127663,1.91579387355396,1.85678437469996,1.83848430318983,1.92982749140237,1.9219275507033,1.93094456395257,1.92264579914368,1.92476141001201,1.93082773755488,1.92223785945225,1.84184927696343,1.88986695687691,1.94135897499314,1.92222765888388,1.84157575656111,1.84234351115713,1.91985780394763,1.91942378476037,1.92550820197864,1.8436753523836,1.92229040834916,1.9193258887294,1.92307465148431,1.92418936509328,1.92986751867196,1.93236898990491,1.87457660119372,1.84315394540512,1.92522311000744,1.9424311903008,1.91845351604733,1.92717163928115,1.93182396644709,1.93504844187854,1.91773128944231,1.94415414683089,1.93305970341929,1.93475624350854,1.92839915986072,1.91566019257389,1.92845724105639,1.91186269600236,1.91640700529351,1.92421698490756,1.93858118205683,1.91895200385067,1.91407923940332,1.83918805596569,1.91986510145696,1.91584284088773,1.92044647570231,1.91419559811189,1.91477617621387,1.91285651294359,1.93809657279311,1.93262396304649,1.85606342146363,1.77282211005666,1.8456477634163,1.77344359571392,1.77291430398167,1.7727847284541,1.77189775881922,1.77101621931946,1.95374896685059,1.76965689664347,1.77120854709933,1.87179893581275,1.87234495435701,1.9460124123387,1.76931596374297,1.77004917405179,1.77037932525052,1.77043632263362,1.76925212796196,1.7699791868918,1.77055005133052,1.77118013055195
1.77832495279358,1.81646336712612,1.77311124350376,1.77368075312663,1.77341816689951,1.77280042752525,1.72182459507699,1.79446013022756,1.76842584171172,1.7527601992092,1.71850561413889,1.72048282818532,1.71968962778155,1.72018052675671,1.74079831761796,1.71985889681653,1.71970924332899,1.72038338807589,1.90466778414662,1.78400430761252,1.90507950690438,1.85462785763588,1.87254340802181,1.85409681100118,1.86694011568209,1.85295928386516,1.77700499047027,1.86978623329742,1.84902551001495,1.8462138936425,1.84809450683778,1.84679254399137,1.94544748706044,1.8708618871641,1.83977803864668,1.76912481268733,1.84107243715133,1.84172405029195,1.95572140610869,1.83905824146109,1.83847231090713,1.96080911559849,1.94420611919767,1.95238594755197,1.83736792521989,1.83609674772496,1.87038061951999,1.8317827530189,1.75791254415798,1.82980068860094,1.87181613457472,1.75737850920018,1.87364495312197,1.83040145230527,1.83000146838759,1.75678748721719,1.75661514322515,1.83128309567277,1.83154609876794,1.827357766515,1.87327214912135,1.95530968335093,1.83378951748551,1.8370280640055,1.83790929017308,1.83913760069129,1.8717586788881,1.84288335164206,1.87172038000516,1.84473030828217,1.84641476343592,1.85092562479749,1.85310385546618,1.96420692933963,1.8822433982379,1.84637941725435,1.84546525834216,1.92846088787344,1.91799139646358,1.91853687198698,1.93025802415695,1.84379025175786,1.91347559306322,1.84115694756344,1.8414698690416,1.8416281548195,1.84079218421618,1.84172769589505,1.91775109156733,1.91635552396193,1.9177386001847,1.9125994987386,1.91195716187611,1.93205301408778,1.91308694055958,1.91692423785482,1.91317329725361,1.91324147072356,1.84133217880055,1.86579733012762,1.92947513258932,1.91138153097926,1.84077414318358,1.93744477474367,1.86814217131512,1.84129680812267,1.92931066693307,1.84282318202452,1.9418281567713,1.88885318330763,1.84296023401195,1.92855761281936,1.92142715804889,1.93160948658461,1.92096906892442,1.92017531299777,1.91633233365587,1.93833076663055,1.84480917024576,1.91820713051994,1.92307501933554,1.84409665004533,1.92628808177343,1.94544668571266,1.86711611001145,1.84365699732756,1.84313755760798,1.84323005739376,1.92998814449274,1.9267385704878,1.93099173792674,1.93206040550823,1.93163009592004,1.92844272176146,1.92793650672643,1.84314294820228,1.93014702858583,1.93515333067758,1.91605192915497,1.91527892010891,1.91848239422443,1.91607239598906,1.91307771960884,1.91388520729645,1.91357772094309,1.91965459592965,1.91870094611413,1.92067616893192,1.91715248588779,1.91312183781239,1.83971472540406,1.91504255952007,1.84167418828194,1.91236604215631,1.85171260164314,1.77301933313713,1.84660533665932,1.77256495584796,1.77263751479305,1.77241989349061,1.77165169460577,1.77093470374023,1.77047026567481,1.7705919713475,1.77114878390505,1.76949157245848,1.86869891954838,1.96167701683768,1.77051471022379,1.77023439940031,1.95923541197142,1.7708501601446,1.86611904060109,1.77155021934211,1.77134932715801,1.77130873920941
1.84096564560101,1.8267085595975,1.72578859991878,1.82340520014402,1.78847678133946,1.83569943474813,1.72153343469853,1.81471498139983,1.81895858825436,1.74459578258997,1.72242421221689,1.72146349345195,1.90632425012551,1.82149020864962,1.74678686301915,1.7687219824111,1.72035523935872,1.72071079291168,1.72186719726874,1.72347682700488,1.72282724553079,1.94791303439211,1.94774068533072,1.87284026607497,1.86787912000496,1.95220411401203,1.95372524193268,1.87189272653819,1.94574431044394,1.85431924902722,1.84942214035269,1.84956394287627,1.84473891089367,1.84560141504317,1.84295608875099,1.84152205517959,1.76884713489794,1.87256297049723,1.84014594810821,1.84025849783921,1.84040504915764,1.94475809022547,1.76570655200155,1.83736415894415,1.83750408829293,1.83698960867691,1.83831860294624,1.83212344423404,1.83290464292562,1.83094395206861,1.94739120147497,1.75715755183499,1.83220887075499,1.83155320425062,1.83048021887752,1.8300946455366,1.95478306121892,1.83197160984091,1.75748167151661,1.82691601646146,1.87305245006891,1.83454737641679,1.76227872066951,1.8723427598979,1.83905345242592,1.83860851814791,1.95760144598953,1.96216198655669,1.94820507443585,1.84523830765807,1.84733080880496,1.87075192042273,1.85688233506537,1.86981976964833,1.86508288622039,1.84583396474211,1.84556406488877,1.94501660171724,1.91789577850539,1.91680563886085,1.91812148426031,1.93416620711453,1.91520305449893,1.84197573049639,1.84252566173816,1.84111251886014,1.8431661093759,1.8409373980428,1.91712691228368,1.91675613076515,1.91864082267192,1.92127395365515,1.91301098820963,1.91517613320161,1.9131528956321,1.91333809412421,1.91462688606137,1.84163588843578,1.92814788762643,1.87212193739322,1.83974354585057,1.92936788100989,1.9310961184482,1.84199936045857,1.86051224816214,1.84280055928375,1.9364711956855,1.92837293458116,1.84208966338814,1.88797451009,1.93116389248191,1.92105903307791,1.92835597759495,1.92584686021272,1.92511012476661,1.92941122787682,1.84519776909253,1.93053637534967,1.92375922975178,1.92014485214314,1.92224052222663,1.92197452004997,1.92789803940555,1.84648728902872,1.85632083578164,1.84360554515529,1.84281215445013,1.92849438446899,1.94269131392053,1.92359237771252,1.92487958812629,1.92833511731531,1.93958756188068,1.92129287280766,1.92020183664704,1.91723648512747,1.91678665958303,1.91622787087883,1.92196318756217,1.91753400402561,1.92018779780034,1.91958295794474,1.91425189569374,1.91568863209116,1.91328055119044,1.9166473154798,1.92047670393534,1.91959924600139,1.91540534240274,1.9132605279181,1.91465225558005,1.91525700362848,1.9358720512868,1.93980708346346,1.85421616515886,1.77358937695497,1.77244582441582,1.94913384198455,1.7731399985837,1.77246658123271,1.77169936534342,1.77051107947768,1.7708861635727,1.77007115679342,1.77175150293982,1.81755083727705,1.86868990740917,1.92970626930516,1.76989851874561,1.76985601254537,1.76940606757193,1.94284712512141,1.9489095902795,1.7717838648321,1.77141052045164,1.77178805632412
1.72717065597249,1.72668688323156,1.77215049960588,1.72593803402069,1.72551325273732,1.72399496002895,1.83877299300953,1.72256223013529,1.72249829131446,1.72248013573132,1.72249333658765,1.82172161082929,1.8204897399748,1.71734515620138,1.72077834253811,1.71961499660836,1.72119466172244,1.72099261232224,1.72380951415468,1.72458875324383,1.88598706088181,1.78280740887031,1.8537293297589,1.9450740640941,1.86468993985982,1.85517464381861,1.95260731479709,1.94784742476491,1.87293639650993,1.86026639785247,1.84996113321374,1.85014516214844,1.85157747150436,1.84566466462152,1.84457364581077,1.84372483204853,1.975138763704,1.8419792246834,1.84143864585616,1.84101835267316,1.84077565853391,1.76535227893092,1.83883043573286,1.87176825983545,1.85500747138684,1.83676352170996,1.87311832748298,1.7609988710472,1.83369359451247,1.83141921524807,1.87282150409948,1.75874198177471,1.95566395642156,1.87168208530476,1.86193953549744,1.87264100030756,1.87329092365531,1.75901366345101,1.94803272298125,1.82927042258715,1.83310797799467,1.83550010739097,1.83589866952648,1.76280534443629,1.83935550063551,1.83901519055545,1.87239062796411,1.84296681320615,1.77265797011773,1.84603081192021,1.84761980982299,1.85291812344349,1.85777673846062,1.86993454760857,1.86662540600398,1.80091366038879,1.935910838997,1.84532224341464,1.93338654510257,1.9242429672561,1.92712813163995,1.91860217962631,1.91456620107184,1.84257206117553,1.84291812705889,1.843684364117,1.84202604957037,1.84437901791196,1.84041587664164,1.91367003225915,1.91828366766669,1.91507169927854,1.92975382297883,1.9145335227196,1.91337313193707,1.9145095162216,1.92963675805023,1.93782700477075,1.91382325254454,1.92686083385004,1.95257123181375,1.92904904870527,1.93751491420559,1.94318674013265,1.91818217272754,1.91783924506825,1.94279247265445,1.93543307182311,1.936022820691,1.92678793344926,1.93130577171108,1.84260295822386,1.92913348225816,1.84623600525069,1.92657537447167,1.92766505680769,1.9299720768273,1.92838476964711,1.92901155029128,1.92372745169944,1.92696491774571,1.92701271269531,1.91781693879352,1.92098387349021,1.92647927756416,1.92979016981905,1.84557213504189,1.92917644905868,1.92427704325602,1.92685198764002,1.92595750228683,1.92954550625956,1.84440304842057,1.92370253520525,1.90515653451997,1.8419606237917,1.9175471884046,1.93218395384293,1.91457039370998,1.91451411565595,1.91453480434264,1.91684428855673,1.92321251145775,1.83943701961566,1.91208998662149,1.91879224668428,1.92095188760824,1.92067377500071,1.92140595612284,1.91403296737621,1.91590621878428,1.91671082977818,1.92690214483963,1.91487197759098,1.8803101675514,1.88295550727001,1.77252282925015,1.77209631949138,1.9480422979291,1.77241677398392,1.77193840797675,1.81847410395167,1.77018547594378,1.77028221054449,1.77177963975908,1.81872179700173,1.81737438559694,1.81775628790173,1.76933419832062,1.76967240544017,1.76964158725232,1.96520706607609,1.77131437347541,1.77082537197582,1.77140887934139,1.77215602693198
1.91742161468929,1.72667371890731,1.72699279025356,1.72652658264662,1.72572694983352,1.72579802170949,1.72442220356373,1.90871798708922,1.72299521699407,1.72278320516379,1.82571276413552,1.72102027036295,1.8209235606878,1.82202262566219,1.72121163784892,1.71965619413676,1.89343637031288,1.72437211876883,1.90765516787734,1.7252190500129,1.72415991633523,1.85518472258249,1.85533657642101,1.85563983942106,1.85633162413853,1.85534039672869,1.9514452842641,1.85168228713875,1.95295153720641,1.86855538062416,1.85111122088591,1.77604749556144,1.84708353401491,1.84663441292974,1.84621511716691,1.97210302780264,1.95976377787967,1.76743961756328,1.84084565832137,1.84104218725608,1.84006494091861,1.87301455170396,1.87294442663514,1.95556820694301,1.86429674458607,1.95543256010745,1.95519637806037,1.76104993743576,1.8335586967873,1.83231314255216,1.83403506256423,1.83336694066153,1.8332875965581,1.83305131579737,1.85118825256423,1.87333688334183,1.7598849837058,1.83538344286189,1.83309036875046,1.83163359812774,1.8333825629831,1.83516687559624,1.83685319158319,1.83732181933221,1.83857487832748,1.83958657458511,1.96883908466984,1.77105894785241,1.84689848822112,1.84700385833845,1.84872251101486,1.85308865107192,1.78534477005185,1.87360452132794,1.86811427524885,1.95985778358199,1.84657656158362,1.9347948518557,1.94191176868663,1.9201122898771,1.91808727600357,1.91793139251243,1.91513791168685,1.91416909344622,1.84443912069218,1.84329475905175,1.84460042348519,1.84168193743316,1.84212005705973,1.91426240141719,1.91866357554318,1.93175199502131,1.91454954065424,1.91438957346406,1.91384906171377,1.91558942667276,1.92518482421639,1.91656477415772,1.9371552517538,1.93227198335943,1.93426239263726,1.92906701059763,1.9378309346493,1.92519982686153,1.9229079606939,1.92476540689573,1.91801436130354,1.92251989632971,1.9324665855715,1.92571698420267,1.84523059288004,1.92870090280684,1.94386525903122,1.93110407652673,1.92830733155409,1.92877863709527,1.92481657161773,1.9245334541732,1.84536464602834,1.92253004923987,1.9320671214701,1.92672305485001,1.91804186691708,1.92744155554458,1.92495379290638,1.94380187866974,1.93495623537138,1.92921690444476,1.93208107826265,1.93334741399459,1.84534375174242,1.84528602706865,1.92647951281524,1.95069454969949,1.9050808447122,1.84257658151934,1.91774369733479,1.91671523241826,1.93647586780921,1.92598099701654,1.91886285279221,1.92142784897849,1.91703127101362,1.91441827026164,1.91310329809172,1.91878966101913,1.91787403829695,1.84107181630429,1.84163989583435,1.8623345674703,1.91767327841677,1.93545021750753,1.91467277594473,1.91373224628708,1.88712070350994,1.88434721520313,1.85848780742737,1.77347936174938,1.7727415396447,1.77241051123905,1.77197458705049,1.7703291606365,1.77061763917562,1.76976609152162,1.77110506853511,1.81790319535811,1.93165956214945,1.76923970775999,1.85531850234389,1.8151622651405,1.8164225068935,1.96510003536392,1.95896566158221,1.76989301356363,1.77076377380277,1.77183582521883
1.7282205894773,1.72851436040246,1.7285103401639,1.77552738416876,1.76747982328763,1.82869057117742,1.82796287514045,1.77312553664189,1.82595213783189,1.72352059886939,1.72278266542985,1.82508081757709,1.72295425429338,1.81639533821545,1.7223940645889,1.72105113696308,1.72131759261438,1.72511674634733,1.72447818716902,1.72536021733196,1.7250309468186,1.87980163970823,1.7855657428268,1.85597440069922,1.85713800562746,1.95296382112649,1.85158270770899,1.85238051020633,1.95286390768074,1.87757993302727,1.85033223363048,1.850892355485,1.85013551670057,1.84798257025631,1.84708756574728,1.84620474433793,1.84618798596861,1.84180590381617,1.84057560620611,1.84160393341411,1.83988266289574,1.83916705771589,1.83912215549445,1.83919414913712,1.83722027160793,1.8354533773546,1.76318834071572,1.83265450629063,1.83525741074615,1.84205293480403,1.96196427211006,1.7595881603223,1.87515779398039,1.83412838474099,1.83766755579646,1.83379467288637,1.87563653947731,1.76031585635927,1.83445887041821,1.83235007637592,1.83573399269367,1.87886329976922,1.76367666305632,1.83682198980997,1.8376820568764,1.83632569547118,1.8446514143123,1.95887794551056,1.95878857933058,1.86640130471893,1.85044804990522,1.85196876265615,1.87198263411632,1.87186486166893,1.86800925101173,1.80266587819021,1.93292688976243,1.93496313289861,1.93174222543898,1.91832034747159,1.91932794348273,1.91760623795402,1.92209596215816,1.84284393375875,1.84464786657329,1.84512987365771,1.84365341231919,1.84316189207044,1.91902918591572,1.91822084549256,1.91958725085259,1.84196143671759,1.93485041191053,1.93510918728804,1.92637258460244,1.9282637592529,1.84276143423634,1.84230336958218,1.84365997037758,1.8611886595209,1.84308038691382,1.84217098529616,1.9328757953437,1.92598374055799,1.9263772574376,1.84366968125694,1.91816781304926,1.92255432014159,1.84522101788592,1.92466240846614,1.94487298425012,1.84563117921499,1.9313276194708,1.93792766271434,1.86995045197472,1.845963175168,1.92578970710651,1.92533400546002,1.93158631454923,1.92230716343591,1.84634815917052,1.95729168441966,1.92812538669824,1.9286955358231,1.92818773383829,1.84483790121154,1.93132387783502,1.92688122321497,1.93260878597891,1.93376187545396,1.84527807485361,1.94419316889145,1.84467436356473,1.93280855745218,1.90529079861027,1.84462250717013,1.93473219063265,1.92805590811257,1.93751153107401,1.92765843598709,1.93106223413411,1.84227740988567,1.9155747454662,1.91537429644313,1.91302391953514,1.91507296567696,1.84204010213632,1.8423603277883,1.8406097284584,1.84151199100581,1.84070385273038,1.83877600920126,1.93136802838159,1.92441296520681,1.89652453902816,1.88275175122104,1.88050897564156,1.77282309876659,1.97403828135502,1.77220995841654,1.77199288464441,1.77129526641541,1.77147915060523,1.76986863390301,1.77020609296788,1.76727845976095,1.85907187549801,1.93105634310163,1.81783246121483,1.81515007091412,1.77009188613183,1.81806133915583,1.77006515392061,1.76963496976604,1.77010788260193,1.87320450549558
1.7291490569513,1.72947125047776,1.72779582910134,1.77552382549663,1.76075556558319,1.72729966334109,1.72729230747135,1.77511076118789,1.7239736613552,1.72493138252744,1.90424648644101,1.72360710978726,1.72328758401639,1.72360430265818,1.72433007906206,1.72449001288797,1.72432337239168,1.72309451710118,1.72479910655852,1.72542027673321,1.72579496862698,1.7827040825657,1.78671334644775,1.85889676130672,1.85812809726263,1.85747663712078,1.78136159174423,1.85307853333146,1.95425373011467,1.88662347920959,1.95275317227369,1.84948303374025,1.84877569611447,1.87498069875828,1.86576284126605,1.84493911965536,1.77238986560423,1.84305484370398,1.84345293861059,1.84373313515858,1.87559823897739,1.95237277460348,1.95756676731879,1.83901090926852,1.83602446405132,1.95078073301559,1.83549478838826,1.83508415657022,1.83585113819581,1.8524273951844,1.8759888968359,1.87655573376287,1.75986583381009,1.83516676921163,1.83995023170547,1.96384415179794,1.76004128017817,1.83602498297519,1.76048820834053,1.82932871850614,1.87646956226242,1.76297769186291,1.83826551729132,1.87585145651716,1.85712706884256,1.83840946115811,1.77164946207165,1.77244238505977,1.77624574569183,1.87030392253434,1.87621534016234,1.7788433804584,1.85781271985455,1.96702942113321,1.95896604883125,1.96839863493674,1.93988456092823,1.84894476709401,1.91893324720171,1.91981217080417,1.92029718688763,1.91908147224998,1.92009770318791,1.8436236623951,1.84557529964772,1.91844656868912,1.91725098525537,1.84305458283781,1.91887144050348,1.91922126048377,1.92054636156956,1.91559774251298,1.91534074963729,1.91685435329851,1.92450193649318,1.93525140624346,1.84304592451546,1.93645632047378,1.92649046646648,1.86896598664947,1.84459122636375,1.92931450004248,1.92911786014212,1.84595839217297,1.92486961554699,1.91983939012656,1.93763179483996,1.92520023797018,1.92179346337974,1.92164846193977,1.92339587901675,1.84600396790831,1.9288410455232,1.84709988314451,1.86172989914411,1.84696900399618,1.93109590636931,1.92999311859574,1.93111525797045,1.92209473488606,1.84771310345425,1.93338681226375,1.92871501467933,1.91554389201279,1.93362164082306,1.93831526940582,1.93587002742351,1.94223483346627,1.9318920951195,1.92906741981276,1.92966612635422,1.84392368765291,1.84396295809321,1.84449024133692,1.90565539917075,1.94161749132585,1.91788840728925,1.92144701171549,1.92741473752213,1.9280223110188,1.92970093012835,1.91458282770236,1.92199544827907,1.8410361024068,1.84207688468503,1.84158081183246,1.84233010130807,1.83988258629618,1.84249243571886,1.84164366276729,1.84200022793102,1.84307505279709,1.84275998970746,1.93471410089102,1.90261471136219,1.77543470634132,1.87322304109629,1.96721134353451,1.77153474131404,1.7718421999857,1.77155662137219,1.77187681123876,1.96195877163704,1.96142964283618,1.76987586241321,1.76890715938095,1.7687079409368,1.94799441704088,1.76969931399329,1.81399607742708,1.85705156846444,1.81836318850521,1.81803069934975,1.76807722962696,1.76999617974001,1.77153222786175
1.72980816674118,1.72961723059356,1.77731535977573,1.7283068081357,1.75277381081505,1.81951777287343,1.72870461506577,1.82215314138761,1.72562270758213,1.72621965205918,1.72668889299223,1.7243223856545,1.72447996082828,1.72533228396967,1.72518916424752,1.72565187177167,1.72334528766971,1.72363607276513,1.72472971224869,1.72597788830541,1.72629642101644,1.77544218543071,1.85784779707214,1.85702099360459,1.85866303652133,1.87884484218505,1.85641192211256,1.85493209312916,1.78117010214527,1.87359350350346,1.87842038944419,1.85124730194153,1.77631559418696,1.87744638528758,1.87681827175943,1.87638977365611,1.84639317671881,1.84588490136105,1.87833667406388,1.84433449594271,1.84246592992148,1.84223425943146,1.83655595491459,1.87858562356336,1.83356337236053,1.76704865078692,1.83652481543614,1.87970017684747,1.87845151650191,1.86362135348021,1.76387773954409,1.87758216818688,1.83587153894595,1.76239362158542,1.83716353961617,1.96289942360959,1.76062817432241,1.76108551889054,1.83258614365667,1.83064171021376,1.76413626527063,1.8365324552115,1.7653139791395,1.87535965118083,1.87389014924029,1.9490189426103,1.76959530780157,1.848386233692,1.97469895275701,1.87235643086657,1.87586011562295,1.85579822441664,1.85618506896176,1.9809009557516,1.96391535947352,1.93382660340733,1.91940241360594,1.84895753369115,1.94854018557798,1.91902755957152,1.92149923479329,1.92102833320139,1.92011799909857,1.92088282132175,1.84615352030235,1.844407165984,1.91986371999265,1.92056442498101,1.9203072278365,1.91917760875388,1.91918359482061,1.91694661220794,1.91649691370822,1.91682839682194,1.92298107706513,1.93325671098965,1.93837633087704,1.9341467958845,1.93468220532209,1.93254301662368,1.92996318602171,1.93966272725828,1.84329235446941,1.91938880242128,1.92292434405025,1.93265655825356,1.92181752392487,1.9274682249738,1.9276399446204,1.92275966944797,1.92427612526296,1.84572798159589,1.84683408829749,1.84708969414383,1.87041442954515,1.93955061061617,1.93016691806476,1.92895409644388,1.92936495832327,1.9293295807564,1.94224945447692,1.8484915511546,1.93475456123345,1.93290418797165,1.9316130649047,1.84604401027861,1.84637214886821,1.94120144095412,1.93868396795612,1.92683500438745,1.92972501953108,1.93189483311022,1.93567618932345,1.93560940547723,1.92927295632578,1.91858957650217,1.91898652176935,1.92821715503075,1.93108943577505,1.92928491524587,1.9255346848075,1.91393545097636,1.91447963298606,1.8416490382692,1.84218853001379,1.84234271594595,1.84093049343635,1.84265620048578,1.83991903671686,1.84163119965162,1.84125819298894,1.91598456539205,1.92364258024321,1.91728350160298,1.90860013341627,1.91711521287603,1.94925831630667,1.77281520298433,1.96391720690827,1.79655297236807,1.77159466029396,1.95503611059813,1.95816483191222,1.76985482525781,1.77001478279753,1.76982136531756,1.81640766658609,1.8163001235771,1.81619476187501,1.81502609171263,1.77095654736292,1.77031165423687,1.7696032135947,1.76902025134794,1.76995858823405,1.77071091582472
1.73265657116317,1.82173915603185,1.77748539460725,1.77857925219474,1.74614502992014,1.72872223080619,1.72730271012305,1.82584362049593,1.83426412066155,1.78733302702791,1.91759396375067,1.72514033001409,1.82690643922713,1.82658727429864,1.72528455901573,1.7245743417097,1.81908690021996,1.72600936672617,1.72591535632127,1.72651267803677,1.72746698887893,1.86165711490073,1.78758530959084,1.88064422944255,1.85920728166924,1.85787896667684,1.85731903524383,1.95485966080176,1.85542268924747,1.86993784081257,1.87884064726513,1.85694390018937,1.87940183339481,1.87813649606905,1.87717197306947,1.84648774293268,1.84704758617185,1.77361545892965,1.95185312717533,1.84443890312096,1.84303969187096,1.76812901380882,1.83803602329437,1.83787495269227,1.83499952588268,1.76567623221306,1.83820916577906,1.76419371024048,1.87777752731822,1.87078184002196,1.97166369428702,1.8362945373529,1.83476773787883,1.83535905136376,1.83485825848731,1.87880584650876,1.8327986609867,1.76232349716098,1.9573108474526,1.83318629845278,1.83543529158951,1.7643373344583,1.83814202618493,1.84240416894512,1.87613130481244,1.87893506832071,1.87651406470589,1.87696338123031,1.87759154884702,1.86830223367712,1.85179207002552,1.78274038423533,1.96188767003836,1.98089778684486,1.96049356969562,1.92281348182985,1.92303529721364,1.92300853322606,1.92755495138237,1.92052945359862,1.93767163828734,1.8465350721732,1.84613930706969,1.92013759754667,1.84615180046389,1.84463767787942,1.92156153282879,1.92217719702509,1.92135866118225,1.91935047545863,1.9197963133254,1.93420078932148,1.93321116068443,1.93866474013462,1.92227203316196,1.91894579584334,1.93822286233163,1.91442629745791,1.94646098370431,1.93299431108218,1.93180440843243,1.84502542003114,1.91804162109121,1.92552814825743,1.92446017582053,1.84632218944617,1.91878134990303,1.93796335476934,1.92722226443172,1.92247500778079,1.84645625115095,1.92166124572052,1.9412131234961,1.92684308637944,1.92306423178333,1.92312975529951,1.93771934457694,1.93088283139891,1.9307674399343,1.92910641178222,1.84836188889277,1.92613367822326,1.92758032909511,1.92330448633182,1.93215993702644,1.93397274044268,1.84692591370707,1.94550215543636,1.91991790542961,1.92868662503841,1.93149952826974,1.84578184091167,1.92854032456375,1.93662204220138,1.93379480822725,1.8456231384861,1.91858734380768,1.91760086071596,1.84248219569213,1.92719201919194,1.93175274878157,1.91504727250242,1.91569182905944,1.9167352121602,1.87296744163136,1.9173545900543,1.84169309103946,1.84035619404066,1.84182242551056,1.85202696633533,1.93267572572012,1.92276158330924,1.92304387060601,1.92501247518414,1.82341459319921,1.77591896512591,1.77633499738742,1.77306355682516,1.95113535716849,1.80760579541352,1.94929906634839,1.94902406772981,1.77115559447745,1.95016793635288,1.80693005078884,1.95161375347896,1.76902221481964,1.76875937242876,1.81750207966316,1.8162576271957,1.81694305294236,1.7657197152345,1.94722842736144,1.76936616216743,1.76992215350749,1.77049700433849
1.79490393326065,1.78015119746835,1.8254542382073,1.72984924625854,1.74210490115834,1.72851206863659,1.72862264740236,1.7281522974835,1.72898084423911,1.75001628795911,1.72942708299601,1.82780967771573,1.72647780642369,1.72615152597236,1.72595761563028,1.72595914598627,1.72637589954951,1.82886292197976,1.7288473417825,1.72839172020999,1.72869621154005,1.95756937104468,1.78881090291626,1.85901060676998,1.85933484857471,1.85846894190275,1.85788869196979,1.88199604256662,1.85541426577145,1.85302523334417,1.85298990149508,1.85273394949299,1.87967964449693,1.87847619269216,1.87732197204998,1.87852234634002,1.87842141706109,1.87919709869314,1.84342910639857,1.84421630648748,1.8430786469309,1.84008811362929,1.84507329331245,1.83943220246755,1.83694937446901,1.83844287223203,1.87985398724645,1.83832677170415,1.83832127887504,1.83636006986554,1.76367666563654,1.83475875554405,1.87841327364672,1.95437097714818,1.83497024364402,1.83682919288068,1.83725129052192,1.83565951121257,1.83548687603754,1.83506539565892,1.83525111351069,1.95226484993309,1.88141063307914,1.88046436665267,1.878221719823,1.87989371974275,1.84315574641506,1.77461125350656,1.96090145289817,1.86323208002626,1.85226101596613,1.85579175667695,1.85698530448638,1.97554983045899,1.95265362664256,1.94883659181347,1.94670709386287,1.94772732585585,1.85004227358146,1.87155223813259,1.8493250503569,1.92534921639505,1.91588074971616,1.84570323212348,1.84583746724092,1.84467641350082,1.92300838683158,1.92373158962254,1.84675937996203,1.86994795158021,1.91951726909756,1.92885038611793,1.93477999866405,1.918799552566,1.92214617511593,1.9261637637856,1.93585580443741,1.93158731776896,1.84521903416241,1.86788443127039,1.84606057607922,1.94841571614941,1.91875481256233,1.93734687170264,1.9398058929713,1.93944462193537,1.84737128220598,1.93110634465581,1.92644512674658,1.9241418378961,1.93084758205702,1.92013600990259,1.92629591235779,1.9353919980019,1.92173710209479,1.92752690443712,1.92870699120582,1.84855857578958,1.92776002623451,1.92907555997925,1.92915669565912,1.93500069384513,1.84853376875266,1.9397779316337,1.93100429202233,1.92856515036381,1.84686293474614,1.94624771064163,1.84709791538805,1.92771279884427,1.9203841358736,1.9193225495524,1.91983130956185,1.93498056711567,1.93358690568731,1.93472695797105,1.84272105098836,1.8425423186284,1.93664156222748,1.93123417540589,1.94307126699229,1.8427274324824,1.92214565366206,1.9158177037585,1.86710908311529,1.84205233128385,1.84124297955585,1.84147814159372,1.91437678127144,1.86259298287879,1.84180089756713,1.91619906888158,1.92235387749484,1.92600221521155,1.82389923913125,1.77555879768887,1.95810556812455,1.7731014522752,1.77249896817414,1.78460689710625,1.7697708791817,1.76994506085094,1.77066003120518,1.87294597493969,1.7974287857357,1.76669471470457,1.76893696788792,1.76878325563987,1.76926520377422,1.77010429962175,1.76707173238664,1.87184657051043,1.76953035106752,1.76979467449443,1.77023437209611,1.77015834644893
1.78202031490911,1.89588755696372,1.73586218012323,1.72956026816956,1.76306518278539,1.82189235994143,1.72784139800349,1.77792274519409,1.77718836215445,1.76221400581139,1.77728178323323,1.7264387113802,1.72578546944122,1.90512738164366,1.72663705714544,1.72703481356638,1.72696641977929,1.7266412806687,1.82714102544958,1.74800656112452,1.72964034224292,1.86226551987811,1.86397786289669,1.86071806374451,1.85986038677638,1.85898140323838,1.85855023350319,1.8818106250211,1.78319041707371,1.85169236535458,1.85369142737751,1.88222408282969,1.85216487916784,1.95564480652585,1.875776867449,1.77470700953154,1.87982521527242,1.96707729426455,1.84525007334979,1.8457208621683,1.84631404278911,1.84255988161771,1.84277898829791,1.84077937983757,1.83723633983141,1.76690342506652,1.87983291572906,1.87905735158146,1.83826496904479,1.83690044639681,1.83711995148882,1.83619588658518,1.76379156243058,1.95899639610612,1.83732086622528,1.76319471673558,1.76322026797507,1.83680711723686,1.87901184468658,1.83708799344996,1.83586337987653,1.83965292338445,1.88219961326444,1.87882017701329,1.85726121291869,1.76883756700368,1.84487181583862,1.95206788727932,1.85229088035954,1.85304815016697,1.85301647222821,1.88011707829422,1.87849065205481,1.87937063899438,1.87850958066921,1.80557666601209,1.94768358345207,1.92506628545651,1.94448104100983,1.95218735711091,1.95020466053448,1.9288447695119,1.92172231767127,1.84612265743834,1.84643078064024,1.84490715200701,1.84690368010452,1.84643925508065,1.84653703930806,1.8616370315372,1.84438162091442,1.91931813058258,1.93311491479391,1.91927151547326,1.91919537522379,1.91979156001893,1.920033770387,1.92488251195464,1.93478357392833,1.92240181640173,1.92494131395864,1.8467090167699,1.84658773409707,1.93898182247151,1.94162693713791,1.94554978401458,1.93491903686979,1.93690512685965,1.92726675938028,1.92296247712286,1.93751263635535,1.9293566691845,1.92759125725949,1.9353030169769,1.91980497680309,1.92369321037722,1.84733936750368,1.9420337577535,1.93686485109431,1.93400047301581,1.93720255471554,1.93281633126458,1.84854929901082,1.84864069601122,1.93611119281443,1.93777743156896,1.93505873957329,1.93456499464293,1.93183551028165,1.93282810068703,1.84665280523306,1.84672473370475,1.92093275455162,1.941192399576,1.93444348545399,1.91782705442057,1.92467716965173,1.9288188435881,1.92696034481932,1.91962840305028,1.84275032433775,1.92871310492588,1.9154580259177,1.91580402886623,1.85671400605473,1.842362228926,1.84200842692612,1.84088606699839,1.84238662220881,1.87154911171958,1.91842624735098,1.92494137042227,1.92807814423856,1.92774140743528,1.82457437747203,1.77588840293317,1.77512799536598,1.77369677965225,1.97112749720715,1.79412449970523,1.77011666942219,1.76881029143703,1.76970931391785,1.94974663864726,1.78623522709107,1.76847462195196,1.76880108827657,1.87277363284211,1.76895095795455,1.77095918562579,1.95929286165855,1.87044435245131,1.76995188916372,1.87170123868237,1.77078368717457,1.77069540656232
1.78294145418765,1.78253489679265,1.7358032516409,1.85155858510606,1.77761464253363,1.73250063338325,1.77865189141182,1.82008269479686,1.72950368392008,1.75065268531721,1.72776796198482,1.77580813386696,1.72680483767543,1.72807310088027,1.72720193180206,1.72734171049581,1.72696083049873,1.72865415733404,1.82837300207357,1.75584151707508,1.73036347197013,1.86224084901835,1.86236057143125,1.86081971902425,1.86027384121463,1.85958134546195,1.85903929220468,1.85958633198513,1.88270210255238,1.87557012177178,1.85564279386115,1.85501602058616,1.8525630051511,1.85206460985223,1.86872216590347,1.8519278850438,1.77432400507091,1.84914737146277,1.88185236176543,1.84615832438982,1.8464728956987,1.84633769708721,1.8426339240609,1.84126655186999,1.83732251488589,1.88129533131101,1.84144931403162,1.84158310760801,1.88219537991509,1.85855517752369,1.88028996668515,1.83606523396114,1.8349376955008,1.83808218692656,1.83960864603498,1.87987824415041,1.83662482608859,1.83624191695852,1.88033373461646,1.84212339524065,1.84193740082991,1.83857017179644,1.76767937408934,1.76777938969843,1.8430849168315,1.84521640826844,1.84463340069836,1.95280774699086,1.87957183242743,1.85391320308521,1.8541902162294,1.87827616942226,1.9656027522949,1.87843586222061,1.87879651649657,1.97163496520629,1.93997662551312,1.92531266613664,1.84886942809317,1.9496850420234,1.93918420267677,1.9395049802193,1.92874847304551,1.84747302817133,1.84713118647502,1.84803746137293,1.84582903102543,1.84644200938377,1.84566051140688,1.86933843549008,1.92110983609343,1.84514989435325,1.93898298340882,1.92015404047579,1.91834854547932,1.94486301126967,1.92783360937797,1.84665301668379,1.84809387384168,1.92225497483301,1.90922492782407,1.9375577175002,1.92151011939169,1.84823368019836,1.85741786596221,1.84734285721993,1.92815166939871,1.93289471924556,1.84735260880537,1.84907732063059,1.84879163867898,1.9393054235256,1.92304151234572,1.84908966977519,1.91484627324871,1.92017132587484,1.84851389444054,1.93509156386525,1.9290739322287,1.92912200916386,1.93132121144273,1.93152111331787,1.84841617982598,1.93640310442639,1.93871172461296,1.94530580814079,1.9202321812825,1.9446695256011,1.93093283411422,1.93197572458147,1.9358988535723,1.93176820123949,1.93788884529721,1.84544119214295,1.93081798333948,1.93335761235597,1.93828683162584,1.84501584508328,1.93694562087652,1.922690718779,1.91827127934232,1.91731914075095,1.93453934379456,1.84238287397188,1.84268601811793,1.84201890630801,1.84154642498452,1.84385441075696,1.91971555247117,1.92476685588261,1.91874882134644,1.91704405396795,1.91556838067339,1.92842669848154,1.82503652772549,1.77601317810663,1.77558464477221,1.77529842921027,1.81970613903676,1.80301410703032,1.77001834061086,1.76955112142234,1.76964213764929,1.76958750229512,1.770105359768,1.77005623319145,1.95169992800965,1.76750474132775,1.76931032577723,1.7714884741364,1.8735936597161,1.87243102252025,1.76973259259993,1.77032869108965,1.77111026462023,1.77035094978274
1.78469712925556,1.83950562449561,1.83937160587295,1.85229901709285,1.79298514530215,1.91205964389057,1.73109389132155,1.77996365632123,1.82044653933344,1.77254547442351,1.72993926298531,1.72948933100266,1.77796155187127,1.77721100006819,1.74986044905125,1.72846938970267,1.72981471769172,1.73006535560919,1.77748732509617,1.76500860802824,1.73085232077777,1.86318018869693,1.95901767625032,1.96002341509926,1.88156196019142,1.88238303251933,1.88252867327927,1.85977257077509,1.88340810760901,1.88245836348441,1.88345202812335,1.8836355283806,1.95794152625834,1.88453166184406,1.87290323426188,1.85177788780826,1.88520190977203,1.84947306527098,1.88281605924101,1.84594110973132,1.84520553249646,1.88174216334243,1.84231236525355,1.76923575105339,1.79856820380262,1.84265083992694,1.88321989707868,1.7661191947295,1.76618116594925,1.84033090237719,1.83937762994518,1.83987729777851,1.83616996268607,1.83637952104897,1.83325227801718,1.83607879751964,1.83589832251765,1.95772257021036,1.88110301327014,1.84167252903632,1.84027132441501,1.83882970980563,1.83898197867303,1.77091988378703,1.84501906978528,1.8465999555127,1.84832840884998,1.96378226895745,1.85489341625527,1.8549098679273,1.85460538388558,1.85846175327848,1.87922183237494,1.87854551215308,1.8786774383203,1.88367653675956,1.9489638392846,1.92551062889436,1.94325321791647,1.94043557786523,1.94587416552338,1.8488151544882,1.84751641281326,1.84817907915762,1.84829768778198,1.84645193193747,1.84809565521481,1.8472506925514,1.9211004953088,1.91884388973853,1.9207275941072,1.94406577218931,1.93980853038249,1.92093030184337,1.91845152784523,1.92197981133578,1.93182844050742,1.94535013241983,1.93775088421414,1.93522320020639,1.94535172867394,1.84735675632167,1.84791164330266,1.93214392913467,1.86842718910315,1.84868120913812,1.84902777458007,1.93178792803643,1.85166976196304,1.85045915059622,1.84902360819937,1.92505790930262,1.84863517537242,1.920396933423,1.91565917615102,1.92014094388177,1.92818504208484,1.9279016517543,1.94158940480048,1.92492908190389,1.92614645121021,1.84886554587332,1.84832527448527,1.84916396653005,1.94057313992086,1.94551543900549,1.92182211022531,1.94071063534879,1.93230767353947,1.93226770998732,1.93571876893614,1.93139018950536,1.84650953694864,1.93462903236465,1.92735715410042,1.91712564811713,1.91724470204491,1.93792053880705,1.92056349322561,1.92004658207799,1.91892494880695,1.91762777955352,1.92185193788547,1.91565025187308,1.8429516614138,1.84088398408004,1.84278385451905,1.84274014129696,1.84212173832869,1.92384434094336,1.91808109827919,1.9322478279997,1.92801341955173,1.92855799099749,1.82499959269973,1.77576546326185,1.82275091122588,1.77458847566214,1.81934854263088,1.80910579228684,1.87220162482743,1.87159858953722,1.76995089053804,1.76957955411729,1.77018533843358,1.77014647835095,1.7686107032883,1.76875496558492,1.76910324920215,1.77129657147764,1.87120551179495,1.76952695619563,1.95969500946846,1.87381729519448,1.77216860748816,1.77177512098539
1.73695770014091,1.91604281871628,1.73551063592877,1.73560364793154,1.76054670407144,1.73172200824337,1.73278225840969,1.73135376623274,1.90931162629034,1.80456188767734,1.8932831711472,1.72855846876016,1.77931578059506,1.72970475159063,1.75827795976372,1.77758892645218,1.82073379125099,1.73036760816202,1.77838006020619,1.77244186987003,1.73045529801186,1.79103229255953,1.88578598001305,1.96000651813246,1.88107355485306,1.86170187842139,1.86081406015759,1.78696772622545,1.88423287563252,1.88202800507205,1.78328616658903,1.95776534721781,1.95725032627298,1.9735593855457,1.90266891602994,1.97492759249773,1.96258985087472,1.96886575440329,1.84785508279441,1.84678633393599,1.84609035667682,1.88280179554413,1.84361735341983,1.76956745811643,1.78896171441654,1.7684235828745,1.76848782120871,1.88247305501908,1.76621163474759,1.84078058896848,1.88298052029158,1.9753787740547,1.83669009570365,1.88407207035691,1.83086095920061,1.76427988758956,1.83723947469051,1.84054128555856,1.83964493261288,1.84139978474883,1.84111652874644,1.88230070486754,1.76710449438836,1.96760391639656,1.84650674125374,1.84723955918212,1.84846586425138,1.84877866718583,1.8815911784618,1.85582641287217,1.85500169173048,1.78465256276242,1.79009045484732,1.9743829794778,1.88392582754012,1.851741942155,1.94258355917624,1.94102413362154,1.93865807818402,1.93737893157279,1.93995074463713,1.9375869963468,1.93738265033599,1.84916536816617,1.8486459712517,1.84915004392293,1.84606316555295,1.84761880985725,1.92175531884109,1.92377874659031,1.92764439761293,1.94533497807915,1.84680636033214,1.94665392170097,1.9313764506947,1.92136665103293,1.92147059233931,1.92184834211484,1.92016660025035,1.91360315131221,1.91863517633328,1.93576620935666,1.84725717686398,1.93244551759084,1.87892562134896,1.84763332256464,1.93410466490785,1.91777828113203,1.85013109701385,1.87241679537368,1.92233442820785,1.93094074160417,1.93185859149815,1.93291242070474,1.92721778230958,1.93820159688159,1.85033632618225,1.85013206062801,1.93670217930751,1.92642600594844,1.92521418024604,1.93227722691592,1.84933280332863,1.93221232964023,1.93458513405933,1.93788813407224,1.84923214747063,1.92999213452239,1.92887288579728,1.93010811245934,1.93461047958398,1.9347443541972,1.94065296932371,1.93558674905577,1.87594314459559,1.84692559648899,1.93195916651306,1.93178956294627,1.91950853133521,1.91882371002919,1.84573805518495,1.91839640767491,1.92791364206667,1.84309469510796,1.8438938626055,1.84480004186737,1.84252763077153,1.84259559373571,1.92133695316532,1.92354606280507,1.84208008946235,1.91713464649947,1.91682587168352,1.92394146879841,1.82446101769132,1.77744632700751,1.82277644572678,1.77283636998506,1.8716725138388,1.79659758882534,1.77229129571282,1.87246206340908,1.76908794153376,1.7692743059484,1.77017567129205,1.8540929095773,1.81533982412035,1.81539417460502,1.81578990176978,1.77068935429661,1.76952562647897,1.95165205327038,1.77035997665901,1.95104728022477,1.77208374995704,1.77002190446684
1.73873879617018,2.01758514419889,1.84123375112633,1.73423908285347,1.77437688263366,1.83987560477417,1.73356747306158,1.7327294506328,1.8949970908972,1.79368054254994,1.77978954044952,1.77983313880899,1.77976713632626,1.77963346185326,1.76672609261929,1.77908266426873,1.73244538619443,1.73213603486661,1.81494094360891,1.78376416452037,1.82138488422322,1.86452280447848,1.79335900140636,1.95855469935992,1.8845170881063,1.88776568319512,1.88870025338211,1.78844226661654,1.88591582863284,1.88772659751111,1.88872184843025,1.78499049698122,1.85350883460588,1.88482281748324,1.88373181903618,1.88525177836238,1.85526104891732,1.77655496792109,1.88567108129705,1.84743588570506,1.77406387555347,1.77371207141669,1.84443540036426,1.7695957690517,1.80003677191433,1.84203804674613,1.76984067336484,1.84260117769032,1.76964748196873,1.84105557705993,1.97856723169037,1.8392369448743,1.8843018678184,1.83621566857041,1.83264276536792,1.83623864921309,1.95840239150805,1.84010642778918,1.96799648925861,1.86917760059741,1.96777626545795,1.84346908842888,1.84364527414138,1.84424508243497,1.84634534183785,1.96180149799652,1.88350316245603,1.88218416462013,1.88143596502908,1.85650990161842,1.8555900431023,1.78550427652947,1.88044178821459,1.79337816661999,1.88133911400687,1.97733206352007,1.93726784726098,1.93269126984382,1.95078390652805,1.93755066305717,1.85184727153083,1.85274314757804,1.93760630790954,1.85064916133929,1.84993649527771,1.84825199180983,1.84909437917277,1.84764469659004,1.9273965528365,1.92533254461871,1.92722586518546,1.92851234375881,1.93836122070237,1.84787350827297,1.92938211891917,1.93593511300794,1.92130720095902,1.92203155125548,1.92048167455562,1.91297884479722,1.93561484333774,1.84928627182655,1.93193790899863,1.93303436264754,1.92981691892535,1.93335392671552,1.9350094694986,1.9299733009828,1.94487312225726,1.94538268703132,1.94210701885749,1.92876891582268,1.94513909568237,1.85160965458193,1.86876656047882,1.85055371528081,1.95105278961756,1.9390150212549,1.92500417430188,1.92875181563971,1.93058000022103,1.93653274818814,1.93578752021599,1.93235727610586,1.93158356547372,1.84877223705388,1.84906411314709,1.93193500845201,1.93057057644324,1.92879217630526,1.93065430071165,1.93935246924472,1.9385273342431,1.84726920089695,1.8662543741134,1.93760558980522,1.9458114606432,1.9189534142641,1.92010059579966,1.91871931678405,1.94458573486888,1.9190147593872,1.92934537954604,1.84372391096394,1.84406965951556,1.84331569508479,1.84259737337809,1.91983616586062,1.92085390190826,1.91928200059824,1.91913157470189,1.91795120595183,1.91721841931346,1.93260021223568,1.82372401295208,1.77831695103233,1.7743407342856,1.77285317308033,1.77323746009579,1.77275938981318,1.77213617377308,1.77176275734617,1.87516736980582,1.76769142991042,1.76973359950647,1.81631711880514,1.81538733951435,1.81521855377545,1.76753687879746,1.76924218215963,1.76931111746247,1.76963833103416,1.95984411905722,1.95445357198786,1.77180011152135,1.76976384174229
1.84488180299211,1.73690152027567,1.73728824660365,1.84178910158381,1.79013455390087,1.84190250471484,1.73437446310696,1.84707447548175,1.78062660480082,1.78050807271039,1.78034558500004,1.78068878153212,1.78164829595311,1.73259842733112,1.75654714944523,1.83168753159694,1.73249708523896,1.82867142302266,1.7338315532114,1.77075297718441,1.73520077164218,1.86655209035202,1.86644920934515,1.88846073411539,1.88713058892171,1.889153479532,1.88941570829381,1.85942912284908,1.88769376246001,1.88770551938551,1.88842588867605,1.85602471281086,1.88592959093404,1.85308341947313,1.86960696754949,1.85476665860541,1.88643737905764,1.88593962024044,1.84897379976745,1.84867601323535,1.84962805214498,1.7734032587555,1.84386947900776,1.84521789119892,1.84633990667418,1.88598705778704,1.8418734816256,1.84339743852419,1.84035616034007,1.84107140738616,1.84025513051607,1.83994288060353,1.76615498046703,1.88437846957425,1.83068820942888,1.76407881394141,1.83890210509139,1.83956073334027,1.84149087007416,1.86370258696409,1.88337309663553,1.76885670984579,1.84346048710449,1.84778737145069,1.8468914869912,1.77372499280617,1.77584758947981,1.9713285711121,1.85266982249372,1.85722454017132,1.85565418404282,1.85917674606284,1.88013032178254,1.88178265049795,1.88276672023624,1.93466387050001,1.94514705329788,1.93298587270885,1.96171389558751,1.93899196773981,1.93975797666226,1.94457982891781,1.84977662648324,1.84983771419971,1.85005894535083,1.85012689581566,1.84911866563794,1.9275623100879,1.92795874491158,1.92558829817164,1.92735160602665,1.93513767809287,1.93780798699003,1.93744793488228,1.93009336546382,1.93535468959904,1.84881550529797,1.93853630412415,1.84940121027933,1.87126701267548,1.84873180193641,1.94497038013862,1.931393177027,1.92769913002333,1.92870371329559,1.84992436484498,1.85002724111124,1.92992277481341,1.93698950043079,1.94170475369235,1.93903822609432,1.9237168964984,1.85179490816452,1.94540846595561,1.87750903556957,1.85161002198548,1.94368346059215,1.95038804336634,1.93039613576651,1.9261361117024,1.9277457285982,1.93946237669187,1.94136680934076,1.91806368167691,1.93255318127943,1.9335940642106,1.93395169274799,1.84857772568529,1.94269998416023,1.93588193509342,1.92503929617932,1.94151411143138,1.92187337743478,1.84731017012365,1.85775608473091,1.84846875848064,1.9387211487053,1.92559383919251,1.84518241989546,1.85710640120815,1.8434837089464,1.84368360322398,1.84435079146753,1.84420499152378,1.84455374292006,1.8448996052286,1.84404491151652,1.92027249871534,1.92061089377516,1.91862386483336,1.91768698715097,1.91812280285368,1.91811427218976,1.92595897284391,1.82316239076578,1.77744452521078,1.77365929326766,1.77310924259189,1.77303420166393,1.77287166747929,1.77323291144455,1.96733581785663,1.76923928462477,1.81624313729623,1.76969969488926,1.76838470921617,1.76781826355569,1.76717054110238,1.76697530720076,1.76834919006866,1.96726879322164,1.76951750369623,1.87558706204093,1.76803405991597,1.77085853494063,1.86295970676515
1.82905442420377,1.74080072890454,1.8425550974122,1.73968095468002,1.74080204185547,1.73633804474224,1.73651618302106,1.84753406065086,1.73404220444822,1.76625574068599,1.73498776191911,1.7335821254332,1.73236564860234,1.73059281969626,1.73366732294604,1.73239712360866,1.83356422137649,1.73413017722423,1.82586596330119,1.78733302702791,1.88585761515268,1.88968546800688,1.89114084673397,1.86147156182589,1.85799799620411,1.79302389349573,1.86358948522369,1.86298464966594,1.88761328266933,1.88155540891192,1.8594613396032,1.85967693638294,1.85922833036026,1.88868718501923,1.88175314612545,1.88669831287762,1.88709429588714,1.84859224497385,1.84907514582863,1.84893457385736,1.84878734490061,1.7743515058372,1.77318812263497,1.8458520516558,1.84626546361307,1.8457397661999,1.88536468585308,1.84064785560127,1.84200105294774,1.84196021262474,1.76938333698327,1.84172090332082,1.76748908986814,1.83999279142428,1.83479393281897,1.96852311139063,1.83941955991711,1.83986596677149,1.88572853552747,1.85495686361873,1.84195804628752,1.84221289437294,1.77103501222372,1.84573190190851,1.8466637625088,1.84694824859682,1.77583148073454,1.85236637854093,1.85257179483099,1.85787454698685,1.85954678905654,1.88226980494513,1.86469531531958,1.8819913383823,1.88676708900191,1.9733488831198,1.85542706951361,1.85402319573344,1.94932558463869,1.93844913833855,1.92488158512074,1.94398701127897,1.95108879315541,1.85001953336497,1.8512746904042,1.85092296979145,1.84969971513124,1.9277390353677,1.92670572490476,1.92489453461661,1.92325290086613,1.92235706502407,1.92327369694987,1.84863002055415,1.92991194979004,1.93617945125029,1.84946021845353,1.94456946501468,1.94012795729366,1.94988556991213,1.94463521786911,1.93849634611343,1.92161746139187,1.92250600094604,1.92760780009111,1.85015709556275,1.9419431414662,1.94092636197744,1.8524696123398,1.85343299958544,1.85334633854515,1.94585068564235,1.9367175425889,1.92787115265541,1.92383679898325,1.94199507399675,1.94519571797686,1.85119168644966,1.95145090722653,1.9202883497305,1.849568478249,1.93768971491593,1.93965734382342,1.92481406176414,1.93317040398537,1.93145770788162,1.84825217745822,1.92940927533431,1.94166378395971,1.93746741669317,1.94941287925432,1.92684973229071,1.92862688293121,1.92939290275584,1.86308063709557,1.84918816507409,1.93805270160507,1.93242415763405,1.84524924738853,1.86728347964294,1.92823984690042,1.93456388901289,1.92593437525356,1.84526325478774,1.84476600451463,1.84386106644349,1.92180206423053,1.92080277570363,1.91960677771544,1.91847251286311,1.91794981049247,1.93226172690998,1.92609383206083,1.92759326486849,1.82294969724809,1.82499407527706,1.77436083864537,1.77351460329371,1.87265873346785,1.77226295391116,1.77198576137878,1.7703346694576,1.76904478266082,1.76965684229364,1.76962947659158,1.76871004004788,1.76836753150892,1.76708094717509,1.76753424578153,1.76788302996632,1.76788448163239,1.76895900358891,1.87642328648151,1.76902544441261,1.77020907416896,1.86395629925437
1.74267969264801,1.74221745535355,1.74146886297486,1.74047128756647,1.74099976759915,1.7365940797449,1.73630997908869,1.91981056243812,1.92082550691073,1.78733302702791,1.8413965213679,1.82668941268867,1.73547061726042,1.91170537081994,1.73421081336719,1.73414761023998,1.73577932921756,1.73547964091229,1.73430531225657,1.73466863388118,1.73567593236131,1.868552092632,1.86754171604948,1.86581343085737,1.86308488608528,1.86567621013627,1.89128198962626,1.86447362492957,1.86209199609446,1.85948754669458,1.85837483081373,1.88879250819039,1.86157625206196,1.85550750793242,1.85561264454726,1.85511653444707,1.85407457834376,1.96808266378931,1.84978109030469,1.8492894248253,1.84913698539099,1.84882840193558,1.8879722694191,1.8879467238969,1.87767915418554,1.96243344455494,1.7723324159171,1.88421569560653,1.84198325177001,1.8411123994135,1.84265369609001,1.84229291085772,1.84108594293003,1.76717152335369,1.83793055674941,1.84135712942282,1.88676483812156,1.88650555738898,1.84226953858987,1.84339265861789,1.84270188452259,1.84320351183243,1.77227975544485,1.84663288868517,1.84700827572867,1.84660299100222,1.84813945159907,1.88535511090393,1.97013170263024,1.85710531063735,1.86081460777991,1.88313270347833,1.86431975191603,1.88128293281775,1.87728393608901,1.81193446588512,1.9310754903303,1.85417849631334,1.92631126540957,1.93713845595454,1.94496946595817,1.95508911772941,1.85324532551744,1.85431286158805,1.85301254416117,1.8525825054234,1.92768547916198,1.92729785803446,1.92715736126046,1.92790905729731,1.92980205705152,1.92432135173832,1.94798635400404,1.93879386475255,1.93568075536118,1.93710951978574,1.91824505876187,1.85192282346339,1.85176381948722,1.9526133803545,1.94649715690546,1.8519086828947,1.94176221530074,1.95168543246324,1.9316692172606,1.93624664620063,1.93232102638121,1.94557642509971,1.85224817588568,1.85311308038262,1.85229071808433,1.92717926065427,1.93774297029835,1.92942575248627,1.92596699962706,1.93790514692467,1.85349924888268,1.929333465036,1.93281220643525,1.92705084741483,1.93211619776981,1.94227114465458,1.93530266643136,1.93678026102678,1.93699462971336,1.93988273352215,1.93287694996365,1.93495079940307,1.94453808039618,1.9390762540547,1.93347562785858,1.93820626565276,1.93532785909819,1.94286898585287,1.87269679688423,1.84920043392414,1.8484237256174,1.84686818147135,1.93840245697815,1.87488144092928,1.8474714529153,1.93305520337067,1.84494149289798,1.84515798789693,1.84507173406294,1.84474405414784,1.84406956002345,1.92144619131116,1.92129557334535,1.91976723524932,1.92136201919305,1.91855114517471,1.93169432526618,1.84388600471831,1.82315799355932,1.77870646066219,1.77550941551333,1.77261493574959,1.77232291780259,1.77188669321913,1.77085887296768,1.77045418629477,1.76911381958802,1.96468355730083,1.76905841035532,1.76805107102912,1.76790574505307,1.7675052625936,1.95111585748198,1.76736644788147,1.76663408050093,1.76840373274665,1.76867850344017,1.7678600970673,1.76903378370646,1.77031846364635
1.74164877563528,1.7885715379255,1.74156340959885,1.92863387862732,1.79488463473854,1.84579142978714,1.73726874202594,1.73725096352312,1.73680451254656,1.73666078045962,1.7367126743895,1.7363496506887,1.91149472196713,1.73446229398802,1.73495173838791,1.73541912245421,1.73577493362528,1.73558258797511,1.7340142994798,1.73446177338883,1.73496665157291,1.86860324406712,1.97480914235246,1.96786276444647,1.88910058824478,1.79434523803223,1.86545502747171,1.86434066359174,1.89242629735511,1.85950961419632,1.8631726225076,1.78600544145383,1.8567931768004,1.78298934306922,1.85609641430998,1.85683933937222,1.78085411950792,1.85271411628635,1.77947534338214,1.80662663446525,1.77671775364299,1.84865483072886,1.84802571212278,1.96223237064999,1.87074856930177,1.84551309993355,1.84518330683933,1.77103022300885,1.88913721872605,1.83944213263243,1.84354870675827,1.84256012398803,1.84242180089465,1.84172077835126,1.84012414939803,1.8402685744828,1.76974717999629,1.88667340059288,1.88636944909824,1.84404550399492,1.76720024987256,1.88905104234932,1.84628745463888,1.84733818297068,1.84815294288964,1.88769139963485,1.85026182102625,1.85474372573152,1.78345851584626,1.8538516332994,1.85520529385213,1.88505027447308,1.96945188133255,1.8813270071715,1.8782580133903,1.96525805417212,1.85393012153615,1.95076157492638,1.92630654693045,1.93489147756536,1.92671966166145,1.85331718015932,1.85349130589692,1.85355849920385,1.85342973606015,1.85255142487966,1.92706044931117,1.92754266287884,1.92754041969175,1.93144213153015,1.84990372199987,1.92392502600101,1.93914330269382,1.92971098309274,1.93807725415051,1.9412477519341,1.94710958601641,1.85166459984257,1.95440896259904,1.94453675021546,1.9430289247138,1.85191391941826,1.85222274118434,1.92587562281115,1.93351148454472,1.93674794472258,1.85184962072643,1.95549975570566,1.94641220599836,1.95288112102474,1.95438056394729,1.93599759197757,1.94302046613812,1.93025672610704,1.92708018122636,1.93019216720582,1.94578018490714,1.85262792862789,1.93209891287439,1.9318007760237,1.93447249852164,1.93479274860054,1.93569435836745,1.93995561717477,1.93606271624791,1.93854933295393,1.93835774168238,1.84986076869784,1.9372553731217,1.94069596836104,1.85009517227848,1.93778689013006,1.93587427564171,1.94214841036327,1.88092556688846,1.84867966906436,1.94763056129244,1.92855231677798,1.93041621465528,1.92827408596893,1.93110797180009,1.84513393784778,1.92856039558074,1.84530397768163,1.84529905664501,1.84434017448513,1.92228228990928,1.92240445312596,1.92175585222951,1.91994576596947,1.92101758645229,1.92663682492661,1.9189063578404,1.92252945567629,1.82379299822969,1.77864980252624,1.77415229143461,1.77285563473474,1.77236845544367,1.77169490416179,1.77121290891299,1.76958738709719,1.95876623952654,1.76826881131198,1.76862512067192,1.76657509576926,1.76708047845199,1.7682698273885,1.97060087030176,1.7670918442979,1.76623879471362,1.76940395758242,1.81501754544532,1.76716282601542,1.76790280148383,1.76663294214572
1.74203580460126,1.81441431317634,1.78974590565028,1.78978191686685,1.78891910153734,1.73814034721047,1.73913463795553,1.73758634692665,1.73746255997483,1.73673322421364,1.73634676258286,1.84135184831383,1.84159440133156,1.73681174560142,1.73554523356196,1.73576124941237,1.73578970273028,1.73532962579854,1.78377448050895,1.75361588517827,1.73833887667958,1.96759434137477,1.86972878897856,1.96488900956296,1.88993321572229,1.86796872389331,1.86671119970521,1.89372848905009,1.89248910919878,1.85984481436902,1.86174998136705,1.86149941528624,1.78563201845687,1.85646383864455,1.85596087095465,1.85631010653957,1.96967210513321,1.85259920458417,1.97602029556098,1.84824477449806,1.84996975260173,1.85166321688204,1.77432400507091,1.84610525305489,1.85968962054187,1.88975959036241,1.8452968995994,1.84433567885378,1.8421164649422,1.8377507476891,1.77026221540149,1.77085891483253,1.84247871267179,1.8418994368757,1.84140915253024,1.76829179227571,1.84401908340278,1.77216662952579,1.77227143447142,1.84288690540819,1.88844782018901,1.8473001694519,1.84672549775702,1.84858655699496,1.84946398925843,1.85021690630578,1.85086093235735,1.85562450159428,1.85674168834267,1.85193302099279,1.96587085083943,1.88542936113719,1.88461278599929,1.88308460677263,1.88022817089494,1.85708978195754,1.94145782979554,1.85634300839557,1.94420289984107,1.94283274701606,1.94767164966831,1.92898763206981,1.94766742930049,1.9325552633756,1.87465860480631,1.85192725763119,1.9275036981091,1.92772121612919,1.85180812199411,1.93392616446875,1.92842194763465,1.93417408852355,1.93103096643104,1.93762439030521,1.93603378781265,1.93703596068327,1.85266622841931,1.9248746781346,1.94530295740028,1.94460164997194,1.92393005093458,1.84653832463615,1.92653851888182,1.94821348963435,1.93643204253299,1.94110834353816,1.85268135203307,1.8529646062729,1.94716231548999,1.94841277045638,1.94039585582487,1.93733495964837,1.85307316544409,1.92599199617886,1.92258778549627,1.94730337070204,1.92935544316134,1.93426780791325,1.93441187288184,1.94200669005711,1.85154675575557,1.93464061638318,1.95357480932567,1.9441734681029,1.93116618240755,1.93135626201268,1.93266233976276,1.92137781209995,1.94438734926421,1.93868182801552,1.93119690328492,1.93694097181311,1.84891284886021,1.93581207615096,1.93410014688239,1.93715300285147,1.84649996200079,1.92590579686774,1.93035427344426,1.92860802171186,1.93133589868582,1.84522330402776,1.92368312583525,1.84641482037043,1.84614052985134,1.84562827463935,1.84453722390801,1.92199714453239,1.92054510410146,1.91990347911737,1.91963576307715,1.91971110760594,1.91930147921382,1.92153949821447,1.82446425266772,1.77824041942483,1.77526447060529,1.77507753727639,1.82180618519436,1.77166108639901,1.76961073132056,1.76963810896974,1.76917670633989,1.76902255446985,1.7692978620282,1.87462114321715,1.76559990703447,1.76911455786766,1.76890373449617,1.76736890942694,1.7662610031077,1.89210545256106,1.76898341321499,1.8547918807707,1.83485734089183,1.87398964773777
1.74438145510057,1.74299620677373,1.81688465716608,1.79096371432218,1.78922367987599,1.73913660512472,1.74025321725285,1.91742161468929,1.83727929766227,1.79360958186584,1.83778985149815,1.73867405476708,1.73912579891589,1.7381207275975,1.73853420425122,1.81948904802986,1.73788036862831,1.92782958300751,1.73840838377181,1.75585213905661,1.81516116811757,1.98506217833064,1.79838585077111,1.89524850046318,1.89204518408571,1.89565817594954,1.89456837425488,1.8649126190558,1.89160668083364,1.86145234189917,1.86284344973959,1.86288422668203,1.86123117616894,1.85788525567339,1.8561691548565,1.89242320999186,1.89377262449644,1.78169671491915,1.85352468829411,1.85021321956526,1.77958066038972,1.98165993984749,1.85023514508602,1.85071974363806,1.8495284787685,1.84774102402765,1.84662253607016,1.84567049418323,1.89135860757933,1.83916181237475,1.77355899674981,1.84363155467756,1.7721217670643,1.84217319746684,1.84241832465598,1.84177047286547,1.84282143560269,1.84328638907519,1.77239642919611,1.84282602530111,1.84439154039019,1.84555379615921,1.85110870638204,1.88769139928853,1.85040303070496,1.84980020999893,1.85256948669704,1.96311326585264,1.78290316861909,1.85115418898495,1.88625451015279,1.88603605857542,1.88459181821403,1.88442474133089,1.88273841080778,1.88563648167229,1.93004569906609,1.9377801221809,1.85630032478831,1.94127596705864,1.94699985318661,1.93216955238975,1.92965202371453,1.93859658069997,1.92411624318663,1.92824482268339,1.92802306919814,1.85285229225716,1.9283338419198,1.93484895621574,1.92871515440004,1.85248430441007,1.94747654135167,1.93530846382896,1.93404807412015,1.93515873104884,1.93839196318886,1.92542331887686,1.95816192344689,1.94323094819253,1.9438320821229,1.93585216931665,1.92589319112954,1.92877895414131,1.92481747598216,1.92713098262542,1.85321355491713,1.85375186940341,1.92986904689309,1.88425534627238,1.85278427208654,1.94571569060553,1.85179012243154,1.92436621046401,1.922137204215,1.92452881045225,1.85281942758499,1.93420913007512,1.94144300794034,1.9464118854425,1.8516648297127,1.85237443690169,1.94256487865505,1.92452572264129,1.92410542427216,1.92999645932855,1.94445704710248,1.9285278181027,1.93603871983821,1.94425829710004,1.85056650741552,1.85143519556595,1.9485639047966,1.93973982208773,1.9348308314611,1.93533697844217,1.92196799552545,1.92075473345583,1.93757788041803,1.92769985818715,1.93042625933607,1.92778599098161,1.92692875296648,1.84630612632081,1.84674559884894,1.8469125773673,1.84495136396167,1.84526062924682,1.9222282564823,1.92169842260765,1.92369373090388,1.91725199968807,1.92169058112241,1.92164917225497,1.82475575983296,1.77654638434924,1.7755136703813,1.8942310098855,1.7709662610902,1.77096077972906,1.77042687810996,1.77055452254928,1.77040828536155,1.76662220364657,1.7688628170668,1.8754758035673,1.76548671280106,1.87673766111478,1.76688457142414,1.76682588835434,1.76600110843263,1.76676905661655,1.76650450490165,1.81535194623773,1.83041260868375,1.76688935933082
1.79410241793064,1.79393633260577,1.85773138628024,1.74287030409581,1.78915409929566,1.79084920942798,1.84660839328751,1.84761596350586,1.73922077758084,1.78140547399165,1.836194251016,1.91549705017046,1.73971441011704,1.73915217347848,1.73907574377011,1.73965852305744,1.78589735106461,1.78631940636198,1.90427521128457,1.76053333500937,1.73968184750475,1.98492185818144,1.79861564951962,1.89555104452549,1.88468572825553,1.87031936529111,1.86938563250116,1.89415314853537,1.8638911699369,1.86335022663494,1.8638972384153,1.86463778728663,1.86120018998685,1.85933445722422,1.85661614115798,1.78439686113104,1.89274404846139,1.85822440947581,1.8541204448015,1.8520442583638,1.96852311139063,1.85019074649781,1.85086209227857,1.84952133304101,1.84939982998766,1.84808303475246,1.84794806135302,1.84572463043179,1.89147350170015,1.84140838639695,1.84585468875395,1.84651350405723,1.89148849193114,1.89146888204084,1.8437680352928,1.84426955117141,1.84385642016041,1.84466553306683,1.88878294571693,1.84324710982704,1.84460430617636,1.88831377045154,1.8516785820543,1.77608079712808,1.77696441365432,1.77729892964697,1.85289364802136,1.85589299691255,1.85654365738426,1.85248734580618,1.88780603732599,1.88610524310517,1.86637979052717,1.88470753784416,1.88307539411253,1.96829433099638,1.94874284863371,1.85795995685659,1.9359787416131,1.94006967294113,1.9460800025469,1.93183488854022,1.92866349264497,1.92861008485431,1.92607886899166,1.92775943798328,1.92812737410599,1.85303586403948,1.85307131801335,1.92572089377031,1.92835539640621,1.94111717837374,1.85278112779357,1.93979362625929,1.93550042492087,1.93868453916744,1.92893468030608,1.85234828785637,1.85254871194876,1.94881728049198,1.94885702279333,1.92933747779606,1.94551274386223,1.92705489476837,1.92413962559449,1.93479123329623,1.93515390535065,1.94108117476853,1.85502237386775,1.87393242089272,1.94194410926244,1.93939052869405,1.94762677315919,1.93155751911205,1.92982566787613,1.94481324297061,1.935902924159,1.94007255397921,1.94015897638764,1.94013321109571,1.93812406700928,1.93307833657671,1.94497880946074,1.8517704311085,1.88868542957508,1.94477125438911,1.93224348703387,1.95217354047829,1.934426422862,1.941896953822,1.85115143779719,1.94533351007341,1.95435517565704,1.84888857531921,1.93391147752764,1.93762666603961,1.84925754698298,1.93679215775989,1.84652061398409,1.8688542702245,1.84631003475737,1.84634787616435,1.94398313677833,1.8471953180637,1.84718382843815,1.84701307355723,1.84579353410333,1.84503513356385,1.84432824442947,1.86645912273039,1.92265646441439,1.9183729280011,1.84505328958647,1.84482015695845,1.82457980284767,1.77751715533314,1.77695592624083,1.87964927285927,1.87315288893328,1.86944220791383,1.96222279570214,1.77046199343154,1.76804224151722,1.76718913385843,1.76824295498413,1.86885588934393,1.89437798146449,1.8934713925148,1.87623018854958,1.78671100885718,1.76605010098386,1.76694689629657,1.76611113437438,1.86658821652788,1.83467563252696,1.8490549781177
1.74629377061967,1.74499795365255,1.92431557540383,1.92477517290086,1.788880835735,1.79011398854097,1.74039996482117,1.84738204907418,1.73982677467489,1.77287108239416,1.86195393422334,1.73810389730657,1.73930616401124,1.73940825013378,1.73962596772951,1.90903396036843,1.78623003995259,1.78703996334782,1.74004569696534,1.767397615284,1.78931837818283,1.87268744786571,1.97467022791344,1.87145669866161,1.8717307912525,1.87146988954072,1.79770602763221,1.8954938101313,1.8961677193303,1.86407783160673,1.86386833279344,1.78958647192166,1.85951313781952,1.85917939367699,1.85676630164849,1.85835764628435,1.78518199593832,1.8923463451661,1.8546923303939,1.85399123269301,1.85495953985114,1.89355126447783,1.85139922418315,1.85130033292485,1.84999189084132,1.84929197802713,1.84836126824155,1.8458697323684,1.84795748289005,1.84378803221549,1.96766136608369,1.77140364597518,1.89172166066421,1.84517816919287,1.84471708444809,1.84482422659751,1.84447402553275,1.89209587763087,1.7730601184885,1.84305607000824,1.84483053923228,1.77456337876729,1.89541838451884,1.77737641539415,1.77757450336901,1.77844167885382,1.85336967022553,1.78241584183085,1.85776386878474,1.85758128388494,1.86111934328107,1.88824763475784,1.87184034745168,1.88514280765817,1.88372525863488,1.97455429941145,1.95005145136852,1.85864524826976,1.93177391961284,1.93545818412004,1.94818906501435,1.94433336307198,1.92939536612185,1.93052911014181,1.92784526795323,1.92999940380515,1.92995298068719,1.85335475221204,1.85297305813607,1.92776044472444,1.92814686432138,1.92650530437195,1.94383463093315,1.94986619618875,1.93233864961274,1.93452275806597,1.92786153242662,1.9320822021533,1.93931725794688,1.9469060477161,1.85575058726062,1.93149665221346,1.85370989773549,1.92651601100536,1.92091251902723,1.94386085505882,1.85595339452609,1.855504817051,1.85541124558404,1.86662436412483,1.85444504160822,1.92977406882487,1.85492591610828,1.94065174229243,1.93267021772766,1.93731208384081,1.92882229588377,1.93991977264784,1.94864110249931,1.93923937907461,1.93805816013125,1.93204137482856,1.85254513702683,1.85241523134692,1.88477188810481,1.93751789530558,1.93653546824084,1.94541370120477,1.93232534795542,1.93365070830208,1.94770451881462,1.85039537169402,1.85165288151229,1.93097355458418,1.93417706440454,1.93791996829051,1.93453779407411,1.94247443661001,1.9260905431931,1.92069159389198,1.91977432661339,1.93748667390215,1.93202902036999,1.84735922947072,1.84708607776968,1.84603963178738,1.84515928962107,1.9183312347355,1.84503184721227,1.84593814302562,1.84569753127261,1.91847114957002,1.92243120078029,1.84414873569603,1.82407762379848,1.7772217060559,1.77625252004331,1.7744836594347,1.77301569284555,1.87162186180679,1.87666343337624,1.87692036649238,1.76858842753461,1.76817824025637,1.76753096618609,1.76654129625381,1.76502399420553,1.76449627460021,1.81503668991578,1.79716874604988,1.86926161959798,1.86194237071777,1.76562446037129,1.76401469836564,1.79383755228034,1.83609350398191
