1.17661, 1.17395, 1.17233, 1.17014, 1.16576, 1.16349, 1.16454, 1.16696, 1.15854, 1.15989, 1.16025, 1.1632, 1.16702, 1.17109, 1.17526, 1.17618, 1.1377, 1.1374, 1.14951, 1.27287, 1.2662, 1.24458, 1.2082, 1.21442, 1.21849, 1.22004, 1.41825, 1.19485, 1.20107, 1.17819, 1.18232, 1.1891, 1.21172, 1.20962, 1.2308, 1.23302, 1.27732, 1.30063, 1.30076, 1.343, 1.36549, 1.40491, 1.46414, 1.44715, 1.46021, 1.47176, 1.49227, 1.5075, 1.53691, 1.60655, 1.59212, 1.68274, 1.66608, 1.64795, 1.71507, 1.69976, 1.77727, 1.74834, 1.73865, 1.74405, 1.74582, 1.79788, 1.79718, 1.80919, 1.80178, 1.80852, 1.82834, 1.81005, 1.82287, 1.86256, 0.00438686, 1.93948, 1.93932, 1.94208, 1.88661, 1.87728, 1.87648, 0.00439511, 1.81904, 1.80472, 1.79538, 1.77896, 1.78674, 1.78904, 1.80732, 1.90086, 1.7783, 1.77836, 1.78292, 1.79317, 1.74892, 1.76202, 1.70297, 1.76, 1.67485, 1.65411, 1.68899, 1.65157, 1.64462, 1.60952, 1.57773, 1.57514, 1.58134, 1.60618, 1.53452, 1.55442, 1.44727, 1.41404, 1.28353, 1.25975, 1.21009, 1.16975, 1.16643, 1.16174, 1.18115, 1.37866, 1.20775, 1.20584, 1.20218, 1.19096, 1.18829, 1.18141, 1.17423, 1.17018, 1.1637, 1.16299, 1.16213, 1.15068, 1.14992, 1.14746, 1.14391, 1.14435, 1.14642, 1.146, 1.14111, 1.14155, 1.14399, 1.13473, 1.13442, 1.13834, 1.13917, 1.13287, 1.10792, 1.10656, 1.10916, 1.12128, 1.12191, 1.12596, 1.12422, 1.12661
1.17774, 1.16645, 1.16978, 1.16902, 1.166, 1.17252, 1.17244, 1.17017, 1.16322, 1.15989, 1.16366, 1.16343, 1.16715, 1.16975, 1.17401, 1.1467, 1.13909, 1.13817, 1.14329, 1.26025, 1.18044, 1.19744, 1.19857, 1.35436, 1.21146, 1.34714, 1.49269, 1.20196, 1.19145, 1.17505, 1.16434, 1.18427, 1.23726, 1.21034, 1.23968, 1.25395, 1.27677, 1.30601, 1.34028, 1.35909, 1.37508, 1.47333, 1.46528, 1.45952, 1.48894, 1.48139, 1.4936, 1.50853, 1.52414, 1.65368, 1.65267, 1.60398, 1.68167, 1.67363, 1.73771, 1.72087, 1.8119, 1.754, 1.7435, 1.74426, 1.76445, 1.77907, 1.83724, 1.8067, 1.80302, 1.81404, 1.82886, 1.82021, 1.82535, 1.81985, 1.84853, 1.8821, 1.98899, 1.98682, 1.94195, 1.86842, 1.85625, 1.831, 1.81959, 1.77342, 1.7725, 1.79288, 1.79295, 1.81292, 1.80884, 1.7821, 1.78013, 1.78347, 1.77435, 1.77352, 1.81952, 1.72244, 1.71434, 1.71909, 1.71179, 1.71497, 1.6847, 1.67129, 1.68613, 1.62543, 1.58562, 1.579, 1.57493, 1.58587, 1.51351, 1.44478, 1.48167, 1.36783, 1.27166, 1.27054, 1.23221, 1.19496, 1.17163, 1.17113, 1.21073, 1.21289, 1.21377, 1.21379, 1.42516, 1.19465, 1.19457, 1.19747, 1.18366, 1.16328, 1.1634, 1.1635, 1.15416, 1.1578, 1.16358, 1.15689, 1.14912, 1.14543, 1.14209, 1.13939, 1.14191, 1.14385, 1.15287, 1.13353, 1.13211, 1.13357, 1.13198, 1.12616, 1.12662, 1.1062, 1.10488, 1.12284, 1.12097, 1.12382, 1.1253, 1.09922
1.17671, 1.17244, 1.1684, 1.16905, 1.16999, 1.16801, 1.17114, 1.17363, 1.17195, 1.1714, 1.17435, 1.24299, 1.17436, 1.16406, 1.15001, 1.1497, 1.14975, 1.1496, 1.15079, 1.25078, 1.32667, 1.19362, 1.19842, 1.21303, 1.43664, 1.45544, 1.32484, 1.21232, 1.20945, 1.155, 1.16138, 1.16752, 1.18912, 1.20309, 1.23867, 1.24357, 1.2821, 1.31943, 1.35199, 1.41274, 1.39985, 1.40404, 1.49215, 1.47787, 1.48891, 1.48863, 1.5208, 1.55061, 1.57341, 1.57869, 1.61653, 1.63449, 1.71016, 1.74058, 1.77135, 1.72657, 1.76682, 1.84498, 1.75146, 1.75116, 1.75103, 1.74787, 1.77137, 1.79043, 1.81808, 1.83418, 1.83326, 1.82869, 1.82459, 1.81674, 1.81718, 1.89613, 1.98896, 1.98494, 1.85404, 1.85732, 1.85914, 1.89288, 1.84173, 1.80612, 1.77631, 1.75991, 1.79506, 1.80285, 1.87605, 1.77227, 1.76931, 1.76993, 1.77651, 1.77614, 1.74554, 1.72475, 1.71778, 1.71662, 1.7241, 1.70279, 1.68267, 1.6757, 1.67462, 1.63244, 1.60176, 1.57542, 1.55678, 1.55132, 1.47798, 1.44456, 1.48238, 1.41898, 1.26877, 1.26708, 1.21115, 1.1918, 1.15432, 1.15564, 1.15692, 1.42255, 1.21247, 1.21251, 1.21238, 1.19097, 1.1992, 1.19539, 1.16571, 1.16429, 1.17644, 1.17738, 1.1655, 1.16346, 1.16214, 1.15796, 1.15133, 1.14721, 1.13955, 1.13361, 1.14089, 1.15258, 1.15332, 1.13512, 1.13699, 1.14018, 1.1345, 1.12982, 1.12686, 1.12, 1.11908, 1.12295, 1.12202, 1.12082, 1.12186, 1.17927
1.17916, 1.17729, 1.16362, 1.16317, 1.16802, 1.16803, 1.16719, 1.17007, 1.18859, 1.1688, 1.17029, 1.18129, 1.18331, 1.15797, 1.16065, 1.17143, 1.17342, 1.17716, 1.17266, 1.17503, 1.18805, 1.19271, 1.20198, 1.21058, 1.21172, 1.36516, 1.34254, 1.14929, 1.1238, 1.1581, 1.14542, 1.19589, 1.22571, 1.2097, 1.24372, 1.25804, 1.26588, 1.29922, 1.3445, 1.38822, 1.41173, 1.42284, 1.4355, 1.48868, 1.52103, 1.57486, 1.58785, 1.54983, 1.58279, 1.59402, 1.61458, 1.76141, 1.77036, 1.72725, 1.72601, 1.73768, 1.78873, 1.77197, 1.77004, 1.76527, 1.76275, 1.74909, 1.77209, 1.78731, 1.78718, 1.82028, 1.82059, 1.82248, 1.81714, 1.81668, 1.85197, 1.80309, 2.1845, 1.81288, 1.8104, 1.80863, 1.80812, 1.85427, 1.79661, 1.81693, 1.77783, 1.78577, 1.79296, 1.78029, 1.78498, 1.78452, 1.77351, 1.77044, 1.77912, 1.88565, 1.81011, 1.74471, 1.79002, 1.71544, 1.72168, 1.69434, 1.69228, 1.69066, 1.70387, 1.65173, 1.6001, 1.57438, 1.57721, 1.48763, 1.48188, 1.43373, 1.43264, 1.41677, 1.33559, 1.24754, 1.2336, 1.18199, 1.16461, 1.13331, 1.1882, 1.20894, 1.21114, 1.21176, 1.49995, 1.19699, 1.19385, 1.26541, 1.16686, 1.17161, 1.16955, 1.16562, 1.1635, 1.16326, 1.16005, 1.15813, 1.15541, 1.23733, 1.12377, 1.12363, 1.12539, 1.15646, 1.13917, 1.1416, 1.14088, 1.14244, 1.13658, 1.13038, 1.12676, 1.12585, 1.12301, 1.12253, 1.11739, 1.11264, 1.10925, 1.10593
1.16996, 1.17173, 1.16518, 1.16244, 1.16374, 1.16362, 1.16427, 1.16189, 1.15367, 1.15667, 1.17576, 1.17898, 1.16694, 1.16652, 1.17041, 1.16985, 1.17174, 1.17299, 1.17496, 1.18262, 1.19088, 1.19802, 1.20835, 1.21508, 1.21325, 1.37745, 1.33112, 1.28985, 1.13869, 1.1506, 1.19409, 1.19155, 1.23642, 1.25393, 1.2587, 1.29473, 1.33989, 1.29181, 1.34557, 1.37118, 1.39589, 1.4475, 1.48204, 1.48489, 1.60363, 1.62086, 1.53279, 1.52819, 1.57038, 1.61087, 1.66131, 1.64959, 1.7789, 1.721, 1.78327, 1.74933, 1.78235, 1.78133, 1.78062, 1.76698, 1.76136, 1.76171, 1.78149, 1.78294, 1.80756, 1.81751, 1.82062, 1.8205, 1.81661, 1.80517, 1.80541, 1.80511, 1.80583, 1.80796, 1.78732, 1.7873, 1.80187, 1.79576, 1.80039, 1.79994, 1.83407, 1.85656, 1.79394, 1.78242, 1.78157, 1.78655, 1.80282, 1.79272, 1.77287, 1.80307, 1.73817, 1.70673, 1.69946, 1.69684, 1.67704, 1.69973, 1.69707, 1.6894, 1.6805, 1.74542, 1.65003, 1.68195, 1.55749, 1.59821, 1.47586, 1.46149, 1.42415, 1.41223, 1.35405, 1.23344, 1.22335, 1.1702, 1.17027, 1.16879, 1.233, 1.22317, 1.21562, 1.21057, 1.21035, 1.19835, 1.19879, 1.24788, 1.2573, 1.17405, 1.17237, 1.16821, 1.16676, 1.16661, 1.16351, 1.16005, 1.14306, 1.13881, 1.13521, 1.13296, 1.16779, 1.16654, 1.14492, 1.1398, 1.13881, 1.14091, 1.14382, 1.13148, 1.13127, 1.12927, 1.11905, 1.11411, 1.11464, 1.1113, 1.10701, 1.0975
1.16532, 1.16523, 1.16145, 1.15835, 1.15913, 1.16319, 1.1564, 1.15642, 1.15747, 1.15797, 1.17138, 1.17384, 1.17733, 1.1712, 1.1698, 1.17307, 1.17382, 1.17265, 1.17441, 1.18093, 1.19637, 1.19802, 1.21843, 1.21655, 1.42414, 1.2262, 1.23367, 1.21133, 1.19439, 1.17959, 1.18725, 1.19516, 1.23301, 1.25342, 1.26403, 1.2828, 1.30469, 1.35135, 1.39969, 1.41947, 1.41554, 1.48442, 1.53674, 1.60882, 1.51962, 1.55107, 1.5526, 1.5611, 1.6352, 1.61748, 1.63134, 1.65785, 1.69793, 1.71666, 1.73155, 1.75101, 1.79326, 1.78022, 1.78989, 1.77685, 1.77044, 1.77153, 1.7701, 1.79462, 1.81299, 1.79885, 1.83127, 1.92429, 1.81434, 1.79868, 1.79331, 1.79741, 1.80362, 1.80522, 1.80474, 1.77465, 1.77412, 1.78878, 1.78764, 1.86886, 1.89336, 1.94229, 2.08895, 1.82819, 1.82139, 1.79901, 1.85493, 1.75889, 1.75873, 1.75109, 1.7497, 1.79287, 1.70948, 1.70664, 1.67865, 1.67745, 1.76548, 1.65295, 1.66919, 1.6629, 1.62117, 1.64109, 1.66631, 1.57259, 1.57898, 1.53949, 1.50407, 1.42542, 1.42517, 1.26384, 1.21722, 1.18603, 1.17906, 1.22239, 1.22287, 1.39035, 1.22027, 1.20629, 1.20581, 1.20482, 1.19304, 1.19178, 1.1857, 1.18397, 1.18043, 1.17503, 1.17269, 1.17063, 1.16664, 1.1647, 1.15009, 1.14861, 1.14766, 1.14713, 1.16722, 1.16784, 1.14244, 1.13563, 1.1364, 1.13447, 1.13571, 1.13559, 1.13552, 1.13138, 1.11373, 1.11504, 1.11101, 1.10907, 1.10786, 1.1085
1.16698, 1.17054, 1.15995, 1.15988, 1.16057, 1.1712, 1.17127, 1.16815, 1.16985, 1.17123, 1.17568, 1.17688, 1.18538, 1.17792, 1.17709, 1.17652, 1.17692, 1.1763, 1.17335, 1.17826, 1.1805, 1.46008, 1.21882, 1.22036, 1.22574, 1.22615, 1.22382, 1.22418, 1.20241, 1.18371, 1.17598, 1.20226, 1.22861, 1.28513, 1.27878, 1.32123, 1.30948, 1.37711, 1.37733, 1.39833, 1.43877, 1.45027, 1.49026, 1.55631, 1.51278, 1.50767, 1.56919, 1.56862, 1.67351, 1.62305, 1.64722, 1.64036, 1.7213, 1.72586, 1.73169, 1.75911, 1.75752, 1.75381, 1.74713, 1.77316, 1.77915, 1.78672, 1.80466, 1.81781, 1.81962, 1.81676, 1.82638, 1.83048, 1.82947, 1.84499, 1.80946, 1.79581, 1.79772, 1.80908, 1.77611, 1.77561, 1.77555, 1.79699, 1.85058, 2.11483, 1.9124, 1.9685, 1.97578, 1.8768, 1.85363, 1.76608, 1.75878, 1.72725, 1.73417, 1.73436, 1.7127, 1.71341, 1.78475, 1.70935, 1.78908, 1.69747, 1.6797, 1.70265, 1.68266, 1.62113, 1.60918, 1.58872, 1.58635, 1.59172, 1.5609, 1.4983, 1.4889, 1.41325, 1.31838, 1.23789, 1.22967, 1.16468, 1.17758, 1.18303, 1.21847, 1.22188, 1.22336, 1.51142, 1.20734, 1.20359, 1.19807, 1.19319, 1.18483, 1.18453, 1.17282, 1.17004, 1.16896, 1.16814, 1.16636, 1.16424, 1.16043, 1.15759, 1.16286, 1.16853, 1.16974, 1.14926, 1.1397, 1.14313, 1.14307, 1.14313, 1.14313, 1.13955, 1.12846, 1.12346, 1.11958, 1.11586, 1.11422, 1.11213, 1.11282, 1.11928
1.16657, 1.16769, 1.16394, 1.16629, 1.17107, 1.17298, 1.1746, 1.17974, 1.18053, 1.18769, 1.17419, 1.18382, 1.17913, 1.17919, 1.18645, 1.18064, 1.18105, 1.18488, 1.18791, 1.19058, 1.18553, 1.18864, 1.37563, 1.23297, 1.2287, 1.22231, 1.21829, 1.23427, 1.16776, 1.20231, 1.19292, 1.22322, 1.22435, 1.26249, 1.2794, 1.31265, 1.31217, 1.34998, 1.38459, 1.41968, 1.44236, 1.45547, 1.50168, 1.51362, 1.51587, 1.52821, 1.52366, 1.55107, 1.67599, 1.73387, 1.66973, 1.70608, 1.75551, 1.74016, 1.79613, 1.75856, 1.7581, 1.7858, 1.76311, 1.76192, 1.78251, 1.78226, 1.86359, 1.81977, 1.81994, 1.81498, 1.81532, 1.83504, 1.83605, 1.82175, 1.82137, 1.844, 1.79872, 1.80022, 1.89262, 1.87176, 1.90123, 1.79415, 1.81392, 1.82265, 2.11304, 2.06238, 1.95271, 1.97604, 1.89229, 1.76715, 1.76453, 1.72693, 1.7257, 1.72873, 1.7582, 1.83713, 1.79301, 1.7346, 1.90519, 1.70718, 1.68552, 1.68925, 1.67199, 1.62672, 1.58245, 1.5707, 1.54699, 1.53004, 1.48531, 1.4782, 1.44332, 1.37439, 1.34718, 1.24425, 1.24656, 1.17511, 1.15886, 1.2038, 1.22191, 1.22595, 1.22273, 1.21315, 1.21238, 1.21021, 1.22231, 1.21268, 1.20957, 1.20909, 1.17746, 1.17486, 1.21525, 1.17145, 1.17122, 1.16991, 1.16673, 1.17066, 1.17008, 1.17402, 1.16892, 1.15085, 1.14819, 1.15056, 1.14957, 1.14468, 1.14251, 1.12991, 1.12447, 1.12536, 1.12165, 1.12176, 1.12094, 1.3512, 1.13049, 1.1259
1.16677, 1.16626, 1.16702, 1.16702, 1.1686, 1.17491, 1.17432, 1.18427, 1.18453, 1.1883, 1.19365, 1.19417, 1.18902, 1.18843, 1.18979, 1.1854, 1.19979, 1.19892, 1.19737, 1.19807, 1.19982, 1.38163, 1.20393, 1.23059, 1.22728, 1.22821, 1.21252, 1.22742, 1.18183, 1.17828, 1.20348, 1.22018, 1.23025, 1.2686, 1.27342, 1.29933, 1.32724, 1.36254, 1.39252, 1.41723, 1.48577, 1.48549, 1.47617, 1.50718, 1.51097, 1.56134, 1.5518, 1.63377, 1.64319, 1.69721, 1.7751, 1.77545, 1.77983, 1.82201, 1.84748, 1.79019, 1.78795, 1.82771, 1.7883, 1.79539, 1.78535, 1.78511, 1.83989, 1.88548, 1.81604, 1.81799, 1.818, 1.84332, 1.84229, 1.85153, 1.81398, 1.82971, 1.82963, 1.82485, 1.90728, 1.99931, 1.86147, 1.78141, 1.79757, 1.82135, 1.81398, 2.06211, 2.06279, 1.97718, 1.76182, 1.76805, 1.768, 1.72731, 1.72508, 1.72799, 1.73139, 1.73019, 1.74048, 1.74802, 1.70644, 1.67179, 1.68221, 1.68195, 1.67641, 1.64737, 1.58111, 1.58282, 1.53815, 1.50976, 1.48278, 1.46757, 1.47071, 1.37432, 1.36827, 1.27616, 1.21877, 1.16933, 1.17893, 1.18298, 1.43161, 1.21631, 1.21979, 1.43686, 1.21193, 1.21534, 1.21424, 1.21114, 1.25523, 1.19427, 1.19068, 1.18686, 1.186, 1.18158, 1.18381, 1.17867, 1.17195, 1.16955, 1.28452, 1.18229, 1.15552, 1.15541, 1.15416, 1.15266, 1.15593, 1.14818, 1.14104, 1.13432, 1.13071, 1.13634, 1.20794, 1.25974, 1.14159, 1.13444, 1.13148, 1.1323
1.17822, 1.16034, 1.17611, 1.17736, 1.1775, 1.17426, 1.17886, 1.18731, 1.18768, 1.18851, 1.18372, 1.18985, 1.19295, 1.19486, 1.19331, 1.18717, 1.18757, 1.20041, 1.20253, 1.2053, 1.2028, 1.20519, 1.20876, 1.43512, 1.45897, 1.21541, 1.2208, 1.19799, 1.21608, 1.19379, 1.20019, 1.20687, 1.2181, 1.24737, 1.29245, 1.34415, 1.3363, 1.33653, 1.38176, 1.42733, 1.44879, 1.46084, 1.46946, 1.49529, 1.50929, 1.56055, 1.57829, 1.64371, 1.67612, 1.67794, 1.76452, 1.72667, 1.84861, 1.83476, 1.83241, 1.84737, 1.80995, 1.81001, 1.79202, 1.79178, 1.87525, 1.83459, 1.83428, 1.82436, 1.82777, 1.82728, 1.82383, 1.82392, 1.82047, 1.80081, 1.80046, 1.81015, 1.8127, 1.8172, 1.92101, 1.82148, 1.81419, 1.80212, 1.79351, 1.7906, 1.82079, 1.76804, 1.78698, 1.77528, 1.75791, 1.76561, 1.76979, 1.82805, 1.73569, 1.72607, 1.7244, 1.73008, 1.72444, 1.81083, 1.70773, 1.70733, 1.6755, 1.67709, 1.67795, 1.66057, 1.73852, 1.57808, 1.53764, 1.48381, 1.48265, 1.53657, 1.48251, 1.3708, 1.30016, 1.27747, 1.18125, 1.19613, 1.18763, 1.19948, 1.2056, 1.20487, 1.21163, 1.20782, 1.20535, 1.20981, 1.38506, 1.26113, 1.18607, 1.1839, 1.18291, 1.18324, 1.18406, 1.18871, 1.18937, 1.18828, 1.18055, 1.18369, 1.18508, 1.18567, 1.28203, 1.16137, 1.16404, 1.16886, 1.286, 1.16468, 1.16344, 1.14617, 1.14602, 1.15156, 1.14972, 1.1447, 1.14138, 1.13716, 1.1425, 1.29201
1.17798, 1.16689, 1.17603, 1.17851, 1.18427, 1.18724, 1.18765, 1.19015, 1.19005, 1.18673, 1.18404, 1.18825, 1.1913, 1.19274, 1.19576, 1.19896, 1.19255, 1.20315, 1.20443, 1.20559, 1.21052, 1.2141, 1.43965, 1.42476, 1.37819, 1.41002, 1.41713, 1.23947, 1.18299, 1.17807, 1.21656, 1.21312, 1.24044, 1.27154, 1.28269, 1.30941, 1.32677, 1.36237, 1.37206, 1.40439, 1.4419, 1.46872, 1.4726, 1.50322, 1.56474, 1.60311, 1.66075, 1.66462, 1.65751, 1.68326, 1.69169, 1.73836, 1.76256, 1.743, 1.74293, 1.83999, 1.80994, 1.86685, 1.84243, 1.79228, 1.84261, 1.83502, 1.83712, 1.83779, 1.83124, 1.84089, 1.83753, 1.8267, 1.79789, 1.79736, 1.85132, 1.80367, 1.81133, 1.86856, 1.99571, 1.86374, 1.83477, 1.82842, 1.81138, 1.81049, 1.80393, 1.80327, 1.75208, 1.7769, 1.77679, 1.84486, 1.78868, 1.78845, 1.78785, 1.74414, 1.71298, 1.71174, 1.72571, 1.73553, 1.66229, 1.6713, 1.66602, 1.66336, 1.67342, 1.66475, 1.61307, 1.60958, 1.50278, 1.47817, 1.47379, 1.5467, 1.4176, 1.43264, 1.26772, 1.22572, 1.17813, 1.2052, 1.19491, 1.1993, 1.39194, 1.51058, 1.21059, 1.20688, 1.20499, 1.20909, 1.20992, 1.20205, 1.19087, 1.18369, 1.18453, 1.18471, 1.18567, 1.19502, 1.19882, 1.20374, 1.20958, 1.19479, 1.19414, 1.19414, 1.18893, 1.17841, 1.18227, 1.18227, 1.18387, 1.28007, 1.16558, 1.15825, 1.15094, 1.15057, 1.15067, 1.15097, 1.21686, 1.20244, 1.20806, 1.21218
1.19174, 1.17633, 1.18295, 1.18132, 1.18938, 1.19783, 1.19534, 1.19462, 1.19329, 1.19357, 1.18389, 1.18482, 1.1901, 1.19751, 1.20991, 1.20727, 1.20576, 1.2115, 1.20852, 1.21083, 1.21489, 1.21456, 1.45044, 1.41659, 1.24692, 1.45054, 1.38813, 1.19968, 1.16443, 1.19588, 1.226, 1.22856, 1.24484, 1.27228, 1.2824, 1.31847, 1.33073, 1.3675, 1.38061, 1.41014, 1.42719, 1.4709, 1.49228, 1.53766, 1.64578, 1.68947, 1.65959, 1.67279, 1.66105, 1.68288, 1.68573, 1.72267, 1.73112, 1.73954, 1.74092, 1.77353, 1.75915, 1.76001, 1.80073, 1.78859, 1.78985, 1.78919, 1.83524, 1.82385, 1.83407, 1.84058, 1.83047, 1.84452, 1.78609, 1.78556, 1.84801, 1.80653, 1.81696, 1.83169, 1.86486, 1.86488, 1.84183, 1.86631, 1.82976, 1.81625, 1.80481, 1.82, 1.78898, 1.77528, 1.77484, 1.81965, 1.81699, 1.93714, 1.93491, 1.70763, 1.70771, 1.7091, 1.74945, 1.69411, 1.66534, 1.6659, 1.65832, 1.65924, 1.67739, 1.67554, 1.62056, 1.64583, 1.54057, 1.53453, 1.45781, 1.49016, 1.47636, 1.36924, 1.27709, 1.23041, 1.20659, 1.23189, 1.23202, 1.23082, 1.58595, 1.51906, 1.55903, 1.36816, 1.52038, 1.34133, 1.41337, 1.20728, 1.19964, 1.19964, 1.20023, 1.20325, 1.20974, 1.20613, 1.20395, 1.20252, 1.20343, 1.19286, 1.19212, 1.18722, 1.18662, 1.18408, 1.18429, 1.18215, 1.17662, 1.17272, 1.17014, 1.2304, 1.22431, 1.21744, 1.21658, 1.20969, 1.22379, 1.22925, 1.22206, 1.21143
1.18336, 1.1816, 1.18586, 1.19464, 1.20454, 1.1984, 1.19798, 1.19096, 1.19161, 1.19187, 1.18738, 1.18715, 1.20724, 1.20866, 1.2094, 1.21005, 1.2101, 1.20936, 1.21194, 1.21668, 1.21699, 1.39186, 1.23738, 1.24051, 1.2407, 1.49335, 1.44138, 1.18602, 1.16521, 1.205, 1.21728, 1.24503, 1.262, 1.28348, 1.27167, 1.31763, 1.36594, 1.40884, 1.39542, 1.41106, 1.44803, 1.48582, 1.50843, 1.53987, 1.64733, 1.73754, 1.66862, 1.67027, 1.67939, 1.67837, 1.75629, 1.71622, 1.71535, 1.74026, 1.76222, 1.75327, 1.75292, 1.74938, 1.7526, 1.75199, 1.75892, 1.802, 1.82277, 1.8247, 1.82319, 1.82195, 1.79218, 1.79287, 1.78593, 1.82736, 1.84311, 1.83153, 1.8172, 1.84051, 1.84284, 1.84247, 1.84718, 1.84783, 1.81898, 1.81878, 1.81938, 1.80966, 1.79124, 1.78726, 1.79853, 1.79808, 1.8174, 1.99302, 1.81662, 1.71704, 1.71078, 1.71072, 1.71113, 1.70533, 1.82613, 1.73909, 1.65345, 1.69652, 1.60631, 1.61028, 1.55134, 1.54107, 1.51384, 1.56487, 1.51048, 1.47844, 1.47451, 1.31633, 1.26776, 1.25347, 1.22274, 1.24321, 1.23927, 1.43851, 1.46711, 1.48619, 1.53317, 1.59234, 1.53963, 1.24762, 1.2347, 1.27606, 1.26459, 1.22157, 1.29933, 1.20952, 1.20979, 1.2069, 1.2058, 1.20403, 1.20529, 1.19817, 1.19165, 1.18953, 1.18772, 1.38132, 1.24611, 1.23921, 1.40677, 1.19446, 1.19094, 1.18797, 1.18281, 1.18801, 1.36598, 1.27758, 1.22692, 1.22807, 1.22387, 1.31966
1.18448, 1.18743, 1.19433, 1.1978, 1.19954, 1.19941, 1.20107, 1.21262, 1.2085, 1.19536, 1.19662, 1.19568, 1.20469, 1.20884, 1.21056, 1.2115, 1.20985, 1.21105, 1.21161, 1.21281, 1.20904, 1.37576, 1.24045, 1.24193, 1.24096, 1.33649, 1.20504, 1.20257, 1.18513, 1.18896, 1.22725, 1.25064, 1.28508, 1.29111, 1.30251, 1.34285, 1.33751, 1.38987, 1.39257, 1.39646, 1.41674, 1.44579, 1.52737, 1.54057, 1.59325, 1.62288, 1.67143, 1.67092, 1.73342, 1.71101, 1.71506, 1.71541, 1.71536, 1.7609, 1.84465, 1.7552, 1.75634, 1.77957, 1.75223, 1.75176, 1.7589, 1.7797, 1.79432, 1.85264, 1.82286, 1.84525, 1.80753, 1.82226, 1.83793, 1.83563, 1.84459, 1.85495, 1.8591, 1.8487, 1.84428, 1.84125, 1.8475, 1.84584, 1.8374, 1.82696, 1.82416, 1.81802, 1.80074, 1.79733, 1.79644, 1.85447, 1.87274, 1.77049, 1.71385, 1.70638, 1.71742, 1.77305, 1.71085, 1.77797, 1.82756, 1.7321, 1.66478, 1.61258, 1.59112, 1.56472, 1.55758, 1.50967, 1.50332, 1.45884, 1.46393, 1.48588, 1.47391, 1.33532, 1.28441, 1.20697, 1.23648, 1.27953, 1.29497, 1.26561, 1.264, 1.26171, 1.26003, 1.25793, 1.25411, 1.24856, 1.24295, 1.23909, 1.2322, 1.22359, 1.2221, 1.21298, 1.20788, 1.20289, 1.19965, 1.20091, 1.19502, 1.19772, 1.19652, 1.20145, 1.3503, 1.20644, 1.20307, 1.20247, 1.20308, 1.20563, 1.21629, 1.21524, 1.2638, 1.21103, 1.22545, 1.22228, 1.22663, 1.21999, 1.21538, 1.21136
1.19419, 1.19417, 1.19791, 1.19781, 1.19446, 1.20293, 1.21679, 1.21324, 1.20867, 1.20164, 1.20268, 1.20472, 1.19917, 1.20289, 1.21415, 1.2167, 1.21627, 1.20465, 1.20514, 1.20788, 1.21192, 1.31595, 1.31404, 1.24662, 1.46464, 1.48098, 1.21914, 1.17952, 1.18095, 1.18816, 1.19461, 1.2315, 1.25082, 1.27119, 1.27988, 1.30222, 1.34092, 1.37339, 1.38124, 1.39522, 1.41369, 1.46774, 1.50626, 1.52746, 1.55798, 1.59822, 1.60767, 1.6307, 1.69595, 1.71416, 1.72156, 1.71398, 1.78698, 1.88335, 1.78888, 1.78946, 1.75573, 1.76865, 1.76514, 1.77099, 1.76871, 1.79716, 1.89274, 1.84641, 1.87161, 1.8141, 1.81841, 1.81962, 1.8719, 1.86326, 1.86198, 1.85255, 1.85447, 1.87101, 1.87068, 1.8375, 1.83243, 1.82256, 1.81983, 1.80967, 1.82693, 1.8101, 1.82822, 1.80013, 1.84018, 1.74916, 1.72189, 1.71047, 1.71138, 1.71343, 1.67862, 1.78666, 1.77618, 1.71618, 1.67591, 1.65248, 1.61647, 1.61446, 1.61712, 1.5718, 1.56113, 1.56546, 1.49358, 1.4611, 1.48012, 1.44813, 1.42964, 1.29557, 1.22565, 1.21293, 1.24003, 1.27953, 1.42318, 1.49696, 1.49013, 1.49336, 1.40248, 1.25337, 1.45593, 1.45382, 1.43804, 1.2378, 1.23081, 1.30467, 1.22365, 1.27145, 1.6413, 1.30965, 1.28827, 1.29863, 1.2184, 1.35462, 1.29232, 1.31377, 1.32857, 1.2437, 1.23263, 1.23654, 1.22604, 1.23845, 1.22744, 1.23614, 1.23196, 1.22228, 1.21993, 1.22117, 1.22248, 1.21219, 1.26414, 1.33704
1.20094, 1.19786, 1.20496, 1.19913, 1.19946, 1.20618, 1.20989, 1.21181, 1.21546, 1.20512, 1.2049, 1.20696, 1.20849, 1.20533, 1.20844, 1.21849, 1.21652, 1.20616, 1.20642, 1.20898, 1.21892, 1.36829, 1.30453, 1.24263, 1.47887, 1.58591, 1.53473, 1.22242, 1.19907, 1.20274, 1.22092, 1.24503, 1.23692, 1.24722, 1.28386, 1.30258, 1.35242, 1.35368, 1.36888, 1.39509, 1.42347, 1.47898, 1.50559, 1.52762, 1.5348, 1.56225, 1.59799, 1.63009, 1.67983, 1.68598, 1.7105, 1.82157, 1.83725, 1.84582, 1.78335, 1.75107, 1.75122, 1.76512, 1.76214, 1.76109, 1.76224, 1.78952, 1.92096, 1.84665, 1.81469, 1.81404, 1.81318, 1.84425, 1.84836, 1.85044, 1.84635, 1.85192, 1.86837, 1.86576, 1.86898, 1.85232, 1.83244, 1.83469, 1.80986, 1.80944, 1.7916, 1.80664, 1.76126, 1.77242, 1.76878, 1.74241, 1.77816, 1.78606, 1.72541, 1.68103, 1.69923, 1.6785, 1.6847, 1.63696, 1.72067, 1.71809, 1.63046, 1.6046, 1.6064, 1.58602, 1.6047, 1.57795, 1.52835, 1.49392, 1.47902, 1.44088, 1.3819, 1.27393, 1.24447, 1.22868, 1.24383, 1.25621, 1.29721, 1.44885, 1.29162, 1.49916, 1.42203, 1.51641, 1.43491, 1.4204, 1.42011, 1.79554, 1.79158, 1.40754, 1.40929, 1.40497, 1.38799, 1.38783, 1.24083, 1.71347, 1.34772, 1.33582, 1.75781, 1.39649, 1.36881, 1.25814, 1.25429, 1.24368, 1.24385, 1.24474, 1.23665, 1.23955, 1.23257, 1.2254, 1.21954, 1.21264, 1.20827, 1.20145, 1.26794, 1.17966
1.20478, 1.20867, 1.20819, 1.20535, 1.20736, 1.20811, 1.21504, 1.21817, 1.22004, 1.21373, 1.20429, 1.20673, 1.20996, 1.22866, 1.21524, 1.22591, 1.22583, 1.22749, 1.21912, 1.23764, 1.23363, 1.34438, 1.24584, 1.24659, 1.24662, 1.50627, 1.24178, 1.24091, 1.21229, 1.20091, 1.20728, 1.24661, 1.24352, 1.27954, 1.27882, 1.29582, 1.33934, 1.38531, 1.38581, 1.43727, 1.44824, 1.47407, 1.48211, 1.49605, 1.51972, 1.55494, 1.53668, 1.65876, 1.61689, 1.68884, 1.77968, 1.75987, 1.80452, 1.78764, 1.78702, 1.77786, 1.74557, 1.79538, 1.7653, 1.79914, 1.79448, 1.77734, 1.80736, 1.91442, 1.84537, 1.81377, 1.83108, 1.84188, 1.86559, 1.85083, 1.85076, 1.84629, 1.84764, 1.87183, 1.86979, 1.86208, 1.86191, 1.83722, 1.83558, 1.80117, 1.7997, 1.74217, 1.73807, 1.7447, 1.75816, 1.74755, 1.83218, 1.85408, 1.75822, 1.6872, 1.67519, 1.67628, 1.65155, 1.63078, 1.61034, 1.59012, 1.5898, 1.60477, 1.71223, 1.59128, 1.58938, 1.62133, 1.58466, 1.55388, 1.55264, 1.44743, 1.39529, 1.28106, 1.22701, 1.22948, 1.26494, 1.5022, 1.29783, 1.46449, 1.31077, 1.69331, 1.48531, 1.35385, 1.39249, 1.46705, 1.41612, 1.42799, 1.29128, 1.29131, 1.31735, 1.36185, 1.26712, 1.35534, 1.31943, 1.32482, 1.32721, 1.28655, 1.28183, 1.2735, 1.26695, 1.26212, 1.25451, 1.25247, 1.24822, 1.2472, 1.23625, 1.23629, 1.23432, 1.22754, 1.22019, 1.20541, 1.20353, 1.1947, 1.18441, 1.17721
1.20952, 1.20793, 1.20475, 1.20254, 1.20202, 1.20662, 1.20696, 1.22186, 1.22159, 1.21695, 1.21367, 1.21581, 1.21882, 1.23211, 1.22917, 1.237, 1.23512, 1.23418, 1.2333, 1.24016, 1.24135, 1.24661, 1.24466, 1.24417, 1.43425, 1.41549, 1.38583, 1.45159, 1.2546, 1.21774, 1.21242, 1.25051, 1.30946, 1.30733, 1.31001, 1.35411, 1.35263, 1.37796, 1.39224, 1.42704, 1.51892, 1.52154, 1.48183, 1.48619, 1.52657, 1.5329, 1.52747, 1.60288, 1.63283, 1.65153, 1.75455, 1.73743, 1.85791, 1.85567, 1.78986, 1.76573, 1.74667, 1.74653, 1.86874, 1.816, 1.99648, 1.77734, 1.77845, 1.90617, 1.82582, 1.82638, 1.82416, 1.83181, 1.85109, 1.85902, 1.86179, 1.96332, 1.89992, 1.89881, 1.89733, 2.06655, 2.08364, 1.84546, 1.86615, 1.99908, 2.00211, 1.77423, 1.72504, 1.75889, 1.79157, 1.76279, 1.76165, 1.7522, 1.70908, 1.70231, 1.66117, 1.66046, 1.65424, 1.6538, 1.62388, 1.59558, 1.58872, 1.58815, 1.58649, 1.5861, 1.60036, 1.64369, 1.57956, 1.49244, 1.49791, 1.42751, 1.34729, 1.27413, 1.25328, 1.40297, 1.42347, 1.66539, 1.42248, 1.51962, 1.51403, 1.45859, 1.52308, 1.50914, 1.3201, 1.32084, 1.47522, 1.42639, 1.31037, 1.31249, 1.30507, 1.30584, 1.28317, 1.28811, 1.27433, 1.28843, 1.28771, 1.28467, 1.27453, 1.26625, 1.26368, 1.26067, 1.24618, 1.25181, 1.2485, 1.24439, 1.24068, 1.23887, 1.23425, 1.22219, 1.22127, 1.20688, 1.19447, 1.18776, 1.18534, 1.18061
1.2076, 1.20996, 1.20373, 1.20251, 1.20079, 1.20141, 1.2085, 1.21763, 1.21727, 1.21505, 1.21505, 1.21668, 1.21062, 1.20914, 1.35394, 1.22831, 1.23341, 1.23355, 1.2355, 1.24172, 1.24681, 1.25732, 1.25525, 1.4167, 1.27521, 1.27325, 1.27171, 1.27002, 1.21635, 1.21769, 1.20867, 1.24696, 1.34519, 1.35664, 1.30256, 1.31605, 1.35613, 1.38366, 1.37928, 1.431, 1.48994, 1.49149, 1.49158, 1.5156, 1.52423, 1.52388, 1.5756, 1.63921, 1.70443, 1.65927, 1.67488, 1.73948, 1.74632, 1.83157, 1.85233, 1.76299, 1.74471, 1.79616, 1.81137, 1.81392, 1.79771, 1.78328, 1.78061, 1.79468, 1.80331, 1.8001, 1.79441, 1.8391, 1.87144, 1.86153, 1.84896, 1.93726, 1.91445, 1.93856, 1.89807, 1.88244, 1.88216, 1.7978, 1.79746, 1.84905, 1.79739, 1.76426, 1.76597, 1.73061, 1.74461, 1.74113, 1.74123, 1.7413, 1.72622, 1.71318, 1.6972, 1.71711, 1.71156, 1.7014, 1.61304, 1.58691, 1.5831, 1.58652, 1.58618, 1.58425, 1.56431, 1.61827, 1.47949, 1.49557, 1.47722, 1.43331, 1.43271, 1.32295, 1.32644, 1.37479, 1.38182, 1.39467, 1.39259, 1.56907, 1.65482, 1.34411, 1.34462, 1.34069, 1.33896, 1.33378, 1.3325, 1.32817, 1.3288, 1.32468, 1.3121, 1.31058, 1.29926, 1.28758, 1.27553, 1.29152, 1.2877, 1.27696, 1.27171, 1.26384, 1.25957, 1.24982, 1.24726, 1.24502, 1.24393, 1.2382, 1.23615, 1.23947, 1.22675, 1.21974, 1.20987, 1.20118, 1.1908, 1.19053, 1.18519, 1.17051
1.29133, 1.21332, 1.21135, 1.21283, 1.20532, 1.21306, 1.2125, 1.21216, 1.21848, 1.21379, 1.21427, 1.20838, 1.21321, 1.2088, 1.20872, 1.22993, 1.23263, 1.23252, 1.23719, 1.24379, 1.24983, 1.26045, 1.26174, 1.28022, 1.48247, 1.45791, 1.54307, 1.42268, 1.21972, 1.20483, 1.23009, 1.28232, 1.31158, 1.3084, 1.29562, 1.31727, 1.31478, 1.35021, 1.385, 1.42452, 1.48899, 1.51081, 1.71718, 1.57148, 1.60137, 1.62791, 1.68214, 1.68731, 1.68731, 1.69235, 1.68534, 1.82529, 1.83428, 1.81016, 1.75798, 1.8662, 1.81845, 1.81765, 1.81227, 1.81171, 1.79612, 1.78757, 1.7921, 1.79658, 1.78561, 1.7861, 1.79888, 1.83122, 1.82022, 1.81828, 1.81627, 1.82107, 1.84682, 1.908, 1.874, 1.88277, 1.90082, 1.8908, 1.90041, 1.78181, 1.8759, 1.84808, 1.82866, 1.74295, 1.71656, 1.72302, 1.72052, 1.71908, 1.72222, 1.72207, 1.70137, 1.70401, 1.64919, 1.65504, 1.61997, 1.58763, 1.57825, 1.57847, 1.60594, 1.58178, 1.57549, 1.58088, 1.48541, 1.46489, 1.3996, 1.39618, 1.41281, 1.34428, 1.31588, 1.37443, 1.37773, 1.37478, 1.38517, 1.31943, 1.3185, 1.3493, 1.34822, 1.34431, 1.33963, 1.33243, 1.33267, 1.32292, 1.32324, 1.31616, 1.30859, 1.30585, 1.29668, 1.29257, 1.28801, 1.28414, 1.28019, 1.27304, 1.26696, 1.2557, 1.24737, 1.24634, 1.24516, 1.24443, 1.23606, 1.23684, 1.23536, 1.23276, 1.2301, 1.21971, 1.20621, 1.20409, 1.19744, 1.18954, 1.18738, 1.17805
1.21547, 1.21755, 1.21688, 1.21326, 1.2096, 1.20886, 1.20887, 1.20816, 1.21177, 1.21489, 1.21394, 1.21296, 1.2123, 1.21841, 1.21753, 1.25065, 1.24427, 1.24474, 1.24672, 1.2578, 1.25837, 1.37575, 1.36227, 1.28934, 1.30213, 1.29881, 1.29793, 1.29792, 1.24026, 1.2118, 1.23736, 1.25774, 1.24282, 1.27602, 1.29732, 1.31056, 1.33549, 1.33061, 1.36601, 1.41625, 1.4768, 1.57337, 1.61634, 1.59935, 1.64441, 1.63424, 1.65602, 1.68954, 1.66907, 1.68654, 1.68497, 1.71773, 1.73457, 1.80625, 1.73434, 1.74825, 1.74744, 1.77522, 1.91751, 1.79594, 1.7865, 1.76669, 1.76464, 1.81736, 1.79782, 1.79609, 1.81678, 1.81638, 1.81655, 1.81684, 1.82316, 1.8231, 1.79695, 1.79669, 1.79634, 1.79722, 1.77744, 1.77803, 1.76786, 1.76956, 1.77539, 1.77545, 0.00424924, 1.7443, 1.73836, 1.72185, 1.72278, 1.72132, 1.72064, 1.78232, 1.72079, 1.67286, 1.67935, 1.65861, 1.6619, 1.57788, 1.57876, 1.58087, 1.58268, 1.55056, 1.54119, 1.50184, 1.46849, 1.4615, 1.40519, 1.42376, 1.32992, 1.32886, 1.40631, 1.31589, 1.37107, 1.36844, 1.35203, 1.35274, 1.33304, 1.34834, 1.34702, 1.3403, 1.32952, 1.32898, 1.3226, 1.31876, 1.31453, 1.30627, 1.29701, 1.29339, 1.28871, 1.28955, 1.28185, 1.27792, 1.2719, 1.26764, 1.25542, 1.24761, 1.24398, 1.24275, 1.23889, 1.2396, 1.22904, 1.22923, 1.23281, 1.23236, 1.23195, 1.22993, 1.21679, 1.20919, 1.20162, 1.19727, 1.19686, 1.19353
1.21497, 1.21463, 1.21322, 1.21168, 1.21078, 1.20987, 1.21042, 1.21282, 1.21235, 1.20804, 1.20809, 1.21674, 1.22253, 1.22174, 1.2216, 1.24283, 1.24758, 1.24924, 1.25249, 1.25727, 1.27326, 1.28175, 1.2809, 1.45041, 1.2991, 1.30035, 1.53669, 1.29516, 1.2926, 1.23129, 1.20988, 1.24102, 1.26818, 1.27294, 1.27525, 1.30752, 1.33329, 1.33554, 1.34746, 1.48161, 1.4741, 1.54945, 1.61728, 1.59735, 1.59758, 1.68191, 1.62391, 1.63609, 1.64791, 1.65945, 1.68021, 1.68613, 1.69287, 1.78579, 1.72046, 1.71669, 1.76199, 1.79743, 1.80931, 1.7828, 1.71984, 1.72195, 1.77188, 1.79115, 1.83075, 1.79967, 1.81089, 1.80936, 1.79448, 1.79372, 1.86035, 1.8492, 1.86321, 1.79437, 1.80379, 1.74769, 1.75961, 1.83003, 1.78494, 1.7992, 1.7703, 1.7724, 1.74533, 1.74212, 1.74832, 1.73453, 1.68699, 1.67632, 1.69669, 1.70979, 1.64736, 1.64399, 1.62643, 1.63432, 1.66223, 1.62566, 1.58002, 1.57795, 1.58377, 1.55246, 1.52875, 1.50651, 1.47079, 1.45053, 1.37741, 1.41574, 1.31826, 1.30201, 1.40876, 1.40844, 1.38019, 1.45286, 1.35014, 1.33185, 1.33005, 1.34154, 1.34318, 1.41894, 1.41645, 1.323, 1.3204, 1.30966, 1.30616, 1.30429, 1.29212, 1.28523, 1.28139, 1.28112, 1.27395, 1.27047, 1.27043, 1.26665, 1.25632, 1.24636, 1.24295, 1.2418, 1.23997, 1.23979, 1.23169, 1.23519, 1.23805, 1.23687, 1.23752, 1.23086, 1.22056, 1.21597, 1.20703, 1.20533, 1.20658, 1.20481
1.21567, 1.21543, 1.22222, 1.21836, 1.218, 1.21277, 1.21954, 1.21898, 1.21641, 1.30892, 1.22201, 1.23193, 1.23594, 1.23581, 1.23157, 1.25047, 1.25764, 1.25637, 1.2607, 1.26842, 1.27464, 1.28283, 1.29141, 1.29513, 1.305, 1.30733, 1.29951, 1.30198, 1.31315, 1.32064, 1.25668, 1.25889, 1.27546, 1.25607, 1.26238, 1.29515, 1.33168, 1.35454, 1.37516, 1.43591, 1.45758, 1.52412, 1.54105, 1.58214, 1.61666, 1.62227, 1.63367, 1.67951, 1.64128, 1.728, 1.67323, 1.67633, 1.67161, 1.68275, 1.70975, 1.70775, 1.75227, 1.8165, 1.74517, 1.74532, 1.73081, 1.77202, 1.77171, 1.77265, 1.79892, 1.79914, 1.87204, 1.83755, 1.81719, 1.79338, 1.78874, 1.82669, 1.79579, 1.77418, 1.75061, 1.77143, 1.77088, 1.7822, 1.82161, 1.80084, 1.83578, 1.77753, 1.74375, 1.74211, 1.7218, 1.67616, 1.6685, 1.67122, 1.65178, 1.65155, 1.66057, 1.61978, 1.62036, 1.62176, 1.59344, 1.59509, 1.58894, 1.58835, 1.57148, 1.57059, 1.5614, 1.54419, 1.45927, 1.44389, 1.37254, 1.32783, 1.30295, 1.32426, 1.31325, 1.32036, 1.4877, 1.34321, 1.34784, 1.33622, 1.57894, 1.33625, 1.35016, 1.34489, 1.34929, 1.30687, 1.30868, 1.30088, 1.2989, 1.29435, 1.28451, 1.2765, 1.27497, 1.27421, 1.27422, 1.27544, 1.26843, 1.26876, 1.25274, 1.24689, 1.24291, 1.24121, 1.24291, 1.23958, 1.2465, 1.2448, 1.24307, 1.23866, 1.23475, 1.23185, 1.23019, 1.21985, 1.21944, 1.21877, 1.21546, 1.21177
1.22923, 1.22954, 1.22892, 1.22745, 1.22799, 1.2224, 1.22284, 1.23092, 1.23199, 1.23004, 1.23312, 1.23684, 1.24252, 1.24334, 1.37785, 1.25079, 1.26133, 1.26116, 1.2707, 1.27397, 1.28108, 1.28497, 1.29126, 1.29239, 1.29706, 1.29744, 1.29819, 1.29825, 1.29778, 1.2814, 1.24234, 1.26334, 1.26121, 1.27861, 1.2844, 1.30347, 1.34032, 1.34039, 1.42171, 1.42586, 1.44044, 1.50181, 1.51806, 1.59982, 1.58666, 1.61949, 1.61865, 1.68302, 1.68213, 1.63169, 1.74584, 1.67518, 1.67253, 1.72309, 1.67407, 1.70269, 1.7203, 1.73438, 1.71313, 1.74516, 1.75664, 1.76168, 1.7737, 1.80625, 1.79961, 1.81471, 1.75774, 1.78578, 1.78697, 1.78321, 1.76829, 1.78533, 1.78642, 1.76932, 1.74466, 1.75806, 1.74643, 1.75052, 1.81681, 1.78545, 1.78221, 1.75819, 1.75615, 1.79924, 1.71821, 1.66144, 1.66005, 1.65795, 1.65924, 1.63918, 1.62347, 1.62336, 1.62473, 1.58844, 1.58975, 1.58965, 1.59227, 1.59119, 1.56742, 1.56666, 1.56453, 1.53853, 1.43292, 1.39554, 1.33423, 1.30647, 1.3059, 1.31644, 1.32786, 1.32554, 1.46726, 1.51236, 1.34094, 1.33582, 1.32949, 1.32658, 1.4063, 1.26887, 1.27113, 1.29367, 1.28894, 1.28605, 1.2965, 1.28942, 1.27837, 1.27625, 1.27687, 1.27854, 1.28169, 1.28269, 1.27979, 1.27369, 1.26272, 1.25024, 1.24327, 1.24364, 1.24453, 1.41741, 1.25091, 1.2525, 1.24806, 1.24651, 1.23778, 1.23415, 1.23227, 1.22471, 1.22825, 1.22825, 1.21976, 1.21787
1.22709, 1.22811, 1.23135, 1.23175, 1.23057, 1.2259, 1.22782, 1.23765, 1.23605, 1.23925, 1.24021, 1.24318, 1.2603, 1.37048, 1.38177, 1.37244, 1.28302, 1.2862, 1.28617, 1.36355, 1.2992, 1.30172, 1.40396, 1.33933, 1.30316, 1.29957, 1.49418, 1.29815, 1.50612, 1.47161, 1.48562, 1.26942, 1.24726, 1.26505, 1.26749, 1.29117, 1.33327, 1.38953, 1.40917, 1.40639, 1.43382, 1.43327, 1.49903, 1.60012, 1.60061, 1.70645, 1.69622, 1.6958, 1.65048, 1.79055, 1.78545, 1.8517, 1.67076, 1.68023, 1.68873, 1.68445, 1.70101, 1.704, 1.70418, 1.70504, 1.71932, 1.80281, 1.76095, 1.7976, 1.76322, 1.76461, 1.7654, 1.76049, 1.72053, 1.75916, 1.75166, 1.76561, 1.75906, 1.75801, 1.78563, 1.74963, 1.72383, 1.72401, 1.75501, 1.87583, 1.76199, 1.7589, 1.758, 1.87163, 1.72329, 1.67819, 1.67943, 1.65351, 1.63984, 1.60701, 1.58932, 1.588, 1.59174, 1.59319, 1.59189, 1.58635, 1.58571, 1.62296, 1.56198, 1.58703, 1.47171, 1.45983, 1.43965, 1.43695, 1.34192, 1.33971, 1.34431, 1.33951, 1.33118, 1.32901, 1.32551, 1.5153, 1.34766, 1.33645, 1.333, 1.31604, 1.42872, 1.26933, 1.41729, 1.3007, 1.29604, 1.29548, 1.29434, 1.29552, 1.28802, 1.27933, 1.28402, 1.28267, 1.35065, 1.45036, 1.4443, 1.42743, 1.30703, 1.25516, 1.25379, 1.25689, 1.25868, 1.27038, 1.2692, 1.27047, 1.2612, 1.26372, 1.26118, 1.2589, 1.24926, 1.24179, 1.22783, 1.22452, 1.22196, 1.22197
1.23345, 1.23233, 1.24079, 1.24171, 1.23503, 1.23201, 1.23193, 1.24204, 1.2423, 1.24085, 1.24953, 1.25807, 1.26264, 1.26942, 1.28448, 1.28364, 1.2895, 1.28825, 1.30809, 1.46773, 1.30687, 1.30698, 1.30721, 1.42755, 1.31335, 1.38623, 1.32016, 1.48755, 1.67698, 1.58559, 1.51025, 1.70391, 1.29334, 1.25853, 1.25782, 1.29137, 1.3063, 1.32954, 1.41465, 1.38413, 1.41479, 1.41273, 1.43907, 1.56247, 1.58205, 1.60745, 1.60719, 1.63998, 1.70201, 1.7028, 1.70525, 1.80422, 1.69279, 1.66246, 1.68627, 1.70401, 1.71167, 1.69752, 1.70787, 1.70703, 1.77796, 1.70624, 1.70552, 1.76409, 1.76407, 1.76349, 1.74056, 1.74436, 1.71103, 1.75004, 1.74534, 1.77227, 1.79321, 1.78534, 1.84918, 1.82688, 1.7266, 1.73377, 1.75161, 1.72658, 1.74522, 1.76656, 1.82353, 1.72755, 1.78135, 1.64467, 1.64471, 1.63399, 1.63467, 1.61688, 1.59754, 1.62863, 1.58841, 1.59261, 1.60336, 1.59009, 1.59626, 1.59572, 1.60678, 1.50988, 1.47464, 1.43103, 1.39007, 1.36699, 1.33726, 1.33353, 1.34576, 1.34498, 1.32836, 1.33342, 1.44749, 1.35315, 1.35132, 1.41075, 1.50934, 1.29596, 1.28315, 1.4265, 1.30774, 1.30143, 1.29733, 1.29614, 1.29489, 1.2924, 1.28906, 1.29565, 1.30037, 1.31847, 1.30975, 1.30208, 1.29859, 1.30533, 1.28618, 1.29017, 1.26587, 1.26239, 1.26629, 1.27016, 1.27133, 1.27304, 1.27396, 1.25829, 1.25584, 1.25513, 1.24495, 1.24056, 1.23013, 1.22645, 1.22357, 1.26395
1.25339, 1.24504, 1.24471, 1.24691, 1.2429, 1.24426, 1.24437, 1.2458, 1.24636, 1.25083, 1.25084, 1.26575, 1.26834, 1.32805, 1.30914, 1.30894, 1.30933, 1.31238, 1.3124, 1.31757, 1.31966, 1.32145, 1.32271, 1.32341, 1.32407, 1.3259, 1.32554, 1.3261, 1.32717, 1.49683, 1.49982, 1.50022, 1.31128, 1.26899, 1.27189, 1.28049, 1.31245, 1.33374, 1.33454, 1.3786, 1.38841, 1.411, 1.59666, 1.54562, 1.66313, 1.62962, 1.67123, 1.67254, 1.70612, 1.69359, 1.70646, 1.68878, 1.68905, 1.70224, 1.69782, 1.72786, 1.73872, 1.70229, 1.70019, 1.70399, 1.72792, 1.78366, 1.78329, 1.73095, 1.74678, 1.81671, 1.75185, 1.73398, 1.74472, 1.73425, 1.74497, 1.78186, 1.87982, 1.79019, 1.78354, 1.82726, 1.82577, 1.72136, 1.72037, 1.72715, 1.7259, 1.71868, 1.70946, 1.70115, 1.75633, 1.64417, 1.64809, 1.64731, 1.66168, 1.62358, 1.61479, 1.62072, 1.72466, 1.61196, 1.57201, 1.57679, 1.56105, 1.52595, 1.55144, 1.52255, 1.48246, 1.39209, 1.35439, 1.3364, 1.34628, 1.3637, 1.34986, 1.35632, 1.48106, 1.34859, 1.34913, 1.34979, 1.48786, 1.32609, 1.31024, 1.29477, 1.30339, 1.31226, 1.31505, 1.30779, 1.30654, 1.30703, 1.28894, 1.28887, 1.30312, 1.3058, 1.30536, 1.31403, 1.30281, 1.30103, 1.30091, 1.27612, 1.27502, 1.28968, 1.27969, 1.27551, 1.27254, 1.26421, 1.26153, 1.26168, 1.25417, 1.25327, 1.25289, 1.257, 1.25021, 1.25004, 1.24207, 1.23684, 1.23765, 1.23267
1.38167, 1.37528, 1.25758, 1.37395, 1.38777, 1.35749, 1.3921, 1.25846, 1.25242, 1.4103, 1.27174, 1.27387, 1.28506, 1.28607, 1.28676, 1.42579, 1.40276, 1.41313, 1.31303, 1.31356, 1.31818, 1.31934, 1.32257, 1.32223, 1.32956, 1.32695, 1.32636, 1.32608, 1.32699, 1.32938, 1.49661, 1.34273, 1.34412, 1.29549, 1.31397, 1.30661, 1.3135, 1.31951, 1.32011, 1.35579, 1.37902, 1.42184, 1.60013, 1.56952, 1.57536, 1.61627, 1.64427, 1.79906, 1.85574, 1.66109, 1.66008, 1.68958, 1.68925, 1.70747, 1.73086, 1.79317, 1.73949, 1.7863, 1.72854, 1.72015, 1.67176, 1.67144, 1.68296, 1.71469, 1.73191, 1.78882, 1.71965, 1.71886, 1.71999, 1.75864, 1.74973, 1.84624, 1.79398, 1.79848, 1.84995, 1.77189, 1.78587, 1.72193, 1.7243, 1.74024, 1.71634, 1.71375, 1.6966, 1.69182, 1.68186, 1.6802, 1.64835, 1.64745, 1.62488, 1.62317, 1.63773, 1.65802, 1.65828, 1.68568, 1.59613, 1.57085, 1.52682, 1.48215, 1.47866, 1.49688, 1.39826, 1.38447, 1.32815, 1.34699, 1.34518, 1.35421, 1.35904, 1.35786, 1.35345, 1.34974, 1.34476, 1.3446, 1.33671, 1.33287, 1.30165, 1.2998, 1.30847, 1.30678, 1.30825, 1.30595, 1.30608, 1.30014, 1.29454, 1.29254, 1.2913, 1.29383, 1.29176, 1.29166, 1.40186, 1.39621, 1.28114, 1.27435, 1.26794, 1.26949, 1.27269, 1.27219, 1.35733, 1.25287, 1.25415, 1.25345, 1.25336, 1.2535, 1.25393, 1.25515, 1.25199, 1.26445, 1.26239, 1.25547, 1.25716, 1.25834
1.2855, 1.27902, 1.27016, 1.27029, 1.27056, 1.26786, 1.27679, 1.26737, 1.26714, 1.26786, 1.27031, 1.27325, 1.27926, 1.28776, 1.28585, 1.28654, 1.2852, 1.28513, 1.43947, 1.30851, 1.31038, 1.32937, 1.3289, 1.32966, 1.33079, 1.33151, 1.332, 1.32799, 1.32975, 1.52267, 1.33284, 1.33357, 1.32711, 1.29592, 1.2969, 1.30841, 1.31877, 1.33452, 1.33655, 1.3604, 1.38556, 1.43293, 1.4442, 1.4858, 1.60858, 1.60654, 1.63391, 1.64605, 1.64395, 1.67503, 1.65806, 1.6724, 1.69208, 1.70291, 1.78215, 1.7718, 1.74088, 1.76647, 1.73146, 1.72828, 1.7143, 1.67464, 1.6746, 1.7016, 1.72198, 1.72102, 1.74812, 1.75757, 1.76311, 2.00798, 1.75065, 1.75432, 1.78214, 1.84833, 1.78751, 1.77113, 1.73416, 1.73351, 1.71718, 1.7177, 1.71935, 1.7067, 1.69996, 1.68025, 1.68165, 1.67581, 1.66505, 1.64482, 1.62082, 1.61718, 1.64123, 1.6579, 1.65823, 1.68243, 1.55225, 1.53422, 1.48484, 1.47459, 1.47477, 1.40733, 1.41368, 1.34835, 1.34835, 1.37183, 1.35744, 1.36034, 1.36127, 1.36071, 1.35712, 1.35418, 1.34192, 1.34129, 1.33344, 1.33227, 1.32586, 1.31175, 1.30839, 1.30536, 1.29682, 1.30438, 1.30347, 1.30199, 1.29486, 1.2859, 1.2896, 1.29128, 1.2878, 1.28468, 1.28208, 1.27824, 1.27079, 1.26982, 1.26433, 1.26074, 1.26034, 1.26245, 1.24728, 1.24815, 1.25016, 1.25325, 1.25418, 1.26001, 1.2582, 1.26011, 1.25503, 1.25735, 1.26307, 1.25542, 1.24867, 1.25672
1.39604, 1.2811, 1.27544, 1.26442, 1.26676, 1.26831, 1.26871, 1.26904, 1.26921, 1.27112, 1.27452, 1.27798, 1.28155, 1.38825, 1.30329, 1.29976, 1.30461, 1.30469, 1.30859, 1.30693, 1.30996, 1.31531, 1.32272, 1.32584, 1.33385, 1.34049, 1.3409, 1.34501, 1.34402, 1.34324, 1.49881, 1.35364, 1.61117, 1.30304, 1.36968, 1.29193, 1.33282, 1.43256, 1.33359, 1.34679, 1.34583, 1.42144, 1.43308, 1.45561, 1.52636, 1.58675, 1.67251, 1.65043, 1.65028, 1.64531, 1.63485, 1.63413, 1.65384, 1.67017, 1.78199, 1.77004, 1.73266, 1.71579, 1.70592, 1.7053, 1.67887, 1.67349, 1.70009, 1.71942, 1.7907, 1.74192, 1.74099, 1.74979, 1.76897, 1.77395, 1.77366, 1.76211, 1.7765, 1.79552, 1.79593, 1.81303, 1.7578, 1.72776, 1.70463, 1.70743, 1.70025, 1.70696, 1.81359, 1.74633, 1.70624, 1.74354, 1.65809, 1.62899, 1.61327, 1.64223, 1.65421, 1.66112, 1.66075, 1.64145, 1.5098, 1.56636, 1.46591, 1.44736, 1.47184, 1.39236, 1.36628, 1.36027, 1.35817, 1.37048, 1.36312, 1.36541, 1.36515, 1.36006, 1.35603, 1.34903, 1.34842, 1.3432, 1.33453, 1.32727, 1.32236, 1.31761, 1.3136, 1.30997, 1.299, 1.29526, 1.30497, 1.30649, 1.30641, 1.40655, 1.29992, 1.29202, 1.29093, 1.28563, 1.28467, 1.28027, 1.27472, 1.27331, 1.26565, 1.26654, 1.26209, 1.26079, 1.32707, 1.34786, 1.26637, 1.2638, 1.27129, 1.2708, 1.26798, 1.26688, 1.26044, 1.26143, 1.25685, 1.25358, 1.25404, 1.25298
1.2775, 1.27407, 1.27505, 1.26513, 1.26962, 1.27066, 1.27731, 1.28428, 1.28557, 1.28789, 1.27972, 1.28365, 1.29308, 1.29566, 1.30392, 1.30316, 1.30834, 1.3059, 1.31292, 1.49361, 1.32031, 1.31958, 1.32142, 1.32358, 1.32659, 1.3292, 1.33232, 1.33412, 1.34044, 1.34429, 1.35039, 1.34795, 1.35005, 1.35008, 1.28254, 1.28832, 1.33661, 1.34738, 1.34642, 1.34144, 1.37586, 1.38927, 1.41828, 1.49187, 1.54028, 1.57239, 1.71445, 1.68474, 1.70162, 1.67506, 1.67546, 1.64697, 1.63563, 1.63875, 1.63714, 1.69241, 1.69519, 1.70215, 1.70379, 1.78348, 1.69867, 1.69807, 1.79283, 1.77525, 1.7729, 1.74204, 1.77896, 1.75763, 1.75103, 1.77314, 1.76619, 1.76258, 1.76935, 1.87267, 1.79538, 1.86099, 1.85315, 1.72428, 1.71659, 1.68507, 1.67961, 1.67794, 1.71901, 1.69195, 1.71842, 1.64696, 1.71256, 1.59657, 1.59248, 1.58053, 1.59484, 1.56778, 1.60335, 1.55709, 1.5371, 1.4677, 1.42922, 1.40597, 1.3937, 1.40632, 1.40497, 1.36801, 1.37352, 1.3767, 1.37168, 1.36713, 1.36759, 1.36052, 1.35003, 1.34894, 1.34492, 1.34313, 1.33502, 1.33295, 1.33314, 1.32348, 1.32086, 1.31653, 1.43151, 1.29117, 1.31026, 1.31019, 1.3139, 1.31417, 1.30904, 1.30469, 1.30428, 1.29726, 1.29456, 1.28877, 1.28666, 1.28079, 1.27992, 1.27902, 1.27714, 1.27362, 1.272, 1.27743, 1.2752, 1.26726, 1.26533, 1.26336, 1.2617, 1.25813, 1.25627, 1.25511, 1.25719, 1.25526, 1.25649, 1.24956
1.28085, 1.27708, 1.27622, 1.27166, 1.26786, 1.27052, 1.27378, 1.28084, 1.28325, 1.28575, 1.28684, 1.28922, 1.29311, 1.43586, 1.30968, 1.38933, 1.31869, 1.32027, 1.32572, 1.32835, 1.3292, 1.32891, 1.32997, 1.33356, 1.33432, 1.33464, 1.33453, 1.33384, 1.87366, 1.48906, 1.34884, 1.34907, 1.35087, 1.35085, 1.29121, 1.27874, 1.2846, 1.28528, 1.2911, 1.32992, 1.36247, 1.39249, 1.39427, 1.49411, 1.50304, 1.5314, 1.56496, 1.63992, 1.63184, 1.62861, 1.60854, 1.61365, 1.63066, 1.62032, 1.63558, 1.69716, 1.66168, 1.70284, 1.70205, 1.70709, 1.70448, 1.69321, 1.69502, 1.77695, 1.81103, 1.69334, 1.70791, 1.75524, 1.7464, 1.75563, 1.76086, 1.7665, 1.76701, 1.91718, 1.74489, 1.72447, 1.73398, 1.73053, 1.73347, 1.68935, 1.67642, 1.65418, 1.72972, 1.83241, 1.63334, 1.61783, 1.61419, 1.5856, 1.55704, 1.55152, 1.5344, 1.50948, 1.5624, 1.56251, 1.54323, 1.47589, 1.39991, 1.37543, 1.37516, 1.37187, 1.40902, 1.37378, 1.38122, 1.37949, 1.37483, 1.36827, 1.36707, 1.35692, 1.35163, 1.35525, 1.3472, 1.34311, 1.33963, 1.33768, 1.33607, 1.33773, 1.33333, 1.3301, 1.32584, 1.32307, 1.31928, 1.31522, 1.31046, 1.31067, 1.3072, 1.30838, 1.29934, 1.29468, 1.29206, 1.28768, 1.28366, 1.2815, 1.2821, 1.27931, 1.2806, 1.27117, 1.27016, 1.27405, 1.26926, 1.26602, 1.26304, 1.35752, 1.2935, 1.26824, 1.26944, 1.26325, 1.26054, 1.25974, 1.25199, 1.2546
1.29135, 1.28862, 1.28443, 1.28156, 1.27911, 1.27957, 1.28198, 1.27938, 1.29281, 1.35295, 1.35796, 1.63101, 1.35416, 1.32446, 1.3246, 1.33044, 1.33131, 1.33278, 1.33617, 1.33825, 1.33824, 1.33916, 1.33978, 1.34232, 1.343, 1.34634, 1.34846, 1.34939, 1.34637, 1.60943, 1.62364, 1.36629, 1.64924, 1.68363, 1.51389, 1.33987, 1.34085, 1.3272, 1.37551, 1.37521, 1.36488, 1.40203, 1.42412, 1.44869, 1.47552, 1.51661, 1.57087, 1.6368, 1.64088, 1.60528, 1.62409, 1.60508, 1.61867, 1.63036, 1.65239, 1.65216, 1.72392, 1.72471, 1.73793, 1.67146, 1.68676, 1.69245, 1.71439, 1.71691, 1.78671, 1.71382, 1.67604, 1.70743, 1.73401, 1.92541, 1.67113, 1.6703, 1.68148, 1.68038, 1.69275, 1.72336, 1.72952, 1.65819, 1.65768, 1.67213, 1.66833, 1.62767, 1.63098, 1.59226, 1.55247, 1.57887, 1.58576, 1.60955, 1.54648, 1.51813, 1.52793, 1.50177, 1.49143, 1.49452, 1.50275, 1.40396, 1.40745, 1.42938, 1.35858, 1.36779, 1.37478, 1.38409, 1.38394, 1.47614, 1.36114, 1.3662, 1.36549, 1.36716, 1.35784, 1.35543, 1.3535, 1.3475, 1.34733, 1.35177, 1.35511, 1.35117, 1.34572, 1.34202, 1.33798, 1.33293, 1.33046, 1.63383, 1.31683, 1.32276, 1.44292, 1.73091, 1.57175, 1.29909, 1.58121, 1.29162, 1.56285, 1.6397, 1.41069, 1.42912, 1.45485, 1.54113, 1.44501, 1.5333, 1.29154, 1.291, 1.28285, 1.27805, 1.27117, 1.26363, 1.26453, 1.26392, 1.2658, 1.27138, 1.26775, 1.26662
1.28799, 1.28754, 1.28405, 1.28493, 1.28451, 1.28437, 1.28886, 1.29467, 1.45786, 1.31253, 1.31002, 1.31411, 1.32252, 1.32302, 1.32568, 1.32632, 1.32865, 1.32969, 1.33323, 1.33645, 1.33553, 1.3367, 1.33975, 1.34148, 1.34297, 1.34577, 1.34657, 1.34872, 1.35734, 1.47017, 1.63066, 1.61404, 1.55101, 1.49171, 1.60194, 1.52338, 1.5239, 1.39758, 1.37853, 1.36676, 1.37547, 1.43804, 1.41534, 1.43373, 1.45614, 1.4843, 1.54706, 1.68932, 1.61362, 1.60677, 1.6074, 1.6473, 1.62933, 1.62631, 1.75998, 1.64499, 1.67212, 1.7197, 1.66481, 1.63176, 1.6841, 1.68376, 1.75175, 1.71299, 1.68721, 1.67512, 1.67443, 1.66539, 1.76999, 1.69177, 1.66953, 1.67155, 1.67352, 1.69152, 1.68521, 1.7032, 1.71414, 1.69934, 1.66757, 1.62696, 1.62288, 1.60282, 1.62725, 1.59345, 1.55708, 1.54706, 1.55129, 1.56319, 1.52416, 1.51172, 1.50963, 1.46778, 1.44046, 1.54262, 1.54249, 1.45467, 1.38123, 1.36021, 1.3749, 1.37532, 1.38598, 1.38327, 1.38566, 1.61132, 1.54621, 1.55978, 1.37219, 1.37163, 1.3676, 1.36431, 1.35747, 1.35417, 1.35324, 1.35588, 1.36064, 1.35776, 1.35633, 1.34942, 1.34313, 1.33951, 1.33845, 1.34294, 1.33999, 1.33721, 1.33393, 1.41651, 1.51808, 1.32295, 1.32212, 1.31658, 1.32999, 1.32949, 1.32787, 1.33118, 1.31162, 1.30994, 1.30217, 1.29255, 1.28702, 1.28287, 1.27628, 1.27268, 1.27114, 1.26631, 1.27148, 1.27202, 1.27357, 1.26886, 1.26754, 1.26671
1.44575, 1.42785, 1.61726, 1.2952, 1.2966, 1.35439, 1.35842, 1.35564, 1.31875, 1.31896, 1.31245, 1.32302, 1.32376, 1.32585, 1.33173, 1.3314, 1.33756, 1.41262, 1.42026, 1.5621, 1.47911, 1.38464, 1.38214, 1.61604, 1.46123, 1.43447, 1.40351, 1.43258, 1.46526, 1.45024, 1.39499, 1.40709, 1.40557, 1.40482, 1.40336, 1.40394, 1.57206, 1.40871, 1.36053, 1.36097, 1.37651, 1.39532, 1.45164, 1.47227, 1.42402, 1.44141, 1.49564, 1.55772, 1.58341, 1.69328, 1.60054, 1.64117, 1.63873, 1.73682, 1.65132, 1.63075, 1.67165, 1.64053, 1.64203, 1.64161, 1.69332, 1.70923, 1.7087, 1.69254, 1.6914, 1.74083, 1.69893, 1.67392, 1.67129, 1.6725, 1.64234, 1.67563, 1.66932, 1.67519, 1.6723, 1.67377, 1.6754, 1.68335, 1.69265, 1.66199, 1.58799, 1.58017, 1.5715, 1.60744, 1.49894, 1.49709, 1.52133, 1.52033, 1.56116, 1.49557, 1.48901, 1.44018, 1.42508, 1.54194, 1.40235, 1.39898, 1.37044, 1.44433, 1.37803, 1.38651, 1.3851, 1.38204, 1.38101, 1.37762, 1.37425, 1.37298, 1.37218, 1.37071, 1.37205, 1.36838, 1.36279, 1.35751, 1.3587, 1.36644, 1.36062, 1.35947, 1.35701, 1.35048, 1.47245, 1.48118, 1.35655, 1.38854, 1.44053, 1.35146, 1.33727, 1.33821, 1.33067, 1.33178, 1.317, 1.31614, 1.40586, 1.31766, 1.37496, 1.31122, 1.30249, 1.30002, 1.29442, 1.29146, 1.28636, 1.28554, 1.27748, 1.27367, 1.27143, 1.27515, 1.2743, 1.27286, 1.27114, 1.26859, 1.26572, 1.27419
1.31564, 1.32019, 1.31948, 1.31911, 1.3103, 1.311, 1.31139, 1.31184, 1.32188, 1.32306, 1.32561, 1.31928, 1.31915, 1.32034, 1.32268, 1.32817, 1.33281, 1.35544, 1.36749, 1.5508, 1.38503, 1.38518, 1.39711, 1.39933, 1.39581, 1.39512, 1.38835, 1.38994, 1.38837, 1.56146, 1.53615, 1.38297, 1.56844, 1.4157, 1.39991, 1.4002, 1.39777, 1.39541, 1.40203, 1.40583, 1.39274, 1.37411, 1.43854, 1.37517, 1.39722, 1.4198, 1.43925, 1.47143, 1.51757, 1.5266, 1.55454, 1.577, 1.58899, 1.71475, 1.61607, 1.59559, 1.63581, 1.5888, 1.66438, 1.64865, 1.7852, 1.67691, 1.68463, 1.69544, 1.69522, 1.69278, 1.71214, 1.69699, 1.68487, 1.64376, 1.6436, 1.66825, 1.67808, 1.67823, 1.67625, 1.66026, 1.64088, 1.61957, 1.65507, 1.63471, 1.62332, 1.57784, 1.57488, 1.55073, 1.51032, 1.50938, 1.52143, 1.51649, 1.50638, 1.47789, 1.50651, 1.43076, 1.40896, 1.38453, 1.41535, 1.43023, 1.37575, 1.40203, 1.62599, 1.38966, 1.39108, 1.38309, 1.38139, 1.37909, 1.37883, 1.37727, 1.37572, 1.37427, 1.37502, 1.37658, 1.37501, 1.367, 1.36645, 1.37437, 1.37019, 1.36182, 1.36012, 1.36875, 1.36741, 1.35581, 1.3547, 1.35419, 1.35198, 1.34825, 1.33568, 1.33475, 1.32785, 1.31649, 1.30802, 1.30453, 1.30019, 1.30165, 1.30808, 1.30487, 1.30363, 1.29813, 1.29344, 1.29619, 1.29228, 1.28852, 1.28542, 1.28128, 1.27076, 1.26302, 1.2755, 1.2919, 1.28773, 1.27211, 1.27173, 1.27243
1.31011, 1.31347, 1.31475, 1.31338, 1.31095, 1.30834, 1.30599, 1.30836, 1.31601, 1.31754, 1.31911, 1.32029, 1.31933, 1.32058, 1.32393, 1.3259, 1.34742, 1.35223, 1.35899, 1.366, 1.36762, 1.36945, 1.37107, 1.37431, 1.37551, 1.37643, 1.3774, 1.38139, 1.38281, 1.38443, 1.43999, 1.4826, 1.55873, 1.52785, 1.38932, 1.58158, 1.3894, 1.5866, 1.35676, 1.33951, 1.33683, 1.34567, 1.36576, 1.38194, 1.36824, 1.39805, 1.41592, 1.42331, 1.51585, 1.52233, 1.54358, 1.54457, 1.56523, 1.69364, 1.65177, 1.54738, 1.56886, 1.65179, 1.62019, 1.63195, 1.63083, 1.63192, 1.65191, 1.7064, 1.72259, 1.73549, 1.78984, 1.86125, 1.68098, 1.65982, 1.63495, 1.63443, 1.661, 1.70995, 1.6555, 1.64831, 1.61503, 1.62408, 1.62167, 1.70426, 1.60759, 1.58915, 1.5884, 1.58304, 1.50133, 1.50469, 1.51955, 1.51798, 1.52181, 1.48488, 1.45867, 1.40892, 1.36625, 1.36775, 1.36657, 1.36047, 1.37226, 1.44006, 1.53542, 1.52746, 1.58268, 1.63646, 1.63942, 1.45309, 1.4472, 1.38736, 1.38419, 1.38258, 1.38179, 1.38872, 1.38814, 1.36805, 1.36771, 1.95789, 1.37809, 1.37497, 1.36864, 1.36552, 1.35515, 1.35353, 1.35124, 1.34858, 1.34746, 1.3364, 1.33054, 1.32332, 1.31557, 1.30873, 1.30365, 1.30092, 1.29787, 1.29808, 1.29799, 1.3029, 1.30526, 1.30067, 1.29808, 1.29492, 1.29094, 1.28815, 1.28899, 1.46604, 1.46622, 1.26032, 1.27221, 1.29665, 1.29812, 1.28895, 1.27699, 1.28269
1.31015, 1.31958, 1.3174, 1.31382, 1.31656, 1.30645, 1.30554, 1.30734, 1.3092, 1.3125, 1.32078, 1.32378, 1.3294, 1.34069, 1.43764, 1.46434, 1.55282, 1.36352, 1.36446, 1.37195, 1.37755, 1.38095, 1.3814, 1.38252, 1.38269, 1.47651, 1.50081, 1.36117, 1.5051, 1.6034, 1.60427, 1.36666, 1.37367, 1.37494, 1.38456, 1.57231, 1.38226, 1.38353, 1.48187, 1.60069, 1.33923, 1.33586, 1.33335, 1.34444, 1.35004, 1.40603, 1.38823, 1.4169, 1.44011, 1.46866, 1.46323, 1.50912, 1.52755, 1.53902, 1.58913, 1.58787, 1.57845, 1.54292, 1.54342, 1.64157, 1.61987, 1.61863, 1.62754, 1.70278, 1.65579, 1.73751, 1.73763, 1.70421, 1.66543, 1.65235, 1.64163, 1.60376, 1.60775, 1.70063, 1.63836, 1.62175, 1.62776, 1.61965, 1.60958, 1.90639, 1.65769, 1.59299, 1.56746, 1.53214, 1.57821, 1.49169, 1.55601, 1.58015, 1.53341, 1.43533, 1.40925, 1.4351, 1.36261, 1.36541, 1.36504, 1.3786, 1.37526, 1.52051, 1.52032, 1.40768, 1.40588, 1.40402, 1.40271, 1.39549, 1.3951, 1.38929, 1.38774, 1.38555, 1.38439, 1.38305, 1.37722, 1.36925, 1.46325, 1.35264, 1.43824, 1.35029, 1.34489, 1.34406, 1.34806, 1.3528, 1.35394, 1.34383, 1.33667, 1.33428, 1.33491, 1.33771, 1.31035, 1.30661, 1.30441, 1.31045, 1.30938, 1.30351, 1.30383, 1.30232, 1.30528, 1.29946, 1.29816, 1.29344, 1.29118, 1.28936, 1.29168, 1.27227, 1.27269, 1.26439, 1.26322, 1.38918, 1.29007, 1.38478, 1.26149, 1.26547
1.319, 1.31587, 1.3122, 1.31261, 1.31833, 1.31702, 1.31505, 1.31503, 1.3138, 1.31521, 1.31591, 1.33256, 1.55858, 1.35445, 1.3558, 1.35956, 1.35903, 1.36946, 1.36428, 1.36404, 1.36625, 1.36836, 1.55594, 1.56473, 1.50785, 1.41863, 1.34515, 1.34566, 1.34808, 1.3491, 1.35013, 1.36428, 1.36595, 1.37759, 1.37813, 1.38669, 1.3868, 1.38727, 1.38113, 1.3808, 1.61756, 1.34604, 1.32647, 1.32442, 1.33392, 1.36808, 1.38428, 1.45155, 1.40916, 1.422, 1.43911, 1.4728, 1.6072, 1.51547, 1.52648, 1.59481, 1.49945, 1.55767, 1.58921, 1.57868, 1.61719, 1.62677, 1.63939, 1.63707, 1.65531, 1.63046, 1.68507, 1.63391, 1.62728, 1.65518, 1.63531, 1.59922, 1.60018, 1.60265, 1.58277, 1.59481, 1.61309, 1.57512, 1.57143, 1.59071, 1.58554, 1.58899, 1.57462, 1.53215, 1.51646, 1.47105, 1.5022, 1.43415, 1.42266, 1.43494, 1.402, 1.37891, 1.3676, 1.36699, 1.36122, 1.51611, 1.40846, 1.41431, 1.41643, 1.41531, 1.52845, 1.60029, 1.40505, 1.40323, 1.38153, 1.38482, 1.39076, 1.38319, 1.38333, 1.38449, 1.3728, 1.36796, 1.34991, 1.33945, 1.33854, 1.34327, 1.33766, 1.34187, 1.34241, 1.35054, 1.35288, 1.34799, 1.51335, 1.32365, 1.33802, 1.33614, 1.32317, 1.31646, 1.30935, 1.30739, 1.30677, 1.30495, 1.30315, 1.30411, 1.30689, 1.3016, 1.30126, 1.29578, 1.29334, 1.29115, 1.27407, 1.27224, 1.2702, 1.26059, 1.26183, 1.2656, 1.27971, 1.27821, 1.26194, 1.26491
1.30999, 1.31105, 1.31157, 1.31394, 1.32021, 1.58864, 1.30924, 1.30893, 1.31059, 1.31436, 1.31705, 1.45419, 1.33845, 1.33975, 1.34909, 1.34933, 1.46488, 1.35564, 1.35312, 1.49211, 1.51419, 1.44462, 1.34686, 1.34023, 1.33108, 1.33155, 1.34201, 1.34265, 1.34423, 1.34617, 1.36205, 1.35864, 1.35852, 1.37231, 1.37312, 1.54699, 1.38811, 1.51027, 1.68699, 1.6618, 1.67459, 1.38118, 1.38496, 1.39685, 1.3278, 1.42962, 1.37349, 1.40192, 1.39085, 1.39626, 1.43414, 1.43011, 1.54382, 1.54903, 1.52938, 1.49092, 1.49086, 1.53754, 1.59965, 1.62996, 1.6773, 1.61604, 1.6416, 1.67415, 1.62035, 1.60803, 1.60294, 1.60053, 1.6043, 1.60332, 1.59896, 1.87277, 1.59386, 1.58528, 1.58428, 1.58506, 1.58287, 1.55428, 1.54217, 1.58349, 1.542, 1.59544, 1.5513, 1.5446, 1.4928, 1.4928, 1.50293, 1.402, 1.38327, 1.39978, 1.39947, 1.41752, 1.4042, 1.4391, 1.61947, 1.42086, 1.42073, 1.41914, 1.41918, 1.59336, 1.42232, 1.42657, 1.39903, 1.40149, 1.39989, 1.37417, 1.37363, 1.3808, 1.38311, 1.38469, 1.37499, 1.36839, 1.38503, 1.33933, 1.33666, 1.33984, 1.34097, 1.34279, 1.34592, 1.34832, 1.35313, 1.35314, 1.3291, 1.31984, 1.32079, 1.32702, 1.32198, 1.31851, 1.30925, 1.30757, 1.30908, 1.30575, 1.30533, 1.30392, 1.31523, 1.35507, 1.35089, 1.35371, 1.3018, 1.30014, 1.38577, 1.27388, 1.27404, 1.40627, 1.27743, 1.27536, 1.27339, 1.271, 1.26748, 1.27322
1.31362, 1.31262, 1.30958, 1.31434, 1.32546, 1.32943, 1.33312, 1.32935, 1.32949, 1.33112, 1.33007, 1.33413, 1.33591, 1.3378, 1.35024, 1.35018, 1.42047, 1.53097, 1.60362, 1.32374, 1.32567, 1.32809, 1.3377, 1.33823, 1.33616, 1.3291, 1.34303, 1.3448, 1.3443, 1.34787, 1.35189, 1.35798, 1.36269, 1.36911, 1.37996, 1.38161, 1.38967, 1.39868, 1.39855, 1.40679, 1.40681, 1.40183, 1.60158, 1.40075, 1.32932, 1.32441, 1.47161, 1.37753, 1.37273, 1.37993, 1.41153, 1.47284, 1.43684, 1.43154, 1.56183, 1.5527, 1.47911, 1.54263, 1.52328, 1.55366, 1.5764, 1.59723, 1.61365, 1.68833, 1.6081, 1.76153, 1.6114, 1.89404, 1.61295, 1.61255, 1.59976, 1.59934, 1.59886, 1.57154, 1.57871, 1.58505, 1.5678, 1.52718, 1.52731, 1.66098, 1.54058, 1.54076, 1.50876, 1.46948, 1.44128, 1.4782, 1.48149, 1.3932, 1.39236, 1.40119, 1.43291, 1.44304, 1.44059, 1.43646, 1.434, 1.43262, 1.4287, 1.42443, 1.41904, 1.4158, 1.3899, 1.38805, 1.4093, 1.39898, 1.3968, 1.39666, 1.37248, 1.37446, 1.373, 1.38472, 1.3756, 1.37195, 1.35335, 1.35311, 1.35208, 1.35069, 1.35086, 1.35248, 1.3517, 1.3497, 1.35, 1.34731, 1.34356, 1.33444, 1.32938, 1.32625, 1.31906, 1.31848, 1.30978, 1.3089, 1.30742, 1.30441, 1.30234, 1.30064, 1.31335, 1.32538, 1.31087, 1.30918, 1.30358, 1.29866, 1.2932, 1.29047, 1.2908, 1.27296, 1.27535, 1.27377, 1.27248, 1.2714, 1.27831, 1.27929
1.31441, 1.31022, 1.30857, 1.32204, 1.32482, 1.3269, 1.32389, 1.32369, 1.32299, 1.32122, 1.33674, 1.33846, 1.3391, 1.34035, 1.34152, 1.33249, 1.3269, 1.32571, 1.32212, 1.32263, 1.32334, 1.32603, 1.48649, 1.37529, 1.32618, 1.32333, 1.32011, 1.3313, 1.33924, 1.3466, 1.3531, 1.36035, 1.36534, 1.3692, 1.37872, 1.38265, 1.38589, 1.54154, 1.56842, 1.4065, 1.40742, 1.40022, 1.39929, 1.39001, 1.38098, 1.314, 1.31566, 1.39169, 1.33024, 1.3923, 1.38539, 1.44039, 1.45156, 1.45376, 1.45195, 1.46129, 1.45761, 1.50651, 1.49183, 1.54272, 1.51886, 1.52666, 1.53704, 1.55442, 1.56989, 1.56352, 1.5782, 1.58923, 1.73631, 1.67951, 1.5511, 1.50917, 1.50939, 1.62661, 1.67977, 1.56288, 1.53909, 1.52285, 1.52022, 1.50374, 1.72714, 1.65538, 1.49942, 1.48509, 1.46434, 1.45441, 1.48393, 1.41341, 1.41608, 1.39701, 1.45731, 1.44222, 1.44501, 1.44155, 1.43812, 1.43535, 1.43445, 1.5035, 1.42669, 1.42951, 1.42259, 1.41233, 1.41323, 1.40212, 1.39797, 1.39197, 1.38769, 1.36956, 1.37154, 1.37053, 1.3805, 1.36507, 1.36398, 1.36021, 1.3556, 1.35349, 1.35403, 1.35708, 1.35535, 1.35359, 1.3516, 1.34532, 1.34378, 1.33622, 1.33489, 1.31422, 1.31246, 1.32169, 1.31441, 1.31301, 1.31006, 1.30836, 1.30519, 1.30882, 1.49127, 1.32241, 1.31915, 1.30939, 1.30572, 1.30031, 1.29663, 1.29464, 1.29141, 1.28176, 1.27967, 1.27189, 1.27691, 1.27728, 1.28024, 1.28035
1.31507, 1.31595, 1.3174, 1.33003, 1.32682, 1.32517, 1.32555, 1.3198, 1.32137, 1.32459, 1.32292, 1.45604, 1.33859, 1.34226, 1.33752, 1.33013, 1.3263, 1.32581, 1.32303, 1.32144, 1.32604, 1.32472, 1.32565, 1.33071, 1.32627, 1.32461, 1.3219, 1.32954, 1.33817, 1.34641, 1.3565, 1.36136, 1.36654, 1.37657, 1.3773, 1.38118, 1.38298, 1.38631, 1.60431, 1.40008, 1.40143, 1.40151, 1.39485, 1.61936, 1.66331, 1.35704, 1.35807, 1.31654, 1.32332, 1.36847, 1.44911, 1.40892, 1.44151, 1.44377, 1.4192, 1.44777, 1.44648, 1.46969, 1.48265, 1.49941, 1.49939, 1.48907, 1.52606, 1.53642, 1.53783, 1.54426, 1.5122, 1.55107, 1.57879, 1.56224, 1.52242, 1.50436, 1.51624, 1.54164, 1.56832, 1.67553, 1.53068, 1.52002, 1.50614, 1.52031, 1.55635, 1.53286, 1.49622, 1.47167, 1.47796, 1.471, 1.4874, 1.46187, 1.48856, 1.47631, 1.47292, 1.42331, 1.44511, 1.44866, 1.44417, 1.44329, 1.44101, 1.44026, 1.43604, 1.43364, 1.43029, 1.42966, 1.41318, 1.4044, 1.40281, 1.39354, 1.37923, 1.37896, 1.38149, 1.38658, 1.37658, 1.3718, 1.36035, 1.35611, 1.35501, 1.35308, 1.35621, 1.35848, 1.3593, 1.35414, 1.35206, 1.34845, 1.34511, 1.33944, 1.33392, 1.32848, 1.32419, 1.32241, 1.30883, 1.3116, 1.30984, 1.2987, 1.2936, 1.30715, 1.31349, 1.31694, 1.30976, 1.30831, 1.30399, 1.30343, 1.30137, 1.29371, 1.29305, 1.28941, 1.28482, 1.28515, 1.28347, 1.43108, 1.39032, 1.29585
1.32056, 1.31629, 1.31675, 1.31355, 1.31366, 1.31271, 1.31312, 1.31139, 1.3107, 1.31323, 1.31347, 1.31452, 1.3376, 1.33732, 1.3337, 1.32992, 1.32635, 1.32557, 1.32546, 1.32631, 1.329, 1.32913, 1.33369, 1.33471, 1.33864, 1.32609, 1.32609, 1.33695, 1.34351, 1.35673, 1.36342, 1.36708, 1.38469, 1.38495, 1.38655, 1.39213, 1.39297, 1.38955, 1.39241, 1.40581, 1.40137, 1.4068, 1.40592, 1.71706, 1.66547, 1.65469, 1.47995, 1.37739, 1.37468, 1.37687, 1.36692, 1.36765, 1.36789, 1.37388, 1.44269, 1.4337, 1.42342, 1.46135, 1.47419, 1.49649, 1.46906, 1.46819, 1.48569, 1.5274, 1.49604, 1.50948, 1.49617, 1.58536, 1.53702, 1.52167, 1.53146, 1.51319, 1.48555, 1.51495, 1.57453, 1.66443, 1.51581, 1.51073, 1.49635, 1.49655, 1.49233, 1.48593, 1.48779, 1.48652, 1.48273, 1.48172, 1.5447, 1.48592, 1.48242, 1.46466, 1.46608, 1.47669, 1.44041, 1.44732, 1.44748, 1.44573, 1.44329, 1.43935, 1.43875, 1.43719, 1.43585, 1.42384, 1.41706, 1.41741, 1.40226, 1.40015, 1.38588, 1.39405, 1.39187, 1.38853, 1.38562, 1.37422, 1.36827, 1.35883, 1.36623, 1.36212, 1.37085, 1.37056, 1.36772, 1.36376, 1.35473, 1.35277, 1.34796, 1.34171, 1.33658, 1.33317, 1.32634, 1.3237, 1.32173, 1.31976, 1.32118, 1.46627, 1.29842, 1.29813, 1.29683, 1.30418, 1.30418, 1.30526, 1.29922, 1.30125, 1.29617, 1.29438, 1.29142, 1.29096, 1.28756, 1.28516, 1.28694, 1.29064, 1.43599, 1.45435
1.32016, 1.31691, 1.3112, 1.30898, 1.30911, 1.31224, 1.30913, 1.30847, 1.31092, 1.31237, 1.31575, 1.32019, 1.32797, 1.32758, 1.32805, 1.32673, 1.32895, 1.3305, 1.34055, 1.33807, 1.33838, 1.33873, 1.33537, 1.33424, 1.33806, 1.34221, 1.33054, 1.34651, 1.35416, 1.37308, 1.37683, 1.38024, 1.38143, 1.37454, 1.3776, 1.3812, 1.38352, 1.38485, 1.38834, 1.39845, 1.40257, 1.4105, 1.41165, 1.62385, 1.63508, 1.62675, 1.62094, 1.50082, 1.49852, 1.37786, 1.60728, 1.38786, 1.39581, 1.39391, 1.38094, 1.39493, 1.39963, 1.41901, 1.42602, 1.47144, 1.46397, 1.46269, 1.48626, 1.58551, 1.4748, 1.47452, 1.48999, 1.51712, 1.59961, 1.53045, 1.52361, 1.45135, 1.45414, 1.51356, 1.5312, 1.52657, 1.52271, 1.51084, 1.4695, 1.49121, 1.49004, 1.50171, 1.50155, 1.4924, 1.47155, 1.48392, 1.48124, 1.47981, 1.46066, 1.4589, 1.45959, 1.45839, 1.45758, 1.45527, 1.45364, 1.45091, 1.44995, 1.44631, 1.43938, 1.43939, 1.43774, 1.436, 1.4248, 1.41712, 1.41286, 1.40248, 1.39851, 1.40519, 1.39637, 1.39358, 1.39346, 1.38897, 1.3883, 1.45021, 1.47099, 1.5045, 1.45995, 1.39194, 1.37916, 1.54464, 1.50579, 1.47517, 1.47537, 1.48813, 1.35328, 1.34673, 1.34431, 1.34053, 1.33713, 1.33144, 1.32839, 1.32542, 1.33064, 1.29863, 1.30307, 1.30006, 1.3052, 1.30559, 1.30162, 1.30156, 1.30133, 1.29291, 1.28973, 1.28883, 1.28778, 1.28599, 1.29221, 1.57236, 1.44776, 1.50549
1.31852, 1.31632, 1.31314, 1.31503, 1.31346, 1.32216, 1.32371, 1.32065, 1.32054, 1.31671, 1.31595, 1.31865, 1.32417, 1.32778, 1.33068, 1.33192, 1.3331, 1.33643, 1.33635, 1.33294, 1.33392, 1.33598, 1.33594, 1.33527, 1.33594, 1.33915, 1.33009, 1.35126, 1.36062, 1.36294, 1.36545, 1.36617, 1.37108, 1.37291, 1.37476, 1.37984, 1.38641, 1.38715, 1.38925, 1.39876, 1.40547, 1.40662, 1.41024, 1.41667, 1.43046, 1.43091, 1.43308, 1.42941, 1.42841, 1.4261, 1.42368, 1.60635, 1.45182, 1.4459, 1.37467, 1.37826, 1.3718, 1.43896, 1.43981, 1.44015, 1.43048, 1.44607, 1.4368, 1.42783, 1.43279, 1.47149, 1.44797, 1.51322, 1.52041, 1.54064, 1.46504, 1.46516, 1.4795, 1.50292, 1.50236, 1.54915, 1.54768, 1.5063, 1.50054, 1.49921, 1.5005, 1.50115, 1.50368, 1.48826, 1.4854, 1.48233, 1.48955, 1.4837, 1.69226, 1.46976, 1.46789, 1.46385, 1.46066, 1.45716, 1.45266, 1.45336, 1.45338, 1.45052, 1.45845, 1.52222, 1.44307, 1.43774, 1.44849, 1.44469, 1.49981, 1.55922, 1.50343, 1.47957, 1.48981, 1.4768, 1.59556, 1.39575, 1.40617, 1.40541, 1.39884, 1.39517, 1.39516, 1.39113, 1.38943, 1.38647, 1.38623, 1.38498, 1.3815, 1.36889, 1.51407, 1.35207, 1.34493, 1.34304, 1.33747, 1.33513, 1.33637, 1.33048, 1.32696, 1.34948, 1.31298, 1.36398, 1.3127, 1.30947, 1.30544, 1.30453, 1.29285, 1.2924, 1.28508, 1.28526, 1.28772, 1.528, 1.45707, 1.42069, 1.40855, 1.40997
1.32571, 1.32561, 1.31419, 1.3168, 1.3157, 1.31724, 1.31831, 1.31777, 1.31738, 1.3152, 1.31835, 1.66056, 1.32927, 1.33088, 1.33578, 1.33426, 1.33084, 1.32924, 1.32933, 1.32952, 1.33133, 1.33265, 1.33398, 1.33615, 1.33687, 1.33425, 1.32921, 1.36867, 1.36224, 1.36267, 1.36409, 1.36946, 1.37418, 1.37675, 1.38491, 1.38647, 1.38894, 1.39119, 1.39623, 1.39668, 1.40041, 1.39835, 1.40516, 1.41331, 1.6246, 1.60129, 1.4312, 1.42723, 1.4439, 1.44438, 1.44638, 1.44668, 1.44437, 1.43836, 1.44555, 1.42108, 1.45708, 1.45717, 1.45787, 1.43676, 1.49475, 1.41169, 1.40963, 1.41598, 1.41725, 1.42289, 1.43025, 1.46087, 1.51352, 1.50946, 1.5377, 1.48754, 1.49713, 1.49863, 1.48388, 1.48581, 1.49973, 1.50035, 1.50685, 1.49972, 1.49776, 1.49675, 1.49335, 1.51403, 1.49668, 1.50041, 1.49743, 1.47997, 1.47946, 1.47396, 1.46591, 1.46565, 1.46098, 1.45572, 1.45192, 1.44904, 1.44869, 1.4528, 1.45997, 1.46393, 1.46348, 1.45823, 1.45741, 1.45577, 1.45675, 1.44886, 1.44486, 1.44016, 1.43935, 1.43635, 1.49781, 1.39502, 1.39709, 1.41122, 1.40642, 1.40278, 1.40136, 1.39198, 1.39097, 1.38093, 1.37683, 1.37758, 1.37954, 1.38151, 1.45467, 1.358, 1.3539, 1.34553, 1.34557, 1.47925, 1.53301, 1.5158, 1.49621, 1.53324, 1.54457, 1.5412, 1.42805, 1.42845, 1.42939, 1.50913, 1.47478, 1.45022, 1.37828, 1.47871, 1.49579, 1.39555, 1.42755, 1.45406, 1.64404, 1.38358
1.33694, 1.8071, 1.31646, 1.31664, 1.31772, 1.31927, 1.32003, 1.33722, 1.33712, 1.33785, 1.3397, 1.34042, 1.34106, 1.34316, 1.34257, 1.33636, 1.33601, 1.32956, 1.32845, 1.32697, 1.33246, 1.33272, 1.33301, 1.33477, 1.33985, 1.33927, 1.32833, 1.33931, 1.3603, 1.36754, 1.37775, 1.38327, 1.38233, 1.38239, 1.38303, 1.39105, 1.39286, 1.39469, 1.39614, 1.39745, 1.39846, 1.39902, 1.40559, 1.40988, 1.41846, 1.60518, 1.66863, 1.59973, 1.4473, 1.44858, 1.44926, 1.4444, 1.44123, 1.43859, 1.43797, 1.57464, 1.58448, 1.62608, 1.43326, 1.43284, 1.47236, 1.46072, 1.47576, 1.42349, 1.42025, 1.45804, 1.44293, 1.53721, 1.50584, 1.50606, 1.59923, 1.47636, 1.52696, 1.51263, 1.52039, 1.52141, 1.49226, 1.49183, 1.49609, 1.49628, 1.52302, 1.50501, 1.51596, 1.50369, 1.50349, 1.50037, 1.49884, 1.47472, 1.47647, 1.48035, 1.47116, 1.4639, 1.46052, 1.43971, 1.43858, 1.44679, 1.44938, 1.45328, 1.45875, 1.46402, 1.47226, 1.46263, 1.4602, 1.46145, 1.4669, 1.45513, 1.44777, 1.44639, 1.44341, 1.43772, 1.98078, 1.59611, 1.40227, 1.40646, 1.40601, 1.40418, 1.40597, 1.39577, 1.38523, 1.38412, 1.3777, 1.3821, 1.38037, 1.37984, 1.42694, 1.35954, 1.35612, 1.51742, 1.35067, 1.50612, 1.50982, 1.54283, 1.43533, 1.67179, 1.41591, 1.41765, 1.41698, 1.41932, 1.41866, 1.52326, 1.4647, 1.41005, 1.39125, 1.3674, 1.54056, 1.54322, 1.65914, 1.38626, 1.38366, 1.38156
1.33073, 1.32643, 1.32153, 1.3192, 1.32059, 1.32067, 1.32281, 1.32743, 1.3256, 1.32808, 1.33232, 1.33862, 1.33938, 1.34147, 1.33985, 1.33885, 1.32908, 1.32971, 1.3302, 1.33129, 1.33242, 1.33439, 1.33531, 1.33576, 1.33276, 1.34436, 1.34443, 1.3453, 1.78561, 1.37421, 1.39049, 1.3899, 1.38862, 1.38953, 1.38875, 1.38947, 1.39126, 1.39331, 1.39631, 1.39865, 1.40235, 1.40634, 1.40953, 1.41535, 1.4204, 1.67865, 1.4365, 1.65043, 1.44641, 1.44713, 1.44636, 1.45353, 1.45039, 1.449, 1.44915, 1.45061, 1.455, 1.45438, 1.61051, 1.53687, 1.58203, 1.65861, 1.56216, 1.53987, 1.54735, 1.5098, 1.49567, 1.50205, 1.50093, 1.51199, 1.50981, 1.51022, 1.50733, 1.50805, 1.50413, 1.5027, 1.49892, 1.4973, 1.49499, 1.49514, 1.49956, 1.49737, 1.50581, 1.50921, 1.5067, 1.50358, 1.49948, 1.47414, 1.47775, 1.4762, 1.47526, 1.46426, 1.46311, 1.45562, 1.44095, 1.44666, 1.4483, 1.45134, 1.4785, 1.47743, 1.47689, 1.47784, 1.46602, 1.47406, 1.46823, 1.46164, 1.50465, 1.45758, 1.45595, 1.44803, 1.52112, 1.52794, 1.53742, 1.44112, 1.51624, 1.42328, 1.61761, 1.6192, 1.52789, 1.51271, 1.51169, 1.52914, 1.57428, 1.53418, 2.01334, 1.54648, 1.99238, 1.52991, 1.54293, 1.53437, 1.40578, 1.40608, 1.59961, 1.49936, 1.56277, 1.47252, 1.50671, 1.40413, 1.39406, 1.51622, 1.39394, 1.39136, 1.39176, 1.39448, 1.39654, 1.3956, 1.6826, 1.51584, 1.42325, 1.42207
1.32652, 1.32233, 1.31647, 1.3162, 1.31862, 1.31875, 1.31997, 1.32396, 1.32385, 1.32586, 1.3336, 1.3388, 1.34232, 1.34104, 1.33933, 1.33631, 1.32646, 1.33233, 1.33271, 1.33664, 1.3376, 1.33964, 1.34057, 1.33254, 1.33704, 1.35136, 1.35795, 1.34762, 1.40136, 1.37582, 1.39273, 1.38785, 1.38876, 1.39866, 1.39555, 1.40112, 1.4023, 1.40112, 1.40329, 1.40318, 1.40532, 1.40823, 1.40871, 1.41203, 1.62395, 1.63753, 1.56244, 1.44849, 1.45326, 1.45367, 1.45596, 1.45133, 1.45369, 1.69043, 1.64392, 1.68789, 1.68546, 1.6579, 1.66276, 1.5176, 1.49926, 1.49382, 1.49265, 1.6639, 1.66502, 1.49801, 1.49955, 1.50267, 1.50586, 1.50594, 1.50529, 1.50347, 1.50256, 1.49912, 1.49462, 1.49517, 1.49512, 1.49594, 1.49447, 1.49171, 1.48827, 1.49094, 1.49483, 1.66213, 1.50618, 1.49847, 1.49583, 1.49412, 1.47385, 1.47581, 1.47592, 1.46873, 1.46437, 1.45712, 1.45194, 1.44081, 1.44842, 1.45107, 1.46561, 1.47522, 1.48497, 1.48872, 1.4816, 1.47898, 1.47276, 1.47363, 1.47471, 1.47478, 1.46401, 1.46573, 1.46606, 1.55815, 1.46039, 1.5134, 1.52396, 1.5751, 1.4478, 1.46028, 1.99723, 1.47851, 1.4753, 1.46224, 1.4615, 1.96889, 1.44901, 1.42967, 1.94436, 2.04866, 1.54374, 1.55074, 1.41583, 1.41069, 1.40995, 1.56061, 1.4032, 1.4036, 1.40426, 1.4009, 1.39929, 1.39837, 1.39797, 1.39411, 1.39365, 1.39266, 1.48935, 1.48854, 1.51581, 1.61701, 1.43805, 1.46204
1.40278, 1.32252, 1.32026, 1.31756, 1.31828, 1.31874, 1.32254, 1.32284, 1.3233, 1.32566, 1.33707, 1.33662, 1.34248, 1.34173, 1.33981, 1.33924, 1.33872, 1.33392, 1.33091, 1.33793, 1.33724, 1.34076, 1.34313, 1.34317, 1.34207, 1.35302, 1.35984, 1.36195, 1.36123, 1.37175, 1.44984, 1.40604, 1.40722, 1.40644, 1.40367, 1.40208, 1.40117, 1.40113, 1.40029, 1.40034, 1.40599, 1.4062, 1.40866, 1.58367, 1.49691, 1.42824, 1.43603, 1.43667, 1.45084, 1.4575, 1.45899, 1.45851, 1.45667, 1.46233, 1.46865, 1.48791, 1.48878, 1.49252, 1.49744, 1.50293, 1.50242, 1.50146, 1.50191, 1.4979, 1.49892, 1.49807, 1.4972, 1.50209, 1.50312, 1.50277, 1.50095, 1.4982, 1.49628, 1.49447, 1.49016, 1.4887, 1.48322, 1.48614, 1.48695, 1.48774, 1.48848, 1.48696, 1.48367, 1.4858, 1.4922, 1.48642, 1.48657, 1.48656, 1.46825, 1.48267, 1.48228, 1.47198, 1.46462, 1.45848, 1.45186, 1.44406, 1.44328, 1.46058, 1.45587, 1.45711, 1.45757, 1.60057, 1.54445, 1.58822, 1.55475, 1.54905, 1.63777, 0.00477316, 1.46232, 1.46605, 1.46848, 1.46827, 1.46653, 1.46382, 1.46395, 1.46586, 1.46459, 1.61931, 1.45406, 1.45712, 1.6209, 0.00466337, 1.58841, 1.56836, 1.43827, 1.43694, 1.43503, 1.43312, 1.71153, 1.5346, 1.61775, 1.47847, 1.59699, 1.59609, 1.46173, 1.40332, 1.52042, 1.5374, 1.44964, 1.39818, 1.40967, 1.37821, 1.40985, 1.39864, 1.42984, 1.41628, 1.64543, 1.40541, 1.30815, 1.38901
1.34357, 1.34009, 1.32879, 1.3266, 1.32026, 1.31946, 1.32254, 1.31967, 1.32066, 1.32719, 1.33017, 1.33577, 1.33645, 1.33678, 1.33607, 1.33692, 1.33723, 1.33798, 1.33016, 1.34099, 1.34144, 1.342, 1.34337, 1.34348, 1.34499, 1.34978, 1.35483, 1.36091, 1.36811, 1.37583, 1.38505, 1.38653, 1.39669, 1.3985, 1.39051, 1.38941, 1.39127, 1.39362, 1.39468, 1.3957, 1.39657, 1.40502, 1.40853, 1.40869, 1.67737, 1.42456, 1.43192, 1.43438, 1.43872, 1.44572, 1.44916, 1.45093, 1.45468, 1.46652, 1.4706, 1.47297, 1.48596, 1.49125, 1.4891, 1.49312, 1.49628, 1.47971, 1.49482, 1.49452, 1.49375, 1.49523, 1.49618, 1.49618, 1.49499, 1.49843, 1.49573, 1.49342, 1.49187, 1.49016, 1.48957, 1.48488, 1.48282, 1.4814, 1.4789, 1.48491, 1.48235, 1.48223, 1.48162, 1.47806, 1.47779, 1.47755, 1.47757, 1.47755, 1.47163, 1.48593, 1.47898, 1.47182, 1.471, 1.46199, 1.4572, 1.45005, 1.45349, 1.45295, 1.44889, 1.44786, 1.44649, 1.44005, 1.43993, 1.43761, 1.43913, 1.43681, 1.43705, 1.43355, 1.4347, 1.45174, 1.52778, 1.46831, 1.51964, 1.46107, 1.46484, 1.46324, 1.46311, 1.46147, 1.45395, 1.45087, 1.50286, 1.61757, 1.46406, 1.5995, 1.57259, 1.70708, 1.56625, 1.56184, 1.56089, 1.57238, 1.56244, 1.7194, 1.38525, 1.53085, 1.59308, 1.43821, 1.40893, 1.35426, 1.37535, 1.46088, 1.48848, 1.47165, 1.52008, 1.51887, 1.52609, 1.59273, 1.5093, 1.52947, 1.35435, 1.28792
1.34648, 1.3463, 1.33645, 1.32864, 1.32638, 1.32391, 1.32293, 1.32159, 1.32286, 1.32661, 1.33344, 1.33315, 1.33604, 1.33715, 1.3364, 1.33743, 1.34175, 1.33835, 1.33794, 1.33867, 1.33937, 1.34101, 1.3437, 1.34829, 1.35751, 1.35877, 1.3612, 1.36822, 1.37523, 1.38113, 1.38521, 1.38779, 1.38973, 1.39595, 1.39843, 1.39175, 1.39192, 1.39888, 1.40012, 1.39962, 1.40233, 1.40048, 1.4083, 1.41025, 1.41642, 1.42537, 1.42969, 1.43544, 1.4474, 1.44346, 1.45274, 1.45096, 1.45555, 1.46039, 1.47544, 1.47507, 1.47452, 1.48116, 1.48646, 1.48699, 1.47075, 1.48151, 1.48164, 1.49198, 1.48815, 1.48953, 1.49454, 1.49431, 1.4906, 1.48916, 1.48589, 1.48839, 1.48472, 1.48026, 1.47807, 1.47638, 1.47533, 1.47725, 1.47485, 1.4746, 1.47739, 1.47767, 1.47775, 1.47839, 1.47672, 1.47456, 1.47321, 1.47888, 1.4906, 1.48997, 1.4834, 1.47899, 1.46538, 1.46349, 1.45593, 1.45288, 1.44736, 1.44401, 1.44076, 1.43877, 1.43431, 1.43193, 1.43168, 1.42944, 1.42708, 1.42584, 1.42727, 1.42664, 1.42665, 1.42723, 1.44569, 1.44565, 1.44065, 1.52635, 1.52775, 1.54715, 1.55828, 1.45736, 1.48756, 1.49958, 1.48647, 1.48917, 1.48891, 1.4758, 1.59585, 1.52625, 1.51708, 1.48511, 1.44364, 1.4269, 1.42343, 1.38519, 1.43437, 1.41801, 1.41335, 1.35359, 1.35157, 1.39227, 1.33798, 1.33624, 1.34006, 1.33116, 1.32805, 1.32595, 1.32532, 1.32232, 1.3201, 1.36579, 1.28546, 1.28441
1.33994, 1.33617, 1.33721, 1.32918, 1.32843, 1.33033, 1.32239, 1.32298, 1.32394, 1.33126, 1.33594, 1.33735, 1.34019, 1.33714, 1.33888, 1.34182, 1.34069, 1.3448, 1.346, 1.34808, 1.35129, 1.35209, 1.3543, 1.36032, 1.36987, 1.4942, 1.37368, 1.37408, 1.37592, 1.3774, 1.38441, 1.392, 1.39263, 1.39963, 1.40987, 1.41006, 1.57631, 1.57135, 1.47137, 1.41549, 1.42336, 1.42391, 1.42385, 1.42335, 1.51556, 1.43049, 1.43356, 1.99283, 1.43967, 1.43871, 1.49704, 1.45946, 1.45527, 1.45405, 1.47513, 1.47311, 1.47103, 1.47292, 1.47862, 1.47883, 1.4683, 1.46951, 1.47548, 1.47662, 1.47842, 1.47802, 1.47365, 1.4746, 1.4748, 1.47985, 1.47828, 1.47752, 1.46925, 1.47326, 1.47155, 1.47081, 1.4707, 1.46956, 1.47238, 1.47291, 1.4723, 1.47091, 1.47363, 1.47838, 1.47761, 1.48517, 1.47714, 1.47491, 1.49092, 1.58516, 1.46825, 1.47798, 1.46862, 1.46427, 1.45152, 1.44437, 1.43137, 1.43975, 1.43831, 1.43371, 1.42935, 1.42606, 1.42932, 1.42655, 1.41802, 1.42234, 1.42221, 1.41832, 1.41421, 1.42953, 1.43049, 1.44417, 1.42013, 1.41953, 1.47501, 1.41824, 1.4489, 1.58581, 1.41659, 1.56071, 1.50245, 1.5642, 1.49694, 1.43636, 1.56411, 1.5051, 1.44106, 1.44771, 1.35704, 1.49504, 1.37136, 1.3689, 1.36407, 1.35798, 1.35328, 1.34798, 1.34296, 1.3366, 1.33392, 1.33772, 1.33342, 1.33103, 1.32372, 1.32373, 1.31952, 1.31595, 1.30677, 1.30606, 1.28149, 1.27862
1.32923, 1.32906, 1.33673, 1.33139, 1.3349, 1.33735, 1.33397, 1.32931, 1.32891, 1.33109, 1.33425, 1.34348, 1.34423, 1.34675, 1.34642, 1.34889, 1.35217, 1.3475, 1.34468, 1.34849, 1.34853, 1.3518, 1.36461, 1.37043, 1.36856, 1.36829, 1.37022, 1.3685, 1.37362, 1.37636, 1.37778, 1.38315, 1.38649, 1.39094, 1.40199, 1.4084, 1.40906, 1.41639, 1.42644, 1.421, 1.41811, 1.4163, 1.41584, 1.41731, 1.42177, 1.43078, 1.43146, 1.42787, 1.42936, 1.4306, 1.43594, 1.45664, 1.45158, 1.45217, 1.45535, 1.46415, 1.46359, 1.46445, 1.56165, 1.46905, 1.46879, 1.46456, 1.46779, 1.47643, 1.47763, 1.47741, 1.47427, 1.47449, 1.46279, 1.47111, 1.4687, 1.46606, 1.47288, 1.46916, 1.47167, 1.46934, 1.46882, 1.46869, 1.47074, 1.47262, 1.47821, 1.47433, 1.47426, 1.47243, 1.47215, 1.4773, 1.48245, 1.48146, 1.4811, 1.47773, 1.46539, 1.46378, 1.46234, 1.45826, 1.4445, 1.4433, 1.43936, 1.43613, 1.43039, 1.42625, 1.42529, 1.41987, 1.41881, 1.4159, 1.41368, 1.41388, 1.4208, 1.41298, 1.40764, 1.40602, 1.40895, 1.40609, 0.00459114, 1.55954, 1.37853, 1.37986, 1.38108, 1.3948, 1.39401, 1.56144, 1.54164, 1.4788, 1.38145, 1.37916, 1.37802, 1.47109, 1.45701, 1.34672, 1.3496, 1.35225, 1.35449, 1.36613, 1.36579, 1.35731, 1.35004, 1.34057, 1.33921, 1.33044, 1.3305, 1.32717, 1.32311, 1.32365, 1.32312, 1.32203, 1.31732, 1.31472, 1.30476, 1.3028, 1.28075, 1.27863
1.33133, 1.3256, 1.32638, 1.32779, 1.33098, 1.33285, 1.33248, 1.32384, 1.32451, 1.32464, 1.32663, 1.32817, 1.33031, 1.33305, 1.33684, 1.34167, 1.34436, 1.34315, 1.34342, 1.34568, 1.3504, 1.35368, 1.35838, 1.36783, 1.3679, 1.36928, 1.36374, 1.36586, 1.36904, 1.378, 1.37782, 1.37941, 1.38101, 1.38561, 1.39123, 1.40034, 1.40388, 1.41976, 1.42013, 1.41736, 1.42021, 1.42059, 1.42144, 1.42182, 1.41914, 1.48851, 1.43644, 1.4505, 1.45203, 1.45262, 1.45367, 1.4549, 1.45459, 1.4541, 1.45384, 1.4524, 1.45809, 1.45971, 1.45021, 1.46172, 1.46451, 1.46331, 1.47036, 1.47086, 1.46955, 1.47177, 1.47412, 1.47488, 1.46873, 1.47136, 1.47166, 1.46576, 1.46778, 1.46885, 1.47115, 1.4713, 1.47052, 1.47105, 1.47176, 1.47221, 1.48067, 1.47392, 1.47332, 1.47094, 1.47105, 1.47119, 1.47688, 1.47945, 1.48309, 1.47333, 1.4878, 1.48666, 1.47153, 1.44593, 1.44387, 1.43899, 1.43666, 1.43137, 1.42728, 1.42122, 1.41736, 1.41725, 1.40882, 1.41691, 1.41182, 1.41311, 1.42909, 1.40673, 1.403, 1.40057, 1.397, 1.40287, 1.38734, 1.39084, 1.38004, 1.3801, 1.38895, 1.39272, 1.38637, 1.37968, 1.37179, 1.36854, 1.36464, 1.36292, 1.36473, 1.35738, 1.3587, 1.34437, 1.34532, 1.35652, 1.35379, 1.36432, 1.35845, 1.35848, 1.35057, 1.34315, 1.3428, 1.33043, 1.32611, 1.32427, 1.32211, 1.3212, 1.31961, 1.32713, 1.32466, 1.32064, 1.31279, 1.36768, 1.27769, 1.2784
1.3493, 1.34645, 1.33941, 1.33341, 1.33145, 1.32975, 1.32402, 1.32272, 1.32334, 1.32482, 1.32848, 1.33266, 1.33189, 1.33532, 1.33928, 1.34281, 1.34552, 1.34377, 1.3439, 1.34429, 1.35018, 1.36257, 1.36355, 1.36411, 1.36362, 1.36197, 1.36374, 1.36884, 1.3742, 1.37638, 1.37419, 1.37464, 1.37808, 1.3833, 1.38509, 1.52684, 1.41272, 1.41588, 1.41891, 1.41248, 1.41193, 1.4119, 1.41246, 1.41473, 1.41723, 1.4235, 1.42968, 1.44587, 1.44727, 1.45014, 1.44978, 1.44921, 1.45252, 1.45211, 1.45225, 1.45357, 1.45387, 1.45234, 1.4524, 1.45249, 1.45703, 1.45433, 1.45533, 1.46484, 1.46756, 1.46818, 1.47133, 1.48124, 1.47918, 1.48145, 1.47376, 1.48036, 1.47509, 1.48068, 1.47091, 1.46958, 1.46521, 1.4655, 1.47046, 1.46826, 1.46629, 1.47331, 1.48266, 1.47085, 1.46964, 1.47065, 1.47205, 1.47103, 1.47435, 1.47297, 1.48843, 1.48752, 1.48898, 1.44242, 1.44368, 1.4379, 1.43399, 1.43388, 1.42152, 1.41808, 1.41427, 1.41077, 1.40507, 1.41182, 1.41041, 1.40847, 1.42378, 1.40276, 1.39902, 1.39482, 1.38722, 1.38646, 1.38258, 1.37858, 1.38553, 1.3797, 1.37577, 1.37267, 1.37561, 1.37187, 1.3655, 1.36325, 1.35857, 1.35834, 1.35654, 1.34596, 1.34444, 1.34167, 1.34486, 1.34628, 1.351, 1.35371, 1.34718, 1.43863, 1.45673, 1.34275, 1.33819, 1.3379, 1.32876, 1.32357, 1.32349, 1.31973, 1.31873, 1.32317, 1.31709, 1.32655, 1.44641, 1.28773, 1.27611, 1.27035
1.3536, 1.34539, 1.34085, 1.33813, 1.33514, 1.32974, 1.32903, 1.3293, 1.32794, 1.32579, 1.328, 1.33313, 1.33936, 1.33848, 1.34859, 1.35282, 1.35197, 1.35196, 1.34355, 1.3453, 1.3395, 1.36086, 1.36836, 1.37077, 1.36864, 1.36718, 1.36369, 1.36535, 1.3664, 1.3702, 1.3726, 1.37441, 1.38374, 1.3844, 1.39301, 1.40484, 1.4062, 1.40947, 1.40913, 1.41023, 1.41109, 1.4191, 1.41999, 1.42222, 1.42057, 1.42322, 1.42854, 1.44182, 1.43674, 1.44638, 1.44355, 1.44506, 1.44334, 1.44195, 1.44365, 1.44687, 1.45112, 1.45091, 1.44964, 1.45304, 1.45444, 1.45582, 1.45557, 1.46107, 1.46155, 1.46244, 1.4716, 1.47788, 1.47176, 1.46952, 1.47474, 1.47723, 1.47838, 1.47934, 1.47828, 1.4754, 1.47233, 1.46482, 1.46264, 1.47778, 1.45856, 1.45125, 1.47506, 1.4779, 1.47811, 1.4706, 1.46872, 1.46685, 1.4778, 1.47717, 1.46383, 1.55092, 1.49702, 1.43489, 1.44131, 1.43603, 1.41827, 1.39859, 1.39765, 1.40562, 1.40576, 1.40511, 1.40302, 1.40727, 1.40897, 1.41312, 1.4211, 1.4302, 1.39218, 1.39186, 1.3828, 1.37874, 1.37789, 1.36884, 1.3724, 1.37848, 1.37364, 1.3653, 1.36507, 1.36495, 1.35876, 1.36142, 1.35148, 1.34981, 1.3506, 1.33477, 1.33268, 1.32978, 1.32447, 1.32494, 1.33141, 1.32767, 1.50278, 1.32898, 1.32683, 1.31916, 1.32603, 1.33945, 1.33902, 1.32311, 1.32372, 1.32267, 1.32183, 1.33126, 1.33127, 1.3191, 1.31222, 1.36105, 1.29014, 1.2836
1.34966, 1.3488, 1.33906, 1.3366, 1.32953, 1.3289, 1.32971, 1.32992, 1.33159, 1.33172, 1.34243, 1.34063, 1.34171, 1.3412, 1.35044, 1.34988, 1.34804, 1.34187, 1.3408, 1.32964, 1.33002, 1.33173, 1.35308, 1.35959, 1.36061, 1.359, 1.36109, 1.36454, 1.36735, 1.36745, 1.37007, 1.37583, 1.37749, 1.38772, 1.39519, 1.4022, 1.41675, 1.41761, 1.41677, 1.416, 1.41623, 1.41685, 1.41951, 1.41984, 1.42931, 1.42801, 1.43046, 1.42998, 1.43315, 1.4327, 1.43608, 1.43849, 1.43597, 1.43459, 1.43661, 1.43879, 1.44334, 1.44133, 1.44045, 1.45079, 1.45053, 1.47098, 1.47036, 1.47139, 1.4623, 1.46412, 1.46575, 1.46981, 1.47033, 1.46745, 1.46746, 1.46744, 1.47065, 1.47696, 1.4674, 1.47062, 1.46972, 1.46773, 1.4658, 1.46483, 1.44837, 1.44709, 1.44361, 1.47798, 1.48061, 1.47523, 1.47473, 1.46714, 1.46386, 1.45703, 1.45759, 1.43554, 1.43087, 1.43142, 1.42749, 1.41863, 1.4176, 1.38906, 1.38942, 1.40204, 1.40099, 1.40322, 1.40907, 1.40653, 1.4191, 1.4124, 1.41111, 1.39477, 1.39108, 1.38326, 1.37515, 1.37246, 1.42555, 1.36698, 1.36602, 1.37544, 1.37768, 1.36649, 1.36522, 1.36653, 1.35547, 1.36216, 1.36113, 1.35175, 1.3478, 1.3321, 1.32974, 1.32557, 1.3188, 1.33283, 1.33099, 1.32526, 1.32333, 1.32, 1.31513, 1.31667, 1.3256, 1.32655, 1.33729, 1.3361, 1.33795, 1.33212, 1.33263, 1.32986, 1.32459, 1.45971, 1.38096, 1.4505, 1.29243, 1.29006
1.36148, 1.36178, 1.35895, 1.3528, 1.34859, 1.73703, 1.33383, 1.33255, 1.33778, 1.33971, 1.34835, 1.35476, 1.34594, 1.34536, 1.3495, 1.34657, 1.3404, 1.3479, 1.34858, 1.33143, 1.32692, 1.33467, 1.34953, 1.36158, 1.36087, 1.35986, 1.36044, 1.36439, 1.36526, 1.3757, 1.37558, 1.37801, 1.38154, 1.38601, 1.40498, 1.41249, 1.4123, 1.4305, 1.43043, 1.43311, 1.42963, 1.42993, 1.42213, 1.41675, 1.42857, 1.42743, 1.42629, 1.42439, 1.42301, 1.42273, 1.42025, 1.42293, 1.42588, 1.42779, 1.43172, 1.43262, 1.4362, 1.43944, 1.43831, 1.4334, 1.62733, 1.45845, 1.46282, 1.47771, 1.47564, 1.47617, 1.47337, 1.46799, 1.4681, 1.47504, 1.46704, 1.46827, 1.4709, 1.48203, 1.48532, 1.47156, 1.47134, 1.46519, 1.46367, 1.46547, 1.46237, 1.46335, 1.45815, 1.45977, 1.45451, 1.45433, 1.59157, 1.47114, 1.4577, 1.45748, 1.55687, 1.43061, 1.42966, 1.42611, 1.41198, 1.41011, 1.40116, 1.39799, 1.38483, 1.38329, 1.39495, 1.41821, 1.41651, 1.40609, 1.43779, 1.43552, 1.40915, 1.39161, 1.38748, 1.37542, 1.37086, 1.3707, 1.33476, 1.33292, 1.38283, 1.549, 1.36453, 1.43649, 1.35523, 1.41284, 1.39995, 1.35406, 1.35198, 1.35398, 1.33808, 1.33423, 1.33487, 1.32794, 1.32485, 1.32887, 1.32641, 1.32266, 1.32298, 1.31722, 1.31464, 1.31449, 1.31523, 1.32527, 1.32801, 1.33277, 1.33981, 1.33937, 1.32955, 1.32588, 1.32094, 1.3025, 1.46022, 1.29192, 1.29129, 1.37013
1.35151, 1.35608, 1.35665, 1.34952, 1.34662, 1.34477, 1.34127, 1.33736, 1.3364, 1.33582, 1.33363, 1.33653, 1.34151, 1.34186, 1.34291, 1.344, 1.34542, 1.33969, 1.34756, 1.34767, 1.33135, 1.33757, 1.34171, 1.36376, 1.35802, 1.3675, 1.36737, 1.37195, 1.37144, 1.37258, 1.37552, 1.37971, 1.38208, 1.46079, 1.54659, 1.42851, 1.4281, 1.42305, 1.42639, 1.43056, 1.41215, 1.41314, 1.41723, 1.41561, 1.41596, 1.41891, 1.4159, 1.41798, 1.41744, 1.4194, 1.42055, 1.42, 1.4256, 1.4267, 1.43172, 1.43335, 1.42488, 1.44355, 1.43754, 1.44449, 1.44575, 1.45316, 1.45831, 1.48724, 1.48527, 1.47829, 1.47831, 1.471, 1.47106, 1.4746, 1.47535, 1.46415, 1.46335, 1.4682, 1.46763, 1.46816, 1.47469, 1.47115, 1.46817, 1.47408, 1.47278, 1.46844, 1.45765, 1.45661, 1.45045, 1.45339, 1.45283, 1.44872, 1.44764, 1.56363, 1.4223, 1.42372, 1.42377, 1.41209, 1.41021, 1.40817, 1.39873, 1.39795, 1.38378, 1.38271, 1.3895, 1.40356, 1.3984, 1.40911, 1.43382, 1.48239, 1.40921, 1.40037, 1.39099, 1.39102, 1.58707, 1.34631, 1.3321, 1.32875, 1.32561, 1.42262, 1.41568, 1.36934, 1.50276, 1.33422, 1.48285, 1.37223, 1.3451, 1.3365, 1.33324, 1.33337, 1.32792, 1.32511, 1.32305, 1.32726, 1.33216, 1.32886, 1.3173, 1.31437, 1.30723, 1.30566, 1.31966, 1.32241, 1.32311, 1.32669, 1.42599, 1.40942, 1.50368, 1.47377, 1.39959, 1.29356, 1.29227, 1.29111, 1.3686, 1.34249
1.34875, 1.34615, 1.3465, 1.34653, 1.34658, 1.34241, 1.33733, 1.33569, 1.33362, 1.33301, 1.33054, 1.33011, 1.33711, 1.33869, 1.34125, 1.34259, 1.34594, 1.35067, 1.35252, 1.35328, 1.33148, 1.3324, 1.36699, 1.36483, 1.36372, 1.36315, 1.36627, 1.3703, 1.372, 1.37815, 1.46396, 1.40382, 1.4058, 1.41334, 1.41661, 1.42499, 1.41708, 1.41096, 1.41534, 1.41356, 1.41154, 1.41029, 1.41263, 1.41193, 1.41241, 1.41887, 1.41672, 1.41634, 1.42137, 1.4206, 1.42258, 1.42905, 1.4333, 1.43414, 1.44583, 1.44414, 1.44352, 1.4414, 1.45021, 1.45231, 1.45479, 1.45526, 1.45986, 1.4607, 1.4646, 1.46444, 1.4642, 1.45829, 1.45952, 1.464, 1.46582, 1.46539, 1.46229, 1.46413, 1.46952, 1.46484, 1.46411, 1.46224, 1.46061, 1.45837, 1.45805, 1.45779, 1.45393, 1.45316, 1.44755, 1.4537, 1.44538, 1.44013, 1.43909, 1.42872, 1.42594, 1.4285, 1.5657, 1.56982, 1.40872, 1.41279, 1.49952, 1.38835, 1.38202, 1.38081, 1.37926, 1.40136, 1.48871, 1.3888, 1.3883, 1.50901, 1.38943, 1.37912, 1.57854, 1.37686, 1.34953, 1.34222, 1.33749, 1.45774, 1.37557, 1.39997, 1.40666, 1.30571, 1.45011, 1.37734, 1.76262, 1.40555, 1.37392, 1.69309, 1.33365, 1.62962, 1.32411, 1.32241, 1.3201, 1.59847, 1.63074, 1.32772, 1.3203, 1.31369, 1.31453, 1.31229, 1.31891, 1.31896, 1.31842, 1.32225, 1.31512, 1.30593, 1.30401, 1.29831, 1.2946, 1.29089, 1.28532, 1.37515, 1.27051, 1.24836
1.34684, 1.34578, 1.34235, 1.34236, 1.34056, 1.33981, 1.3331, 1.33029, 1.33106, 1.33111, 1.32762, 1.33197, 1.33623, 1.34674, 1.34982, 1.35203, 1.35054, 1.34995, 1.35121, 1.34886, 1.33784, 1.32644, 1.32684, 1.35837, 1.36474, 1.36504, 1.47444, 1.49171, 1.48223, 1.40397, 1.41212, 1.41205, 1.40562, 1.40521, 1.40494, 1.39886, 1.41899, 1.41529, 1.41721, 1.40159, 1.39747, 1.39787, 1.40333, 1.40422, 1.40209, 1.40762, 1.40829, 1.41465, 1.4206, 1.42624, 1.5378, 1.46871, 1.44167, 1.44807, 1.45114, 1.45246, 1.45076, 1.45037, 1.45074, 1.45046, 1.4517, 1.45087, 1.45363, 1.45714, 1.45693, 1.46401, 1.45747, 1.45632, 1.45725, 1.45818, 1.46588, 1.45733, 1.45147, 1.45061, 1.44951, 1.46288, 1.46109, 1.45952, 1.45868, 1.45552, 1.4557, 1.45026, 1.44999, 1.44749, 1.43439, 1.43486, 1.43276, 1.42872, 1.43027, 1.42765, 1.42947, 1.42905, 1.40556, 1.39427, 1.39361, 1.4003, 1.38784, 1.38122, 1.37803, 1.37778, 1.37511, 1.36666, 1.3772, 1.37595, 1.3794, 1.37694, 1.49561, 1.35516, 1.34143, 1.3433, 1.34011, 1.46041, 1.31867, 1.31302, 1.29196, 1.29509, 1.29506, 1.29777, 1.36766, 1.35075, 1.30197, 1.3021, 1.79865, 1.30873, 1.68057, 1.39284, 1.66458, 1.31252, 1.30942, 1.62078, 1.58586, 1.53285, 1.29824, 1.29295, 1.30223, 1.31985, 1.31639, 1.31728, 1.31858, 1.32122, 1.31902, 1.31325, 1.30696, 1.29943, 1.29881, 1.28652, 1.27969, 1.27494, 1.26959, 1.27197
1.34706, 1.34015, 1.33947, 1.33899, 1.33969, 1.33726, 1.33271, 1.33115, 1.33278, 1.33004, 1.32672, 1.33762, 1.3383, 1.34019, 1.34187, 1.34571, 1.34417, 1.34301, 1.34324, 1.33564, 1.3306, 1.32776, 1.44508, 1.46582, 1.44551, 1.40427, 1.40372, 1.40173, 1.40207, 1.40613, 1.40954, 1.40185, 1.40163, 1.40489, 1.39326, 1.39329, 1.42008, 1.41613, 1.40636, 1.39801, 1.39446, 1.39508, 1.39574, 1.39925, 1.39903, 1.40308, 1.40842, 1.40897, 1.48496, 1.44672, 1.4439, 1.44503, 1.44567, 1.44576, 1.45043, 1.44944, 1.44679, 1.44704, 1.45095, 1.46515, 1.47038, 1.46568, 1.46735, 1.46767, 1.46988, 1.47045, 1.46441, 1.46365, 1.46329, 1.45904, 1.45507, 1.45212, 1.44865, 1.44619, 1.44016, 1.45483, 1.4534, 1.44997, 1.44745, 1.45581, 1.45436, 1.44838, 1.44579, 1.44378, 1.4251, 1.43022, 1.42789, 1.42604, 1.42279, 1.44208, 1.43398, 1.43128, 1.42195, 1.60779, 1.40093, 1.3995, 1.39459, 1.38239, 1.37791, 1.37897, 1.36824, 1.36729, 1.36686, 1.36462, 1.36624, 1.48183, 1.34804, 1.33797, 1.33632, 1.33562, 1.3313, 1.31503, 1.31143, 1.312, 1.28893, 1.28712, 1.28443, 1.28392, 1.28063, 1.28289, 1.29115, 1.29249, 1.29745, 1.29494, 1.29534, 1.29751, 1.39835, 1.30481, 1.29709, 1.3006, 1.30171, 1.30182, 1.29179, 1.29145, 1.29377, 1.29513, 1.30633, 1.30675, 1.30823, 1.31002, 1.31117, 1.31187, 1.30981, 1.30518, 1.30386, 1.37124, 1.28028, 1.27914, 1.27186, 1.29368
1.35209, 1.34922, 1.34433, 1.3456, 1.33689, 1.33503, 1.33237, 1.33156, 1.33115, 1.33249, 1.33342, 1.33601, 1.33929, 1.34434, 1.35197, 1.35169, 1.35322, 1.35184, 1.34189, 1.34326, 1.33789, 1.41346, 1.39838, 1.3999, 1.40862, 1.4097, 1.40187, 1.39966, 1.41074, 1.41921, 1.42129, 1.40445, 1.40543, 1.40248, 1.3976, 1.39608, 1.40263, 1.40241, 1.39478, 1.39321, 1.39117, 1.39225, 1.40156, 1.40136, 1.40024, 1.40413, 1.40921, 1.421, 1.42165, 1.44318, 1.44159, 1.44583, 1.45779, 1.45568, 1.45386, 1.45139, 1.45074, 1.45121, 1.45041, 1.46726, 1.46484, 1.46459, 1.46465, 1.46563, 1.46543, 1.46387, 1.46203, 1.46049, 1.45647, 1.45542, 1.45505, 1.45198, 1.45075, 1.45381, 1.43014, 1.42999, 1.45467, 1.44984, 1.44922, 1.44684, 1.44414, 1.44498, 1.43946, 1.43706, 1.42727, 1.42578, 1.42507, 1.42299, 1.43743, 1.43334, 1.43156, 1.43011, 1.41977, 1.41731, 1.39939, 1.39831, 1.39487, 1.39209, 1.38157, 1.37587, 1.37087, 1.36431, 1.36185, 1.36373, 1.35886, 1.35551, 1.34596, 1.33477, 1.33085, 1.33308, 1.33231, 1.31331, 1.30946, 1.30822, 1.30654, 1.28278, 1.28067, 1.2815, 1.27945, 1.27624, 1.38511, 1.28547, 1.2896, 1.2897, 1.29119, 1.28974, 1.2891, 1.29082, 1.29626, 1.29543, 1.30016, 1.30011, 1.2961, 1.2878, 1.28629, 1.29674, 1.29961, 1.29979, 1.30327, 1.305, 1.30644, 1.30651, 1.30765, 1.33262, 1.29701, 1.29379, 1.27821, 1.27436, 1.2723, 1.26101
1.35668, 1.34617, 1.34345, 1.34293, 1.34433, 1.34376, 1.34336, 1.34207, 1.34221, 1.33695, 1.33884, 1.34303, 1.33877, 1.35119, 1.35105, 1.34999, 1.35502, 1.35746, 1.45795, 1.3576, 1.45683, 1.37996, 1.38076, 1.40165, 1.41048, 1.41152, 1.39563, 1.39238, 1.39668, 1.39715, 1.41085, 1.40715, 1.4026, 1.40249, 1.3953, 1.39345, 1.39326, 1.39305, 1.39128, 1.39188, 1.39614, 1.39953, 1.49278, 1.41682, 1.415, 1.41259, 1.41638, 1.41803, 1.42585, 1.4302, 1.43344, 1.4348, 1.45417, 1.4502, 1.44879, 1.44677, 1.44667, 1.44846, 1.44814, 1.46096, 1.46884, 1.47123, 1.46808, 1.4673, 1.46722, 1.46474, 1.46393, 1.46337, 1.45944, 1.45966, 1.46357, 1.46628, 1.46582, 1.44418, 1.44212, 1.45435, 1.45926, 1.45448, 1.44744, 1.44971, 1.44357, 1.43846, 1.43696, 1.44164, 1.43777, 1.41618, 1.41611, 1.41121, 1.44238, 1.43202, 1.42969, 1.42786, 1.41876, 1.41757, 1.41738, 1.40296, 1.4014, 1.39454, 1.37761, 1.3737, 1.3688, 1.36836, 1.37341, 1.37404, 1.35695, 1.35326, 1.35053, 1.34345, 1.3328, 1.33165, 1.42708, 1.31801, 1.31592, 1.31672, 1.42614, 1.30098, 1.28294, 1.28144, 1.27431, 1.27236, 1.26896, 1.28087, 1.28348, 1.28395, 1.28622, 1.28842, 1.28375, 1.28279, 1.28709, 1.29827, 1.29935, 1.30316, 1.30635, 1.30049, 1.29135, 1.28654, 1.28496, 1.29119, 1.30667, 1.30741, 1.30762, 1.3035, 1.3028, 1.2917, 1.28831, 1.28817, 1.27492, 1.27451, 1.26963, 1.26868
1.36, 1.34503, 1.33649, 1.3341, 1.34023, 1.34068, 1.33773, 1.33918, 1.33946, 1.34073, 1.34355, 1.35076, 1.35221, 1.35473, 1.35692, 1.36378, 1.45016, 1.47071, 1.48565, 1.38723, 1.39158, 1.39456, 1.39527, 1.39117, 1.39807, 1.38958, 1.38829, 1.39364, 1.3942, 1.39053, 1.39464, 1.39675, 1.39453, 1.3925, 1.39469, 1.39474, 1.39349, 1.39523, 1.39831, 1.50949, 1.51268, 1.52245, 1.49004, 1.42351, 1.4238, 1.51062, 1.42577, 1.42658, 1.42677, 1.43295, 1.4331, 1.43639, 1.44795, 1.44737, 1.44682, 1.44564, 1.44437, 1.44342, 1.43776, 1.44336, 1.46784, 1.46401, 1.46102, 1.45869, 1.45814, 1.45756, 1.45709, 1.45793, 1.45696, 1.45696, 1.45371, 1.46292, 1.45925, 1.45411, 1.44747, 1.44914, 1.48557, 1.50537, 1.50665, 1.50989, 1.43639, 1.43767, 1.43674, 1.43685, 1.43616, 1.47048, 1.47863, 1.39589, 1.42202, 1.42344, 1.41445, 1.41281, 1.4035, 1.40511, 1.40144, 1.39547, 1.39452, 1.38874, 1.3872, 1.37738, 1.37125, 1.37203, 1.37056, 1.3633, 1.36106, 1.35839, 1.34856, 1.34862, 1.34478, 1.34875, 1.34535, 1.44549, 1.41738, 1.4728, 1.4855, 1.46169, 1.31562, 1.27789, 1.27686, 1.27436, 1.27254, 1.27162, 1.27734, 1.28126, 1.40518, 1.40938, 1.36558, 1.27281, 1.28059, 1.28681, 1.35445, 1.29774, 1.30205, 1.29877, 1.29819, 1.29791, 1.28169, 1.28523, 1.29475, 1.29495, 1.29547, 1.29502, 1.29477, 1.28913, 1.28649, 1.28368, 1.27331, 1.26884, 1.26741, 1.26505
1.35434, 1.34826, 1.34722, 1.33671, 1.34645, 1.347, 1.34664, 1.35138, 1.35518, 1.4474, 1.44793, 1.44291, 1.44619, 1.45044, 1.39502, 1.39525, 1.39374, 1.38914, 1.39455, 1.38471, 1.38591, 1.38554, 1.38534, 1.38205, 1.38331, 1.38303, 1.38521, 1.38511, 1.38106, 1.38393, 1.39108, 1.39238, 1.3961, 1.39601, 1.40319, 1.40664, 1.41043, 1.42387, 1.42905, 1.42824, 1.42925, 1.42995, 1.43362, 1.43193, 1.44141, 1.44161, 1.43965, 1.43697, 1.43722, 1.43752, 1.43786, 1.44423, 1.45368, 1.45405, 1.45403, 1.45305, 1.45323, 1.45333, 1.43535, 1.4344, 1.45366, 1.45369, 1.45167, 1.45018, 1.45133, 1.45059, 1.45414, 1.44791, 1.4508, 1.45084, 1.45011, 1.44855, 1.42895, 1.43139, 1.4275, 1.43643, 1.43659, 1.43129, 1.43128, 1.42931, 1.42233, 1.42243, 1.42135, 1.42348, 1.42135, 1.38063, 1.37484, 1.45793, 1.4089, 1.41228, 1.40844, 1.40731, 1.40024, 1.39922, 1.39426, 1.3881, 1.38505, 1.38221, 1.38252, 1.37301, 1.37208, 1.36821, 1.36307, 1.36223, 1.36079, 1.35853, 1.35464, 1.34961, 1.35101, 1.34852, 1.34731, 1.33813, 1.33866, 1.3402, 1.33292, 1.39244, 1.30824, 1.28437, 1.27837, 1.27635, 1.27599, 1.27077, 1.26526, 1.43441, 1.25363, 1.26067, 1.25578, 1.26298, 1.26444, 1.27483, 1.28102, 1.28083, 1.29976, 1.29791, 1.29674, 1.28539, 1.28265, 1.2863, 1.2867, 1.29029, 1.2945, 1.28869, 1.28792, 1.28606, 1.28273, 1.27612, 1.2747, 1.26952, 1.26802, 1.26405
1.35697, 1.3606, 1.4901, 1.35121, 1.47564, 1.34354, 1.35006, 1.35526, 1.42271, 1.42211, 1.39379, 1.39285, 1.39257, 1.39266, 1.38938, 1.38143, 1.3809, 1.38047, 1.37968, 1.37721, 1.3775, 1.37765, 1.38225, 1.37833, 1.3791, 1.38081, 1.38408, 1.38443, 1.37801, 1.38639, 1.39193, 1.39612, 1.40519, 1.41105, 1.41195, 1.40988, 1.4091, 1.42714, 1.43409, 1.4385, 1.43824, 1.43977, 1.43863, 1.43522, 1.4335, 1.43619, 1.43489, 1.43391, 1.43408, 1.4371, 1.4354, 1.43863, 1.44993, 1.44942, 1.45192, 1.44952, 1.45294, 1.44357, 1.43469, 1.43253, 1.46522, 1.44991, 1.45014, 1.44709, 1.44784, 1.44727, 1.44626, 1.44122, 1.43979, 1.56419, 1.42531, 1.4254, 1.42594, 1.42602, 1.4283, 1.43867, 1.43755, 1.43688, 1.43348, 1.43124, 1.42135, 1.41922, 1.41433, 1.41463, 1.40809, 1.38035, 1.37826, 1.44033, 1.40516, 1.40176, 1.39824, 1.39459, 1.38878, 1.38552, 1.38328, 1.3781, 1.37744, 1.3762, 1.37478, 1.36839, 1.36529, 1.36282, 1.35689, 1.35497, 1.35722, 1.35641, 1.36494, 1.36132, 1.34837, 1.34558, 1.3346, 1.3345, 1.33592, 1.33336, 1.3283, 1.32609, 1.37893, 1.28945, 1.28227, 1.27871, 1.27754, 1.26712, 1.26679, 1.25392, 1.25394, 1.24883, 1.25258, 1.26237, 1.26485, 1.26703, 1.27713, 1.28451, 1.29459, 1.29522, 1.29479, 1.28084, 1.27581, 1.27556, 1.28598, 1.28732, 1.28704, 1.29098, 1.28729, 1.28531, 1.27971, 1.27652, 1.27986, 1.2758, 1.27181, 1.26946
1.47054, 0.00467205, 1.403, 1.52975, 1.43249, 1.39186, 1.39239, 1.3901, 1.38855, 1.39318, 1.3924, 1.39189, 1.39178, 1.38815, 1.38177, 1.38183, 1.38032, 1.37613, 1.37507, 1.36837, 1.37506, 1.37999, 1.38117, 1.37452, 1.3755, 1.37536, 1.3762, 1.37911, 1.38166, 1.39095, 1.39347, 1.39963, 1.41237, 1.41508, 1.41797, 1.41793, 1.41734, 1.4214, 1.43388, 1.43383, 1.43201, 1.43088, 1.43026, 1.43106, 1.43331, 1.43836, 1.43646, 1.43847, 1.43766, 1.44042, 1.43672, 1.43535, 1.43639, 1.4364, 1.43583, 1.43644, 1.43705, 1.44099, 1.44278, 1.4421, 1.446, 1.45065, 1.44954, 1.45034, 1.44621, 1.4466, 1.44282, 1.44326, 1.43972, 1.42177, 1.42474, 1.42586, 1.43134, 1.41622, 1.41653, 1.43068, 1.42937, 1.43003, 1.43042, 1.43204, 1.42153, 1.4192, 1.41657, 1.41201, 1.39571, 1.38101, 1.38113, 1.39472, 1.39486, 1.39578, 1.39544, 1.39167, 1.38555, 1.38206, 1.37709, 1.36992, 1.36864, 1.36966, 1.36785, 1.35854, 1.3567, 1.35128, 1.35128, 1.35293, 1.35164, 1.50985, 1.36203, 1.36087, 1.35679, 1.33354, 1.33978, 1.33868, 1.33489, 1.32931, 1.32954, 1.31937, 1.48363, 1.28939, 1.28496, 1.28001, 1.27618, 1.27602, 1.26814, 1.26502, 1.25607, 1.25417, 1.25768, 1.26455, 1.2667, 1.3586, 1.2858, 1.29017, 1.29125, 1.29246, 1.30232, 1.38497, 1.28778, 1.28078, 1.2918, 1.29107, 1.29889, 1.29227, 1.29911, 1.2933, 1.28698, 1.28218, 1.28112, 1.27719, 1.27404, 1.27422
1.62932, 1.3964, 1.39783, 1.39119, 1.39177, 1.38939, 1.39078, 1.38855, 1.38704, 1.38666, 1.38666, 1.38435, 1.38166, 1.38111, 1.3795, 1.37389, 1.37171, 1.37192, 1.37129, 1.37044, 1.37182, 1.37452, 1.37193, 1.3736, 1.37457, 1.37473, 1.376, 1.37955, 1.38441, 1.39484, 1.40577, 1.41763, 1.41865, 1.42105, 1.42218, 1.42196, 1.42344, 1.42378, 1.42983, 1.43304, 1.43523, 1.43494, 1.43103, 1.43068, 1.43494, 1.43595, 1.43648, 1.44189, 1.44157, 1.43822, 1.43751, 1.43443, 1.44008, 1.43721, 1.43478, 1.43662, 1.43731, 1.44032, 1.44265, 1.44315, 1.44363, 1.46087, 1.46032, 1.45544, 1.45225, 1.44647, 1.44312, 1.44178, 1.43929, 1.43654, 1.43383, 1.43473, 1.42872, 1.42348, 1.42746, 1.42721, 1.42815, 1.42905, 1.43054, 1.43021, 1.43335, 1.4162, 1.41232, 1.40902, 1.40767, 1.38219, 1.38213, 1.39904, 1.39853, 1.39278, 1.38849, 1.38421, 1.38019, 1.3778, 1.37205, 1.36435, 1.3607, 1.36537, 1.36593, 1.36278, 1.35644, 1.34765, 1.3443, 1.34112, 1.34237, 1.34245, 1.34895, 1.35242, 1.3442, 1.337, 1.33468, 1.33061, 1.32693, 1.32587, 1.32545, 1.31365, 1.30811, 1.30785, 1.28687, 1.28475, 1.2875, 1.2844, 1.27655, 1.26852, 1.26969, 1.26901, 1.38524, 1.40699, 1.27716, 1.27739, 1.2781, 1.27645, 1.31131, 1.42395, 1.30979, 1.30868, 1.28675, 1.28845, 1.29105, 1.3057, 1.30242, 1.30285, 1.3016, 1.30312, 1.30041, 1.29534, 1.28791, 1.27746, 1.27948, 1.27759
