1.15062, 1.15027, 1.1477, 1.14619, 1.14032, 1.14229, 1.14376, 1.14465, 1.14507, 1.14494, 1.14475, 1.14563, 1.14596, 1.14638, 1.14946, 1.15248, 1.14715, 1.15246, 1.15613, 1.15639, 1.15612, 1.15918, 1.1598, 1.16179, 1.1639, 1.16519, 1.16986, 1.15855, 1.15869, 1.15624, 1.23168, 1.2287, 1.25447, 1.27613, 1.29396, 1.19072, 1.19042, 1.19085, 1.19108, 1.19375, 1.19488, 1.19754, 1.1982, 1.20119, 1.20322, 1.20621, 1.22947, 1.21872, 1.22201, 1.22169, 1.22524, 1.22829, 1.2276, 1.22701, 1.22564, 1.22545, 1.22535, 1.22277, 1.22241, 1.21521, 1.22021, 1.46056, 1.15812, 1.16986, 1.16982, 1.15193, 1.20918, 1.18859, 1.1919, 1.19276, 1.21212, 1.22219, 1.25149, 1.29842, 1.23643, 1.31097, 1.26823, 1.26472, 1.26551, 1.27292, 1.28824, 1.2986, 1.31909, 1.32036, 1.33974, 1.35225, 1.35142, 1.36566, 1.38181, 1.37475, 1.3761, 1.38833, 1.38876, 1.38894, 1.40248, 1.40378, 1.40559, 1.45334, 1.44391, 1.4412, 1.44552, 1.45337, 1.46744, 1.45694, 1.45338, 1.47874, 1.52904, 1.48167, 1.481, 1.50212, 1.50216, 1.52687, 1.5037, 1.50527, 1.50226, 1.49097, 1.49137, 1.48935, 1.51414, 1.55765, 1.55818, 1.57512, 1.56858, 1.59344, 1.57507, 1.57217, 1.58579, 1.56905, 1.56919, 1.56717, 1.54442, 1.54658, 1.52576, 1.51801, 1.50473, 1.53893, 1.53738, 1.49789, 1.50727, 1.51343, 1.48186, 1.47572, 1.44779, 1.45375, 1.4521, 1.45882, 1.49631, 1.7043, 1.47878, 1.48582, 1.40272, 1.3879, 1.35041, 1.3151, 1.31435, 1.30241, 1.27439, 1.27372, 1.32274, 1.24161, 1.22664, 1.21256, 1.20584, 1.17489, 1.15385, 1.18236, 1.17022, 1.16679, 1.20141, 1.19671, 1.17899, 1.17724, 1.17677, 1.17211, 1.17, 1.14989, 1.15012, 1.14742, 1.1427, 1.14877, 1.14973, 1.14391, 1.28093, 1.13884, 1.14224, 1.14272, 1.14032, 1.13873, 1.13777, 1.13884, 1.25831, 1.12635, 1.1259, 1.12855, 1.12764, 1.12718, 1.13144, 1.13071, 1.25086, 1.21668, 1.17976, 1.18049, 1.14237, 1.11203, 1.11115, 1.09503, 1.08922, 1.08911, 1.08453, 1.06986, 1.06894, 1.05883, 1.21309, 1.0354, 1.03708, 1.02965, 1.02953, 1.03103, 1.02611, 1.02903, 1.02803, 1.03164, 1.03176, 1.01857, 1.02928, 1.05309, 1.05474, 1.05985, 1.04648, 1.04527, 1.04543, 1.05934, 1.06037, 1.0743, 1.06827, 1.06703, 1.06696, 1.06664, 1.06478, 1.06468
1.15163, 1.15014, 1.1477, 1.14584, 1.13954, 1.14184, 1.1426, 1.14299, 1.14584, 1.14529, 1.14616, 1.14669, 1.14802, 1.15004, 1.15036, 1.15142, 1.15173, 1.15223, 1.15561, 1.15802, 1.1576, 1.15876, 1.16203, 1.16314, 1.16679, 1.16797, 1.17016, 1.17031, 1.16423, 1.16509, 1.23758, 1.19434, 1.20154, 1.20194, 1.20554, 1.20548, 1.20667, 1.20649, 1.20544, 1.20534, 1.20709, 1.20691, 1.20334, 1.20377, 1.20713, 1.21232, 1.22714, 1.22068, 1.22361, 1.22527, 1.2269, 1.22879, 1.22894, 1.22083, 1.22009, 1.22585, 1.22601, 1.22561, 1.22513, 1.21186, 1.21234, 1.1768, 1.17709, 1.15348, 1.15284, 1.15383, 1.19413, 1.19253, 1.19055, 1.20951, 1.21567, 1.22879, 1.22886, 1.26165, 1.24286, 1.30557, 1.30247, 1.27839, 1.28078, 1.28379, 1.2957, 1.31905, 1.31378, 1.3141, 1.3432, 1.34001, 1.3473, 1.37747, 1.38598, 1.39667, 1.3843, 1.41244, 1.40306, 1.40281, 1.4197, 1.44095, 1.45198, 1.47755, 1.46725, 1.48763, 1.48531, 1.47048, 1.47839, 1.46837, 1.49326, 1.49024, 1.50587, 1.48445, 1.50631, 1.50359, 1.51571, 1.55189, 1.5041, 1.50444, 1.52572, 1.49775, 1.52986, 1.52698, 1.56635, 1.58981, 1.59218, 1.60979, 1.63321, 1.73423, 1.69363, 1.73113, 1.70679, 1.60108, 1.58961, 1.73434, 1.68026, 1.5602, 1.55038, 1.54721, 1.53023, 1.52758, 1.53327, 1.5886, 1.54, 1.51454, 1.50253, 1.53076, 1.45317, 1.44011, 1.46314, 1.49535, 1.59892, 1.70968, 1.46836, 1.4552, 1.44388, 1.36105, 1.36018, 1.32241, 1.33602, 1.34743, 1.30976, 1.28531, 1.27445, 1.26009, 1.26348, 1.19258, 1.2018, 1.19571, 1.18321, 1.17502, 1.17193, 1.17119, 1.16459, 1.16352, 1.17553, 1.17575, 1.16981, 1.28616, 1.28278, 1.15431, 1.33767, 1.14274, 1.14019, 1.14686, 1.1397, 1.13274, 1.13379, 1.12995, 1.13558, 1.13128, 1.13141, 1.13321, 1.13208, 1.12214, 1.30128, 1.11803, 1.12502, 1.12531, 1.12235, 1.12008, 1.12588, 1.12575, 1.27627, 1.12212, 1.157, 1.1503, 1.21955, 1.11378, 1.10113, 1.091, 1.09331, 1.08861, 1.09128, 1.07007, 1.07008, 1.06679, 1.04308, 1.03189, 1.02962, 1.02509, 1.01981, 1.01911, 1.02468, 1.01815, 1.02061, 1.02937, 1.01641, 1.01767, 1.08472, 1.19215, 1.05297, 1.05283, 1.04969, 1.04835, 1.0496, 1.06104, 1.07231, 1.07646, 1.07016, 1.06998, 1.06848, 1.0685, 1.06813, 1.06651
1.14958, 1.15069, 1.14983, 1.14943, 1.14672, 1.14446, 1.1437, 1.14623, 1.14623, 1.14609, 1.14615, 1.14835, 1.14997, 1.15059, 1.15126, 1.146, 1.15084, 1.15294, 1.15867, 1.16272, 1.16287, 1.16168, 1.16317, 1.16467, 1.16709, 1.16881, 1.17264, 1.17337, 1.16807, 1.16712, 1.22414, 1.19581, 1.26411, 1.19432, 1.26402, 1.20652, 1.26502, 1.20689, 1.20551, 1.2044, 1.20577, 1.206, 1.20812, 1.21059, 1.21344, 1.21551, 1.21679, 1.22062, 1.22138, 1.22347, 1.22442, 1.22903, 1.22653, 1.22663, 1.37038, 1.43053, 1.43099, 1.22997, 1.21203, 1.21066, 1.40644, 1.17475, 1.17469, 1.16456, 1.19326, 1.20095, 1.18834, 1.21127, 1.20536, 1.20587, 1.22904, 1.23135, 1.24113, 1.25133, 1.25153, 1.27516, 1.29842, 1.29174, 1.29571, 1.29616, 1.35022, 1.30962, 1.31313, 1.33469, 1.33967, 1.35666, 1.3711, 1.40065, 1.39919, 1.4144, 1.41849, 1.42554, 1.42214, 1.4209, 1.4338, 1.46064, 1.50214, 1.52081, 1.51985, 1.49143, 1.50108, 1.49557, 1.49591, 1.54674, 1.50016, 1.48655, 1.52339, 1.51163, 1.5115, 1.50872, 1.53708, 1.62638, 1.54493, 1.53656, 1.51087, 1.52157, 1.51972, 1.55028, 1.61235, 1.63018, 1.62979, 1.69651, 1.78649, 1.71127, 1.64761, 1.66573, 1.74741, 1.62395, 1.63685, 1.6376, 1.71335, 1.63492, 1.57828, 1.54782, 1.55878, 1.55141, 1.55897, 1.55657, 1.56117, 1.59503, 1.7142, 1.52509, 1.49397, 1.48013, 1.49657, 1.51428, 1.53733, 1.53642, 1.49009, 1.44444, 1.39015, 1.35792, 1.35765, 1.35148, 1.33988, 1.31915, 1.31091, 1.30593, 1.2904, 1.28379, 1.25299, 1.24662, 1.23618, 1.22327, 1.20814, 1.19628, 1.18428, 1.17409, 1.15126, 1.15245, 1.16692, 1.17039, 1.4224, 1.38615, 1.15485, 1.44082, 1.14489, 1.14224, 1.14443, 1.14741, 1.13647, 1.12972, 1.12577, 1.12547, 1.13489, 1.13253, 1.12704, 1.1203, 1.12165, 1.11073, 1.11032, 1.11113, 1.11448, 1.11832, 1.12167, 1.12193, 1.12418, 1.11507, 1.11236, 1.11189, 1.24491, 1.15286, 1.14817, 1.10222, 1.10107, 1.10401, 1.09287, 1.09409, 1.08817, 1.0702, 1.07034, 1.05628, 1.03643, 1.03723, 1.02599, 1.02083, 1.02127, 1.0136, 1.01419, 1.00967, 1.00775, 1.0094, 1.0176, 1.01338, 1.01434, 1.02642, 1.03897, 1.05389, 1.05313, 1.05088, 1.05216, 1.07192, 1.07708, 1.07399, 1.0704, 1.06811, 1.06806, 1.06807, 1.07036, 1.06335
1.15052, 1.15319, 1.15352, 1.15184, 1.15223, 1.14636, 1.14595, 1.14606, 1.14713, 1.14772, 1.14788, 1.15061, 1.15051, 1.15049, 1.14792, 1.14746, 1.15153, 1.15175, 1.16623, 1.1669, 1.16907, 1.16994, 1.16599, 1.16684, 1.17059, 1.171, 1.17447, 1.17126, 1.17089, 1.17232, 1.1918, 1.1913, 1.19149, 1.19164, 1.19193, 1.19418, 1.19605, 1.19607, 1.19642, 1.19718, 1.20069, 1.20132, 1.20447, 1.20497, 1.21328, 1.21748, 1.21763, 1.22119, 1.22201, 1.2245, 1.22551, 1.44377, 1.22565, 1.22467, 1.4625, 1.19146, 1.36883, 1.22223, 1.18985, 1.18944, 1.17039, 1.17641, 1.17728, 1.16721, 1.18383, 1.18364, 1.19224, 1.2568, 1.25909, 1.22545, 1.24269, 1.23652, 1.2432, 1.25278, 1.26404, 1.28427, 1.29552, 1.32273, 1.32209, 1.32747, 1.33298, 1.33127, 1.3339, 1.35147, 1.35417, 1.37816, 1.37529, 1.41087, 1.42982, 1.42687, 1.41708, 1.42728, 1.42713, 1.44001, 1.45428, 1.52105, 1.55436, 1.56794, 1.55786, 1.54071, 1.51285, 1.51448, 1.51257, 1.5107, 1.56252, 1.53126, 1.56541, 1.51249, 1.51232, 1.52042, 1.53593, 1.54429, 1.57671, 1.5462, 1.54117, 1.52237, 1.55462, 1.64058, 1.65818, 1.7623, 1.65087, 1.65937, 1.69342, 1.74971, 1.73823, 1.6653, 1.69223, 1.65874, 1.66897, 1.7801, 1.67229, 1.63433, 1.63121, 1.57843, 1.55943, 1.5764, 1.58065, 1.60261, 1.74819, 1.56795, 1.56255, 1.54114, 1.56125, 1.49937, 1.51926, 1.71576, 1.52685, 1.53356, 1.44985, 1.43425, 1.38593, 1.37598, 1.36845, 1.37267, 1.36919, 1.40711, 1.33594, 1.3266, 1.322, 1.26763, 1.26668, 1.23341, 1.25403, 1.26128, 1.21454, 1.19177, 1.20166, 1.1783, 1.17692, 1.1776, 1.18689, 1.18562, 1.16694, 1.4435, 1.48962, 1.38713, 1.14198, 1.14242, 1.15077, 1.14911, 1.40145, 1.12743, 1.12292, 1.12353, 1.12888, 1.12969, 1.12157, 1.11532, 1.11343, 1.1101, 1.10541, 1.10308, 1.102, 1.11246, 1.12009, 1.12224, 1.11844, 1.1095, 1.10845, 1.11257, 1.1166, 1.11909, 1.14108, 1.1423, 1.14309, 1.11472, 1.11171, 1.09669, 1.22255, 1.23182, 1.07028, 1.05363, 1.04203, 1.03652, 1.02258, 1.01919, 1.0176, 1.01326, 1.01255, 1.00554, 1.00487, 1.00914, 1.00959, 1.01459, 1.02141, 1.02698, 1.05301, 1.05354, 1.04816, 1.04917, 1.06344, 1.06854, 1.07079, 1.06996, 1.06691, 1.06746, 1.06755, 1.06664, 1.05738, 1.0602
1.15345, 1.15524, 1.15609, 1.1546, 1.15181, 1.15157, 1.14815, 1.14705, 1.14703, 1.14898, 1.14932, 1.15236, 1.14956, 1.14935, 1.15012, 1.15074, 1.15297, 1.15359, 1.15802, 1.16522, 1.16502, 1.16569, 1.16712, 1.17622, 1.17726, 1.18027, 1.17991, 1.17092, 1.17038, 1.17447, 1.19845, 1.19764, 1.19906, 1.19988, 1.20009, 1.19958, 1.20193, 1.2019, 1.20053, 1.19902, 1.20635, 1.2064, 1.20606, 1.20645, 1.21217, 1.21579, 1.21823, 1.22036, 1.22364, 1.22428, 1.22558, 1.22255, 1.46221, 1.36441, 1.48655, 1.37992, 1.19871, 1.19988, 1.19135, 1.22215, 1.17179, 1.17019, 1.1599, 1.16057, 1.18017, 1.18403, 1.21803, 1.19261, 1.22667, 1.22973, 1.24269, 1.23718, 1.25219, 1.29856, 1.29259, 1.29564, 1.31617, 1.3678, 1.32785, 1.34637, 1.35424, 1.3465, 1.35741, 1.34882, 1.36396, 1.47099, 1.38485, 1.42674, 1.4299, 1.42975, 1.43365, 1.42497, 1.4398, 1.43986, 1.45918, 1.50084, 1.52746, 1.56784, 1.57233, 1.58171, 1.52283, 1.52491, 1.53705, 1.52004, 1.54372, 1.53719, 1.53509, 1.53526, 1.55551, 1.55457, 1.55185, 1.79767, 1.65007, 1.58184, 1.54816, 1.56395, 1.59973, 1.64417, 1.7004, 1.68132, 1.72052, 1.71593, 1.71588, 1.86184, 1.75146, 1.76501, 1.69339, 1.75183, 1.76829, 1.75096, 1.68918, 1.7061, 1.70366, 1.60396, 1.59964, 1.59625, 1.6244, 1.66822, 1.7175, 1.71952, 1.59226, 1.57532, 1.57741, 1.57562, 1.7234, 1.73678, 1.53243, 1.53385, 1.4431, 1.42635, 1.39313, 1.39985, 1.38358, 1.38315, 1.37201, 1.36712, 1.36789, 1.31434, 1.31382, 1.3058, 1.30905, 1.35373, 1.2823, 1.24103, 1.22061, 1.20922, 1.19504, 1.18573, 1.17148, 1.16128, 1.16346, 1.16469, 1.16506, 1.41933, 1.15025, 1.14207, 1.14175, 1.29508, 1.15056, 1.4268, 1.43236, 1.12929, 1.12563, 1.1254, 1.12919, 1.13033, 1.12119, 1.11551, 1.10857, 1.10715, 1.106, 1.10082, 1.10083, 1.1118, 1.11302, 1.24645, 1.1124, 1.11163, 1.11043, 1.11234, 1.11584, 1.1165, 1.12322, 1.12476, 1.25018, 1.11352, 1.11286, 1.23236, 1.10399, 1.22891, 1.22869, 1.0479, 1.046, 1.03397, 1.02258, 1.02288, 1.01942, 1.02356, 1.01903, 1.00371, 1.00772, 1.0127, 1.01483, 1.01695, 1.02117, 1.03164, 1.05576, 1.04931, 1.04737, 1.05926, 1.06014, 1.07695, 1.07034, 1.07027, 1.06723, 1.06568, 1.06562, 1.06505, 1.06475, 1.05963
1.15415, 1.15288, 1.15621, 1.15696, 1.15278, 1.15146, 1.15108, 1.14933, 1.14917, 1.15041, 1.15035, 1.14976, 1.15052, 1.14916, 1.15289, 1.15277, 1.15273, 1.15319, 1.163, 1.16314, 1.16457, 1.16653, 1.16936, 1.17727, 1.17968, 1.18255, 1.18319, 1.1754, 1.17244, 1.19954, 1.20112, 1.20033, 1.20049, 1.20127, 1.20154, 1.20481, 1.20459, 1.20661, 1.20766, 1.20697, 1.20985, 1.21053, 1.21308, 1.21351, 1.21911, 1.21885, 1.21889, 1.2223, 1.22372, 1.2281, 1.22693, 1.22619, 1.4442, 1.21191, 1.36083, 1.19519, 1.19495, 1.19775, 1.18989, 1.50456, 1.1646, 1.17146, 1.16393, 1.16426, 1.18543, 1.194, 1.19105, 1.19053, 1.21941, 1.23329, 1.22977, 1.24747, 1.25398, 1.26456, 1.33343, 1.32411, 1.32224, 1.3438, 1.34786, 1.37824, 1.35923, 1.36374, 1.37118, 1.36914, 1.36331, 1.3941, 1.38878, 1.3955, 1.42318, 1.44463, 1.43023, 1.42848, 1.43565, 1.46118, 1.52392, 1.52025, 1.54777, 1.56567, 1.62201, 1.60309, 1.55323, 1.55206, 1.54158, 1.5411, 1.53738, 1.53823, 1.55018, 1.54972, 1.55439, 1.55787, 1.60034, 1.71784, 1.64474, 1.64858, 1.64772, 1.6425, 1.6596, 1.77553, 1.71712, 1.68554, 1.79696, 1.71687, 1.71671, 1.71616, 1.74151, 1.70258, 1.76109, 1.6921, 1.69069, 1.82695, 1.74862, 1.70012, 1.68551, 1.67317, 1.66587, 1.6543, 1.73828, 1.74247, 1.67244, 1.67267, 1.70211, 1.68356, 1.7522, 1.75879, 1.60257, 1.59036, 1.55137, 1.49682, 1.44583, 1.41966, 1.41759, 1.39149, 1.4046, 1.40167, 1.3955, 1.38414, 1.36789, 1.34957, 1.32966, 1.30593, 1.31636, 1.29544, 1.28483, 1.23228, 1.23921, 1.23316, 1.20702, 1.20169, 1.19459, 1.17364, 1.16068, 1.15898, 1.161, 1.16084, 1.14708, 1.14473, 1.14105, 1.14665, 1.14148, 1.13758, 1.13808, 1.12668, 1.12605, 1.12566, 1.13268, 1.12711, 1.12608, 1.11516, 1.11206, 1.11063, 1.1046, 1.10419, 1.10441, 1.10761, 1.10901, 1.10962, 1.11012, 1.11102, 1.11182, 1.11374, 1.12319, 1.12402, 1.12232, 1.12981, 1.14148, 1.14305, 1.11952, 1.12447, 1.22195, 1.22704, 1.10466, 1.04581, 1.04391, 1.03324, 1.03188, 1.03671, 1.02462, 1.02463, 1.0202, 1.00789, 1.00516, 1.00317, 1.01858, 1.08536, 1.11341, 1.05956, 1.05882, 1.05677, 1.12898, 1.08774, 1.07722, 1.07919, 1.07725, 1.08393, 1.08002, 1.11241, 1.17093, 1.04641, 1.15778, 1.12697
1.15166, 1.15305, 1.15808, 1.15726, 1.15695, 1.15448, 1.15436, 1.15284, 1.15041, 1.15042, 1.15056, 1.15131, 1.14928, 1.14698, 1.15236, 1.15379, 1.1548, 1.16075, 1.16326, 1.16405, 1.16675, 1.16754, 1.17318, 1.17848, 1.18209, 1.18452, 1.1846, 1.18079, 1.18644, 1.19887, 1.20212, 1.20151, 1.20119, 1.20102, 1.20197, 1.20177, 1.20252, 1.20564, 1.20465, 1.20467, 1.20808, 1.20896, 1.21007, 1.21271, 1.21424, 1.21693, 1.22104, 1.22337, 1.22613, 1.2266, 1.22612, 1.22533, 1.21947, 1.38463, 1.4104, 1.19817, 1.20896, 1.21524, 1.22965, 1.25253, 1.16112, 1.16077, 1.15128, 1.15448, 1.16482, 1.18282, 1.20804, 1.20468, 1.20905, 1.23657, 1.2268, 1.25207, 1.25049, 1.26851, 1.28828, 1.3158, 1.33672, 1.3467, 1.35943, 1.39435, 1.38752, 1.41984, 1.38327, 1.38561, 1.37615, 1.3949, 1.39992, 1.41582, 1.42908, 1.45552, 1.45411, 1.44499, 1.45429, 1.46819, 1.50662, 1.54118, 1.60599, 1.5892, 1.65457, 1.65389, 1.61728, 1.57102, 1.56268, 1.54528, 1.54432, 1.54401, 1.54243, 1.55089, 1.56864, 1.57215, 1.61086, 1.63881, 1.75031, 1.80816, 1.71405, 1.73364, 1.83738, 1.72949, 1.71163, 1.70643, 1.75863, 1.71689, 1.72946, 1.75135, 1.74485, 1.7474, 1.73558, 1.6859, 1.69227, 1.69342, 1.69358, 1.69182, 1.69054, 1.70427, 1.70359, 1.73715, 1.7466, 1.7274, 1.81005, 1.70788, 1.70393, 1.70413, 1.65143, 1.63575, 1.60212, 1.57393, 1.57493, 1.50242, 1.45472, 1.43918, 1.42675, 1.41388, 1.43694, 1.46621, 1.40596, 1.40539, 1.38096, 1.36528, 1.33428, 1.30831, 1.32803, 1.2766, 1.27294, 1.26048, 1.23404, 1.23226, 1.20766, 1.21188, 1.19465, 1.17692, 1.16047, 1.15991, 1.15081, 1.16303, 1.14822, 1.14555, 1.26772, 1.41722, 1.42293, 1.13879, 1.13734, 1.12243, 1.12277, 1.12484, 1.13264, 1.13771, 1.128, 1.11446, 1.11371, 1.11241, 1.10576, 1.1049, 1.10297, 1.10745, 1.10488, 1.10237, 1.10071, 1.10233, 1.10932, 1.11254, 1.11748, 1.11837, 1.12387, 1.12743, 1.1317, 1.13685, 1.12172, 1.12337, 1.18411, 1.20283, 1.20232, 1.0485, 1.0435, 1.04289, 1.03148, 1.03402, 1.03475, 1.02585, 1.01636, 1.00911, 1.01003, 1.00497, 1.1396, 1.0565, 1.05626, 1.05675, 1.05751, 1.05906, 1.05983, 1.08484, 1.08707, 1.08759, 1.08357, 1.08465, 1.08505, 1.09455, 1.04258, 1.0419, 1.04161, 1.04075
1.1467, 1.15217, 1.15312, 1.15023, 1.15005, 1.15215, 1.15506, 1.15305, 1.15197, 1.15012, 1.15119, 1.15669, 1.15668, 1.15127, 1.16077, 1.15795, 1.15974, 1.16273, 1.1639, 1.16466, 1.16725, 1.17237, 1.17702, 1.17908, 1.1813, 1.18371, 1.18432, 1.1883, 1.19214, 1.20106, 1.20119, 1.20185, 1.20115, 1.20044, 1.20121, 1.2019, 1.20218, 1.20279, 1.2032, 1.20482, 1.206, 1.2087, 1.21159, 1.21144, 1.21765, 1.21865, 1.22316, 1.22651, 1.22714, 1.22586, 1.2241, 1.2233, 1.21999, 1.35375, 1.1936, 1.19827, 1.20479, 1.20507, 1.16399, 1.14311, 1.15342, 1.15525, 1.16049, 1.16618, 1.16652, 1.24349, 1.19351, 1.1968, 1.24902, 1.22687, 1.24693, 1.23918, 1.27418, 1.27083, 1.26757, 1.29599, 1.34506, 1.34503, 1.37497, 1.39215, 1.392, 1.39825, 1.39968, 1.39545, 1.4201, 1.41596, 1.40947, 1.42479, 1.42547, 1.52876, 1.44348, 1.44322, 1.4756, 1.52615, 1.52467, 1.52985, 1.60886, 1.63016, 1.6285, 1.61922, 1.61954, 1.57092, 1.56879, 1.57595, 1.56306, 1.55784, 1.57915, 1.59937, 1.59582, 1.58834, 1.68355, 1.7748, 1.74484, 1.7195, 1.78372, 1.75054, 1.83488, 1.79917, 1.80488, 1.75825, 1.72791, 1.88722, 1.73009, 1.72996, 1.82005, 1.76536, 1.76453, 1.68796, 1.68743, 1.68213, 1.68276, 1.68941, 1.69298, 1.70086, 1.82758, 1.86181, 1.71251, 1.7121, 1.70318, 1.7025, 1.70637, 1.70446, 1.67232, 1.64399, 1.63261, 1.59548, 1.59481, 1.51631, 1.48326, 1.47853, 1.43323, 1.48491, 1.44452, 1.42942, 1.41993, 1.40956, 1.40137, 1.41738, 1.35973, 1.3442, 1.31755, 1.2969, 1.2816, 1.26751, 1.24633, 1.24992, 1.22515, 1.21477, 1.21622, 1.17545, 1.17438, 1.16663, 1.15246, 1.15104, 1.15799, 1.14983, 1.14943, 1.15219, 1.15063, 1.14243, 1.37836, 1.12754, 1.12408, 1.12471, 1.12872, 1.12983, 1.12578, 1.1258, 1.11227, 1.11294, 1.10447, 1.10458, 1.102, 1.10827, 1.10618, 1.10206, 1.10262, 1.10304, 1.10481, 1.10779, 1.11298, 1.11686, 1.12573, 1.12682, 1.12979, 1.13101, 1.1166, 1.11556, 1.11476, 1.16456, 1.07812, 1.236, 1.05064, 1.03737, 1.02952, 1.03769, 1.03586, 1.03693, 1.02053, 1.01684, 1.01284, 1.04274, 1.03596, 1.03604, 1.05872, 1.05995, 1.06107, 1.06493, 1.07151, 1.08233, 1.08717, 1.09383, 1.09246, 1.08706, 1.08331, 1.08118, 1.03653, 1.11147, 1.04661, 1.1954
1.14943, 1.15027, 1.1508, 1.15037, 1.15177, 1.15302, 1.15616, 1.15515, 1.15451, 1.15476, 1.15607, 1.1568, 1.15746, 1.16105, 1.16208, 1.16304, 1.16448, 1.16561, 1.16694, 1.24686, 1.24997, 1.17554, 1.18226, 1.18264, 1.18191, 1.1836, 1.18756, 1.18953, 1.19909, 1.20184, 1.20153, 1.20208, 1.20165, 1.20135, 1.2019, 1.20297, 1.20278, 1.20308, 1.20379, 1.20497, 1.2077, 1.21163, 1.21172, 1.21506, 1.21661, 1.33994, 1.4116, 1.22918, 1.22999, 1.22851, 1.2243, 1.22328, 1.37454, 1.40769, 1.19989, 1.18916, 1.2569, 1.19769, 1.19256, 1.14232, 1.23645, 1.15259, 1.16137, 1.16673, 1.17356, 1.18948, 1.23259, 1.2315, 1.2433, 1.22994, 1.22227, 1.23876, 1.28058, 1.28113, 1.27545, 1.28752, 1.30222, 1.35472, 1.37864, 1.54356, 1.41686, 1.39999, 1.39782, 1.39838, 1.41395, 1.44762, 1.47801, 1.46414, 1.45574, 1.46853, 1.45786, 1.45701, 1.48253, 1.52546, 1.52322, 1.52608, 1.54495, 1.55134, 1.61637, 1.58316, 1.58199, 1.58615, 1.58554, 1.59345, 1.60354, 1.59271, 1.58215, 1.59991, 1.61331, 1.61061, 1.62929, 1.76889, 1.73373, 1.72761, 1.7263, 1.72673, 1.71905, 1.853, 1.72561, 1.82024, 1.75222, 1.74393, 1.7438, 1.74326, 1.73904, 1.7678, 1.83783, 1.96638, 1.68782, 1.68327, 1.68284, 1.71409, 1.69383, 1.8799, 1.72637, 1.72559, 1.72425, 1.71137, 1.8112, 1.77729, 1.808, 1.75166, 1.65848, 1.63367, 1.67134, 1.59587, 1.58064, 1.56154, 1.56451, 1.49585, 1.48958, 1.48587, 1.45939, 1.43071, 1.42944, 1.43982, 1.4136, 1.39717, 1.38541, 1.36783, 1.32215, 1.29464, 1.31539, 1.30572, 1.25305, 1.26127, 1.26123, 1.25753, 1.26359, 1.15496, 1.15464, 1.16695, 1.16995, 1.14763, 1.15847, 1.15192, 1.14847, 1.14881, 1.15137, 1.14794, 1.1436, 1.13687, 1.13615, 1.13425, 1.12792, 1.12381, 1.12314, 1.11937, 1.10882, 1.10857, 1.10491, 1.10317, 1.10288, 1.1134, 1.11267, 1.10461, 1.10222, 1.10222, 1.10791, 1.10828, 1.11401, 1.1146, 1.1261, 1.12021, 1.11481, 1.11507, 1.11278, 1.12209, 1.12538, 1.29619, 1.09328, 1.14793, 1.05088, 1.05335, 1.0422, 1.04151, 1.04433, 1.09456, 1.03603, 1.03288, 1.03673, 1.03867, 1.04203, 1.05126, 1.06083, 1.06874, 1.06998, 1.06585, 1.11947, 1.08594, 1.09025, 1.08947, 1.08349, 1.08138, 1.08123, 1.08263, 1.04553, 1.05142, 1.05351, 1.08265
1.15031, 1.15145, 1.15267, 1.1531, 1.16269, 1.1633, 1.16024, 1.15811, 1.15975, 1.15857, 1.15973, 1.16026, 1.16547, 1.16503, 1.16522, 1.1716, 1.17398, 1.17395, 1.1725, 1.18512, 1.18476, 1.18414, 1.18459, 1.18824, 1.19074, 1.194, 1.19215, 1.1989, 1.2038, 1.20793, 1.20807, 1.20737, 1.20633, 1.20741, 1.2077, 1.20876, 1.20913, 1.21003, 1.20879, 1.21051, 1.2116, 1.21556, 1.2168, 1.22006, 1.22036, 1.22662, 1.23132, 1.23224, 1.23075, 1.23109, 1.22577, 1.22811, 1.22989, 1.24688, 1.18987, 1.18829, 1.18328, 1.18993, 1.19825, 1.19889, 1.18199, 1.18622, 1.23021, 1.23056, 1.17661, 1.17784, 1.24341, 1.24248, 1.24328, 1.23135, 1.24414, 1.25555, 1.27121, 1.27863, 1.27377, 1.30495, 1.32509, 1.36068, 1.3717, 1.43325, 1.43164, 1.43178, 1.41678, 1.40654, 1.4277, 1.44719, 1.49782, 1.50154, 1.50311, 1.47397, 1.50524, 1.48224, 1.51757, 1.52415, 1.51203, 1.5087, 1.60445, 1.54072, 1.63555, 1.63634, 1.64907, 1.59575, 1.59946, 1.60012, 1.60757, 1.59757, 1.59533, 1.60995, 1.629, 1.64456, 1.6496, 1.76082, 1.72936, 1.72854, 1.7272, 1.72691, 1.71972, 1.72757, 1.72657, 1.72626, 1.73042, 1.74529, 1.74467, 1.74408, 1.72714, 1.72703, 1.73423, 1.73008, 1.68667, 1.68601, 1.67818, 1.67906, 1.69736, 1.69642, 1.72756, 1.72649, 1.73385, 1.69212, 1.77376, 1.69728, 1.75056, 1.7799, 1.66167, 1.65098, 1.70369, 1.5984, 1.72298, 1.62325, 1.57543, 1.56913, 1.51831, 1.49021, 1.4748, 1.46609, 1.45419, 1.45032, 1.43051, 1.4271, 1.4578, 1.36336, 1.36767, 1.36126, 1.31539, 1.30458, 1.25652, 1.24624, 1.24686, 1.2667, 1.28161, 1.18369, 1.21166, 1.1806, 1.21734, 1.16821, 1.16092, 1.32988, 1.15305, 1.15244, 1.15179, 1.45393, 1.44527, 1.13377, 1.13692, 1.13346, 1.13031, 1.12356, 1.1182, 1.11459, 1.10965, 1.1077, 1.10456, 1.10261, 1.10392, 1.11334, 1.11292, 1.10625, 1.102, 1.10156, 1.10781, 1.10595, 1.10796, 1.11154, 1.11172, 1.11319, 1.11303, 1.11444, 1.11843, 1.12219, 1.12286, 1.12582, 1.16793, 1.07158, 1.06096, 1.06657, 1.06703, 1.05358, 1.07081, 1.06865, 1.06891, 1.0605, 1.04159, 1.04107, 1.04815, 1.05034, 1.05107, 1.06609, 1.07284, 1.09097, 1.09072, 1.08735, 1.08597, 1.08656, 1.08716, 1.08533, 1.08448, 1.08705, 1.07326, 1.08066, 1.08026, 1.081
1.15512, 1.15622, 1.15748, 1.1573, 1.16266, 1.16546, 1.16578, 1.16011, 1.16185, 1.16829, 1.23982, 1.23987, 1.16548, 1.16673, 1.16812, 1.17375, 1.17488, 1.17094, 1.23065, 1.18506, 1.18494, 1.18887, 1.19074, 1.19163, 1.19226, 1.19263, 1.19769, 1.20023, 1.20364, 1.20837, 1.20698, 1.20461, 1.2031, 1.20361, 1.20612, 1.20646, 1.20669, 1.20808, 1.20782, 1.2098, 1.21231, 1.21547, 1.21775, 1.21908, 1.23026, 1.23229, 1.23357, 1.2338, 1.23434, 1.23064, 1.34819, 1.22205, 1.21135, 1.21132, 1.23811, 1.2465, 1.24674, 1.19745, 1.19805, 1.17929, 1.31007, 1.25343, 1.17613, 1.18299, 1.26034, 1.19908, 1.25791, 1.24745, 1.31566, 1.31588, 1.25355, 1.26501, 1.28238, 1.33665, 1.3378, 1.33695, 1.3444, 1.3568, 1.37954, 1.41231, 1.42676, 1.43065, 1.42546, 1.45112, 1.43987, 1.49227, 1.52667, 1.52782, 1.56146, 1.75127, 1.5034, 1.48297, 1.48502, 1.48402, 1.51686, 1.52012, 1.52813, 1.52811, 1.63441, 1.63014, 1.64783, 1.60336, 1.59847, 1.6045, 1.6006, 1.60573, 1.6419, 1.64102, 1.63112, 1.67345, 1.72686, 1.76514, 1.76214, 1.73606, 1.75145, 1.73831, 1.7058, 1.72704, 1.72727, 1.7312, 1.73066, 1.73098, 1.74651, 1.7451, 1.73137, 1.72857, 1.75569, 1.72068, 1.69314, 1.69346, 1.67939, 1.67892, 1.6969, 1.70171, 1.77127, 1.74131, 1.71936, 1.69229, 1.69156, 1.71225, 1.71165, 1.66153, 1.68021, 1.68863, 1.61358, 1.59974, 1.59879, 1.59568, 1.6686, 1.57253, 1.54049, 1.5386, 1.48929, 1.48731, 1.46281, 1.46523, 1.46795, 1.45331, 1.45186, 1.43705, 1.4159, 1.35711, 1.32342, 1.28551, 1.26873, 1.25404, 1.25472, 1.28139, 1.245, 1.26399, 1.20884, 1.18026, 1.16882, 1.16671, 1.16729, 1.16742, 1.45849, 1.15157, 1.51455, 1.39208, 1.13229, 1.13196, 1.13177, 1.41367, 1.3822, 1.12347, 1.258, 1.11051, 1.113, 1.10923, 1.09631, 1.09547, 1.09486, 1.30185, 1.29554, 1.09986, 1.09499, 1.10009, 1.09983, 1.09829, 1.09822, 1.1054, 1.10557, 1.10839, 1.1095, 1.1143, 1.11592, 1.12186, 1.12194, 1.1988, 1.09924, 1.07635, 1.06561, 1.06681, 1.06322, 1.07044, 1.0819, 1.08453, 1.08461, 1.07341, 1.09524, 1.05332, 1.05589, 1.05013, 1.06278, 1.06378, 1.09226, 1.09033, 1.09072, 1.08918, 1.08874, 1.08715, 1.09237, 1.09231, 1.08927, 1.08758, 1.07317, 1.07869, 1.0804, 1.08296
1.15693, 1.15695, 1.15674, 1.15997, 1.17021, 1.16821, 1.16962, 1.16724, 1.16727, 1.16895, 1.17374, 1.17506, 1.16523, 1.16517, 1.17078, 1.17529, 1.17644, 1.16436, 1.16468, 1.16735, 1.18143, 1.18303, 1.18346, 1.18251, 1.1899, 1.19182, 1.18397, 1.20155, 1.20249, 1.20817, 1.20824, 1.20728, 1.20394, 1.20364, 1.20645, 1.20703, 1.208, 1.2081, 1.20864, 1.21427, 1.21677, 1.21567, 1.215, 1.21541, 1.38252, 1.23613, 1.23542, 1.23505, 1.23315, 1.23244, 1.22699, 1.22408, 1.21945, 1.25058, 1.19585, 1.17623, 1.17717, 1.24636, 1.24963, 1.19486, 1.19593, 1.19674, 1.19263, 1.23655, 1.21479, 1.20584, 1.20464, 1.26468, 1.25482, 1.26446, 1.26491, 1.28075, 1.34404, 1.31574, 1.32771, 1.3339, 1.35507, 1.34941, 1.38275, 1.42418, 1.43061, 1.43059, 1.45849, 1.46023, 1.45291, 1.59114, 1.50351, 1.50264, 1.58404, 1.65698, 1.51261, 1.50926, 1.48659, 1.49971, 1.51466, 1.53048, 1.53182, 1.56923, 1.63781, 1.7616, 1.76188, 1.63362, 1.63321, 1.66754, 1.68077, 1.63676, 1.65128, 1.65379, 1.66802, 1.68016, 1.71652, 1.75845, 1.73702, 1.73665, 1.72395, 1.72415, 1.88995, 1.93074, 1.73424, 1.73355, 1.73357, 1.7324, 1.73184, 1.73691, 1.73727, 1.73979, 1.7134, 1.77227, 1.71273, 1.67995, 1.67978, 1.68003, 1.6818, 1.70237, 1.70217, 1.70219, 1.7284, 1.72781, 1.76249, 1.71419, 1.80653, 1.68317, 1.82141, 1.68099, 1.61772, 1.60742, 1.59536, 1.59497, 1.66623, 1.57637, 1.56887, 1.52304, 1.52322, 1.48808, 1.49754, 1.52131, 1.4782, 1.47548, 1.5125, 1.45711, 1.40012, 1.34374, 1.3655, 1.31629, 1.2988, 1.26627, 1.2608, 1.26406, 1.24609, 1.24848, 1.22802, 1.16691, 1.16687, 1.15458, 1.1666, 1.16342, 1.48427, 1.15124, 1.41275, 1.13805, 1.13691, 1.13714, 1.1304, 1.11824, 1.11298, 1.10991, 1.10623, 1.2261, 1.11551, 1.09878, 1.09532, 1.09268, 1.09084, 1.09078, 1.09092, 1.08844, 1.09415, 1.09376, 1.09394, 1.09363, 1.09476, 1.0954, 1.09831, 1.10497, 1.10828, 1.1095, 1.11324, 1.11036, 1.10906, 1.17181, 1.08284, 1.08311, 1.06951, 1.06873, 1.05985, 1.06818, 1.0736, 1.08534, 1.08522, 1.08496, 1.05861, 1.05788, 1.06394, 1.06795, 1.06906, 1.06981, 1.0902, 1.09147, 1.09144, 1.09089, 1.09207, 1.09291, 1.09408, 1.09146, 1.08762, 1.08215, 1.08345, 1.08275, 1.08163, 1.08379
1.1576, 1.15728, 1.15718, 1.1581, 1.16997, 1.17018, 1.16891, 1.17152, 1.1727, 1.16711, 1.16192, 1.16338, 1.16363, 1.16615, 1.16975, 1.17016, 1.17036, 1.16318, 1.16046, 1.16149, 1.1726, 1.17488, 1.18116, 1.18235, 1.18286, 1.18934, 1.1841, 1.24548, 1.19671, 1.19753, 1.20615, 1.20867, 1.21049, 1.21035, 1.21086, 1.21067, 1.2113, 1.21203, 1.21432, 1.21783, 1.21862, 1.21755, 1.22883, 1.23685, 1.23315, 1.23481, 1.23703, 1.23724, 1.23571, 1.23584, 1.22816, 1.22779, 1.21183, 1.212, 1.19975, 1.19969, 1.17595, 1.23679, 1.20159, 1.19964, 1.19873, 1.19773, 1.21779, 1.2037, 1.21248, 1.21296, 1.22355, 1.25114, 1.26937, 1.27063, 1.27106, 1.33093, 1.34327, 1.34293, 1.33062, 1.34725, 1.39294, 1.3873, 1.40313, 1.43201, 1.41896, 1.43332, 1.47175, 1.47159, 1.51556, 1.52866, 1.55619, 1.5129, 1.54431, 1.54471, 1.54459, 1.53883, 1.5206, 1.54436, 1.54324, 1.52179, 1.53835, 1.53928, 1.60569, 1.76233, 1.75899, 1.62253, 1.62242, 1.6259, 1.81762, 1.66908, 1.75085, 1.76592, 1.76823, 1.70946, 1.74849, 1.75503, 1.73791, 1.73696, 1.8923, 1.92806, 1.7454, 1.7446, 1.73414, 1.73327, 1.73278, 1.72488, 1.72341, 1.73752, 1.73787, 1.73693, 1.74249, 1.77281, 1.69972, 1.72753, 1.72425, 1.68078, 1.69542, 1.70234, 1.77366, 1.72832, 1.93475, 1.83366, 1.69983, 1.70004, 1.66202, 1.67267, 1.65516, 1.6346, 1.63346, 1.68174, 1.6354, 1.64081, 1.64024, 1.56901, 1.57454, 1.56153, 1.52338, 1.50042, 1.50007, 1.57199, 1.65416, 1.49535, 1.48561, 1.4605, 1.38803, 1.38812, 1.33826, 1.34645, 1.26484, 1.26213, 1.25422, 1.26515, 1.27482, 1.24713, 1.17051, 1.16653, 1.1939, 1.19527, 1.1459, 1.1457, 1.17364, 1.1459, 1.1416, 1.13834, 1.13828, 1.13781, 1.12891, 1.11345, 1.10964, 1.10909, 1.10229, 1.10127, 1.1078, 1.1014, 1.0972, 1.09375, 1.09157, 1.09133, 1.08832, 1.08877, 1.09117, 1.09471, 1.09222, 1.09121, 1.09189, 1.09293, 1.09611, 1.09736, 1.09988, 1.1033, 1.10727, 1.10729, 1.11239, 1.09506, 1.09583, 1.07696, 1.06668, 1.06087, 1.06131, 1.06501, 1.06947, 1.07019, 1.07949, 1.06666, 1.05538, 1.05574, 1.07477, 1.0739, 1.06853, 1.06862, 1.10141, 1.09707, 1.09721, 1.09333, 1.09138, 1.09403, 1.09429, 1.08915, 1.08806, 1.07783, 1.07866, 1.08618, 1.08816, 1.08648
1.15843, 1.1565, 1.15475, 1.15374, 1.16721, 1.17383, 1.17303, 1.1736, 1.17467, 1.27988, 1.16175, 1.16438, 1.17035, 1.16903, 1.16895, 1.16916, 1.17012, 1.17367, 1.17236, 1.16475, 1.16673, 1.1771, 1.17716, 1.18102, 1.18092, 1.18896, 1.17698, 1.18448, 1.18845, 1.19637, 1.20007, 1.20691, 1.20902, 1.21504, 1.21462, 1.21231, 1.21277, 1.21483, 1.21566, 1.21914, 1.22097, 1.22788, 1.22884, 1.23446, 1.23561, 1.43639, 1.43586, 1.23836, 1.24101, 1.24167, 1.54405, 1.22277, 1.21516, 1.20475, 1.19574, 1.19652, 1.20197, 1.21348, 1.20871, 1.21018, 1.24636, 1.21916, 1.21745, 1.21296, 1.21977, 1.2397, 1.29472, 1.26328, 1.26357, 1.2863, 1.30212, 1.30244, 1.33102, 1.33264, 1.35724, 1.36209, 1.39626, 1.42006, 1.41859, 1.42257, 1.42261, 1.43658, 1.47145, 1.49156, 1.58844, 1.53792, 1.55376, 1.55901, 1.54727, 1.54686, 1.54984, 1.54181, 1.54997, 1.54292, 1.5285, 1.56902, 1.60686, 1.53959, 1.60122, 1.69104, 1.63752, 1.63845, 1.62412, 1.68217, 1.68357, 1.75918, 1.92389, 1.78567, 1.72217, 1.72212, 1.83785, 1.78942, 1.75354, 1.74835, 1.9499, 1.9311, 1.74666, 1.7447, 1.73663, 1.73402, 1.7279, 1.72254, 1.72193, 1.73699, 1.73702, 1.73745, 1.76561, 1.7, 1.69889, 1.69802, 1.7271, 1.75165, 1.76849, 1.76789, 1.88536, 1.72982, 1.72852, 1.91572, 1.82116, 1.70193, 1.66772, 1.65953, 1.66282, 1.63335, 1.63321, 1.63735, 1.63017, 1.67118, 1.65157, 1.59571, 1.55415, 1.56074, 1.53504, 1.52849, 1.60992, 1.53135, 1.5435, 1.54352, 1.48309, 1.44706, 1.39033, 1.35891, 1.30775, 1.30736, 1.28085, 1.27346, 1.28298, 1.24751, 1.24012, 1.24021, 1.18136, 1.19343, 1.1719, 1.15866, 1.13041, 1.12905, 1.16945, 1.14574, 1.14588, 1.43049, 1.14068, 1.33347, 1.12839, 1.12619, 1.38716, 1.1128, 1.32727, 1.10463, 1.10501, 1.10116, 1.10072, 1.09655, 1.09459, 1.09117, 1.08957, 1.09042, 1.10188, 1.10584, 1.10965, 1.09432, 1.09394, 1.08754, 1.08933, 1.09099, 1.09948, 1.0997, 1.10098, 1.10896, 1.1078, 1.10036, 1.08901, 1.08866, 1.15433, 1.06424, 1.06595, 1.06755, 1.07266, 1.07011, 1.07059, 1.06374, 1.05666, 1.05479, 1.07329, 1.07393, 1.06995, 1.07635, 1.09967, 1.10036, 1.09627, 1.09521, 1.09558, 1.09484, 1.09174, 1.07434, 1.07566, 1.07466, 1.15781, 1.09476, 1.09715, 1.10173
1.15955, 1.1585, 1.15825, 1.15737, 1.30673, 1.17298, 1.17402, 1.1786, 1.17555, 1.16447, 1.16037, 1.16408, 1.21018, 1.32962, 1.17369, 1.17384, 1.17359, 1.17369, 1.17388, 1.16972, 1.17027, 1.17163, 1.17799, 1.17973, 1.18199, 1.1842, 1.17716, 1.31927, 1.19164, 1.19312, 1.19215, 1.20576, 1.20832, 1.21188, 1.21288, 1.21389, 1.21452, 1.21516, 1.21685, 1.22207, 1.22378, 1.22871, 1.23407, 1.23787, 1.24283, 1.24291, 1.2439, 1.24371, 1.24162, 1.26834, 1.20562, 1.2235, 1.21714, 1.19898, 1.20241, 1.23051, 1.19568, 1.24088, 1.20723, 1.21289, 1.21629, 1.2368, 1.23113, 1.22917, 1.24704, 1.24422, 1.2451, 1.26417, 1.26503, 1.30521, 1.31345, 1.32981, 1.32932, 1.34462, 1.35419, 1.39615, 1.39861, 1.4207, 1.41874, 1.42932, 1.44182, 1.45458, 1.46408, 1.49279, 1.52618, 1.52281, 1.59967, 1.56502, 1.54284, 1.54244, 1.54809, 1.56955, 1.54991, 1.55033, 1.54332, 1.55792, 1.55169, 1.61067, 1.61592, 1.71264, 1.69508, 1.6989, 1.6764, 1.73406, 1.68383, 1.68354, 1.83763, 1.77705, 1.73798, 1.77921, 1.7739, 1.77491, 1.74576, 1.76455, 1.76183, 1.76281, 1.78563, 1.7384, 1.73874, 1.78361, 1.72853, 1.72355, 1.72711, 1.72737, 1.73735, 1.84397, 1.81488, 1.77745, 1.8202, 1.73864, 1.72707, 1.71792, 1.72658, 1.71613, 1.71599, 1.73727, 1.72914, 1.7213, 1.71738, 1.71729, 1.68673, 1.6692, 1.64809, 1.67996, 1.6387, 1.63847, 1.63848, 1.65251, 1.62816, 1.60084, 1.56768, 1.54416, 1.54247, 1.55093, 1.57798, 1.61614, 1.54326, 1.54108, 1.50217, 1.44905, 1.38882, 1.38157, 1.35301, 1.3357, 1.29912, 1.32041, 1.32012, 1.25315, 1.2296, 1.23043, 1.25297, 1.17547, 1.17363, 1.17179, 1.12957, 1.13796, 1.18714, 1.18432, 1.15058, 1.14679, 1.14644, 1.14377, 1.14351, 1.13122, 1.13159, 1.11824, 1.11893, 1.10781, 1.10829, 1.10769, 1.10609, 1.11102, 1.22195, 1.21247, 1.11471, 1.11066, 1.10499, 1.10535, 1.11016, 1.10337, 1.09538, 1.0919, 1.09139, 1.09454, 1.09938, 1.09561, 1.09639, 1.09983, 1.10679, 1.10506, 1.10571, 1.08743, 1.07437, 1.07063, 1.07215, 1.07581, 1.07085, 1.0723, 1.07607, 1.06433, 1.06019, 1.06455, 1.07109, 1.07622, 1.07625, 1.08406, 1.14654, 1.21756, 1.1255, 1.11566, 1.11018, 1.10837, 1.10853, 1.07612, 1.0736, 1.07371, 1.0712, 1.09933, 1.10258, 1.10443
1.16104, 1.1599, 1.1592, 1.16295, 1.16951, 1.17221, 1.17272, 1.17363, 1.17377, 1.17379, 1.35862, 1.15655, 1.14972, 1.15212, 1.33745, 1.17325, 1.17078, 1.17007, 1.17007, 1.17105, 1.17162, 1.17329, 1.17571, 1.17684, 1.17761, 1.17887, 1.17991, 1.18072, 1.18834, 1.19405, 1.19276, 1.19984, 1.20772, 1.21125, 1.21227, 1.2149, 1.21411, 1.21729, 1.21879, 1.22296, 1.22813, 1.23592, 1.23798, 1.23814, 1.23923, 1.2416, 1.37515, 1.24716, 1.32888, 1.21209, 1.22355, 1.19305, 1.18866, 1.18518, 1.18621, 1.19247, 1.19894, 1.20493, 1.21657, 1.20511, 1.21827, 1.24078, 1.24295, 1.24165, 1.24707, 1.24896, 1.25591, 1.2662, 1.27209, 1.28118, 1.31414, 1.32784, 1.33809, 1.35315, 1.41665, 1.38127, 1.42496, 1.47252, 1.46886, 1.44194, 1.45403, 1.46042, 1.49005, 1.55231, 1.50926, 1.52366, 1.58246, 1.53299, 1.5516, 1.56434, 1.5641, 1.56829, 1.56215, 1.55764, 1.60286, 1.56666, 1.62251, 1.62291, 1.62451, 1.68136, 1.68141, 1.7095, 1.77242, 1.69225, 1.79747, 1.78482, 1.78394, 1.94062, 1.78311, 1.78201, 1.77632, 1.75232, 1.77136, 1.76929, 1.76251, 1.76371, 1.76351, 1.75575, 1.72683, 1.72906, 1.72869, 1.73098, 1.72763, 1.72703, 1.74712, 1.74718, 1.81695, 1.82164, 1.82153, 1.7335, 1.72519, 1.72361, 1.72391, 1.71621, 1.71544, 1.71982, 1.7351, 1.69227, 1.68849, 1.68771, 1.70013, 1.64683, 1.64558, 1.65374, 1.63422, 1.64037, 1.63976, 1.64193, 1.60966, 1.60069, 1.58376, 1.56077, 1.56179, 1.54426, 1.54399, 1.54319, 1.5614, 1.52473, 1.51065, 1.47495, 1.41893, 1.39335, 1.36208, 1.33962, 1.31528, 1.33346, 1.34625, 1.2991, 1.26385, 1.28789, 1.21749, 1.20179, 1.19735, 1.16116, 1.13558, 1.13759, 1.19874, 1.19907, 1.18336, 1.1478, 1.14934, 1.14899, 1.14558, 1.14412, 1.3624, 1.1215, 1.12622, 1.40019, 1.20063, 1.1291, 1.12661, 1.25534, 1.1115, 1.11112, 1.11279, 1.11175, 1.10652, 1.10782, 1.10785, 1.10531, 1.10402, 1.10304, 1.10247, 1.10449, 1.10457, 1.09784, 1.09691, 1.09885, 1.10047, 1.09982, 1.1012, 1.09559, 1.08287, 1.08099, 1.07544, 1.0772, 1.07474, 1.07762, 1.07913, 1.07022, 1.06858, 1.06636, 1.07438, 1.07882, 1.08066, 1.25563, 1.11169, 1.12207, 1.11185, 1.11041, 1.10857, 1.10723, 1.09982, 1.10155, 1.16975, 1.14512, 1.07945, 1.1063, 1.10483, 1.10509
1.16494, 1.16011, 1.1618, 1.16444, 1.16974, 1.17352, 1.17252, 1.17359, 1.17092, 1.16562, 1.16116, 1.16071, 1.16019, 1.16061, 1.1692, 1.17235, 1.17348, 1.17115, 1.17081, 1.17177, 1.17157, 1.1762, 1.17698, 1.17708, 1.17782, 1.18008, 1.18178, 1.18458, 1.18694, 1.1875, 1.19434, 1.2023, 1.20436, 1.20827, 1.21163, 1.21344, 1.21535, 1.21845, 1.22132, 1.25694, 1.23261, 1.23569, 1.23688, 1.237, 1.23615, 1.23902, 1.24158, 1.24253, 1.41444, 1.22317, 1.22241, 1.18506, 1.16066, 1.18821, 1.18869, 1.19233, 1.19388, 1.19756, 1.2103, 1.22021, 1.21564, 1.22059, 1.21917, 1.24438, 1.28258, 1.26501, 1.25135, 1.2586, 1.26446, 1.28347, 1.30233, 1.43392, 1.4038, 1.34766, 1.40377, 1.40754, 1.53338, 1.45142, 1.48284, 1.4993, 1.5061, 1.5707, 1.51038, 1.50956, 1.5138, 1.54856, 1.58875, 1.57555, 1.54483, 1.55075, 1.5718, 1.57275, 1.57929, 1.58158, 1.60243, 1.60878, 1.61813, 1.6244, 1.62681, 1.66853, 1.68247, 1.68235, 1.73493, 1.85448, 1.80243, 1.78502, 1.78417, 1.92115, 1.73728, 1.73724, 1.73639, 1.8718, 1.79108, 1.768, 1.7681, 1.77056, 1.8138, 1.75813, 1.72324, 1.72185, 1.73252, 1.73259, 1.73113, 1.72888, 1.76954, 1.82214, 1.82837, 1.80938, 1.82347, 1.73809, 1.73858, 1.73794, 1.73974, 1.7122, 1.71984, 1.70076, 1.70286, 1.69554, 1.69592, 1.69253, 1.70598, 1.74486, 1.67865, 1.63726, 1.63677, 1.6432, 1.64018, 1.6342, 1.61533, 1.61106, 1.59635, 1.5882, 1.56161, 1.57367, 1.55478, 1.55736, 1.56092, 1.52017, 1.50289, 1.47185, 1.47072, 1.4235, 1.36488, 1.35852, 1.3471, 1.33467, 1.32975, 1.29586, 1.27576, 1.2589, 1.21121, 1.20757, 1.19098, 1.14993, 1.19135, 1.15118, 1.14593, 1.15387, 1.17714, 1.17391, 1.14922, 1.14783, 1.14818, 1.14229, 1.1385, 1.34419, 1.12562, 1.12706, 1.12688, 1.12704, 1.12522, 1.12705, 1.11852, 1.11244, 1.11114, 1.10459, 1.10688, 1.10792, 1.09879, 1.09761, 1.09757, 1.09957, 1.10244, 1.10499, 1.1056, 1.09672, 1.09767, 1.10085, 1.1017, 1.10438, 1.10521, 1.0967, 1.24457, 1.0872, 1.08301, 1.08389, 1.08911, 1.08219, 1.08154, 1.07399, 1.07143, 1.06848, 1.06658, 1.07503, 1.08704, 1.09468, 1.11476, 1.11431, 1.11152, 1.11102, 1.11115, 1.10941, 1.16488, 1.11167, 1.10943, 1.10885, 1.10403, 1.10397, 1.10594, 1.09686
1.16713, 1.16463, 1.16614, 1.17076, 1.17093, 1.17432, 1.1765, 1.17063, 1.16632, 1.16469, 1.16422, 1.16424, 1.16375, 1.27098, 1.17298, 1.17133, 1.17038, 1.17066, 1.16973, 1.16818, 1.16867, 1.17091, 1.17126, 1.17634, 1.17594, 1.17875, 1.18533, 1.18581, 1.18726, 1.18945, 1.19452, 1.20136, 1.2009, 1.20838, 1.20995, 1.21321, 1.21499, 1.22251, 1.22619, 1.27519, 1.23589, 1.23583, 1.23671, 1.23618, 1.23733, 1.23808, 1.2392, 1.23653, 1.23152, 1.24346, 1.23694, 1.1573, 1.15589, 1.17769, 1.18574, 1.1838, 1.18399, 1.19336, 1.19853, 1.20183, 1.20568, 1.21988, 1.2325, 1.29321, 1.30477, 1.26193, 1.26057, 1.26486, 1.27594, 1.27922, 1.2959, 1.31346, 1.33099, 1.33512, 1.36048, 1.38144, 1.523, 1.51828, 1.47467, 1.49321, 1.52728, 1.58373, 1.51823, 1.51975, 1.56529, 1.55756, 1.56707, 1.54506, 1.54601, 1.60254, 1.59992, 1.63479, 1.74035, 1.61339, 1.62029, 1.65576, 1.65583, 1.83375, 1.67178, 1.67537, 1.71974, 1.71232, 1.73093, 1.81128, 1.82148, 1.80542, 1.82664, 1.82699, 1.75248, 1.79704, 1.73716, 1.74229, 1.79294, 1.79466, 1.76354, 1.75114, 1.76045, 1.71194, 1.71126, 1.71919, 1.74434, 1.73337, 1.73307, 1.73399, 1.79663, 1.771, 1.76284, 1.75104, 1.74804, 1.75658, 1.75847, 1.75057, 1.71507, 1.71486, 1.69876, 1.69815, 1.7046, 1.70718, 1.6944, 1.69412, 1.77874, 1.66873, 1.66846, 1.71082, 1.64547, 1.64059, 1.63714, 1.63511, 1.64125, 1.62076, 1.62414, 1.599, 1.57174, 1.56915, 1.56728, 1.65941, 1.55483, 1.51433, 1.49861, 1.47346, 1.47505, 1.47542, 1.48593, 1.39556, 1.38692, 1.35473, 1.33435, 1.30789, 1.30678, 1.31006, 1.23759, 1.21726, 1.2229, 1.17405, 1.16686, 1.15865, 1.18179, 1.15231, 1.14835, 1.14818, 1.15156, 1.15054, 1.14396, 1.14363, 1.14736, 1.37102, 1.12896, 1.12917, 1.12914, 1.12758, 1.12451, 1.12574, 1.12669, 1.11207, 1.10695, 1.10548, 1.10602, 1.10693, 1.09911, 1.09753, 1.09387, 1.09791, 1.10112, 1.10478, 1.10292, 1.1033, 1.09989, 1.10329, 1.10547, 1.10982, 1.10758, 1.10629, 1.10931, 1.09079, 1.08418, 1.0845, 1.08989, 1.08455, 1.07333, 1.07284, 1.07332, 1.06645, 1.0709, 1.16649, 1.08868, 1.09881, 1.10796, 1.1085, 1.11741, 1.1151, 1.11772, 1.11854, 1.10783, 1.10964, 1.10972, 1.10784, 1.10265, 1.10425, 1.10104, 1.10015
1.17295, 1.17004, 1.17048, 1.17344, 1.17754, 1.17688, 1.17882, 1.17382, 1.17069, 1.17022, 1.17459, 1.17413, 1.16989, 1.17169, 1.1761, 1.17731, 1.17442, 1.17078, 1.16933, 1.16933, 1.16901, 1.16848, 1.1686, 1.17258, 1.17275, 1.17665, 1.18021, 1.18644, 1.18864, 1.19275, 1.19423, 1.19807, 1.20241, 1.20472, 1.20848, 1.21098, 1.21532, 1.22395, 1.22647, 1.23416, 1.23541, 1.23482, 1.23622, 1.23656, 1.23703, 1.2391, 1.24318, 1.23105, 1.22637, 1.24163, 1.20046, 1.17085, 1.16101, 1.18494, 1.17271, 1.17347, 1.19016, 1.19924, 1.20869, 1.19868, 1.22048, 1.23972, 1.23701, 1.24802, 1.24944, 1.26051, 1.26892, 1.26419, 1.27362, 1.28859, 1.31559, 1.3002, 1.31683, 1.33569, 1.36859, 1.40405, 1.42035, 1.50746, 1.50264, 1.55677, 1.55416, 1.5872, 1.53375, 1.54129, 1.54429, 1.56173, 1.59602, 1.5919, 1.62004, 1.6338, 1.8557, 1.84379, 1.74005, 1.84197, 1.62344, 1.61626, 1.66042, 1.66375, 1.69276, 1.7409, 1.73937, 1.78955, 1.72817, 1.72644, 1.72671, 1.7471, 1.82743, 1.82762, 1.76501, 1.72712, 1.72656, 1.72742, 1.7302, 1.74717, 1.73466, 1.762, 1.74495, 1.7452, 1.71174, 1.7155, 1.73055, 1.73254, 1.73378, 1.77539, 1.78623, 1.77259, 1.76439, 1.74959, 1.74918, 1.74859, 1.76516, 1.81473, 1.8273, 1.75201, 1.72765, 1.70453, 1.70358, 1.70282, 1.69645, 1.69782, 1.67532, 1.67478, 1.66525, 1.71257, 1.64065, 1.63975, 1.71675, 1.63624, 1.63124, 1.62889, 1.61996, 1.60766, 1.59739, 1.57611, 1.56586, 1.56274, 1.5271, 1.53247, 1.50564, 1.58925, 1.50191, 1.50345, 1.48854, 1.46807, 1.37913, 1.37454, 1.38154, 1.31513, 1.31063, 1.25847, 1.25751, 1.2574, 1.2222, 1.20779, 1.20485, 1.18491, 1.18481, 1.14856, 1.16666, 1.15474, 1.15288, 1.15427, 1.14485, 1.14645, 1.14558, 1.14537, 1.13799, 1.13347, 1.13104, 1.12868, 1.12768, 1.12521, 1.12316, 1.11854, 1.11826, 1.11945, 1.11131, 1.11136, 1.10298, 1.09856, 1.09899, 1.09838, 1.0983, 1.09958, 1.108, 1.10746, 1.103, 1.1021, 1.11469, 1.11403, 1.11448, 1.1122, 1.11197, 1.26814, 1.09846, 1.09098, 1.09237, 1.07929, 1.07385, 1.07369, 1.07667, 1.07467, 1.14888, 1.08448, 1.09931, 1.10227, 1.10725, 1.10902, 1.12301, 1.11846, 1.11548, 1.11393, 1.11417, 1.11005, 1.10823, 1.10577, 1.10801, 1.1079, 1.10576, 1.10225
1.17426, 1.17359, 1.17017, 1.1776, 1.18111, 1.18031, 1.1806, 1.18028, 1.17851, 1.17216, 1.1744, 1.17367, 1.17349, 1.17346, 1.17575, 1.17663, 1.17656, 1.17021, 1.17014, 1.16853, 1.16879, 1.16879, 1.16943, 1.1708, 1.17412, 1.17706, 1.17822, 1.18804, 1.18927, 1.19485, 1.19641, 1.20092, 1.20426, 1.20849, 1.21349, 1.21679, 1.24705, 1.22587, 1.22716, 1.22819, 1.22906, 1.23174, 1.23331, 1.23931, 1.36172, 1.30993, 1.26491, 1.22192, 1.24988, 1.24083, 1.17992, 1.17518, 1.16947, 1.17507, 1.17459, 1.17642, 1.1982, 1.20766, 1.21781, 1.21614, 1.24051, 1.22818, 1.24037, 1.26053, 1.2682, 1.26091, 1.2772, 1.27213, 1.27825, 1.29816, 1.30586, 1.31132, 1.33949, 1.3483, 1.35005, 1.42483, 1.42794, 1.45218, 1.55792, 1.50249, 1.55021, 1.53085, 1.54048, 1.55054, 1.55209, 1.57594, 1.57765, 1.68688, 1.62384, 1.66487, 1.82114, 1.75198, 1.79716, 1.76246, 1.76018, 1.76063, 1.97878, 1.77175, 1.76789, 1.7999, 1.76863, 1.72416, 1.72558, 1.72736, 1.72647, 1.74869, 1.74717, 1.74622, 1.73296, 1.72823, 1.72725, 1.72719, 1.73057, 1.73033, 1.73372, 1.76474, 1.77821, 1.75964, 1.72344, 1.72389, 1.75885, 1.76121, 1.76082, 1.78839, 1.78378, 1.78269, 1.86891, 1.86505, 1.75111, 1.80252, 1.77199, 1.81744, 1.81965, 1.7346, 1.7402, 1.73996, 1.70819, 1.70412, 1.70315, 1.74402, 1.73137, 1.67035, 1.66693, 1.71491, 1.64811, 1.63838, 1.62954, 1.63006, 1.63702, 1.63423, 1.61701, 1.6271, 1.62522, 1.5776, 1.56503, 1.55476, 1.5547, 1.55543, 1.53038, 1.58797, 1.59571, 1.72464, 1.49624, 1.45914, 1.44712, 1.41777, 1.36741, 1.32321, 1.32561, 1.30909, 1.27227, 1.2497, 1.23292, 1.21344, 1.20213, 1.20148, 1.16811, 1.14618, 1.16739, 1.2309, 1.14883, 1.14822, 1.14748, 1.14621, 1.14675, 1.14486, 1.14585, 1.14637, 1.13759, 1.13653, 1.13251, 1.13227, 1.12791, 1.20327, 1.12513, 1.12238, 1.11249, 1.11177, 1.10383, 1.1046, 1.1023, 1.10208, 1.10027, 1.10183, 1.10973, 1.11077, 1.10847, 1.10853, 1.11439, 1.11503, 1.13231, 1.12479, 1.112, 1.11163, 1.20824, 1.09344, 1.09319, 1.07696, 1.07345, 1.072, 1.07873, 1.07914, 1.24053, 1.17738, 1.10424, 1.10692, 1.1048, 1.11183, 1.11331, 1.12237, 1.11903, 1.11203, 1.11181, 1.09843, 1.09905, 1.1037, 1.10581, 1.10615, 1.10647, 1.10457
1.17709, 1.17716, 1.17295, 1.17545, 1.18406, 1.18256, 1.18172, 1.18022, 1.18165, 1.17281, 1.18036, 1.17718, 1.17664, 1.17686, 1.17727, 1.17739, 1.17695, 1.17289, 1.17173, 1.17073, 1.17009, 1.17042, 1.17141, 1.17314, 1.17462, 1.17652, 1.18037, 1.18393, 1.18755, 1.19123, 1.19548, 1.19863, 1.20525, 1.21575, 1.4129, 1.25036, 1.22932, 1.22982, 1.23038, 1.22816, 1.22987, 1.22861, 1.22956, 1.4336, 1.44377, 1.26771, 1.20893, 1.22514, 1.22537, 1.20518, 1.17899, 1.16586, 1.17583, 1.17426, 1.17854, 1.18424, 1.20244, 1.21926, 1.2325, 1.23632, 1.2469, 1.24794, 1.25057, 1.2701, 1.2666, 1.27681, 1.28345, 1.28446, 1.31707, 1.31402, 1.32216, 1.33394, 1.35019, 1.34051, 1.36223, 1.40524, 1.43252, 1.48946, 1.56844, 1.60237, 1.5305, 1.53042, 1.59583, 1.54046, 1.54016, 1.57912, 1.58139, 1.61073, 1.61076, 1.66524, 1.81665, 1.83422, 1.81461, 1.76122, 1.76911, 1.76132, 1.75816, 1.76194, 1.77089, 1.76784, 1.80934, 1.72654, 1.72607, 1.73023, 1.72684, 1.72745, 1.75478, 1.82848, 1.74469, 1.7445, 1.74435, 1.77937, 1.7309, 2.16263, 2.07369, 2.21142, 1.8966, 1.88252, 1.73316, 1.72457, 1.76108, 1.76214, 1.76241, 1.77824, 1.78257, 1.78277, 1.77732, 1.87703, 1.79875, 1.80408, 1.8035, 1.82288, 1.81993, 1.74789, 1.83586, 1.83367, 1.82577, 1.82629, 1.87686, 1.74058, 1.71276, 1.71075, 1.71849, 1.71654, 1.65157, 1.63159, 1.6299, 1.63007, 1.63468, 1.62765, 1.61818, 1.62887, 1.63686, 1.59667, 1.60243, 1.56062, 1.53514, 1.53609, 1.52657, 1.52695, 1.54307, 1.74047, 1.52291, 1.49258, 1.49015, 1.43501, 1.38412, 1.35742, 1.35323, 1.32939, 1.29565, 1.25541, 1.26245, 1.23634, 1.21943, 1.20133, 1.20825, 1.15429, 1.17483, 1.17376, 1.14672, 1.15196, 1.15294, 1.15316, 1.14824, 1.148, 1.14965, 1.14951, 1.14717, 1.13981, 1.13971, 1.13947, 1.13898, 1.13691, 1.14057, 1.12182, 1.11862, 1.10533, 1.10271, 1.10338, 1.10112, 1.09962, 1.10202, 1.10305, 1.10844, 1.11153, 1.11566, 1.11393, 1.11843, 1.12324, 1.13224, 1.11433, 1.11329, 1.11528, 1.25802, 1.24558, 1.20636, 1.25694, 1.0785, 1.07351, 1.07431, 1.09151, 1.2828, 1.10613, 1.11492, 1.11569, 1.10194, 1.09875, 1.14302, 1.11726, 1.11815, 1.1922, 1.10959, 1.10708, 1.11182, 1.11104, 1.10807, 1.10864, 1.1103, 1.10724
1.1811, 1.18175, 1.17211, 1.17376, 1.18021, 1.17941, 1.17535, 1.17332, 1.17494, 1.17287, 1.17186, 1.17217, 1.17138, 1.1728, 1.17236, 1.17144, 1.17181, 1.17383, 1.17047, 1.17012, 1.17027, 1.17046, 1.17072, 1.17201, 1.17278, 1.1739, 1.1753, 1.18738, 1.18893, 1.19213, 1.19719, 1.19924, 1.29493, 1.22689, 1.22117, 1.22767, 1.23069, 1.23221, 1.2322, 1.23224, 1.23023, 1.22915, 1.22668, 1.22538, 1.48295, 1.28522, 1.32916, 1.21699, 1.21269, 1.22624, 1.18773, 1.1872, 1.1807, 1.17758, 1.18813, 1.19995, 1.19881, 1.22057, 1.21154, 1.23105, 1.2544, 1.24906, 1.24996, 1.2701, 1.28814, 1.27863, 1.28256, 1.31874, 1.31927, 1.33694, 1.33669, 1.34028, 1.34455, 1.36292, 1.39631, 1.40574, 1.50385, 1.50633, 1.48864, 1.54401, 1.58875, 1.63462, 1.57244, 1.57395, 1.55771, 1.57867, 1.57955, 1.60962, 1.61299, 1.66208, 1.67965, 1.70075, 1.76642, 1.7613, 1.8406, 1.76506, 1.75872, 1.75834, 1.76758, 1.76678, 1.79956, 1.79992, 1.72657, 1.72616, 1.72608, 1.77349, 1.75569, 1.75545, 1.7376, 1.74404, 1.74424, 1.76341, 1.77531, 1.80281, 2.03133, 1.96054, 1.83718, 1.83623, 1.83527, 1.87159, 1.76161, 1.76118, 1.76588, 1.78929, 1.78232, 1.78178, 1.81619, 1.82954, 1.79809, 1.79723, 1.79622, 1.84134, 1.84188, 1.75823, 1.7484, 1.76494, 1.82433, 1.73897, 1.73762, 1.7346, 1.72512, 1.71008, 1.78943, 1.69702, 1.69235, 1.64011, 1.63934, 1.63796, 1.63699, 1.63084, 1.62184, 1.61004, 1.61734, 1.59444, 1.58167, 1.56566, 1.53628, 1.53532, 1.53172, 1.53721, 1.52134, 1.55422, 1.55742, 1.48635, 1.46127, 1.43996, 1.41044, 1.42635, 1.35331, 1.3163, 1.27224, 1.33782, 1.29852, 1.2472, 1.22648, 1.21949, 1.17052, 1.15355, 1.12743, 1.17486, 1.15979, 1.15288, 1.15274, 1.15308, 1.15187, 1.15182, 1.15242, 1.15359, 1.16554, 1.13951, 1.1391, 1.14048, 1.14073, 1.13189, 1.12622, 1.11857, 1.11853, 1.10562, 1.1018, 1.10273, 1.10366, 1.10686, 1.10492, 1.10455, 1.10616, 1.11387, 1.11527, 1.11822, 1.11846, 1.13391, 1.11508, 1.11426, 1.11328, 1.12267, 1.12564, 1.23008, 1.23693, 1.09324, 1.09134, 1.20801, 1.19732, 1.19162, 1.16104, 1.10984, 1.1186, 1.11874, 1.10245, 1.09567, 1.09532, 1.11624, 1.11571, 1.10442, 1.10294, 1.11169, 1.11235, 1.11037, 1.10966, 1.11173, 1.11531, 1.11607
1.18124, 1.17822, 1.17307, 1.17216, 1.1728, 1.17991, 1.17326, 1.17242, 1.17162, 1.17346, 1.17274, 1.17035, 1.17145, 1.16844, 1.16796, 1.16744, 1.16914, 1.17179, 1.17056, 1.17053, 1.17037, 1.17007, 1.17042, 1.17136, 1.17209, 1.17337, 1.17628, 1.17733, 1.1895, 1.19478, 1.19729, 1.19999, 1.21333, 1.21607, 1.21954, 1.22432, 1.22853, 1.2323, 1.23466, 1.2342, 1.23215, 1.23052, 1.23004, 1.23075, 1.22777, 1.21988, 1.22256, 1.22367, 1.25466, 1.18612, 1.18771, 1.19855, 1.18527, 1.19883, 1.18973, 1.18065, 1.19199, 1.22872, 1.22719, 1.2328, 1.23736, 1.26381, 1.26249, 1.29252, 1.28549, 1.2998, 1.30619, 1.3233, 1.34093, 1.35843, 1.3746, 1.36755, 1.37, 1.36982, 1.39451, 1.40697, 1.45118, 1.48102, 1.57512, 1.50265, 1.5658, 1.5945, 1.56214, 1.56134, 1.5616, 1.57517, 1.57694, 1.61166, 1.71688, 1.71653, 1.68709, 1.6831, 1.75312, 1.74754, 1.7635, 1.72671, 1.76514, 1.74915, 1.80756, 1.76647, 1.76621, 1.80653, 1.74342, 1.72558, 1.72572, 1.72421, 1.75912, 1.75208, 1.76132, 1.74883, 1.77789, 1.76866, 1.7659, 1.78666, 1.78558, 1.78539, 1.83705, 1.83673, 1.83549, 1.95381, 1.94851, 1.85289, 1.85877, 1.79273, 1.79259, 1.81601, 1.81656, 1.81545, 1.82681, 1.79821, 1.81284, 1.81216, 1.81338, 1.79028, 1.77879, 1.79459, 1.7789, 1.77621, 1.78297, 1.73825, 1.78102, 1.70885, 1.76576, 1.69785, 1.72146, 1.73241, 1.70208, 1.69431, 1.64908, 1.60616, 1.60733, 1.60687, 1.61364, 1.62952, 1.61277, 1.58021, 1.57366, 1.54403, 1.55104, 1.55446, 1.56253, 1.5373, 1.51195, 1.50956, 1.47581, 1.4577, 1.42672, 1.41482, 1.40724, 1.33243, 1.30897, 1.28794, 1.28225, 1.24523, 1.22224, 1.17883, 1.17979, 1.17348, 1.14618, 1.16862, 1.15951, 1.16199, 1.15096, 1.15031, 1.15351, 1.15365, 1.15448, 1.16531, 1.16608, 1.30489, 1.13732, 1.13987, 1.13182, 1.13039, 1.1284, 1.12001, 1.11973, 1.12296, 1.10711, 1.10703, 1.10731, 1.10814, 1.1098, 1.10623, 1.11048, 1.11331, 1.11758, 1.11893, 1.13341, 1.13409, 1.1157, 1.11634, 1.11825, 1.12948, 1.13137, 1.13252, 1.12997, 1.1047, 1.10296, 1.10428, 1.1121, 1.11623, 1.13037, 1.11346, 1.11638, 1.12234, 1.10071, 1.09841, 1.09768, 1.11177, 1.1128, 1.09992, 1.1003, 1.08734, 1.08828, 1.0904, 1.09263, 1.11685, 1.11969, 1.11644
1.18062, 1.17977, 1.17964, 1.17138, 1.17093, 1.17698, 1.17521, 1.17342, 1.17141, 1.17051, 1.17037, 1.1694, 1.16993, 1.16829, 1.16838, 1.16781, 1.17505, 1.1724, 1.17503, 1.17729, 1.17555, 1.17733, 1.17671, 1.17596, 1.17508, 1.17489, 1.17751, 1.17897, 1.19061, 1.19543, 1.19582, 1.19585, 1.19811, 1.20268, 1.23203, 1.36851, 1.22446, 1.22548, 1.22759, 1.32952, 1.33288, 1.32557, 1.32623, 1.23153, 1.22453, 1.22275, 1.21965, 1.24069, 1.20211, 1.20479, 1.18432, 1.18472, 1.18787, 1.2032, 1.21222, 1.18331, 1.18375, 1.22013, 1.23116, 1.24583, 1.24447, 1.26177, 1.29144, 1.28933, 1.29613, 1.29548, 1.31652, 1.33714, 1.37306, 1.38009, 1.49198, 1.41296, 1.41616, 1.41416, 1.42925, 1.43662, 1.45736, 1.4669, 1.47868, 1.50889, 1.54106, 1.5994, 1.67635, 1.72702, 1.65204, 1.61452, 1.6217, 1.6353, 1.64352, 1.66777, 1.6627, 1.68125, 1.70573, 1.72522, 1.72491, 1.72571, 1.72592, 1.77383, 1.8061, 1.80534, 1.77476, 1.77387, 1.78407, 1.7267, 1.72568, 1.72539, 1.75456, 1.75284, 1.76123, 1.75867, 1.78904, 1.80683, 1.80798, 1.79058, 1.78784, 1.78924, 1.85295, 1.81895, 1.94769, 1.94809, 1.80815, 1.8133, 1.8117, 1.79323, 1.79291, 1.81718, 1.81656, 1.81542, 1.80416, 1.80273, 1.8117, 1.81158, 1.81677, 1.8187, 1.8229, 1.78041, 1.77894, 1.77516, 1.77787, 1.741, 1.73097, 1.778, 1.74166, 1.69813, 1.72354, 1.74089, 1.68675, 1.66901, 1.6724, 1.62351, 1.6076, 1.6159, 1.62404, 1.61083, 1.63695, 1.66972, 1.57682, 1.5446, 1.54342, 1.63353, 1.59994, 1.53491, 1.53374, 1.49209, 1.47979, 1.45811, 1.48618, 1.4883, 1.36867, 1.36906, 1.29946, 1.26451, 1.25347, 1.24826, 1.22679, 1.18442, 1.16542, 1.15823, 1.19125, 1.15285, 1.17125, 1.15297, 1.15159, 1.1577, 1.15659, 1.15659, 1.15645, 1.15678, 1.1543, 1.14918, 1.14318, 1.13091, 1.13256, 1.14315, 1.14307, 1.12232, 1.12194, 1.12263, 1.11006, 1.10969, 1.10817, 1.10892, 1.11043, 1.11478, 1.11806, 1.11799, 1.12611, 1.13205, 1.13139, 1.13353, 1.23025, 1.12619, 1.13249, 1.13277, 1.1324, 1.1328, 1.12876, 1.21068, 1.09831, 1.2037, 1.11522, 1.1309, 1.12985, 1.12943, 1.12637, 1.12178, 1.12242, 1.09787, 1.09906, 1.10689, 1.10278, 1.10064, 1.09327, 1.08654, 1.08564, 1.08488, 1.09803, 1.15698, 1.11416, 1.10974
1.17897, 1.18015, 1.18042, 1.17037, 1.17158, 1.17603, 1.17413, 1.17422, 1.17283, 1.17274, 1.17205, 1.16697, 1.16885, 1.1702, 1.17054, 1.1711, 1.17426, 1.17873, 1.17777, 1.17715, 1.17704, 1.17701, 1.1767, 1.17724, 1.18087, 1.1844, 1.18111, 1.18976, 1.1918, 1.19526, 1.19849, 1.19954, 1.19946, 1.19902, 1.20373, 1.23269, 1.2243, 1.21614, 1.34053, 1.22726, 1.36093, 1.40668, 1.40781, 1.34943, 1.22913, 1.22378, 1.47155, 1.20512, 1.20143, 1.18549, 1.17842, 1.1824, 1.16767, 1.17758, 1.2064, 1.17496, 1.19802, 1.21767, 1.21692, 1.23917, 1.25623, 1.26972, 1.27851, 1.28265, 1.29806, 1.33825, 1.33964, 1.33687, 1.38057, 1.37938, 1.46429, 1.42905, 1.47751, 1.43667, 1.43522, 1.4947, 1.46181, 1.46216, 1.46242, 1.48616, 1.52629, 1.65273, 1.66594, 1.68179, 1.66172, 1.72365, 1.63963, 1.65385, 1.65485, 1.67797, 1.68033, 1.71917, 1.73082, 1.7195, 1.75794, 1.72595, 1.75503, 1.75564, 1.79127, 1.77542, 1.7754, 1.77501, 1.78659, 1.74187, 1.78989, 1.75148, 1.75206, 1.76697, 1.8695, 1.86342, 1.77445, 1.81791, 1.80851, 1.8079, 1.85821, 1.85906, 1.79905, 1.79781, 1.79889, 1.81335, 1.80771, 1.80936, 1.79586, 1.79706, 1.80411, 1.81635, 1.81661, 1.81618, 1.80594, 1.80581, 1.81288, 1.81171, 1.80756, 1.80515, 1.78322, 1.78231, 1.77907, 1.77742, 1.74523, 1.74486, 1.74556, 1.75552, 1.72648, 1.70278, 1.70664, 1.74291, 1.71464, 1.66429, 1.67458, 1.60163, 1.60054, 1.61681, 1.61668, 1.61504, 1.651, 1.6511, 1.65091, 1.65132, 1.61651, 1.63061, 1.63556, 1.53384, 1.56922, 1.55349, 1.5067, 1.55767, 1.49663, 1.46924, 1.37443, 1.37152, 1.29227, 1.28803, 1.25853, 1.24738, 1.23035, 1.19864, 1.17822, 1.148, 1.16528, 1.16761, 1.19493, 1.16919, 1.15899, 1.15906, 1.15473, 1.15378, 1.15579, 1.14935, 1.14706, 1.14769, 1.14555, 1.13579, 1.13825, 1.14172, 1.13668, 1.13091, 1.12781, 1.1224, 1.11791, 1.1161, 1.10858, 1.10952, 1.27515, 1.19192, 1.12743, 1.13549, 1.13394, 1.13272, 1.13552, 1.13539, 1.13221, 1.13082, 1.13123, 1.13183, 1.13044, 1.12967, 1.23607, 1.20623, 1.10107, 1.24113, 1.18125, 1.13225, 1.1325, 1.13308, 1.13592, 1.12991, 1.13085, 1.17486, 1.10789, 1.1089, 1.10166, 1.09887, 1.09348, 1.08425, 1.08498, 1.08582, 1.09475, 1.11301, 1.1096, 1.10862
1.17338, 1.18121, 1.17516, 1.17366, 1.17088, 1.17038, 1.17641, 1.17495, 1.1769, 1.17279, 1.16938, 1.1671, 1.16811, 1.16991, 1.17014, 1.17178, 1.17329, 1.17783, 1.17787, 1.17736, 1.17704, 1.17678, 1.17724, 1.17898, 1.18375, 1.18846, 1.1892, 1.18891, 1.19058, 1.19583, 1.19087, 1.1909, 1.19209, 1.19678, 1.20636, 1.20964, 1.2103, 1.35867, 1.37128, 1.37605, 1.19574, 1.40708, 1.40735, 1.19829, 1.33805, 1.217, 1.42235, 1.21013, 1.18994, 1.16936, 1.16758, 1.16404, 1.15806, 1.16076, 1.16686, 1.18145, 1.2082, 1.23444, 1.24299, 1.25435, 1.2699, 1.26473, 1.27504, 1.28772, 1.30295, 1.34702, 1.34042, 1.33961, 1.35938, 1.37706, 1.39836, 1.42503, 1.50754, 1.49336, 1.48492, 1.48665, 1.47502, 1.4638, 1.49328, 1.49484, 1.6447, 1.64523, 1.60977, 1.68266, 1.77089, 1.72609, 1.68261, 1.68195, 1.7422, 1.84189, 1.75786, 1.7067, 1.85504, 1.72444, 1.82469, 1.75568, 1.75545, 1.76782, 1.75031, 1.85884, 1.81982, 1.76088, 1.76101, 1.7606, 1.79235, 1.79288, 1.78764, 1.803, 1.85136, 2.02378, 1.8214, 1.81001, 1.82698, 1.81272, 1.81555, 1.80009, 1.8002, 1.80036, 1.80514, 1.78208, 1.7723, 1.77278, 1.77192, 1.81494, 1.79634, 1.79591, 1.81838, 1.81811, 1.81706, 1.82071, 1.81348, 1.81317, 1.79737, 1.80446, 1.80405, 1.8447, 1.79252, 1.79611, 1.74737, 1.74539, 1.74373, 1.74722, 1.75353, 1.74898, 1.71251, 1.71585, 1.73079, 1.66551, 1.64036, 1.64779, 1.63426, 1.62399, 1.62209, 1.61952, 1.65247, 1.63993, 1.64022, 1.69165, 1.63855, 1.67443, 1.58323, 1.54191, 1.5297, 1.51156, 1.50857, 1.51932, 1.47717, 1.40242, 1.36768, 1.37312, 1.28235, 1.26523, 1.28377, 1.23471, 1.21169, 1.18683, 1.16753, 1.16797, 1.16725, 1.1447, 1.15626, 1.24315, 1.34627, 1.43687, 1.43693, 1.15699, 1.16065, 1.43767, 1.42562, 1.14983, 1.15488, 1.13951, 1.13926, 1.13897, 1.13668, 1.13592, 1.13267, 1.13308, 1.17151, 1.24483, 1.11497, 1.11572, 1.12846, 1.13161, 1.1325, 1.13928, 1.13689, 1.13612, 1.14286, 1.13664, 1.13262, 1.13408, 1.13391, 1.13333, 1.13276, 1.13217, 1.11466, 1.20357, 1.12955, 1.12974, 1.13349, 1.13592, 1.13946, 1.13962, 1.13744, 1.12897, 1.12822, 1.12892, 1.11513, 1.11624, 1.09885, 1.09544, 1.09282, 1.09214, 1.09121, 1.0864, 1.15469, 1.11419, 1.1128, 1.11403
1.17042, 1.31405, 1.17309, 1.17238, 1.16761, 1.16972, 1.17913, 1.1816, 1.17759, 1.17013, 1.1683, 1.16795, 1.16777, 1.16808, 1.16971, 1.1706, 1.17279, 1.17603, 1.17741, 1.17765, 1.17693, 1.17703, 1.1801, 1.18175, 1.18537, 1.19205, 1.18949, 1.18874, 1.18701, 1.18725, 1.18999, 1.19081, 1.19176, 1.19508, 1.19813, 1.20519, 1.20481, 1.20434, 1.20501, 1.19761, 1.19503, 1.19426, 1.19601, 1.19641, 1.41753, 1.47188, 1.35386, 1.19434, 1.13717, 1.1378, 1.1446, 1.13917, 1.1499, 1.1643, 1.16687, 1.17431, 1.1972, 1.21265, 1.25193, 1.25536, 1.27608, 1.28635, 1.2921, 1.28601, 1.31905, 1.30391, 1.33714, 1.34243, 1.36502, 1.38506, 1.4016, 1.43104, 1.46464, 1.45831, 1.50784, 1.5077, 1.48283, 1.48247, 1.48778, 1.48966, 1.51773, 1.61708, 1.57323, 1.60609, 1.67401, 1.67188, 1.73447, 1.76634, 1.83514, 1.74876, 1.9097, 1.81542, 1.81616, 1.7288, 1.73118, 1.74066, 1.74547, 1.74207, 1.75063, 1.7548, 1.77917, 1.76087, 1.76118, 1.76136, 1.75578, 1.75515, 1.80365, 1.80275, 1.86482, 1.81117, 1.82502, 1.81349, 1.83322, 1.82478, 1.8241, 1.80048, 1.80006, 1.81089, 1.80419, 1.80449, 1.77285, 1.81772, 1.77923, 1.82427, 1.79349, 1.79377, 1.82972, 1.84802, 1.82395, 1.82376, 1.81391, 1.81275, 1.81865, 1.80495, 1.80407, 1.82422, 1.79698, 1.77363, 1.75725, 1.75188, 1.74837, 1.74575, 1.72489, 1.72354, 1.71169, 1.71108, 1.71065, 1.64122, 1.64041, 1.63978, 1.63509, 1.64749, 1.62182, 1.61853, 1.63124, 1.69629, 1.69469, 1.6907, 1.68958, 1.59177, 1.60202, 1.55143, 1.51862, 1.51237, 1.50279, 1.53933, 1.54375, 1.41282, 1.36872, 1.36895, 1.30559, 1.28873, 1.29495, 1.30138, 1.2137, 1.21936, 1.18806, 1.17508, 1.1635, 1.15818, 1.15868, 1.1957, 1.167, 1.37058, 1.42387, 1.3184, 1.41902, 1.47069, 1.23963, 1.19889, 1.46158, 1.19868, 1.24176, 1.14388, 1.21057, 1.14117, 1.19936, 1.30494, 1.15445, 1.30114, 1.13206, 1.13306, 1.13551, 1.13721, 1.14951, 1.14837, 1.14145, 1.13893, 1.13931, 1.13797, 1.13675, 1.13568, 1.13529, 1.13543, 1.13598, 1.12566, 1.12676, 1.12659, 1.12678, 1.13177, 1.13628, 1.13694, 1.1372, 1.1388, 1.13562, 1.12934, 1.12511, 1.12553, 1.11714, 1.10299, 1.09726, 1.096, 1.09313, 1.09181, 1.09074, 1.09118, 1.10732, 1.10938, 1.1104, 1.10858
1.16602, 1.16318, 1.17492, 1.17421, 1.16797, 1.17446, 1.18418, 1.18041, 1.17334, 1.17349, 1.16824, 1.16825, 1.1687, 1.16822, 1.16893, 1.17017, 1.17232, 1.17691, 1.17703, 1.17279, 1.17256, 1.17137, 1.17172, 1.18727, 1.18434, 1.18397, 1.18443, 1.18336, 1.18386, 1.18349, 1.18368, 1.1844, 1.18751, 1.19341, 1.19432, 1.19783, 1.1988, 1.20328, 1.20463, 1.19552, 1.19506, 1.19831, 1.1977, 1.19655, 1.20381, 1.43029, 1.18791, 1.13245, 1.10785, 1.10795, 1.12702, 1.13996, 1.1475, 1.15827, 1.19081, 1.19188, 1.20492, 1.20165, 1.27335, 1.25125, 1.25519, 1.28489, 1.29221, 1.3151, 1.32959, 1.31868, 1.34338, 1.33569, 1.36088, 1.38155, 1.4161, 1.45081, 1.48933, 1.46772, 1.47779, 1.47327, 1.55304, 1.50633, 1.49986, 1.50293, 1.52911, 1.56745, 1.57057, 1.65166, 1.73513, 1.73143, 1.73041, 1.75948, 1.73855, 1.73724, 1.81501, 1.75159, 1.74531, 1.73389, 1.72889, 1.77486, 1.76274, 1.74811, 1.74774, 1.74909, 1.74843, 1.74813, 1.80462, 1.80422, 1.82783, 1.77571, 1.78305, 1.80673, 1.79589, 1.81044, 1.941, 1.8477, 1.86763, 1.83752, 1.94402, 1.95632, 1.83138, 1.87598, 1.82975, 1.79987, 1.8105, 1.81755, 1.82195, 1.79241, 1.79239, 1.80591, 1.841, 1.83932, 1.83824, 1.88171, 1.8511, 1.81487, 1.8148, 1.8102, 1.81455, 1.79995, 1.7997, 1.81427, 1.75677, 1.75533, 1.75582, 1.75538, 1.72357, 1.75517, 1.73086, 1.71099, 1.71354, 1.68533, 1.64061, 1.66827, 1.63343, 1.63449, 1.65623, 1.71156, 1.63453, 1.64838, 1.69777, 1.69596, 1.64764, 1.57842, 1.56215, 1.56144, 1.54671, 1.57417, 1.50186, 1.4862, 1.46253, 1.46082, 1.36412, 1.35222, 1.31291, 1.28412, 1.27342, 1.27405, 1.21333, 1.21394, 1.21695, 1.19034, 1.1736, 1.16314, 1.19211, 1.17884, 1.31276, 1.34141, 1.44635, 1.41905, 1.41166, 1.42724, 1.19218, 1.19791, 1.19761, 1.19182, 1.17441, 1.16569, 1.28273, 1.26758, 1.15954, 1.15777, 1.15408, 1.14775, 1.14417, 1.14523, 1.14629, 1.14616, 1.14647, 1.14526, 1.23743, 1.12533, 1.12712, 1.13489, 1.13784, 1.13455, 1.13411, 1.13059, 1.13377, 1.1312, 1.13099, 1.12858, 1.12877, 1.12982, 1.13563, 1.13334, 1.13697, 1.13844, 1.13187, 1.12505, 1.12478, 1.12557, 1.20234, 1.10301, 1.10043, 1.09445, 1.09412, 1.09634, 1.10893, 1.10468, 1.11279, 1.1106, 1.11005, 1.10794
1.16981, 1.16948, 1.17182, 1.17207, 1.17072, 1.17604, 1.1799, 1.17338, 1.17203, 1.17129, 1.17108, 1.16905, 1.169, 1.16679, 1.16869, 1.17036, 1.17406, 1.17606, 1.1717, 1.17188, 1.17356, 1.17054, 1.18179, 1.18425, 1.1824, 1.18072, 1.18032, 1.18045, 1.18113, 1.18186, 1.18317, 1.18371, 1.18745, 1.18799, 1.19709, 1.19732, 1.19987, 1.20043, 1.19798, 1.19696, 1.19794, 1.19868, 1.2049, 1.21141, 1.20881, 1.45074, 1.36505, 1.12541, 1.11194, 1.10301, 1.10608, 1.12183, 1.13661, 1.15345, 1.1776, 1.20402, 1.20887, 1.23739, 1.25328, 1.25307, 1.26497, 1.28967, 1.29, 1.30213, 1.32649, 1.34342, 1.36124, 1.36789, 1.38504, 1.42097, 1.43022, 1.4439, 1.47749, 1.46658, 1.48149, 1.55624, 1.55614, 1.51553, 1.50957, 1.54131, 1.54051, 1.56906, 1.58252, 1.59776, 1.6237, 1.6289, 1.65501, 1.75855, 1.74816, 1.74721, 1.74647, 1.74537, 1.7451, 1.74092, 1.74027, 1.76203, 1.76277, 1.76285, 1.75555, 1.75066, 1.7441, 1.74111, 1.77569, 1.81381, 1.82474, 1.83116, 1.79513, 1.79519, 1.79593, 1.87209, 2.05697, 1.87525, 1.83828, 1.83838, 1.85773, 1.85474, 1.98457, 1.86862, 1.86584, 1.86434, 1.86474, 1.81787, 1.81826, 1.8211, 1.84497, 1.84149, 1.83815, 1.83921, 1.83811, 1.83466, 1.84984, 1.83888, 1.82175, 1.82075, 1.85061, 1.84817, 1.80058, 1.8342, 1.76227, 1.75551, 1.7559, 1.78281, 1.74054, 1.8178, 1.75983, 1.71779, 1.71693, 1.68929, 1.66724, 1.66764, 1.65791, 1.65771, 1.65527, 1.66582, 1.65113, 1.66844, 1.65834, 1.63073, 1.62416, 1.57088, 1.55799, 1.56868, 1.56642, 1.5678, 1.56512, 1.4973, 1.4767, 1.44777, 1.4234, 1.35356, 1.34551, 1.3537, 1.26924, 1.248, 1.24694, 1.22694, 1.19964, 1.20074, 1.16623, 1.1533, 1.20837, 1.20587, 1.19914, 1.20072, 1.20115, 1.19606, 1.19573, 1.19627, 1.19525, 1.19695, 1.19166, 1.18866, 1.19581, 1.16689, 1.18356, 1.16468, 1.16574, 1.16707, 1.16408, 1.15314, 1.15293, 1.15358, 1.15264, 1.13918, 1.14042, 1.13049, 1.1268, 1.12323, 1.1257, 1.13312, 1.13694, 1.13711, 1.13624, 1.13738, 1.13638, 1.13513, 1.13216, 1.13202, 1.12902, 1.13045, 1.13221, 1.13201, 1.12407, 1.22558, 1.122, 1.12719, 1.12939, 1.19992, 1.09902, 1.09896, 1.0991, 1.09958, 1.22735, 1.11031, 1.10851, 1.11001, 1.11334, 1.114, 1.11374, 1.11259
1.168, 1.16993, 1.16879, 1.17239, 1.17225, 1.17896, 1.18047, 1.17315, 1.17071, 1.17135, 1.17038, 1.17028, 1.16773, 1.16753, 1.16951, 1.1709, 1.17502, 1.17608, 1.17353, 1.17885, 1.18206, 1.18236, 1.18059, 1.1787, 1.18081, 1.17863, 1.17967, 1.1789, 1.17981, 1.1804, 1.181, 1.18244, 1.18222, 1.18238, 1.24027, 1.33369, 1.19607, 1.19578, 1.19688, 1.19927, 1.20483, 1.20317, 1.203, 1.20224, 1.45812, 1.403, 1.43579, 1.16066, 1.13435, 1.12117, 1.11549, 1.127, 1.14323, 1.18193, 1.18016, 1.19911, 1.21061, 1.24334, 1.27491, 1.2648, 1.2983, 1.29117, 1.30404, 1.32031, 1.39103, 1.3621, 1.36213, 1.37216, 1.39665, 1.41768, 1.46404, 1.48092, 1.48543, 1.55058, 1.55022, 1.49254, 1.51842, 1.51587, 1.51475, 1.53261, 1.5759, 1.58855, 1.59957, 1.59846, 1.59755, 1.61666, 1.6437, 1.73442, 1.73013, 1.74698, 1.74721, 1.74702, 1.74614, 1.74059, 1.74091, 1.74881, 1.75811, 1.75911, 1.75846, 1.75064, 1.7483, 1.74089, 1.73693, 1.79276, 1.81826, 1.83715, 1.82519, 1.81082, 1.81156, 1.87463, 1.86855, 1.86911, 1.86677, 1.85833, 1.85718, 1.85695, 1.86998, 1.86918, 1.86919, 1.87377, 1.87967, 1.8512, 1.84875, 1.83782, 1.87284, 1.83003, 1.84054, 1.8404, 1.83986, 1.83757, 1.80106, 1.7995, 1.82196, 1.8235, 1.81823, 1.81207, 1.81026, 1.78012, 1.74779, 1.74758, 1.74638, 1.74296, 1.74225, 1.74116, 1.73775, 1.71814, 1.71811, 1.70678, 1.70991, 1.67494, 1.67446, 1.67443, 1.69978, 1.67547, 1.67147, 1.66999, 1.64489, 1.62832, 1.59528, 1.55527, 1.55782, 1.56526, 1.57459, 1.56981, 1.57128, 1.49245, 1.4758, 1.46148, 1.45001, 1.45022, 1.3468, 1.32673, 1.32025, 1.28121, 1.24136, 1.23265, 1.23007, 1.18997, 1.16764, 1.17017, 1.18599, 1.23933, 1.20861, 1.20799, 1.2014, 1.19945, 1.19668, 1.19503, 1.19398, 1.19324, 1.18937, 1.18678, 1.18756, 1.18832, 1.17729, 1.1808, 1.16868, 1.17196, 1.17392, 1.16079, 1.15465, 1.15596, 1.15638, 1.13398, 1.13312, 1.13471, 1.12975, 1.12917, 1.13094, 1.14499, 1.14379, 1.13893, 1.13836, 1.13627, 1.13686, 1.13538, 1.13545, 1.13067, 1.13209, 1.13572, 1.12714, 1.12225, 1.12382, 1.12607, 1.11957, 1.12132, 1.13413, 1.13539, 1.10309, 1.10477, 1.10135, 1.10229, 1.10859, 1.11059, 1.11357, 1.11407, 1.12252, 1.11876, 1.12571, 1.11879
1.16289, 1.16416, 1.17425, 1.17868, 1.17647, 1.17705, 1.17514, 1.17083, 1.16922, 1.16862, 1.16971, 1.16943, 1.16764, 1.16694, 1.16981, 1.17068, 1.17113, 1.17068, 1.17201, 1.18169, 1.18337, 1.17658, 1.1744, 1.17353, 1.1746, 1.17342, 1.17472, 1.17474, 1.1767, 1.17703, 1.17809, 1.17866, 1.17872, 1.17683, 1.29234, 1.18908, 1.19868, 1.1981, 1.20659, 1.20459, 1.20532, 1.20484, 1.20502, 1.19608, 1.19898, 1.19436, 1.19165, 1.20167, 1.1557, 1.15566, 1.15408, 1.14315, 1.16422, 1.18462, 1.18026, 1.20011, 1.22231, 1.24591, 1.25416, 1.26612, 1.28537, 1.28861, 1.30371, 1.3129, 1.32993, 1.36316, 1.36178, 1.37915, 1.43142, 1.46809, 1.48308, 1.48943, 1.4957, 1.48385, 1.48261, 1.49335, 1.5032, 1.52449, 1.58248, 1.55755, 1.58322, 1.60475, 1.60509, 1.59812, 1.61229, 1.62273, 1.62667, 1.69984, 1.75576, 1.76298, 1.73047, 1.72857, 1.71773, 1.73412, 1.73431, 1.73374, 1.75582, 1.76048, 1.75878, 1.74131, 1.74114, 1.76451, 1.75858, 1.75489, 1.83846, 1.81407, 1.83095, 1.82414, 1.84427, 1.90008, 1.86794, 1.86842, 1.86853, 1.86514, 1.85152, 1.85064, 1.86898, 1.87085, 1.87988, 1.87994, 1.85862, 1.85095, 1.85116, 2.07924, 1.84151, 1.84383, 1.84349, 1.84369, 1.84749, 1.81334, 1.80081, 1.80101, 1.85215, 1.81902, 1.81697, 1.81518, 1.81501, 1.82048, 1.77948, 1.74818, 1.74717, 1.75093, 1.73531, 1.73327, 1.72796, 1.71952, 1.71913, 1.7174, 1.71504, 1.67512, 1.67479, 1.67446, 1.70163, 1.69917, 1.64036, 1.6241, 1.64833, 1.61691, 1.59862, 1.56627, 1.57071, 1.55681, 1.53362, 1.5293, 1.51636, 1.49216, 1.49208, 1.46775, 1.47144, 1.41675, 1.38766, 1.34606, 1.32674, 1.27734, 1.27731, 1.25416, 1.20864, 1.18383, 1.16812, 1.17727, 1.19569, 1.19929, 1.2071, 1.20524, 1.20491, 1.19843, 1.19836, 1.19577, 1.19596, 1.19129, 1.19032, 1.18997, 1.19024, 1.18956, 1.18886, 1.19088, 1.17577, 1.16966, 1.17132, 1.17086, 1.16542, 1.16445, 1.16548, 1.15676, 1.13584, 1.1355, 1.1333, 1.14169, 1.14196, 1.14329, 1.14153, 1.14056, 1.14056, 1.14089, 1.13985, 1.14078, 1.1391, 1.13479, 1.1348, 1.13513, 1.13176, 1.13231, 1.12577, 1.10613, 1.10682, 1.12602, 1.12594, 1.12318, 1.12084, 1.10852, 1.11238, 1.1111, 1.11233, 1.11434, 1.11639, 1.1182, 1.12774, 1.12852, 1.12588, 1.12298
1.16892, 1.1734, 1.17519, 1.17772, 1.18037, 1.18071, 1.17379, 1.17032, 1.16942, 1.1669, 1.16997, 1.16843, 1.16668, 1.16644, 1.16855, 1.1697, 1.16781, 1.16856, 1.1701, 1.17097, 1.17245, 1.1718, 1.169, 1.16995, 1.17201, 1.16934, 1.1694, 1.16913, 1.17426, 1.17845, 1.17816, 1.17173, 1.17365, 1.17422, 1.30803, 1.4247, 1.19714, 1.19982, 1.20523, 1.44799, 1.20597, 1.20625, 1.18792, 1.19076, 1.19525, 1.22237, 1.23736, 1.17571, 1.19941, 1.16233, 1.162, 1.16472, 1.17072, 1.29341, 1.21989, 1.22302, 1.23052, 1.24363, 1.25702, 1.29901, 1.28517, 1.28896, 1.30244, 1.32611, 1.35324, 1.36905, 1.37068, 1.39978, 1.42027, 1.43248, 1.50759, 1.49209, 1.49696, 1.49685, 1.49647, 1.48012, 1.50208, 1.55344, 1.55933, 1.59366, 1.59642, 1.61373, 1.61857, 1.61577, 1.61488, 1.61346, 1.64003, 1.6665, 1.70445, 1.70933, 1.72726, 1.71093, 1.70428, 1.70377, 1.73366, 1.80135, 1.76477, 1.74989, 1.74913, 1.80279, 1.74159, 1.7653, 1.76952, 1.7591, 1.78294, 1.79358, 1.86855, 1.81635, 1.83405, 1.83802, 1.90353, 1.86877, 1.91456, 1.85028, 1.85043, 1.85083, 1.86975, 1.86546, 1.86458, 1.87329, 1.87495, 1.87619, 1.8621, 1.8613, 1.85911, 1.84678, 1.84356, 1.84213, 1.7822, 1.78195, 1.79224, 1.77716, 1.79058, 1.79922, 1.84379, 1.89016, 1.87857, 1.77991, 1.7793, 1.77835, 1.75579, 1.76579, 1.73512, 1.73396, 1.71947, 1.71863, 1.72674, 1.74114, 1.686, 1.68426, 1.67205, 1.67309, 1.66216, 1.66085, 1.6343, 1.63537, 1.62998, 1.63244, 1.60998, 1.58484, 1.56618, 1.57512, 1.55459, 1.54394, 1.53064, 1.53061, 1.53406, 1.56563, 1.45798, 1.44305, 1.44209, 1.38609, 1.33014, 1.28016, 1.27834, 1.22874, 1.20799, 1.20366, 1.16601, 1.19137, 1.18527, 1.2278, 1.22873, 1.20311, 1.20286, 1.20005, 1.1961, 1.19692, 1.19566, 1.19347, 1.18869, 1.18963, 1.18962, 1.18662, 1.18442, 1.18509, 1.18257, 1.16464, 1.16093, 1.16055, 1.15896, 1.15992, 1.16095, 1.15671, 1.13771, 1.13802, 1.14323, 1.14295, 1.14408, 1.14328, 1.14082, 1.14153, 1.14203, 1.14237, 1.14275, 1.14174, 1.13767, 1.13583, 1.1368, 1.13128, 1.12947, 1.13081, 1.1311, 1.13288, 1.11477, 1.11221, 1.11531, 1.12173, 1.11708, 1.11246, 1.11337, 1.11403, 1.11686, 1.11934, 1.12248, 1.12537, 1.12603, 1.12673, 1.13211, 1.13055
1.16974, 1.17024, 1.17078, 1.17487, 1.18097, 1.17809, 1.17045, 1.16989, 1.16658, 1.16743, 1.16967, 1.1702, 1.16303, 1.16321, 1.16728, 1.16792, 1.16692, 1.16752, 1.173, 1.17107, 1.17076, 1.16846, 1.16697, 1.16724, 1.16861, 1.16928, 1.15758, 1.2981, 1.29788, 1.27548, 1.29709, 1.27489, 1.17694, 1.17848, 1.19911, 1.32478, 1.19795, 1.19932, 1.3784, 1.2104, 1.42996, 1.40536, 1.18755, 1.19763, 1.18196, 1.18804, 1.1693, 1.17264, 1.16535, 1.16417, 1.18268, 1.18048, 1.19798, 1.19441, 1.21439, 1.21554, 1.24831, 1.24114, 1.26238, 1.28163, 1.28777, 1.30051, 1.33, 1.34544, 1.35634, 1.36664, 1.38317, 1.39627, 1.441, 1.42983, 1.47445, 1.49944, 1.53732, 1.50031, 1.48011, 1.4792, 1.4885, 1.52613, 1.55334, 1.5744, 1.60296, 1.62032, 1.60687, 1.60534, 1.59879, 1.61558, 1.63705, 1.66648, 1.70326, 1.68919, 1.70576, 1.69925, 1.704, 1.72089, 1.80751, 1.80402, 1.89018, 1.81341, 1.7688, 1.80981, 1.81098, 1.78574, 1.79976, 1.8487, 1.78599, 1.89635, 1.86914, 1.80068, 1.80971, 1.84515, 1.8421, 1.94603, 1.95273, 1.92087, 1.92145, 1.941, 1.93116, 1.88204, 1.87487, 1.8749, 1.87321, 1.88215, 1.86126, 1.86003, 1.86125, 1.84103, 1.8694, 1.79777, 1.78268, 1.78313, 1.78159, 1.77826, 1.76872, 1.78245, 1.78232, 1.78984, 1.80534, 1.7956, 1.89611, 1.76856, 1.76264, 1.76282, 1.74636, 1.72677, 1.72682, 1.75581, 1.77672, 1.65873, 1.66867, 1.66826, 1.65408, 1.65354, 1.75373, 1.64451, 1.64509, 1.62417, 1.62144, 1.66746, 1.61357, 1.5878, 1.58173, 1.56982, 1.55526, 1.54106, 1.54697, 1.52822, 1.50566, 1.50614, 1.48332, 1.42651, 1.40305, 1.37556, 1.32816, 1.27208, 1.24133, 1.24289, 1.20149, 1.19448, 1.15028, 1.15415, 1.24014, 1.17805, 1.17851, 1.20341, 1.20309, 1.20136, 1.20092, 1.19846, 1.19766, 1.19159, 1.18944, 1.19379, 1.18426, 1.18381, 1.1849, 1.17055, 1.16775, 1.16446, 1.15962, 1.16209, 1.15784, 1.1554, 1.15299, 1.15262, 1.14602, 1.1449, 1.14239, 1.14098, 1.14047, 1.13982, 1.13931, 1.13973, 1.13886, 1.13923, 1.13864, 1.13851, 1.13538, 1.13644, 1.13059, 1.13214, 1.12705, 1.13008, 1.12964, 1.13067, 1.11279, 1.11172, 1.11434, 1.11517, 1.11074, 1.11466, 1.11574, 1.12074, 1.12039, 1.12122, 1.12603, 1.12516, 1.12557, 1.12804, 1.12919, 1.12172
1.16937, 1.16872, 1.16622, 1.17409, 1.17435, 1.17117, 1.16191, 1.16132, 1.16539, 1.16712, 1.16514, 1.16388, 1.15842, 1.15846, 1.15855, 1.16128, 1.16272, 1.1641, 1.16539, 1.23695, 1.17367, 1.17367, 1.17393, 1.1746, 1.17524, 1.15777, 1.22035, 1.18072, 1.24314, 1.14911, 1.15005, 1.27894, 1.18013, 1.18846, 1.18908, 1.19622, 1.19591, 1.23869, 1.20966, 1.21347, 1.21419, 1.50494, 1.18742, 1.18803, 1.18038, 1.25423, 1.17041, 1.159, 1.17418, 1.16009, 1.19653, 1.19358, 1.18147, 1.19919, 1.22121, 1.22328, 1.23973, 1.23922, 1.28049, 1.30925, 1.30276, 1.30236, 1.3262, 1.34309, 1.35755, 1.3793, 1.39462, 1.42189, 1.42659, 1.44352, 1.46205, 1.45473, 1.48667, 1.48594, 1.49817, 1.49539, 1.56009, 1.53948, 1.59355, 1.57428, 1.61782, 1.66215, 1.67134, 1.59994, 1.59957, 1.62312, 1.64478, 1.68837, 1.69311, 1.6891, 1.81755, 1.70728, 1.70692, 1.70793, 1.73693, 1.73441, 1.8986, 1.78116, 1.83105, 1.83481, 1.79938, 1.79906, 1.79589, 1.80041, 1.80315, 1.80278, 1.80125, 1.80051, 1.81574, 1.84015, 1.83845, 2.00893, 2.06355, 1.93505, 1.93476, 1.94423, 1.91821, 1.92064, 1.88241, 1.8735, 1.87518, 1.87428, 1.87189, 1.86163, 1.86163, 1.78994, 1.80711, 1.80963, 1.81003, 1.78469, 1.79371, 1.77187, 1.76983, 1.78272, 1.7832, 1.79064, 1.78878, 1.8386, 1.83881, 1.77033, 1.76878, 1.77243, 1.75113, 1.74039, 1.74149, 1.74723, 1.77282, 1.6607, 1.66023, 1.66766, 1.66822, 1.65532, 1.64891, 1.64871, 1.65952, 1.61821, 1.60312, 1.68295, 1.60863, 1.60018, 1.57893, 1.57575, 1.58692, 1.57414, 1.55084, 1.56227, 1.50415, 1.5735, 1.45712, 1.45537, 1.4427, 1.36124, 1.2836, 1.25748, 1.23601, 1.2416, 1.18402, 1.16945, 1.16098, 1.15208, 1.15702, 1.15978, 1.23015, 1.66921, 1.20846, 1.20444, 1.2024, 1.20149, 1.20251, 1.19465, 1.1892, 1.18526, 1.18083, 1.17954, 1.17145, 1.16982, 1.16582, 1.16399, 1.15989, 1.15787, 1.15917, 1.1546, 1.15232, 1.1478, 1.14623, 1.14397, 1.13971, 1.14028, 1.14023, 1.13914, 1.13849, 1.1392, 1.13879, 1.13801, 1.13725, 1.13826, 1.13645, 1.13986, 1.13004, 1.12933, 1.12731, 1.13579, 1.13569, 1.13611, 1.13229, 1.12845, 1.11359, 1.10267, 1.10481, 1.10876, 1.10926, 1.11879, 1.11883, 1.12168, 1.12517, 1.12217, 1.12076, 1.12586, 1.12536, 1.12243
1.17053, 1.16977, 1.16836, 1.16681, 1.1669, 1.1626, 1.16039, 1.15988, 1.16075, 1.16218, 1.16419, 1.15716, 1.15548, 1.15629, 1.1565, 1.15649, 1.15997, 1.16169, 1.164, 1.16511, 1.16807, 1.17031, 1.1713, 1.17373, 1.24933, 1.13423, 1.13363, 1.13438, 1.14676, 1.14825, 1.36366, 1.26056, 1.23799, 1.32997, 1.20251, 1.20303, 1.20732, 1.21067, 1.21267, 1.21393, 1.21542, 1.43005, 1.43233, 1.1954, 1.19548, 1.17197, 1.17348, 1.15887, 1.1749, 1.1823, 1.1952, 1.20624, 1.19885, 1.20177, 1.22343, 1.22509, 1.24002, 1.27045, 1.2789, 1.29233, 1.30124, 1.32545, 1.33383, 1.35047, 1.35783, 1.3952, 1.39605, 1.42085, 1.43868, 1.44423, 1.44377, 1.45466, 1.47648, 1.48879, 1.49981, 1.49925, 1.56122, 1.60006, 1.65683, 1.58516, 1.58499, 1.67298, 1.66874, 1.65869, 1.6285, 1.70909, 1.70649, 1.67574, 1.7029, 1.7683, 1.72209, 1.72388, 1.73329, 1.74475, 1.74422, 1.74405, 1.76544, 1.78677, 1.78898, 1.81587, 1.80284, 1.79755, 1.80274, 1.80207, 1.79947, 1.80877, 1.80234, 1.80173, 1.81548, 1.82694, 1.91667, 1.92353, 2.01305, 1.93609, 1.93565, 1.93522, 1.93076, 1.92288, 1.87788, 1.86911, 1.86871, 1.86869, 1.86199, 1.86161, 1.86203, 1.81165, 1.79742, 1.79642, 1.77266, 1.77161, 1.77975, 1.78867, 1.7891, 1.8, 1.79607, 1.79212, 1.79596, 1.77064, 1.77007, 1.77512, 1.81611, 1.78582, 1.74191, 1.74127, 1.74228, 1.78983, 1.69385, 1.69694, 1.69664, 1.66783, 1.68886, 1.64754, 1.68134, 1.65288, 1.65775, 1.63708, 1.63743, 1.60631, 1.59243, 1.59756, 1.57005, 1.56718, 1.57516, 1.57518, 1.59793, 1.52793, 1.57654, 1.5457, 1.45437, 1.43969, 1.40893, 1.2778, 1.26786, 1.25327, 1.23958, 1.20395, 1.20862, 1.16454, 1.16016, 1.14186, 1.15649, 1.22333, 1.18505, 1.37408, 1.20277, 1.20332, 1.20174, 1.20111, 1.19678, 1.19769, 1.18622, 1.18417, 1.17959, 1.17686, 1.17098, 1.16833, 1.16661, 1.16085, 1.15984, 1.15979, 1.15972, 1.15544, 1.14838, 1.14779, 1.147, 1.14526, 1.14147, 1.14203, 1.14172, 1.14098, 1.14557, 1.14317, 1.14326, 1.13945, 1.13925, 1.13896, 1.13944, 1.14206, 1.13193, 1.13181, 1.13208, 1.1347, 1.13579, 1.13344, 1.13146, 1.13096, 1.10567, 1.10593, 1.10241, 1.10833, 1.10785, 1.11858, 1.11939, 1.12038, 1.1239, 1.12356, 1.12056, 1.11657, 1.12921, 1.14241
1.16866, 1.16905, 1.16729, 1.16678, 1.16673, 1.16431, 1.16246, 1.17094, 1.16303, 1.15972, 1.15796, 1.15755, 1.15471, 1.15631, 1.15659, 1.15679, 1.16003, 1.15912, 1.16093, 1.16364, 1.16641, 1.1714, 1.17203, 1.23465, 1.13609, 1.13375, 1.1335, 1.13366, 1.26546, 1.26462, 1.26788, 1.22937, 1.18134, 1.19332, 1.1935, 1.19807, 1.20398, 1.20863, 1.20872, 1.20911, 1.47291, 1.50522, 1.44119, 1.36028, 1.1756, 1.18148, 1.16998, 1.15766, 1.17438, 1.17348, 1.19049, 1.19717, 1.21672, 1.20594, 1.21651, 1.24775, 1.27288, 1.28894, 1.2808, 1.28851, 1.32971, 1.34488, 1.33809, 1.37225, 1.37691, 1.39582, 1.46108, 1.46017, 1.45157, 1.45237, 1.46786, 1.46678, 1.48315, 1.47668, 1.49913, 1.49988, 1.4997, 1.57681, 1.57943, 1.58483, 1.58463, 1.59366, 1.67346, 1.66218, 1.66066, 1.70915, 1.66702, 1.70267, 1.80279, 1.80254, 1.74755, 1.73819, 1.74492, 1.73181, 1.74231, 1.74818, 1.7694, 1.8302, 1.78221, 1.79025, 1.79445, 1.79465, 1.79359, 1.80443, 1.81014, 1.81912, 1.81109, 1.81177, 1.8165, 1.84529, 1.84595, 1.92129, 1.88879, 1.93645, 1.93524, 2.00414, 1.92437, 1.92402, 1.89018, 1.87989, 1.86504, 1.86195, 2.06142, 1.81403, 1.80118, 1.76667, 1.79788, 1.76545, 1.78171, 1.78101, 1.7818, 1.78061, 1.84363, 1.80077, 1.80055, 1.82743, 1.82673, 1.77532, 1.7692, 1.77623, 1.77557, 1.76504, 1.76347, 1.95433, 1.74397, 1.70627, 1.70636, 1.71314, 1.71236, 1.74821, 1.75437, 1.7577, 1.75829, 1.6937, 1.67225, 1.67527, 1.67196, 1.66936, 1.59673, 1.59619, 1.56772, 1.56947, 1.569, 1.61448, 1.62258, 1.52979, 1.48209, 1.44737, 1.4402, 1.40261, 1.39256, 1.33795, 1.27362, 1.25341, 1.22407, 1.22318, 1.20929, 1.19303, 1.16084, 1.14066, 1.1644, 1.15673, 1.18622, 1.35142, 1.2063, 1.20512, 1.20433, 1.36547, 1.41885, 1.19352, 1.1916, 1.19186, 1.18484, 1.29933, 1.17369, 1.17358, 1.16992, 1.1624, 1.16154, 1.16184, 1.15495, 1.15318, 1.16055, 1.15482, 1.16264, 1.15284, 1.15304, 1.14837, 1.1497, 1.14221, 1.14047, 1.13924, 1.14005, 1.13964, 1.13908, 1.1402, 1.14992, 1.14795, 1.13199, 1.13095, 1.13201, 1.13148, 1.13125, 1.12683, 1.126, 1.1228, 1.12454, 1.10814, 1.10185, 1.10131, 1.20662, 1.11653, 1.11745, 1.11926, 1.12134, 1.12237, 1.12174, 1.38991, 1.24658, 1.08899
1.16321, 1.16231, 1.1615, 1.1653, 1.16532, 1.16777, 1.16231, 1.17004, 1.16875, 1.16818, 1.17044, 1.16526, 1.16165, 1.15773, 1.15796, 1.15894, 1.15978, 1.16013, 1.16428, 1.16625, 1.16607, 1.17, 1.14745, 1.14143, 1.13685, 1.13622, 1.31386, 1.13946, 1.14117, 1.16328, 1.2534, 1.17688, 1.17848, 1.19164, 1.19238, 1.19807, 1.20224, 1.2047, 1.20521, 1.3405, 1.36917, 1.4074, 1.48603, 1.18232, 1.18517, 1.18515, 1.15748, 1.14362, 1.15719, 1.16661, 1.23061, 1.18376, 1.20143, 1.20375, 1.23939, 1.24114, 1.3027, 1.26387, 1.29346, 1.30953, 1.3276, 1.32901, 1.35785, 1.3675, 1.38788, 1.47494, 1.46756, 1.48208, 1.4512, 1.45185, 1.47537, 1.47274, 1.49623, 1.49916, 1.51637, 1.5241, 1.5291, 1.55936, 1.57926, 1.64797, 1.5964, 1.59923, 1.67238, 1.69899, 1.66547, 1.71968, 1.72405, 1.71338, 1.71402, 1.80246, 1.74716, 1.74022, 1.7445, 1.7488, 1.74508, 1.74314, 1.76472, 1.76171, 1.77183, 1.77904, 1.78725, 1.79373, 1.79306, 1.79319, 1.82361, 1.8236, 1.81328, 1.81198, 1.81665, 1.81458, 1.80944, 1.82563, 1.94777, 1.87303, 1.90604, 1.87587, 1.97638, 1.97597, 1.88928, 1.87011, 1.87055, 1.84153, 1.80912, 1.8248, 1.80379, 1.78623, 1.80376, 1.78767, 1.76157, 1.75625, 1.78659, 1.80044, 1.80516, 1.80464, 1.79994, 1.77491, 1.77388, 1.77084, 1.76792, 1.76771, 1.76716, 1.76592, 1.76302, 1.82309, 1.71549, 1.71129, 1.70904, 1.71047, 1.71119, 1.71058, 1.70411, 1.73461, 1.67794, 1.66464, 1.66445, 1.66378, 1.67879, 1.64058, 1.57944, 1.57843, 1.57161, 1.57036, 1.55402, 1.63771, 1.57629, 1.50279, 1.45118, 1.43686, 1.42138, 1.47414, 1.41246, 1.33879, 1.29926, 1.26456, 1.22718, 1.23699, 1.19145, 1.18185, 1.15107, 1.15765, 1.14009, 1.20598, 1.23764, 1.2362, 1.20823, 1.20814, 1.20901, 1.20909, 1.42679, 1.36505, 1.19147, 1.19092, 1.19292, 1.18714, 1.18804, 1.16921, 1.1598, 1.15913, 1.1593, 1.15999, 1.15247, 1.15308, 1.15394, 1.15464, 1.15556, 1.15381, 1.14801, 1.14608, 1.14303, 1.1402, 1.1391, 1.1389, 1.13859, 1.13803, 1.14007, 1.14183, 1.14932, 1.13291, 1.12945, 1.12968, 1.1279, 1.131, 1.12649, 1.12607, 1.12516, 1.12322, 1.12189, 1.18955, 1.10392, 1.10313, 1.2137, 1.12156, 1.1185, 1.12316, 1.11953, 1.12131, 1.1232, 1.09605, 1.09597, 1.08388
1.16995, 1.16845, 1.1638, 1.16511, 1.16588, 1.16485, 1.16663, 1.16346, 1.16689, 1.16896, 1.17032, 1.16904, 1.16795, 1.1669, 1.16156, 1.16038, 1.16016, 1.16363, 1.17023, 1.16112, 1.15884, 1.14733, 1.14781, 1.14264, 1.14334, 1.14291, 1.1424, 1.14347, 1.14454, 1.35567, 1.16388, 1.23421, 1.18609, 1.18769, 1.19495, 1.19867, 1.2023, 1.20599, 1.36695, 1.37861, 1.31369, 1.31826, 1.20628, 1.19202, 1.20266, 1.13798, 1.13655, 1.13573, 1.16042, 1.17235, 1.17301, 1.18452, 1.19674, 1.22155, 1.23127, 1.24726, 1.25798, 1.27546, 1.29059, 1.31183, 1.33637, 1.3326, 1.40611, 1.37476, 1.39357, 1.41008, 1.44486, 1.48293, 1.46403, 1.47529, 1.48198, 1.47916, 1.50978, 1.50578, 1.56656, 1.53677, 1.53417, 1.56757, 1.59339, 1.59654, 1.62601, 1.65191, 1.7034, 1.70328, 1.73119, 1.72379, 1.76202, 1.71372, 1.71622, 1.75654, 1.76163, 1.83352, 1.74518, 1.74252, 1.74261, 1.7417, 1.74132, 1.74259, 1.76158, 1.76811, 1.7758, 1.81055, 1.85904, 1.82727, 1.82699, 1.87272, 1.82002, 1.81996, 1.81873, 1.80867, 1.80742, 1.82982, 1.81783, 1.85455, 1.97942, 1.97913, 1.97618, 1.8593, 1.85152, 1.86081, 1.84815, 1.82339, 1.80757, 1.83404, 1.83462, 1.79552, 1.76829, 1.76747, 1.76951, 1.75774, 1.79021, 1.79042, 1.79246, 1.78736, 1.86834, 1.76456, 1.77226, 1.75873, 1.76173, 1.7676, 1.7684, 1.76782, 1.73816, 1.73797, 1.71699, 1.71672, 1.70879, 1.70972, 1.70957, 1.71687, 1.71616, 1.69527, 1.69425, 1.66834, 1.66779, 1.66613, 1.68529, 1.62481, 1.62476, 1.59331, 1.5831, 1.55428, 1.55083, 1.54423, 1.55205, 1.52952, 1.44653, 1.42326, 1.41703, 1.3999, 1.40503, 1.32709, 1.27079, 1.2619, 1.2387, 1.21938, 1.20827, 1.21393, 1.14854, 1.14964, 1.14966, 1.15995, 1.23328, 1.38913, 1.20542, 1.20714, 1.20815, 1.20817, 1.20659, 1.18662, 1.18737, 1.19494, 1.19637, 1.18823, 1.35087, 1.16062, 1.16063, 1.17532, 1.1736, 1.17551, 1.16255, 1.16304, 1.16024, 1.15954, 1.15826, 1.15556, 1.15272, 1.15277, 1.14528, 1.14429, 1.13584, 1.13579, 1.20287, 1.13673, 1.13824, 1.14891, 1.14913, 1.13236, 1.13214, 1.1321, 1.1302, 1.13017, 1.13594, 1.13225, 1.12703, 1.12661, 1.12394, 1.12249, 1.11764, 1.11608, 1.11877, 1.12047, 1.12094, 1.11926, 1.11903, 1.11809, 1.11822, 1.12133, 1.09451, 1.08399
1.17156, 1.16847, 1.16411, 1.16343, 1.16282, 1.16328, 1.16354, 1.16496, 1.1658, 1.16686, 1.16807, 1.16811, 1.16671, 1.16656, 1.1682, 1.16995, 1.17356, 1.17458, 1.17147, 1.16488, 1.15666, 1.15307, 1.15288, 1.34914, 1.34092, 1.27472, 1.26687, 1.1487, 1.15511, 1.17482, 1.17051, 1.19171, 1.18608, 1.18775, 1.19368, 1.19703, 1.20045, 1.4802, 1.19803, 1.1913, 1.19093, 1.28993, 1.15398, 1.17098, 1.22862, 1.14636, 1.1443, 1.14471, 1.15369, 1.1628, 1.19037, 1.1932, 1.20859, 1.21986, 1.23887, 1.2335, 1.28086, 1.27347, 1.28335, 1.29782, 1.33289, 1.34307, 1.40334, 1.38641, 1.40995, 1.45997, 1.43062, 1.45897, 1.51296, 1.46888, 1.48011, 1.49728, 1.50699, 1.5058, 1.54081, 1.55155, 1.56473, 1.57984, 1.57868, 1.60761, 1.62428, 1.64449, 1.77147, 1.71947, 1.76561, 1.71595, 1.71603, 1.7194, 1.7183, 1.75851, 1.76213, 1.7749, 1.78012, 1.76914, 1.74472, 1.74415, 1.74079, 1.74086, 1.7405, 1.75679, 1.78012, 1.77972, 1.85504, 1.827, 1.82729, 1.81651, 1.82079, 1.82125, 1.8148, 1.80716, 1.80988, 1.81015, 1.82192, 1.8445, 1.83008, 1.98645, 1.84877, 1.83124, 1.85148, 1.82083, 1.8205, 1.84859, 1.81704, 1.80841, 1.883, 1.78778, 1.79365, 1.7658, 1.79617, 1.77936, 1.78516, 1.78445, 1.78826, 1.77778, 1.77714, 1.76702, 1.76331, 1.7611, 1.765, 1.77085, 1.76981, 1.76781, 1.77446, 1.74807, 1.72746, 1.71775, 1.71243, 1.71124, 1.71272, 1.71163, 1.8034, 1.69455, 1.68396, 1.68358, 1.67845, 1.67693, 1.70243, 1.63766, 1.64129, 1.59581, 1.58568, 1.58546, 1.55033, 1.54817, 1.50306, 1.4707, 1.45717, 1.41718, 1.42552, 1.46151, 1.40015, 1.35004, 1.29909, 1.26062, 1.23034, 1.24755, 1.21239, 1.1886, 1.15522, 1.14137, 1.17612, 1.16327, 1.20488, 1.20949, 1.2069, 1.20656, 1.20707, 1.2055, 1.33017, 1.18957, 1.18912, 1.19101, 1.35087, 1.19658, 1.16303, 1.16363, 1.1714, 1.16829, 1.16645, 1.16174, 1.16108, 1.15998, 1.16025, 1.15958, 1.1572, 1.154, 1.15375, 1.14907, 1.14771, 1.21518, 1.12425, 1.12403, 1.12137, 1.12163, 1.13993, 1.14941, 1.3338, 1.13471, 1.13683, 1.13749, 1.13892, 1.13905, 1.13224, 1.13023, 1.12669, 1.12459, 1.12493, 1.12277, 1.11821, 1.11652, 1.12113, 1.11961, 1.11714, 1.11789, 1.11943, 1.11396, 1.11126, 1.11061, 1.09927, 1.0944
1.17421, 1.16765, 1.16465, 1.1597, 1.1598, 1.16179, 1.16495, 1.16475, 1.16362, 1.16451, 1.16659, 1.18297, 1.16487, 1.16424, 1.16637, 1.16675, 1.17473, 1.17782, 1.49675, 1.15454, 1.15464, 1.15685, 1.15756, 1.17061, 1.16966, 1.16932, 1.26767, 1.16804, 1.16891, 1.17022, 1.25127, 1.18379, 1.18559, 1.18973, 1.19781, 1.19888, 1.20523, 1.20552, 1.34014, 1.33957, 1.35061, 1.27977, 1.14395, 1.12857, 1.12273, 1.11742, 1.15174, 1.1396, 1.19832, 1.18883, 1.20758, 1.21216, 1.20329, 1.23947, 1.24758, 1.26347, 1.25113, 1.25766, 1.2913, 1.29943, 1.33591, 1.33553, 1.38142, 1.38143, 1.40469, 1.41636, 1.42846, 1.45499, 1.47687, 1.51252, 1.50759, 1.56102, 1.56751, 1.57766, 1.54121, 1.54134, 1.56583, 1.57905, 1.58891, 1.60637, 1.629, 1.64462, 1.76234, 1.71998, 1.72039, 1.71722, 1.71731, 1.72262, 1.73035, 1.77918, 1.76394, 1.76327, 1.7614, 1.7695, 1.7545, 1.75771, 1.77685, 1.74154, 1.74072, 1.77182, 1.77987, 1.77854, 1.82682, 1.81294, 1.81223, 1.81706, 1.82436, 1.81299, 1.8093, 1.80893, 1.80861, 1.81266, 1.83578, 1.79591, 1.8109, 2.17627, 1.8058, 1.817, 1.80056, 1.8002, 1.80015, 1.83124, 1.84533, 1.80667, 1.79698, 1.7986, 1.79923, 1.7678, 1.77755, 1.82376, 1.78929, 1.78558, 1.77266, 1.77251, 1.77873, 1.77718, 1.83689, 1.76421, 1.76332, 1.77277, 1.77173, 1.76988, 1.74938, 1.80219, 1.73744, 1.73006, 1.71029, 1.7079, 1.68396, 1.70507, 1.71095, 1.68653, 1.68587, 1.68394, 1.68306, 1.68332, 1.69641, 1.66085, 1.6453, 1.59286, 1.58878, 1.56837, 1.57195, 1.56907, 1.47696, 1.47574, 1.45213, 1.43671, 1.42634, 1.4759, 1.45454, 1.34021, 1.338, 1.2744, 1.24091, 1.21425, 1.19617, 1.19531, 1.15902, 1.16066, 1.12933, 1.18628, 1.20307, 1.20555, 1.20843, 1.20749, 1.20774, 1.2079, 1.49954, 1.19309, 1.19098, 1.19032, 1.26103, 1.2599, 1.16308, 1.16511, 1.16834, 1.16693, 1.16451, 1.16271, 1.16156, 1.16052, 1.16055, 1.15987, 1.15668, 1.15584, 1.1572, 1.15365, 1.1551, 1.23313, 1.12309, 1.12139, 1.12191, 1.12375, 1.18771, 1.15404, 1.15334, 1.13929, 1.13904, 1.13837, 1.13831, 1.13915, 1.1401, 1.13367, 1.1328, 1.12899, 1.12929, 1.12548, 1.12394, 1.12112, 1.12174, 1.12146, 1.11571, 1.11363, 1.11477, 1.10838, 1.10515, 1.10704, 1.10462, 1.09295
1.17034, 1.16775, 1.16325, 1.15918, 1.15897, 1.15972, 1.16293, 1.16232, 1.16087, 1.16695, 1.16222, 1.15529, 1.15295, 1.15673, 1.16472, 1.16994, 1.17083, 1.17767, 1.16397, 1.15877, 1.16115, 1.16277, 1.16773, 1.16747, 1.16814, 1.1682, 1.16837, 1.16771, 1.17055, 1.17498, 1.17742, 1.1838, 1.18725, 1.19281, 1.19464, 1.20539, 1.20898, 1.20802, 1.20794, 1.3695, 1.37023, 1.32528, 1.27637, 1.13363, 1.23356, 1.23184, 1.14294, 1.1783, 1.1829, 1.19079, 1.18149, 1.22098, 1.22681, 1.23521, 1.24979, 1.28623, 1.28534, 1.26598, 1.28701, 1.40725, 1.33636, 1.33831, 1.37576, 1.37414, 1.40316, 1.43018, 1.42531, 1.44732, 1.46785, 1.50709, 1.61154, 1.53458, 1.52346, 1.54133, 1.54366, 1.5425, 1.56129, 1.62441, 1.61358, 1.64478, 1.6893, 1.75179, 1.7423, 1.76813, 1.76767, 1.76771, 1.7788, 1.77631, 1.775, 1.77236, 1.7652, 1.76502, 1.76589, 1.76701, 1.75836, 1.75463, 1.75216, 1.76675, 1.75435, 1.77172, 1.77851, 1.80931, 1.81135, 1.80988, 1.81254, 1.81313, 1.81348, 1.81303, 1.83834, 1.79653, 1.79702, 1.7967, 1.79626, 1.79633, 1.79668, 1.7956, 1.8023, 1.77845, 1.77891, 1.80034, 1.80038, 1.83243, 1.83147, 1.78739, 1.79094, 1.7896, 1.8002, 1.79047, 1.79293, 1.85077, 1.78575, 1.7854, 1.78416, 1.77351, 1.77327, 1.77939, 1.7794, 1.76454, 1.76317, 1.76611, 1.86814, 1.78358, 1.82705, 1.73162, 1.69288, 1.69908, 1.69194, 1.69015, 1.68362, 1.67944, 1.66852, 1.68773, 1.69036, 1.68392, 1.68452, 1.67293, 1.67173, 1.70308, 1.74115, 1.61959, 1.67355, 1.57136, 1.58927, 1.59565, 1.51776, 1.49024, 1.4662, 1.43841, 1.43682, 1.4143, 1.3917, 1.34759, 1.3463, 1.23913, 1.24647, 1.21259, 1.15741, 1.1577, 1.13456, 1.13513, 1.15346, 1.17881, 1.21733, 1.42413, 1.21203, 1.20887, 1.20786, 1.20602, 1.45525, 1.19474, 1.1942, 1.19504, 1.20204, 1.22998, 1.16034, 1.16978, 1.17045, 1.16998, 1.16823, 1.16464, 1.1636, 1.16274, 1.16315, 1.16124, 1.15966, 1.15633, 1.15601, 1.15371, 1.13473, 1.13179, 1.13217, 1.12563, 1.12942, 1.14798, 1.16454, 1.16314, 1.15403, 1.14076, 1.13706, 1.13606, 1.1367, 1.1373, 1.13996, 1.14132, 1.1343, 1.12937, 1.12883, 1.12739, 1.12654, 1.11764, 1.1153, 1.1136, 1.11249, 1.11148, 1.10908, 1.10448, 1.10337, 1.10384, 1.09431, 1.09483
1.16348, 1.16723, 1.16024, 1.15952, 1.15896, 1.15946, 1.15798, 1.16003, 1.16001, 1.15421, 1.15264, 1.15231, 1.14935, 1.15063, 1.17157, 1.17084, 1.17184, 1.17522, 1.16536, 1.16364, 1.16311, 1.16536, 1.16458, 1.16523, 1.16719, 1.16833, 1.16874, 1.16921, 1.17405, 1.17566, 1.17796, 1.18859, 1.18758, 1.19229, 1.20435, 1.20561, 1.20963, 1.21005, 1.44457, 1.32336, 1.32433, 1.32421, 1.37205, 1.21275, 1.20655, 1.18876, 1.15091, 1.18573, 1.17414, 1.18467, 1.20311, 1.22343, 1.24783, 1.24659, 1.26532, 1.26704, 1.32835, 1.28744, 1.2742, 1.31794, 1.34208, 1.35495, 1.37251, 1.41775, 1.41741, 1.44056, 1.4534, 1.47175, 1.55599, 1.51463, 1.51456, 1.61023, 1.61385, 1.52154, 1.5192, 1.51992, 1.56245, 1.58573, 1.60597, 1.6189, 1.65811, 1.67564, 0.00430653, 1.71687, 1.77218, 1.71092, 1.73887, 1.77558, 1.77566, 1.77393, 1.76137, 1.77145, 1.77144, 1.77173, 1.75856, 1.75438, 1.76131, 1.7621, 1.76593, 1.76499, 1.78621, 1.79414, 1.79129, 1.81196, 1.81399, 1.82522, 1.81155, 1.81018, 1.79717, 1.79047, 1.78991, 1.79628, 1.78711, 1.79701, 1.79667, 1.79943, 1.79569, 1.77998, 1.77905, 1.77858, 1.78808, 1.79099, 1.79087, 1.78607, 1.79224, 1.79196, 1.85684, 1.84821, 1.81465, 1.80514, 1.78526, 1.7854, 1.77447, 1.77255, 1.76836, 1.76854, 1.76968, 1.76957, 1.76282, 1.75929, 1.75788, 1.79668, 1.79523, 1.75975, 1.72869, 1.69935, 1.69872, 1.72336, 1.69302, 1.66917, 1.66932, 1.69267, 1.6857, 1.75732, 1.69523, 1.67928, 1.6789, 1.70668, 1.73637, 1.62119, 1.64296, 1.63314, 1.62696, 1.5439, 1.5273, 1.5247, 1.49581, 1.47142, 1.47207, 1.45346, 1.45365, 1.36496, 1.31516, 1.26, 1.22549, 1.21882, 1.19084, 1.18282, 1.18471, 1.15011, 1.15261, 1.22264, 1.21854, 1.21855, 1.21861, 1.41208, 1.47225, 1.20477, 1.20183, 1.19462, 1.19448, 1.198, 1.2852, 1.18364, 1.22357, 1.17121, 1.17018, 1.17002, 1.16942, 1.16439, 1.16409, 1.16446, 1.16684, 1.16401, 1.16295, 1.16069, 1.16006, 1.14249, 1.1423, 1.13905, 1.13967, 1.13371, 1.1387, 1.14996, 1.16299, 1.16373, 1.3202, 1.13978, 1.13882, 1.13484, 1.13384, 1.13228, 1.13134, 1.13209, 1.12967, 1.12936, 1.12941, 1.12865, 1.12462, 1.11306, 1.11139, 1.11004, 1.10856, 1.10805, 1.10766, 1.10541, 1.10223, 1.10137, 1.09485, 1.22322
1.15998, 1.15863, 1.1584, 1.15643, 1.15385, 1.15363, 1.1567, 1.15903, 1.15996, 1.15257, 1.15286, 1.1527, 1.15294, 1.15307, 1.16551, 1.1665, 1.16792, 1.16953, 1.17263, 1.17312, 1.16676, 1.16463, 1.16437, 1.16635, 1.16864, 1.16898, 1.16662, 1.16534, 1.16851, 1.17114, 1.17729, 1.18843, 1.19124, 1.19391, 1.34785, 1.20894, 1.20944, 1.21254, 1.41567, 1.21827, 1.22736, 1.22648, 1.22605, 1.20301, 1.18706, 1.18224, 1.17229, 1.18507, 1.1746, 1.18824, 1.22394, 1.2259, 1.24334, 1.25374, 1.25745, 1.26755, 1.28242, 1.28601, 1.34287, 1.3417, 1.39149, 1.38969, 1.38495, 1.41273, 1.45369, 1.47573, 1.46051, 1.52637, 1.53162, 1.51269, 1.51562, 1.54047, 1.54319, 1.54455, 1.56467, 1.55381, 1.62648, 1.62584, 1.60209, 1.62014, 1.63997, 1.64761, 1.69652, 1.69733, 1.71263, 1.71239, 1.72207, 1.74022, 1.74053, 1.78587, 1.78307, 1.77081, 1.77152, 1.77683, 1.75987, 1.75995, 1.76178, 1.76125, 1.7613, 1.76605, 1.78488, 1.78488, 1.79109, 1.79005, 1.82975, 1.82184, 1.91418, 1.91463, 1.82955, 1.79012, 1.78924, 1.78441, 1.80274, 1.78875, 1.78858, 1.79589, 1.79569, 1.79635, 1.7956, 1.76591, 1.90667, 1.78295, 1.79783, 1.77943, 1.77827, 1.79143, 1.85869, 1.88561, 1.88496, 1.90624, 2.07959, 2.0412, 1.81808, 1.77525, 1.76935, 1.84852, 1.84501, 1.76167, 1.84292, 1.84735, 1.74785, 1.73701, 1.73744, 1.72962, 1.73905, 1.78312, 1.69986, 1.69869, 1.69671, 1.67027, 1.66989, 1.66857, 1.68303, 1.75655, 1.65902, 1.6611, 1.65355, 1.66322, 1.65526, 1.61409, 1.63152, 1.6246, 1.66307, 1.57528, 1.56444, 1.5647, 1.50633, 1.53323, 1.49838, 1.43086, 1.4179, 1.41683, 1.28565, 1.2563, 1.23614, 1.20945, 1.19761, 1.18835, 1.17203, 1.17219, 1.21585, 1.21571, 1.21704, 1.21527, 1.2146, 1.43265, 1.20516, 1.20141, 1.20078, 1.19907, 1.20087, 1.36839, 1.18776, 1.18698, 1.18052, 1.17969, 1.17937, 1.17663, 1.17319, 1.17085, 1.17021, 1.16755, 1.1664, 1.16421, 1.16213, 1.16041, 1.16066, 1.14698, 1.14609, 1.14627, 1.14438, 1.14302, 1.14459, 1.16438, 1.16327, 1.16519, 1.1387, 1.13338, 1.13198, 1.13257, 1.13321, 1.13159, 1.13099, 1.13214, 1.13199, 1.132, 1.13228, 1.1289, 1.12611, 1.10911, 1.11141, 1.11152, 1.1064, 1.108, 1.106, 1.10655, 1.10618, 1.10522, 1.1055, 1.1095
1.16135, 1.16422, 1.15704, 1.15656, 1.15403, 1.15623, 1.15799, 1.16057, 1.15442, 1.15283, 1.1529, 1.15482, 1.15749, 1.15699, 1.16031, 1.16901, 1.1705, 1.17062, 1.1784, 1.17524, 1.17274, 1.16794, 1.16955, 1.17067, 1.17044, 1.17004, 1.17035, 1.16652, 1.1689, 1.16976, 1.17426, 1.35581, 1.22826, 1.30374, 1.21187, 1.21253, 1.2156, 1.21946, 1.2204, 1.22044, 1.2155, 1.21507, 1.21499, 1.20634, 1.20019, 1.18738, 1.17548, 1.17796, 1.18133, 1.20558, 1.22, 1.2327, 1.25096, 1.24993, 1.26006, 1.28445, 1.2849, 1.30196, 1.3336, 1.34973, 1.37384, 1.39122, 1.39112, 1.4132, 1.42446, 1.50944, 1.50929, 1.52715, 1.50286, 1.50198, 1.50362, 1.50207, 1.63097, 1.55084, 1.64057, 1.62256, 1.61756, 1.59681, 1.70885, 1.61987, 1.64084, 1.64786, 1.6962, 1.6931, 1.71632, 1.7147, 1.72715, 1.76942, 1.74803, 1.75046, 1.74887, 1.73887, 1.73743, 1.76364, 1.77983, 1.77089, 1.76173, 1.76248, 1.82797, 1.86133, 1.87659, 1.80466, 1.80414, 1.82891, 1.82776, 1.82343, 1.82309, 1.91558, 1.82544, 1.82349, 1.78913, 1.78552, 1.78597, 1.78692, 1.78892, 1.79855, 1.80133, 1.79954, 1.76744, 1.76595, 1.76525, 1.76614, 1.7653, 1.7884, 1.78151, 1.81103, 1.81103, 1.90262, 1.93502, 1.93271, 2.04623, 2.00051, 1.8449, 1.85539, 1.83934, 1.75096, 1.75063, 1.74176, 1.7164, 1.73566, 1.73329, 1.73588, 1.74238, 1.73232, 1.79378, 1.69731, 1.7021, 1.7015, 1.7013, 1.70081, 1.68209, 1.6733, 1.67155, 1.64937, 1.67895, 1.6659, 1.6541, 1.68623, 1.61263, 1.61271, 1.593, 1.58602, 1.58309, 1.62692, 1.59435, 1.59537, 1.51448, 1.54909, 1.465, 1.41813, 1.41284, 1.37054, 1.30447, 1.2783, 1.25756, 1.21331, 1.20232, 1.18052, 1.14992, 1.17109, 1.17, 1.20816, 1.2072, 1.21529, 1.21448, 1.21242, 1.20593, 1.20538, 1.20216, 1.19935, 1.19831, 1.19301, 1.18905, 1.18719, 1.18034, 1.18064, 1.18069, 1.17449, 1.17, 1.16762, 1.16554, 1.16557, 1.16404, 1.16273, 1.16219, 1.15968, 1.1582, 1.15618, 1.1516, 1.15084, 1.14811, 1.14662, 1.16668, 1.16634, 1.16536, 1.25589, 1.14572, 1.13283, 1.13341, 1.1375, 1.1379, 1.13686, 1.13436, 1.13565, 1.13571, 1.13373, 1.12853, 1.12561, 1.12095, 1.11576, 1.112, 1.11455, 1.11283, 1.11023, 1.10899, 1.10971, 1.10946, 1.1075, 1.11174, 1.11206
