1.10547283425881,1.10191710952193,1.09972209508938,1.10233426158603,1.10712157813122,1.10758839115534,1.09097183393521,1.08725719412628,1.0869095674062,1.0828969618372,1.06664789572116,1.06308223879227,1.0631914929043,1.05598072151051,1.06151295245588,1.05458028243816,1.0527229625337,1.05004127069303,1.04420114179558,1.0426815164192,1.041886941059,1.03700030259379,1.03153759699243,1.03199447782455,1.0293823113279,1.03159719014445,1.0317958339845,1.02734621196739,1.02626360303912,1.02531011260688,1.02754485580744,1.02426723244662,1.02985905654401,1.01899323849331,1.01687768159679,1.01809934121309,1.17591193994032,1.03441793267315,1.02286679337428,1.02315482694235,1.02760444895945,1.02851821062368,1.02879631199975,1.02693899209529,1.17794803930083,1.04317812601933,1.10876038981163,1.05818566813506,1.0587815996552,1.07717601924378,1.04753835830841,1.04636635965212,1.04804490010053,1.05025977891709,1.05042862618113,1.05326923309383,1.06673728544918,1.36259742081873,1.06013237776754,1.06453233882463,1.06556528679289,1.06575399844094,1.05929807363933,1.05984434419947,1.06102627504776,1.05748048250288,1.05879153184721,1.0607680380557,1.12258600107907,1.0684058937056,1.08196333578897,1.06936931632984,1.07650063018761,1.06522759226481,1.38191553426353,1.03509332172932,1.03604681216155,1.02325414886237,1.00897165676282,1.01239826300367,1.01966862754948,0.988723890146588,0.988854001861821,0.976851941046037,0.99822502501615,0.959176612158443,0.968348991472724,0.983569082497307,0.991073846774373,0.988283894040879,0.989338692831541,1.01762259599697,0.975613396703329,0.976302690828301,0.977320740508554,0.983413147082868,0.989048672825069,0.966737989929923,0.965512357436818,0.965974204364933,0.966821420342744,0.964912453039869,0.963482217391514,0.959818231761803,0.959503381275325,0.963288539647465,0.963193190604242,0.949286135362385,0.951081875676431,0.951895322201433,0.95719414663475,0.961039891378107,0.967739154883772,0.990802697932705,0.969236929437744,0.972955542123469,0.971155828932621,0.971490543803104,0.971649458875144,1.00856443689072,0.984850335265625,0.981537949232802,0.977164805094115,1.04373432877146,1.06049986887163,0.999377159288437,1.00095637781683,1.00193966482507,1.00362813746549,1.10708184936321,1.04609819046805,1.06316169632829,1.04021833280259,1.13860662677905,1.08339357143732,1.1556899970233,1.07390832807496,1.07729520554781,1.07680852813969,1.07049165402612,1.0575500078469,1.05053788029315,1.05078618509322,1.05093516797325,1.04787605283649,1.13763327196281,1.03900660537829,1.02967034489597,1.02626360303912,1.12857511285655
1.22042802449539,1.10224487185801,1.09909636699323,1.10206609240196,1.09816274094499,1.29371766928161,1.09207430724748,1.09123007092727,1.08395970638146,1.08432719748555,1.06879324919369,1.06335040797634,1.06125471546382,1.06033102160759,1.06266508672817,1.05463987559017,1.05442136736612,1.05015052480506,1.04324765136334,1.04323771917134,1.03930457113836,1.03883775811425,1.03135881753639,1.03029607299212,1.02950149763193,1.03024641203211,1.03104098739231,1.02755478799944,1.02611462015908,1.02522072287886,1.02502207903881,1.02513133315084,1.03189515590452,1.02031422002964,1.01828805286114,1.01880452684527,1.02120811730986,1.03322606963285,1.02313496255834,1.02152594745394,1.02922339625586,1.03172630864048,1.0330075614088,1.03283871414476,1.03360349292895,1.03913572387432,1.26610617551474,1.05727190647083,1.05919875171931,1.05943712432737,1.04753835830841,1.04803496790853,1.05140198099737,1.0527130303417,1.05248458992564,1.06285379837622,1.06871379165767,1.0696275533219,1.07360043012289,1.06908128276176,1.06672735325718,1.05935766679135,1.05928814144733,1.06351925524038,1.06285379837622,1.05499743450226,1.05822539690307,1.06407545799252,1.06474091485669,1.08335384266931,1.08393984199746,1.09163729079937,1.06316169632829,1.06488989773672,1.11923885237423,1.06596257447299,1.0664194553051,1.05664617837467,1.0362355238096,1.03892714784227,1.0173345624289,0.985338005892947,0.982123948560948,1.0060615245061,0.979810741043573,0.968982665322481,0.97046752802685,0.954021804509162,0.996745128407782,1.01826818847713,1.00096631000883,0.999585735320489,0.979386636445067,0.978255359775986,0.974253679618191,0.97706349673569,0.976481470284345,0.963280593893863,0.964621439814197,0.970653260017296,0.966713159449917,0.964239050422102,0.961884127698316,1.24169284757267,0.960568112257989,0.962855496076158,0.96294389258498,0.963153461836232,0.949552318108051,0.950654791420325,0.943240410090482,0.964568799196584,0.961701375365471,0.967952697011825,0.968752238468024,0.970590687207681,0.971136957767816,0.969884508356305,0.97127104235985,1.00919016498688,0.978506644233649,0.978742037184107,0.97231690217771,0.983438970782075,1.0221616077421,0.99677492498379,0.997549635959982,0.997490042807968,1.03251095180867,1.03620572723359,1.11214726728447,1.04077453555473,1.04196639859502,1.12570470936784,1.15677260595156,1.15742813062373,1.09740789435281,1.07651056237961,1.07750378157986,1.21888853473501,1.05385523242198,1.05491797696624,1.05401414749402,1.0527428269177,1.04206572051505,1.20786380161226,1.03510325392132,1.02891549830378,1.03551047379342,1.15186610310234
1.21937521214313,1.2180740949908,1.10024850126551,1.10201643144195,1.09752708065684,1.10321822667425,1.35954823787397,1.08464502762963,1.08332404609331,1.08478407831767,1.070044705386,1.07072009444217,1.06164207095192,1.06449261005662,1.06483030458471,1.05711299139879,1.05322950432582,1.54462470364798,1.04338670205138,1.04239348285113,1.03938402867438,1.03772535260997,1.03126942780836,1.03150780041642,1.02545909548692,1.02816065171159,1.02839902431965,1.02630333180713,1.02357197900645,1.0221715399341,1.0225489632302,1.02946176886392,1.03003783600006,1.02831956678363,1.02386001257452,1.01964876316548,1.02507173999882,1.03362335731295,1.02393947011054,1.02629339961513,1.03164685110446,1.03596735462553,1.03505359296131,1.0334346456649,1.03424908540911,1.1058105287869,1.04946520355689,1.09860968958511,1.05930800583134,1.05964570035942,1.0490977124528,1.05289180979774,1.0531500467898,1.05335862282186,1.05711299139879,1.06700545463325,1.0692302656418,1.07012416292202,1.07498100481123,1.07129616157832,1.07254761777063,1.05759966880691,1.05937753117535,1.06145335930387,1.06454227101664,1.06766097930541,1.04381378630748,1.06654857380114,1.06260549357615,1.10567147809886,1.10587012193891,1.08921383595077,1.05446109613413,1.05471933312619,1.10774730622738,1.11850387016605,1.04580022470798,1.05575228109445,1.05365658858193,1.03908606291431,1.01829798505314,1.00232702031317,0.982749676657103,0.995265231799415,0.996268383191664,1.00152251276097,0.980030242486827,0.947845967522027,1.0028335621053,1.02195303171005,1.02036388098965,0.998552787352232,1.01609303842859,1.01639100418867,0.971572980996725,0.971184632289428,1.02041354194967,0.96386957287961,0.981540928890403,0.963110753410621,1.05638794138261,0.962852516418557,0.960970366034089,0.954196611088405,0.98253514130985,0.961678531323865,0.962166201951186,0.963932145689225,0.95244755207677,0.950276374905031,0.944309113949947,0.966590000269086,0.963984786306838,0.960716101918826,0.968974719568879,0.971067432423799,0.971697133396756,0.970973076599776,0.970182474116379,1.01189172121155,0.977535275855807,0.976315602677904,0.974702614696703,0.980942017712654,0.984474898407932,1.02179411663801,1.05973509008744,0.994500453015224,1.00031078533667,1.09602731966446,1.10289046433817,1.02842882089566,1.11791787083791,1.04457856509167,1.09151810449534,1.06644925188111,1.07262707530665,1.07333226093882,1.20699970090805,1.25816042191277,1.05705339824677,1.05748048250288,1.05688455098273,1.0467139863722,1.04058582390668,1.03990050265851,1.03534162652938,1.02703831401531,1.02501214684681,1.01288494041179
1.3186276068238,1.21815355252682,1.10244351569806,1.10355592120233,1.09851036766508,1.09848057108907,1.33386358935559,1.08396963857347,1.08398950295747,1.12397650795941,1.06979640058594,1.07074989101818,1.06052966544764,1.06378742442445,1.06404566141651,1.0563482126146,1.0555635694464,1.04905798368479,1.04567110621195,1.04196639859502,1.03797365741003,1.03671226902572,1.02937237913589,1.0301967510721,1.02606495919907,1.02701844963131,1.02642251811116,1.02471418108674,1.02166499814198,1.02258869199821,1.02166499814198,1.02340313174241,1.03121976684835,1.02862746473571,1.02635299276714,1.02259862419021,1.02347265708643,1.03194481686453,1.03177596960049,1.02711777155133,1.03239176550464,1.03293803606478,1.03596735462553,1.03540121968139,1.03681159094574,1.05017038918906,1.05158076045341,1.05349767350989,1.05829492224708,1.08866756539063,1.05076632070921,1.05581187424647,1.05419292695006,1.05661638179867,1.05677529687071,1.06332061140033,1.06873365604168,1.07131602596232,1.07584510551545,1.07628212196355,1.07448439521111,1.07658008772363,1.05804661744702,1.06242671412011,1.07100812801024,1.09757674161685,1.04240341504313,1.07386859930695,1.06427410183257,1.09201471409547,1.06894223207373,1.05807641402303,1.05655678864665,1.05214689539756,1.10602903701095,1.08980976747092,1.04803496790853,1.14071225148357,1.10213561774598,1.01595398774056,1.00884253826679,1.01729483366089,0.98076522469501,1.04821374736458,1.08897546334271,1.02187357417403,0.970497324602857,1.00813735263461,1.01682802063678,0.992461373997118,1.00951792732296,1.00454189912972,0.970796283582132,0.977432974278182,0.977487601334195,0.987304579909436,0.951546702262146,0.982187514589764,0.982544080282652,0.957120648413932,0.977415096332577,0.960919711854877,0.962487011752866,0.953749662448294,0.955067664327022,0.957907278020528,0.95823702679501,0.958928307358382,0.963554722393132,0.953721852310687,0.946302504884843,0.947085161614638,0.957608319041253,0.960992216856495,0.967797754816586,0.970579761796478,0.971781557028777,0.9706671650861,0.998453465432207,1.00020153122464,0.97014373856757,0.971375330375876,0.975611410264929,0.977319747289353,0.983960410862204,1.03696057382578,0.988582853020153,0.989894895583679,1.07384873492295,1.00511796626586,1.10130131361777,1.05049815152515,1.07708662951575,1.04095331501077,1.09447789771208,1.06492962650473,1.06779009780144,1.14873746262157,1.22855255755341,1.11914946264621,1.0571725845508,1.04889906861275,1.04922683094883,1.04448917536365,1.04104270473879,1.03960253689844,1.03690098067376,1.02516112972685,1.02644238249516,1.07506046234725
1.23125411377808,1.23149248638614,1.10308910817822,1.10208595678597,1.09931487521728,1.09765619915287,1.09621603131251,1.08463509543763,1.08487346804569,1.08119855700478,1.07033273895408,1.06939911290584,1.06308223879227,1.06664789572116,1.06363844154441,1.05718251674281,1.05493784135025,1.05343808035788,1.04457856509167,1.04246300819515,1.03674206560173,1.03635471011363,1.03127936000037,1.0301967510721,1.02832949897563,1.02633312838314,1.02505187561482,1.03315654428883,1.03095159766429,1.01824832409313,1.02145642210993,1.02211194678209,1.02844868527966,1.02846854966367,1.02652184003118,1.02509160438283,1.02532997699089,1.03031593737613,1.03085227574426,1.02871685446373,1.02929292159987,1.03272946003273,1.03638450668964,1.03741745465789,1.03881789373024,1.05027964330109,1.05160062483742,1.05349767350989,1.05621909411857,1.0639860682645,1.05462001120617,1.05692427975074,1.05607011123853,1.05590126397449,1.05695407632675,1.06671742106518,1.07012416292202,1.07175304241043,1.33044691530674,1.07962927066839,1.07994710081247,1.05924841267932,1.09873880808114,1.10187738075392,1.07226951639456,1.06936931632984,1.03878809715423,1.08070194740465,1.05267330157369,1.05732156743084,1.08085093028469,1.07819903502003,1.05986420858347,1.07195168625048,1.07429568356306,1.08406896049349,1.13260758280956,1.13338229378575,1.07544781783535,1.11926864895024,1.00742223481044,1.00152251276097,1.01953950905345,1.03051458121618,1.0800662871165,1.00097624220083,1.01783117202902,0.967101508157213,0.978601993276872,0.978198746281572,1.00181054632904,1.00261505388124,1.01406687126009,0.979392595760269,0.963938105004427,0.934198142491434,0.95988775710582,1.02602523043106,0.985289338152135,0.950993479167609,0.951573519180553,1.17313092617963,0.959108080033626,0.956756136967442,0.956881282586673,0.956651848951416,0.95727161773237,0.958623389063906,0.955721202560784,0.954478685341275,0.945088791022141,0.946002552686368,0.955727161875986,0.958611470433503,0.965504411683216,0.969999721783534,0.970113941991562,0.980896329629443,0.963919233839622,0.965914611212918,0.96756931440053,1.01282534725978,0.975902423490601,0.975770325336968,1.02949156543992,1.02908434556782,0.986991715861358,0.98840804644091,1.05126293030934,1.00112522508087,1.08526082353379,1.11878197154212,1.08152631934086,1.12902206149667,1.09829185944103,1.06125471546382,1.1347827328581,1.09131946065529,1.18487077712655,1.20913512218858,1.16893954115459,1.04562144525193,1.04570090278795,1.04504537811579,1.04080433213074,1.03922511360234,1.03916552045033,1.02557828179095,1.02610468796708,1.03917545264233
1.26064346991339,1.29296282268942,1.32211380621667,1.10493649589068,1.09369325454388,1.09379257646391,1.09724897928077,1.08336377486131,1.08362201185338,1.08014574465252,1.07367988765891,1.06511833815278,1.06314183194429,1.06530704980083,1.06356891620039,1.05690441536674,1.05713285578279,1.05048821933314,1.04371446438746,1.04345622739539,1.03733799712187,1.0366328114897,1.03039539491215,1.03095159766429,1.02849834623968,1.02525051945487,1.02392953791854,1.0350337285773,1.03197461344054,1.01507995484434,1.01965869535748,1.01992686454155,1.0245850625907,1.02823017705561,1.02869699007973,1.03202427440055,1.02475390985475,1.03068342848022,1.03050464902417,1.02691912771128,1.02794214348754,1.03441793267315,1.03591769366552,1.03876823277023,1.04090365405076,1.05235547142961,1.05464980778218,1.05626875507858,1.05604031466252,1.06132424080784,1.05605024685453,1.05623895850257,1.05831478663109,1.05893058253524,1.06303257783226,1.06777023341744,1.07267673626666,1.07388846369096,1.09230274766354,1.08070194740465,1.08030465972455,1.06181091821596,1.07029301018607,1.07798052679598,1.10471798766662,1.1054231732988,1.06666776010516,1.09705033544072,1.0491175768368,1.0623671209681,1.06706504778526,1.06272467988018,1.12123522296673,1.10417171710649,1.06487003335272,1.10038755195355,1.10994232065992,1.10436042875453,1.10689313771516,1.11798739618192,1.07311375271477,1.02486316396677,1.01258697465172,1.14303638441215,1.04717086720432,1.0483031370926,1.03935423209837,1.03484501692925,0.981816050608871,0.97360610069963,1.02466452012672,1.01595398774056,0.974182167835773,1.03512311830532,1.02289658995028,0.958337341934235,0.937343667698616,0.979180046851416,0.98040567934452,0.951096773964435,0.950051907365775,0.960569105477189,0.959397106820898,0.958215175972604,0.959974167176242,0.955204728576656,0.95771657993408,0.957091845057125,0.956283364628124,0.95574603304079,0.955224592960661,0.948497519317389,0.955079582957425,0.958706819476727,0.967582226250133,0.970087125073155,0.969897420205908,0.983671384074932,0.987093024219783,0.970073220004352,0.964365189260533,0.971330635511865,0.974712546888705,0.975145590460013,1.02864732911971,1.02656156879919,1.03683145532975,1.02665095852722,1.02843875308766,1.00110536069687,1.09070366475114,1.07449432740311,1.11090574328416,1.06315176413629,1.05423265571807,1.05668590714268,1.13439537737,1.16600954451386,1.18038142634143,1.05546424752638,1.04683317267623,1.04679344390822,1.04590947882,1.04553205552391,1.04450903974766,1.04281063491523,1.23809739406778,1.41620146105606,1.10474778424263,1.01465287058823
1.36505067224334,1.29576370083412,1.29514790492996,1.10448954725057,1.10409225957047,1.28276246150288,1.10062592456161,1.08642288999808,1.08391997761345,1.07432548013907,1.07288531229871,1.06825691082556,1.06678694640919,1.06572420186493,1.05950664967138,1.05874187088719,1.05733149962284,1.04943540698088,1.04656500349217,1.04128107734685,1.04159890749093,1.03630504915362,1.03245135865666,1.0290048880318,1.02926312502387,1.02569746809498,1.02492275711879,1.28653669446382,1.0101039266511,1.01363978700398,1.01668896994874,1.08341343582133,1.02120811730986,1.02311509817434,1.02854800719969,1.03163691891246,1.0277931606075,1.02977959900799,1.02966041270396,1.02791234691153,1.02667082291122,1.03538135529739,1.03586803270551,1.04000975677054,1.04515463222782,1.05679516125471,1.0575400756549,1.05708319482278,1.05657665303066,1.06027142845557,1.05977481885545,1.05874187088719,1.0623869853521,1.06321135728831,1.0655950833689,1.07327266778681,1.07750378157986,1.07655029114762,1.09168695175938,1.09888779096117,1.08869736196664,1.08970051335889,1.05828499005508,1.10998204942793,1.10736988293128,1.11405424814894,1.06785962314546,1.08617458519801,1.04663452883618,1.04562144525193,1.08308567348525,1.0627743408402,1.1388251350031,1.07788120487595,1.07740445965983,1.10603896920295,1.10138077115379,1.12229796751099,1.1090285589957,1.10817439048348,1.07299456641074,1.02935251475189,1.11687499067765,1.11462038309309,1.04633656307611,1.07151466980237,1.05858295581515,1.06104613943177,1.02196296390205,0.99106391458237,0.991163236502395,1.01785103641303,0.995821434551553,1.00994501157906,0.953376212029001,0.96350704787152,0.946229999883225,0.971671309697549,0.990477915254224,0.949846310991324,0.9509587164956,0.950653798201125,0.95892334126238,0.960659488424412,0.961548419608633,0.952868677017675,0.954994166106204,0.953562937238648,0.954909742474183,0.954437963354065,0.953568896553849,0.951627153017366,0.952700822972834,0.959962248545839,0.959568933742541,0.968402625309537,0.9682536424295,0.973835534334887,0.991479080208073,0.962396628805644,0.964573765292585,1.00483986488979,0.971395194759881,1.02316475913435,0.973613053234032,1.009686774587,1.00081732712879,1.02985905654401,0.98607596775873,0.988145836572045,1.07171331364242,1.07340178628284,1.1018177876019,1.05148143853339,1.12045057979853,1.13616330754644,1.13416693695394,1.14751580300526,1.05560329821441,1.05165028579743,1.05045842275714,1.04712120624431,1.13902377884315,1.2273308979371,1.04384358288349,1.10046700948957,1.14639346530898,1.03950321497841,1.06423437306456,1.01522893772438
1.33526402842794,1.2961212597462,1.29778986800262,1.10665476510711,1.10051667044958,1.10039748414555,1.10052660264158,1.10121192388975,1.35103634932786,1.29340977132953,1.07194175405848,1.06683660736921,1.06651877722513,1.06630026900107,1.05767912634293,1.05798702429501,1.05622902631057,1.04885933984474,1.04215511024307,1.0422643643551,1.03636464230563,1.03550054160142,1.03621565942559,1.03007756476807,1.02894529487979,1.0269886530553,1.021774252254,1.17214763917139,1.0084651149707,1.01445422674818,1.01501042950032,1.01785103641303,1.01920181452536,1.0209697447018,1.0285976681597,1.03036559833614,1.03415969568108,1.03270959564872,1.03153759699243,1.02681980579126,1.02687939894327,1.03009742915207,1.03586803270551,1.25644215269634,1.05010086384505,1.14853881878152,1.06046014010362,1.05855315923915,1.05746061811888,1.0599734626955,1.06003305584752,1.05980461543146,1.05930800583134,1.18920121283963,1.06973680743393,1.07676879937168,1.07712635828376,1.07161399172239,1.08063242206064,1.07557693633138,1.08872715854265,1.05775858387895,1.05391482557399,1.07170338145042,1.07756337473187,1.09481559224016,1.06420457648855,1.04584988566799,1.07310382052276,1.13126673688922,1.11338879128478,1.14585712694085,1.118285361942,1.07881483092418,1.07732500212381,1.09895731630519,1.11459058651708,1.12937962040875,1.13448476709802,1.09389189838393,1.09167701956738,1.07464331028315,1.10786649253141,1.14777403999733,1.070024841002,1.11260414811658,1.06937924852184,1.06142356272786,1.05399428311001,1.01909256041334,0.994232283831158,0.997788008568042,1.00863396223474,0.953819187792311,0.956150273255291,0.981053258263082,0.992353113104291,0.994579910551244,0.960835288222856,0.941848909990936,0.949781751743308,0.949903917704938,0.954253224582819,0.954476698902875,0.959368303464091,0.952866690579275,0.953144791955344,0.951877444255829,0.952900460032083,0.953054409008121,0.953483479702628,0.951272573762878,0.952819016057663,0.961594107691844,0.959723875937779,0.967447148438899,0.978468901904039,0.953911557177935,0.954195617869205,1.00076766616878,0.963779189932387,1.00613104985012,1.0157056829405,1.02114852415785,0.968602262368787,1.01176260271552,1.03070329286422,1.02572726467099,1.05355726666191,0.996327976343679,0.99999295519259,1.00107556412086,1.07349117601086,1.10516493630673,1.11159106453233,1.10399293765044,1.11137255630828,1.12987623000888,1.0503094398771,1.05114374400531,1.05039882960512,1.14975054620582,1.03536149091338,1.31067192102982,1.08721746535827,1.23402519534677,1.03170644425647,1.2088073598525,1.01312331301985,1.01443436236418
1.13733530620273,1.13822920348295,1.17692502352457,1.32080275687234,1.09956318001734,1.0985699608171,1.10191710952193,1.102215075282,1.09118040996726,1.08818088798251,1.28342791836705,1.06482037239271,1.06583345597696,1.06612148954503,1.05803668525502,1.05731163523884,1.0571626523588,1.04726025693234,1.04325758355535,1.03981111293049,1.03960253689844,1.03792399645002,1.03551047379342,1.02960081955195,1.03030600518413,1.02345279270242,1.02299591187031,1.03208386755257,1.01018338418712,1.01358019385197,1.01442443017218,1.01844696793318,1.01882439122927,1.01947991590143,1.03131908876838,1.03010736134408,1.03467616966521,1.03529196556936,1.03320620524885,1.02852814281568,1.02682973798326,1.03003783600006,1.03766575945796,1.04395283699552,1.14573794063682,1.41262587193517,1.06276440864819,1.06310210317628,1.05597078931851,1.05934773459934,1.06079783463171,1.06377749223245,1.18478138739853,1.06993545127398,1.07254761777063,1.07739452746783,1.07893401722821,1.17473000909203,1.09125986750328,1.08117869262077,1.09078312228716,1.05569268794244,1.05378570707796,1.08051323575661,1.07734486650782,1.09488511758418,1.04564130963594,1.0471112740523,1.14219214809194,1.09239213739156,1.11450119678906,1.12421488056747,1.10760825553934,1.16946594733072,1.10379429381039,1.12142393461478,1.1713927925792,1.19599483216931,1.19983859047427,1.09974195947339,1.09483545662417,1.08707841467024,1.0813078111168,1.10499608904269,1.08982963185492,1.0905447496791,1.06811786013753,1.11690478725365,1.06240684973611,1.05706333043878,0.999397023672442,1.02466452012672,0.967504755152514,0.964213226722895,0.962431391477652,0.98752308813349,0.970158636855573,0.9497509619481,0.960052631493061,0.943569165645763,0.977811390793476,0.9505544762811,0.95208304063028,0.951244763625272,0.956215825722507,0.956302235792929,0.947291751208289,0.950965669030002,0.949635748520872,0.952491253721581,0.952095952479883,0.950439262853871,0.954171780608399,0.958887585371171,0.958947178523186,0.968260594963901,0.978356668134411,0.962155276539984,0.953114995379336,0.961087565899718,0.962539652370479,1.01122626434738,0.993775402999044,1.01824832409313,1.02080089743776,1.01670883433275,0.985090694312085,1.04400249795553,1.0410625691228,0.990288210386977,1.00103583535285,1.00417440802563,1.06383708538446,1.08704861809423,1.11151160699631,1.06629033680907,1.05399428311001,1.05946692090337,1.05580194205446,1.05093516797325,1.05000154192502,1.11233597893252,1.03208386755257,1.03205407097656,1.339554735373,1.0382318944021,1.06977653620194,1.06968714647392,1.06938918071384,1.01339148220392
1.33129115162695,1.24026261192432,1.21703121483054,1.14184452137185,1.259094047961,1.10002006084946,1.10082456840166,1.22461940952043,1.42326324956981,1.09893745192119,1.07805005213999,1.06964741770591,1.06573413405693,1.06411518676053,1.05861275239116,1.05767912634293,1.05608997562254,1.04947513574889,1.04139033145888,1.03635471011363,1.03840074166614,1.03848019920216,1.03069336067222,1.03010736134408,1.02957102297594,1.02495255369479,1.02525051945487,1.03328566278487,1.34446123822222,1.01422578633213,1.0140966678361,1.01800995148507,1.01917201794936,1.01948984809344,1.02957102297594,1.02986898873602,1.03218318947259,1.03626532038561,1.03672220121772,1.02800173663955,1.03022654764811,1.03226264700861,1.03350417100892,1.05100469331727,1.18393715107832,1.14321516386819,1.13931181241122,1.1597224669763,1.05297126733376,1.1967298143775,1.06222807028006,1.06344972989636,1.18703599498309,1.07785140829994,1.07739452746783,1.08027486314855,1.08240035223708,1.09155783326335,1.0921438325915,1.07805005213999,1.07960940628438,1.05102455770128,1.04986249123699,1.05647733111063,1.08041391383658,1.09177634148741,1.06108586819978,1.0643833559446,1.07014402730603,1.14743634546924,1.14109960697167,1.17111469120313,1.20267919738698,1.14575780502083,1.16964472678676,1.17937827494918,1.16206646428888,1.19449507117694,1.19382961431278,1.11883163250213,1.14911488591766,1.14973068182181,1.10065572113761,1.10108280539372,1.08755515988636,1.07859632270013,1.14271855426807,1.09442823675207,1.12104651131868,1.08433712967756,1.0422742965471,1.02026455906963,0.983476713111684,0.985285365275334,0.961129281106129,0.958247952206213,0.991975689808197,0.946351172625655,0.935674066223001,0.94363769777058,0.962034103797553,0.951995637340658,0.951163319650851,0.950454161141875,0.957810935758104,0.96073199342603,0.94705337860023,0.954121126429187,0.953635442240266,0.949752948386501,0.949652633247276,0.950310144357839,0.950406486620263,0.956923991012283,0.958302579262226,0.967944751258223,0.961661646597461,0.959398100040098,0.952658114547223,0.959866899502615,0.962388683052042,0.972045753336042,1.00680643890628,1.00999467253908,1.01223934793163,1.01881445903727,1.01217975477962,0.96105578288531,1.04945527136489,1.05671570371869,1.00180061413704,1.00380691692154,1.16670479795403,1.08753529550235,1.07408710753101,1.1243439990635,1.11637838107752,1.05776851607095,1.05936759898335,1.05646739891863,1.04656500349217,1.03618586284959,1.02554848521494,1.02521079068686,1.03050464902417,1.0503193720691,1.02561801055896,1.0157255473245,1.01447409113219,1.01311338082785
1.14510228034866,1.14352306182027,1.21676304564648,1.18694660525506,1.23459133029091,1.09852029985708,1.09888779096117,1.09941419713731,1.08401929953348,1.08358228308537,1.34145178404547,1.07054131498613,1.06546596487287,1.06384701757646,1.06079783463171,1.05780824483896,1.05645746672663,1.05418299475806,1.03998989238653,1.03882782592224,1.03844047043415,1.03763596288195,1.03161705452845,1.02503201123081,1.02815071951959,1.0249823502708,1.02437648655865,1.03013715792008,1.34545445742247,1.01467273497224,1.0161129028126,1.01738422338891,1.01610297062059,1.0181390699811,1.19385941088878,1.03047485244817,1.03257054496069,1.03288837510477,1.03600708339354,1.02908434556782,1.03005770038406,1.03237190112064,1.03661294710569,1.22407313896029,1.14587699132486,1.13956011721129,1.12792952037639,1.23570373579519,1.07020362045804,1.20394058577129,1.06392647511248,1.0636086449684,1.07176297460243,1.11113418370022,1.22011019435131,1.08339357143732,1.08402923172548,1.078089780908,1.09544132033632,1.09443816894407,1.08623417835003,1.08005635492449,1.05318977555781,1.13856689801104,1.07987757546845,1.07975838916442,1.05588139959048,1.0696275533219,1.06968714647392,1.22438103691237,1.15929538272019,1.24757270523814,1.17033998022694,1.12489026962364,1.18767165527125,1.16390391980934,1.17419367072389,1.22029890599936,1.21763707854269,1.11606055093344,1.1154646194133,1.11294184264467,1.14257950358004,1.12080813871062,1.20411936522733,1.17793810710883,1.12962792520882,1.09271989972764,1.09058447844711,1.06779009780144,1.10068551771362,1.00625023615415,1.04782639187648,1.0024660710012,0.968266554279103,1.00021146341664,0.992038262617812,0.959331554353682,0.957621230890857,0.967344846861274,0.948911691723891,0.952064169465475,0.948033685950873,0.947842987864426,0.957424573489208,0.956272439216921,0.947464571349132,0.952570711257601,0.953584788061053,0.950086670037783,0.951044133346822,0.9509587164956,0.950687567653933,0.954168800950798,0.955445087623116,0.970147711444371,0.957508003902029,0.956802818269853,0.952506152009585,0.953654313405071,0.987500244091884,1.00193966482507,1.00883260607479,0.959709970868976,0.954309838077233,1.01236846642767,1.01622215692462,0.960191682181096,1.0241778427186,1.04457856509167,1.05609990781454,1.00120468261689,1.00117488604088,1.09671264091263,1.02824010924761,1.029809395584,1.14746614204525,1.05719244893481,1.05903983664727,1.05869220992718,1.11208767413246,1.04520429318783,1.04436005686762,1.02603516262306,1.02879631199975,1.0125075171157,1.32417970215318,1.01158382325947,1.21175722087723,1.00990528281105
1.1460557707809,1.1456684152928,1.26248092543384,1.33046677969074,1.24658941822989,1.25288642795946,1.10009951838548,1.30424579280422,1.08376106254141,1.08407889268549,1.07712635828376,1.07368981985091,1.06490976212073,1.06514813472879,1.06261542576816,1.05791749895099,1.05793736333499,1.05309045363779,1.04253253353916,1.03889735126626,1.03805311494605,1.03196468124854,1.0318156983685,1.02851821062368,1.0282103126716,1.02623380646311,1.02330380982238,1.02162526937397,1.02183384540602,1.01633141103665,1.01777157887701,1.01828805286114,1.01796029052506,1.01743388434893,1.02414804614259,1.02929292159987,1.03388159430501,1.03369288265697,1.03370281484897,1.02967034489597,1.03049471683217,1.03564952448145,1.03757636972993,1.05045842275714,1.07218012666653,1.09527247307228,1.19010504231185,1.06958782455389,1.06970701085792,1.06861446973765,1.06594271008898,1.06470118608868,1.07129616157832,1.08326445294129,1.08487346804569,1.09834152040104,1.18270555927001,1.0945474230561,1.09764626696087,1.0732627355948,1.05707326263078,1.11220686043649,1.07963920286039,1.10610849454697,1.09997039988944,1.09558037102435,1.12709521624819,1.07018375607404,1.1155043481813,1.16650615411398,1.22923787880158,1.26581814194667,1.15594823401536,1.1444666200605,1.1492738009897,1.15716989363166,1.19409778349684,1.22595032324876,1.25559791637613,1.17327990905967,1.12767128338433,1.12851551970454,1.13954025282728,1.16511564723364,1.1561270134714,1.16598968012986,1.17589207555632,1.13788157676287,1.08899532772672,1.08656194068611,1.07441486986709,1.04194653421102,1.01878466246126,1.0603806825676,0.988848042546619,0.979506815968297,0.997072890743864,0.95007177174978,0.962069859688763,1.00154237714498,0.947895628482039,0.951120611225241,0.951085848553232,0.942362404317463,0.960786620482044,0.925808419906948,0.984228580046271,0.961060748981312,0.951774149459003,0.952827955030465,0.949705273864889,0.950038995516172,0.949604958725664,0.952351209814347,0.953828126765114,0.95678891320105,0.95727360417077,0.988310710959286,0.951788054527807,0.957665925754868,0.959591777784146,0.960098319576272,0.961507697621423,0.954346587187642,0.954810420554158,0.951674827538978,0.959368303464091,0.960239356702707,1.0784572720121,1.08381072350143,1.00200919016909,1.00370759500151,0.998900414072318,1.08897546334271,1.09188559559943,1.1106773028681,1.08924363252678,1.12126501954274,1.05901004007126,1.05973509008744,1.05552384067839,1.21221410170935,1.2582696760248,1.03677186217773,1.24804945045425,1.23592224401924,1.00541593202594,1.00955765609097,1.00661772725824,1.21112156058907
1.14689007490911,1.14675102422107,1.2920788576012,1.23852447832389,1.17152191107523,1.19851760893794,1.09880833342515,1.09746748750482,1.08720753316627,1.08271818238115,1.07490154727521,1.07313361709877,1.06606189639301,1.06586325255296,1.06482037239271,1.05882132842321,1.05771885511094,1.04687290144424,1.04152938214692,1.03915558825833,1.03860931769819,1.03304729017681,1.03370281484897,1.02945183667191,1.02917373529584,1.02565773932697,1.02246950569418,1.02236025158215,1.02286679337428,1.01809934121309,1.01756300284496,1.01797022271706,1.01946998370943,1.01624202130863,1.02253903103819,1.02833943116764,1.03293803606478,1.03380213676899,1.03429874636912,1.0318057661765,1.03211366412857,1.03729826835386,1.04114202665882,1.22115307451157,1.13725584866671,1.11523617899724,1.21307820241356,1.18164281472575,1.06943884167385,1.06845555466561,1.06974673962593,1.06627047242507,1.06950836701787,1.08474434954966,1.08793258318245,1.10631707057902,1.10616808769898,1.09402101687996,1.07034267114608,1.08075160836467,1.08035432068457,1.06427410183257,1.07096839924223,1.16284117526507,1.14230140220397,1.09079305447916,1.09728870804878,1.11083621794014,1.1500882407339,1.15591843743935,1.18303332160609,1.22272236084796,1.22416252868832,1.15186610310234,1.17116435216314,1.16271205676904,1.2281155411053,1.30037223792326,1.24061023864441,1.16767815277028,1.15715996143966,1.14971081743781,1.15956355190426,1.16438066502546,1.18743328266319,1.19215107386436,1.14310590975617,1.1291611121847,1.15615681004741,1.09514335457624,1.13665991714656,1.10727056101126,1.05941725994336,1.00576355874602,0.996586213335743,1.02293631871829,1.02022483030162,1.02358191119845,0.988361365138498,0.962447282984856,0.95827874200142,0.960751857810035,0.952940188800093,1.04806476448454,0.947888675947637,0.92661888677435,0.927362807955335,0.960086400945869,0.949359633583203,0.949542385916048,0.946958029557006,0.949251372690376,0.949030878027921,0.950379669701856,0.953444744153818,0.975041302443987,0.95341296113941,0.950576327103505,0.950472039087479,0.95715143820914,0.95884289050716,0.959349432299286,0.976999930706874,0.953508310182634,0.953625510048263,0.951356997394899,0.958094003230174,0.961309053781373,0.967799741254987,0.970469514465251,1.00189000386506,1.00234688469718,0.992476272285121,1.08460529886162,1.09419979633601,1.0817050987969,1.11465017966909,1.07720581581978,1.05784797360697,1.05926827706333,1.05895044691925,1.05162048922142,1.18844636624744,1.21879914500698,1.25562771295214,1.19160480330422,1.00489945804181,1.00817708140262,1.00194959701708,0.99987376888856
1.14730722697321,1.14852888658951,1.14908508934165,1.30386836950813,1.14990946127786,1.10482724177865,1.24095786536449,1.09350454289584,1.08231096250905,1.08277777553317,1.07426588698705,1.07351104039487,1.06580365940095,1.06621087927305,1.06603209981701,1.06628040461707,1.49673167381207,1.04752842611641,1.03913572387432,1.03900660537829,1.03898674099428,1.03363328950495,1.03298769702479,1.02994844627204,1.02896515926379,1.0249724180788,1.02435662217465,1.02372096188649,1.02372096188649,1.0213670323819,1.01838737478116,1.01843703574117,1.0229661152943,1.02089028716578,1.0229661152943,1.03154752918443,1.03098139424029,1.09800382587295,1.03552040598542,1.03534162652938,1.03492447446527,1.03700030259379,1.05366652077393,1.12814802860045,1.24400704830925,1.17007181104287,1.23723329336357,1.08060262548463,1.07198148282649,1.07074989101818,1.07318327805878,1.06700545463325,1.06940904509785,1.11696438040567,1.10594957947493,1.10516493630673,1.1750379070441,1.08030465972455,1.09888779096117,1.08607526327799,1.06996524784998,1.05924841267932,1.06787948752947,1.15668321622354,1.18582426755879,1.19677947533751,1.14348333305226,1.14879705577358,1.17349841728372,1.18496016685457,1.1794279359092,1.17881214000504,1.1778487173808,1.17595166870833,1.17990468112531,1.21852104363091,1.22620856024083,1.21841178951889,1.20813197079633,1.19089961767205,1.22317924168007,1.17734217558868,1.17035984461094,1.22899950619352,1.21048590030092,1.18474165863052,1.18422518464639,1.14036462476349,1.11504746734919,1.11194862344442,1.11603075435744,1.12888301080863,1.13628249385047,1.13925221925921,1.03249108742467,1.0068759642503,1.00342949362544,0.990357735730995,0.955430189335112,0.958850836260762,0.95815856247819,0.942784522477568,0.942273014589441,0.95626846634012,0.942098208010198,0.925195603660396,0.947381140936311,0.947471523883533,0.948511424386192,0.949034850904722,0.946442548792078,0.948317746642144,0.946300518446442,0.947824116699621,0.949245413375174,0.950332988399445,0.960548247873984,0.949994300652161,0.949862202498528,0.98438451546071,0.978788718486519,0.958782304135945,1.00099610658484,0.954768705347747,0.952634277286417,0.951058038415625,0.999039464760353,1.01881445903727,0.966517495267468,0.969196207450534,1.04481693769973,1.00086698808881,0.990282251071776,0.991590320758501,1.09148830791933,1.10680374798714,1.09283908603167,1.12106637570269,1.05887098938323,1.0591689551433,1.33197647287512,1.33124149066694,1.19051226218395,1.03943368963439,1.03205407097656,1.01725510489288,1.00505837311385,1.00462135666574,0.999555938744481,0.99926790517641
1.14771444684531,1.14782370095734,1.14921420783769,1.16312920883314,1.16905872745862,1.31378069712659,1.24573524971768,1.29390638092965,1.08357235089337,1.08078140494067,1.07659001991563,1.07413676849102,1.06804833479351,1.06947857044186,1.06418471210455,1.06670748887317,1.33182748999508,1.0442805993316,1.04321785478734,1.04004948553855,1.04205578832305,1.03322606963285,1.03323600182485,1.03207393536057,1.02908434556782,1.02503201123081,1.02469431670273,1.02311509817434,1.02228079404613,1.02189343855803,1.02142662553392,1.0205426604457,1.02813085513558,1.0229661152943,1.02645231468717,1.03051458121618,1.03176603740849,1.0322030538566,1.03535155872138,1.03711948889782,1.0390364019543,1.16289083622508,1.27946497375806,1.13053175468104,1.1400169980434,1.16015948342441,1.10787642472341,1.08384052007743,1.08402923172548,1.06636979434509,1.07396792122698,1.0627942052242,1.07161399172239,1.10527419041876,1.1038141581944,1.11433234952501,1.11943749621428,1.07813944186802,1.09988101016142,1.1009934156657,1.10826378021151,1.07389839588296,1.16965465897877,1.15710036828765,1.15876897654406,1.17268397753952,1.16585062944182,1.16864157539451,1.15684213129558,1.18446355725445,1.18735382512717,1.18457281136647,1.18475159082252,1.19643184861742,1.23176065557021,1.22176887041572,1.24120617016455,1.22185826014374,1.23950776533213,1.22052734641541,1.18730416416715,1.26123940143353,1.1862712161989,1.19963001444222,1.20435773783539,1.30111715232345,1.19055199095196,1.16933682883469,1.12346003397528,1.14369190908431,1.11498787419718,1.1146601118611,1.08777366811041,1.09449776209608,1.13937140556324,1.02644238249516,1.00868362319475,1.01552690348445,1.0008471237048,0.97263771197939,0.96000793662905,1.00540599983394,0.989099327004282,0.964053318431656,0.939994569744075,0.93241034793099,0.932464974987003,0.93639315692398,0.937512514962658,0.952828948249665,0.945975735767962,0.95421746869161,0.945804902065519,0.94596977645276,0.947339425729901,0.94830284835414,0.950120439490592,0.950039988735372,0.949602972287263,0.981469417107985,0.981304542720744,0.980186177901266,0.988955310220246,0.953058381884922,0.953818194573111,0.951073929922829,0.951468237945327,0.986145493102747,1.0125075171157,1.00556491490597,1.03822196221009,0.993298657782926,0.992322323309083,0.992024357549009,1.08590641601395,1.0841186214535,1.08102970974073,1.14714831190117,1.11936797087027,1.05696400851875,1.15544169222323,1.15695138540761,1.20134828365865,1.26242133228183,1.02275753926225,1.02998817504005,1.00506830530585,1.05690441536674,0.995473807831466,0.998671973656261
1.14697946463713,1.1508629517101,1.15220379763043,1.20785386942026,1.33066542353079,1.24155379688464,1.29313166995346,1.287271676672,1.29423414326574,1.0832942495173,1.07871550900416,1.07131602596232,1.0704419930661,1.06982619716195,1.06122491888781,1.0627942052242,1.06270481549618,1.04594920758801,1.04538307264387,1.04118175542683,1.04192666982701,1.03538135529739,1.03534162652938,1.02607489139107,1.02588617974303,1.02261848857421,1.02495255369479,1.02449567286268,1.02248937007818,1.02158554060596,1.01977788166151,1.02454533382269,1.02719722908735,1.0294121079039,1.02875658323174,1.03171637644848,1.03082247916825,1.03348430662492,1.03498406761729,1.03751677657792,1.04036731568263,1.06703525120926,1.06348945866437,1.27594897778919,1.30392796266015,1.10613829112298,1.10709178155521,1.08405902830149,1.08519129818977,1.07296476983473,1.0764509692276,1.06183078259996,1.13200171909741,1.08965085239888,1.10121192388975,1.11696438040567,1.09289867918369,1.07515978426728,1.10995225285192,1.10978340558788,1.06915080810578,1.07223971981855,1.11100506520419,1.14199350425189,1.14233119877997,1.15625613196744,1.16659554384201,1.25590581432821,1.19855733770595,1.19001565258383,1.19154521015221,1.21891833131101,1.21549172507016,1.2623021459778,1.29700522483442,1.23589244744323,1.23624007416332,1.2381867837958,1.23932898587609,1.20878749546849,1.21370393050972,1.21880907719899,1.23692539541149,1.21285969418951,1.25175415807118,1.30072979683535,1.22681442395298,1.17941800371719,1.23039001307386,1.15320694902268,1.16288090403308,1.12211918805495,1.08728699070229,1.1175007187738,1.12780040188036,1.02992858188803,1.02298597967831,1.005674169018,0.996318044151676,0.99910899010437,0.967005165894789,1.00816714921062,0.943750924759408,0.945989640836765,0.944787845604466,0.93253350711182,0.933147316577573,0.933959769883375,0.933168174180778,0.93422197975224,0.943342711668107,0.953904604643533,0.944610059367622,0.943976385517865,0.946427650504074,0.958555850158289,0.957769220551693,0.946345213310454,0.969570651089027,0.950879258959581,0.978829440473729,0.986767248322102,0.986842732981321,0.951982725491055,0.95240583687036,0.950761065874751,0.952879602428878,1.0092894869069,1.00624030396214,1.00362813746549,1.0450751746918,1.05658658522266,0.989014903372261,1.07667940964365,0.991871401792171,1.08829014209454,1.0973780977768,1.09599752308846,1.11423302760499,1.11646777080554,1.11215719947647,1.1770144132526,1.20413922961134,1.20809224202832,1.0261642811191,1.02951142982393,1.09228288327953,1.08824048113453,0.992901370102827,1.22117293889557
1.14910495372566,1.15159793391828,1.15193562844636,1.14920427564568,1.21102223866905,1.20495366935554,1.21157844142119,1.2333498062906,1.29363821174559,1.08222157278103,1.078079848716,1.07298463421874,1.06956796016989,1.06977653620194,1.06339013674435,1.06322128948031,1.06205922301602,1.04717086720432,1.0434661595874,1.04224449997109,1.04293975341127,1.03731813273787,1.03481522035325,1.02727668662337,1.0261642811191,1.02164513375797,1.02403879203057,1.02463472355072,1.02307536940633,1.02075123647775,1.02004605084557,1.02299591187031,1.04237361846713,1.0314184106884,1.03171637644848,1.03214346070458,1.03010736134408,1.03186535932851,1.0567653646787,1.03507345734531,1.03655335395368,1.07019368826604,1.0631914929043,1.07299456641074,1.07367988765891,1.10600917262694,1.10265209173011,1.38979176252149,1.07909293230025,1.07531869933932,1.07705683293975,1.06336034016834,1.08032452410856,1.08040398164458,1.11101499739619,1.12114583323871,1.07915252545227,1.0808807268607,1.07141534788234,1.07441486986709,1.07102799239425,1.0841086892615,1.1219304764069,1.13616330754644,1.16278158211306,1.15145888323024,1.18585406413479,1.21077393386899,1.21019786673285,1.22097429505552,1.22116300670357,1.22765866027319,1.25691889791246,1.29350909324956,1.3693115826124,1.26937386668356,1.25200246287124,1.24166305099667,1.22458961294442,1.22507629035254,1.22791689726525,1.28691411775992,1.22000094023928,1.21432965860587,1.25240968274334,1.30357040374806,1.23632946389134,1.23571366798719,1.17353814605173,1.16047731356848,1.1858639963268,1.18326176202215,1.22446049444839,1.07891415284421,1.09250139150359,1.09357406823985,1.05385523242198,1.03779487795399,1.01226914450764,1.01191158559555,0.97489033312555,0.970556917754872,0.937737975721114,0.9400978645409,0.951228872118068,0.936340516306366,0.934258728862649,0.930593750013738,0.932904971092712,0.925363457705238,0.941229141209982,0.949567216396054,0.950003239624963,0.944674618615638,0.944783872727665,0.956716408199432,0.963815939042797,0.944538547585204,0.964708843103818,0.951755278294198,0.953398062851407,0.986626211195667,0.94991087023934,1.0149111075803,0.948877922271083,0.949936693938546,0.951257675474875,1.00882267388278,0.966819433904343,1.00981589308303,1.0358283039375,0.989521445164387,0.990618952380659,1.04278083833923,0.987457535666274,1.04653520691616,1.08931315787079,1.08054303233261,1.10484710616266,1.1114619460363,1.10281100680215,1.14368197689231,1.24193122018073,1.20830081806037,1.06988579031396,1.23732268309159,1.21035678180488,0.982958252689155,1.03707976012981,1.19689866164154
1.14804220918139,1.15172705241431,1.15270040723055,1.14899569961363,1.31167507242207,1.32512326039341,1.23359811109066,1.23265455285043,1.29120482470498,1.08271818238115,1.07896381380422,1.07629205415556,1.06948850263387,1.07086907732221,1.06385694976847,1.06578379501694,1.05579200986246,1.04852164531665,1.04546253017989,1.04409188768355,1.03796372521803,1.03848019920216,1.03094166547228,1.02943197228791,1.02549882425493,1.02280720022226,1.0233733351664,1.02500221465481,1.0225489632302,1.02154581183795,1.01964876316548,1.02004605084557,1.0301868188801,1.03083241136026,1.03105091958431,1.03155746137644,1.02758458457545,1.02908434556782,1.02971007366398,1.03241162988865,1.0390364019543,1.0394436218264,1.06306237440827,1.07631191853956,1.07608347812351,1.10041734852955,1.10204622801796,1.21860050116693,1.078079848716,1.07625232538755,1.07655029114762,1.06806819917751,1.08553892490986,1.08025499876454,1.11231611454851,1.11648763518955,1.08221164058903,1.10694279867518,1.11233597893252,1.13388883557788,1.1009834834737,1.11240550427653,1.13676917125859,1.15355457574276,1.15547148879924,1.14537044953273,1.18159315376573,1.21991155051126,1.20009682746633,1.22463927390444,1.22146097246364,1.23603149813127,1.27831283948578,1.28223605532675,1.34833479310318,1.36679873803577,1.24211993182878,1.24014342562029,1.2285326931694,1.26319604325802,1.26925468037953,1.26823166460327,1.23925946053207,1.30439477568426,1.25155551423113,1.25883581096894,1.21901765323104,1.21706101140655,1.20512251661958,1.18203017021384,1.19027388957589,1.19223053140038,1.13524954588221,1.13095883893715,1.1871055203271,1.09416999976,1.07397785341898,1.03590776147352,1.02385008038252,1.08017554122852,1.00314146005737,1.01094816297131,0.926407331084697,0.936459702610396,0.977961366892713,0.995295028375422,0.935747564443819,0.937955490725968,0.930394112954488,0.935457544437347,0.942837163095181,0.944190920865118,0.946709724756944,0.944627937313227,0.944741164302055,0.945739349598303,0.942478610963892,0.942287912877445,0.942956349399211,0.951747332540596,0.951873471379028,0.947744659163601,0.947907547112442,0.988201456847259,0.949050742411926,0.951091807868434,0.952816036400062,0.961063728638912,0.963636166367552,0.97372528700366,1.05005120288503,1.05100469331727,1.06838602932159,0.974894306002351,0.983951471889402,1.06008271680753,1.05974502227944,1.04557178429192,1.06490976212073,1.10388368353842,1.11085608232415,1.16289083622508,1.13088931359313,1.21358474420569,1.04356548150742,1.22951598017765,1.09752708065684,1.21186647498926,0.982651347956279,0.981768376087259
1.14861827631754,1.15226339078244,1.15195549283037,1.15025708799794,1.14965122428579,1.16839327059445,1.17964644413325,1.22750967739315,1.22468893486445,1.08413848583751,1.07834801790007,1.07644103703559,1.07227944858656,1.07141534788234,1.06314183194429,1.06014230995954,1.05362679200592,1.05218662416556,1.04436005686762,1.04517449661182,1.03972172320247,1.04029779033861,1.03218318947259,1.02916380310384,1.02429702902263,1.02363157215847,1.02493268931079,1.02519092630285,1.02207221801408,1.01880452684527,1.01994672892555,1.02028442345363,1.02895522707179,1.02982925996801,1.03171637644848,1.03187529152052,1.02662116195121,1.02765410991947,1.02897509145579,1.03311681552082,1.04016867184258,1.08326445294129,1.05023991453308,1.07304422737075,1.1533162031347,1.10133111019378,1.09972209508938,1.40887150335823,1.07978818574043,1.0796888638204,1.06487996554472,1.07221985543454,1.0708392807462,1.08192360702096,1.13486219039412,1.13388883557788,1.13094890674514,1.13022385672896,1.08677051671816,1.16210619305689,1.13989781173937,1.14628421119696,1.14247024946801,1.1549053538551,1.17687536256456,1.17762027696475,1.25055236283888,1.21038657838089,1.24187162702872,1.22565235748869,1.2265263903849,1.25493245951197,1.25659113557638,1.29728332621049,1.34542466084646,1.3017528126116,1.23915020642004,1.23589244744323,1.24516911477354,1.22778777876922,1.25563764514414,1.30088871190739,1.23573353237119,1.24115650920454,1.28036880323029,1.27054586533985,1.259103980153,1.20996942631679,1.20462590701946,1.2140416250378,1.19424676637688,1.19315422525661,1.26558970153062,1.18154349280572,1.18378816819828,1.18448342163845,1.12401623672742,1.05923848048732,1.04447924317165,1.03298769702479,1.03441793267315,1.00078753055279,0.976188470620272,0.937582040306675,0.955989371744851,0.927373733366537,0.936279929935151,0.933476072132854,0.932551385057425,0.934164373038625,0.941353293610013,0.943010976455224,0.948092285883688,0.94315201358166,0.956730313268235,0.959087222430421,0.940132627212909,0.941481418886844,0.97090851735176,0.949655612904876,0.951993650902258,0.947345385045102,0.9469351855154,0.943423162423327,0.948204519653316,0.950661743954727,0.954762746032546,0.959803333473799,1.00865382661874,0.974039144270938,0.971006846052584,1.04405215891554,0.985395612606561,0.980789061955816,0.981765396429659,1.06367817031242,1.05782810922297,1.05078618509322,1.05220648854957,1.11234591112452,1.13231954924149,1.15392206684686,1.12566498059983,1.02099954127781,1.13793123772288,1.22873133700945,0.985100626504088,1.08880661607867,1.06422444087256,1.16154999030475
1.26223262063378,1.15255142435051,1.15221372982243,1.15000878319788,1.14998891881388,1.31527052592697,1.20065303021847,1.20418889057135,1.33509518116389,1.08632356807805,1.08534028106981,1.07695751101972,1.07334219313082,1.07355076916288,1.37047364907669,1.06055946202365,1.05993373392749,1.49567886145981,1.04906791587679,1.045899546628,1.04009914649856,1.03564952448145,1.03245135865666,1.03133895315238,1.03068342848022,1.02490289273478,1.02441621532666,1.02410831737458,1.02331374201439,1.02157560841396,1.02142662553392,1.02473404547074,1.02977959900799,1.03505359296131,1.03176603740849,1.02997824284804,1.0221616077421,1.12873402792859,1.03009742915207,1.1014105677298,1.0833141139013,1.08295655498921,1.05371618173394,1.07033273895408,1.1560972168954,1.16272198896104,1.16601947670586,1.23554482072315,1.07974845697242,1.07962927066839,1.07270653284267,1.07710649389976,1.09186573121543,1.11774902357386,1.13188253279338,1.08528068791779,1.08395970638146,1.12080813871062,1.32092194317637,1.18915155187961,1.16966459117077,1.15068417225405,1.15578931894332,1.1456584831008,1.14719797286118,1.17694488790858,1.21099244209304,1.22185826014374,1.31403893411866,1.24155379688464,1.23770010638768,1.25333337659957,1.26307685695399,1.31036402307775,1.29939888310702,1.29936908653101,1.2377795639237,1.27269121881238,1.2482282299103,1.23826624133182,1.30993693882164,1.35467153160076,1.24078901810045,1.32736793578597,1.30018352627521,1.27524379215701,1.2739625393887,1.20934369822063,1.19652123834545,1.19764357604172,1.19647157738543,1.19363097047273,1.32891735773836,1.20004716650632,1.150485528414,1.1380106952589,1.18256650858198,1.08431726529355,1.09760653819286,1.09811307998498,1.09492484635219,1.0221417433581,0.954727983360537,0.975045275320788,0.935609506974985,0.933798868372934,0.933066865822353,0.958523073924681,0.935762462731823,0.973597161726828,0.949904910924138,0.943569165645763,0.947570845803558,0.942585878637519,0.941034470246733,0.964289704601314,0.938671601769346,0.940862643325091,0.941269863197192,0.949586087560859,0.949801616127313,0.948471695618182,0.944892133620492,0.944918950538899,0.949893985512936,0.950601157583511,0.993457572854965,1.00635949026617,1.00825653893864,0.970359267134023,0.972330807246513,0.969947081165921,0.986146486321948,0.984641759233574,1.06082763120771,1.05074645632521,1.04934601725286,1.04660473226018,1.04727018912434,1.10439022533054,1.11376621458087,1.11449126459705,1.01216982258762,1.04302914313929,1.06905148618576,1.05751027907889,1.07059097594614,1.04342643081939,0.996745128407782,0.957688769796473
1.28271280054287,1.15232298393446,1.1525017633905,1.15148867980625,1.15191576406236,1.21473687847797,1.23418411041881,1.11406418034095,1.24606301205376,1.09061427502312,1.09036597022306,1.0784870685881,1.07344151505085,1.07379907396294,1.0671941662813,1.06536664295284,1.05776851607095,1.05509675642229,1.05176947210146,1.05268323376569,1.56463807053296,1.03563959228945,1.03371274704097,1.03256061276869,1.03122969904036,1.02934258255989,1.02732634758338,1.02604509481507,1.02361170777446,1.02175438787,1.02263835295822,1.02509160438283,1.03372267923297,1.03528203337736,1.03174617302448,1.03063376752021,1.02075123647775,1.0201354405736,1.10256270200209,1.05608997562254,1.04566117401994,1.05260377622967,1.05825519347907,1.27645551958132,1.27540270722905,1.15978206012831,1.13209110882543,1.23261482408242,1.08086086247669,1.08092045562871,1.06973680743393,1.0804834391806,1.09837131697705,1.12062935925458,1.14597631324488,1.12180135791087,1.11822576878998,1.11874224277411,1.26207370556174,1.25943174248908,1.16797611853035,1.1440296036124,1.1557297257913,1.17282302822755,1.16596981574585,1.17576295706028,1.27309843868448,1.25615411912827,1.25675005064842,1.28230558067077,1.27121132220401,1.24997629570273,1.25689903352845,1.29542600630603,1.28658635542383,1.51882086882557,1.52025110447392,1.27261176127636,1.25269771631141,1.23761071665966,1.29996501805116,1.35592298779307,1.2506516847589,1.2836166300151,1.2795940922541,1.26790390226719,1.28558320403159,1.21294908391753,1.21435945518188,1.20803264887631,1.19966974321023,1.22063660052744,1.19400839376882,1.22816520206531,1.15699111417562,1.1621657862089,1.12015261403846,1.1166763468376,1.0877339393424,1.06223800247206,1.09233254423954,1.03861924989019,1.00278390114528,0.96394903041563,0.942804386861573,0.957429539585209,0.9509587164956,0.911475273628185,0.911666964933833,0.90678926544142,0.941739655878909,0.943021901866427,0.942708044599149,0.941890625197346,0.939508885555154,0.927780953238639,0.929457507248656,0.941240066621184,0.942193557053421,0.949634755301671,0.949729111125695,0.949921795650543,0.963925193154824,0.942938471453607,1.00313152786537,0.94922952186797,0.988578880143352,0.956028107293661,0.965918584089719,0.968611201341589,0.991369826096046,1.0362454560016,0.985164192532904,0.983101276253991,1.04053616294667,1.04402236233954,1.0454823945639,1.05930800583134,1.04884940765274,1.07368981985091,1.04405215891554,1.04973337274095,1.00918023279487,1.00503850872984,1.01306371986784,0.995821434551553,0.997480110615965,1.04370453219546,0.950504815321088,1.16150032934474
1.14903542838164,1.15275006819056,1.14972074962981,1.1525116955825,1.15163766268629,1.30492118186039,1.2160677922063,1.11399465499693,1.26809261391524,1.09040569899107,1.31309537587842,1.08156604810887,1.07599408839548,1.07698730759573,1.06975667181793,1.06551562583288,1.0603806825676,1.05460014682216,1.05485838381423,1.05402407968602,1.04315826163532,1.0350138641933,1.03436827171314,1.03409017033707,1.03035566614414,1.03067349628822,1.03198454563254,1.02231059062214,1.02365143654247,1.0225489632302,1.02291645433429,1.02571733247898,1.03716914985783,1.03391139088102,1.03290823948877,1.03168657987247,1.03600708339354,1.0306139031362,1.03066356409621,1.03546081283341,1.14956183455777,1.0502995076851,1.05739109277486,1.06021183530356,1.28210693683072,1.13014439919294,1.1279593169524,1.12187088325489,1.12580403128787,1.08706848247824,1.08054303233261,1.09597765870445,1.10438029313854,1.0909619017432,1.08676058452616,1.08471455297365,1.07761303569189,1.16349669993724,1.26180553637767,1.18102701882159,1.26957251052361,1.17271377411553,1.19092941424805,1.17991461331732,1.17388577277182,1.17304153645161,1.27888890662192,1.35166207742401,1.37975031640699,1.24636097781383,1.26212336652175,1.2614976384256,1.26465607548238,1.27230386332428,1.30676856957285,1.31374096835859,1.39815466818757,1.27038695026781,1.24040166261235,1.2957140398741,1.27393274281269,1.32122984112845,1.2900526904327,1.28932764041652,1.34081612375732,1.29222784048124,1.26265970488989,1.29968691667509,1.20069275898648,1.20592702417178,1.2156506401422,1.20731753105213,1.20700963310005,1.20138801242665,1.22080544779148,1.1637549369293,1.14271855426807,1.10235412597004,1.07308395613876,1.05469946874219,1.05388502899799,1.04983269466098,1.0044624415937,1.00482993269779,0.959707984430575,0.960071502657866,0.958669077147117,0.901883755811401,0.902656480349193,0.902699188774803,0.943115264471251,0.942366377194264,0.942878878301592,0.941958164102963,0.938758011839767,0.926401371769496,0.927768041389035,0.941282775046795,0.944675611834839,0.949907890581739,0.947949262318852,0.96125541994456,0.940605399552227,0.942616668432727,0.97114986961742,0.949487758860035,0.95240683008956,0.959378235656093,1.11757024411782,1.01299419452382,1.029819327776,1.03618586284959,0.983100283034791,0.984862253896028,1.04602866512403,1.03952307936242,1.04959432205292,1.04641602061213,1.06344972989636,1.06403572922451,1.03651362518567,1.0020489189371,0.994748757815286,1.19744493220167,0.975966982738617,1.14510228034866,1.04563137744394,0.946869633048184,0.948428987192572,0.949334803103197
1.14909502153366,1.15277986476657,1.15306789833464,1.15212434009441,1.15186610310234,1.15521325180718,1.17001221789086,1.18776104499927,1.13712673017068,1.28193808956668,1.0845059769416,1.08344323239734,1.0796689994364,1.07678866375568,1.07695751101972,1.07141534788234,1.05950664967138,1.05710305920679,1.05498750231026,1.05444123175013,1.03998989238653,1.03639443888164,1.03480528816124,1.03436827171314,1.03249108742467,1.02998817504005,1.03668247244971,1.03638450668964,1.02500221465481,1.02542929891091,1.0249922824628,1.02592590851104,1.03571904982547,1.0362355238096,1.0305940387522,1.0306039709442,1.03184549494451,1.02881617638376,1.02955115859194,1.03885762249825,1.11702397355768,1.25130720943106,1.05570262013444,1.05851343047114,1.18570508125476,1.13477280066609,1.12539681141576,1.12494986277565,1.09153796887935,1.09449776209608,1.12007315650244,1.1138754686929,1.15557081071927,1.08765448180638,1.08740617700632,1.08961112363087,1.08683010987018,1.15600782716737,1.20708909063607,1.21168769553322,1.27252237154834,1.21408135380581,1.20187468983478,1.24486121682146,1.2240830711523,1.26547051522659,1.25236002178333,1.34808648830312,1.29020167331273,1.27632640108528,1.2755814866851,1.27623701135726,1.26888718927543,1.27015850985175,1.27213501606024,1.31114866624594,1.53428529177341,1.2687481385874,1.24174250853269,1.30240833728377,1.2836265622071,1.29803817280268,1.29744224128253,1.29688603853039,1.33413175853965,1.4031207641888,1.39644633116314,1.27013864546775,1.28655655884783,1.24016329000429,1.23632946389134,1.25673018626441,1.20326519671512,1.20081194529051,1.18053040922147,1.14126845423571,1.14708871874916,1.09711986078474,1.1295782642488,1.08174482756491,1.04792571379651,1.06293325591224,0.965830187580897,0.94669284003054,0.959798367377798,0.932881133831907,0.95264818235522,0.896290938494811,0.977040652694084,0.908401260203421,0.953913543616335,0.944344869841156,0.942563034595913,0.943358603175311,0.940916277161904,0.927446238368155,0.939698590422401,0.940065088307292,0.940944087299511,0.948070435061282,0.948276031435733,0.973708402277256,0.940849731475487,0.942075363968592,0.978757928691311,0.969006502583287,0.948213458626118,0.9855525412402,0.962958790872983,0.979063840204987,0.971605757230333,1.01622215692462,0.98386307538058,0.984589118615961,1.05289180979774,1.07934123710032,1.08104957412474,1.09198491751946,1.09452755867209,1.06257569700015,1.01120639996338,1.16944608294671,1.19743500000967,1.2172397908626,1.11782848110988,1.01195131436356,0.942996078167221,0.943973405860264,0.956124449556084,0.943429121738529
1.14913475030167,1.15235278051047,1.15304803395064,1.15295864422262,1.1525116955825,1.15343538943873,1.1637450047373,1.21356487982168,1.27885911004591,1.28180897107065,1.08697909275021,1.08735651604631,1.0804933713726,1.07820896721203,1.07338192189883,1.07327266778681,1.06099647847175,1.06235718877609,1.05260377622967,1.04850178093265,1.04051629856266,1.03901653757029,1.03618586284959,1.03329559497687,1.0326102737287,1.03350417100892,1.03900660537829,1.03727840396986,1.02736607635139,1.02648211126317,1.02545909548692,1.02592590851104,1.02684960236727,1.0358382361295,1.029819327776,1.03143827507241,1.03238183331264,1.02715750031934,1.03028614080012,1.02907441337582,1.03719894643384,1.04094338281877,1.05904976883927,1.18942965325568,1.29793885088266,1.18294393187807,1.12290383122314,1.2289399130415,1.09156776545535,1.09387203399993,1.09507382923223,1.12179142571887,1.16360595404926,1.08268838580515,1.14672122764507,1.09122013873527,1.09835145259304,1.14348333305226,1.19345219101668,1.2490228052705,1.27847175455782,1.24234837224484,1.22149076903965,1.2200803977753,1.22924781099358,1.24305355787701,1.25255866562338,1.28660621980784,1.28552361087957,1.26201411240973,1.28660621980784,1.28222612313475,1.35758166385748,1.33774707642855,1.28211686902272,1.31291659642238,1.29880295158687,1.319442046568,1.25560784856813,1.28264327519885,1.28660621980784,1.30163362630757,1.28917865753648,1.3021501002917,1.33660487434827,1.39197684476203,1.3105725991098,1.27825324633376,1.26188499391369,1.23468072001893,1.22108354916755,1.28620893212774,1.19092941424805,1.19489235885704,1.19221066701637,1.1573188765117,1.14506255158065,1.11179964056438,1.13200171909741,1.08881654827067,1.03293803606478,1.0607779702477,1.00795857317857,0.944868296359686,0.945973749329561,0.934290511877057,0.914693303836985,0.916555589837448,0.917742486781743,0.922016309000406,0.960206580469099,0.949001081451914,0.940830860310683,0.94150426292845,0.941388056282021,0.928931101072525,0.937687321541901,0.940025359539283,0.940047210361688,0.949776785647307,0.947976079237259,0.967750080294975,0.987970036773601,0.979273409456239,0.963902349113218,0.974081852696549,0.968342038938322,0.955752985575192,0.958853815918363,0.968347998253523,0.972069590596848,1.03177596960049,0.98663912304527,0.982216317946571,1.05683489002272,0.987907463963986,1.08172496318091,1.08119855700478,1.10412205614648,1.08791271879845,1.11095540424417,1.16763842400227,1.18068932429351,1.04210544928306,1.04477720893172,1.18059993456549,0.941190405661172,0.939263560412693,0.941417852858028,0.936766607343272
1.14935325852572,1.15193562844636,1.14867786946955,1.15265074627054,1.15224352639844,1.15227332297445,1.1842549812224,1.18260623734999,1.18316244010212,1.31204256352616,1.36874544766826,1.0909420373592,1.35216861921614,1.07676879937168,1.0752591061873,1.06637972653709,1.06327095044032,1.12446318536753,1.05176947210146,1.04926655971684,1.04117182323483,1.03966213005045,1.03841067385814,1.03434840732913,1.03266986688071,1.03250101961667,1.04195646640302,1.02876651542374,1.02703831401531,1.02760444895945,1.02665095852722,1.02546902767892,1.02770377087948,1.03427888198511,1.02999810723205,1.0322030538566,1.03286851072076,1.03612626969757,1.02910420995183,1.02510153657483,1.19016463546387,1.03974158758647,1.09113074900725,1.30340155648401,1.1255557264878,1.13853710143503,1.14519167007669,1.13061121221706,1.0957690826724,1.10145029649781,1.10320829448225,1.09452755867209,1.16327819171318,1.12896246834465,1.10972381243587,1.11074682821212,1.14231133439597,1.16962486240276,1.1617486341448,1.21069447633297,1.25088012517496,1.25111849778302,1.25959065756112,1.27320769279651,1.26644387004283,1.25660106776838,1.27233365990029,1.26502356658647,1.27821351756575,1.29742237689853,1.28749018489606,1.28438140879929,1.34198812241361,1.30675863738085,1.31712784583143,1.30854643194129,1.30724531478897,1.30377897978011,1.28794706572817,1.28934750480052,1.29392624531366,1.32442800695324,1.34495784782235,1.30137538931551,1.30109728793944,1.2944923802578,1.34583188071856,1.27286999826842,1.27954443129408,1.26406014396223,1.22110341355156,1.28104419228646,1.19037321149592,1.19704764452158,1.19727608493763,1.1782261406769,1.14392034950037,1.11746099000579,1.1178980064539,1.10284080337816,1.05169994675744,1.03365315388896,1.00791884441056,1.01594405554856,0.945576461649462,0.953583794841853,0.912004659461917,0.902379372192324,0.953667225254674,0.984044834494225,0.966491671568262,1.19099893959207,0.93933407897591,0.940589508045023,0.938500768066903,0.928897331619716,0.929286673546213,0.93744298961864,0.94439949689717,0.946140610155203,0.947112971752244,0.958347274126237,0.98128964443274,0.978253373337586,0.994659368087264,0.9473354528531,0.950930906357993,0.984785776017609,0.997559568151985,0.969413722455388,0.973688537893251,1.02175438787,1.03224278262461,1.03659308272169,1.05864254896717,0.984776837044807,1.05517621395831,0.978327864777604,1.07354083697087,1.10450941163457,1.06984606154595,1.07141534788234,1.18058007018148,1.23167126584218,1.24187162702872,0.952542901119994,1.1351899527302,1.24874470389443,0.938070704153196,0.935525083342964
1.14862820850954,1.15026702018995,1.15221372982243,1.15511392988715,1.15190583187035,1.15204488255839,1.15526291276719,1.1609242622086,1.18450328602246,1.10157941499384,1.09599752308846,1.09041563118307,1.090127597615,1.39229467490611,1.07519951303529,1.06629033680907,1.06121498669581,1.0563382804226,1.05281235226172,1.04956452547691,1.04896859395676,1.04120161981083,1.03954294374642,1.0366427436817,1.03529196556936,1.04334697328337,1.0430688719073,1.02890556611178,1.02753492361544,1.02748526265542,1.02575706124699,1.02149615087794,1.05356719885391,1.03046492025617,1.03068342848022,1.03168657987247,1.03286851072076,1.0346165765132,1.02824010924761,1.02707804278332,1.03314661209683,1.03553033817742,1.04000975677054,1.12807850325643,1.14712844751717,1.10840283089954,1.10032795880153,1.11371655362086,1.2458345716377,1.10030809441753,1.10987279531591,1.11060777752409,1.07654035895562,1.19441561364092,1.19323368279263,1.12452277851955,1.13837818636299,1.15300830518263,1.17761034477274,1.21954405940717,1.26016672469727,1.24107705166852,1.32644424192974,1.33034759338671,1.2965185474263,1.27020817081176,1.28411323961522,1.27055579753185,1.29091679113691,1.28315974918298,1.28631818623977,1.32416976996118,1.31519106839095,1.30745389082102,1.31072158198983,1.3037591153961,1.30555684214855,1.30808955110918,1.28719221913599,1.30791077165314,1.30661958669281,1.31187371626212,1.31145656419802,1.28892042054441,1.30117674547546,1.33531368938795,1.29098631648093,1.28213673340673,1.26629488716279,1.27201582975621,1.2325452987384,1.25843852328884,1.19444541021693,1.19556774791321,1.18338094832618,1.15393199903886,1.15763670665578,1.21802443403079,1.14882685234959,1.15547148879924,1.07333226093882,1.08136740426882,1.06380728880845,0.972542362936166,0.960821383154052,0.962617123468098,0.964012596444445,0.933368804459228,0.96378912212439,0.987431711967067,0.954380356640451,0.953216303737762,0.937265203381796,0.938472957929297,0.939092726710251,0.929159541488581,0.935720747525412,0.936832159810489,0.939728386998409,0.946282640500838,0.946635233316926,0.972392386836929,0.980681794282189,0.930469597613707,0.984610969438366,0.946669002769734,0.951888369667031,0.980871499149436,0.964505233167768,1.01190165340355,0.971994105937629,0.972796627051429,1.0342093566411,1.03999982457854,0.974816834904731,1.00560464367398,1.07368981985091,1.08099991316473,1.11478923035713,1.01039196021918,1.15993104300835,0.945838671518328,1.17610065158837,1.22698327121702,0.939238729932687,1.24868511074241,0.932766913623878,0.932609984990239,0.932419286903792,0.93333702144482
1.14870766604556,1.15113112089416,1.15140922227023,1.15228325516645,1.15205481475039,1.15271033942255,1.38881840770525,1.15837168886396,1.22552323899265,1.30006433997119,1.09753701284884,1.09007793665498,1.0885483790866,1.07651056237961,1.07722568020379,1.07347131162686,1.05919875171931,1.05647733111063,1.05321957213382,1.05300106390977,1.04561151305993,1.04512483565181,1.04114202665882,1.03871857181022,1.03715921766583,1.03771542041797,1.04238355065913,1.0233832673584,1.02800173663955,1.0281805160956,1.02822024486361,1.02322435228637,1.03186535932851,1.03155746137644,1.0314184106884,1.03209379974457,1.03238183331264,1.0326003415367,1.02661122975921,1.02928298940787,1.03219312166459,1.03498406761729,1.10888950830766,1.05259384403767,1.09801375806496,1.20490400839553,1.17516702554014,1.1199142414304,1.10725069662725,1.10365524312236,1.1034168705143,1.11411384130096,1.08235069127706,1.13816961033094,1.18955877175171,1.18699626621508,1.23605136251527,1.14577766940483,1.17347855289972,1.2152632846541,1.2546841547119,1.25464442594389,1.30356047155605,1.30430538595624,1.331509659851,1.28612947459172,1.29137367196902,1.31465473002281,1.30642094285277,1.30762273808506,1.39257277628218,1.31654184650328,1.30376904758811,1.30761280589306,1.3061627058607,1.3029546078439,1.30549724899654,1.34258405393376,1.37527089781388,1.31121819158996,1.30325257360398,1.32688125837785,1.30250765920379,1.29251587404931,1.29212851856121,1.38696108780079,1.30785117850112,1.28797686230418,1.26637434469881,1.26249085762584,1.25944167468109,1.31670076157532,1.20384126385126,1.19661062807347,1.1846721332865,1.18085817155755,1.13339222597775,1.13502110546616,1.16597974793785,1.10855181377958,1.13485225820211,1.06302264564026,1.03616599846558,0.981828962458474,0.981603501700018,1.03320620524885,1.03411003472107,0.929854794928754,0.963168360124236,0.960223465195504,0.990181935932551,0.952373060636752,0.942819285149577,0.935669100126999,0.935320480187713,0.930377228228084,0.936603719394432,0.936300787538357,0.961155104805335,0.946835863595376,0.946956043118605,0.985344958427348,0.926011036623799,0.927752149881831,0.971880878948801,0.947023582024222,0.973716348030858,0.953846004710718,0.971533252228715,0.968793953674434,1.00380691692154,0.971866973879998,0.971762685863972,0.972329814027313,0.971052534135796,1.00154237714498,1.06312196756028,1.08015567684452,1.06910114714577,0.959734801348982,1.14543004268474,0.933265509662402,0.932569263003029,0.930474563709708,0.932998333697535,0.931415142292342,0.932990387943934,0.930848014129001,0.930595736452138,0.932760954308677
1.14871759823756,1.14986973250985,1.14857854754953,1.15214420447841,1.15190583187035,1.15347511820674,1.15728907993569,1.16270212457704,1.26895671461945,1.23095614801801,1.09902684164921,1.08956146267086,1.08928336129479,1.31828991229572,1.07612320689152,1.07640130826758,1.06620094708105,1.05694414413475,1.05343808035788,1.05079611728522,1.04686296925224,1.04359527808343,1.04222463558709,1.04215511024307,1.03873843619422,1.04005941773055,1.04362507465944,1.03292810387278,1.03010736134408,1.03016695449609,1.04237361846713,1.0297895312,1.03007756476807,1.03098139424029,1.03225271481661,1.03498406761729,1.03362335731295,1.03107078396832,1.0265913653752,1.02919359967985,1.03023647984011,1.13956011721129,1.1388152028111,1.05665611056668,1.08341343582133,1.10811479733147,1.10856174597158,1.12097698597467,1.1122565213965,1.10658523976309,1.10193697390593,1.11088587890016,1.09192532436744,1.18021257907739,1.18987660189579,1.20056364049045,1.21614724974232,1.17884193658105,1.18100715443759,1.21424026887785,1.25219117451928,1.3069473490289,1.31112880186194,1.34503730535836,1.34831492871918,1.30550718118854,1.30750355178103,1.30836765248525,1.30812927987719,1.30845704221327,1.31369130739857,1.31658157527129,1.31052293814978,1.32986091597859,1.31659150746329,1.30348101402003,1.30985748128562,1.34163056350152,1.31991879178412,1.32480543024934,1.3222329925207,1.34414340807814,1.31771384515957,1.37941262187891,1.32470610832931,1.32750698647401,1.31578699991109,1.29647881865829,1.27176752495615,1.26677163237891,1.25390944373571,1.32394132954512,1.26520234604252,1.19979886170626,1.18394708327032,1.18022251126939,1.13280622664961,1.13293534514564,1.16523483353767,1.14955190236577,1.13851723705103,1.13226988828147,1.0362553881936,1.02644238249516,1.00160197029699,1.03406037376106,1.0036579340415,0.973235629937938,0.974632096133485,0.970210284253986,0.964013589663646,0.944148212439507,0.945664858158284,0.943308942215299,0.936324624799162,0.929664096842307,0.935642283208593,0.936265031647147,0.943431108176929,0.945834698641527,0.947034507435425,0.966875054179557,0.926835408560003,0.927098611648069,0.941753560947712,0.948535261646998,0.950951763961199,0.953428852646614,0.971445848939093,0.967754053171776,0.995404282487449,0.968329127088719,0.970163602951574,0.970823100500538,1.04290995683526,0.967044894662799,1.07481215754719,1.0430589397153,1.10416178491449,1.09066393598313,1.14817132767743,1.17160136861125,0.9284315118148,1.24184183045271,1.23259495969841,1.27931599087803,1.29980610297912,0.927240641993704,0.928816880864496,0.939415522950331
1.27993178678218,1.1516773914543,1.15334599971071,1.15202501817438,1.15259115311852,1.15272027161456,1.15025708799794,1.16527456230568,1.16949574390673,1.28770869312011,1.1005961279856,1.08985942843093,1.090147461999,1.09020705515102,1.07876516996417,1.07496114042723,1.06091702093574,1.05733149962284,1.05589133178249,1.05511662080629,1.0462968343081,1.04411175206756,1.04184721229099,1.04126121296285,1.04014880745857,1.04402236233954,1.04557178429192,1.03157732576044,1.03215339289658,1.03338498470489,1.03149786822442,1.03024641203211,1.02989878531202,1.0322328504326,1.03758630192194,1.03595742243353,1.03831135193812,1.11490841666116,1.03135881753639,1.03111051273633,1.02993851408003,1.20754597146819,1.04883947546073,1.14328468921221,1.14273841865208,1.21708087579056,1.16646642534597,1.1195268859423,1.15337579628672,1.1078267637634,1.10096361908969,1.13668971372257,1.14449641663651,1.13194212594539,1.2055992618357,1.25561778076014,1.20913512218858,1.18965809367174,1.19248876839244,1.33488660513184,1.20874776670048,1.2446029798294,1.31319469779845,1.32029621508021,1.32412010900116,1.32844061252224,1.30789090726913,1.30673877299684,1.30600379078866,1.3029248112679,1.35106614590386,1.30852656755729,1.3069672134129,1.36223986190664,1.39924720930784,1.3407565306053,1.31548903415102,1.32372282132107,1.33355569140351,1.33132094820296,1.32931464541846,1.34781831911906,1.31957116506403,1.35752207070547,1.40007158124405,1.35784983304155,1.39727070309935,1.28575205129563,1.27260182908436,1.2683309865233,1.26709939471499,1.25042324434284,1.26862895228337,1.2212921251996,1.2369551919875,1.18100715443759,1.15218393324642,1.1633675814412,1.24637091000584,1.21909711076706,1.16248361635298,1.12653901349605,1.04807469667654,1.04095331501077,1.03869870742621,1.00811748825061,1.02692905990329,1.01592419116455,0.95755567842364,0.985138368833697,0.969146546490522,0.98386406859978,0.93575253053982,0.935594608686981,0.934721569009964,0.955714250026383,0.935441652930143,0.934975833125227,0.943773768801014,0.94588932569754,0.943224518583278,0.94299409172882,0.982177582397761,0.977290943932546,0.942297845069447,0.946374016667261,0.949914843116141,0.956298262916128,0.956840560599463,0.966706206915515,1.0028335621053,0.968476123530355,0.969110790599313,0.966236414233798,1.04712120624431,1.05341821597387,0.97119158482383,1.04203592393904,1.03869870742621,1.13919262610719,0.964973039411084,0.964683019404612,0.924092137128922,0.924430824876206,1.24110684824453,1.03652355737767,0.923939181372084,0.921063811787369,1.29265492473734,1.04583002128398
1.26237167132182,1.1516972558383,1.15252162777451,1.15160786611028,1.15235278051047,1.15277986476657,1.15252162777451,1.25308507179951,1.19987831924228,1.24488108120547,1.10104307662571,1.09039576679906,1.08931315787079,1.09086257982318,1.082102386477,1.07794079802797,1.30070993245135,1.05584167082247,1.05663624618267,1.05706333043878,1.04884940765274,1.04578036032397,1.04240341504313,1.04211538147506,1.04170816160296,1.04519436099583,1.04574063155596,1.03239176550464,1.03266986688071,1.03538135529739,1.03352403539293,1.03039539491215,1.02933265036788,1.03598721900954,1.03641430326564,1.03707976012981,1.03700030259379,1.03804318275405,1.03109064835232,1.03156739356844,1.03419942444909,1.03686125190576,1.04622730896408,1.15349498259075,1.14881692015759,1.2172695874386,1.16504612188962,1.24867517855041,1.12296342437516,1.12227810312699,1.09860968958511,1.1898865340878,1.10394327669043,1.14585712694085,1.13626262946647,1.21448857367791,1.27805460249371,1.2172596552466,1.20918478314859,1.33263199754728,1.22122259985559,1.25871662466491,1.29680658099438,1.32187543360861,1.34393483204609,1.32200455210464,1.30390809827614,1.32744739332199,1.31033422650174,1.3041365386922,1.30190179549164,1.32052465549627,1.33696243326036,1.34480886494231,1.39615829759507,1.31336354506249,1.39363552082645,1.34739123486295,1.34619937182265,1.34327930737393,1.36192203176256,1.37628398139813,1.35111580686388,1.355644886417,1.35784983304155,1.31428723891872,1.31584659306311,1.2828220546549,1.31385022247061,1.26940366325956,1.25980916578518,1.24064996741242,1.22822479521733,1.2116380345732,1.20005709869832,1.20428821249138,1.18122566266164,1.19946116717818,1.1714027247712,1.16409263145738,1.20593695636379,1.15981185670432,1.07974845697242,1.04375419315547,1.01427544729214,1.01243799177168,1.0221516755501,0.961020026994102,0.966520474925069,0.983273103175633,0.975042295663187,1.0189237131493,0.934282566123455,0.935660161154197,0.935608513755784,0.953121947913738,0.957210038141954,0.932846371159898,0.943405284477723,0.945826752887925,0.942466692333489,0.942719963229552,0.935802191499832,0.936298801099956,0.942161774039014,0.945856549463932,0.974941980523962,0.991782012064149,0.956321106957733,0.965062429139107,0.964360223164532,0.966432078416247,0.965907658678516,0.964125823433274,0.956203907092104,0.957508003902029,0.952590575641606,0.930029601507998,0.930221292813645,1.14258943577204,0.962145344347981,0.97766936044784,1.19276686976851,0.922853592786214,0.99182571370896,0.97851161032965,0.922609260862953,0.92207490893322,0.92790709207707,1.05757980442291
1.26680142895492,1.150485528414,1.15181644214233,1.15104173116614,1.15179657775833,1.1521044757104,1.15126023939019,1.17285282480356,1.17393543373183,1.24777134907819,1.10355592120233,1.09158762983936,1.09384223742392,1.09433884702404,1.08150645495685,1.08082113370868,1.37964106229497,1.066022167625,1.06107593600777,1.53501034178959,1.05323943651783,1.04729998570035,1.04486659865975,1.04242327942714,1.04150951776291,1.04662459664418,1.04693249459626,1.03229244358462,1.03555020256143,1.03406037376106,1.03371274704097,1.02964054831996,1.02872678665573,1.03525223680135,1.03427888198511,1.03483508473725,1.03415969568108,1.0386490464662,1.03214346070458,1.03207393536057,1.03570911763347,1.04582008909198,1.04664446102819,1.06030122503158,1.1428576049561,1.14619482146893,1.16399330953736,1.14561875433279,1.11410390910896,1.16488720681758,1.17296207891559,1.10680374798714,1.1074195438913,1.11915939483821,1.25900465823298,1.24570545314167,1.27294945580444,1.27296932018845,1.22424198622434,1.23870325777993,1.25273744507942,1.25182368341519,1.28719221913599,1.29403549942569,1.2965185474263,1.31080103952585,1.30713606067694,1.3069473490289,1.33459857156377,1.33304914961138,1.31559828826305,1.32889749335435,1.33233403178721,1.44355471783086,1.37999862120706,1.50065488965305,1.36443487633919,1.37745598005442,1.35009279108762,1.35093702740783,1.36975853125251,1.36997703947656,1.3540458035046,1.42343209683385,1.33500579143587,1.315419508807,1.49494387925163,1.28006090527821,1.31447595056677,1.27067498383588,1.26342448367408,1.2365678364994,1.24171271195668,1.22095443067152,1.2168623675665,1.19850767674594,1.19286619168854,1.23431322891484,1.16888988019458,1.16582083286581,1.16057663548851,1.12147359557479,1.09026664830303,1.05118347277332,1.07262707530665,1.01033236706716,1.00071800520877,1.00231708812117,0.950018137912967,0.977400198044573,0.971859028126396,0.967266382544454,0.939351956921515,0.935786299992629,0.936440831445591,0.920559256433643,0.934687799557156,0.935019534770038,0.943403298039322,0.944876242113288,0.942496488909497,0.936568956722423,0.936823220837686,0.93788199250515,0.941878706566943,0.943697290922595,0.967302138435663,0.951821823980615,0.955566260365546,0.989759817772446,0.964023521855648,0.966464854649855,0.963579552873138,1.0313985463044,0.957521908970832,0.956553520250591,1.01246778834769,1.04294968560327,1.04884940765274,1.12855524847255,1.10701232401919,1.17528621184417,0.931203586602689,0.930829142964196,1.21568043671821,0.971463726884698,0.919872941966273,0.922013329342805,0.970848924199745,0.990590149023852
1.20565885498772,1.14946251263775,1.15097220582212,1.15183630652634,1.14991939346986,1.14931352975771,1.14784356534134,1.15140922227023,1.21707094359855,1.30439477568426,1.30636134970075,1.09552077787234,1.09555057444834,1.09595779432045,1.08042384602858,1.07841754324409,1.07814937406002,1.06505874500076,1.06528718541682,1.4300668010915,1.05420285914207,1.04700201994028,1.04571083497995,1.04341649862738,1.04195646640302,1.0466841897962,1.0471013418603,1.03520257584134,1.03608654092956,1.03707976012981,1.03212359632058,1.0318256305605,1.0318057661765,1.03762603068995,1.03565945667346,1.03265993468871,1.03283871414476,1.04366480342745,1.03554027036943,1.03355383196893,1.03689104848176,1.03775514918598,1.04499571715578,1.05764932976692,1.16685378083407,1.13956011721129,1.13997726927539,1.26007733496924,1.18398681203833,1.1814640352697,1.1686018466265,1.13805042402691,1.10488683493067,1.14211269055592,1.22072599025546,1.23207848571428,1.25684937256844,1.29550546384205,1.26964203586762,1.24061023864441,1.23229699393834,1.23425363576283,1.29083733360089,1.29672712345836,1.28225591971076,1.33252274343525,1.30564623187657,1.35110587467187,1.36354097905896,1.371735037461,1.34506710193437,1.37179463061302,1.38225322879162,1.51201731730387,1.38085278971927,1.50096278760513,1.52783929916381,1.39986300521199,1.35106614590386,1.35180112811205,1.35841596798569,1.35575414052903,1.35466159940876,1.35454241310473,1.38838139125714,1.33916737988491,1.27828304290977,1.27913721142198,1.26415946588226,1.27239325305231,1.26074279183341,1.24767202715816,1.22727130478509,1.23088662267399,1.23120445281807,1.24135515304459,1.25180381903119,1.35293339800033,1.19710723767359,1.16718154317015,1.09073346132715,1.07988750766045,1.04849184874065,1.02893536268778,1.03171637644848,1.04597900416402,0.995622790711504,0.932988401505533,0.933474085694454,0.97690160200605,0.995583061943494,0.974660899490292,0.940706707910652,0.935960113352672,0.936529227954413,0.91696479614795,0.921128371035385,0.934660982638749,0.942626600624729,0.943301989680897,0.943070569607239,0.937631701266687,0.937015905362534,0.938136256620413,0.94033623714896,0.942155814723812,0.94359498934497,1.04224449997109,1.02808119417557,0.958677022900719,0.960180756769893,0.963716617122772,0.959684147169769,0.960834295003655,0.95695080793069,0.954212502595609,0.98893047974024,1.07736473089182,0.979384650006667,1.0760536815475,1.10519473288274,1.04699208774827,0.915344855632347,0.909142201726805,0.915048876310674,1.28777821846413,0.935721740744613,0.940622284278631,1.15350491478275,1.28835428560027
1.25876628562492,1.14877719138958,1.14970088524581,1.14882685234959,1.14965122428579,1.14878712358158,1.14595644886088,1.14088109874761,1.21461769217394,1.27620721478125,1.10806513637146,1.09619616692851,1.31894543696788,1.31867726778381,1.0776527644599,1.07756337473187,1.07602388497149,1.06715443751329,1.07007450196201,1.07001490881,1.05921861610331,1.45461917972161,1.04576049593997,1.04626703773209,1.04369460000345,1.0487103569647,1.04907784806879,1.03535155872138,1.03656328614568,1.03438813609714,1.03296783264079,1.03170644425647,1.03104098739231,1.0390463341463,1.03653348956967,1.03299762921679,1.03417956006509,1.04395283699552,1.04242327942714,1.03519264364934,1.03830141974611,1.03666260806571,1.05326923309383,1.06201949424801,1.08341343582133,1.16549307052973,1.13905357541916,1.12004335992643,1.15979199232031,1.15986151766433,1.1589179594241,1.16438066502546,1.15556087852726,1.15641504703947,1.20863851258846,1.21676304564648,1.2180542306068,1.27108220370798,1.27715077302149,1.29798851184267,1.2989122056989,1.25458483279188,1.28332859644702,1.27484650447692,1.2944824480658,1.28974479248062,1.32645417412175,1.32153773908052,1.38844098440915,1.41786013712047,1.34642781223871,1.3487817417433,1.36631206062765,1.53940037065468,1.36783168600403,1.58952814369114,1.59508023902052,1.40239571417262,1.39964449698794,1.38409068431207,1.36219020094663,1.3898116269055,1.44039628077407,1.42348175779387,1.37701896360632,1.31485337386286,1.28051778611033,1.29395604188967,1.32799366388213,1.2949095323219,1.29402556723368,1.29716413990646,1.29578356521812,1.23038008088186,1.26440777068232,1.25645208488834,1.29985576393913,1.21473687847797,1.33481707978782,1.19447520679294,1.08475428174166,1.07528890276331,1.04569097059595,1.04674378294821,1.03610640531357,1.07350110820286,1.00219790181714,0.931405210100339,0.935264859912499,0.936404082335182,0.97083104625414,0.951240790748471,1.0519184549815,0.932808628830288,0.933433363707244,0.9167661523079,0.917625286916114,0.935975011640676,0.94069776893785,0.942852061383185,0.940964944902716,0.936089231848704,0.936707014191257,0.937669443596297,0.93985651227524,0.940672938457843,0.940102830636902,0.956976631629896,1.03055430998419,0.956261513805719,0.960725040891628,1.00319112101738,1.00530667791391,1.0161129028126,1.04028785814661,1.01501042950032,1.01703659666883,1.0213471679979,1.06247637508012,0.911404755064968,0.9268195170528,1.19382961431278,0.905253748557838,0.909137235630804,0.91040954942632,1.01837744258916,0.915457089401975,0.919607752439807,0.922589396478948,1.08883641265468
1.14609549954891,1.14713837970917,1.14831037836546,1.14716817628518,1.14814153110142,1.14763498930929,1.14548963583676,1.14261923234805,1.15991117862434,1.30751348397304,1.30754328054904,1.28986397878465,1.22830425275335,1.08137733646082,1.08046357479659,1.07679859594768,1.07641124045959,1.07021355265005,1.07095846705023,1.41017262051056,1.06310210317628,1.42537880646634,1.04939567821287,1.04729998570035,1.04412168425956,1.04787605283649,1.04698215555627,1.03556013475343,1.03546081283341,1.03408023814506,1.03394118745703,1.02964054831996,1.03150780041642,1.04062555267469,1.04096324720277,1.03365315388896,1.03530189776137,1.04560158086793,1.0454923267559,1.03629511696161,1.04039711225863,1.04031765472261,1.04392304041951,1.05769899072694,1.07506046234725,1.15682226691158,1.19089961767205,1.12469162578359,1.19078043136802,1.21496531889403,1.17613044816438,1.15743806281573,1.13584547740236,1.17808708998886,1.16725106851417,1.25298574987948,1.24308335445302,1.26296760284196,1.27602843532521,1.23941837560411,1.27765731481361,1.27612775724523,1.35903176388984,1.28230558067077,1.28300083411094,1.29076780825687,1.30806968672518,1.31900503011989,1.41252655001514,1.41971745702493,1.37396978066156,1.35472119256077,1.3608791516023,1.37685011634227,1.51843351333747,1.61577892715367,1.59550732327663,1.42328311395382,1.41519830966381,1.38840125564114,1.37309574776534,1.45152033581684,1.43902563827773,1.39327796191436,1.36343172494694,1.3174158793995,1.30956944771755,1.29797857965067,1.31834950544773,1.3186276068238,1.31164527584606,1.28036880323029,1.24487114901346,1.2635039412101,1.31439649303075,1.27894849977394,1.26821180021927,1.24778128127019,1.21808402718281,1.12843606216852,1.10109273758572,1.0736500910829,1.07116704308228,1.0442805993316,1.02849834623968,1.02730648319938,1.00037037848868,0.96849499469516,0.998522990776224,0.974176208520572,0.938455079983692,0.973712375154057,0.915940787152495,0.931201600164289,0.934114712078613,0.920350680401591,0.921563401045093,0.932464974987003,0.935052311003646,0.940243867763337,0.939459224595142,0.973879235979698,0.933034089588744,0.936819247960886,0.937174820434574,0.936850037756093,0.966946565961975,0.964844914134252,0.986710634827688,0.953195446134556,0.956609140525805,0.953830113203514,0.955600029818354,0.955896009140028,0.967707371869364,1.00200919016909,1.01223934793163,0.922648989630963,1.09866928273712,0.908985273093166,0.906423760775729,0.900701824963107,0.90328916097975,1.24409643803727,0.908335707736205,0.910678711829587,0.913720942239943,0.916625115181465,0.919714026894233,0.924149743842536
1.23754119131564,1.14352306182027,1.14393028169237,1.14321516386819,1.14610543174091,1.14538038172473,1.14411899334042,1.13997726927539,1.14389055292436,1.24745351893411,1.30649046819678,1.28945675891255,1.09043549556707,1.08838946401456,1.08556872148586,1.30592433325264,1.29049963907281,1.07094853485823,1.07012416292202,1.07626225757955,1.06435355936859,1.06334047578434,1.05132252346135,1.05217669197356,1.04874015354071,1.04897852614877,1.04571083497995,1.03318634086484,1.03336512032089,1.03500393200129,1.03477549158524,1.0306039709442,1.03205407097656,1.03669240464171,1.03841067385814,1.03374254361698,1.03571904982547,1.04312846505931,1.03861924989019,1.0354210840654,1.04219483901108,1.04229416093111,1.04330724451536,1.1766270577645,1.15722948678368,1.18942965325568,1.18498003123858,1.1231223394472,1.22122259985559,1.17334943440368,1.14624448242895,1.13783191580286,1.16130168550469,1.16562218902576,1.21487592916601,1.2502246005028,1.24336145582909,1.24588423259772,1.34848377598322,1.23901115573201,1.24817856895029,1.24482148805345,1.32577878506558,1.28477869647939,1.2904698424968,1.26850976597934,1.31357212109454,1.38923555976935,1.41423488703957,1.4127649226232,1.39033803308163,1.35637986862518,1.35879339128178,1.37753543759044,1.53067990607651,1.58162211885718,1.60875686740792,1.50232349790947,1.41068909449469,1.51456989064851,1.43031510589156,1.39321836876234,1.43858862182962,1.38091238287128,1.38331597333588,1.33476741882781,1.32071336714432,1.31761452323955,1.31484344167086,1.31750526912752,1.33957459975701,1.32894715431437,1.24106711947652,1.26216309528976,1.33465816471578,1.30147471123554,1.30400742019617,1.23103560555403,1.19800113495381,1.12429433810349,1.1114718782283,1.10788635691541,1.07073995882618,1.06001319146351,1.02384014819052,1.03332539155288,0.998046245560106,0.9911840941056,0.939710509052804,0.932942713422322,0.939391685689525,0.923666046092016,0.915549458787598,0.930245130074451,1.05656672083865,0.926208687244648,0.916943938544745,0.934170332353827,0.938946723487814,0.939744278505612,0.934916239973212,0.930599709328939,0.92971971711752,0.935636323893391,0.933116526782365,0.934064057899401,0.969626271364241,0.944565364503611,0.946715684072146,0.952053244054272,0.983896844833389,0.951274560201279,0.953070300515325,1.02502207903881,1.02870692227173,1.00037037848868,1.05421279133407,1.10457893697859,0.906050310356437,0.905758303911564,0.90260483295078,0.898707440809011,0.902066508144246,0.903292140637351,1.10372476846638,0.910090726063041,0.913080315855784,0.916135458115744,0.918636384061965,0.922046105576413
1.26012699592926,1.1416359453398,1.1420332330199,1.14177499602784,1.13646127330651,1.14399980703639,1.14059306517954,1.14028516722747,1.13770279730682,1.26575854879466,1.1114718782283,1.24830768744632,1.18577460659877,1.08870729415864,1.08661160164612,1.08752536331035,1.07753357815587,1.07206094036251,1.07247809242661,1.07522930961129,1.06457206759264,1.06263529015216,1.05470940093419,1.05346787693388,1.0482932049006,1.04901825491678,1.04828327270859,1.10348639585832,1.03412989910508,1.03548067721741,1.03611633750557,1.03393125526503,1.03573891420948,1.03633484572962,1.03856958893018,1.03670233683372,1.03965219785845,1.04234382189112,1.04215511024307,1.03603687996955,1.04222463558709,1.04220477120308,1.20711888721208,1.17799770026084,1.1565044367675,1.10366517531436,1.1315845670333,1.1315746348413,1.11083621794014,1.14910495372566,1.13467347874607,1.18571501344676,1.14982007154984,1.16107324508863,1.22203703959979,1.20090133501853,1.27963382102211,1.25281690261544,1.24646029973386,1.23848474955588,1.24875463608643,1.3142177135747,1.31403893411866,1.28958587740858,1.44621654528752,1.30391803046814,1.28440127318329,1.38685183368876,1.41282451577522,1.41044078969462,1.40946743487838,1.36480236744328,1.37061269976472,1.42249847078562,1.47845644052753,1.47859549121557,1.47246732875004,1.43680082726918,1.46130354493927,1.51379517967232,1.41891294947273,1.40719296290982,1.5020652609174,1.41213919452705,1.37501266082182,1.35074831575978,1.36454413045121,1.3439745608141,1.42261765708965,1.4743147164625,1.31746554035951,1.33526402842794,1.25611439036026,1.26951291737159,1.3463781512787,1.30161376192357,1.24523864011756,1.19268741223249,1.19646164519343,1.10379429381039,1.08146672618884,1.09503410046422,1.1259232175919,1.07113724650628,1.03670233683372,1.03001797161605,1.04214517805107,0.995146045495385,0.996020078391602,0.998453465432207,1.00493918680982,0.986352082696399,0.951490088767732,0.935969052325474,0.930831129402597,0.932442130945397,0.913273000380632,0.935885621912653,0.937635674143488,0.937826372229936,0.935002650043634,0.928586454010039,0.928580494694837,0.931350583044326,0.931394284689137,0.9332565706896,0.955876144756023,0.944133314151503,0.946293565912041,0.962212883253598,0.984457020462328,0.952714728041637,0.952891521059281,1.03155746137644,1.03855965673818,1.00706467589835,1.08856824347061,0.91077108121521,0.905601375277925,0.904928965879358,0.901449719020893,0.898110516069663,0.899098769173908,0.904201929424777,0.906807143387025,0.909344818443655,0.912518153788444,0.915708373859637,0.919152858046094,0.923749476504836
