1.04899883570176,1.05045589703348,1.05144725232396,1.05345161130035,1.05715900012005,1.05938336951991,1.06063749865426,1.06225774294006,1.06357125780971,1.07263255981286,1.07277361117219,1.07372595376266,1.07478753475965,1.07808120961286,1.08065350875359,1.08226087453426,1.08248176331653,1.08229884176981,1.08758822821355,1.13733900247786,1.17577103299638,1.17624637666481,1.1779888303406,1.17927321013251,1.1852238293369,1.19128221182148,1.19357438948597,1.19742597366537,1.20062662669491,1.19609406959385,1.20517504659262,1.18845747291545,1.17086997525951,1.15096088865535,1.11729228484658,1.11687805035008,1.11701404855423,1.11654525765537,1.11715891449805,1.11642338685485,1.11708091195189,1.11688805835263,1.11688680409375,1.11745942161259,1.11694175607379,1.11752875276598,1.1171502382149,1.11758754282251,1.11711438200408,1.11772862041566,1.11715320958451,1.11749080678587,1.11703664294136,1.17763566832773,1.2128554586906,1.21276238832917,1.21240928981997,1.19399119833031,1.17613124681563,1.12375331015384,1.14261999163778,1.16170672109023,1.16214123815285,1.16469118080951,1.16541886897834,1.14295926940732,1.12766118491073,1.11163340058584,1.09501802810039,1.07784425965392,1.03472730749795,1.03509986662831,1.03540657785562,1.07778382466209,1.10123236142436,1.115595493447,1.07760959423622,1.00490803188795,1.00092134926376,0.99806654220543,0.997245360875702,0.996752064422092,0.996310456101457,0.993610786030721,0.993539192787734,0.992123334984747,0.992506417840793,0.991181709914257,0.990937401329851,0.988059892137495,0.987682864967392,0.98609309511257,0.985381462099033,0.983552857796111,0.982666994459676,1.05950732401479,1.03534349508424,1.03591412717246,1.03452277109693,1.04877807410871,1.00744636452085,1.00180763580454,0.995693521111146,0.981727439129085,0.980208434096994,0.977485524699817,0.97669721007719,0.97634244734922,0.975730020541151,0.976019945545776,0.975885485520839,0.976080675315265,0.975800460189427,0.976363833960927,0.976800716060082,0.978096603134235,0.977723908157551,0.976736698304252,0.973392721524492,0.970680698834508,0.970858579484805,0.970647107010229,0.97109375336753,0.971299802228167,0.97162435939979,0.972104142571593,0.972943477082731,0.974302861818234,0.974589438116682,0.975692368451267,0.975141364743621,0.976545709701535,0.976432268607679,0.977648361150212,0.976819519722242,0.979326570149191,0.979800891316588,0.980656963432162,0.980335071374413,0.979058196833735,0.978084693076009,0.977971906008374,0.977841047860007,0.978182451409498,1.05079305774113,1.04808118272594,1.04611210090091,1.04372840287273,0.944323227121932,0.944452157529293,0.933847188929435,0.933885515639127,0.933326485586033,0.938694135625097,0.941087531243602,0.942190510344342,0.943432517271083,0.944944615434593,0.970834579445194,0.983886557530526,0.988593558956458,0.989402634525986,1.02315491603713,1.03207797823361,0.993022809858139,0.943324970262038,0.940372776513585,0.936929136352032,0.934745108473995,0.933505108287209,0.931637300876324,0.929880567179189,0.928269931228549
1.04993758022115,1.04991784261532,1.05181988933046,1.05247447448782,1.05650697531095,1.05940920840546,1.06114673522414,1.06318495303267,1.06437531513038,1.12463951559268,1.07268436161237,1.07310263672796,1.07438928409481,1.07707586615239,1.08053458126395,1.08141284319669,1.08188692225105,1.08051283074389,1.08083459767001,1.10409163730263,1.17662929563914,1.17511186254593,1.17360346577779,1.16642181891234,1.16682952395013,1.18787825430414,1.15806485852475,1.10736822544165,1.20836764399149,1.1907527647426,1.21775376887122,1.1712652352257,1.11895321803829,1.11838887154757,1.11803003711313,1.11747783662218,1.1175097162615,1.11809152991578,1.11650584480529,1.11822850699479,1.11684141350321,1.11738001308677,1.11778485916633,1.1168902029404,1.11815345188167,1.11692429789143,1.11763123190789,1.11681293192949,1.11822305140881,1.11626565530069,1.11726007703279,1.11668120580909,1.11603703747468,1.24607498636442,1.23151748134867,1.24350153380196,1.21072169778341,1.15744496131255,1.15353456399635,1.10567521217687,1.16409723811298,1.1605786157247,1.09331808989545,1.09353793366772,1.16530896131051,1.16666831411889,1.16490495802396,1.47895657006275,1.48678951712447,1.48577053607372,1.03266028793135,1.03358580583085,1.03116227985009,1.0305987508263,1.11068245222372,1.15303935049107,1.08919252159158,1.01152040280408,1.02266805909297,0.998317630003548,0.997836144813595,0.997101178313268,0.996292325284225,0.993277063414615,0.990573462477456,0.993983666695305,0.992024404404444,0.99353467443544,0.98878129950887,0.990602213192035,0.984921861101334,0.986214196575399,0.983793490822507,0.984089942824415,0.981074117415071,1.06606435659185,1.03380977396734,1.03577215105652,1.03454611736184,1.62669401700049,1.01635100567818,1.01711807419125,1.01795481204491,0.97250627468912,0.973036617570395,0.973394620204697,0.974891929696492,0.974346506056407,0.97548535766881,0.975425982269222,0.976093899441869,0.975565709474124,0.97608737283511,0.974915899864278,0.978089439758744,0.978069467207274,0.977351833592142,0.977165935212068,0.9747584349563,0.970366435625683,0.969565517409578,0.970563368516896,0.970093427679911,0.971136990129075,0.969926774757919,0.970904880647723,0.972069181532427,0.972052215029742,0.976292725086202,0.973282787923435,0.975845221203437,0.975294590095132,0.977154347151979,0.9746891189678,0.978177386564583,0.977573817953815,0.979739441347365,0.980081326287049,0.981421365098498,0.978558516122542,0.977751310964669,0.978161554171479,0.977754222728346,0.977853718368919,1.05756382515373,1.21604583065002,1.08739587441905,1.21578601527928,0.942754005729438,0.942902392105451,0.934480376814019,0.934415868856424,0.932621325228427,0.932290434723788,0.942228188763213,0.94309968904193,0.942872662655946,0.944137097003782,0.944482635047948,0.944969549113384,0.985574717943697,0.987433674377819,1.01611929426051,1.04613217372951,1.04651554989252,0.935365995157489,0.934754167488317,0.935091527187128,0.934188302436858,1.10307610887331,0.92972374943881,0.927590348869769,0.924919475126827
1.04841974722752,1.04982120565274,1.05090881685623,1.05325417235592,1.05559983438033,1.06031719646786,1.06097799045817,1.06208077884817,1.06799218620227,1.09546191995083,1.07249629915516,1.07325538431135,1.07407745880571,1.07626143583838,1.0828044400391,1.08626574607526,1.08786878447296,1.08961917375958,1.09274407772838,1.09771939037167,1.11060755203871,1.10879912464243,1.10606059752817,1.10283678324795,1.10161698108366,1.10318360886989,1.10611937808277,1.10831867297773,1.16697447864848,1.17865885519552,1.16200934965806,1.15256361045442,1.11849216476044,1.11840466663975,1.11781209933201,1.11822420797212,1.11826064746617,1.11787925552174,1.11819800156259,1.11730861972568,1.11782398678727,1.11761948698565,1.11757847429148,1.11793669068138,1.11740720101341,1.11778487006397,1.11735680584698,1.11771597499082,1.11689991169578,1.1173556859978,1.11636138197639,1.11669035153175,1.11610532153479,1.16443651252625,1.19230788560298,1.21871009535389,1.20953465651496,1.19057433416278,1.17647657451741,1.1541228152022,1.16163564550725,1.16022792549686,1.15979548565909,1.16094217681902,1.16343385238927,1.16479369875163,1.16218509929361,1.1376774080796,1.11693669056708,1.09345699193347,1.0345550374203,1.03408197727217,1.0323127299613,1.03131934072701,1.11934643494735,1.12713360291279,1.10306516032681,1.07423451990153,1.04808775451159,0.99686866424315,0.996632863543464,0.996117200095866,0.995712854245263,0.993020458311233,0.993536981452034,0.992317630665395,0.992647811864935,0.991186660501148,0.991072973942999,0.988256400910057,0.987645046151108,0.986091286139995,0.985641249563684,0.983386080469803,0.982207301874184,1.02941837474873,1.02939022783526,1.0290564540087,1.03030211531352,1.03238889691758,1.02200643029841,1.01869209144927,1.01880807662174,0.972754824345111,0.972970850307569,0.973838337551482,0.974232602398005,0.974732126675986,0.974959552828416,0.975468794855351,0.97545615146032,0.97545056983932,0.975115092279938,0.9757887722475,0.976353678947356,0.977407113151665,0.976931535188606,0.975748477187035,0.973103798984788,0.970021453829947,0.970067678707142,0.969513141129069,0.970026931678755,0.969371812983528,0.969737231052086,0.970124917835933,0.971228764188638,0.972693059612881,0.973053899956697,0.974582771889117,0.97449412469776,0.975911968436327,0.975594365196093,0.976978027408786,0.976433887016761,0.978560930455535,0.978845039028479,0.979745941571116,0.980572353265625,0.979854209506421,0.978735074678033,0.996340941004157,1.00320548517813,1.00887370521853,1.01441859972165,1.02101793551822,1.02740662320876,1.03310071555889,0.985955013333288,0.942357143679849,0.937693894556182,0.935369438938277,0.93329767378915,0.93267361723843,0.936597244977051,0.941528983005993,0.942224398368414,0.942835608764512,0.943416316178027,0.958232513416515,0.973268391491475,0.984990093873921,0.995977170804995,1.00605030185035,0.977860757124178,0.93502677113034,0.933054396809755,0.931622479054685,0.93047431097051,0.929257944279573,0.926995194489657,0.925096101371508,0.924351559957683
1.04841040073121,1.04932355285246,1.05149267276433,1.05245610627544,1.05613698866102,1.06137139606097,1.0615627636755,1.06254340388198,1.07817487395553,1.13862032099476,1.07146447002358,1.07266187845653,1.07400216029885,1.07576101168698,1.14263643716657,1.09699975642251,1.09291136180228,1.15365013883045,1.18789557153753,1.09151531302187,1.09264327492763,1.09350640000423,1.09529426810732,1.09789249132693,1.09971260513511,1.10244255107412,1.10349243262364,1.1056749206183,1.15545397939067,1.19925860301252,1.14850634954499,1.13865077926681,1.11864156619601,1.11740815169026,1.11799458835472,1.11830877787961,1.11876164257023,1.11924138033658,1.11745021542407,1.11856163112839,1.11725436038391,1.11803233979946,1.11823175123612,1.11753700945292,1.1184332336256,1.1172315770791,1.11781446646087,1.11677356559412,1.11823284528195,1.11548274262522,1.11659510893846,1.11590762193543,1.11543934158041,1.11419931227075,1.16341433338229,1.231757801485,1.20850821304282,1.20580886020936,1.21451163275117,1.11726676872271,1.33517104325415,1.28437751367373,1.49122528998075,1.49100544620551,1.28531663194034,1.3809986123721,1.15860905969104,1.08542045252299,1.0873728023791,1.06002745812344,1.03561185184189,1.03455029629916,1.03130436515274,1.03076612433891,1.44990964301095,1.13550500890884,1.1241032273716,1.12493733378762,1.48176700462299,0.995679713650455,0.995382855739089,0.995865649131237,0.99356955745692,0.994979812664332,0.992048297031297,0.994005767384481,0.99211244314492,0.992992100979163,0.988973696104586,0.990268203665457,0.986451507981632,0.986994184919409,0.985935904209863,0.984186006142881,0.981043620638059,1.02941799475495,1.02962198493088,1.02918530426568,1.02931866826507,1.03208500788973,1.17706353214043,1.06598548269523,1.11816530199613,0.972157236076005,0.974221213665049,0.973284698691067,0.974204974505191,0.97449613600148,0.974669824015117,0.975670917481427,0.975201789082139,0.975009115925182,0.974835681524527,0.974440076492772,0.976416460052363,0.977084256799698,0.977178222414923,0.977113685464633,0.970622568680082,0.969686103711103,0.968249280678445,0.96921841089781,0.968471106883295,0.969786036273956,0.966820247567408,0.970071047915356,0.970716889704452,0.970897839500266,0.974109510781396,0.971590504454402,0.976108681206653,0.975323610347054,0.977137281166917,0.974619454742908,0.978019548011951,0.976963881317801,0.978335501932506,0.978208529465454,1.07982932440759,1.07948442458709,0.977097212630802,1.03356933996141,1.08695967057462,1.06276546160062,0.957671757818615,0.957006657991424,1.00261043002744,1.03895263528297,1.03725082670264,0.942668459862105,0.94140691080563,0.935925795552494,0.931639763083907,0.931209447659206,0.931124754453157,0.941476194579836,0.941735343085288,0.9427744943632,0.942325398516193,1.02535134070055,0.941961105754676,0.94222773176738,0.941669530828256,1.04353780069586,0.930851971455013,0.930342354055841,0.930712440337268,0.930448732212993,0.921618241790751,0.921573005819636,0.921774431626594,0.921267588982208,0.917665986394332
1.0479158854089,1.04887974229511,1.0499983970714,1.05282546769569,1.0556972256495,1.06075113134147,1.06115921528571,1.0616602591051,1.07733025227856,1.07529697447814,1.07221451845071,1.07193199894329,1.07220782283282,1.08832663382716,1.09125441323148,1.09235792462356,1.08908104575483,1.0871834926743,1.0873063163333,1.08948121372057,1.09084079315716,1.09213593594417,1.09401311285273,1.09569582580865,1.09742768136785,1.10248336426104,1.10256897780699,1.10395391909353,1.10514925362862,1.10654689410507,1.10980633519032,1.11262086379418,1.11594529680124,1.11785905841346,1.11805380308772,1.11930943430127,1.11941757686055,1.11936543803628,1.11956377134238,1.11829833448751,1.11866778294816,1.11850817662114,1.11839873472653,1.11859229549445,1.11801236448209,1.11813885670632,1.11760040540055,1.11779178557916,1.11675061775094,1.11693008465392,1.11572906991318,1.11599205662648,1.11525532314094,1.11467728744776,1.18699276677716,1.20730541795723,1.20801036296832,1.20930798981489,1.21181568381816,1.19474088794164,1.24422246158202,1.25448510880285,1.27196928454162,1.22798179571808,1.20269414846297,1.17872670403764,1.1547941874757,1.08820184611964,1.08911241654744,1.07823432275371,1.0362642872429,1.0353600040307,1.03425605497562,1.03234323696823,1.07889545224819,1.12187918525877,1.1233044530819,1.1242963730634,1.06988909788014,1.04231363430073,0.99638362484847,0.996125172795997,0.996143924217664,0.994523071593835,0.995064315365256,0.993275222744094,0.993574981100819,0.992206909816011,0.992569773060473,0.989901976324537,0.987792689341612,0.986018839538986,0.985441727251939,0.984189934539301,1.0136941680547,1.02996443186343,1.03003465070614,1.02950335931953,1.0202092850138,1.01204991902026,1.00154437399101,0.991200966184012,0.982663339515561,0.974872442736816,0.973829383948932,0.973607638215566,0.97382554079415,0.974123102020008,0.97509492591686,0.975454718446156,0.975720489298065,0.974889273770607,0.974559115090014,0.97491632606985,0.976070122708617,0.977141739598026,0.977348275762077,0.976565890973861,0.973220890334051,0.968244803202054,0.968393770374553,0.967990296050429,0.968532339807987,0.967775028622526,0.968637782449494,0.969018154155502,0.969946509553012,0.970727996969277,0.970481825331857,0.971624084267887,0.975109766827241,0.975990810614895,0.97583616083981,0.976748344751734,0.97599513282128,0.977180530862101,0.97700509033308,0.977177871652718,1.02358725967792,1.07609580390374,1.07442130444856,1.06612622355604,1.06684373844708,1.06501825850902,0.958299910005326,0.958231014537164,0.959139074411504,0.952951637016368,0.950549382122423,0.941919780778009,0.941471351017597,0.935750455345674,0.933509592180402,0.931514741031205,0.930856187932284,0.94137789970177,0.941864076753671,0.941649209972256,0.942411648182508,0.941882218573152,0.942393000648884,0.941983076951457,0.941476095829458,0.94090709474705,0.929252226824837,0.928744370958037,0.927914335104586,0.925705828882217,0.923051871377297,0.922249547325975,0.921199511087228,0.92080090730282,0.919720415978876
1.04707759285202,1.04822287029081,1.04943425929126,1.05228945162144,1.05668984528724,1.05981448845451,1.06078015287153,1.06082578820824,1.11534985268556,1.06679189312097,1.06982016691468,1.0703397968255,1.07072409447368,1.15628757227131,1.09332822881536,1.17337606679357,1.08521999710865,1.08468357768606,1.08442874517634,1.0866032791201,1.08822551881153,1.09046858017698,1.09171536071177,1.09434618778001,1.09580438894322,1.10313082225514,1.10206660591917,1.15997418793517,1.10758132748077,1.10807250750925,1.11314996232683,1.1137932061239,1.11728444416242,1.11725889488128,1.12011841392201,1.11966379242984,1.12019798441624,1.12131600263447,1.11990065101375,1.11975452125297,1.11842814313522,1.11929403489863,1.11922005242027,1.11849241606614,1.1191401546355,1.11776337365755,1.11811795633113,1.11697216641069,1.11813323018802,1.11522609815026,1.11600997208356,1.11540089402974,1.11514471405036,1.11426112145563,1.2307899714214,1.20712098536226,1.20711442006217,1.23903740953967,1.24183071265773,1.15659919350529,1.23112693484487,1.24450081647637,1.2990758948378,1.08350007355398,1.15495051145594,1.14661518479806,1.15116209163642,1.05985725448564,1.39575524721405,1.39833730473898,1.03668078054263,1.03510912792908,1.03551638989724,1.03261491148431,1.03081310472947,1.12019038898544,1.12278408834487,1.1243542229961,1.00663295981615,1.33502128465033,0.996958609845271,0.997193932663326,0.995859354132522,0.998190589827776,0.993550461774283,0.99583012524234,0.993642247953091,0.99497248583652,0.992883950472245,0.994791137758696,0.985101286787416,0.985177535303457,0.983803754762528,0.983801287235392,1.05997716554824,1.0879464429153,1.03025278947262,1.02902255461141,0.963128141151432,0.962380538001632,0.962311084942536,0.962210836967825,0.962444280379343,0.977384513312829,0.972743591355526,0.972542554165636,0.973037772912156,0.974410317317958,0.973905143671808,0.977391809579315,0.976183156120148,0.974897817066616,0.973672082711774,0.974491602650458,0.975589017489401,0.978686056489444,0.9781566930321,0.978958947634658,0.987489056891321,0.968641541805909,0.967645061732403,0.967605896848747,0.966885390978543,0.968213149057651,0.967328541580334,0.969424607667065,0.969466822914775,0.968657518675111,0.969229961568428,0.967733853323472,1.0497140287011,0.975557097306106,0.977268775924876,0.974648912208391,0.976935059493726,0.974728014050176,0.975933939537382,0.975451299997865,0.975188607357124,1.08458806389019,1.13567278150199,1.06480525921629,1.05754619563485,1.09487672376546,0.959720735903634,0.969175337025547,0.960833404549879,0.94247031007296,0.942969595442673,0.942504350982267,0.940545352619018,0.936190033180307,0.933980424917663,0.932288527646538,0.930653855895962,0.940423859046294,0.941232990600517,0.941999637574144,0.940352955097543,0.943162863669955,0.940909701141008,0.941586623438083,0.93985708164694,0.938428370772013,0.927863255616937,0.928011439122327,0.926329258053477,0.923859933966265,0.923603609563433,0.921343320329828,0.921779575815217,0.920649821687522,0.920086330427089
1.04741781613057,1.04827360509031,1.04937833316106,1.0524960492467,1.05612762896211,1.07154865466641,1.08014293526145,1.08888878667645,1.09953822449417,1.06696102274043,1.06805468263776,1.06889166929308,1.06923615157337,1.12723094584358,1.10128529080007,1.09649421757407,1.08352099173157,1.08416135808936,1.08423756049417,1.0850212907262,1.08680835126334,1.08841815375766,1.0902876204439,1.09199134965756,1.09385457140808,1.10126716111093,1.10143504761851,1.10261652865281,1.105745217743,1.10856717299819,1.11198211415041,1.11374605465289,1.11584157873487,1.11779835268285,1.11841282664832,1.1200802625601,1.1204779370987,1.12104289343409,1.12179550504465,1.12077838438063,1.12099446403943,1.12041128918687,1.1200915962939,1.11983813444826,1.11897187706745,1.11873359456963,1.1180583913995,1.11805459206834,1.11690621872119,1.11679454898746,1.11548185760613,1.11555466629313,1.1149764823623,1.11461987276848,1.14871551164962,1.1707367103207,1.19031722255762,1.23743595096471,1.23880434366508,1.19505843573158,1.22070598356102,1.20957116492239,1.19932783836554,1.19029677386698,1.18246491223506,1.17079557710892,1.16355233196417,1.13083545951648,1.36982053106424,1.36850054655981,1.0987331844496,1.03289976848876,1.03377490263085,1.03246222640064,1.03217420465813,1.10924345898206,1.11001611485621,1.11260500883283,1.01150112041805,1.00959224923221,0.997609774620144,0.997454854058042,0.997824329167223,0.996384129791156,0.99690725635976,0.994953302512397,0.995096740428816,0.994130574973112,0.994771159708566,0.993492661957188,0.984770222396613,0.984387155438237,0.983928506981385,0.983383696314612,0.983825475802765,0.985477585448538,0.985380502455216,0.984764071736007,0.963319337143249,0.96275528188953,0.962022712911498,0.961627699083379,0.961270207304652,0.968197520697458,0.973286139139461,0.97274129394632,0.97282403158284,0.973176131748327,0.974713155114644,0.974889005712942,0.975301461293049,0.974502264936106,0.975648805383401,0.976891980449495,0.977572610221461,0.978329270167126,0.979120223590436,0.978879819615332,0.979031856116331,0.966905784019466,0.966795966091818,0.96635020480491,0.967021322712476,0.967393548834788,0.968733951636853,0.969229859273866,0.969632747420318,0.969540465616763,0.969053087533919,0.96899989088559,0.973312940359157,0.974570600874626,0.974720774543992,0.97546348609985,0.974216815749078,0.974704457624495,0.974308258151146,0.974436798726211,1.02379481437201,1.07654104807209,1.07858230301855,1.06415503215231,1.06406701977387,1.08181359871995,0.961486379435995,0.963771612849331,0.962821712918016,0.955465868019027,0.947094192516107,0.9393172204068,0.938396618927128,0.936186736359854,0.934927966868424,0.9325482723283,0.931742570955652,0.941562085568437,0.942158128592357,0.941848909743426,0.943106083165698,0.942530273520478,0.943398594081248,0.940620740026245,0.940473736112155,0.933297946399905,0.927725615986244,0.926963960828497,0.924835288940143,0.923787254457695,0.922186643419883,0.922080408574901,0.920840468636965,0.920523729720986,0.919966181816747
1.04678106936055,1.04794427633315,1.05012146512123,1.05311991867518,1.0560284779591,1.12419796235912,1.12193589280044,1.13203489686185,1.16534144156764,1.06570069011663,1.06647354347556,1.06784522681298,1.06828979430395,1.15877593454338,1.11338141625271,1.07693130695951,1.07717144840059,1.07819093457217,1.08044710414774,1.0834125878905,1.08432216580654,1.08657880221242,1.08757684387615,1.09075703145167,1.09420230895708,1.09886433877641,1.10007316257693,1.10161890286638,1.10246353557019,1.10970119813588,1.11149872486255,1.11324828465733,1.11696876329757,1.11676241544445,1.11862426246764,1.12017883906217,1.12055453596885,1.12269777327064,1.12220085774489,1.12394053752194,1.12210974341986,1.12168922820905,1.12162626917703,1.12019724862487,1.12011992305609,1.11848339568396,1.11867345396948,1.11762982626033,1.1182792143204,1.11578852441552,1.1158418236308,1.11515336459475,1.11464860191184,1.11454746600546,1.11266345409037,1.11254828385952,1.16424953669917,1.23551364333191,1.29579915597965,1.1103123420977,1.23637010424234,1.19054156445266,1.09829962455882,1.3472420233909,1.31781173096926,1.31700591746354,1.18772674671101,1.07063921267904,1.37764943525687,1.37296463532757,1.40542075810102,1.03396572024296,1.0337511151394,1.03305544745148,1.03183017745865,1.1063157874824,1.10926858368327,1.11663249990136,1.02460295451142,1.00725342970301,0.997855859846175,0.998323202342543,0.997143259930855,0.999170812698647,0.995891098737968,0.997388531273584,0.994738424568843,0.996621228958608,0.993162996449308,0.992531345132242,0.985188513291202,0.984423129150241,0.983395801621063,0.982447450208408,0.980757645906711,0.986763184286466,0.985414371264403,0.984008357994735,0.963764566213345,0.962452915725211,0.961437127234687,0.961275453548363,0.961046807255146,0.962665297033535,0.986910683429535,1.08339009809046,0.971628919122792,0.973983997304506,0.972942188009734,0.975312048189515,0.993645511921023,0.98570672761092,0.991888983398414,1.18317918625165,0.977696021032423,0.979578597038538,0.979415447765833,0.979848893283145,0.979711640472079,0.9661553960237,0.965467808399061,0.965831123980106,0.965514281930144,0.968731988710742,0.968089010154676,0.970573365213899,0.969721192380522,0.969284758148063,0.969109694267143,0.96886457473783,0.972664729651377,0.97343799631266,0.975014195602719,0.972431178425483,0.974578842696315,0.971641528924542,0.972877279897068,0.972826357996649,1.0615588945653,1.06401075116824,1.09356091276984,1.06391752281282,1.06440054194572,1.17978160063431,0.961147045774604,0.9616054167234,0.999478166235869,1.0493879206874,0.953127958613973,0.938420511177243,0.935957403453462,0.935936275702806,0.934499530341103,0.933176087859765,0.930970577676232,1.02769871599854,0.971005388670774,0.942228758740521,0.942180195691164,0.944894790912024,0.945247090452494,0.938060220928175,0.938362710610925,0.929204024953888,0.928505518707438,0.919339175329914,0.92222989698906,0.921659699140339,0.923079070114386,0.920115966820576,0.921622358526499,0.920016969762224,0.919310154471024
1.04466685672752,1.04660212033759,1.04881564213443,1.05070811161395,1.07998119346436,1.11684473110433,1.11630283417661,1.11515875048213,1.08827378502871,1.0657475626286,1.06638012499231,1.06753290373769,1.06978899804935,1.07211753537877,1.0733159917351,1.07511751996693,1.07602676722581,1.07710541959529,1.08219574735248,1.08261514169546,1.08347829665491,1.08465761654463,1.08591499425972,1.086858063922,1.09554531993059,1.09721514897136,1.09849011821954,1.09949202162332,1.1002726052973,1.11075976150699,1.11135353276088,1.11229769093048,1.11378266840697,1.11568171890147,1.11697679798193,1.11857774465067,1.11929227868261,1.11988815702903,1.12229187859242,1.12200762732565,1.12242000605689,1.1218048482821,1.12172745780236,1.12103424773086,1.12015254912003,1.11960534400647,1.11882903925769,1.11850894687505,1.11734791682953,1.11705735072479,1.11569795712268,1.11534683596714,1.11466962166309,1.11368390459574,1.1129846127743,1.11248655504591,1.11300661638141,1.11354549179656,1.11370922145133,1.11262935410809,1.19520360542605,1.17263376740499,1.15054768023687,1.28161449869526,1.28439371981232,1.28591466308809,1.25124191780009,1.24071149872043,1.22759259038723,1.13559200516929,1.10812740963858,1.03833844248939,1.03684976185756,1.03207106054613,1.03182118263448,1.10365919631365,1.10812126525489,1.11242659996228,1.02559703990333,1.02164282908351,1.01328675955079,0.998909912211527,0.999159561078819,0.996915180833413,0.996937985286921,0.994920712688532,0.994422016813642,0.99307824904589,0.992578379063136,0.98942717177715,0.986253593035108,0.98456420989321,0.983724187163995,0.982776801362749,0.98267041387489,0.984610440373087,0.984768079267552,0.983831106907785,0.969136302598616,0.961717642508863,0.961292651016049,0.961170407380739,0.960949377315373,0.963913948665001,0.965690271956694,0.967485789764669,0.969676715501676,0.970428338663158,0.972356547406124,0.97286370084212,0.973016983014641,0.973756194896998,0.976045070315166,0.977747628009267,0.979978730159357,0.979839965766592,0.980276156371934,0.979504166554637,0.979790257281815,0.965895180167038,0.965755035075683,0.965408377838777,0.966064096906107,0.967004403180359,0.968086804629926,0.968781664744038,0.969292916712818,0.969455348357984,0.969099410724258,0.969410489108198,0.971319578737398,0.972481010951958,0.972819643990291,0.974299008749992,0.972692370580326,0.972201711998099,0.971003619543419,1.03256891077483,1.05996300803076,1.06155292398715,1.06228821120598,1.06322728920271,1.06504982350227,1.06738653497539,1.06174936774262,1.0607626079308,1.0589582995096,1.05456428797517,0.944667933861696,0.938291615690066,0.935807424414988,0.93537113788859,0.934957709531532,0.934049255502432,0.973639837906273,0.998818888612467,0.984071656310307,0.968205542612914,0.94360682557287,0.944318589050688,0.939220804035191,0.935238119086915,0.93353865721676,0.929257624440722,0.929048804839525,0.921081916217653,0.921794864819246,0.922431390121981,0.921221957974489,0.921599343840907,0.920210964029273,0.919809607485342,0.919033994796936
1.04164096233575,1.04586388241474,1.04784246165054,1.04950808843314,1.10487044655216,1.11515881092076,1.11514670784645,1.11317341796875,1.0566991982988,1.06363842016734,1.0659869080171,1.06655688487817,1.1321046968666,1.0723037378894,1.07280656667515,1.07324506538584,1.07456478746132,1.07462339278422,1.08462766071588,1.08308805401125,1.08116815192177,1.08323204854281,1.08425597809258,1.08513449604889,1.09466569556843,1.09517600611371,1.0971733100208,1.09888767200368,1.10041510904926,1.10967691208215,1.11008209497536,1.11070479757321,1.1117185766952,1.11369981492578,1.11652390485399,1.11721187516317,1.1174042348075,1.11835291500837,1.12083775351041,1.12322288897183,1.12133536254937,1.12207623458386,1.12255744440811,1.12139180775155,1.12091993480346,1.11997595652055,1.11955610051507,1.11807084723304,1.11858401422577,1.11652073202623,1.11641834404136,1.11550852629809,1.11459156184901,1.11379987873727,1.1123878217873,1.11226618364097,1.11225580816007,1.11259645671997,1.11257740117938,1.1126190603884,1.34988072527678,1.15545723747734,1.10454526897213,1.28006704805195,1.28544971343396,1.28717119059908,1.28953933698645,1.43887748265346,1.20812767156423,1.06041809900145,1.04655736659895,1.04436857461881,1.04832077876711,1.03140120258031,1.03065811451676,1.09109336144081,1.10333525361627,1.11531110685674,1.03798661347724,1.03783219971712,1.09383259522266,1.00008120688068,1.00131935064764,0.997219451199012,0.995214632250476,0.995603264499189,0.992812302259943,0.993411274876927,0.989711600133424,0.989019115525822,0.984841734910084,0.984767376468214,0.982783370331764,0.983368330704094,0.981328619182177,0.983791058647275,0.984626045621054,0.983177920032399,1.32311974209075,0.960324774032517,0.960705871597108,0.961136253899255,0.960960596943383,1.21908367190788,0.96561216048084,0.967483659145201,0.96791473624847,0.969057250911065,0.967057934387833,0.970545500803973,0.969487021257402,0.974559246013661,0.976688155817552,0.979739330826847,0.981731996270413,0.982391555123768,0.980695562917474,0.978654745703678,0.9941404826539,0.965923418023509,0.965376802177299,0.965394822785064,0.96559026927949,0.966590508169264,0.966924246985272,0.967541200168296,0.968246771973161,1.20036697231586,0.967777461513698,0.969328433670768,0.96962379659252,0.971074432997146,0.973406287420186,0.973026547477904,0.975509594779536,0.970110165280847,0.969544522021863,1.0937514301863,1.09396223407199,1.09629360165638,1.06262760364094,1.06202315094765,1.17181726023129,1.06996323130924,1.05732344790116,1.05758362181351,1.05897324461141,1.0626940000784,0.940803013855444,0.940060760141338,0.934164080043831,0.934964799061959,0.93453978723035,0.934705295506935,1.06389020450571,1.06579744246609,1.00330919911478,0.981285365782461,0.941693408099524,1.16984865915301,0.930917424521915,0.931277390767535,0.930810509549821,0.930034307892597,0.92867757050708,0.922610226864417,0.922747900554795,0.9217129879591,0.922728034108887,0.91992372753026,0.921098385130082,0.919294792088294,0.918724297387468
1.04285778416432,1.04421807683362,1.04570736446392,1.07025971561737,1.0978929415178,1.08861556867848,1.07805975001576,1.06947585137979,1.06001909397323,1.06275349650278,1.06479931581454,1.06643636617405,1.06803067183637,1.07105726905017,1.07208985927692,1.07385545654188,1.07385258078045,1.0740272864033,1.0751777303158,1.07844119430934,1.08080521962255,1.08235299323017,1.08365557488167,1.08467422064066,1.09565791999847,1.0953990560033,1.09638407905178,1.09713157204973,1.09815825247619,1.10812327066842,1.10841329135384,1.10890589116688,1.11009598770174,1.11198549745804,1.11393378298876,1.11516758847272,1.11644593621341,1.11711530448154,1.11987214141124,1.1201601110337,1.12120946357371,1.12124067229316,1.12193627834524,1.12144853236123,1.12129377004591,1.12059031808438,1.12021431378165,1.11962782591862,1.1185134792953,1.11796165985557,1.11660322505633,1.11596787084761,1.1151315793334,1.11380552061703,1.11344859341711,1.11246117125442,1.11244220057137,1.11238206898877,1.11294906130374,1.1129297513306,1.11332748419898,1.11230120584302,1.11046683451321,1.17664745078526,1.28460669046973,1.28760369239411,1.29144713147553,1.29611727772401,1.24253308488092,1.15728017919124,1.13150028963578,1.10666899902768,1.08167778078536,1.03291341147695,1.03308208578755,1.09053041655401,1.09468898969456,1.09709585526868,1.03513982518202,1.02443111642237,1.01424018284131,0.999838033973537,0.99928692727043,0.996484417636404,0.994275056959785,0.992618591500714,0.991896855108214,0.990846373495362,0.990323107167407,0.98671188994769,0.98587651635849,0.984174979742465,0.983762178187249,0.982799733915505,0.983280748778717,0.984634017281982,0.986291270540174,0.98571971195704,1.03881970483313,0.960513327302312,0.960842675968437,0.961561333574044,0.961792224837235,0.972951555091583,0.965726242947114,0.966730980880294,0.967864808581992,0.967859685547613,0.969248911485325,0.968502726633411,0.970228456827803,0.972492874659963,0.974258771701775,0.982091631510553,0.983573470101992,0.982102027629128,0.982819051356616,0.9816731321065,0.974991008660423,0.965301893975052,0.965321019034966,0.965021735847608,0.965635195441094,0.966230949232272,0.966727590441291,0.966760780159506,0.967259234340193,0.966974944318575,0.96796498706195,0.968399538062331,0.969370372961063,0.970342602750273,0.970606178094508,0.972370104187402,0.971063899681186,0.9702197449923,0.967641554931223,1.04312257479381,1.08960526798674,1.08075594644088,1.0604697170999,1.06150501074164,1.08530758988193,1.05425128148497,1.02898140768704,1.00955492083558,0.990102743020147,0.970418587475578,0.939089793484785,0.937659858369419,0.935327457524335,0.935191194511749,0.934925753807751,0.979811446991605,1.06233989021603,1.063103960078,1.01598400982227,1.00014885754331,0.941184215641179,0.941215078212823,0.930438935639583,0.930435342106924,0.930150294987396,0.929079654423166,0.927533656363923,0.924982798791169,0.923424371887019,0.922915490382818,0.921222418483809,0.921069953609989,0.919242652340384,0.918489941571988,0.917381810335125
1.0422801639096,1.04357080651754,1.04449109640982,1.09109370134935,1.11814401740439,1.04654680468247,1.04802254094907,1.05145780794781,1.05961798929397,1.06109462198861,1.06506558200091,1.06576134113923,1.06855416855151,1.06899360516231,1.07421516367533,1.07422237287612,1.07400180382025,1.0738565689482,1.073953711658,1.07793970896833,1.08019733253467,1.08216911894214,1.08343115534643,1.08507756996724,1.13743043010326,1.09356743709038,1.09503904136471,1.0964796139136,1.09807425141053,1.10513183792159,1.10544126560268,1.10704539370208,1.10775677691531,1.1105716527962,1.11168255981879,1.1136688302876,1.11492512814579,1.11720154721214,1.11683220974199,1.12053984794768,1.11927633563401,1.1209871459972,1.12107291050242,1.1226535834836,1.12095731074394,1.12132084230931,1.12108496551777,1.12014514366862,1.11981702527224,1.11814914076901,1.11719693655788,1.11658362908997,1.11497263220882,1.11505480095371,1.11337146869141,1.11394609554144,1.11272009299737,1.11345352484512,1.11253055845346,1.11370347846205,1.11313985925984,1.11210414060539,1.10875336877694,1.10564841045535,1.28168956446309,1.11068099644253,1.2050633257603,1.40607684561916,1.3883573420178,1.21102549891573,1.20812603945362,1.2389590944666,1.45663486395352,1.03371075017145,1.03356538847954,1.09139192336325,1.09292458047434,1.09947512730046,1.03230915382958,1.01069358427217,1.0019347703409,1.0004702321857,0.999702083374948,0.998436434916012,1.00999675703197,1.01068264749093,0.990962861438561,0.992070377451458,0.989600465644511,0.986644998383793,0.983846361388346,0.984364422795247,0.982371909605839,0.983535864608877,0.982194096181047,1.10393549817652,0.987947801617319,0.986790300401267,1.11496765853402,0.960255711002202,0.960319034776506,0.961931321516272,0.961865690247303,0.987929690905154,0.966351879844234,0.967408246480694,0.967619907473935,0.969342409305683,0.967566401200495,0.969669071951538,0.966632184127253,0.967180292680279,0.966066950986958,0.986544031594818,0.985490837732192,0.989296926469714,0.985707545684795,1.01011375931518,0.96535710253378,0.965525440348419,0.963993428867894,0.965076227483772,0.965478115784752,0.966356879635256,0.966444294842906,0.965281420603328,0.966110180321901,0.965838713096042,0.96724922583265,0.96823913789572,0.968448327268678,0.969169838552225,0.970452928309162,0.968585155112996,0.972066451667787,0.968728763563705,0.966903653613726,1.01272371889102,1.09703274699584,1.05543085249564,1.05565303796373,1.06365219694752,1.105437356383,1.03939187745681,0.955343322316445,0.935684483143561,0.935826663722727,0.935774872040715,0.93632016261913,0.934345322283068,0.935024876037512,0.934776797024427,0.93446306021256,1.07408092913055,1.07441853949347,1.06265307300368,1.03209484102495,1.06819033130558,0.939095540067494,0.93923046474,0.929376665108732,0.929903696454664,0.929629421575225,0.928596153021983,0.927505167189919,0.925840011628679,0.924144425031609,0.92175438627525,0.923258304318881,0.918902024523973,0.919532036093358,0.917512026922851,0.915587125782669
1.04143655521569,1.04183347331093,1.04246548525214,1.07092591307943,1.06154171425484,1.04535530925945,1.04613055970791,1.05167796238732,1.05820640979443,1.06091982651882,1.0631649620242,1.06506473664642,1.06628502896319,1.06923487820613,1.07038790352954,1.0727420298041,1.0731949271824,1.07406690553049,1.07560045618312,1.07789899032639,1.08065432418464,1.08218586939231,1.08356170806162,1.08500356817454,1.09080344485111,1.09265157842136,1.09422087272378,1.09548433511026,1.09880982035062,1.10247748159604,1.1043247290168,1.10548458118886,1.10720616212298,1.10999574565307,1.11150944016832,1.11271206673217,1.1141298311237,1.11491985718009,1.11677335426779,1.11738943810948,1.11924933393392,1.11982120221366,1.12129711391133,1.12149356658506,1.12293613154963,1.12235485722905,1.12264485499995,1.12184159592291,1.12020506632328,1.11913683983033,1.11805534389807,1.11751838157922,1.11640839671677,1.11492203590349,1.11445791563508,1.11350336288907,1.1133338910722,1.11307638468034,1.11357426667636,1.1132160858095,1.11348209444837,1.11236608566578,1.11087145052207,1.11072949263578,1.19086418491117,1.15934675793646,1.17858722805734,1.19612990053697,1.21540343006821,1.2354220160093,1.24893331193292,1.26472619392261,1.28898344181513,1.09764729397576,1.04547122553441,1.05561307353406,1.06373465920187,1.07377928422899,1.03976147603817,1.03098905927216,1.00271140327686,1.00067675261753,0.998847405557536,0.995482996367368,0.992814836144441,0.991643495944157,0.990682367246395,0.989916854305883,0.989328400507428,0.985504999368342,0.985006357828343,0.983656977793882,0.983320119515701,0.981881486736468,0.979937845762906,0.977291603096846,0.975746111038196,0.974613763890376,0.973745433645998,0.970296969856868,0.968704278528767,0.967180975451633,0.965978127679785,0.966844344132026,0.967053227070974,0.967477533463079,0.967854776651118,0.967929851854401,0.968984557233651,0.967982983020096,0.968046538331116,0.966406622735086,0.965220241587995,0.962346305105431,0.960791936004681,0.96029554335794,0.961085088635796,0.962427103679779,0.964506924007082,0.964215589721579,0.965104292867356,0.964768911484364,0.965404601743216,0.965439022778537,0.965619460143083,0.965468362200157,0.966242521694613,0.966478968692449,0.967656968635425,0.967937123889907,0.968566096855493,0.969057835938273,0.969006839131415,0.970555089877083,0.969959600750261,0.969717417685864,0.966423464821077,0.999596379517221,1.01474755771735,1.02851401488726,1.04393585307953,1.02487885337829,1.0041519409842,0.98350027056576,0.942664818786932,0.936061667187331,0.935685584441318,0.935689808911823,0.934535948632379,0.934849790398608,0.934332238150863,0.934845958293571,0.93467154588825,0.980907107425235,1.02162377182891,1.00478991321638,0.987695959546578,0.969740755531286,0.939087621481921,0.939324950478016,0.929812642787535,0.930050842790885,0.929528470317425,0.928878959802959,0.926563592310359,0.925184237861363,0.923312284320936,0.922761357757659,0.920752740826654,0.920381219420641,0.918156570174811,0.917242503906723,0.91583661191067
1.03975057925263,1.04093763957331,1.04062500194128,1.08353789165887,1.04387528069814,1.04393818013449,1.04418907422771,1.19793869788935,1.13844094755866,1.06080801279621,1.06256982576961,1.06362188726327,1.06596565348794,1.06615549376635,1.07039116773175,1.07008436268681,1.07273634812438,1.07454191301844,1.07486211088457,1.07912346226106,1.08098043453969,1.08245399269856,1.08413988255819,1.08600705133057,1.08866944532144,1.09190981875763,1.09313800554161,1.09428786292709,1.09911801816752,1.10129819265146,1.10319636143317,1.10434306164188,1.10428541824825,1.10185434857974,1.11041553392351,1.11265443474991,1.11281224635598,1.11454831760781,1.11374411949879,1.11736012897785,1.11703792180131,1.11954179932293,1.11943759925437,1.12308349317956,1.12260675155909,1.12483138687764,1.12381962940767,1.12372654516164,1.25654356218432,1.23845340859044,1.11804537839588,1.11819950067332,1.11638991795972,1.11541334892828,1.11384925211678,1.11421301190759,1.11335970336884,1.11405176110318,1.1130772896708,1.11398024962271,1.11295925082316,1.11247254593273,1.11083095180497,1.11091105184649,1.37428338432841,1.11136086048143,1.15477869906488,1.11505987163536,1.11536861146356,1.31142754597758,1.3127469122717,1.28237044329438,1.35721052317425,1.35775013971348,1.03193891555225,1.03137134184929,1.05765529405595,1.08388494200087,1.05016780140061,1.04944113711358,1.00542199645887,1.00166719237691,1.01502764232866,0.997007224311971,0.989542133485436,0.990692394603142,0.989877414658288,0.990623207407346,0.988687345216082,0.985571511319981,0.98354833437799,0.983914324520471,0.982318079849307,0.982843846630356,0.977327885654693,0.97689149111354,0.975589693545605,0.973424957583376,0.972864313493231,0.972069601426023,1.06566269548702,0.9679265891082,0.966616775516845,0.966161127153097,0.967913246210245,0.967601972290855,0.967679315103515,0.968752096717707,0.967965108862679,0.970107672647948,0.967502402614052,0.967040093888961,0.964763688705743,0.964838963339374,0.963178428790404,0.963344994949477,0.962463167438247,0.96427470026366,0.962891997934405,0.966366259359914,0.963947113564387,0.965253831294434,0.964951664949837,0.965278485596512,0.964265158490744,0.965091498383271,0.966074212979409,0.96723838210892,0.967181549219653,0.968773165100339,0.968361266864203,0.968598107739523,0.96983283124913,0.968709930259406,0.971691138816434,0.969552806989628,0.968098626255991,0.987406659678391,0.996871225481568,1.0019989533296,1.06723879985019,1.0035855075902,0.956381950990712,0.955849680157098,0.93750666563864,0.936251770625712,0.935679028579708,0.934947929402098,0.934567687027707,0.932242558574299,0.934707620846398,0.934066836782285,0.93484653712491,0.934604525331856,1.06319393615706,0.935879738489562,0.937192652301007,0.937465584815767,0.938413806749352,0.937473796854649,0.931251787323089,0.930528306432378,0.930953085148978,0.928681581764103,0.927083546280483,0.922759049023079,0.92300477063005,0.921057690719228,0.922167950332392,0.918359589208904,0.918947564406746,0.916791316389964,0.915416400616116
1.03950469501806,1.04005827517354,1.04134371679596,1.04263533560479,1.04478720774307,1.04495522986074,1.04431197679402,1.08300448967081,1.09815573456399,1.06071408082872,1.06133401282938,1.06293625164287,1.06392011552763,1.06733735975823,1.06860860855093,1.07102351028396,1.07239533247758,1.07393640128605,1.07677480487301,1.07859316460875,1.08077393091426,1.08212215101207,1.08360343622478,1.08670544116333,1.0887098893362,1.09106747773071,1.09283076216687,1.09465793936921,1.09740987065417,1.09915367008333,1.10280318878975,1.10359439852947,1.10415990455254,1.10396567245983,1.10900974531933,1.11054822354323,1.11189790186739,1.11235558697806,1.11436852121627,1.11510373961464,1.11760779084088,1.11840601586162,1.11960914781217,1.12204457116703,1.12435720339473,1.12452683687585,1.12507727015058,1.12461890248421,1.16452270093633,1.19209890657005,1.11902349302906,1.1190195535407,1.1177570689589,1.11567532227839,1.11468591353399,1.11377494840413,1.11341858336962,1.11279366738673,1.11279840067703,1.11240557554938,1.11253837708467,1.11215306767547,1.11143034963369,1.11116928204749,1.22142985213943,1.19751067335794,1.1747900126655,1.12455429983392,1.13116953664853,1.2347788848163,1.2485108033498,1.26370500298664,1.29723642956582,1.29733718146839,1.09039729681645,1.0354155287896,1.03739298577799,1.04040244247949,1.04769117163838,1.04676353688653,1.00400513892126,1.0017950636067,1.00089390378621,0.995643055725689,0.989380767130414,0.989513403662912,0.988893592091435,0.988313406607224,0.987803233477323,0.985550738302567,0.984755416272444,0.983516386794703,0.982868179849048,0.980697548605453,0.978490739810032,0.976806515961464,0.976152518442949,0.9753621182703,0.973721323553599,0.973565389725535,0.972128727726498,0.970379977868506,0.968712233272655,0.968266814050483,0.967492971092053,0.96753622531549,0.967535904289703,0.967676984547867,0.968932502735495,0.968410583753732,0.968385595477278,0.966849270217352,0.966482000138595,0.964267024618449,0.964189859645704,0.962899725578027,0.963365354861844,0.962978941510231,0.964746064318847,0.96399859695662,0.96528622857347,0.96454475990286,0.965061487805823,0.96442275150491,0.964965660523178,0.965376725253205,0.966631748721336,0.967386190197107,0.968293933779308,0.968355604316875,0.96851497914299,0.968731080559223,0.968785881761443,0.970319188692645,0.969601575251662,0.96927698459788,0.969956067574699,0.980998314436376,0.990446634203944,0.990961114866223,0.977251464641174,0.971196609742468,0.956471892455116,0.946654982061722,0.937005859197626,0.936089579831594,0.935132809929626,0.934180425863739,0.932036172654338,0.932631216453694,0.932499235935472,0.933457445553263,0.933456601659163,0.934945464363396,0.935289333586064,0.936777105028236,0.937319771683929,0.937925965263276,0.937364126880638,0.936533260064729,0.932974098127914,0.931397317916891,0.92969409497631,0.928725703305439,0.925999320059902,0.92309679893006,0.921578148375037,0.921217791872178,0.919251971812319,0.919555098889304,0.917635192954094,0.916919809663012,0.915458196423559
1.03835667951741,1.03982549294022,1.04014668544236,1.042203600604,1.04587336166495,1.04751887294819,1.04612774138186,1.04842921791912,1.12212909063392,1.05947155849747,1.05993459407791,1.06123845121225,1.06266155839887,1.06633439823162,1.06944152579294,1.07092741789894,1.07206755267782,1.07372157067544,1.07741286354553,1.07960225058306,1.08004870712942,1.08152083271504,1.08283580184801,1.08649734098085,1.08943092781019,1.09057244956124,1.09251768551262,1.09464660708509,1.09602099120179,1.0970699184476,1.10380147247583,1.10403079805372,1.10362903232385,1.10522710124524,1.10705408003142,1.11045202604392,1.11048506937622,1.11187016033467,1.11162348563061,1.11576365302423,1.11609487685008,1.11814462858656,1.11749570533721,1.21688523415548,1.12479042898002,1.12594424325229,1.12523550512826,1.12456328203307,1.12285079524541,1.241177393812,1.11864427980819,1.16655458748781,1.29331092474799,1.11471414471272,1.11359011702944,1.11331257120888,1.11291009148846,1.11198891984841,1.11142412917605,1.11140127825956,1.11127535417142,1.11169979339828,1.11103359658068,1.11113077280768,1.25349391241158,1.31587434184869,1.20052376712536,1.08850657237894,1.14429801008516,1.2202820113754,1.19396437500057,1.24028688606705,1.2976490188369,1.29794955164759,1.13980474701407,1.02491873593419,1.03439790036996,1.02470703895243,1.07387122563616,1.05728918599913,0.999419304437805,1.00042800025504,0.998823288106433,0.994508594796818,0.990594661025201,0.989294689448929,0.988431490931586,0.987549215621297,0.986777627869225,0.986670345151897,0.984269797624887,0.984109082355063,0.981969256359632,0.981422773159644,0.976593381268121,0.977344602330257,0.976694743007678,0.975655429367336,0.976222300786742,0.973146586229289,0.973807782539128,0.971411215907296,0.971638190198349,0.967847014374512,0.968791743157071,0.966324648238232,0.967327392187256,0.967581166007706,0.968511829704333,0.970036175165829,0.967871376736136,0.967800311679649,0.966115112068011,0.966502802759932,0.961747365625575,0.964373753596219,0.962781751069654,0.964357814198596,0.962576577592453,0.966827881189546,0.963596950300727,0.964883071444055,0.963913026851756,0.965109470038253,0.963324797823905,0.966593012077496,0.966673868033074,0.969031218011705,0.968191027891677,0.969713388664908,0.967959379847424,0.968390873623507,0.969735405904318,0.969632694830616,0.97211242183463,0.966553355531098,0.966992576363964,0.966762987598144,0.987811726249557,0.990258975243795,0.955364297014918,0.956505258385617,0.956105058843038,0.940315441173455,0.937116291022592,0.935768516845472,0.934924007586982,0.928248699127228,0.929328894640947,0.93023162287146,0.931883557179902,0.931903029179146,0.932501777686388,0.933239489894004,0.936623187557296,0.935742496062911,0.938075358299798,0.937390427421526,0.938341909834972,0.935701108819331,0.93421611687314,0.93098154137883,0.930149645457011,0.927329195484952,0.927098436849752,0.920716405942764,0.920974757470316,0.918359974868448,0.920407849204637,0.91684070020117,0.919238215730307,0.916861736476291,0.915875488228063
1.03732383086591,1.03853487445287,1.04035738135918,1.04113638891919,1.04759977805592,1.06678800176812,1.08006733716889,1.09086811338313,1.10274526236361,1.0589021572339,1.05960723259611,1.06067660484391,1.06115008472396,1.06731208524334,1.06838294525284,1.07023430180435,1.07170765479733,1.07326736153414,1.07638395550452,1.07809631841336,1.07999205466008,1.08134401923096,1.08281029299195,1.08583555655756,1.08716246910681,1.09002938632518,1.09165323557115,1.09336077399728,1.09441628468787,1.09545425261997,1.10398198143998,1.1042468299515,1.10461237081332,1.10515737684292,1.10729701171117,1.10883076213901,1.11017796109862,1.11051353668696,1.11229849333166,1.11438127176986,1.11699364965481,1.11811045230753,1.11946369112817,1.12246680164427,1.12456227982854,1.12489397088782,1.1254781427735,1.12469611508979,1.12371641495363,1.20006609682788,1.1863795135205,1.19465553616554,1.19977785534352,1.1151266908943,1.11489000473868,1.11383650661773,1.12470253929155,1.12216153292597,1.11901504760768,1.1170889239052,1.11742979480469,1.11962446664966,1.1224024148361,1.12447909648625,1.24618736270918,1.27711772265485,1.26767117740422,1.25690172500329,1.24630691230473,1.24025827786634,1.24202373806689,1.24297845104981,1.17745245000039,1.15286477066048,1.14272879094604,1.10477779738117,1.08348642874005,1.07723574365292,1.06977710198868,1.05007908932467,1.00058081194887,1.001067569563,1.00102254496883,0.99100221395158,0.989300069944712,0.988634464277698,0.987936291075981,0.987458112485095,0.987129521798152,0.986707336489211,0.985782426639869,0.984573060117555,0.983629160730386,0.979669083107766,0.978661942499054,0.9773462021912,0.977412890424594,0.977501454772688,0.976095207764708,0.975728544972363,0.973295134398678,0.972559907945347,0.970697247168516,0.969852430697844,0.967960090920559,0.968039240681787,0.967750239067374,0.967708516344109,0.968478118705824,0.967509436040345,0.967678370138339,0.966816432195004,0.967224992612606,0.965030867105177,0.96555293006305,0.963779667370525,0.964308833971014,0.963252661940042,0.964788996583988,0.963458906460612,0.964405186800364,0.963743711279149,0.964462114329179,0.96378632973303,0.964572601482753,0.964959785599811,0.966420442234348,0.968807635044762,0.969419843601921,0.968744525408393,0.968529420466258,0.968225793064837,0.968423452604407,0.969710197928559,0.968829658952035,0.968717160763281,0.968133659193614,0.968462331828788,0.990113312712169,0.991015189573512,0.955758022484581,0.956335199034158,0.955958662027878,0.944739026859464,0.935830031828251,0.934736312204539,0.933474524657934,0.930889461462961,0.930627436430337,0.931171630317154,0.931418161240601,0.931975954939321,0.93191022718665,0.933590746373627,0.935181100170578,0.937596452676513,0.938152619534537,0.938581377074538,0.93825202483731,0.938108010723755,0.930767137050315,0.930099300028907,0.928522843092645,0.927646220688863,0.924479950687928,0.922496147338319,0.92099004039618,0.920750173536899,0.918459755437737,0.919184043944353,0.917581527139574,0.917030201322476,0.915211102649659
1.03424458950303,1.03774777551582,1.03989412245303,1.04204125794033,1.04823263307036,1.12809735240762,1.09551799151052,1.13935130990837,1.13935821124969,1.0572503958683,1.0589600884728,1.05956538091737,1.0593583711087,1.06735831681506,1.06782581554356,1.0696039637125,1.07100891119155,1.07296911240831,1.07427542460261,1.07844284667704,1.07929076718754,1.08093439408541,1.08216965887708,1.08552724604942,1.0846409399815,1.0897998258048,1.09130974673662,1.09134456934348,1.09464025792707,1.09473258167865,1.10347668360259,1.10427232561207,1.10409527080546,1.10579454941769,1.10574502396357,1.10959374866448,1.10945931043661,1.11058954430622,1.1100213104435,1.11518022472463,1.11612433016348,1.11881242755807,1.11985419861391,1.1226926626433,1.12309701015258,1.12511141960165,1.12505632209648,1.12468158365605,1.12312407622901,1.27968025392865,1.17617010565564,1.1982258387666,1.20734793989504,1.1149417522457,1.24927221910043,1.11136885253956,1.14925935432037,1.20019665265149,1.26653994797407,1.19584229638534,1.20615509771837,1.20647962836301,1.3799393650914,1.10587480847919,1.23564259389965,1.48133730997139,1.28319525611498,1.302178759939,1.40135613238254,1.39484951665887,1.40985539916413,1.245291528247,1.05192311057793,1.04466224677052,1.14547639884116,1.14633238507813,1.09230279736044,1.10566911532072,1.06673390819501,1.03999088500299,1.00095897872113,1.0012228337076,1.00110024075536,0.990030724870037,0.988645738020489,0.987216710393109,0.987637780919555,0.986895494066478,0.987905817500757,0.987301081765401,0.987205321325081,0.985646849466318,0.985343485625957,0.979209498167999,0.977154442868292,0.978525931155408,0.978063800518475,0.978053472564607,0.979405056351792,0.975405760198029,0.974697982039665,0.97251615460973,0.972200945015249,0.968400231870024,0.969286708679394,0.967656607044278,0.968301035712964,0.968664322167381,0.967262861760833,0.967357379946041,0.965395500317687,0.967183198385659,0.965411008680383,0.96865845612274,0.963938881975314,0.967099661604767,0.964420906232753,0.965439368936869,0.962660973971494,0.965024940370908,0.961648256255812,0.963687310477566,0.963159680517295,0.964904319140375,0.962635679955955,0.964786262116369,0.96462208623412,0.971915257299099,0.969682722940021,0.969954066487834,0.96825543598003,0.96761352386399,0.969220302587026,0.967533164468321,0.969683446275387,0.968858312313729,0.969470155227724,0.970002777244391,1.06701174998108,1.1421383505739,0.954140061867562,0.955074917046449,0.953694850764408,1.02010506935261,0.935617814237836,0.93416691603292,0.933181723529382,0.932226711599835,0.931784779330482,0.931327336575495,0.932159323172023,0.932235099794908,1.05794817755588,0.944304591656298,0.937560739153467,0.937654189722854,0.93875626271311,0.938357848679075,0.978097997844778,1.06590221136981,0.929088287715632,0.928885888025988,0.928471131883238,0.927512891539495,0.922492705960636,0.922044260862093,0.922040614468544,0.920263385073737,0.920327492147475,0.917098749252735,0.919716910331963,0.916783194307268,0.916166767083059
1.03444321777402,1.03667219915604,1.03873676770442,1.04130166652857,1.04674926085123,1.06820215603587,1.08415102034654,1.09733219541696,1.10949440480061,1.09067522968242,1.05884644117474,1.05906716824628,1.05871134165161,1.06901822470207,1.06820038812,1.06902040243356,1.07046568888918,1.07198397667505,1.07419854330666,1.07660445468245,1.07889668321957,1.08035726023545,1.08189057563915,1.08501046998747,1.08626480693578,1.08939956419198,1.09076897302351,1.09223191873603,1.09310648795589,1.09417306602547,1.10424677451482,1.10440212527795,1.10368541427595,1.10386725560094,1.10584677137654,1.10833014795909,1.10963025127208,1.11011770120105,1.11099094041722,1.1153763164622,1.11738970533742,1.11835815167254,1.11948413877427,1.12135593963734,1.12286737952594,1.12288111173455,1.16191603760853,1.18706768041956,1.21159426663246,1.23550524317736,1.22793216678266,1.21898664674109,1.2110616391462,1.1587144180955,1.17605303018638,1.15037662483229,1.15809379145614,1.2002689659577,1.20010084873915,1.19958487844359,1.20258409065608,1.20630243592006,1.25802548929725,1.24837146993598,1.24693721300921,1.25666843046723,1.27265302514106,1.28571167512375,1.30567538838977,1.32702261300952,1.35082157122975,1.24674112388632,1.05018824161244,1.04766600261269,1.11824767733659,1.10389688656512,1.08308591884982,1.07918691435252,1.06569103754184,1.05754992282376,1.04878226499773,1.03539209138346,1.02024400665442,1.00907440579629,0.988233805583088,0.987847871466354,0.98773501586596,0.987606613587898,0.987102907751937,0.987177458060068,0.986037662514114,0.985117809254659,0.984442179997485,0.979607953842823,0.979235784567983,0.978191368474705,0.978190545588203,0.97857717371078,0.977477805256284,0.976934694972382,0.97457186519628,0.973983621334838,0.97250415515865,0.970681625993199,0.9689059786806,0.969148270792918,0.968682352594902,0.968465446611402,0.968713378569492,0.967317594053078,0.96772937994573,0.967079599122472,0.967875970733585,0.96641262070144,0.967551292465559,0.965879856677542,0.966185708172074,0.964926096532326,0.964898534755034,0.962691210644046,0.963184359719842,0.962569399076966,0.962997837459597,0.962349794718924,0.962754689761436,0.963017639686315,0.964769039966807,0.968389327288376,0.968976142946267,0.96798125482204,0.967131375861959,0.966391343496005,0.966571548930232,0.967747830534307,0.967443286304566,0.968590644569593,0.969383644015106,0.972057992045862,0.975048347249058,0.962879154125285,0.954306755095634,0.954585295362988,0.954081857950513,0.940905532946884,0.935547664174886,0.934433615941947,0.933702941006248,0.932778525205217,0.932571872518249,0.931945481801881,0.932163252537126,0.932290439911942,0.985748925071358,0.942022628261882,0.939561786354301,0.939322663779229,0.938007831597258,0.964391136518903,0.99868185894747,1.01976740048654,0.928720094917127,0.928780996886626,0.928078732158474,0.926612691765894,0.922781643921138,0.922270706877564,0.92130676866582,0.921434748106736,0.919273420248278,0.919973646928226,0.918351615617879,0.917905965267933,0.916157939453158
1.03485854834695,1.03629610667327,1.03751373514542,1.0422169412487,1.04512749833281,1.04523806284235,1.04607191323334,1.04593397566845,1.15283981574137,1.12059750422205,1.05804801860973,1.0589797391204,1.05861594941781,1.1166055835262,1.06587949819491,1.06804261486107,1.06957564529861,1.07125351405666,1.07239215207503,1.07606490891731,1.07889029548502,1.0796247789799,1.08041009794475,1.08557162083992,1.08710297315259,1.08971363771756,1.0909284427102,1.09188913229252,1.09329166396595,1.09366423961642,1.19124287294622,1.11310682265174,1.1005349254055,1.10143969802924,1.10409028806064,1.1094668376061,1.109685307177,1.11116333858673,1.10974684272366,1.11657272409,1.11763480567212,1.11824399101406,1.11673675538356,1.12158884599845,1.12219034776525,1.1213501508491,1.18222692460338,1.30004609520807,1.30200468233958,1.23863708270037,1.25559140007616,1.25591305576876,1.31171758620077,1.11305934119396,1.20179568491329,1.11097116767126,1.16867166814167,1.23967867369992,1.10796769536575,1.10730815436346,1.14521379004314,1.20924612105655,1.27289333246405,1.25151554167945,1.09811968481267,1.22970695282799,1.26030739095218,1.23572596587545,1.27864123428246,1.28023566513488,1.46136150512118,1.24814694352727,1.05041488214232,1.04646521923871,1.40815931151311,1.03148725810962,1.07914906533126,1.06662247081436,1.06558662794707,1.08119186112869,1.05599648530901,1.04808461845341,1.0738983552669,1.08544614144611,0.988083390058046,0.987709331048718,0.988111270634824,0.987153587799169,0.987763391313796,0.986376876068054,0.985758611444308,0.984996612582032,0.983677098676136,0.980801754030979,0.977952190794399,0.97924804682325,0.977976879737467,0.97808950935721,0.97932217827225,0.975488056401598,0.976557368469924,0.974742482334967,0.974782791071652,0.970322995696607,0.97042054600687,0.968622365105613,0.969069946199784,0.969877495678441,0.968151022698755,0.969716312556332,0.967438137403331,0.968268491016617,0.966815935444997,0.969507176237756,0.965968721180836,0.968781671476137,0.966311582870462,0.968389394784841,0.962714865355571,0.964025822427665,0.96125811264719,0.962493614605042,0.961325946408001,0.961824694115426,0.960412599042019,0.961774816925105,0.962716328762854,0.963235205230644,0.993600571993195,1.10427525673826,0.983525074479094,0.964961776867284,0.966409473742546,0.965687867342207,0.967853710749328,0.966004720322251,0.967734832476675,1.14886357151647,0.975083312190793,0.962933202115616,0.953129309646338,0.95367525393822,0.952726983216893,0.936053501389896,0.936004404434139,0.935452481345467,0.934137878528565,0.933904732896,0.933056846649212,0.933167206867605,0.932179793243802,0.93207656930944,1.03500427233306,0.941044575863241,0.939758362239988,0.938956899506258,0.938666806979296,0.979445338406311,1.08716718656373,1.08120143746748,0.927936325774378,0.928428937427824,0.928822743231974,0.919058982004826,0.920525409734315,0.921154366025384,0.92156766878786,0.920430533162405,0.92170861891441,0.918717132952397,0.920702593935098,0.917982974295093,0.918495165904341
1.03501554528866,1.03579770082573,1.03706351138163,1.04289623376937,1.04430768826813,1.04546570654243,1.04608632792235,1.04613316429009,1.12992800275559,1.11959799436673,1.05913379222669,1.05970114450379,1.06026971532262,1.06272892422995,1.06472819197548,1.06750859048956,1.0691037889563,1.07064494205151,1.07279870434827,1.07497139941109,1.07802952265704,1.07941201078612,1.0805420888467,1.08516141240955,1.08679301191143,1.08912671369844,1.09028675013066,1.09125818282987,1.09159513561173,1.12959758425034,1.15307724425685,1.11486336254523,1.10183318535052,1.10251888296459,1.10515495354602,1.10763444185955,1.10976570519101,1.11090989829606,1.11272817768388,1.11596114825368,1.11825637537853,1.11894752794106,1.11944791039684,1.12086507759251,1.12116196195199,1.16769148837889,1.2013406551244,1.27163187455737,1.26911500671851,1.26531439570856,1.26088910252331,1.25812786709665,1.27209075839144,1.23579250748354,1.20971410679757,1.15644938506996,1.18027987618501,1.19367154939446,1.18575758243843,1.17179219775705,1.15919380026282,1.21070536770886,1.27595082008065,1.27765337188872,1.27760800690548,1.27648535248884,1.27556636584554,1.27585418721493,1.27750072431545,1.27869071657921,1.30677516093831,1.24918551998601,1.13452786778633,1.10786031993487,1.15351588366656,1.12646800396007,1.08852450417333,1.08273794505549,1.06347908832882,1.06058221428643,1.05943065595603,1.04067148318198,1.03146314069117,1.01907890290494,0.989734760790907,0.989184941268018,0.9886932701758,0.988163985085575,0.986638001043403,0.986598410151055,0.985011763035674,0.98440941250058,0.98356680428509,0.980164179948016,0.978242139159002,0.976935681428411,0.976721879374947,0.976654184246401,0.976165356975525,0.976582481975125,0.975272644713879,0.975042488957272,0.974225914816172,0.971189415527401,0.969683601871991,0.969648937010748,0.968990084120323,0.968542051284428,0.96892971110762,0.967562461459701,0.9680932382404,0.967332721887562,0.968372285346014,0.966830298010217,0.968151571933083,0.966502730815534,0.966741856061783,0.965476440024076,0.964765093035252,0.962536575967743,0.962797198504014,0.962168478381669,0.962216551585955,0.961700830313109,0.961579593544329,0.961714392309891,0.962207952352014,0.962378156563144,0.975736335988835,0.991483250780929,0.98932544579831,0.963751374833642,0.963887328695743,0.964674567533625,0.964290235954981,0.964264673740598,0.962923387975362,0.961333233533359,0.958556351808357,0.956655032980673,0.953729684087281,0.952899569018058,0.951534680155947,0.940621376003086,0.936774582571361,0.935580540340213,0.934837095508043,0.934043600658012,0.933548229061319,0.932704645691314,0.932372723286438,0.93145529295159,0.944671564480964,0.943076783375954,0.942318949974218,0.939305849249658,0.939429710674758,0.964604542915235,1.08585790409046,1.08356315287935,0.927736294433294,0.927625643517817,0.927095566681992,0.922815921390238,0.922516841189476,0.921912670376692,0.921385721234326,0.921062614637215,0.919417567638457,0.919857145662587,0.918432509677296,0.918285197616037,0.91713349871436
1.03439380930747,1.03530860617941,1.03639306347299,1.04263815931633,1.04502409404659,1.04477901037667,1.04576790522198,1.04544817315692,1.13339504189831,1.1216495739364,1.05903828397226,1.05970233364938,1.05984433822178,1.06246253850157,1.06324490949396,1.06757504918087,1.06876361032362,1.07005844542455,1.07209277539207,1.0745551333156,1.07777949228354,1.07918063402706,1.08026086806658,1.08466917005871,1.08624050706723,1.08963988765276,1.08986831177513,1.09033264716493,1.09091638568539,1.18236530512577,1.2047622163504,1.11353845412659,1.10105207506124,1.10374820240224,1.10393585555604,1.10805333410459,1.10926181953691,1.1130574515188,1.11217585475949,1.11781378125276,1.11760382707685,1.11977922066466,1.12113724375405,1.120613079199,1.12068990102787,1.20561833176803,1.21471635062504,1.27253921749114,1.18379407631648,1.29083142087406,1.25932074146595,1.25841946236451,1.28900214380336,1.28897266954824,1.23991816793798,1.10895209710976,1.1905589992644,1.21625429245024,1.20479006311615,1.20996726849195,1.102886297141,1.21043225695615,1.29590884575612,1.37702143862003,1.30785567218327,1.30680494919243,1.30232519164145,1.29923735760405,1.37476963258337,1.23897975983478,1.33618372617397,1.33481208973525,1.33543187619404,1.05406103195483,1.38977237758395,1.16381249231598,1.09595111502737,1.09462449903441,1.06384070359823,1.01599837996255,1.13930036729353,1.03321532390415,1.00185072175134,0.994785114739752,0.991884211482804,0.990141718343748,0.98942511148512,0.987503687756643,0.987523418949785,0.98469190240583,0.985513025035518,0.984226139840164,0.983275199649141,0.982224056444617,0.99004754592748,0.991013636183337,0.9759344764092,0.974020197233098,0.976534665472598,0.974618789550344,0.976637077571582,0.974904695436958,0.975694334984084,0.969919347160512,0.97031076521046,0.96905113002877,0.968643630166075,0.969080599994661,0.966865625144802,0.968678956800413,0.965727674026421,0.967549854367637,0.966652063388673,0.969207305557715,0.965379250300901,0.968277003929488,0.965619081422597,0.966702971130264,0.962497974283314,0.964079076876335,0.961456836362631,0.962555867060523,0.96278971436135,0.962002857670648,0.962176499946899,0.961633755560615,0.961677997702955,0.961623146454147,0.960394144673792,0.989387040934395,1.05589963328289,0.962461729920878,0.963083990564501,0.962047809943829,0.963049986963804,0.962298505487919,0.96274174062022,0.962198463036961,0.955815550038613,0.956434218419854,0.954153004591301,0.952598943276588,0.948511735850062,0.946753840864029,0.937456544338792,0.936190279586775,0.934885129178262,0.935109642601658,0.932457792107214,0.932836459465609,0.932219483107074,0.931898758832375,0.944955478871536,1.02169330172118,0.944659465853207,1.09065493557226,0.942080876944008,0.941562360614028,1.08678252835618,1.08697553421386,0.926852766719607,0.927100386594986,0.92580840713546,0.924612612243194,0.923084342825016,0.923058574596491,0.921736860777372,0.920206983751376,0.919517367698263,0.918129770289991,0.918686797553879,0.917350743429316,0.918636653505143
1.03349305775047,1.03370894486906,1.03490602746218,1.0425867233058,1.04357679210607,1.04491722398723,1.04538713492146,1.04548329168074,1.11639328227112,1.11557465746054,1.05853109420118,1.05918636905551,1.06022670494454,1.06169171420324,1.06381565694925,1.06630096073359,1.06802335064019,1.06971408842313,1.07168586931289,1.07483383305924,1.07755866715983,1.07922900594687,1.08110967402909,1.08410279991116,1.08608903618998,1.0877451728085,1.08922710835568,1.08996519531297,1.09008725364979,1.18058991845535,1.18215182110701,1.11124825182023,1.10231794861544,1.10320343087501,1.10587097141463,1.10701288898108,1.10963633765577,1.11106715515269,1.11303165152419,1.11656974406521,1.11796400422759,1.1511649193153,1.16891609476138,1.18620400265062,1.20357946031114,1.21402815194689,1.22895912727927,1.24401200643863,1.19505316153692,1.19525027379161,1.19566072216907,1.19677819609953,1.19944739554796,1.2039091468939,1.20929722267136,1.20675285298126,1.20680031130053,1.20680055709311,1.20633280312701,1.20828275978506,1.2084485287139,1.20931856854432,1.22388918235714,1.24947544752466,1.2753702826814,1.30399618788403,1.30950532596629,1.31471707456441,1.36355236864154,1.36491735865287,1.36498829304734,1.36292161695618,1.35969260024004,1.35781820062478,1.35685496944792,1.13416138199731,1.09702180793135,1.09504770433721,1.08687477535178,1.07199903784646,1.05305914594321,1.02568476719242,1.00407171850344,0.995157157249699,0.992638895168502,0.991118064743732,0.989695758487286,0.987717450405116,0.985460693960684,0.985759857365819,0.984297374574822,0.984222171444386,0.983776606898056,0.983028460089185,0.983910317851003,0.980244462287979,0.974672137233713,0.974227919875624,0.974190987562603,0.974968331951459,0.973962906131058,0.973935157444159,0.972886531091635,0.970880462578829,0.969081089758238,0.968550975847074,0.96775566694277,0.967072349871555,0.967680652970896,0.966748320455042,0.966930867401532,0.965856357256294,0.966546372655323,0.965231919666416,0.966756079482388,0.965250116769096,0.965400365833237,0.963996976599805,0.963675197592811,0.961966263631798,0.962457583330559,0.962314338503891,0.962695584006686,0.962535945206095,0.961658399179176,0.961273026859787,0.960852545530858,0.960760047003903,0.960598469238553,0.960915722803342,0.96113015542251,0.961599839532805,0.961651426473818,0.962055560195165,0.9618684293738,0.962330502072019,0.962753335109816,0.962994809749094,0.955057525991724,0.953939319274651,0.953763154778376,0.952054450364409,0.950520375452176,0.950139450287255,0.940553887655297,0.934551377587293,0.934016988580918,0.93303818610791,0.932317059943409,0.932030674145989,0.9326366016877,0.933796642509007,0.944592152657204,0.983703646978348,0.946519299883894,0.946542736364283,0.945398264412134,0.953559202731383,1.00568515569491,1.03504410172423,0.926489135198346,0.926410138012135,0.925963795870699,0.924271608533187,0.924479526742501,0.923099050736193,0.922286034110131,0.921060122855261,0.919433042313755,0.918654119705192,0.917391972518913,0.917062515001823,0.915994485481711
1.0307851826844,1.03213387355403,1.03407644686181,1.04117505286055,1.0437920129708,1.04411536423391,1.04517664981493,1.04501577687094,1.11932491282724,1.11686064675256,1.05680019392936,1.05818379277943,1.05828626696017,1.06182427724741,1.06313450823318,1.06603977112227,1.06728174192503,1.06944719827359,1.07036634100204,1.07612872842639,1.07751715750424,1.07957283194344,1.08098150423557,1.08506603788943,1.08489418775702,1.08694138393922,1.08875263104211,1.08983096839156,1.08949777709175,1.2064175510923,1.18691870565699,1.10920565209449,1.10098845212762,1.10436330105063,1.10467009937453,1.10797339900572,1.1089904547029,1.11141026428795,1.11161743688111,1.11722318871508,1.11821479902746,1.17256936497498,1.20171650193447,1.25594198602342,1.2612008375754,1.26294593105903,1.24428212423857,1.28375716362676,1.11388892924321,1.1899651817066,1.18774986928317,1.19033260209881,1.19296178553838,1.11043137912258,1.21478002930531,1.20635637775621,1.20733419691746,1.20832871774188,1.10379565103053,1.20853109961894,1.21091849407654,1.18292400206501,1.0985896202461,1.22583897697654,1.24195867353824,1.30126484614048,1.31350421261819,1.33656488436366,1.38835304815805,1.37441632231851,1.36612501934298,1.36208665170431,1.35801777756198,1.35733668499812,1.3566370531968,1.04632648930583,1.0998934443887,1.10131941398516,1.44636383596663,1.4466502990677,1.01802038284903,1.00867394093714,1.0036668276514,0.997610979331878,0.99417262456024,1.51323464317893,0.990165337997635,0.98502346973168,0.985633452050218,0.983120755084083,0.985222991165854,0.983789372871124,0.983763722736274,0.983823343023677,0.984987108276425,0.970578024612996,0.973359822571892,0.972741778506187,0.974952237602275,0.972644770348731,0.973773054422387,0.972440193678808,0.97280442994587,0.969048381495017,0.969823162813654,0.966200274246002,0.966641078754986,0.966511683135266,0.965412075374868,0.968876086356269,0.96508625122201,0.965320856686487,0.962698532194785,0.966167226435044,0.963443908685142,0.966324544366299,0.963865397561948,0.964507397232672,0.961056142776145,0.962434758083103,0.96104404079308,0.962302193035458,0.963746958268124,0.962511396927092,0.962371800735941,0.959954730819367,0.960190144531674,0.959696891199181,0.959899250816243,0.960465329409688,0.960446189942046,0.960630070539906,0.961490482566809,0.960253500385191,0.962135188858667,0.960779384478531,0.96264215679827,1.07157849162075,0.954825578283865,0.953736827422952,0.951699297316549,0.951717477469733,0.951357489651987,1.11112039904032,1.11215966052327,0.933730379119385,0.933132503781161,0.931959016866784,0.929640888784512,0.931889906067115,0.93338275849471,0.935212219251175,0.942125554021297,1.03586378573682,0.94609044198505,0.947024980711161,0.945008094476288,0.962014871779242,0.963185135408117,1.09551148442528,0.925427396463395,0.926190084330239,0.924276488388882,0.925525874291666,0.923691741506288,0.924936058718564,0.92281854348332,0.921711712926484,0.920286276154869,0.917486994141043,0.917154498783113,0.915817214361624,0.916533757271759
1.02916860668677,1.02950869922804,1.03051888625404,1.04198691333556,1.04253742646278,1.0446946057398,1.04497864623987,1.04494726958333,1.07401510376972,1.08891047185388,1.05622730275332,1.05688717826062,1.05838086184721,1.05941730556611,1.06228827344142,1.06403572927351,1.06660951134499,1.06811149012631,1.07037910350419,1.07517549020566,1.07827777874588,1.08014891370783,1.08229316130082,1.08400081559254,1.08607115360127,1.08753683038357,1.08914144471945,1.09015814882813,1.0901262266035,1.12793404313755,1.14889006627086,1.10861798310788,1.10203481686394,1.10298750448418,1.10496039073779,1.10723280070379,1.10925984333662,1.1105866710098,1.1121193543574,1.11414408654554,1.16694667726635,1.19367362694576,1.21564683655457,1.25418523823789,1.25622642728703,1.21667000984924,1.19680402974156,1.17664410131187,1.15713136557028,1.18945346732665,1.18900000105239,1.19015617143857,1.1916795049919,1.15312412193673,1.17754316709454,1.20725171142897,1.20764321385957,1.20803371424061,1.16018543408265,1.20728536556232,1.20814343451617,1.16976442908988,1.14600747110689,1.18384110762476,1.26235685519185,1.31315826050205,1.31680957824351,1.3326509099734,1.33661836244554,1.33824865211269,1.33821099380087,1.33783742596051,1.33861959058677,1.34317336148623,1.2624602691916,1.17171828195289,1.14139441971623,1.12914455297729,1.15899436988356,1.0605732161948,1.00908928924608,1.00518652080661,1.00165561830686,0.997108985390871,0.995258752534181,0.992998250562103,0.989337476825091,0.987884677274976,0.985227198652199,0.985498469590401,0.983813932673971,0.983902100753272,0.983260572362466,0.982899812777334,0.982405875883012,0.976429785228651,0.975135256016093,0.974886385048311,0.974080082106828,0.97400007212029,0.972549123795442,0.972069979920888,0.970585842610655,0.969973897211139,0.967838504358808,0.966849123159319,0.966114820260973,0.965627423009376,0.966118691635582,0.96526521838584,0.964805750395158,0.963400933385306,0.963481549127156,0.962371533109092,0.963898184308968,0.963011841893364,0.963498851784476,0.962580812385807,0.961936461825074,0.960498250297791,0.961068103153135,0.961401843241362,0.961936166952068,0.962017342084346,0.960525616663787,0.960059179306125,0.959679359282135,0.959584615677028,0.959389798817825,0.959661943812944,0.959776709161246,0.959808134227845,0.959342625577316,0.959791388843219,0.959270608899021,0.959236070488836,0.957441787201103,0.956480646656366,0.954919401970162,0.952071708357946,0.951072116324547,0.950630286147575,0.950176858300577,0.94451412312183,0.942881471306937,0.934741708727208,0.933869150330082,0.931685792877799,0.931697994042963,0.931782169506358,0.933466922109697,0.935774386463892,0.9387767492452,0.948540406126557,0.947786763960796,0.946947780573459,0.946486568968108,0.950812079780845,0.950517198093503,0.943654069139306,0.926972188826196,0.926668714010748,0.92634661903621,0.92503134311632,0.92541435002217,0.924284506485421,0.923934951491011,0.922991928034974,0.921318499652277,0.915378852159943,0.914559345686756,0.914532859820343,0.913332288681157
1.02737032911401,1.02755966406952,1.02833072766813,1.03986030953765,1.04066237289718,1.04557251880116,1.04513211496944,1.04469258069442,1.04430814758199,1.12465010965945,1.05340208644019,1.05552723081036,1.0553121983858,1.05939220077979,1.05845548547298,1.06361738654387,1.06570653715828,1.06748842224604,1.07049597627589,1.07376808520879,1.07897035311199,1.08126743667215,1.08284552434005,1.08432315598009,1.08602947294021,1.08878466301693,1.08965803786047,1.0905304296115,1.09127776412019,1.09128719726638,1.1802997903096,1.10996583792972,1.10083428430594,1.10260380546137,1.10245942625563,1.10802354954607,1.10932123125294,1.11046965970342,1.11208143606639,1.11287766231562,1.24044889209521,1.24233919815782,1.25121224708567,1.25101531188524,1.25941278512024,1.11279844878993,1.11278060367157,1.11218218352057,1.11153821349937,1.27703249248136,1.10933629431587,1.15469469522143,1.20264334507139,1.10853224626,1.10782397594372,1.23837081335612,1.21681411405191,1.33378216518989,1.10295624734297,1.21884559666585,1.20759604016226,1.15636871697583,1.0972740326056,1.09472932925497,1.28258776208006,1.32481188012344,1.3208006120714,1.32684596110095,1.08339034222443,1.30201106806559,1.30198205003548,1.28648723792537,1.26610051804982,1.36487945698617,1.19205293311954,1.43617939995733,1.15283768990005,1.0803625033235,1.52862370744573,1.0151965532081,1.00150978507558,1.00044560841615,1.00010000553005,0.997454563808891,0.996574925965954,0.991035670368763,0.989899174188299,0.988157863158589,0.987852552731541,0.982929938853273,0.98535345271396,0.983190147533735,0.983430240646245,0.981196467890847,0.980659016704465,0.97747633807436,0.976506299945616,0.975498194655895,0.975988498157318,0.973170051949186,0.97317428775487,0.970908936724162,0.970802718373852,0.968143396792928,0.968747126120556,0.9647411897535,0.965581950716217,0.965514309058965,0.964984403572615,0.964936836755065,0.962274366438102,0.962436298783357,0.96050422851172,0.962731839476005,0.960031583232972,0.963297290393798,0.962198260033185,0.963597968343258,0.95986771063019,0.959899685975089,0.959304358402646,0.960591761346263,0.961661129268852,0.961270697016108,0.959765905669012,0.958805197833491,0.95952461716229,0.959548194115165,0.958329631257633,0.959030935489203,0.959482174360655,0.95889560380394,0.958732519540121,0.956764643116655,0.959419603113087,0.956849439986306,0.956748197548265,0.947459488052536,0.947605417296453,0.947806729125748,0.949343556314833,0.949300675400129,0.949782524158753,0.940310730693257,0.939424311972416,0.93746247160468,0.935440271228517,0.931858796198363,0.930004651412519,0.932504410433507,0.932205112203248,0.936328307760386,0.937259324608602,0.947152601534835,0.946625291500469,0.947653284401109,0.94802193037661,1.09790978015517,0.949234715505907,0.928393425538096,0.928183858032653,0.927620162082021,0.926352152389948,0.926710905006957,0.924524717763493,0.925811553444926,0.924861767317297,0.925291738865306,0.921887206014773,0.912069282937628,0.912508533265257,0.913420199323096,0.91220575390394
1.02561106674817,1.02567566493706,1.02587831152452,1.03722030276982,1.04046596190448,1.04498926012743,1.04523549632254,1.04527068157772,1.0460554440557,1.04917109561484,1.05236070874253,1.05341555869243,1.05548925650449,1.05560424993902,1.05726755392553,1.06525252989045,1.06662701111965,1.06746899989895,1.06991728558846,1.072729793388,1.0810680761088,1.08220536308877,1.08366323059008,1.08483570435323,1.08626111684153,1.08801156990521,1.08935742851765,1.09076908622515,1.09083026488233,1.09154035710289,1.14692610732082,1.11261488167582,1.1009410015514,1.1017340834966,1.10437870671916,1.10729075096086,1.10914561592435,1.11029827399756,1.11104991949361,1.17851097684355,1.24230662096679,1.24466302691233,1.24797424237586,1.19122954926159,1.16283940012714,1.11255757198183,1.11262693587574,1.11191856921729,1.11148344668895,1.11065721341164,1.11011813056072,1.11020774579255,1.10932055340741,1.10831736247847,1.10773568535521,1.21609667022392,1.21532164581304,1.21289071944622,1.20655554979641,1.20660632597509,1.16626312151171,1.14367084952469,1.11911625641912,1.13700073766274,1.15157405035155,1.16922421182567,1.18331560163111,1.19910327668696,1.13361143546287,1.15770368971069,1.18380689029402,1.25923001300551,1.26203759711808,1.31394543325077,1.28787866285988,1.26014458655134,1.16058584026847,1.14466142293686,1.13234187594849,1.06440969142506,1.00144637311981,1.00058677504674,0.999635953420899,0.99852000371949,0.993897871228785,0.991273592806467,0.989457136968909,0.988739848635621,0.985641658092009,0.985493465593384,0.983281811194501,0.983365285043253,0.982301311913663,0.982037529763799,0.979834490783583,0.978327997099791,0.976480691295606,0.97581468715258,0.974349134366734,0.973835653393111,0.972908829054441,0.970086353853641,0.96781607910001,0.967818840607605,0.96620078750502,0.965831436224814,0.965195204133857,0.965106379369323,0.965034352290537,0.964806610773196,0.962032837909,0.960697121209737,0.960416747726742,0.959332127008712,0.960372188082294,0.960371338949714,0.961277002885384,0.961279642412996,0.960019798600758,0.959095226374247,0.959192589368702,0.95986594430552,0.960466999446568,0.960808815509657,0.960072710006701,0.959782935923315,0.95962148052877,0.959777964414355,0.957985067491712,0.958332229319238,0.958949216350715,0.959247365911292,0.958876117385839,0.957834504231797,0.956705229044298,0.955328714854368,0.953487782661435,0.95049388197646,0.948828135487943,0.948863964088105,0.948085256170048,0.948443011503567,0.94837157307111,0.939272058235045,0.938851340615593,0.937708736630512,0.935873358909356,0.933410607888105,0.933337180571652,0.932811345889345,0.934149817659141,0.935596420216375,0.93647249363792,0.947924419930767,0.947479510376749,0.945578312923093,0.942419265632476,0.940760579763243,0.933351191727936,0.929541617348356,0.92885663868097,0.927962900833328,0.927266529896515,0.926002750063353,0.926140231632085,0.92562019631452,0.925966743195955,0.925010680307156,0.92228292976567,0.920487177236766,0.918674922157521,0.915823936980018,0.912293296598855
1.02387196884776,1.02478620821389,1.02588170745175,1.032514444253,1.03939069855463,1.0439983189647,1.04433883984196,1.0478098416506,1.04467577243233,1.04990667063227,1.04957777595323,1.05303361800303,1.05206317165989,1.05653870716552,1.05452807648566,1.13622253877556,1.06649526324611,1.0668697613406,1.06944459701402,1.07329951641398,1.14499374764072,1.12863880304342,1.19462087838862,1.15923638715832,1.08526146432955,1.08696797711072,1.08932583701919,1.0897189578861,1.09213873218508,1.09155016794817,1.2071021866468,1.11475671413611,1.09920683202519,1.10069100092477,1.10409476259961,1.10770406469082,1.10932774605308,1.11022752745735,1.11086818268938,1.24879121157034,1.26287333438307,1.2466814522686,1.24930944978174,1.11187094380415,1.11144334514595,1.11179260387538,1.11175648144944,1.11141716566975,1.11016545307424,1.11019700494937,1.10846152275593,1.10916537468733,1.10788335577395,1.10654763313467,1.10667537475336,1.23922867162076,1.18268834617542,1.10373569367166,1.20413008541002,1.20491624223558,1.09752081804426,1.13117423173919,1.09682228645443,1.15708351221252,1.09197109037666,1.09031875388089,1.16495194201521,1.23155399925977,1.08401207355721,1.0831145089609,1.08103748693512,1.25884076179092,1.26153610487465,1.36292015645766,1.34028782034557,1.21977322178721,1.16693827078448,1.15420638981605,1.11611772503889,1.39551829443681,1.00174291458314,1.00044540362598,0.999603374122421,0.999448625612958,0.991550292936511,0.990150326092856,0.989461799342775,0.986307899273303,0.987956512502395,0.982406682209694,0.984490346022707,0.982335381478622,0.983479993002802,0.981383206168947,0.981444262966043,0.977307322926366,0.976574987854883,0.975169596857944,0.973832758518822,0.972953170816404,0.975401603075405,0.967876765688746,0.965678404022595,0.964549147259684,0.96673396691173,0.964284227948078,0.965126927262771,0.964447831563577,0.964554044771386,0.968136231429859,0.958973360503567,0.959172927660248,0.958159719122559,0.958114097528763,0.95754800264059,0.959415178646845,0.959978028744796,0.961026374531689,0.958996446348117,0.957665684309944,0.958383859522281,0.958987942606218,0.96011889642789,0.960580379907822,0.960904527149316,0.960080116501413,0.960168918788878,0.960849292771809,0.957084250203959,0.956581343922385,0.959707666377387,0.959984457349181,0.961633785679573,0.956588248169786,0.956457774594804,0.952592718264573,0.952003883188203,0.949703275183017,0.951886018186309,0.947502315596014,0.947815729521876,0.946872717630251,0.94663831055128,0.939037588587773,0.940056504232295,0.938049411532419,0.936179517852138,0.935207195021182,0.933287213972987,0.934229248343027,0.934467864032115,0.935489154667017,0.935863676374508,1.07372659590977,1.01393927071454,0.944668469874993,0.941196407661897,0.938552019965361,0.931927722752151,0.930779904365048,0.92974719591889,0.928758224981466,0.927023102745207,0.926814367180034,0.925345311890306,0.927104163480819,0.926917945124821,0.928559143453896,0.928273220132229,0.928737484341322,0.919423228362879,0.918448704400863,0.91093394423121
1.02387341915769,1.02445997501239,1.02568610772328,1.03138666745151,1.04029858465263,1.04163448026203,1.04217988870522,1.04661426280479,1.04721882839749,1.04700994405136,1.05030561842236,1.05084999363733,1.05348455651419,1.05340358286665,1.05530428137979,1.05945265185377,1.06532503294701,1.0654194951221,1.06874107836887,1.0745136718545,1.10272229727247,1.11989098348887,1.12705522016766,1.1167018751872,1.08560888994412,1.08742808914835,1.08871328764489,1.09069238624564,1.0906327949006,1.09152956389632,1.15418289889617,1.11478682112704,1.1005775013913,1.10194817747601,1.10486692443945,1.10773225590222,1.10972603689297,1.11040178105124,1.11035551082804,1.18105860653971,1.16597317927575,1.15308211884641,1.14122825329846,1.1111667092218,1.11161079709542,1.11113298658449,1.11151662604556,1.11069336900279,1.11038863213546,1.10920276037524,1.10881613100839,1.10844821804882,1.10743285250317,1.10674358295012,1.1061841432449,1.14307648378063,1.17012732981926,1.18190389659984,1.2056775533609,1.20590479136231,1.17566477985276,1.14966481845665,1.1286424471002,1.136379671198,1.12821945259309,1.12036212471592,1.15015861760032,1.15714763383828,1.08443931949573,1.0840854280165,1.15331739892352,1.25817858677806,1.25985052203482,1.35863424507241,1.33871124705754,1.27886803596717,1.17331044140612,1.16377790090528,1.11700233742079,1.06396209856586,1.00064739935456,0.999658001248584,0.998529230368968,0.997911782571681,0.992359205240296,0.990228635210108,0.98866110120628,0.987911889145397,0.98565958256166,0.984146104782829,0.982130739014108,0.98252078092544,0.981886504612131,0.982307826930181,0.98013605781067,0.977334932937574,0.975570242184916,0.974767365418283,0.972958873395114,0.971798347138414,0.969305296631192,0.967047552193145,0.965330918302619,0.965952183897965,0.964896883440674,0.965403085495561,0.964612450226273,0.964379491205051,0.962796891957859,0.959310019951266,0.958132814492128,0.957973542629337,0.957568059635401,0.957157373133468,0.957406583801159,0.957831054378035,0.958416768503243,0.960058288420078,0.958921636136383,0.957253771916716,0.956966488181234,0.958061325402648,0.958976834480724,0.959356191365638,0.959653514669105,0.959392499070579,0.959176548029036,0.959346881325623,0.956606148745673,0.957046543243579,0.958966417263311,0.959765871913083,0.960398566235148,0.955159225179801,0.955473500878489,0.951601506817467,0.950609682359395,0.950467764624295,0.949478644709879,0.949110015726068,0.946911979604178,0.946066421539382,0.944471304617779,0.941535882427093,0.938624853853018,0.937187440294231,0.935837319223598,0.934661836262573,0.933786541091819,0.933283641541352,0.967024281551626,0.98975244885363,1.00944290633363,1.02857864817858,0.978485279287118,0.942770119251679,0.939932418129222,0.937790622888127,0.934036013435211,0.932321940115563,0.930884859987188,0.930217374701778,0.929500887782582,0.928093615898518,0.928111662764614,0.927905321578941,0.928809495083525,0.929033147504005,0.929902024467204,0.924599527445578,0.919821151187697,0.918967695536329,0.918377637363899
1.02334851204182,1.02490285530622,1.0279542458773,1.03147371735703,1.03845794176586,1.03864816255175,1.03990095508843,1.09763897768391,1.04465472675666,1.04840172426923,1.04680750165352,1.05079833447352,1.0498023613033,1.05657835254784,1.05354653713345,1.05727517147185,1.06412064425693,1.06392634209955,1.06908082799059,1.07415473551911,1.07411890058703,1.11058113209546,1.15435322623155,1.08335621574122,1.08521070686106,1.08598256972584,1.08898876415454,1.08926855725885,1.09247547814832,1.09059643707356,1.20190569928051,1.10876324364747,1.10041862461221,1.10120770374785,1.10545933008109,1.10781220101574,1.11858537257982,1.22217147611359,1.10946403106063,1.21105848320057,1.11053617197125,1.11105854773001,1.11021474465551,1.11162723961946,1.1094869330367,1.11154457759301,1.11040521716023,1.11075837447146,1.10894785667537,1.10897506903,1.10742451663087,1.1074748929847,1.10686952900235,1.10512294337855,1.10562431315233,1.10404642129172,1.15656441902945,1.20247926396773,1.25368309960063,1.25417052792681,1.24007297681456,1.16408084740791,1.09705114251739,1.2827051346488,1.28201229366017,1.09028614303384,1.14286128848032,1.16588707694104,1.08465701004431,1.08410163926274,1.36753817758809,1.28278579424297,1.26135261286611,1.36251373834405,1.33974663017739,1.35708229694786,1.18085740615186,1.17333476605923,1.11763658911674,1.01465702564694,0.999952149814302,0.997337135885457,0.997721103020219,0.995453791879917,0.994322089623326,0.98891554575905,0.988734175812962,0.986944141237374,0.986615863517192,0.982270322678348,0.982364493082748,0.981333039992016,0.983457759878837,0.982330137883815,0.981376164470886,0.975188552410913,0.974485297895491,0.974257590413715,0.972379353970544,0.97089880346759,0.964231242121669,0.965260350293594,0.966276825572239,0.964102924852934,0.966198252076349,0.964323733804796,0.964924001404335,0.964085102303186,0.964369911728978,0.958175142108842,0.957410854921375,0.956959668437986,0.95679443531075,0.955925324853814,0.956587733100218,0.955958810481244,0.954926741078438,0.950951200369386,1.10781274293985,0.95408102107386,0.955188240040398,0.956877556189561,0.958037641970316,0.958840607238402,0.958310945203365,0.959101635931806,0.958666970856375,0.95854905127101,0.955551355360487,0.955021182611766,0.999205776155782,0.976254460932319,1.04283891429964,0.952725276125511,0.95723069752189,0.948613323934957,0.94970548595493,0.948211987204474,0.951816058775221,0.947788516717031,0.948291169209982,0.945208990350525,0.944463422269595,0.943142519515798,0.937214379085577,0.935683689031559,0.935192668792574,0.934076717710062,0.932831336953295,0.932587620987111,1.14283785349512,1.01905442193636,1.10389512962282,1.07531624583756,0.937109815164119,0.937549213522415,0.938251035052998,0.937338939406588,0.936077159108353,0.932163757688721,0.932335208116683,0.931902446708458,0.931794058497231,0.929501651843818,0.929108905019052,0.929564283237718,0.930027078141777,0.931303227239302,0.932469258253185,0.921114906307596,0.920031441677495,0.920039894597738,0.918478932711345
1.02083853182863,1.0232394150958,1.03090778734981,1.03262758646392,1.0350033800472,1.03673879186394,1.03861819031,1.04018059639241,1.04374500936426,1.04400141633575,1.04789026984319,1.04865335741036,1.05156070956879,1.05238082386101,1.05668766278935,1.05885896329177,1.06216350325813,1.06264602717395,1.06893333712263,1.0721999287093,1.07430272623147,1.10132167883876,1.12259543365061,1.0833256825362,1.08381528337349,1.0863613872258,1.08779265642121,1.09063448552627,1.09085812439287,1.09247565086462,1.09629106927035,1.09821582421027,1.09970295778418,1.10245438499836,1.10382525048965,1.10625266238705,1.11894241204135,1.16759999468308,1.10950120874826,1.10981575677513,1.11054487625059,1.11062309081356,1.11090284914185,1.1097976398344,1.11089395833826,1.1096982657599,1.11015786602625,1.1093505474294,1.1091527852586,1.10791120606266,1.10755690259492,1.10693191016438,1.1061175911937,1.10576472569324,1.10472494403688,1.10439546296884,1.14389031281516,1.20154539200288,1.20290674893359,1.20411040490474,1.20428924632897,1.20376224378403,1.20289729461487,1.21879607153709,1.19239167390738,1.16661412815605,1.13515421863568,1.1243040152956,1.08555862059316,1.08505299923259,1.31041837831756,1.31215297147518,1.31381271371349,1.31954085106015,1.33559910860569,1.3529252165545,1.18781481149301,1.12773751120154,1.09683239860991,1.07275840303543,1.0487738452613,0.993592242078421,0.995184986080131,0.994898331246608,0.993778294219497,0.989866264824176,0.989223501108198,0.988829217751073,0.988395632101428,0.982141312561093,0.981633867997147,0.981241636005597,0.980564737493814,0.979946732629204,0.97795520955691,0.974644815297007,0.972862352558851,0.972076260820551,0.97081794999548,0.969344371238905,0.966271260290911,0.965695035545977,0.964690290255889,0.965002808519284,0.964102483374482,0.965013601654349,0.963980918509985,0.964044256774109,0.961503809558217,0.959481200168609,0.957047813508063,0.957007625798966,0.956121119461848,0.956273940330994,0.95525101576562,0.95506728557094,0.953360048344936,0.951822440998807,0.951749444830458,0.953865478010443,0.954657703666765,0.956402586238134,0.957594935565927,0.95797788841552,0.95844142574761,0.957853023116372,0.957341642867686,0.956943141957528,0.954729650725199,0.954017800850405,0.952247473392206,0.951631286331774,0.950465964379218,0.950457939843196,0.948471329683995,0.948952996669833,0.948607010073953,0.949290897265869,0.948666798244322,0.948371735667325,0.94570391453631,0.944412356337324,0.943154720800826,0.941974492062094,0.938367087290621,0.936236965184517,0.934608544427569,0.933667756552442,0.932635902353693,0.932475160126697,0.987340773310444,0.976354765988691,0.969418127939964,0.96023501480136,0.937600111120247,0.937743029459793,0.93805470877163,0.937632894386539,0.936635379505075,0.934919372192393,0.933339004014673,0.933587139119181,0.933499773094077,0.933036112832023,0.932308104141097,0.931795108173538,0.932199538779193,0.932557617960854,0.933700344470046,0.921044781177187,0.921314623674967,0.920725712667776,0.920817213601291
