1.10854, 1.10894, 1.10619, 1.10214, 1.10154, 1.0956, 1.09407, 1.08421, 1.08271, 1.07657, 1.07011, 1.06831, 1.06295, 1.06194, 1.06164, 1.06966, 1.05718, 1.0542, 1.05239, 1.0442, 1.04857, 1.04612, 1.04466, 1.04362, 1.04539, 1.04513, 1.04636, 1.04838, 1.04829, 1.03357, 1.03409, 1.03337, 1.03253, 1.03195, 1.03209, 1.0319, 1.0283, 1.02806, 1.02826, 1.02891, 1.02898, 1.02699, 1.03097, 1.03193, 1.21864, 1.04517, 1.04549, 1.04219, 1.04304, 1.04375, 1.04038, 1.04202, 1.04335, 1.04721, 1.04608, 1.04873, 1.04976, 1.05194, 1.0485, 1.05048, 1.04898, 1.04574, 1.04937, 1.04963, 1.04571, 1.04783, 1.0525, 1.04648, 1.13655, 1.05571, 1.04697, 1.04775, 1.05479, 1.05747, 1.06983, 1.04019, 1.14241, 1.04392, 1.02366, 1.01876, 1.01879, 1.01975, 1.01527, 1.01519, 1.01397, 1.01621, 1.00236, 1.002, 1.01228, 1.27548, 1.00248, 0.995209, 0.988169, 0.98626, 0.983706, 0.978919, 0.977337, 0.992622, 0.96601, 0.963525, 0.965214, 0.968633, 0.970085, 0.966609, 0.96631, 0.965665, 0.964437, 0.96998, 0.969842, 0.961585, 1.21547, 0.979471, 0.979746, 0.97797, 0.98087, 0.98686, 0.987858, 0.985432, 1.03363, 1.03353, 1.00425, 1.00732, 1.04294, 1.01193, 1.01141, 1.01174, 1.01632, 1.01723, 1.11948, 1.07795, 1.02547, 1.02817, 1.03811, 1.0389, 1.03944, 1.03952, 1.03977, 1.23712, 1.06726, 1.06469, 1.06487, 1.06793, 1.06798, 1.06724, 1.10114, 1.06763, 1.07001, 1.22204, 1.21617, 1.15457
1.11293, 1.10808, 1.10564, 1.10109, 1.10053, 1.09476, 1.0951, 1.08951, 1.08752, 1.07545, 1.07098, 1.06988, 1.06441, 1.06276, 1.07244, 1.07205, 1.16519, 1.05383, 1.05354, 1.04523, 1.04915, 1.04705, 1.04419, 1.04175, 1.04775, 1.04247, 1.04432, 1.04628, 1.04598, 1.03307, 1.03383, 1.03152, 1.03123, 1.03123, 1.0312, 1.03063, 1.02733, 1.02547, 1.02942, 1.02883, 1.02883, 1.02735, 1.03165, 1.02939, 1.03108, 1.04299, 1.0461, 1.04417, 1.23614, 1.06012, 1.042, 1.04372, 1.0448, 1.04941, 1.05059, 1.05166, 1.05142, 1.0557, 1.05603, 1.05342, 1.05097, 1.04678, 1.04998, 1.04935, 1.04851, 1.05084, 1.05379, 1.05578, 1.0565, 1.05475, 1.05447, 1.04939, 1.06052, 1.05812, 1.07039, 1.15709, 1.04567, 1.08573, 1.02146, 1.01557, 1.01518, 1.0199, 1.01467, 1.01645, 1.06866, 1.00882, 1.00417, 1.00338, 1.00457, 1.01371, 0.998679, 0.997301, 0.991586, 0.987343, 0.983615, 0.980502, 0.978719, 0.973563, 0.96541, 0.965909, 0.97787, 0.968202, 0.970001, 0.969279, 0.966588, 0.966, 0.969364, 0.970077, 0.96972, 0.961412, 0.983444, 0.98182, 0.977651, 0.978974, 1.02306, 0.988747, 0.986791, 0.98517, 1.01455, 1.03173, 1.00107, 1.00272, 1.00865, 1.00806, 1.00929, 1.01016, 1.01441, 1.01453, 1.01888, 1.02582, 1.02263, 1.02792, 1.03925, 1.04087, 1.04288, 1.04538, 1.23052, 1.27179, 1.12995, 1.06619, 1.06632, 1.06636, 1.06569, 1.0654, 1.06434, 1.10903, 1.11961, 1.20619, 1.05334, 1.04917
1.11458, 1.11233, 1.10636, 1.104, 1.10124, 1.10252, 1.09108, 1.09136, 1.08884, 1.07564, 1.07085, 1.06981, 1.06451, 1.06172, 1.07126, 1.07165, 1.06194, 1.05668, 1.05265, 1.05081, 1.04903, 1.04772, 1.04435, 1.0471, 1.04731, 1.04152, 1.04183, 1.04352, 1.04402, 1.04257, 1.03444, 1.03302, 1.03169, 1.03122, 1.03021, 1.02932, 1.02692, 1.027, 1.02751, 1.02862, 1.02874, 1.02879, 1.02987, 1.02942, 1.0328, 1.16369, 1.1466, 1.05062, 1.0529, 1.2398, 1.04336, 1.13925, 1.13815, 1.05269, 1.05371, 1.0537, 1.05719, 1.05521, 1.05463, 1.05569, 1.1189, 1.05284, 1.05048, 1.05017, 1.05079, 1.05373, 1.05544, 1.05683, 1.05727, 1.0606, 1.06041, 1.06028, 1.05967, 1.06095, 1.1922, 1.15718, 1.04754, 1.02063, 1.01905, 1.01392, 1.0154, 1.01469, 1.01222, 1.0183, 1.0026, 1.00015, 1.00036, 1.01153, 1.0041, 1.01276, 1.03156, 0.993686, 0.990527, 0.986283, 0.983425, 0.979103, 0.980219, 0.964346, 0.966057, 0.960758, 0.95934, 0.97677, 0.969504, 0.968371, 0.967638, 0.965672, 0.968662, 0.969972, 0.969276, 0.959981, 0.971924, 0.974189, 0.976521, 0.977538, 0.984342, 0.988474, 1.01027, 0.984384, 1.01485, 1.03381, 1.00174, 1.00123, 1.04017, 1.00518, 1.00899, 1.0119, 1.01387, 1.0151, 1.01766, 1.02621, 1.02139, 1.02325, 1.03904, 1.03938, 1.04591, 1.17848, 1.25859, 1.27035, 1.07236, 1.07087, 1.06799, 1.07046, 1.06751, 1.06703, 1.06297, 1.06113, 1.05947, 1.05951, 1.07152, 1.15149
1.11468, 1.10891, 1.10641, 1.10485, 1.10599, 1.10628, 1.1043, 1.09798, 1.09834, 1.07917, 1.0732, 1.07033, 1.06453, 1.06314, 1.06935, 1.07141, 1.06065, 1.05927, 1.05189, 1.05173, 1.04918, 1.0473, 1.04488, 1.0466, 1.0326, 1.03976, 1.03931, 1.03861, 1.04261, 1.04112, 1.04075, 1.03505, 1.02903, 1.02955, 1.02963, 1.02644, 1.02884, 1.03376, 1.02869, 1.02881, 1.02863, 1.02835, 1.0296, 1.03083, 1.03363, 1.22572, 1.0526, 1.2533, 1.12009, 1.05518, 1.0477, 1.05005, 1.05526, 1.05465, 1.05436, 1.05486, 1.17186, 1.09794, 1.05882, 1.06104, 1.06641, 1.07173, 1.0554, 1.05668, 1.05369, 1.05466, 1.05817, 1.05943, 1.06041, 1.0644, 1.06695, 1.0666, 1.42987, 1.06478, 1.21678, 1.07722, 1.03876, 1.03269, 1.00796, 1.01219, 1.01792, 1.01887, 1.03711, 1.007, 1.06824, 0.992214, 0.99398, 1.01488, 1.00085, 1.03323, 1.00962, 0.991789, 0.991753, 0.997545, 0.987289, 0.983659, 0.983151, 0.964372, 0.965092, 0.976544, 0.984214, 0.970075, 0.969112, 0.96848, 0.968155, 0.966451, 0.967675, 0.968099, 0.966747, 0.960131, 0.962986, 0.971435, 0.975374, 0.979079, 0.982446, 0.984663, 0.980784, 0.981384, 0.985447, 0.9877, 0.996498, 0.999887, 0.999641, 1.00113, 1.00296, 1.00927, 1.01288, 1.0148, 1.02022, 1.0254, 1.0207, 1.0925, 1.11467, 1.0415, 1.15397, 1.06443, 1.2367, 1.27093, 1.0777, 1.07315, 1.07275, 1.06969, 1.06984, 1.08567, 1.05707, 1.05989, 1.06098, 1.24365, 1.12957, 1.09581
1.11133, 1.1119, 1.10796, 1.10789, 1.10731, 1.11085, 1.09206, 1.09791, 1.09815, 1.44653, 1.07364, 1.0685, 1.06543, 1.06133, 1.56415, 1.06147, 1.05946, 1.05696, 1.05265, 1.0519, 1.04882, 1.04459, 1.04251, 1.03364, 1.03394, 1.03852, 1.03824, 1.03608, 1.03752, 1.04021, 1.03954, 1.03577, 1.03425, 1.03041, 1.02621, 1.02522, 1.02674, 1.02782, 1.02794, 1.02886, 1.02954, 1.02901, 1.03082, 1.0318, 1.03362, 1.0496, 1.0946, 1.06447, 1.06507, 1.24184, 1.05055, 1.05298, 1.05446, 1.05405, 1.0564, 1.05888, 1.06488, 1.09222, 1.05929, 1.05839, 1.06395, 1.07195, 1.06144, 1.05691, 1.0552, 1.06283, 1.06165, 1.06344, 1.20169, 1.16702, 1.0749, 1.07427, 1.07381, 1.2576, 1.2087, 1.09167, 1.04361, 1.06044, 1.02639, 1.0109, 1.03267, 1.00167, 1.02701, 1.00363, 1.0696, 1.06041, 1.00868, 1.00588, 0.997534, 1.01002, 1.029, 0.993731, 0.997756, 0.998978, 0.987554, 0.985277, 0.988278, 0.97111, 0.969572, 1.21579, 1.21519, 0.972642, 0.970738, 0.970056, 0.968466, 0.967028, 0.968383, 0.969084, 0.957049, 0.958249, 0.961038, 0.970087, 0.971597, 0.990181, 0.981435, 0.982605, 0.980233, 1.01843, 1.00207, 1.02149, 0.994907, 0.995587, 0.997656, 0.999099, 1.00164, 1.0077, 1.01185, 1.01443, 1.01652, 1.02322, 1.02489, 1.17363, 1.15574, 1.19444, 1.08578, 1.21654, 1.21432, 1.26122, 1.07782, 1.06884, 1.07172, 1.34313, 1.05662, 1.05427, 1.05615, 1.05873, 1.09663, 1.06036, 1.13672, 1.12211
1.11118, 1.10973, 1.10847, 1.10828, 1.1111, 1.11313, 1.09437, 1.09429, 1.09406, 1.08863, 1.07518, 1.06857, 1.06633, 1.06426, 1.06769, 1.06119, 1.05952, 1.05616, 1.05355, 1.04969, 1.04849, 1.04313, 1.04128, 1.26005, 1.03808, 1.03837, 1.03894, 1.03556, 1.03632, 1.03563, 1.03745, 1.03455, 1.03546, 1.03227, 1.0246, 1.02515, 1.02712, 1.03893, 1.03005, 1.02863, 1.03186, 1.03514, 1.03497, 1.03454, 1.03465, 1.07289, 1.11371, 1.06636, 1.06524, 1.06298, 1.05121, 1.05246, 1.05436, 1.05636, 1.05699, 1.05769, 1.06689, 1.08197, 1.06936, 1.06732, 1.06771, 1.07087, 1.06606, 1.06353, 1.06202, 1.06118, 1.06392, 1.06898, 1.12696, 1.0746, 1.0767, 1.07668, 1.08377, 1.08247, 1.29908, 1.09495, 1.028, 1.06302, 1.04927, 1.01893, 1.04006, 0.997503, 0.98394, 1.01292, 0.981903, 1.00591, 0.976992, 1.00083, 0.994936, 0.995353, 0.997095, 0.987061, 0.983736, 0.985507, 0.985776, 0.986142, 0.98665, 0.971793, 0.972194, 0.972272, 0.976143, 0.970122, 0.971678, 0.9695, 0.967785, 0.969103, 0.969029, 0.980818, 0.959623, 0.959355, 0.963982, 0.970371, 0.971182, 0.976464, 0.981483, 0.979897, 0.97792, 0.977744, 0.980905, 1.02082, 0.994261, 0.991778, 1.04346, 0.99857, 1.048, 1.00673, 1.01008, 1.01341, 1.01134, 1.10102, 1.13793, 1.20704, 1.15984, 1.05549, 1.05646, 1.10635, 1.2284, 1.21602, 1.22549, 1.07163, 1.07054, 1.05837, 1.05668, 1.05703, 1.05536, 1.23318, 1.05353, 1.5175, 1.03107, 1.03342
1.11302, 1.10944, 1.10723, 1.10986, 1.11468, 1.11515, 1.09842, 1.09468, 1.09433, 1.09029, 1.07393, 1.07034, 1.07045, 1.06319, 1.06876, 1.06178, 1.05991, 1.05721, 1.05133, 1.0498, 1.049, 1.04408, 1.03858, 1.03904, 1.03641, 1.03864, 1.03884, 1.03436, 1.03327, 1.03231, 1.03456, 1.03126, 1.03689, 1.02595, 1.02382, 1.02505, 1.18394, 1.04148, 1.02985, 1.03014, 1.03462, 1.03554, 1.03582, 1.03395, 1.18599, 1.0503, 1.11633, 1.06541, 1.06601, 1.08453, 1.05469, 1.05351, 1.0552, 1.05743, 1.0576, 1.06046, 1.07402, 1.3719, 1.06737, 1.0718, 1.07284, 1.07303, 1.06653, 1.06708, 1.06827, 1.0647, 1.06602, 1.06801, 1.13025, 1.0757, 1.08935, 1.07667, 1.08385, 1.0725, 1.39135, 1.04216, 1.04312, 1.03024, 1.01586, 1.01931, 1.02663, 0.995474, 0.995605, 0.983521, 1.00504, 0.965725, 0.97496, 0.990284, 0.99784, 0.995031, 0.996093, 1.02457, 0.982274, 0.982968, 0.983993, 0.990127, 0.995801, 0.973338, 0.972104, 0.972569, 0.973422, 0.9715, 0.97006, 0.966371, 0.966054, 0.969865, 0.969769, 0.955767, 0.957575, 0.958394, 0.963729, 0.967601, 0.974346, 0.997567, 0.975854, 0.979598, 0.977786, 0.978123, 0.978283, 1.01545, 0.991574, 0.988239, 0.983836, 1.05086, 1.06774, 1.0062, 1.00779, 1.00878, 1.01048, 1.11464, 1.05324, 1.07042, 1.04732, 1.14638, 1.09079, 1.16358, 1.08124, 1.08465, 1.08416, 1.0778, 1.06477, 1.05771, 1.05796, 1.05811, 1.05503, 1.1454, 1.0461, 1.0367, 1.03327, 1.13628
1.22876, 1.10977, 1.1066, 1.10959, 1.10566, 1.30255, 1.09953, 1.09868, 1.09136, 1.09173, 1.07609, 1.07061, 1.0685, 1.06757, 1.06992, 1.06184, 1.06162, 1.05732, 1.05037, 1.05036, 1.0464, 1.04593, 1.0384, 1.03733, 1.03653, 1.03728, 1.03808, 1.03457, 1.03312, 1.03222, 1.03202, 1.03213, 1.03894, 1.02728, 1.02524, 1.02576, 1.02818, 1.04028, 1.03012, 1.0285, 1.03625, 1.03877, 1.04006, 1.03989, 1.04066, 1.04623, 1.27475, 1.06449, 1.06643, 1.06667, 1.05469, 1.05519, 1.05858, 1.0599, 1.05967, 1.07011, 1.07601, 1.07693, 1.08093, 1.07638, 1.07401, 1.06659, 1.06652, 1.07078, 1.07011, 1.0622, 1.06545, 1.07134, 1.07201, 1.09075, 1.09134, 1.09909, 1.07042, 1.07216, 1.12688, 1.07324, 1.0737, 1.06386, 1.04331, 1.04602, 1.02428, 0.992065, 0.988829, 1.01293, 0.9865, 0.975598, 0.977093, 0.960535, 1.00355, 1.02522, 1.0078, 1.00641, 0.986073, 0.984934, 0.980905, 0.983734, 0.983148, 0.969857, 0.971207, 0.97728, 0.973313, 0.970822, 0.968451, 1.25017, 0.967126, 0.969429, 0.969518, 0.969729, 0.956035, 0.957145, 0.94968, 0.971154, 0.968267, 0.974561, 0.975366, 0.977217, 0.977767, 0.976506, 0.977902, 1.01608, 0.985187, 0.985424, 0.978955, 0.990153, 1.02914, 1.00358, 1.00436, 1.0043, 1.03956, 1.04328, 1.11974, 1.04788, 1.04908, 1.13339, 1.16467, 1.16533, 1.1049, 1.08386, 1.08486, 1.22721, 1.06105, 1.06212, 1.06121, 1.05993, 1.04918, 1.21611, 1.04217, 1.03594, 1.04258, 1.15973
1.2277, 1.22639, 1.10776, 1.10954, 1.10502, 1.11075, 1.36883, 1.09205, 1.09072, 1.09219, 1.07735, 1.07803, 1.06889, 1.07176, 1.0721, 1.06433, 1.06042, 1.55517, 1.05051, 1.04951, 1.04648, 1.04481, 1.03831, 1.03855, 1.03246, 1.03518, 1.03542, 1.03331, 1.03056, 1.02915, 1.02953, 1.03649, 1.03707, 1.03534, 1.03085, 1.02661, 1.03207, 1.04068, 1.03093, 1.0333, 1.03869, 1.04304, 1.04212, 1.04049, 1.04131, 1.11336, 1.05663, 1.10611, 1.06654, 1.06688, 1.05626, 1.06008, 1.06034, 1.06055, 1.06433, 1.07429, 1.07653, 1.07743, 1.08232, 1.07861, 1.07987, 1.06482, 1.06661, 1.0687, 1.07181, 1.07495, 1.05094, 1.07383, 1.06986, 1.11322, 1.11342, 1.09665, 1.06166, 1.06192, 1.11531, 1.12614, 1.05294, 1.06296, 1.06085, 1.04618, 1.02525, 1.00917, 0.989459, 1.00206, 1.00307, 1.00836, 0.986721, 0.954317, 1.00968, 1.02893, 1.02733, 1.00537, 1.02303, 1.02333, 0.978206, 0.977815, 1.02738, 0.97045, 0.988242, 0.969686, 1.0636, 0.969426, 0.967531, 0.960711, 0.989243, 0.968244, 0.968735, 0.970513, 0.95895, 0.956764, 0.950756, 0.973189, 0.970566, 0.967275, 0.97559, 0.977697, 0.978331, 0.977602, 0.976806, 1.0188, 0.984209, 0.982981, 0.981357, 0.987639, 0.991196, 1.02877, 1.06697, 1.00129, 1.00714, 1.10351, 1.11042, 1.03545, 1.12555, 1.05171, 1.09897, 1.07373, 1.07995, 1.08066, 1.21524, 1.26675, 1.06427, 1.0647, 1.0641, 1.05386, 1.04769, 1.047, 1.04241, 1.03405, 1.03201, 1.0198
1.32763, 1.22647, 1.10997, 1.11109, 1.10601, 1.10598, 1.34297, 1.09137, 1.09139, 1.13165, 1.0771, 1.07806, 1.06777, 1.07105, 1.07131, 1.06356, 1.06277, 1.05622, 1.05281, 1.04908, 1.04506, 1.04379, 1.0364, 1.03723, 1.03307, 1.03403, 1.03343, 1.03171, 1.02864, 1.02957, 1.02864, 1.03039, 1.03826, 1.03565, 1.03336, 1.02958, 1.03046, 1.03899, 1.03882, 1.03413, 1.03944, 1.03999, 1.04304, 1.04247, 1.04389, 1.05734, 1.05876, 1.06069, 1.06552, 1.0961, 1.05794, 1.06302, 1.06139, 1.06383, 1.06399, 1.07058, 1.07603, 1.07863, 1.08319, 1.08363, 1.08182, 1.08393, 1.06527, 1.06968, 1.07832, 1.10507, 1.04952, 1.0812, 1.07154, 1.09947, 1.07624, 1.0653, 1.06377, 1.05933, 1.11358, 1.09725, 1.05519, 1.1485, 1.10966, 1.02289, 1.01573, 1.02424, 0.987461, 1.05537, 1.09641, 1.02885, 0.977123, 1.01502, 1.02377, 0.999237, 1.01641, 1.0114, 0.977424, 0.984106, 0.984161, 0.994045, 0.958043, 0.988893, 0.989252, 0.963655, 0.984088, 0.96748, 0.969058, 0.960261, 0.961588, 0.964447, 0.964779, 0.965475, 0.970133, 0.960233, 0.952763, 0.953551, 0.964146, 0.967553, 0.974405, 0.977206, 0.978416, 0.977294, 1.00527, 1.00703, 0.976767, 0.978007, 0.982272, 0.983992, 0.990678, 1.04404, 0.995332, 0.996653, 1.08118, 1.01198, 1.10882, 1.05767, 1.08444, 1.04806, 1.10195, 1.0722, 1.07508, 1.15658, 1.23694, 1.12679, 1.06439, 1.05606, 1.05639, 1.05162, 1.04815, 1.0467, 1.04398, 1.03216, 1.03345, 1.0824
1.23966, 1.2399, 1.11062, 1.10961, 1.10682, 1.10515, 1.1037, 1.09204, 1.09228, 1.08858, 1.07764, 1.0767, 1.07034, 1.07393, 1.0709, 1.0644, 1.06214, 1.06063, 1.05171, 1.04958, 1.04382, 1.04343, 1.03832, 1.03723, 1.03535, 1.03334, 1.03205, 1.04021, 1.03799, 1.0252, 1.02843, 1.02909, 1.03547, 1.03549, 1.03353, 1.03209, 1.03233, 1.03735, 1.03789, 1.03574, 1.03632, 1.03978, 1.04346, 1.0445, 1.04591, 1.05745, 1.05878, 1.06069, 1.06343, 1.07125, 1.06182, 1.06414, 1.06328, 1.06311, 1.06417, 1.074, 1.07743, 1.07907, 1.33953, 1.087, 1.08732, 1.06648, 1.10624, 1.1094, 1.07959, 1.07667, 1.04588, 1.08808, 1.05986, 1.06454, 1.08823, 1.08556, 1.0671, 1.07927, 1.08163, 1.09147, 1.14034, 1.14112, 1.08279, 1.12691, 1.0143, 1.00836, 1.0265, 1.03755, 1.08744, 1.00781, 1.02478, 0.973704, 0.985283, 0.984877, 1.00865, 1.00946, 1.02099, 0.986079, 0.970519, 0.940576, 0.966441, 1.03303, 0.992016, 0.957486, 0.95807, 1.18114, 0.965656, 0.963288, 0.963414, 0.963183, 0.963807, 0.965168, 0.962246, 0.960995, 0.951541, 0.952461, 0.962252, 0.965156, 0.972096, 0.976622, 0.976737, 0.987593, 0.9705, 0.972509, 0.974175, 1.01974, 0.982565, 0.982432, 1.03652, 1.03611, 0.99373, 0.995156, 1.05844, 1.00796, 1.09267, 1.12642, 1.08891, 1.13673, 1.10579, 1.0685, 1.14253, 1.09877, 1.19296, 1.21739, 1.17692, 1.05276, 1.05284, 1.05218, 1.04791, 1.04632, 1.04626, 1.03258, 1.03311, 1.04627
1.26925, 1.30179, 1.33114, 1.11248, 1.10116, 1.10126, 1.10474, 1.09076, 1.09102, 1.08752, 1.08101, 1.07239, 1.0704, 1.07258, 1.07083, 1.06412, 1.06435, 1.05766, 1.05084, 1.05058, 1.04442, 1.04371, 1.03743, 1.03799, 1.03552, 1.03225, 1.03092, 1.0421, 1.03902, 1.02201, 1.02662, 1.02689, 1.03158, 1.03525, 1.03572, 1.03907, 1.03175, 1.03772, 1.03754, 1.03393, 1.03496, 1.04148, 1.04299, 1.04586, 1.04801, 1.05954, 1.06185, 1.06348, 1.06325, 1.06857, 1.06326, 1.06345, 1.06554, 1.06616, 1.07029, 1.07506, 1.08, 1.08122, 1.09976, 1.08808, 1.08768, 1.06906, 1.0776, 1.08534, 1.11226, 1.11297, 1.07395, 1.10454, 1.05628, 1.06962, 1.07435, 1.06998, 1.12889, 1.11171, 1.07214, 1.1079, 1.11752, 1.1119, 1.11445, 1.12562, 1.08044, 1.03186, 1.0195, 1.15084, 1.05432, 1.05546, 1.04645, 1.04191, 0.988519, 0.980253, 1.03166, 1.02289, 0.980833, 1.04219, 1.02988, 0.96488, 0.943743, 0.985865, 0.987099, 0.95759, 0.956538, 0.967127, 0.965947, 0.964757, 0.966528, 0.961726, 0.964255, 0.963626, 0.962812, 0.962271, 0.961746, 0.954973, 0.9616, 0.965252, 0.974188, 0.97671, 0.976519, 0.990387, 0.993832, 0.976696, 0.970949, 0.977962, 0.981367, 0.981803, 1.03567, 1.03357, 1.04391, 1.03366, 1.03546, 1.00794, 1.09815, 1.08183, 1.11849, 1.07041, 1.06143, 1.0639, 1.14214, 1.17397, 1.18844, 1.06267, 1.05398, 1.05394, 1.05305, 1.05267, 1.05164, 1.04993, 1.24655, 1.42587, 1.11229, 1.02158
1.37437, 1.30461, 1.30399, 1.11203, 1.11163, 1.29152, 1.10814, 1.09384, 1.09132, 1.08166, 1.08021, 1.07555, 1.07407, 1.073, 1.06674, 1.06597, 1.06455, 1.0566, 1.05371, 1.04839, 1.04871, 1.04338, 1.0395, 1.03603, 1.03629, 1.0327, 1.03192, 1.29532, 1.017, 1.02056, 1.02363, 1.09081, 1.02818, 1.0301, 1.03557, 1.03868, 1.03481, 1.03681, 1.03669, 1.03493, 1.03368, 1.04245, 1.04294, 1.04711, 1.05229, 1.06401, 1.06476, 1.0643, 1.06379, 1.06751, 1.06701, 1.06597, 1.06964, 1.07047, 1.07287, 1.0806, 1.08486, 1.0839, 1.09914, 1.10639, 1.09613, 1.09714, 1.06551, 1.11756, 1.11493, 1.12166, 1.07515, 1.09359, 1.05378, 1.05276, 1.09048, 1.07003, 1.1466, 1.08524, 1.08476, 1.11359, 1.1089, 1.12996, 1.1166, 1.11574, 1.08032, 1.03638, 1.1245, 1.12223, 1.05348, 1.07883, 1.06581, 1.06829, 1.02894, 0.99783, 0.99793, 1.0248, 1.00262, 1.01684, 0.959885, 0.970085, 0.95269, 0.978305, 0.99724, 0.956331, 0.957451, 0.957144, 0.96547, 0.967218, 0.968113, 0.959374, 0.961514, 0.960073, 0.961429, 0.960954, 0.960079, 0.958124, 0.959205, 0.966516, 0.96612, 0.975014, 0.974864, 0.980484, 0.998248, 0.968967, 0.971159, 1.0117, 0.978027, 1.03015, 0.98026, 1.01658, 1.00765, 1.03689, 0.992808, 0.994892, 1.07903, 1.08073, 1.10934, 1.05866, 1.1281, 1.14392, 1.14191, 1.15535, 1.06281, 1.05883, 1.05763, 1.05427, 1.1468, 1.23571, 1.05097, 1.10798, 1.15422, 1.0466, 1.0715, 1.02216
1.34438, 1.30497, 1.30665, 1.11421, 1.10803, 1.10791, 1.10804, 1.10873, 1.36026, 1.30224, 1.07926, 1.07412, 1.0738, 1.07358, 1.0649, 1.06521, 1.06344, 1.05602, 1.04927, 1.04938, 1.04344, 1.04257, 1.04329, 1.03711, 1.03597, 1.034, 1.02875, 1.18015, 1.01535, 1.02138, 1.02194, 1.0248, 1.02616, 1.02794, 1.03562, 1.0374, 1.04122, 1.03976, 1.03858, 1.03383, 1.03389, 1.03713, 1.04294, 1.26502, 1.05727, 1.15638, 1.0677, 1.06578, 1.06468, 1.06721, 1.06727, 1.06704, 1.06654, 1.19732, 1.07704, 1.08412, 1.08448, 1.07893, 1.08801, 1.08292, 1.09616, 1.06498, 1.06111, 1.07902, 1.08492, 1.10229, 1.07147, 1.05299, 1.08043, 1.13899, 1.12099, 1.15368, 1.12592, 1.08618, 1.08468, 1.10646, 1.1222, 1.13709, 1.14223, 1.10136, 1.09913, 1.08198, 1.11543, 1.15561, 1.07733, 1.1202, 1.07668, 1.06867, 1.06119, 1.02605, 1.00102, 1.0046, 1.01552, 0.960331, 0.962678, 0.987751, 0.999128, 1.00137, 0.967395, 0.948279, 0.956266, 0.956389, 0.960768, 0.960993, 0.965918, 0.959372, 0.959652, 0.958376, 0.959406, 0.959561, 0.959993, 0.957767, 0.959324, 0.968159, 0.966276, 0.974052, 0.985149, 0.960424, 0.96071, 1.0076, 0.970359, 1.013, 1.02264, 1.02812, 0.975215, 1.01867, 1.03774, 1.03273, 1.06075, 1.00313, 1.00682, 1.00791, 1.08082, 1.11271, 1.11918, 1.11153, 1.11896, 1.13759, 1.05748, 1.05832, 1.05757, 1.1576, 1.04243, 1.31962, 1.09464, 1.24245, 1.03875, 1.21706, 1.02004, 1.02136
1.1451, 1.146, 1.18496, 1.32982, 1.10707, 1.10607, 1.10944, 1.10974, 1.09863, 1.09561, 1.29219, 1.07209, 1.07311, 1.0734, 1.06526, 1.06453, 1.06438, 1.05441, 1.05038, 1.04691, 1.0467, 1.04501, 1.04258, 1.03663, 1.03734, 1.03044, 1.02998, 1.03913, 1.01708, 1.0205, 1.02135, 1.0254, 1.02578, 1.02644, 1.03836, 1.03714, 1.04174, 1.04236, 1.04026, 1.03555, 1.03384, 1.03707, 1.04475, 1.05108, 1.15356, 1.42227, 1.07002, 1.07036, 1.06318, 1.06658, 1.06804, 1.07104, 1.19287, 1.07724, 1.07987, 1.08475, 1.0863, 1.18275, 1.09871, 1.08856, 1.09823, 1.0629, 1.06098, 1.08789, 1.0847, 1.10236, 1.05278, 1.05426, 1.14999, 1.09985, 1.12211, 1.13189, 1.11517, 1.17745, 1.11133, 1.12908, 1.17939, 1.20416, 1.20803, 1.10725, 1.10231, 1.0945, 1.08869, 1.11254, 1.09727, 1.09799, 1.07541, 1.12453, 1.06966, 1.06428, 1.00622, 1.03166, 0.97411, 0.970796, 0.969002, 0.994265, 0.976782, 0.956235, 0.966607, 0.950011, 0.984487, 0.957044, 0.958583, 0.957739, 0.962744, 0.962831, 0.953759, 0.957458, 0.956119, 0.958994, 0.958596, 0.956928, 0.960686, 0.965434, 0.965494, 0.974871, 0.985036, 0.968724, 0.959622, 0.967649, 0.969111, 1.01813, 1.00056, 1.0252, 1.02777, 1.02365, 0.991816, 1.05113, 1.04817, 0.997049, 1.00787, 1.01103, 1.0711, 1.09447, 1.1191, 1.07357, 1.06119, 1.0667, 1.06301, 1.05811, 1.05717, 1.11993, 1.03913, 1.0391, 1.3487, 1.04532, 1.07708, 1.07699, 1.07669, 1.02031
1.34038, 1.24873, 1.22534, 1.14964, 1.26769, 1.10753, 1.10834, 1.23298, 1.43298, 1.10644, 1.08541, 1.07695, 1.07301, 1.07138, 1.06584, 1.0649, 1.0633, 1.05664, 1.0485, 1.04343, 1.04549, 1.04557, 1.03773, 1.03714, 1.0366, 1.03195, 1.03225, 1.04034, 1.35364, 1.02115, 1.02102, 1.02496, 1.02613, 1.02645, 1.0366, 1.0369, 1.03923, 1.04334, 1.0438, 1.03502, 1.03726, 1.03931, 1.04056, 1.05818, 1.19202, 1.15102, 1.14709, 1.16764, 1.06016, 1.2049, 1.06948, 1.07071, 1.19514, 1.08521, 1.08475, 1.08765, 1.08979, 1.09901, 1.0996, 1.08541, 1.08698, 1.0582, 1.05703, 1.06369, 1.08779, 1.09923, 1.06833, 1.07165, 1.07745, 1.15527, 1.14889, 1.17911, 1.21089, 1.15358, 1.17763, 1.18743, 1.17, 1.20265, 1.20198, 1.12647, 1.15696, 1.15758, 1.10817, 1.1086, 1.09498, 1.08596, 1.15052, 1.1019, 1.1287, 1.09174, 1.04939, 1.02723, 0.990191, 0.992012, 0.967691, 0.96479, 0.998748, 0.952812, 0.942062, 0.95008, 0.968602, 0.958495, 0.957657, 0.956943, 0.96435, 0.967291, 0.953519, 0.960635, 0.960146, 0.956237, 0.956136, 0.956798, 0.956895, 0.963457, 0.964845, 0.974553, 0.968227, 0.965948, 0.959162, 0.96642, 0.968959, 0.978682, 1.01368, 1.01689, 1.01915, 1.02577, 1.01909, 0.967617, 1.05662, 1.06393, 1.00864, 1.01066, 1.17467, 1.09496, 1.08142, 1.13202, 1.124, 1.06499, 1.0666, 1.06368, 1.05371, 1.04326, 1.03255, 1.03221, 1.03754, 1.05749, 1.03262, 1.02266, 1.0214, 1.02003
1.15292, 1.15133, 1.22507, 1.19505, 1.24302, 1.10602, 1.10639, 1.10692, 1.09142, 1.09098, 1.35061, 1.07785, 1.07274, 1.07111, 1.06804, 1.06503, 1.06367, 1.06138, 1.04709, 1.04592, 1.04553, 1.04472, 1.03866, 1.03203, 1.03517, 1.03198, 1.03137, 1.03717, 1.35464, 1.0216, 1.02305, 1.02433, 1.02304, 1.02509, 1.20201, 1.03751, 1.03962, 1.03994, 1.04308, 1.03611, 1.03709, 1.03942, 1.04369, 1.23243, 1.1537, 1.14734, 1.13563, 1.24414, 1.07751, 1.21216, 1.07119, 1.07087, 1.07908, 1.11872, 1.22844, 1.09079, 1.09143, 1.08545, 1.10292, 1.10191, 1.09365, 1.08743, 1.06038, 1.14634, 1.08725, 1.08713, 1.06309, 1.07693, 1.07699, 1.23274, 1.16721, 1.25609, 1.17833, 1.13257, 1.19578, 1.17185, 1.18221, 1.22863, 1.22595, 1.12368, 1.12308, 1.12054, 1.15038, 1.12846, 1.21234, 1.18598, 1.13734, 1.10018, 1.09803, 1.07508, 1.1082, 1.01312, 1.05498, 1.00931, 0.974877, 1.00704, 0.998811, 0.965881, 0.964159, 0.973949, 0.95539, 0.958564, 0.954506, 0.954314, 0.963961, 0.962801, 0.953933, 0.959074, 0.960095, 0.956573, 0.957537, 0.957451, 0.957178, 0.960683, 0.961968, 0.976771, 0.964045, 0.963335, 0.959009, 0.960165, 0.994242, 1.00878, 1.01572, 0.966262, 0.960825, 1.01928, 1.02316, 0.966747, 1.03117, 1.05171, 1.06331, 1.00804, 1.00801, 1.1042, 1.03526, 1.03684, 1.1553, 1.06441, 1.06627, 1.06592, 1.11968, 1.05234, 1.05149, 1.03304, 1.03582, 1.01942, 1.33322, 1.01849, 1.22003, 1.0168
1.15388, 1.15349, 1.2711, 1.33955, 1.2551, 1.26144, 1.10761, 1.31315, 1.09116, 1.09148, 1.08448, 1.08102, 1.07218, 1.07242, 1.06987, 1.06514, 1.06516, 1.06028, 1.04965, 1.04599, 1.04514, 1.03901, 1.03886, 1.03554, 1.03523, 1.03324, 1.03029, 1.0286, 1.02881, 1.02327, 1.02472, 1.02524, 1.02491, 1.02438, 1.03114, 1.03632, 1.04094, 1.04075, 1.04076, 1.0367, 1.03753, 1.04272, 1.04466, 1.05763, 1.0795, 1.10275, 1.19823, 1.07689, 1.07701, 1.07591, 1.07322, 1.07197, 1.07861, 1.09066, 1.09228, 1.10584, 1.19078, 1.10202, 1.10514, 1.08059, 1.06429, 1.1198, 1.08701, 1.11366, 1.10748, 1.10306, 1.13479, 1.07749, 1.12312, 1.17447, 1.23763, 1.27446, 1.16384, 1.15228, 1.15712, 1.16507, 1.20225, 1.23432, 1.26417, 1.18129, 1.13537, 1.13622, 1.14732, 1.17307, 1.16402, 1.17395, 1.18392, 1.14565, 1.09643, 1.09398, 1.08175, 1.04906, 1.02574, 1.06762, 0.995599, 0.986194, 1.00388, 0.956558, 0.968638, 1.00838, 0.954367, 0.957614, 0.957579, 0.948796, 0.967346, 0.932129, 0.990948, 0.967622, 0.958272, 0.959333, 0.956189, 0.956525, 0.956088, 0.958853, 0.96034, 0.963321, 0.963809, 0.995058, 0.958286, 0.964204, 0.966143, 0.966653, 0.968072, 0.960862, 0.961329, 0.958172, 0.965918, 0.966795, 1.08582, 1.09121, 1.00885, 1.01056, 1.00572, 1.09641, 1.09934, 1.11826, 1.09668, 1.12892, 1.06624, 1.06697, 1.06273, 1.22049, 1.26686, 1.04385, 1.25657, 1.24436, 1.01228, 1.01645, 1.01349, 1.21939
1.15472, 1.15458, 1.3009, 1.24698, 1.17952, 1.2067, 1.10631, 1.10496, 1.09463, 1.09011, 1.08224, 1.08046, 1.07334, 1.07314, 1.07209, 1.06605, 1.06494, 1.05402, 1.04864, 1.04625, 1.0457, 1.0401, 1.04076, 1.03648, 1.0362, 1.03266, 1.02945, 1.02934, 1.02985, 1.02505, 1.02451, 1.02492, 1.02643, 1.02318, 1.02952, 1.03536, 1.03999, 1.04086, 1.04136, 1.03885, 1.03916, 1.04438, 1.04825, 1.22949, 1.14502, 1.12285, 1.22136, 1.18971, 1.07674, 1.07575, 1.07705, 1.07355, 1.07681, 1.09215, 1.09536, 1.11387, 1.11372, 1.10149, 1.07765, 1.08813, 1.08773, 1.07154, 1.07828, 1.17078, 1.1501, 1.09824, 1.10478, 1.11842, 1.15794, 1.16381, 1.19111, 1.23107, 1.23252, 1.15973, 1.17916, 1.17065, 1.2365, 1.30925, 1.24908, 1.17565, 1.16506, 1.15756, 1.16748, 1.17233, 1.19554, 1.20029, 1.15091, 1.13687, 1.16405, 1.10262, 1.14442, 1.11483, 1.06665, 1.01263, 1.00339, 1.02992, 1.02719, 1.03057, 0.995109, 0.969018, 0.964821, 0.967311, 0.959446, 1.05522, 0.95436, 0.932945, 0.933694, 0.966641, 0.955841, 0.956025, 0.953423, 0.955732, 0.95551, 0.956868, 0.959954, 0.981698, 0.959922, 0.957066, 0.956961, 0.963686, 0.965389, 0.965899, 0.98367, 0.960018, 0.960136, 0.957852, 0.964635, 0.967872, 0.974407, 0.977095, 1.00873, 1.00919, 0.999252, 1.09201, 1.10167, 1.08909, 1.12226, 1.08456, 1.06507, 1.0665, 1.06618, 1.0588, 1.19656, 1.22712, 1.2642, 1.19974, 1.01176, 1.01506, 1.00879, 1.0067
1.15514, 1.15637, 1.15693, 1.31277, 1.15776, 1.11237, 1.24943, 1.10097, 1.0897, 1.09017, 1.0816, 1.08084, 1.07308, 1.07349, 1.07331, 1.07356, 1.50695, 1.05468, 1.04623, 1.0461, 1.04608, 1.04069, 1.04004, 1.03698, 1.03599, 1.03197, 1.03135, 1.03071, 1.03071, 1.02834, 1.02534, 1.02539, 1.02995, 1.02786, 1.02995, 1.03859, 1.03802, 1.1055, 1.04259, 1.04241, 1.04199, 1.04408, 1.06086, 1.13585, 1.2525, 1.17806, 1.24568, 1.08798, 1.0793, 1.07806, 1.08051, 1.07429, 1.07671, 1.12459, 1.1135, 1.11271, 1.18306, 1.08768, 1.10639, 1.09349, 1.07727, 1.06648, 1.07517, 1.16458, 1.19392, 1.20495, 1.15129, 1.15664, 1.18151, 1.19305, 1.18748, 1.18686, 1.18589, 1.18398, 1.18796, 1.22684, 1.23458, 1.22673, 1.21638, 1.19903, 1.23153, 1.18538, 1.17835, 1.23739, 1.21875, 1.19283, 1.19231, 1.14815, 1.12266, 1.11954, 1.12365, 1.13659, 1.14404, 1.14703, 1.03954, 1.01375, 1.01028, 0.997119, 0.961953, 0.965397, 0.9647, 0.949221, 0.948706, 0.962797, 0.94853, 0.931512, 0.953849, 0.95394, 0.954987, 0.955514, 0.952904, 0.954792, 0.952761, 0.954295, 0.955726, 0.956821, 0.967106, 0.95648, 0.956347, 0.991105, 0.985471, 0.965328, 1.00783, 0.961287, 0.959138, 0.957551, 1.00586, 1.02577, 0.973116, 0.975813, 1.05195, 1.0077, 0.997043, 0.99836, 1.09894, 1.11436, 1.1003, 1.12872, 1.0661, 1.0664, 1.34107, 1.34033, 1.19864, 1.04653, 1.0391, 1.0242, 1.01192, 1.01148, 1.00638, 1.00609
1.15555, 1.15566, 1.15706, 1.17107, 1.17704, 1.32275, 1.25424, 1.30274, 1.09097, 1.08816, 1.08394, 1.08147, 1.07534, 1.07678, 1.07145, 1.07399, 1.34092, 1.05141, 1.05034, 1.04715, 1.04917, 1.04028, 1.04029, 1.03912, 1.03611, 1.03203, 1.03169, 1.0301, 1.02926, 1.02887, 1.0284, 1.02751, 1.03515, 1.02995, 1.03346, 1.03755, 1.03881, 1.03925, 1.04242, 1.0442, 1.04613, 1.17083, 1.2882, 1.13825, 1.1478, 1.16808, 1.11544, 1.09124, 1.09143, 1.07365, 1.0813, 1.07005, 1.07893, 1.11282, 1.11135, 1.12194, 1.12708, 1.0855, 1.10739, 1.10851, 1.11583, 1.08123, 1.17764, 1.165, 1.16668, 1.18069, 1.17381, 1.17662, 1.16474, 1.19255, 1.19546, 1.19266, 1.19284, 1.2046, 1.24017, 1.23011, 1.24968, 1.2302, 1.24797, 1.22886, 1.19541, 1.26985, 1.19437, 1.20782, 1.21258, 1.31, 1.19868, 1.17732, 1.13113, 1.1515, 1.1226, 1.12227, 1.0952, 1.10197, 1.14715, 1.03345, 1.01557, 1.02246, 1.00768, 0.979278, 0.966562, 1.01227, 0.995852, 0.970635, 0.946412, 0.938776, 0.938831, 0.942786, 0.943913, 0.959334, 0.952434, 0.960732, 0.952262, 0.952428, 0.953807, 0.954777, 0.956607, 0.956526, 0.956086, 0.98817, 0.988004, 0.986878, 0.995707, 0.959565, 0.96033, 0.957567, 0.957964, 0.992878, 1.01942, 1.01243, 1.04531, 1.00008, 0.999097, 0.998797, 1.09332, 1.09152, 1.08841, 1.15498, 1.12701, 1.06418, 1.16333, 1.16485, 1.20955, 1.27104, 1.02974, 1.03702, 1.01193, 1.06412, 1.00227, 1.00549
1.15481, 1.15872, 1.16007, 1.2161, 1.33975, 1.25003, 1.30196, 1.29606, 1.30307, 1.09069, 1.08608, 1.07863, 1.07775, 1.07713, 1.06847, 1.07005, 1.06996, 1.05309, 1.05252, 1.04829, 1.04904, 1.04245, 1.04241, 1.03308, 1.03289, 1.0296, 1.03195, 1.03149, 1.02947, 1.02856, 1.02674, 1.03154, 1.03421, 1.03644, 1.03578, 1.03876, 1.03786, 1.04054, 1.04205, 1.0446, 1.04747, 1.07432, 1.07075, 1.28466, 1.31283, 1.11369, 1.11465, 1.09146, 1.0926, 1.08029, 1.0838, 1.06908, 1.13973, 1.09709, 1.10873, 1.12459, 1.10036, 1.0825, 1.11753, 1.11736, 1.07645, 1.07956, 1.11859, 1.14979, 1.15013, 1.16415, 1.17456, 1.26448, 1.20674, 1.19814, 1.19968, 1.22724, 1.22379, 1.27092, 1.30586, 1.24433, 1.24468, 1.24664, 1.24779, 1.21704, 1.22199, 1.22713, 1.24537, 1.22114, 1.2603, 1.30961, 1.23519, 1.18747, 1.23879, 1.16108, 1.17082, 1.12978, 1.09471, 1.12513, 1.1355, 1.03696, 1.02997, 1.01254, 1.00312, 1.00593, 0.973607, 1.01505, 0.950194, 0.952448, 0.951238, 0.9389, 0.939518, 0.940336, 0.939539, 0.9406, 0.949783, 0.960417, 0.951059, 0.950421, 0.952889, 0.9651, 0.964308, 0.952806, 0.97619, 0.957371, 0.985512, 0.993504, 0.99358, 0.958482, 0.958908, 0.957252, 0.959385, 1.01618, 1.01311, 1.01048, 1.05221, 1.0638, 0.995767, 1.08403, 0.998643, 1.09572, 1.10487, 1.10348, 1.12184, 1.12409, 1.11975, 1.18505, 1.21236, 1.21634, 1.03317, 1.03654, 1.09974, 1.09567, 0.99968, 1.22951
1.15695, 1.15946, 1.1598, 1.15705, 1.21929, 1.21318, 1.21985, 1.24177, 1.30247, 1.08961, 1.08544, 1.08031, 1.07687, 1.07708, 1.07065, 1.07048, 1.06931, 1.05432, 1.05059, 1.04936, 1.05006, 1.0444, 1.04188, 1.03429, 1.03317, 1.02862, 1.03103, 1.03163, 1.03006, 1.02772, 1.02701, 1.02998, 1.04949, 1.03846, 1.03876, 1.03919, 1.03714, 1.03891, 1.06398, 1.04214, 1.04363, 1.0775, 1.07045, 1.08032, 1.08101, 1.11356, 1.11018, 1.39928, 1.08646, 1.08266, 1.08441, 1.07062, 1.0877, 1.08778, 1.1186, 1.1288, 1.08652, 1.08826, 1.07873, 1.08175, 1.07834, 1.09151, 1.12959, 1.14392, 1.17072, 1.15932, 1.19395, 1.21904, 1.21846, 1.22931, 1.2295, 1.23604, 1.2655, 1.30234, 1.37866, 1.27804, 1.26055, 1.25014, 1.23295, 1.23344, 1.2363, 1.2957, 1.22833, 1.22262, 1.26096, 1.31247, 1.24477, 1.24415, 1.18155, 1.1684, 1.19396, 1.19134, 1.23282, 1.08628, 1.09996, 1.10104, 1.06105, 1.04488, 1.01918, 1.01882, 0.981546, 0.977183, 0.94414, 0.946516, 0.957723, 0.942733, 0.940637, 0.936947, 0.939274, 0.931681, 0.947655, 0.95605, 0.956489, 0.951124, 0.951234, 0.963248, 0.970396, 0.950987, 0.971295, 0.958253, 0.959907, 0.993362, 0.956396, 1.02184, 0.955356, 0.956422, 0.957752, 1.01571, 0.97342, 1.01671, 1.0429, 0.996277, 0.997382, 1.0499, 0.994199, 1.05368, 1.09675, 1.08792, 1.11239, 1.11905, 1.11034, 1.15149, 1.25041, 1.21655, 1.07719, 1.24577, 1.21862, 0.989669, 1.04416, 1.20507
1.15588, 1.15959, 1.16057, 1.15684, 1.32063, 1.33417, 1.24202, 1.24107, 1.30002, 1.09011, 1.08633, 1.08364, 1.07679, 1.07818, 1.07112, 1.07306, 1.063, 1.05568, 1.0526, 1.05122, 1.04505, 1.04557, 1.03798, 1.03646, 1.0325, 1.02979, 1.03036, 1.032, 1.02953, 1.02852, 1.02661, 1.02701, 1.03722, 1.03787, 1.03809, 1.0386, 1.0346, 1.03611, 1.03674, 1.03946, 1.04613, 1.04654, 1.07032, 1.08366, 1.08343, 1.10793, 1.10957, 1.22692, 1.08544, 1.0836, 1.0839, 1.07536, 1.09295, 1.08763, 1.11991, 1.12411, 1.0896, 1.1145, 1.11993, 1.14163, 1.1085, 1.12, 1.14453, 1.16143, 1.16336, 1.15319, 1.18966, 1.22824, 1.20829, 1.233, 1.2298, 1.24447, 1.28704, 1.29099, 1.35754, 1.37613, 1.2506, 1.24861, 1.23692, 1.27182, 1.27792, 1.27689, 1.24772, 1.3133, 1.2601, 1.26743, 1.22734, 1.22537, 1.21335, 1.1901, 1.1984, 1.20037, 1.143, 1.13868, 1.19521, 1.10164, 1.08131, 1.04298, 1.03084, 1.08755, 1.00999, 1.01785, 0.932732, 0.942853, 0.984638, 1.00209, 0.942136, 0.944359, 0.936746, 0.941844, 0.949274, 0.950637, 0.953173, 0.951077, 0.951191, 0.952196, 0.948913, 0.948721, 0.949394, 0.958245, 0.958372, 0.954215, 0.954379, 0.994948, 0.95553, 0.957585, 0.959321, 0.967625, 0.970215, 0.980373, 1.05722, 1.05818, 1.07568, 0.98155, 0.990669, 1.06732, 1.06698, 1.05271, 1.07218, 1.11142, 1.11844, 1.17083, 1.13861, 1.22187, 1.05069, 1.23791, 1.10502, 1.22014, 0.98936, 0.988471
1.15646, 1.16013, 1.15982, 1.15811, 1.1575, 1.17637, 1.1877, 1.23589, 1.23305, 1.09154, 1.08571, 1.08379, 1.0796, 1.07873, 1.0704, 1.06738, 1.06082, 1.05937, 1.05149, 1.05231, 1.04682, 1.0474, 1.03923, 1.03619, 1.03129, 1.03062, 1.03193, 1.03219, 1.02905, 1.02576, 1.02691, 1.02725, 1.03598, 1.03686, 1.03876, 1.03892, 1.03363, 1.03467, 1.036, 1.04017, 1.04727, 1.09066, 1.05741, 1.08037, 1.16119, 1.10885, 1.10723, 1.41849, 1.08716, 1.08706, 1.07215, 1.07954, 1.07815, 1.08931, 1.14261, 1.14163, 1.13867, 1.13794, 1.09419, 1.17004, 1.14768, 1.15411, 1.15027, 1.16279, 1.18491, 1.18566, 1.25909, 1.21865, 1.25035, 1.23402, 1.2349, 1.2635, 1.26517, 1.30614, 1.35461, 1.31064, 1.24761, 1.24433, 1.25367, 1.23617, 1.26421, 1.30977, 1.24417, 1.24963, 1.28911, 1.27922, 1.2677, 1.21823, 1.21285, 1.22233, 1.2024, 1.2013, 1.27423, 1.18961, 1.19187, 1.19257, 1.13169, 1.06647, 1.05161, 1.04004, 1.04148, 1.00762, 0.982853, 0.943983, 0.962516, 0.933705, 0.942672, 0.939849, 0.938918, 0.940542, 0.94778, 0.949449, 0.954565, 0.949591, 0.963262, 0.965635, 0.946551, 0.947909, 0.977537, 0.956139, 0.958493, 0.953813, 0.9534, 0.949864, 0.954678, 0.957152, 0.961281, 0.966356, 1.01554, 0.980689, 0.977636, 1.05118, 0.992123, 0.987485, 0.988468, 1.07094, 1.06505, 1.05796, 1.05939, 1.11994, 1.14005, 1.1618, 1.13335, 1.02797, 1.1457, 1.23712, 0.991826, 1.09624, 1.07149, 1.16948
1.27085, 1.16042, 1.16008, 1.15786, 1.15784, 1.32425, 1.20885, 1.21241, 1.34421, 1.09374, 1.09275, 1.08431, 1.08067, 1.08088, 1.37983, 1.0678, 1.06717, 1.50589, 1.05623, 1.05304, 1.0472, 1.04272, 1.0395, 1.03838, 1.03772, 1.0319, 1.03141, 1.0311, 1.0303, 1.02855, 1.0284, 1.03173, 1.03681, 1.04212, 1.03881, 1.03701, 1.02914, 1.13644, 1.03713, 1.10893, 1.09071, 1.09035, 1.06091, 1.07764, 1.16399, 1.17066, 1.17398, 1.24398, 1.08712, 1.087, 1.08003, 1.08446, 1.09932, 1.12538, 1.13961, 1.09269, 1.09136, 1.12846, 1.32994, 1.19727, 1.17765, 1.15854, 1.16368, 1.15348, 1.15503, 1.18498, 1.21926, 1.2302, 1.32301, 1.25003, 1.24615, 1.26189, 1.2717, 1.31931, 1.30827, 1.30824, 1.24623, 1.28138, 1.25675, 1.24672, 1.31888, 1.36392, 1.24926, 1.33643, 1.30906, 1.28395, 1.28266, 1.2176, 1.20469, 1.20582, 1.20464, 1.20178, 1.33799, 1.20824, 1.15834, 1.14578, 1.19064, 1.09172, 1.1051, 1.10561, 1.1024, 1.02912, 0.961246, 0.981702, 0.941997, 0.940174, 0.939437, 0.965067, 0.942151, 0.980244, 0.95639, 0.950011, 0.95404, 0.949021, 0.947459, 0.970873, 0.94508, 0.947286, 0.947696, 0.956069, 0.956286, 0.954947, 0.951343, 0.95137, 0.956379, 0.957091, 1.00024, 1.01323, 1.01514, 0.976984, 0.978969, 0.976569, 0.992879, 0.991364, 1.06807, 1.05792, 1.05651, 1.05375, 1.05442, 1.11193, 1.12137, 1.1221, 1.01908, 1.05015, 1.07635, 1.06473, 1.0779, 1.05055, 1.00355, 0.964227
1.29147, 1.16019, 1.16037, 1.15935, 1.15978, 1.22303, 1.24261, 1.12167, 1.25457, 1.09806, 1.09781, 1.08585, 1.08077, 1.08113, 1.07448, 1.07264, 1.06499, 1.0623, 1.05895, 1.05987, 1.57532, 1.04271, 1.04077, 1.03961, 1.03827, 1.03637, 1.03434, 1.03305, 1.0306, 1.02873, 1.02962, 1.03209, 1.04078, 1.04235, 1.03879, 1.03767, 1.02772, 1.0271, 1.11009, 1.0633, 1.0528, 1.05979, 1.06548, 1.28517, 1.28411, 1.1677, 1.13982, 1.24103, 1.08824, 1.0883, 1.07704, 1.08786, 1.10587, 1.12828, 1.1538, 1.12946, 1.12586, 1.12638, 1.27069, 1.26803, 1.17595, 1.15184, 1.16362, 1.18083, 1.17393, 1.18379, 1.28179, 1.26473, 1.26533, 1.29106, 1.27989, 1.25851, 1.26548, 1.30427, 1.29537, 1.52919, 1.53063, 1.2813, 1.26125, 1.24606, 1.30884, 1.36518, 1.25919, 1.29238, 1.28833, 1.27656, 1.29436, 1.22123, 1.22265, 1.21628, 1.20786, 1.22897, 1.20216, 1.23655, 1.16489, 1.1701, 1.1278, 1.1243, 1.09516, 1.06949, 1.09979, 1.04571, 1.00963, 0.97053, 0.949241, 0.963966, 0.957451, 0.917698, 0.917891, 0.91298, 0.948169, 0.94946, 0.949144, 0.948321, 0.945923, 0.934115, 0.935803, 0.947666, 0.948626, 0.956118, 0.956213, 0.956407, 0.970506, 0.949376, 1.00998, 0.95571, 0.995328, 0.962555, 0.972513, 0.975224, 0.998138, 1.04332, 0.99189, 0.989813, 1.04764, 1.05115, 1.05262, 1.06654, 1.05601, 1.08102, 1.05118, 1.0569, 1.01607, 1.0119, 1.01998, 1.00262, 1.00429, 1.05083, 0.956994, 1.16943
1.15688, 1.16062, 1.15757, 1.16038, 1.1595, 1.31383, 1.22437, 1.1216, 1.27675, 1.09785, 1.32206, 1.08895, 1.08334, 1.08434, 1.07706, 1.07279, 1.06762, 1.0618, 1.06206, 1.06122, 1.05028, 1.04208, 1.04143, 1.04115, 1.03739, 1.03771, 1.03903, 1.02929, 1.03064, 1.02953, 1.0299, 1.03272, 1.04425, 1.04097, 1.03996, 1.03873, 1.04308, 1.03765, 1.0377, 1.04253, 1.15741, 1.05747, 1.06461, 1.06745, 1.29086, 1.13786, 1.13566, 1.12953, 1.13349, 1.09449, 1.08792, 1.10346, 1.11192, 1.09841, 1.09418, 1.09212, 1.08497, 1.17144, 1.27042, 1.18909, 1.27824, 1.18072, 1.19906, 1.18797, 1.1819, 1.18105, 1.28762, 1.36089, 1.38917, 1.25487, 1.27074, 1.27011, 1.27329, 1.28099, 1.31569, 1.32271, 1.4077, 1.27906, 1.24887, 1.30456, 1.28263, 1.33025, 1.29886, 1.29813, 1.34997, 1.30105, 1.27128, 1.30856, 1.20889, 1.21416, 1.22395, 1.21556, 1.21525, 1.20959, 1.22914, 1.1717, 1.15052, 1.10988, 1.08041, 1.0619, 1.06108, 1.057, 1.01132, 1.01169, 0.96626, 0.966626, 0.965214, 0.908041, 0.908819, 0.908862, 0.949554, 0.9488, 0.949316, 0.948389, 0.945167, 0.932726, 0.934102, 0.947709, 0.951125, 0.956393, 0.954421, 0.967818, 0.947027, 0.949052, 0.97778, 0.95597, 0.958909, 0.965928, 1.1252, 1.01991, 1.03685, 1.04326, 0.989812, 0.991586, 1.05317, 1.04662, 1.05676, 1.05356, 1.07071, 1.0713, 1.04359, 1.00889, 1.00154, 1.20562, 0.98263, 1.15292, 1.05277, 0.953334, 0.954904, 0.955816
1.15694, 1.16065, 1.16094, 1.15999, 1.15973, 1.1631, 1.178, 1.19587, 1.14489, 1.29069, 1.09191, 1.09084, 1.08704, 1.08414, 1.08431, 1.07873, 1.06674, 1.06432, 1.06219, 1.06164, 1.04709, 1.04347, 1.04187, 1.04143, 1.03954, 1.03702, 1.04376, 1.04346, 1.032, 1.03243, 1.03199, 1.03293, 1.04279, 1.04331, 1.03763, 1.03764, 1.03889, 1.03584, 1.03658, 1.04595, 1.12465, 1.25985, 1.06291, 1.06574, 1.1938, 1.14252, 1.13308, 1.13263, 1.09899, 1.10197, 1.12772, 1.12148, 1.16346, 1.09508, 1.09483, 1.09705, 1.09425, 1.1639, 1.21533, 1.21996, 1.28121, 1.22237, 1.21008, 1.25336, 1.23244, 1.27411, 1.26091, 1.35729, 1.29901, 1.28504, 1.28429, 1.28495, 1.27755, 1.27883, 1.28082, 1.3201, 1.54476, 1.27741, 1.25022, 1.3113, 1.29239, 1.3069, 1.3063, 1.30574, 1.34324, 1.4127, 1.40598, 1.27881, 1.29534, 1.24863, 1.24477, 1.26531, 1.21148, 1.20901, 1.18859, 1.14906, 1.15492, 1.10461, 1.13729, 1.08913, 1.05508, 1.07019, 0.972424, 0.953156, 0.966351, 0.93925, 0.959152, 0.90241, 0.983711, 0.914603, 0.960426, 0.950792, 0.948998, 0.949799, 0.94734, 0.933778, 0.946114, 0.946483, 0.947368, 0.954543, 0.95475, 0.980356, 0.947273, 0.948507, 0.98544, 0.975622, 0.954687, 0.992281, 0.969533, 0.985748, 0.978239, 1.02316, 0.99058, 0.991311, 1.06008, 1.08671, 1.08843, 1.09944, 1.102, 1.06983, 1.01811, 1.17743, 1.20561, 1.22555, 1.12546, 1.01886, 0.949434, 0.950418, 0.962652, 0.94987
1.15698, 1.16022, 1.16092, 1.16083, 1.16038, 1.16131, 1.17169, 1.22185, 1.28759, 1.29056, 1.0944, 1.09478, 1.08787, 1.08557, 1.08071, 1.0806, 1.06824, 1.06961, 1.05979, 1.05566, 1.04762, 1.04611, 1.04326, 1.04035, 1.03966, 1.04056, 1.0461, 1.04436, 1.03438, 1.03349, 1.03246, 1.03293, 1.03386, 1.04291, 1.03685, 1.03848, 1.03943, 1.03417, 1.03732, 1.0361, 1.04428, 1.04805, 1.06628, 1.19755, 1.3068, 1.19102, 1.13057, 1.23733, 1.09902, 1.10134, 1.10255, 1.12945, 1.17155, 1.09008, 1.15455, 1.09867, 1.10585, 1.15129, 1.2016, 1.25755, 1.2872, 1.25083, 1.22983, 1.22841, 1.23764, 1.25154, 1.26111, 1.29539, 1.2943, 1.27063, 1.29539, 1.29098, 1.36685, 1.34688, 1.29087, 1.32188, 1.30767, 1.32845, 1.26418, 1.2914, 1.29539, 1.31052, 1.29798, 1.31104, 1.34573, 1.40148, 1.31952, 1.28698, 1.2705, 1.24311, 1.22942, 1.29499, 1.19906, 1.20305, 1.20035, 1.16522, 1.15288, 1.11939, 1.13973, 1.09625, 1.03999, 1.06802, 1.01484, 0.951319, 0.952432, 0.940669, 0.920938, 0.922813, 0.924008, 0.928311, 0.966762, 0.95548, 0.947254, 0.947932, 0.947815, 0.935273, 0.944089, 0.946443, 0.946465, 0.956261, 0.954448, 0.974357, 0.994715, 0.985959, 0.970483, 0.980732, 0.974953, 0.962278, 0.9654, 0.974959, 0.978706, 1.03882, 0.993375, 0.988922, 1.06405, 0.994652, 1.08911, 1.08858, 1.11166, 1.09534, 1.11854, 1.17561, 1.18875, 1.04922, 1.05191, 1.18866, 0.947616, 0.945676, 0.947845, 0.943162
1.1572, 1.1598, 1.15652, 1.16052, 1.16011, 1.16014, 1.19234, 1.19068, 1.19124, 1.321, 1.37809, 1.09839, 1.3614, 1.08412, 1.0826, 1.07366, 1.07053, 1.13214, 1.05895, 1.05643, 1.04828, 1.04676, 1.0455, 1.04141, 1.03972, 1.03955, 1.04907, 1.03579, 1.03405, 1.03462, 1.03366, 1.03247, 1.03472, 1.04134, 1.03703, 1.03925, 1.03992, 1.0432, 1.03613, 1.0321, 1.19829, 1.04684, 1.09858, 1.3123, 1.13324, 1.14631, 1.15301, 1.13833, 1.10325, 1.10897, 1.11074, 1.102, 1.17122, 1.13667, 1.1173, 1.11833, 1.15011, 1.17761, 1.16968, 1.21896, 1.25942, 1.25966, 1.26819, 1.2819, 1.27509, 1.26518, 1.28102, 1.27366, 1.28694, 1.30628, 1.29628, 1.29315, 1.35115, 1.31568, 1.32612, 1.31748, 1.31617, 1.31268, 1.29674, 1.29815, 1.30276, 1.33347, 1.35414, 1.31026, 1.30998, 1.30333, 1.35502, 1.28156, 1.28828, 1.27269, 1.22944, 1.28979, 1.1985, 1.20522, 1.20545, 1.18627, 1.15173, 1.12509, 1.12553, 1.11037, 1.05888, 1.04071, 1.0148, 1.02288, 0.952032, 0.960094, 0.918231, 0.90854, 0.960178, 0.990763, 0.97309, 1.19913, 0.945747, 0.947011, 0.944908, 0.935239, 0.935631, 0.943843, 0.950847, 0.9526, 0.953579, 0.96489, 0.987989, 0.984932, 1.00145, 0.953803, 0.957423, 0.991509, 1.00437, 0.976032, 0.980336, 1.02873, 1.03929, 1.04367, 1.06587, 0.9915, 1.06238, 0.985007, 1.08087, 1.11205, 1.07715, 1.07873, 1.18864, 1.24008, 1.25035, 0.959046, 1.14294, 1.25727, 0.944475, 0.941912
1.15647, 1.15812, 1.16008, 1.163, 1.15977, 1.15991, 1.16315, 1.16885, 1.19259, 1.1091, 1.10348, 1.09786, 1.09757, 1.4018, 1.08254, 1.07357, 1.06846, 1.06355, 1.06, 1.05673, 1.05613, 1.04831, 1.04664, 1.04372, 1.04236, 1.05047, 1.05019, 1.03593, 1.03455, 1.0345, 1.03276, 1.02847, 1.06076, 1.0375, 1.03772, 1.03873, 1.03992, 1.04168, 1.03526, 1.03409, 1.0402, 1.0426, 1.04711, 1.13578, 1.15496, 1.11597, 1.10784, 1.12132, 1.25434, 1.10782, 1.11745, 1.11819, 1.08389, 1.20257, 1.20138, 1.1322, 1.14615, 1.16088, 1.18565, 1.22787, 1.26877, 1.24955, 1.3355, 1.33943, 1.30537, 1.27888, 1.29288, 1.27923, 1.29973, 1.29192, 1.2951, 1.33321, 1.32417, 1.31638, 1.31967, 1.31266, 1.31447, 1.31702, 1.29598, 1.31684, 1.31554, 1.32083, 1.32041, 1.29772, 1.31006, 1.34443, 1.2998, 1.29089, 1.27494, 1.2807, 1.24096, 1.26703, 1.2026, 1.20373, 1.19146, 1.16181, 1.16554, 1.22634, 1.15667, 1.16336, 1.08066, 1.08875, 1.07107, 0.979182, 0.967381, 0.969189, 0.970594, 0.939741, 0.970369, 0.994173, 0.960896, 0.959724, 0.943664, 0.94488, 0.945504, 0.935503, 0.942109, 0.943228, 0.946144, 0.952743, 0.953098, 0.979031, 0.987377, 0.936822, 0.991333, 0.953132, 0.958387, 0.987568, 0.97109, 1.01881, 0.97863, 0.979438, 1.04127, 1.0471, 0.981472, 1.01247, 1.08102, 1.08838, 1.1224, 1.01729, 1.16785, 0.952296, 1.18413, 1.23536, 0.945651, 1.25721, 0.939135, 0.938977, 0.938785, 0.939709
1.15655, 1.15899, 1.15927, 1.16015, 1.15992, 1.16058, 1.3983, 1.16628, 1.23389, 1.30894, 1.10503, 1.09752, 1.09598, 1.08386, 1.08458, 1.0808, 1.06643, 1.06369, 1.06041, 1.06019, 1.05275, 1.05226, 1.04825, 1.04581, 1.04424, 1.0448, 1.0495, 1.03037, 1.03502, 1.0352, 1.03524, 1.03021, 1.03891, 1.0386, 1.03846, 1.03914, 1.03943, 1.03965, 1.03362, 1.03631, 1.03924, 1.04205, 1.11646, 1.05978, 1.10551, 1.21313, 1.18319, 1.12756, 1.11481, 1.11119, 1.11095, 1.12172, 1.08974, 1.14594, 1.19768, 1.1951, 1.24449, 1.1536, 1.18149, 1.22356, 1.26325, 1.26321, 1.31246, 1.31321, 1.3406, 1.29491, 1.30019, 1.32363, 1.31534, 1.31655, 1.40208, 1.32553, 1.31267, 1.31654, 1.31508, 1.31185, 1.31441, 1.35175, 1.38466, 1.32017, 1.31215, 1.33594, 1.3114, 1.30134, 1.30095, 1.39643, 1.31678, 1.29677, 1.27502, 1.27111, 1.26804, 1.32569, 1.21206, 1.20478, 1.19276, 1.18892, 1.14113, 1.14277, 1.17394, 1.11612, 1.1426, 1.07028, 1.04324, 0.988532, 0.988305, 1.04026, 1.04117, 0.936203, 0.969744, 0.966779, 0.996942, 0.958875, 0.949256, 0.942057, 0.941706, 0.936729, 0.942998, 0.942693, 0.967717, 0.9533, 0.953421, 0.992072, 0.932333, 0.934086, 0.978516, 0.953489, 0.980364, 0.960358, 0.978166, 0.975408, 1.01066, 0.978502, 0.978397, 0.978968, 0.977682, 1.00838, 1.07038, 1.08753, 1.0764, 0.966287, 1.15325, 0.939637, 0.938936, 0.936827, 0.939368, 0.937774, 0.93936, 0.937203, 0.936949, 0.939129
1.15656, 1.15772, 1.15642, 1.16001, 1.15977, 1.16135, 1.16519, 1.17064, 1.27762, 1.23936, 1.10653, 1.097, 1.09672, 1.32729, 1.08347, 1.08375, 1.07348, 1.06416, 1.06063, 1.05797, 1.05401, 1.05072, 1.04934, 1.04927, 1.04583, 1.04716, 1.05075, 1.03998, 1.03714, 1.0372, 1.04949, 1.03682, 1.03711, 1.03802, 1.0393, 1.04205, 1.04068, 1.03811, 1.0336, 1.03622, 1.03727, 1.14734, 1.14659, 1.06387, 1.09081, 1.11568, 1.11613, 1.12863, 1.11985, 1.11414, 1.10946, 1.11847, 1.09938, 1.18827, 1.198, 1.20876, 1.22445, 1.18689, 1.18907, 1.22253, 1.26074, 1.31587, 1.32008, 1.35422, 1.35752, 1.31442, 1.31643, 1.3173, 1.31706, 1.31739, 1.32266, 1.32557, 1.31947, 1.33894, 1.32558, 1.31238, 1.3188, 1.35079, 1.32893, 1.33385, 1.33126, 1.35332, 1.32671, 1.38883, 1.33375, 1.33657, 1.32477, 1.30533, 1.28045, 1.27542, 1.26247, 1.33298, 1.27384, 1.20799, 1.19203, 1.18828, 1.14054, 1.14067, 1.17319, 1.1574, 1.14629, 1.14, 1.04333, 1.03345, 1.00844, 1.04112, 1.01051, 0.97988, 0.981286, 0.976834, 0.970595, 0.950594, 0.952121, 0.949749, 0.942717, 0.936011, 0.94203, 0.942657, 0.949872, 0.952292, 0.9535, 0.973476, 0.933163, 0.933428, 0.948183, 0.955011, 0.957444, 0.959938, 0.978078, 0.974361, 1.0022, 0.97494, 0.976787, 0.977451, 1.05003, 0.973647, 1.08215, 1.05018, 1.1117, 1.09811, 1.15601, 1.1796, 0.93477, 1.25032, 1.24101, 1.28805, 1.30868, 0.933571, 0.935158, 0.945829
1.28867, 1.15954, 1.16122, 1.15989, 1.16046, 1.16059, 1.15811, 1.17323, 1.17748, 1.2965, 1.10811, 1.0973, 1.09759, 1.09765, 1.08613, 1.0823, 1.06816, 1.06455, 1.0631, 1.06232, 1.05344, 1.05124, 1.04896, 1.04837, 1.04725, 1.05115, 1.05271, 1.03862, 1.0392, 1.04044, 1.03854, 1.03728, 1.03693, 1.03928, 1.04467, 1.04303, 1.0454, 1.12252, 1.0384, 1.03815, 1.03697, 1.21579, 1.056, 1.15109, 1.15054, 1.22539, 1.17443, 1.12717, 1.16125, 1.11539, 1.10848, 1.14445, 1.15231, 1.13967, 1.21383, 1.26419, 1.21739, 1.19778, 1.20063, 1.344, 1.217, 1.2531, 1.32216, 1.32931, 1.33316, 1.33751, 1.31682, 1.31566, 1.31492, 1.31182, 1.36029, 1.31746, 1.31589, 1.37154, 1.4088, 1.34991, 1.32447, 1.33276, 1.34266, 1.34041, 1.33839, 1.35702, 1.32858, 1.36679, 1.40963, 1.36712, 1.40681, 1.29453, 1.28129, 1.27699, 1.27575, 1.25896, 1.27729, 1.22963, 1.2454, 1.18907, 1.16005, 1.17131, 1.25488, 1.22742, 1.17042, 1.13423, 1.05523, 1.04806, 1.04579, 1.015, 1.03394, 1.02286, 0.964093, 0.991864, 0.975763, 0.990581, 0.942141, 0.941982, 0.941103, 0.962239, 0.941828, 0.941359, 0.950217, 0.952347, 0.949664, 0.949432, 0.988883, 0.983963, 0.948731, 0.952835, 0.9564, 0.962827, 0.963373, 0.973306, 1.00968, 0.975088, 0.975727, 0.972833, 1.05427, 1.06061, 0.977822, 1.04915, 1.04579, 1.14697, 0.971561, 0.971269, 0.930401, 0.930742, 1.24958, 1.0436, 0.930247, 0.927352, 1.30148, 1.05297
1.27099, 1.15956, 1.16039, 1.15947, 1.16022, 1.16065, 1.16039, 1.26164, 1.20807, 1.25338, 1.10856, 1.09784, 1.09675, 1.09831, 1.08949, 1.0853, 1.30959, 1.06305, 1.06385, 1.06428, 1.05601, 1.05292, 1.04952, 1.04923, 1.04882, 1.05233, 1.05288, 1.03944, 1.03972, 1.04245, 1.04058, 1.03743, 1.03636, 1.04306, 1.04349, 1.04416, 1.04408, 1.04513, 1.03813, 1.03861, 1.04126, 1.04394, 1.05337, 1.16137, 1.15666, 1.22558, 1.173, 1.2572, 1.13063, 1.12994, 1.10611, 1.19801, 1.11148, 1.15368, 1.14402, 1.22278, 1.28678, 1.22557, 1.21744, 1.34173, 1.22956, 1.26731, 1.30566, 1.3309, 1.35311, 1.33103, 1.31281, 1.33651, 1.31928, 1.31304, 1.31079, 1.32954, 1.34609, 1.35399, 1.40569, 1.32233, 1.40315, 1.35659, 1.35539, 1.35245, 1.37122, 1.38568, 1.36034, 1.3649, 1.36712, 1.32326, 1.32483, 1.29158, 1.32282, 1.27807, 1.26841, 1.24912, 1.23661, 1.21991, 1.20825, 1.21251, 1.18929, 1.20765, 1.1794, 1.17204, 1.21417, 1.16773, 1.08712, 1.05088, 1.0212, 1.01935, 1.02913, 0.967581, 0.973119, 0.989986, 0.981699, 1.02588, 0.940661, 0.942048, 0.941996, 0.959629, 0.963745, 0.939215, 0.949846, 0.952284, 0.948901, 0.949156, 0.942191, 0.942691, 0.948594, 0.952314, 0.981598, 0.998553, 0.96285, 0.971651, 0.970944, 0.97303, 0.972502, 0.970708, 0.962732, 0.964045, 0.959094, 0.936379, 0.936572, 1.15039, 0.968714, 0.984344, 1.20091, 0.929154, 0.998597, 0.985192, 0.928908, 0.92837, 0.934242, 1.0648
1.27545, 1.15834, 1.15968, 1.1589, 1.15966, 1.15997, 1.15912, 1.18086, 1.18195, 1.25629, 1.11109, 1.09904, 1.10131, 1.10181, 1.08889, 1.0882, 1.38906, 1.0733, 1.06832, 1.54549, 1.06043, 1.05445, 1.052, 1.04954, 1.04862, 1.05377, 1.05408, 1.03934, 1.04262, 1.04112, 1.04077, 1.03667, 1.03575, 1.04232, 1.04134, 1.0419, 1.04122, 1.04574, 1.03919, 1.03912, 1.04278, 1.05296, 1.05379, 1.06754, 1.15066, 1.15402, 1.17194, 1.15344, 1.12171, 1.17284, 1.18097, 1.11436, 1.11498, 1.1268, 1.2676, 1.25421, 1.28164, 1.28166, 1.2326, 1.24716, 1.26129, 1.26037, 1.29598, 1.30287, 1.30537, 1.31975, 1.31606, 1.31587, 1.34371, 1.34215, 1.32458, 1.33797, 1.34143, 1.45341, 1.38942, 1.5109, 1.37375, 1.38686, 1.35931, 1.36016, 1.37911, 1.37933, 1.36329, 1.43315, 1.34412, 1.3244, 1.50515, 1.2888, 1.32345, 1.27935, 1.27205, 1.24501, 1.25019, 1.22929, 1.22517, 1.20669, 1.20101, 1.24274, 1.17687, 1.17378, 1.1685, 1.12913, 1.09771, 1.05836, 1.07995, 1.01723, 1.00755, 1.00916, 0.956504, 0.984073, 0.978494, 0.97387, 0.945765, 0.942175, 0.942834, 0.926844, 0.941069, 0.941403, 0.949844, 0.951327, 0.948931, 0.942963, 0.943219, 0.944285, 0.948309, 0.95014, 0.973906, 0.95832, 0.96209, 0.996517, 0.970605, 0.973063, 0.970158, 1.03844, 0.964059, 0.963084, 1.01938, 1.05007, 1.05601, 1.13626, 1.11457, 1.18331, 0.937561, 0.937184, 1.22398, 0.978096, 0.926153, 0.928308, 0.977477, 0.997353
1.21389, 1.15731, 1.15883, 1.1597, 1.15777, 1.15716, 1.15568, 1.15927, 1.22538, 1.3133, 1.31528, 1.103, 1.10303, 1.10344, 1.0878, 1.08578, 1.08551, 1.07233, 1.07256, 1.43983, 1.0614, 1.05415, 1.05285, 1.05054, 1.04907, 1.05383, 1.05425, 1.04227, 1.04316, 1.04416, 1.03917, 1.03887, 1.03885, 1.04471, 1.04273, 1.03971, 1.03989, 1.05079, 1.04261, 1.04061, 1.04397, 1.04484, 1.05213, 1.06487, 1.17482, 1.14734, 1.14776, 1.26868, 1.19207, 1.18953, 1.17658, 1.14582, 1.11243, 1.14991, 1.22906, 1.24049, 1.26543, 1.30435, 1.27831, 1.24908, 1.24071, 1.24268, 1.29965, 1.30558, 1.29101, 1.34162, 1.31456, 1.36033, 1.37285, 1.3811, 1.35425, 1.38116, 1.39169, 1.52234, 1.39028, 1.51121, 1.53827, 1.40942, 1.36029, 1.36103, 1.36769, 1.36501, 1.36391, 1.36379, 1.39786, 1.34831, 1.28701, 1.28787, 1.27279, 1.28108, 1.26935, 1.25619, 1.23565, 1.23929, 1.23961, 1.24983, 1.26035, 1.36217, 1.20528, 1.17515, 1.09818, 1.08726, 1.05565, 1.03596, 1.03876, 1.05312, 1.00242, 0.939358, 0.939847, 0.983571, 1.00238, 0.981315, 0.947129, 0.94235, 0.942923, 0.923225, 0.927417, 0.941042, 0.949062, 0.949742, 0.949509, 0.944033, 0.943413, 0.944541, 0.946756, 0.948588, 0.950037, 1.04936, 1.0351, 0.965222, 0.966736, 0.970296, 0.966236, 0.967394, 0.963484, 0.960727, 0.995682, 1.08472, 0.986071, 1.0834, 1.11274, 1.05414, 0.921594, 0.915349, 0.921296, 1.29657, 0.94211, 0.947044, 1.16138, 1.29715
1.26736, 1.15662, 1.15755, 1.15667, 1.1575, 1.15663, 1.15378, 1.14867, 1.22291, 1.28492, 1.11563, 1.10368, 1.32795, 1.32768, 1.08501, 1.08492, 1.08337, 1.07444, 1.07738, 1.07732, 1.06645, 1.46455, 1.0529, 1.05341, 1.05082, 1.05587, 1.05624, 1.04242, 1.04364, 1.04145, 1.04002, 1.03875, 1.03808, 1.04614, 1.04361, 1.04005, 1.04124, 1.05108, 1.04954, 1.04226, 1.04539, 1.04374, 1.06046, 1.06927, 1.09081, 1.17345, 1.14683, 1.12769, 1.16771, 1.16778, 1.16683, 1.17233, 1.16345, 1.16431, 1.21689, 1.22507, 1.22637, 1.27976, 1.28587, 1.30685, 1.30778, 1.26315, 1.29209, 1.28355, 1.30332, 1.29855, 1.33551, 1.33056, 1.39792, 1.42754, 1.35562, 1.35799, 1.37564, 1.54991, 1.37717, 1.60038, 1.60597, 1.41197, 1.4092, 1.39354, 1.37149, 1.3993, 1.45023, 1.4332, 1.38642, 1.32383, 1.28926, 1.30279, 1.33706, 1.30375, 1.30286, 1.30602, 1.30463, 1.23878, 1.27304, 1.26503, 1.30873, 1.22303, 1.34393, 1.20263, 1.09216, 1.08263, 1.05283, 1.05389, 1.04318, 1.08083, 1.00904, 0.937764, 0.94165, 0.942797, 0.977459, 0.957735, 1.0591, 0.939177, 0.939806, 0.923025, 0.92389, 0.942365, 0.94712, 0.949289, 0.947389, 0.94248, 0.943102, 0.944071, 0.946273, 0.947095, 0.946521, 0.96351, 1.03759, 0.96279, 0.967284, 1.01004, 1.01217, 1.02305, 1.04739, 1.02194, 1.02398, 1.02832, 1.06973, 0.917627, 0.933147, 1.20198, 0.911434, 0.915344, 0.916625, 1.02533, 0.921707, 0.925886, 0.928888, 1.09627
1.15392, 1.15497, 1.15615, 1.155, 1.15598, 1.15547, 1.15331, 1.15042, 1.16783, 1.31644, 1.31647, 1.29867, 1.23669, 1.08876, 1.08784, 1.08415, 1.08376, 1.07752, 1.07827, 1.4198, 1.07036, 1.43511, 1.05656, 1.05445, 1.05125, 1.05503, 1.05413, 1.04263, 1.04253, 1.04114, 1.041, 1.03667, 1.03855, 1.04773, 1.04807, 1.04071, 1.04237, 1.05274, 1.05263, 1.04337, 1.0475, 1.04742, 1.05105, 1.06492, 1.0824, 1.16472, 1.19903, 1.13237, 1.19891, 1.22326, 1.18416, 1.16534, 1.1436, 1.18613, 1.17522, 1.26154, 1.25157, 1.27159, 1.28474, 1.24788, 1.28638, 1.28484, 1.36831, 1.29106, 1.29176, 1.29958, 1.317, 1.32801, 1.42217, 1.42941, 1.38335, 1.36397, 1.37017, 1.38625, 1.5288, 1.62681, 1.6064, 1.433, 1.42486, 1.39788, 1.38247, 1.46143, 1.44885, 1.40279, 1.37274, 1.32641, 1.31851, 1.30684, 1.32735, 1.32763, 1.3206, 1.28911, 1.25337, 1.27213, 1.32337, 1.28768, 1.27687, 1.2563, 1.2264, 1.13614, 1.10861, 1.08098, 1.07848, 1.05141, 1.03552, 1.03432, 1.0072, 0.975107, 1.00534, 0.980827, 0.944862, 0.98036, 0.922194, 0.937559, 0.940492, 0.926634, 0.927855, 0.938831, 0.941436, 0.946663, 0.945873, 0.980528, 0.939404, 0.943215, 0.943573, 0.943246, 0.973548, 0.971432, 0.993447, 0.959703, 0.96314, 0.960342, 0.962124, 0.962422, 0.974314, 1.00885, 1.01915, 0.928948, 1.10617, 0.915191, 0.912612, 0.906851, 0.909456, 1.25259, 0.914537, 0.916896, 0.919959, 0.922883, 0.925993, 0.930459
1.24599, 1.15133, 1.15174, 1.15102, 1.15393, 1.1532, 1.15193, 1.14776, 1.1517, 1.25597, 1.31541, 1.29826, 1.09788, 1.09582, 1.09298, 1.31484, 1.29931, 1.07826, 1.07743, 1.08361, 1.07162, 1.0706, 1.0585, 1.05936, 1.0559, 1.05614, 1.05285, 1.04024, 1.04042, 1.04207, 1.04184, 1.03764, 1.0391, 1.04377, 1.0455, 1.0408, 1.04279, 1.05025, 1.04571, 1.04249, 1.04931, 1.04941, 1.05043, 1.18466, 1.16513, 1.19755, 1.19307, 1.13079, 1.22956, 1.18136, 1.15407, 1.1456, 1.16923, 1.17358, 1.22317, 1.25876, 1.25185, 1.25439, 1.35769, 1.24747, 1.2567, 1.25332, 1.33483, 1.29355, 1.29928, 1.27717, 1.32254, 1.39872, 1.42389, 1.42241, 1.39983, 1.36564, 1.36807, 1.38694, 1.54113, 1.59242, 1.61974, 1.51258, 1.42032, 1.52491, 1.44008, 1.40273, 1.44841, 1.39034, 1.39276, 1.34388, 1.32973, 1.32661, 1.32382, 1.3265, 1.34872, 1.33802, 1.24954, 1.27078, 1.34377, 1.31036, 1.31291, 1.23944, 1.20618, 1.13197, 1.11906, 1.11545, 1.07805, 1.06725, 1.03083, 1.04038, 1.00486, 0.997951, 0.946126, 0.939312, 0.945805, 0.929972, 0.9218, 0.936596, 1.06378, 0.932532, 0.923204, 0.940548, 0.945357, 0.94616, 0.941299, 0.936953, 0.936067, 0.942024, 0.939487, 0.940441, 0.976246, 0.951014, 0.953179, 0.958553, 0.990614, 0.957769, 0.959577, 1.03202, 1.03573, 1.0072, 1.06141, 1.11212, 0.912236, 0.911942, 0.908767, 0.904843, 0.908225, 0.909459, 1.11126, 0.916304, 0.919314, 0.92239, 0.924908, 0.928341
1.26873, 1.14943, 1.14983, 1.14957, 1.14422, 1.15181, 1.14838, 1.14807, 1.14547, 1.2744, 1.11906, 1.25683, 1.19387, 1.09614, 1.09403, 1.09495, 1.08489, 1.07938, 1.0798, 1.08257, 1.07184, 1.06989, 1.06191, 1.06066, 1.05545, 1.05618, 1.05544, 1.11102, 1.04119, 1.04255, 1.04319, 1.04099, 1.04281, 1.04341, 1.04566, 1.04378, 1.04675, 1.04946, 1.04927, 1.04311, 1.04934, 1.04932, 1.21536, 1.18604, 1.1644, 1.1112, 1.13931, 1.1393, 1.11842, 1.15695, 1.14242, 1.19381, 1.15767, 1.169, 1.23038, 1.2091, 1.28837, 1.26137, 1.25497, 1.24694, 1.25728, 1.32319, 1.32301, 1.29839, 1.45609, 1.31282, 1.29317, 1.39632, 1.42247, 1.42007, 1.41909, 1.37412, 1.37997, 1.43221, 1.48855, 1.48869, 1.48252, 1.44661, 1.47128, 1.52413, 1.4286, 1.4168, 1.51232, 1.42178, 1.3844, 1.35997, 1.37386, 1.35315, 1.43233, 1.48438, 1.32646, 1.34438, 1.26469, 1.27818, 1.35557, 1.3105, 1.25374, 1.20083, 1.20463, 1.11133, 1.08885, 1.10251, 1.13361, 1.07845, 1.04378, 1.03705, 1.04926, 1.00194, 1.00282, 1.00527, 1.0118, 0.993086, 0.957986, 0.942359, 0.937186, 0.938808, 0.919508, 0.942275, 0.944037, 0.944229, 0.941386, 0.934926, 0.93492, 0.937709, 0.937753, 0.939628, 0.962402, 0.950579, 0.952754, 0.968782, 0.991178, 0.959219, 0.959397, 1.0386, 1.04565, 1.01394, 1.096, 0.916989, 0.911784, 0.911107, 0.907604, 0.904242, 0.905237, 0.910375, 0.912998, 0.915553, 0.918748, 0.92196, 0.925428, 0.930056
1.28266, 1.14701, 1.1466, 1.14628, 1.14666, 1.14988, 1.14623, 1.1463, 1.16181, 1.20658, 1.11525, 1.11418, 1.21848, 1.09806, 1.09416, 1.09447, 1.08787, 1.08148, 1.08057, 1.08197, 1.07711, 1.06903, 1.06887, 1.06255, 1.05723, 1.05683, 1.05617, 1.05218, 1.05025, 1.0902, 1.04266, 1.04437, 1.04404, 1.04703, 1.04941, 1.04708, 1.04859, 1.04944, 1.1883, 1.04229, 1.05072, 1.05125, 1.08841, 1.11172, 1.26773, 1.27566, 1.1579, 1.18513, 1.11972, 1.13629, 1.14214, 1.42336, 1.30147, 1.18234, 1.17541, 1.21428, 1.32015, 1.26071, 1.27878, 1.29816, 1.31925, 1.32884, 1.34625, 1.35076, 1.45725, 1.31505, 1.28633, 1.32983, 1.42433, 1.42323, 1.42259, 1.37329, 1.44162, 1.42712, 1.49181, 1.49084, 1.45581, 1.4511, 1.45211, 1.43916, 1.42643, 1.56832, 1.50675, 1.42292, 1.38894, 1.37132, 1.3658, 1.48497, 1.48469, 1.48272, 1.36377, 1.26399, 1.26332, 1.2865, 1.35403, 1.27454, 1.32046, 1.20765, 1.15363, 1.12583, 1.12099, 1.15672, 1.09618, 1.12555, 1.08355, 1.04651, 1.04767, 1.05726, 1.02704, 1.01987, 0.964887, 0.988146, 0.94368, 0.941444, 0.973352, 0.939978, 0.920622, 0.945321, 0.943494, 0.943402, 0.936432, 0.935295, 0.933673, 0.936438, 0.937571, 0.939602, 0.97024, 0.949326, 0.950217, 0.951595, 1.05341, 1.00662, 0.958359, 1.04047, 0.943842, 1.03943, 1.08902, 0.913214, 0.909254, 0.90979, 0.911031, 0.90465, 0.90648, 0.909848, 0.911611, 0.916825, 0.918941, 0.926131, 0.928324, 0.931518
1.14242, 1.14015, 1.14303, 1.1454, 1.14636, 1.14576, 1.14585, 1.20464, 1.20515, 1.15974, 1.23447, 1.22349, 1.10848, 1.09867, 1.0942, 1.09254, 1.08815, 1.08565, 1.08208, 1.08342, 1.47515, 1.07294, 1.06963, 1.06325, 1.06001, 1.05977, 1.06026, 1.0524, 1.05035, 1.05113, 1.04464, 1.04462, 1.04477, 1.051, 1.05112, 1.04819, 1.04975, 1.05235, 1.04756, 1.04337, 1.04829, 1.05074, 1.08839, 1.18625, 1.13575, 1.27721, 1.28355, 1.16727, 1.16771, 1.13949, 1.29617, 1.29624, 1.30375, 1.19616, 1.1865, 1.21735, 1.26094, 1.24317, 1.31911, 1.28286, 1.31717, 1.33884, 1.3352, 1.45114, 1.33468, 1.35017, 1.28884, 1.29071, 1.37213, 1.43753, 1.40682, 1.38634, 1.38491, 1.5109, 1.43284, 1.48606, 1.46294, 1.50925, 1.47191, 1.44047, 1.41573, 1.44111, 1.4402, 1.43451, 1.36352, 1.37723, 1.47492, 1.4843, 1.48689, 1.48572, 1.46609, 1.26439, 1.29048, 1.29111, 1.29231, 1.32016, 1.21573, 1.27042, 1.17061, 1.12374, 1.11731, 1.12702, 1.12266, 1.13062, 1.08652, 1.08758, 1.07042, 1.07394, 1.00176, 0.995828, 0.94682, 0.963803, 0.974796, 0.960967, 0.949937, 0.929039, 0.920295, 0.942325, 0.942263, 0.940684, 0.933513, 0.933672, 0.951136, 0.935337, 0.93544, 0.969851, 0.952758, 0.948985, 0.94977, 0.950095, 1.05346, 1.00036, 1.01282, 1.0145, 1.02285, 1.07686, 1.09918, 1.11872, 0.908186, 0.910038, 0.911446, 0.906437, 0.908134, 0.909011, 0.915129, 0.917848, 0.919542, 0.927875, 0.92911, 0.930904
1.13976, 1.13922, 1.14121, 1.14066, 1.14518, 1.14265, 1.14294, 1.25368, 1.13917, 1.13903, 1.22763, 1.10791, 1.10818, 1.37538, 1.09725, 1.34345, 1.08691, 1.0858, 1.08248, 1.08375, 1.07776, 1.07374, 1.07317, 1.06301, 1.06012, 1.06137, 1.0523, 1.05141, 1.0506, 1.05247, 1.04561, 1.04446, 1.04572, 1.05029, 1.05072, 1.04946, 1.05216, 1.05424, 1.04545, 1.04348, 1.04614, 1.04596, 1.08208, 1.08931, 1.13695, 1.21377, 1.31533, 1.27868, 1.21138, 1.16703, 1.1954, 1.41516, 1.41338, 1.2053, 1.18238, 1.27083, 1.29224, 1.24756, 1.31353, 1.33662, 1.29342, 1.30216, 1.35038, 1.34284, 1.32254, 1.33322, 1.30331, 1.33609, 1.39561, 1.43505, 1.41731, 1.39547, 1.43956, 1.42957, 1.43092, 1.43618, 1.45972, 1.45872, 1.43018, 1.45516, 1.46906, 1.42137, 1.44045, 1.42947, 1.38867, 1.46003, 1.47305, 1.48849, 1.49163, 1.50884, 1.46431, 1.30178, 1.30057, 1.28449, 1.29054, 1.2226, 1.21777, 1.18889, 1.15019, 1.12199, 1.14065, 1.12512, 1.13245, 1.17462, 1.13709, 1.05333, 1.01257, 1.00228, 0.987402, 0.983944, 0.990927, 0.964312, 0.950462, 0.950322, 0.950227, 0.922746, 0.921221, 0.940642, 0.940922, 0.95313, 0.933514, 0.932026, 0.92903, 0.934849, 0.935849, 0.936016, 0.967558, 0.94831, 0.949145, 0.950141, 0.983137, 1.00135, 1.00722, 1.01202, 1.04273, 1.07943, 0.983694, 1.11604, 0.905344, 0.902757, 0.904922, 0.905092, 0.907738, 1.02375, 1.02875, 0.917111, 0.917509, 0.929231, 0.9297, 0.931668
1.13711, 1.13651, 1.13701, 1.1344, 1.14086, 1.14081, 1.21495, 1.14022, 1.138, 1.21838, 1.18558, 1.1149, 1.11241, 1.10106, 1.10135, 1.28163, 1.34359, 1.08393, 1.08459, 1.08588, 1.08618, 1.07671, 1.07079, 1.06837, 1.06275, 1.06154, 1.05767, 1.0494, 1.05066, 1.05206, 1.04595, 1.04876, 1.04899, 1.04564, 1.05256, 1.04783, 1.05618, 1.0565, 1.04553, 1.04122, 1.04649, 1.04998, 1.11182, 1.09893, 1.15787, 1.26957, 1.18867, 1.22332, 1.20677, 1.15798, 1.20741, 1.40401, 1.39556, 1.22235, 1.21691, 1.26757, 1.25649, 1.26777, 1.30119, 1.30349, 1.36721, 1.31456, 1.38706, 1.34055, 1.3543, 1.3229, 1.30216, 1.33762, 1.38276, 1.42597, 1.43232, 1.41275, 1.41343, 1.42143, 1.44808, 1.4819, 1.53686, 1.46083, 1.43877, 1.45635, 1.47504, 1.4577, 1.44292, 1.45008, 1.47215, 1.46105, 1.49112, 1.52114, 1.48345, 1.47805, 1.42466, 1.36429, 1.32334, 1.39786, 1.38885, 1.22597, 1.21439, 1.2044, 1.1672, 1.14698, 1.15327, 1.1435, 1.14818, 1.13363, 1.14708, 1.05371, 1.00387, 0.987202, 0.987734, 0.96795, 0.952839, 0.972205, 0.953579, 0.950853, 0.936974, 0.943953, 0.922254, 0.939733, 0.940792, 0.930747, 0.93254, 0.928814, 0.928232, 0.929482, 0.934181, 0.938007, 0.940199, 0.947062, 0.949562, 0.950398, 0.985019, 1.00617, 0.946904, 1.01327, 1.04183, 0.907772, 0.909186, 0.907858, 0.904612, 0.901666, 0.903828, 0.905143, 0.902264, 1.24164, 0.915004, 0.915844, 0.918205, 0.929456, 0.930216, 1.1204
1.13561, 1.1323, 1.13582, 1.1361, 1.13955, 1.1392, 1.13913, 1.13427, 1.13542, 1.13569, 1.13985, 1.11171, 1.11312, 1.10272, 1.10253, 1.10184, 1.37063, 1.08359, 1.08654, 1.08384, 1.0844, 1.07844, 1.076, 1.06328, 1.06345, 1.06417, 1.05286, 1.04895, 1.04951, 1.05207, 1.05139, 1.05122, 1.0531, 1.04884, 1.05111, 1.05439, 1.05337, 1.04787, 1.04458, 1.04297, 1.04786, 1.04918, 1.05645, 1.09522, 1.15749, 1.15071, 1.17852, 1.17863, 1.17203, 1.17009, 1.175, 1.37348, 1.20521, 1.21522, 1.21485, 1.28395, 1.27564, 1.31639, 1.36332, 1.39028, 1.29035, 1.36094, 1.3399, 1.34278, 1.34428, 1.348, 1.32209, 1.34038, 1.3727, 1.41914, 1.43096, 1.42291, 1.42297, 1.4255, 1.44811, 1.44875, 1.46401, 1.4538, 1.4536, 1.48164, 1.44356, 1.40712, 1.4416, 1.4375, 1.47187, 1.47817, 1.49126, 1.45602, 1.47573, 1.48581, 1.47141, 1.45849, 1.3464, 1.39613, 1.35249, 1.3519, 1.21029, 1.19065, 1.19697, 1.17185, 1.16214, 1.15162, 1.13753, 1.13776, 1.07939, 1.05457, 1.05337, 0.981261, 1.02406, 1.02619, 0.981602, 0.983613, 0.95943, 0.945022, 0.967223, 0.942768, 0.94612, 0.960956, 0.966524, 0.932398, 0.928575, 0.928883, 0.928648, 0.928663, 0.934344, 0.937448, 0.938686, 0.94642, 0.947396, 0.967619, 0.988226, 1.0774, 1.01441, 1.02987, 0.91073, 0.909634, 0.907511, 0.904567, 0.907356, 0.902285, 0.904167, 0.905338, 0.904237, 0.904417, 0.922755, 0.924984, 0.940514, 0.928825, 0.929958, 1.12591
1.13274, 1.13149, 1.13236, 1.13247, 1.13678, 1.13681, 1.13594, 1.13473, 1.1333, 1.21467, 1.25573, 1.11001, 1.11139, 1.10487, 1.1044, 1.10112, 1.3043, 1.08363, 1.08632, 1.08468, 1.0837, 1.07857, 1.07714, 1.06661, 1.06805, 1.06582, 1.0557, 1.05007, 1.04925, 1.05254, 1.05285, 1.05056, 1.05239, 1.04732, 1.0504, 1.04747, 1.04923, 1.05095, 1.04295, 1.03011, 1.05462, 1.05761, 1.04858, 1.1089, 1.13779, 1.15446, 1.27946, 1.1759, 1.17156, 1.17137, 1.20172, 1.21837, 1.21131, 1.27065, 1.28231, 1.27927, 1.27294, 1.41323, 1.35025, 1.30492, 1.35357, 1.34371, 1.38368, 1.35844, 1.3547, 1.35687, 1.36522, 1.38249, 1.4405, 1.4822, 1.54152, 1.51173, 1.42492, 1.41971, 1.49617, 1.49795, 1.45713, 1.45674, 1.45439, 1.46433, 1.43933, 1.40571, 1.46195, 1.44681, 1.43635, 1.48289, 1.49532, 1.47594, 1.44966, 1.46571, 1.4782, 1.34373, 1.35497, 1.32835, 1.40904, 1.35023, 1.22513, 1.21942, 1.20808, 1.22296, 1.17167, 1.15673, 1.13416, 1.10583, 1.08119, 1.06184, 1.01578, 1.01656, 1.01721, 0.985119, 0.944547, 0.95741, 0.930228, 0.955954, 0.959484, 0.960163, 0.927914, 0.929424, 0.926113, 0.92826, 0.970014, 0.926848, 0.92883, 0.925631, 0.934523, 0.93559, 0.940009, 0.944486, 0.946929, 0.957133, 0.950614, 0.946773, 1.0112, 1.05252, 0.908378, 0.908838, 0.908667, 0.908306, 0.905426, 0.906003, 0.905106, 0.905142, 0.902665, 0.904425, 1.2448, 1.22026, 0.925118, 1.20233, 1.3586, 1.36067
1.13166, 1.13132, 1.12881, 1.13288, 1.13451, 1.13378, 1.13399, 1.13288, 1.13237, 1.21592, 1.11414, 1.11154, 1.1131, 1.10689, 1.10573, 1.10155, 1.25131, 1.08493, 1.08352, 1.08382, 1.08385, 1.07456, 1.07505, 1.06882, 1.06789, 1.06659, 1.05987, 1.05608, 1.04931, 1.05301, 1.05315, 1.05976, 1.04927, 1.05054, 1.04636, 1.04695, 1.04842, 1.05099, 1.04433, 1.23029, 1.27198, 1.05901, 1.06718, 1.05978, 1.12893, 1.25157, 1.38325, 1.25205, 1.25512, 1.19298, 1.18331, 1.20509, 1.21654, 1.30232, 1.28942, 1.27202, 1.27118, 1.36327, 1.35808, 1.29124, 1.29097, 1.47234, 1.48675, 1.42624, 1.42346, 1.46854, 1.43375, 1.45672, 1.42032, 1.49895, 1.45403, 1.50586, 1.51843, 1.4348, 1.54459, 1.45473, 1.45331, 1.47118, 1.46693, 1.44505, 1.46872, 1.43243, 1.44666, 1.44582, 1.50007, 1.42279, 1.48479, 1.4613, 1.45005, 1.45944, 1.33944, 1.34518, 1.35895, 1.40925, 1.39924, 1.39397, 1.26397, 1.23072, 1.20567, 1.21322, 1.19451, 1.15025, 1.12183, 1.09849, 1.0983, 1.04951, 1.0212, 0.994701, 0.992209, 0.994957, 0.941534, 0.943454, 0.94398, 0.943074, 0.949618, 0.962731, 0.927886, 0.92839, 0.926159, 1.03457, 0.919677, 0.968242, 0.92444, 0.925328, 0.934032, 0.935246, 0.955863, 0.956688, 0.944704, 0.957891, 0.990718, 1.08126, 1.03303, 1.05921, 0.908356, 0.908708, 0.908452, 0.90996, 0.910046, 0.915677, 0.912179, 0.907777, 0.903384, 1.23088, 1.22279, 1.23842, 1.2081, 1.03601, 0.943621, 0.944014
1.12801, 1.12638, 1.12882, 1.1315, 1.13185, 1.13118, 1.13089, 1.13188, 1.1314, 1.12882, 1.27366, 1.11388, 1.11383, 1.11014, 1.1046, 1.10368, 1.15276, 1.08735, 1.08198, 1.08386, 1.08427, 1.07248, 1.07344, 1.07067, 1.0681, 1.06452, 1.05862, 1.05767, 1.05306, 1.05308, 1.05309, 1.0436, 1.04904, 1.04996, 1.04798, 1.04757, 1.03991, 1.05233, 1.04602, 1.23192, 1.06107, 1.0841, 1.09857, 1.06236, 1.10332, 1.16319, 1.30863, 1.30826, 1.26021, 1.20157, 1.20158, 1.20753, 1.22705, 1.3085, 1.30119, 1.2809, 1.26829, 1.35035, 1.34948, 1.30953, 1.30616, 1.47082, 1.38848, 1.37326, 1.42725, 1.4786, 1.38588, 1.38772, 1.42213, 1.50998, 1.50981, 1.46125, 1.46079, 1.47956, 1.5517, 1.46183, 1.45062, 1.5125, 1.47056, 1.55472, 1.45555, 1.44577, 1.4817, 1.50337, 1.47776, 1.44715, 1.41176, 1.43603, 1.44817, 1.46055, 1.43, 1.3437, 1.32553, 1.32297, 1.38779, 1.29122, 1.25833, 1.21274, 1.21279, 1.20087, 1.19838, 1.15081, 1.15309, 1.07692, 1.07078, 1.10151, 1.05217, 1.03761, 1.03989, 1.00143, 0.968811, 0.940909, 0.94941, 0.940052, 0.943181, 0.959517, 0.931509, 0.934408, 0.926601, 0.936956, 0.913373, 0.914206, 0.969588, 0.933773, 0.934015, 0.933302, 0.934358, 0.93952, 0.942063, 0.972444, 1.0047, 1.00476, 1.02739, 0.919729, 0.913098, 0.910605, 0.911117, 0.912229, 1.12307, 0.926335, 0.911247, 0.909901, 0.910749, 1.23232, 1.24881, 0.94889, 0.938899, 0.943762, 0.945191, 0.961646
1.12588, 1.12619, 1.1265, 1.12244, 1.12891, 1.12839, 1.12859, 1.12874, 1.1283, 1.12868, 1.36482, 1.11337, 1.11484, 1.10985, 1.10468, 1.10399, 1.28513, 1.26578, 1.08102, 1.08461, 1.08441, 1.07319, 1.07303, 1.07056, 1.06732, 1.06672, 1.0604, 1.0596, 1.05224, 1.05374, 1.05352, 1.0452, 1.04544, 1.04641, 1.04794, 1.04119, 1.04223, 1.05189, 1.04584, 1.04617, 1.07706, 1.08127, 1.0463, 1.1095, 1.12384, 1.13418, 1.23038, 1.46167, 1.22908, 1.2409, 1.20779, 1.21904, 1.24164, 1.29881, 1.31887, 1.31829, 1.30238, 1.29388, 1.30722, 1.30598, 1.32454, 1.4714, 1.36292, 1.41631, 1.38579, 1.47282, 1.3891, 1.38631, 1.4266, 1.43075, 1.50917, 1.46165, 1.46353, 1.45424, 1.45789, 1.44225, 1.48433, 1.48222, 1.48755, 1.46914, 1.46096, 1.46549, 1.5029, 1.50786, 1.48169, 1.44559, 1.45154, 1.48439, 1.57008, 1.49238, 1.36742, 1.35287, 1.32528, 1.32289, 1.32314, 1.28569, 1.25245, 1.25383, 1.20844, 1.19993, 1.17241, 1.15024, 1.12255, 1.08409, 1.07074, 1.10488, 1.05465, 1.02726, 0.99878, 0.995494, 0.984434, 0.974344, 0.939381, 0.944681, 0.930504, 0.940622, 0.935407, 0.935748, 0.925, 0.936224, 0.97179, 0.913563, 0.915824, 0.936255, 0.934351, 0.932761, 0.934399, 0.940075, 0.941458, 0.942858, 0.943721, 1.16955, 0.936011, 0.912289, 0.914028, 0.911718, 0.914228, 0.913028, 1.09712, 0.92473, 0.91139, 0.911095, 0.916394, 1.22798, 1.21591, 1.16497, 1.01342, 0.973462, 0.973994, 1.12494
1.1221, 1.11868, 1.12417, 1.12506, 1.12597, 1.12478, 1.12577, 1.12683, 1.12571, 1.12346, 1.12349, 1.43361, 1.39248, 1.11165, 1.10457, 1.10297, 1.09991, 1.23624, 1.08088, 1.08091, 1.08125, 1.07457, 1.07321, 1.07143, 1.06611, 1.46154, 1.05554, 1.05431, 1.05271, 1.05548, 1.05593, 1.06166, 1.04562, 1.04492, 1.04456, 1.03854, 1.25443, 1.05134, 1.04497, 1.04462, 1.04084, 1.07488, 1.06692, 1.10678, 1.15357, 1.14737, 1.17999, 1.22895, 1.22913, 1.20812, 1.21623, 1.24061, 1.23763, 1.25761, 1.26387, 1.26484, 1.26043, 1.31597, 1.28507, 1.30835, 1.41373, 1.38964, 1.35897, 1.36264, 1.37197, 1.43095, 1.39302, 1.38431, 1.38594, 1.42257, 1.46513, 1.48169, 1.4522, 1.45221, 1.45459, 1.44711, 1.53981, 1.47961, 1.48851, 1.52209, 1.52488, 1.50963, 1.49521, 1.50263, 1.50071, 1.45852, 1.44656, 1.42179, 1.49896, 1.47182, 1.37194, 1.46069, 1.33898, 1.40216, 1.32912, 1.29562, 1.28296, 1.26428, 1.20967, 1.17904, 1.16501, 1.18339, 1.13631, 1.12612, 1.0779, 1.10461, 1.06787, 1.0471, 0.996701, 0.992427, 0.970385, 1.00137, 0.966354, 0.933034, 0.933224, 0.936832, 0.936244, 0.935618, 0.926357, 0.935822, 0.960526, 0.91834, 0.917937, 0.937301, 0.93009, 0.932116, 0.935823, 0.938653, 0.94033, 0.942475, 0.944025, 0.98415, 0.936058, 0.917153, 0.914612, 0.91477, 0.916482, 0.917626, 0.919334, 1.13979, 0.91155, 0.908672, 1.20208, 0.925972, 1.21236, 1.09265, 1.27024, 1.11302, 1.127, 1.14955
1.1196, 1.11937, 1.12079, 1.12215, 1.12254, 1.12182, 1.12345, 1.12523, 1.12486, 1.12279, 1.12104, 1.1191, 1.11846, 1.11296, 1.10307, 1.1028, 1.10231, 1.09245, 1.0847, 1.0817, 1.08075, 1.07392, 1.07378, 1.41178, 1.06444, 1.46126, 1.05602, 1.05457, 1.05301, 1.05373, 1.05656, 1.06725, 1.04613, 1.04585, 1.04529, 1.03983, 1.25659, 1.05019, 1.0459, 1.0441, 1.07016, 1.04331, 1.09415, 1.19071, 1.14891, 1.1673, 1.18111, 1.22815, 1.22829, 1.23685, 1.25116, 1.24316, 1.23499, 1.23998, 1.23847, 1.24542, 1.24286, 1.25852, 1.33239, 1.3323, 1.35839, 1.34581, 1.34567, 1.36946, 1.45244, 1.39804, 1.43632, 1.38471, 1.38632, 1.42213, 1.42465, 1.47622, 1.45556, 1.45148, 1.45534, 1.45344, 1.52522, 1.61332, 1.57504, 1.52179, 1.606, 1.49038, 1.49607, 1.49707, 1.46948, 1.46095, 1.45965, 1.43333, 1.43157, 1.4264, 1.39255, 1.35048, 1.3389, 1.41221, 1.3673, 1.30485, 1.2718, 1.29454, 1.21142, 1.19516, 1.17439, 1.15874, 1.11459, 1.08494, 1.08473, 1.08242, 1.09924, 1.06361, 1.06311, 1.01216, 0.998641, 1.00672, 0.966968, 0.937232, 0.940771, 0.951097, 0.937974, 0.93078, 0.925868, 0.937432, 0.961042, 0.917806, 0.917936, 0.935704, 0.931084, 0.931813, 0.932241, 0.939292, 0.940147, 0.94232, 0.945261, 0.9457, 0.990079, 0.920546, 0.914848, 0.916883, 0.917028, 0.917004, 1.10519, 0.936125, 1.15139, 1.16907, 0.921537, 0.924577, 1.0765, 0.976046, 1.25999, 1.08628, 1.11199, 1.15613
1.11742, 1.11607, 1.11722, 1.11965, 1.12084, 1.12112, 1.12253, 1.12233, 1.12206, 1.12105, 1.12009, 1.11944, 1.11844, 1.11182, 1.10259, 1.10269, 1.10215, 1.0921, 1.08725, 1.08228, 1.08039, 1.078, 1.07768, 1.43452, 1.51652, 1.47738, 1.05391, 1.05365, 1.05321, 1.05438, 1.05724, 1.10449, 1.04697, 1.04583, 1.04616, 1.04052, 1.26469, 1.05056, 1.04383, 1.04582, 1.07623, 1.08631, 1.12017, 1.13886, 1.16168, 1.15919, 1.19016, 1.22688, 1.23077, 1.36482, 1.24738, 1.2443, 1.26758, 1.24305, 1.25137, 1.24645, 1.24753, 1.24932, 1.32194, 1.33331, 1.45098, 1.46838, 1.34485, 1.38719, 1.39105, 1.39674, 1.38936, 1.38658, 1.46809, 1.44097, 1.44866, 1.48514, 1.46465, 1.46139, 1.44712, 1.45537, 1.51972, 1.56446, 1.52675, 1.51544, 1.52043, 1.4864, 1.4959, 1.49041, 1.50769, 1.60352, 1.42122, 1.41919, 1.43531, 1.39507, 1.4233, 1.44355, 1.34331, 1.38899, 1.31522, 1.31354, 1.26889, 1.23413, 1.25124, 1.22214, 1.18044, 1.16047, 1.14981, 1.09574, 1.10174, 1.0821, 1.10013, 1.07342, 1.06593, 1.01655, 0.976941, 0.993851, 0.952471, 0.969377, 0.927112, 0.938233, 0.93046, 0.927656, 0.928649, 0.936734, 0.961304, 0.916919, 0.917865, 0.936203, 0.928757, 0.931809, 0.932775, 0.939828, 0.940389, 0.942999, 0.945506, 0.988828, 0.925022, 0.92206, 0.915658, 0.918098, 0.921484, 1.11246, 1.11593, 1.1353, 1.1568, 1.17066, 1.12658, 1.0565, 1.03536, 1.08779, 1.08745, 1.18461, 1.26322, 1.20553
1.11391, 1.11259, 1.11515, 1.11578, 1.11814, 1.11651, 1.11919, 1.12125, 1.12131, 1.12015, 1.11994, 1.11639, 1.11709, 1.11308, 1.10335, 1.10366, 1.09904, 1.08846, 1.08725, 1.08705, 1.08086, 1.07807, 1.07913, 1.07391, 1.51653, 1.51904, 1.05152, 1.05627, 1.05646, 1.0568, 1.06113, 1.05699, 1.05461, 1.04757, 1.04532, 1.04073, 1.0444, 1.04439, 1.0438, 1.04437, 1.04995, 1.04392, 1.09814, 1.1506, 1.15023, 1.20113, 1.21553, 1.23244, 1.23221, 1.24676, 1.24659, 1.25381, 1.32596, 1.24246, 1.26283, 1.25167, 1.26886, 1.37287, 1.3642, 1.39769, 1.39297, 1.3763, 1.3684, 1.41585, 1.38953, 1.39193, 1.39192, 1.40019, 1.39834, 1.40908, 1.45671, 1.42427, 1.45817, 1.46864, 1.45684, 1.45724, 1.51647, 1.51123, 1.52725, 1.64359, 1.49897, 1.49834, 1.49277, 1.49473, 1.53735, 1.47624, 1.40654, 1.4052, 1.48277, 1.42292, 1.42085, 1.371, 1.36632, 1.37115, 1.38213, 1.34379, 1.26356, 1.24714, 1.23033, 1.22332, 1.19707, 1.17149, 1.10619, 1.08989, 1.08974, 1.0791, 1.12348, 1.09985, 1.0343, 1.03384, 1.03344, 0.987258, 0.941692, 0.975104, 0.975391, 0.939253, 0.92906, 0.928695, 0.929653, 0.935275, 0.964516, 0.918999, 0.919226, 0.934426, 0.929577, 0.929702, 0.935163, 0.942024, 0.94073, 0.942934, 0.945396, 0.987952, 1.04712, 0.927217, 1.05169, 1.09039, 1.10436, 1.07336, 1.09011, 1.08439, 1.14686, 1.13018, 1.12916, 0.997684, 1.03922, 1.07254, 1.2251, 1.25569, 1.10824, 1.07731
1.1122, 1.11156, 1.11467, 1.11405, 1.11489, 1.11525, 1.1157, 1.11622, 1.11744, 1.1186, 1.11772, 1.116, 1.11231, 1.11151, 1.1073, 1.10586, 1.09905, 1.09673, 1.09083, 1.08489, 1.08072, 1.08022, 1.08056, 1.08044, 1.06449, 1.45249, 1.05177, 1.06376, 1.05852, 1.06032, 1.06224, 1.05632, 1.0542, 1.04932, 1.04405, 1.04249, 1.04635, 1.04281, 1.04264, 1.04634, 1.04292, 1.10995, 1.15024, 1.12909, 1.18258, 1.26018, 1.23409, 1.22648, 1.28458, 1.24968, 1.26712, 1.43401, 1.3104, 1.2804, 1.26496, 1.37117, 1.28236, 1.29775, 1.3825, 1.38822, 1.39396, 1.38562, 1.36232, 1.42302, 1.40036, 1.40965, 1.40524, 1.40907, 1.4082, 1.3951, 1.41376, 1.48412, 1.52646, 1.46918, 1.50716, 1.50554, 1.52652, 1.53427, 1.52865, 1.64775, 1.52747, 1.52394, 1.48451, 1.47861, 1.47386, 1.47664, 1.4225, 1.39582, 1.39572, 1.44866, 1.39658, 1.41674, 1.45499, 1.36956, 1.35781, 1.40276, 1.28197, 1.30145, 1.33642, 1.23493, 1.21188, 1.28167, 1.12087, 1.08377, 1.10718, 1.07005, 1.05961, 1.05277, 1.02537, 1.00279, 0.997377, 0.998324, 0.941406, 0.970084, 0.974953, 0.941849, 0.942725, 0.928332, 0.92907, 0.933586, 0.932523, 0.919183, 0.920736, 0.935457, 0.931012, 0.931656, 0.936195, 0.939654, 0.93928, 0.942864, 0.945434, 0.946528, 1.03202, 1.05323, 1.06949, 1.02855, 1.07103, 1.04026, 1.12949, 1.08396, 1.10577, 0.988936, 1.12282, 1.1635, 1.05717, 1.0644, 1.29935, 1.19221, 1.116, 1.07888
1.11011, 1.11094, 1.11244, 1.11205, 1.11271, 1.1141, 1.11428, 1.1136, 1.11657, 1.11699, 1.1153, 1.115, 1.15295, 1.11119, 1.10794, 1.10626, 1.09885, 1.0962, 1.09061, 1.08776, 1.08496, 1.08029, 1.08032, 1.07712, 1.06464, 1.3996, 1.523, 1.06337, 1.06096, 1.06125, 1.06097, 1.05676, 1.05647, 1.05198, 1.04345, 1.08178, 1.05107, 1.04148, 1.04435, 1.0456, 1.04162, 1.06244, 1.18445, 1.16185, 1.15098, 1.22402, 1.28091, 1.2264, 1.33662, 1.27174, 1.29303, 1.35711, 1.34686, 1.32068, 1.30958, 1.35442, 1.30652, 1.3053, 1.43793, 1.40003, 1.42992, 1.38555, 1.38494, 1.40874, 1.40768, 1.41731, 1.43949, 1.40677, 1.40767, 1.42207, 1.47384, 1.47279, 1.44697, 1.51823, 1.49847, 1.49453, 1.49767, 1.50011, 1.50629, 1.5619, 1.53436, 1.53655, 1.48354, 1.48325, 1.47773, 1.47819, 1.41134, 1.3954, 1.41378, 1.41595, 1.39988, 1.41853, 1.36704, 1.38996, 1.38922, 1.50019, 1.29745, 1.31308, 1.31361, 1.22702, 1.23556, 1.17539, 1.13723, 1.14251, 1.11114, 1.0733, 1.06027, 1.05383, 1.04119, 1.01505, 0.998214, 0.929111, 0.941243, 0.971425, 0.980871, 0.960555, 0.938533, 0.927584, 0.929852, 0.932871, 0.92455, 0.921232, 0.921412, 0.936712, 0.936432, 0.931951, 0.934082, 0.938757, 0.939014, 0.940858, 0.959332, 1.01672, 1.0462, 1.0652, 1.07352, 1.08459, 1.00241, 1.0981, 1.10652, 1.09787, 1.09652, 1.08983, 1.15838, 1.10819, 1.11174, 1.17215, 1.22227, 1.20951, 1.08334, 1.0902
1.10655, 1.10668, 1.1106, 1.11054, 1.11091, 1.11092, 1.11152, 1.11243, 1.11295, 1.1143, 1.1151, 1.1683, 1.11959, 1.15294, 1.10891, 1.10531, 1.09778, 1.09764, 1.09114, 1.0893, 1.0872, 1.08154, 1.07811, 1.07792, 1.40045, 1.39985, 1.0665, 1.06656, 1.06601, 1.06332, 1.06195, 1.05696, 1.05698, 1.27662, 1.27854, 1.04763, 1.05128, 1.04084, 1.04582, 1.04765, 1.06471, 1.08778, 1.15408, 1.17037, 1.16734, 1.26969, 1.26386, 1.24685, 1.24703, 1.43723, 1.43896, 1.33574, 1.33852, 1.42249, 1.45461, 1.37085, 1.3342, 1.37812, 1.41057, 1.41667, 1.424, 1.41708, 1.42407, 1.48004, 1.41298, 1.41352, 1.42345, 1.41169, 1.43256, 1.41374, 1.46777, 1.47483, 1.44484, 1.48911, 1.49019, 1.49775, 1.49846, 1.49898, 1.50973, 1.50858, 1.50047, 1.46114, 1.46767, 1.48506, 1.47097, 1.5899, 1.41644, 1.39909, 1.38239, 1.382, 1.38471, 1.3938, 1.36576, 1.36579, 1.39296, 1.4413, 1.316, 1.29904, 1.3011, 1.25986, 1.21315, 1.17785, 1.23014, 1.08297, 1.14394, 1.0766, 1.06547, 1.04808, 1.05647, 0.986749, 0.98133, 0.929833, 0.942756, 0.921344, 0.956549, 0.94081, 0.950898, 0.927095, 0.927987, 0.928945, 0.926748, 0.920166, 0.935695, 0.938774, 0.930423, 0.931964, 0.935069, 0.93554, 0.938679, 0.940613, 0.9481, 0.994678, 1.00966, 1.04639, 1.0689, 1.0558, 1.07504, 1.09329, 1.10206, 1.10547, 1.07881, 1.10642, 1.14271, 1.09524, 1.07347, 1.15372, 1.20589, 1.25717, 1.13696, 1.21374
1.1016, 1.10319, 1.10505, 1.10819, 1.31018, 1.10997, 1.10838, 1.11077, 1.11193, 1.11285, 1.35826, 1.11839, 1.20856, 1.36359, 1.11554, 1.1025, 1.09839, 1.09769, 1.09306, 1.08912, 1.08755, 1.08295, 1.07828, 1.08005, 1.41963, 1.39832, 1.07095, 1.06774, 1.06704, 1.06445, 1.06337, 1.05975, 1.05161, 1.05023, 1.05037, 1.04909, 1.08483, 1.04128, 1.04355, 1.05648, 1.04757, 1.07938, 1.15644, 1.22511, 1.17399, 1.18811, 1.25857, 1.2374, 1.23976, 1.31231, 1.41992, 1.3375, 1.33775, 1.34294, 1.36355, 1.33149, 1.37082, 1.32012, 1.49295, 1.41767, 1.41585, 1.43538, 1.41825, 1.41305, 1.41042, 1.46955, 1.45503, 1.46232, 1.42115, 1.40705, 1.43485, 1.48127, 1.43516, 1.4909, 1.49023, 1.49257, 1.49573, 1.50079, 1.50939, 1.50543, 1.47007, 1.46268, 1.474, 1.47203, 1.46848, 1.49513, 1.49558, 1.38255, 1.37069, 1.37627, 1.37927, 1.38135, 1.38073, 1.36009, 1.46914, 1.3991, 1.39924, 1.28153, 1.28277, 1.22714, 1.18799, 1.24218, 1.27886, 1.13993, 1.07531, 1.07644, 1.0733, 1.05941, 1.02271, 1.00057, 0.970705, 0.978275, 0.921239, 0.927233, 1.01999, 0.946311, 0.946013, 0.928662, 0.928966, 0.928408, 0.924258, 0.920131, 0.934841, 0.935811, 0.93152, 0.932842, 0.934524, 0.935044, 0.951104, 0.943481, 0.946355, 0.996295, 1.01261, 0.992155, 1.04935, 1.09101, 0.978638, 1.0478, 1.09431, 1.10514, 1.06505, 1.09807, 1.13905, 1.09154, 1.15262, 1.15056, 1.21322, 1.2302, 1.23026, 1.2397
1.09999, 1.1009, 1.21153, 1.2774, 1.29124, 1.3137, 1.10562, 1.10788, 1.10764, 1.36811, 1.1572, 1.11834, 1.1022, 1.12209, 1.33053, 1.3422, 1.09903, 1.09774, 1.09419, 1.3381, 1.08684, 1.08385, 1.08051, 1.08081, 1.75144, 1.46692, 1.07471, 1.06689, 1.0669, 1.45797, 1.06312, 1.06028, 1.04956, 1.04956, 1.05086, 1.05176, 1.0601, 1.04574, 1.04882, 1.0485, 1.04595, 1.10306, 1.12174, 1.23084, 1.19069, 1.17506, 1.22289, 1.24037, 1.26873, 1.27549, 1.3019, 1.3115, 1.33672, 1.34298, 1.34373, 1.36632, 1.32631, 1.32637, 1.33644, 1.40282, 1.38548, 1.38462, 1.37459, 1.40236, 1.45085, 1.46231, 1.46016, 1.52646, 1.48471, 1.42434, 1.43328, 1.48969, 1.44208, 1.4934, 1.49766, 1.48375, 1.49192, 1.47202, 1.51199, 1.51991, 1.48839, 1.47158, 1.46145, 1.47464, 1.47456, 1.47101, 1.39559, 1.39355, 1.37408, 1.37593, 1.3841, 1.36476, 1.36382, 1.35538, 1.35678, 1.40517, 1.31921, 1.28399, 1.27814, 1.21839, 1.20223, 1.25833, 1.15014, 1.10832, 1.1272, 1.07242, 1.06293, 1.06391, 1.02122, 1.06009, 0.97404, 0.98826, 0.924485, 0.923814, 1.02306, 0.944304, 0.949494, 0.930301, 0.930032, 0.927761, 0.924268, 0.91836, 0.931796, 0.935192, 0.935889, 0.932869, 0.935392, 0.935316, 0.938966, 0.960463, 0.945484, 1.20596, 0.991755, 1.04012, 1.04126, 1.04624, 1.00125, 1.00017, 1.05946, 1.09764, 1.03762, 1.10536, 1.11492, 1.10187, 1.15708, 1.1352, 1.14001, 1.20231, 1.22964, 1.23368
1.09876, 1.09937, 1.28087, 1.27838, 1.12149, 1.29851, 1.10339, 1.10532, 1.10687, 1.10736, 1.12918, 1.10219, 1.10182, 1.10069, 1.09911, 1.09856, 1.09881, 1.09409, 1.09102, 1.08151, 1.08769, 1.08657, 1.08299, 1.08269, 1.0839, 1.08457, 1.08563, 1.06748, 1.06788, 1.05949, 1.06226, 1.0617, 1.05485, 1.04943, 1.05087, 1.05215, 1.04853, 1.04669, 1.06019, 1.06752, 1.06926, 1.09351, 1.09786, 1.14598, 1.17437, 1.17442, 1.20189, 1.2204, 1.26168, 1.32215, 1.28262, 1.29969, 1.32861, 1.39015, 1.35243, 1.3519, 1.33347, 1.323, 1.31971, 1.33737, 1.384, 1.37609, 1.37777, 1.39383, 1.44061, 1.5229, 1.49434, 1.46353, 1.45393, 1.42098, 1.43781, 1.50205, 1.45047, 1.49053, 1.49548, 1.48628, 1.5152, 1.6488, 1.51795, 1.5178, 1.53284, 1.5135, 1.48018, 1.48238, 1.48199, 1.44941, 1.40686, 1.37251, 1.36583, 1.36589, 1.36944, 1.36403, 1.36368, 1.3544, 1.36048, 1.38641, 1.32532, 1.29571, 1.28858, 1.21044, 1.18644, 1.15318, 1.12334, 1.11371, 1.10267, 1.08437, 1.0907, 1.09569, 1.10081, 0.996349, 0.990724, 0.949878, 0.973475, 0.929629, 0.94113, 0.946134, 0.941558, 0.946191, 0.929776, 0.922351, 0.922278, 0.918463, 0.931542, 0.933398, 0.935658, 0.933974, 0.935699, 0.938873, 0.939381, 0.941054, 0.943235, 0.984986, 0.959153, 1.02489, 0.999314, 1.01902, 1.00223, 1.01496, 1.08072, 1.0563, 1.09543, 1.11293, 1.10917, 1.12452, 1.11754, 1.13018, 1.15996, 1.17834, 1.20901, 1.15781
1.10101, 1.30577, 1.27505, 1.31864, 1.29185, 1.31887, 1.29827, 1.10221, 1.10334, 1.10456, 1.10186, 1.10253, 1.10192, 1.10097, 1.09939, 1.09798, 1.09821, 1.09839, 1.09251, 1.2993, 1.08853, 1.08799, 1.08521, 1.0836, 1.07858, 1.07936, 1.08595, 1.0701, 1.07025, 1.45825, 1.06487, 1.06286, 1.05714, 1.0508, 1.30517, 1.05405, 1.04644, 1.04454, 1.05013, 1.05014, 1.06565, 1.09503, 1.08558, 1.17474, 1.1813, 1.17891, 1.19965, 1.22062, 1.23786, 1.23753, 1.26967, 1.28532, 1.34809, 1.27757, 1.35316, 1.35055, 1.30964, 1.32428, 1.34788, 1.35414, 1.39555, 1.38963, 1.38314, 1.37838, 1.45322, 1.4767, 1.49392, 1.552, 1.55106, 1.54915, 1.50067, 1.50122, 1.54836, 1.54571, 1.50171, 1.49812, 1.65413, 1.65132, 1.64904, 1.51222, 1.50525, 1.53564, 1.5352, 1.4782, 1.46131, 1.46092, 1.42208, 1.3747, 1.36781, 1.4322, 1.38828, 1.38971, 1.36846, 1.5438, 1.36011, 1.44327, 1.33057, 1.27103, 1.24941, 1.19457, 1.18088, 1.1918, 1.12543, 1.19062, 1.07721, 1.07718, 1.1008, 1.09902, 1.0473, 1.01881, 0.984946, 0.962541, 0.936743, 1.01457, 0.944392, 0.938746, 0.963643, 0.931044, 0.925906, 0.923001, 0.918543, 0.918212, 0.929596, 0.930988, 0.935776, 0.936786, 1.0244, 0.998596, 0.940373, 0.941855, 0.943475, 0.986053, 0.98463, 1.02091, 1.03459, 0.973199, 1.06355, 1.00896, 0.992691, 1.05477, 1.06401, 1.08587, 1.08726, 1.09493, 1.11576, 1.09449, 1.09742, 1.17064, 1.22182, 1.23657
1.09727, 1.2231, 1.22344, 1.31193, 1.27967, 1.31004, 1.10114, 1.10224, 1.10276, 1.10117, 1.1024, 1.1032, 1.10232, 1.10105, 1.09945, 1.09761, 1.09828, 1.09874, 1.09224, 1.09094, 1.08852, 1.08975, 1.08998, 1.44997, 1.07936, 1.08885, 1.08936, 1.48928, 1.06959, 1.06829, 1.06617, 1.06015, 1.05863, 1.08178, 1.05382, 1.05452, 1.04349, 1.04364, 1.05093, 1.04714, 1.06631, 1.06856, 1.09552, 1.26555, 1.24262, 1.24486, 1.25681, 1.31247, 1.26273, 1.27242, 1.28597, 1.26606, 1.26874, 1.24682, 1.29705, 1.31185, 1.32027, 1.32309, 1.33805, 1.35187, 1.37837, 1.4514, 1.40033, 1.39618, 1.4403, 1.441, 1.44509, 1.53019, 1.45759, 1.55059, 1.53806, 1.48208, 1.52911, 1.48565, 1.538, 1.49946, 1.69646, 1.69797, 1.74256, 1.50809, 1.50696, 1.5544, 1.62132, 1.49244, 1.44561, 1.43939, 1.4507, 1.37216, 1.36908, 1.43225, 1.39894, 1.35756, 1.36925, 1.38863, 1.36022, 1.40335, 1.35161, 1.29591, 1.2441, 1.18222, 1.15243, 1.15288, 1.1429, 1.11713, 1.09787, 1.09558, 1.07045, 1.07151, 1.04669, 1.01618, 0.978646, 0.955907, 0.966645, 0.934933, 0.927986, 0.966406, 0.987345, 0.930432, 0.92609, 0.924322, 0.918797, 0.938029, 0.936909, 0.929543, 0.935812, 0.93768, 0.946415, 0.946714, 0.942915, 0.94089, 0.942612, 0.95435, 1.22592, 0.997682, 1.01794, 0.973571, 0.975289, 1.05408, 0.991642, 1.0469, 1.06707, 1.06741, 1.10409, 1.09287, 1.10789, 1.1369, 1.12061, 1.17207, 1.16003, 1.22254
1.09551, 1.09613, 1.30688, 1.24124, 1.2982, 1.30813, 1.09886, 1.10083, 1.10109, 1.10155, 1.10344, 1.10369, 1.10268, 1.1012, 1.09924, 1.09774, 1.09733, 1.09382, 1.09144, 1.09066, 1.09012, 1.09005, 1.09018, 1.07534, 1.07627, 1.07835, 1.602, 1.0807, 1.06846, 1.06832, 1.06745, 1.06013, 1.05943, 1.05714, 1.05771, 1.05844, 1.04883, 1.03516, 1.04707, 1.06089, 1.06697, 1.08806, 1.13132, 1.23724, 1.23155, 1.23384, 1.34313, 1.28419, 1.26353, 1.26714, 1.26705, 1.25457, 1.25835, 1.2506, 1.27859, 1.28952, 1.28779, 1.3336, 1.36025, 1.35073, 1.36807, 1.45017, 1.40236, 1.43234, 1.46742, 1.42355, 1.40466, 1.43607, 1.42099, 1.54256, 1.57541, 1.4831, 1.50036, 1.48418, 1.54803, 1.50638, 1.5013, 1.49507, 1.49022, 1.55778, 1.56388, 1.51641, 1.51482, 1.49607, 1.50319, 1.42635, 1.43451, 1.40192, 1.39809, 1.40605, 1.39263, 1.36132, 1.41026, 1.3808, 1.36809, 1.35629, 1.35427, 1.28837, 1.27753, 1.24271, 1.16323, 1.20595, 1.10277, 1.18367, 1.10768, 1.08464, 1.06424, 1.0846, 1.09588, 0.998049, 0.969724, 0.953925, 0.982791, 0.919576, 0.993879, 0.922923, 0.949884, 0.949898, 0.925527, 0.923769, 0.923149, 0.938795, 0.93895, 0.930529, 0.936662, 0.93877, 0.94632, 0.947676, 0.941372, 0.941099, 0.94203, 0.980987, 0.957007, 0.959411, 1.02661, 0.971044, 1.05672, 1.0527, 0.99103, 1.05729, 1.07141, 1.08831, 1.07401, 1.11055, 1.11844, 1.11005, 1.14314, 1.14911, 1.17882, 1.20676
1.09456, 1.09394, 1.31039, 1.07541, 1.07632, 1.22816, 1.09802, 1.09856, 1.09965, 1.10165, 1.10356, 1.10391, 1.1029, 1.10125, 1.09912, 1.09773, 1.09587, 1.09304, 1.09244, 1.09078, 1.09082, 1.09108, 1.09065, 1.07593, 1.07654, 1.07965, 1.0792, 1.08148, 1.0819, 1.06996, 1.07044, 1.05915, 1.0552, 1.05527, 1.05894, 1.05765, 1.04291, 1.04179, 1.04342, 1.05041, 1.14977, 1.14602, 1.1854, 1.23839, 1.23848, 1.2431, 1.26222, 1.27111, 1.27159, 1.28137, 1.28147, 1.25038, 1.24526, 1.25313, 1.26657, 1.27889, 1.28798, 1.37022, 1.40449, 1.3736, 1.40057, 1.45565, 1.44853, 1.43842, 1.46834, 1.43064, 1.41032, 1.43441, 1.43202, 1.46885, 1.54841, 1.51088, 1.4921, 1.61046, 1.49228, 1.57821, 1.49951, 1.49574, 1.58036, 1.56359, 1.65218, 1.65321, 1.59876, 1.46777, 1.45739, 1.49755, 1.45477, 1.44058, 1.42688, 1.44721, 1.40531, 1.36357, 1.40386, 1.40189, 1.34717, 1.39143, 1.35671, 1.29, 1.27855, 1.20865, 1.15869, 1.13606, 1.14476, 1.09486, 1.09544, 1.07479, 1.0927, 1.08598, 1.00489, 1.0012, 0.97335, 0.956423, 0.956002, 0.915031, 0.901374, 0.922023, 0.971721, 0.951057, 0.923515, 0.925512, 0.916154, 0.936929, 0.937702, 0.931813, 0.936413, 0.937641, 0.948412, 0.948713, 0.95802, 0.941181, 0.969028, 0.983426, 0.992578, 1.02027, 1.02961, 1.03834, 1.05157, 0.987036, 1.06381, 1.06156, 1.07488, 1.06101, 1.07675, 1.11256, 1.11609, 1.12792, 1.16075, 1.17334, 1.18058, 1.22609
1.09155, 1.09303, 1.32234, 1.07596, 1.0765, 1.30687, 1.0963, 1.09674, 1.0968, 1.09911, 1.10343, 1.1047, 1.10245, 1.101, 1.09907, 1.09759, 1.09495, 1.09376, 1.09319, 1.09194, 1.0939, 1.09627, 1.09571, 1.40032, 1.07739, 1.08083, 1.08033, 1.08118, 1.08147, 1.07308, 1.21355, 1.05643, 1.05422, 1.05463, 1.05291, 1.0535, 1.04439, 1.04407, 1.04359, 1.04526, 1.09164, 1.16996, 1.16251, 1.24702, 1.23941, 1.24857, 1.33039, 1.25176, 1.27677, 1.28495, 1.27381, 1.27364, 1.32085, 1.25616, 1.27273, 1.29603, 1.31513, 1.4036, 1.40046, 1.52427, 1.39264, 1.41346, 1.42572, 1.43743, 1.43791, 1.4561, 1.40362, 1.4297, 1.42927, 1.42604, 1.47601, 1.51928, 1.53722, 1.44981, 1.47123, 1.56058, 1.51575, 1.51529, 1.56088, 1.5683, 1.653, 1.65286, 1.53837, 1.46862, 1.45796, 1.49146, 1.46067, 1.47819, 1.48579, 1.45098, 1.45023, 1.37243, 1.37166, 1.37785, 1.41197, 1.38488, 1.35256, 1.31334, 1.311, 1.27418, 1.25519, 1.17767, 1.09247, 1.09761, 1.09061, 1.06079, 1.06064, 1.10282, 1.02215, 0.97894, 0.949209, 0.962904, 0.905367, 0.919577, 0.919173, 0.963873, 0.953117, 0.95265, 0.924426, 0.925171, 0.916395, 0.93691, 0.936014, 0.933363, 0.932375, 0.936207, 0.947062, 0.948981, 0.956751, 0.939941, 0.971024, 0.981594, 0.952116, 1.01693, 1.02251, 1.03362, 1.03512, 1.05572, 1.03948, 1.04619, 1.0719, 1.06752, 1.09178, 1.09123, 1.11998, 1.12004, 1.16003, 1.21107, 1.20162, 1.21178
1.09106, 1.09149, 1.08698, 1.07663, 1.07682, 1.30161, 1.09576, 1.09586, 1.09564, 1.1011, 1.10344, 1.10469, 1.10342, 1.10229, 1.09989, 1.0976, 1.09514, 1.09508, 1.09417, 1.09491, 1.09627, 1.09607, 1.09527, 1.08003, 1.07803, 1.07757, 1.08122, 1.08088, 1.08084, 1.07062, 1.0702, 1.06069, 1.0514, 1.05403, 1.05278, 1.05387, 1.0452, 1.04247, 1.04644, 1.05399, 1.09969, 1.10415, 1.12071, 1.20327, 1.23264, 1.25621, 1.26517, 1.25684, 1.31061, 1.32284, 1.26782, 1.26728, 1.31895, 1.281, 1.2732, 1.28968, 1.41215, 1.41088, 1.40899, 1.38885, 1.3847, 1.39329, 1.43894, 1.43751, 1.45336, 1.46081, 1.40841, 1.47799, 1.43094, 1.45645, 1.49242, 1.49715, 1.47515, 1.45459, 1.45303, 1.55151, 1.50256, 1.57799, 1.54211, 1.54106, 1.65541, 1.66081, 1.51923, 1.46255, 1.47445, 1.47405, 1.46209, 1.47825, 1.43253, 1.43026, 1.42591, 1.37829, 1.42008, 1.37642, 1.35691, 1.36817, 1.3499, 1.28415, 1.27135, 1.24972, 1.20151, 1.14231, 1.09957, 1.09517, 1.06543, 1.06606, 1.06301, 1.03008, 1.01328, 0.981706, 0.99965, 0.964332, 0.90514, 0.934347, 0.939473, 0.965227, 0.937108, 0.964608, 0.923876, 0.961183, 0.91534, 0.936399, 0.935104, 0.933141, 0.932352, 0.938629, 0.946136, 0.949066, 0.940373, 0.939344, 0.971089, 1.06903, 0.950425, 0.990061, 1.02591, 1.03271, 1.01837, 0.989733, 0.997127, 1.05682, 1.06899, 1.07079, 1.09554, 1.1242, 1.12904, 1.15878, 1.16836, 1.20407, 1.25104, 1.09014
1.08788, 1.08717, 1.0843, 1.07691, 1.07707, 1.28869, 1.09235, 1.09496, 1.09344, 1.0981, 1.10171, 1.10344, 1.10455, 1.10151, 1.10118, 1.09927, 1.09572, 1.09492, 1.09547, 1.10151, 1.09949, 1.09757, 1.09572, 1.26189, 1.0803, 1.08228, 1.08362, 1.0785, 1.08036, 1.07192, 1.07075, 1.05832, 1.05317, 1.05278, 1.05198, 1.05264, 1.0458, 1.06043, 1.08179, 1.07484, 1.07105, 1.13817, 1.13062, 1.15461, 1.20865, 1.23711, 1.22015, 1.22104, 1.25313, 1.28742, 1.27095, 1.30729, 1.28691, 1.28446, 1.29821, 1.3262, 1.46581, 1.42601, 1.41016, 1.44641, 1.38298, 1.3807, 1.43355, 1.46094, 1.53027, 1.47135, 1.4375, 1.3936, 1.45154, 1.43341, 1.44686, 1.44705, 1.47332, 1.45562, 1.45461, 1.56227, 1.54761, 1.53034, 1.53018, 1.56498, 1.66262, 1.66237, 1.73419, 1.46415, 1.47013, 1.4584, 1.45229, 1.43147, 1.43833, 1.42289, 1.42353, 1.38077, 1.38118, 1.38409, 1.33113, 1.31246, 1.35781, 1.26105, 1.26086, 1.31738, 1.19341, 1.1132, 1.0841, 1.06546, 1.06372, 1.06426, 1.06088, 1.02793, 1.01784, 0.962826, 0.963936, 0.953188, 0.926513, 0.93402, 0.910396, 0.92101, 0.936698, 0.936687, 0.950204, 0.964659, 0.914363, 0.93667, 0.934747, 0.932583, 0.933959, 0.935593, 0.946599, 0.949003, 0.940386, 0.94113, 0.946389, 0.946784, 0.947442, 1.00958, 1.02524, 1.02973, 1.04112, 0.990867, 1.06575, 1.06822, 1.08435, 1.07535, 1.09604, 1.13905, 1.15561, 1.15498, 1.18425, 1.19551, 1.04065, 1.25392
