1.12815057721715,1.12976326276125,1.12714393273739,1.12628109461189,1.12477112789225,1.11762189770948,1.11689259405578,1.1084593785672,1.10451497570774,1.0971500359936,1.09217844488949,1.08812105132312,1.08501894282428,1.08448480493706,1.08268722550892,1.08342680104507,1.08786425426196,1.08646727824923,1.0728981215374,1.0706896668114,1.07161413623159,1.07195310835232,1.07428482566768,1.07409993178364,1.0752606545001,1.07934886371381,1.07914342606488,1.062030469909,1.05553864020281,1.05342263241883,1.05307338841565,1.05334045735926,1.05285767888427,1.05314529159277,1.05389513901137,1.04947822955937,1.04777309707325,1.04816342860622,1.04632476164829,1.04774228142591,1.0502794363902,1.04879001343546,1.0495295889716,1.0491084417913,1.05008427062372,1.06059240636649,1.05987337459523,1.05272414441247,1.05215919087791,1.05230299723216,1.05182021875717,1.05371024512733,1.05472716148954,1.0561549531496,1.0551174930225,1.05570299032195,1.0580552514022,1.06542019111635,1.06499904393604,1.06169149778827,1.0626262390909,1.05766491986924,1.05444982066348,1.05435737372146,1.05984255894789,1.06714586736736,1.05036161144977,1.04981720168011,1.04964257967852,1.05503531796293,1.05549755267302,1.05279604758959,1.0486462070812,1.05310420406299,1.14596202137939,1.08839839214918,1.04097311089367,1.04208247419789,1.29823240676637,1.03690544544485,1.03800453686663,1.03582689778797,1.026795858741,1.02550262874099,1.02450112020245,1.02415393057576,1.01520095783539,1.02528281045663,1.00514067616728,0.997582625063141,1.00020298227524,1.00038068584157,0.999616457787549,0.996179485920949,0.995865166318086,0.993660820345066,0.990091341194905,0.983103379566548,0.995569336103626,0.976593060471954,0.977534992092298,0.980867190757944,0.979102481353635,0.978304356087541,0.979648945499789,0.983183500249631,0.987568566866044,0.992964386715193,1.00096207438804,0.988114003823953,0.984121323116997,0.986747843458568,1.00733783182259,1.00735940277572,1.00072479390353,1.00311095219585,1.00508315362558,1.01027764457878,1.04395195680315,1.04724923106848,1.01871907757331,1.06720749866204,1.03305348952741,1.03547765378479,1.03746012709696,1.03737795203739,1.0436746159771,1.11394456379363,1.04004864147348,1.17978733027573,1.1610719604582,1.04672536506371,1.04745466871741,1.24911226490719,1.05848667046496,1.06002745283193,1.06071566895585,1.06399239945628,1.07983164218879,1.35158456419352,1.08993917451615,1.08536818682746,1.14118559604176,1.11018505481821,1.07359660954376,1.11766298523927,1.07169631129116,1.07442863202193,1.10343642805086,1.12253185751891
1.13084181041813,1.13130404512823,1.13095480112505,1.12501765307097,1.12653789167305,1.12098080326949,1.1189058830153,1.45854567610897,1.10002616307862,1.09692405457978,1.09408901502454,1.08830594520716,1.0855530807115,1.08111562749461,1.07930777618402,1.08613857801095,1.08688842542954,1.08016034242708,1.07253860565177,1.07212773035391,1.0706896668114,1.07090537634278,1.0668890703062,1.06813196808222,1.1989752066858,1.07133679540553,1.14645507173682,1.06198938237921,1.06332472709726,1.05324801041724,1.04998155179925,1.05210783146568,1.05336100112415,1.05368970136244,1.05349453559595,1.0527755038247,1.04844076943227,1.04636584917808,1.0477833689557,1.04808125354665,1.04776282519081,1.04834832249026,1.04824560366579,1.0493960544998,1.05058759286359,1.05101901192635,1.06088001907499,1.05669936291926,1.0565966440948,1.05500450231559,1.05391568277626,1.05656582844746,1.05646310962299,1.05809633893199,1.05727458833627,1.05759301669211,1.06110600048881,1.06693015783598,1.06946731280027,1.06495795640625,1.06413620581053,1.05958576188673,1.05955494623939,1.05946249929737,1.0593803242378,1.06020207483352,1.13800131248335,1.05000209556414,1.0486462070812,1.16117467928266,1.05631930326874,1.05701779127511,1.05701779127511,1.06021234671597,1.07479841979001,1.07366851272089,1.14913603305536,1.04736222177539,1.04427038515899,1.04113746101281,1.03918580334797,1.03615559802625,1.03589880096509,1.02827706418979,1.02870848325254,1.02812298595309,1.24429475203978,1.01386766749383,1.01420355804983,1.03408067777206,1.00166980708861,0.999726366929727,1.00001192526174,0.999146005571499,0.998720749638214,0.993679309733469,0.988847416230634,0.988105786317996,0.989987595182196,0.975316265483853,0.977504176444959,0.980796314769063,0.98183582927265,0.980824048851669,0.980322780988279,0.98174543670712,0.981763926095524,0.97913226981273,0.982854800011343,0.989036418867649,0.981247250408465,1.00288599797027,0.99441066776366,0.995120454840714,1.14967017094258,1.00120551800202,1.0038988055795,1.02943778690624,1.00793770975746,1.0493960544998,1.04856403202163,1.06451626546105,1.03324865529389,1.03346436482527,1.03403959024227,1.03558037260925,1.03846677157672,1.03828187769268,1.03944260040914,1.17152873678874,1.04697189024242,1.0468999870653,1.04608850835202,1.05736703527829,1.05876401129101,1.05782926998838,1.05944195553248,1.34246313258102,1.24707843218278,1.14283936911565,1.08675489095774,1.08642619071945,1.0868576097822,1.07907152288775,1.07414101931343,1.14972153035481,1.10222434592217,1.16110277610554,1.07800324711331,1.14191489969547
1.13201280501704,1.13202307689948,1.12880797769373,1.12598321002094,1.12576750048956,1.12206962280882,1.11554697745529,1.11518746156966,1.10458687888487,1.09906060612865,1.09308237054478,1.08896334568374,1.08557362447639,1.08270776927381,1.0800987111324,1.08727875696251,1.08707331931358,1.07396639731184,1.07312410295123,1.07521956697031,1.06987818809813,1.06976519739122,1.06576943511953,1.0639307681616,1.0640848463983,1.06726912995672,1.066447379361,1.06726912995672,1.06766973337213,1.06240025767707,1.05281659135449,1.05299121335608,1.05147097475399,1.05416220795498,1.05196402511143,1.05208728770078,1.05195375322898,1.04682808388817,1.04579062376108,1.04721841542114,1.04772173766102,1.04719787165625,1.04648911176744,1.05001236744659,1.05069031168806,1.05859966117187,1.06232835449995,1.062605695326,1.06009935600906,1.05925706164844,1.05798334822508,1.05700751939266,1.05698697562777,1.05971929635854,1.06301657062386,1.06245161708931,1.06683771089396,1.06661172948014,1.06792653043329,1.0643930028717,1.06762864584234,1.06383832121958,1.06416702145787,1.06645765124344,1.06472170310998,1.06346853345151,1.06758755831256,1.12129923162533,1.06034588118777,1.07953375759784,1.16839581264255,1.06724858619182,1.0634890772164,1.06762864584234,1.08658026895615,1.16061999763055,1.15685021677268,1.12568532542999,1.04088066395165,1.04243171820107,1.03590907284754,1.03860030604852,1.03283777999603,1.03374170565133,1.0316154259849,1.02985893408655,1.03409094965451,1.01845509019444,1.01826608755742,1.04596524576267,1.30978827451869,1.00776308775587,1.12875661828149,1.00450279226735,1.00021325415769,0.994105592854999,0.992842151314079,0.992978767350618,0.983488575158292,0.978254023863553,0.978089673744409,0.982316553371146,0.983870689185302,0.979858491901697,0.980625801520451,0.981247250408465,0.981072628406874,0.981722838565738,0.981102416865969,0.981796796119353,0.977902725483883,1.00390394152072,0.994654111377643,0.995907281036116,0.993990547771598,1.00104322225937,1.00329276451515,1.00218134683444,1.03679245473794,1.04313020620743,1.0291193585504,1.02583235616752,1.02677531497611,1.03226255457903,1.03191331057585,1.03324865529389,1.03547765378479,1.03750121462675,1.03614532614381,1.1914870043823,1.04447582280792,1.04442446339569,1.04465044480951,1.05480933654911,1.05655555656501,1.05502504608048,1.05739785092563,1.06007881224416,1.2887411873858,1.08494703964715,1.08513193353119,1.0868576097822,1.08930231780447,1.08887089874172,1.07913315418243,1.0856866151833,1.08863464544545,1.08783343861462,1.08162922161693,1.07831140358671
1.13633726752701,1.13498137904408,1.12960918452455,1.12414454306301,1.12415481494546,1.12341523940931,1.11761162582704,1.11191073106923,1.10703158690714,1.10043703837648,1.09360623654956,1.09191137594588,1.08583042153755,1.08384794822538,1.08400202646207,1.0897953681619,1.11128414623999,1.07438754449214,1.07396639731184,1.06536883170411,1.06908725314975,1.06877909667635,1.06648846689078,1.06330418333237,1.06430055592968,1.06694042971843,1.06310901756588,1.06457789675573,1.06732048936895,1.20527187062551,1.05295012582629,1.05253925052843,1.04966312344341,1.05044378650934,1.05034106768488,1.05050541780402,1.0471875997738,1.04629394600096,1.04706433718444,1.04783472836793,1.04801962225197,1.04644802423765,1.0458625269382,1.04923170438066,1.05019726133063,1.19229848309557,1.06490659699402,1.06328363956747,1.06238998579463,1.06198938237921,1.06456762487329,1.06105464107658,1.06060267824894,1.06386913686692,1.06732048936895,1.06804979302265,1.06913861256198,1.06794707419819,1.07844493805851,1.07116217340394,1.07028906339599,1.06422865275255,1.06706369230779,1.06814223996467,1.06703287666045,1.06787517102106,1.06955975974229,1.07087456069544,1.17203205902862,1.07335008436505,1.0727645870656,1.06610840724026,1.24924579937899,1.07692469945643,1.07859901629521,1.08827512955982,1.14227441558109,1.06627275735941,1.05409030477785,1.03834350898736,1.03430665918588,1.03886737499213,1.03450182495237,1.03260152669976,1.02603779381645,1.03163596974979,1.01995786659636,1.02038517690614,1.02061629426118,1.02915017419774,1.03019790620728,1.01717007770038,1.01341056872496,1.00248436736661,0.999579479010742,0.996887218621513,0.993512905237836,0.992390188486433,0.979173357342516,0.979005925658638,0.979508220710272,0.980623747143962,0.982909240988309,0.984314434506991,0.981195890996232,0.980665861861993,0.981692022918399,0.985569658541954,0.985407362799299,0.976495477588712,0.976370160622865,1.2417165095457,0.993973085571439,0.994528794411795,1.02156336182275,1.00518792682653,1.00676466078207,1.0035721597177,1.00337802113946,1.03541602249011,1.05345344806617,1.02240462899512,1.02543688869333,1.02960213702539,1.03054715021046,1.02891392090147,1.03140998833597,1.03189276681096,1.0339574151827,1.03765529286344,1.04233927125905,1.04257552455532,1.04383896609624,1.05814769834422,1.05658637221235,1.06043832812979,1.05827096093358,1.26771464401781,1.29963965466154,1.08652890954391,1.08607694671627,1.08835730461939,1.08844975156141,1.08593314036202,1.08632347189498,1.08608721859871,1.08740201955187,1.09009325275285,1.09784852399996,1.30198164385935
1.1397578043817,1.13574149834512,1.13068773218144,1.13002005982241,1.12750344862302,1.12603456943317,1.34257612328793,1.11423217650214,1.44513059763383,1.2772777665755,1.09528055338834,1.09197300724056,1.08616939365829,1.08382740446048,1.08695005672422,1.08989808698637,1.08058148960739,1.0778902564064,1.07439781637459,1.07144978611244,1.06934405021091,1.06898453432528,1.06615976665249,1.06661172948014,1.06724858619182,1.06477306252222,1.061455244492,1.05987337459523,1.06220509191059,1.06169149778827,1.06168122590582,1.05314529159277,1.052046200171,1.04919061685087,1.04960149214873,1.04945768579448,1.04632476164829,1.04612959588181,1.04709515283178,1.04641720859031,1.04786554401527,1.04660210247435,1.04771146577857,1.0483791381376,1.05022807697797,1.2580385307532,1.08606667483382,1.06772109278436,1.07162440811404,1.26826932566992,1.15958253750345,1.06429028404723,1.16300307435814,1.07416156307832,1.07302138412676,1.07123407658107,1.0733398124826,1.08189629056054,1.07439781637459,1.07301111224431,1.25166996363637,1.1441747138337,1.17705500954496,1.06946731280027,1.06861474655721,1.07109027022682,1.07302138412676,1.07496276990915,1.07685279627931,1.08010898301485,1.08086910231589,1.18070152781347,1.26246571208764,1.08020142995687,1.0878950699093,1.10821285338848,1.11029804552513,1.05669936291926,1.04051087618357,1.03449155306992,1.03227282646148,1.03717251438846,1.03248853599285,1.03143053210086,1.01916590445974,1.02193314959082,1.01823219034535,1.02828733607223,1.01974729300621,1.02860576442807,1.02880093019456,1.01361908793862,1.00723819456286,1.0066917304167,1.00141814596867,0.998375614388011,0.999663708446803,1.01631340270434,0.978873418375078,0.980284775023227,0.97313759921695,0.973939833236022,0.982175828581629,0.983373530074891,0.982110088533971,0.980872326699168,0.982110088533971,0.983169119614206,0.983328333792127,0.973897718517991,0.975929496865909,0.988068807541189,0.989683547461779,0.993141063093272,0.996311993204509,1.00424804958268,1.00506569142542,1.02917071796263,1.00176122684238,1.05386432336403,1.00775897900289,1.02195061179098,1.02092239635809,1.06198938237921,1.02467163345106,1.02835923924936,1.02897555219615,1.03290968317316,1.03339246164815,1.04167159890003,1.04445527904303,1.03887764687458,1.04062386689048,1.05864074870165,1.059246789766,1.07121353281617,1.19808155291295,1.26016481041963,1.30574115283477,1.0934829739602,1.09284611724851,1.09016515592998,1.0905452155805,1.08882981121193,1.0855325369466,1.07913315418243,1.07940022312604,1.078640103825,1.13891551002109,1.127411001681
1.13839164401631,1.13766234036261,1.1327112930234,1.13298863384945,1.13122187006865,1.3475168987447,1.19271963027588,1.11590649334092,1.12029258714557,1.10758626855925,1.09564006927396,1.09033977793157,1.08918932709756,1.08277967245094,1.0868576097822,1.08945639604117,1.08051985831271,1.07993436101326,1.07266186824113,1.07204555529434,1.07067939492896,1.06696097348332,1.06338635839194,1.06193802296698,1.05295012582629,1.05645283774055,1.05731567586605,1.05663773162458,1.0564425658581,1.0573259477485,1.05979119953566,1.0573259477485,1.05309393218054,1.05093683686678,1.0483585943727,1.04444500716058,1.0436540722122,1.04592415823288,1.05943168365003,1.04752657189454,1.0482250599009,1.047629290719,1.0483791381376,1.05016644568329,1.05092656498433,1.06786489913861,1.07142924234755,1.07298029659697,1.08287211939296,1.14223332805131,1.06837849326094,1.06799843361042,1.07325763742303,1.07335008436505,1.07390476601716,1.07742802169631,1.08184493114831,1.08193737809033,1.11306118190323,1.07917424171222,1.08192710620788,1.15754870477905,1.10318990287214,1.07978028277656,1.07663708674793,1.09203463853524,1.08238934091797,1.08127997761375,1.14884842034686,1.08655972519125,1.10065274790786,1.09019597157732,1.09426363702613,1.10256331804291,1.2849200471157,1.25277932694059,1.09501348444473,1.06755674266522,1.04944741391203,1.0448250668111,1.03710061121133,1.05139907157687,1.01519993064714,1.00999824937623,1.02343695318099,1.00422134268832,1.00879130318877,1.02835923924936,1.01451787765269,1.01459902552402,1.02613024075847,1.04587279882065,1.00689614087739,1.01389026563521,1.00309554437218,1.00367385135392,1.00136062342697,1.4170061834953,0.992094358271974,0.983865553244079,1.24318538873555,1.24251771637653,0.985390927787385,0.983004769495062,0.985366275269513,0.982087490392589,0.981872808049457,0.982261085205935,0.982656552680125,0.971933734594219,0.974292158803937,0.97624997959824,0.986364702243313,0.998069512291105,0.998160932044879,0.998971383569909,1.00141095565095,0.997605223204523,1.05122444957528,1.0424830776133,1.04293504044095,1.04868729461099,1.01627128798631,1.01785315788307,1.01820445626274,1.02357562359402,1.02627507430096,1.03155379469022,1.03423475600876,1.12028231526313,1.04109637348302,1.03871329675543,1.20578546474783,1.20018728881449,1.22676064870359,1.18628943186437,1.1863407912766,1.17185743702703,1.0992044124829,1.09840320565207,1.09350351772509,1.09454097785219,1.08972346498478,1.07375068778046,1.0733398124826,1.07692469945643,1.12157657245139,1.11765271335682,1.06399239945628,1.14625990597034
1.33038339882393,1.13514572916322,1.13200253313459,1.13376929691539,1.1327112930234,1.13942910414341,1.1403330297987,1.11933730207805,1.11649199064037,1.11431435156171,1.09872163400791,1.09354460525488,1.0920038228879,1.0848032332929,1.08819295450025,1.08823404203003,1.0812902494962,1.08007816736751,1.07479841979001,1.07087456069544,1.06825523067158,1.0640848463983,1.06108545672392,1.0590927115293,1.05602141867779,1.05839422352294,1.05840449540538,1.05750056975009,1.05532293067143,1.05299121335608,1.05328909794702,1.05362807006776,1.05473743337198,1.05622685632672,1.04293504044095,1.04247280573086,1.04374651915422,1.06033560930533,1.05995554965481,1.04965285156096,1.04995073615191,1.05285767888427,1.0537924201869,1.05325828229968,1.05331991359436,1.21311958881464,1.07109027022682,1.17838008238056,1.0824612440951,1.08311864457167,1.07151141740712,1.0706896668114,1.07358633766132,1.07525038261765,1.07619539580273,1.07439781637459,1.19958124775014,1.20407006037927,1.08492649588226,1.0856866151833,1.08822377014759,1.09005216522306,1.08712467872581,1.08663162836838,1.08409447340409,1.08176275608874,1.08482377705779,1.08506003035406,1.1497626178846,1.0964207323399,1.09761227070369,1.09795124282443,1.10007752249085,1.10495666665294,1.10735001526298,1.42684664687906,1.06787517102106,1.05392595465871,1.04070604195006,1.03590907284754,1.03755257403898,1.01431449438025,1.00535433132217,1.00211149803381,1.03814834322088,0.998095191997222,0.988059562846987,0.987768868573751,1.01658868915391,1.01315274447555,1.01205570743027,1.01421485712052,1.00047929591306,1.00897106113158,1.00106582040075,1.00218134683444,1.00577650569072,0.987098114649994,0.989152491139295,0.986137693641246,0.989284998422855,0.987057027120208,0.985426879375948,0.98533237805744,0.990086205253682,0.982449060654706,0.983442351687283,0.983547124888237,0.970145399860283,0.973745694657783,0.974647565936586,0.975583334427462,0.989556176119442,0.989565420813644,1.01090731097275,1.00192660414977,0.996480452076631,0.994438401846266,0.995361844078207,1.0429247685585,1.03795317745439,1.01038549934446,1.00800344980512,1.06217427626325,1.02756830430098,1.02338045782754,1.0249325392652,1.02885228960679,1.02921180549242,1.03011573114771,1.15851426172902,1.14759525068838,1.15315233909194,1.14268529087895,1.1209602595046,1.12137113480246,1.19621207030769,1.29753391876001,1.10423763488169,1.10216271462749,1.09268176712937,1.08508057411896,1.07772590628726,1.077006874516,1.076431649099,1.39348357269281,1.28332790533649,1.44476080986576,1.05408003289541,1.04928306379289
1.41624606419426,1.35087580430471,1.13201280501704,1.1347656695127,1.13217715513618,1.13007141923465,1.13395419079942,1.12202853527903,1.11332825084684,1.11240378142666,1.09955365648608,1.09901951859886,1.09087391581879,1.08956938674808,1.09021651534221,1.08549144941682,1.08251260350733,1.07922560112445,1.07299056847942,1.07043286975024,1.06745402384075,1.0661392228876,1.06004799659682,1.05703833504,1.05658637221235,1.05663773162458,1.05716159762936,1.05662745974214,1.05037188333222,1.0510087400439,1.05024862074286,1.05109091510347,1.0568842568033,1.057613560457,1.21411596141195,1.04391086927337,1.04477370739887,1.057613560457,1.06156823519891,1.04907762614396,1.05006372685882,1.05655555656501,1.0595344024745,1.0611470880186,1.05990419024257,1.06011989977395,1.12907504663734,1.30858646427245,1.08361169492911,1.08446426117217,1.07565098603306,1.07384313472248,1.07740747793142,1.07770536252237,1.07977001089411,1.08550172129926,1.09458206538197,1.09545517538993,1.09674943257819,1.09672888881329,1.09399656808252,1.09589686633513,1.08558389635884,1.09306182677989,1.09033977793157,1.0902370591071,1.0826153223318,1.09154158817781,1.09330835195861,1.12482248730448,1.11305091002079,1.11163339024317,1.08508057411896,1.09285638913096,1.09924550001269,1.1506254560101,1.09700622963935,1.06635493241898,1.03770665227568,1.0685017558503,1.06577970700197,1.04283232161648,1.00974864263278,0.997324800813734,1.03268370175934,0.993010610186202,0.979061393823849,0.993399914530925,0.975275177954067,1.0222546595114,1.02674244495228,1.02757857618342,1.0112627181054,1.004282973983,0.99965651812909,0.997364861155275,0.997510721886015,0.998890235698581,0.987070380567388,0.98603702919327,0.989539741107528,0.987486391806472,0.98271510241007,0.981544107811169,1.27870555823557,0.983683740924776,0.983280055944628,0.98390561358562,0.984688331028044,0.97177041166332,0.972608597270955,0.964793749105654,0.985745307731789,0.983651898089192,0.989706145603161,0.99968733377643,0.99498486599242,0.994723960178279,0.993792300440381,0.996150724650098,1.03268370175934,1.00302055963032,1.00360811130626,0.997509694697771,1.0103885809092,1.06212291685102,1.02217762039305,1.09050412805071,1.02200299839146,1.06031506554043,1.0436540722122,1.13972698873436,1.06816278372956,1.0689229030306,1.15954144997367,1.19342839016469,1.12936265934584,1.10233733662908,1.1043506255886,1.10338506863863,1.08263586609669,1.08174221232384,1.08114644314194,1.08103345243503,1.07290839341985,1.06826550255403,1.06310901756588,1.06029452177554,1.05375133265712,1.05452172384061
1.20328939731333,1.22695581447008,1.13381038444517,1.13691249294402,1.13645025823393,1.12974271899636,1.13121159818621,1.41318504322521,1.1147765862718,1.11060620199852,1.09921468436535,1.09952284083874,1.08889144250661,1.09103826593793,1.09235306689108,1.08496758341204,1.08380686069559,1.08264613797913,1.07332954060016,1.06889208738327,1.0673102174865,1.0639513119265,1.06458816863818,1.05646310962299,1.05274468817736,1.05319665100501,1.05288849453161,1.05059786474604,1.04770119389613,1.04811206919399,1.0474752124823,1.04757793130677,1.05690480056819,1.054829880314,1.05396704218849,1.05048487403913,1.04902626673173,1.06017125918618,1.05858938928942,1.05693561621553,1.05121417769283,1.05868183623144,1.06176340096539,1.06317064886056,1.06300629874142,1.12569559731244,1.07763345934524,1.07794161581864,1.08408420152165,1.08596395600936,1.29288075601174,1.07728421534206,1.08456697999663,1.07991381724836,1.08194764997277,1.08912769580288,1.09513674703408,1.09945093766162,1.09859837141856,1.10381648770138,1.1056551546593,1.10368295322958,1.08645700636679,1.08658026895615,1.08920987086245,1.09698568587446,1.07898934782818,1.07174767070339,1.09650290739947,1.09264067959958,1.12221342916307,1.09437662773304,1.12508955624809,1.08313918833657,1.08854219850343,1.0922914355964,1.076431649099,1.07780808134683,1.09775607705794,1.09080201264166,1.06950840033006,1.04620149905894,1.02953023384826,1.00219264590513,1.05847639858251,1.02261314820878,0.989304514999503,1.03138944457108,1.03318702399922,1.02138257669169,1.06856338714498,1.01030640584963,1.02074263841527,1.04134289866174,1.00053579126651,0.998966247628685,1.01076247743025,0.974685571901638,1.0069218205835,1.00378067893136,0.985587120742113,1.08235852527063,0.983386883522072,0.983130086460909,0.974925933950886,0.976349616857972,0.978534446254343,0.979986890432279,0.979658190193991,0.972769865825365,0.972624005094624,0.967908183863434,0.982906159423576,0.982906159423576,0.999881472354669,0.993558101520601,0.99510196545231,0.995415257866929,0.994262752656431,1.02814352971798,1.0504335146269,0.995953504507125,0.997552836604046,1.00051319312513,1.00694544591313,1.00905939932062,1.06814223996467,1.01480857192593,1.01851774867736,1.10061166037807,1.10488476347582,1.12604484131562,1.05531265878899,1.10657962407949,1.10105335132327,1.12507928436564,1.09324672066393,1.10468959770933,1.10132042026688,1.20437821685266,1.15346049556534,1.08388903575516,1.07668844616016,1.07705823392824,1.06784435537372,1.06726912995672,1.06584133829665,1.12493547801139,1.05075194298274,1.05426492677944
1.30991153710805,1.3672183692771,1.13830946895674,1.13672759905998,1.13517654481056,1.13095480112505,1.12787323639109,1.11466359556489,1.11546480239572,1.11180801224476,1.10339534052107,1.10078628237966,1.09201409477035,1.09528055338834,1.09526000962344,1.08537845870991,1.08438208611259,1.08206064067968,1.07225099294327,1.07131625164064,1.06804979302265,1.06382804933714,1.05975011200588,1.05746975410275,1.05517912431718,1.05480933654911,1.0508546618072,1.06268787038558,1.05775736681125,1.04370543162444,1.04382869421379,1.04704379341955,1.05371024512733,1.0551380367874,1.05317610724011,1.19123020732113,1.05005345497638,1.05346371994862,1.05729513210116,1.05743893845541,1.05364861383265,1.05866129246655,1.06043832812979,1.06433137157702,1.0655639974706,1.06718695489715,1.07781835322928,1.07970837959943,1.08106426808237,1.08929204592202,1.08969264933744,1.08176275608874,1.08405338587431,1.08255369103712,1.08356033551687,1.0921579011246,1.09669807316595,1.0981874961207,1.10040622272914,1.11501283956807,1.10910650716133,1.11169502153785,1.08850111097364,1.09981045354724,1.10299473710566,1.10093008873391,1.13833001272164,1.06721777054448,1.10650772090236,1.07079238563587,1.08266668174403,1.10650772090236,1.08943585227627,1.09432526832081,1.08911742392043,1.08879899556459,1.11592703710581,1.16971061359571,1.13469376633557,1.14999887118087,1.10675424608108,1.03272478928912,1.0520256564061,1.05888727388037,1.06381777745469,1.03188249492851,1.0677724521966,1.07045341351513,1.0222731488998,1.00379916831977,0.996095256484887,1.02890364901902,1.02895500843126,1.03995619453146,0.986044219510983,0.979356196850063,0.95624035259245,0.982610329209116,1.05103955569124,0.996773200726357,0.973082131051738,0.973088294181206,0.981711539495047,0.981927249026424,1.27095028698846,0.977278195031136,0.97636707905813,0.97883643959827,0.979652027064523,0.975591551933419,0.976307502139941,0.967164499574307,0.967856824451202,0.978124598144728,0.982387429360027,0.993947405865323,0.993097921186997,0.993701907874852,1.01217999720787,0.988047236588051,0.989660949320397,0.991441066548376,0.996744439455506,0.999017607040918,1.00163077393531,1.05670963480171,1.02873929889988,1.01227449852638,1.08594341224446,1.05670963480171,1.02566287010715,1.11143822447669,1.10717539326139,1.09197300724056,1.06539964735145,1.08329326657326,1.10884971010017,1.11086299905968,1.21094194973598,1.13672759905998,1.0833446259855,1.07169631129116,1.07143951423,1.07130597975819,1.07129570787575,1.06672472018705,1.06568726005996,1.12692822320602,1.1281608490996,1.05383350771669
1.39676030319324,1.18266345736075,1.23923071399365,1.24712979159501,1.1357825858749,1.33751208524181,1.13251612725691,1.20252927801229,1.11492039262605,1.10850046609699,1.1031796309897,1.09762254258614,1.0965542668117,1.09445880279261,1.08948721168851,1.08717603813804,1.0868576097822,1.08550172129926,1.07591805497667,1.06903589373752,1.06836822137849,1.062030469909,1.06406430263341,1.05791144504795,1.05569271843951,1.05322746665235,1.05127580898751,1.0504335146269,1.03767583662834,1.25873701875956,1.03990483511923,1.04517431081429,1.04697189024242,1.04621177094138,1.05349453559595,1.0558673404411,1.05689452868575,1.05399785783583,1.05574407785174,1.05639120644587,1.05289876641406,1.05107037133858,1.06250297650154,1.06268787038558,1.06946731280027,1.07415129119588,1.08394039516739,1.08444371740727,1.08333435410305,1.08352951986953,1.08837784838428,1.08644673448434,1.08548117753437,1.09048358428582,1.09125397546931,1.09362678031445,1.10282011510407,1.10401165346786,1.10512101677209,1.1196146429041,1.12835601486608,1.12055965608918,1.08004735172017,1.10349805934554,1.13881279119662,1.13669678341264,1.09690351081488,1.09564006927396,1.11645090311058,1.07290839341985,1.13394391891698,1.0881826826178,1.17416861057749,1.10459715076732,1.10690832431778,1.11514637403988,1.13853545037057,1.12799649898045,1.14572576808312,1.18626888809947,1.10528536689123,1.09636937292766,1.06003772471438,1.15027621200692,1.14635235291236,1.07740747793142,1.07331926871771,1.0657180757073,1.02194958460274,1.00697420718398,1.01768778057568,1.10783279373796,1.04934469508757,0.996401358581793,1.03506677848693,0.984430506778637,0.951304713076904,1.00684169990042,1.00102267849448,0.989579801449069,0.972378507104153,0.972940379073977,0.980701813450556,0.980251904999399,0.982551779479171,0.982493229749226,0.975961339701494,0.977406593561717,0.977691124705485,0.976409193776161,0.976715295873067,0.975682971687193,0.974490406135154,0.975245389494972,0.982413109066143,0.990015329264801,0.991043544697696,0.991944388788255,0.998836821909859,1.01464422180679,0.987187480027279,0.989115512362487,0.994870848097264,0.996774227914601,1.01853315650103,0.99801301693765,1.0427706903218,1.06509149087806,1.05441900501614,1.01220156816101,1.09956392836853,1.10318990287214,1.10556270771729,1.12498683742363,1.13730282447699,1.17381936657431,1.14200734663748,1.10695968373001,1.18152327840919,1.08415610469877,1.07832167546916,1.07457243837618,1.07266186824113,1.07168603940871,1.26676963083273,1.06945704091782,1.06529692852699,1.09685215140265,1.09637964481011,1.09182920088631
1.17349066633602,1.29881790406582,1.31303418937179,1.23780292233359,1.13285509937765,1.13237232090266,1.13409799715368,1.13178682360321,1.36976579612383,1.40940499048489,1.10528536689123,1.0977458051755,1.09418146196656,1.09529082527078,1.08838812026673,1.08600504353914,1.08492649588226,1.08486486458758,1.07399721295918,1.07039178222045,1.06680689524662,1.06384859310203,1.06351989286374,1.05671990668416,1.05641175021076,1.05505586172782,1.04712596847912,1.04694107459508,1.03496405966246,1.0349948753098,1.03900090946394,1.04477370739887,1.04366434409465,1.04457854163239,1.05180994687473,1.0557132622044,1.05887700199792,1.06034588118777,1.05963712129896,1.05772655116391,1.05289876641406,1.05329936982947,1.05955494623939,1.07058694798694,1.07103891081458,1.18262236983096,1.22150144489098,1.0905452155805,1.08560444012373,1.08444371740727,1.08852165473854,1.08746365084655,1.08708359119602,1.22465491280206,1.25271769564591,1.10031377578712,1.10601467054493,1.1061173893694,1.10218325839239,1.10619956442897,1.10958928563632,1.12240859492955,1.0944998903224,1.10378567205404,1.10011861002064,1.14283936911565,1.08606667483382,1.0768733400442,1.07607213321337,1.13145812336492,1.1653142479086,1.17410697928281,1.15149856601805,1.1454997866693,1.1065590803146,1.13181763925055,1.14935174258674,1.14936201446918,1.19623261407258,1.19183624838548,1.1670810116894,1.13038984759049,1.13623454870255,1.15587438794027,1.09893734353929,1.09678024822552,1.11109925235595,1.07369932836823,1.09305155489744,1.08081774290366,1.08103345243503,1.02274668268059,1.03593988849488,0.995630967398305,1.00066727136183,0.999411020138619,1.00752067133013,0.97368098179837,0.98440688144901,0.983873770750036,1.00306061997186,0.971718025062843,0.971984066818207,0.975221764165345,0.979544172298834,0.979920123196376,0.974085693966762,0.972418567445694,0.972992765674454,0.974797535420305,0.974641402807118,0.974567445253503,0.973626540821403,0.975864784006496,0.982987307294903,0.982024831909665,0.98985816946337,1.00258811337932,0.976714268684822,0.977451789844481,0.992644931171106,0.986690320916868,0.993577618097249,1.04741358118762,1.03928852217244,0.992113874848622,1.03699789238687,1.04436283210101,1.07064857928162,1.07639056156921,1.06849148396785,1.02745531359407,1.02749640112385,1.09610230398406,1.13933665720139,1.1560592818243,1.16788221852023,1.144595861014,1.16675231145111,1.07849629747075,1.07873255076702,1.07770536252237,1.32491875736239,1.05831204846337,1.14483211431027,1.06402321510362,1.06763891772479,1.05409030477785,1.0599760934197,1.03653565767678
1.17610999635988,1.17700365013273,1.38653978015897,1.26745784695664,1.23021200120562,1.13025631311868,1.13017413805911,1.13342005291221,1.26832068508215,1.11644063122813,1.11411918579522,1.09897843106908,1.09615366339629,1.09476695926601,1.08907633639065,1.08614884989339,1.08526546800299,1.08169085291161,1.07480869167245,1.06283167673983,1.06425946839989,1.06549209429347,1.06177367284784,1.05881537070324,1.05179967499228,1.05000209556414,1.05035133956732,1.05003291121148,1.05796280446018,1.39102859278809,1.03924743464265,1.04250362137819,1.04304803114786,1.04434228833612,1.05039242709711,1.05512776490495,1.05696643186287,1.05702806315755,1.06219482002814,1.06215373249836,1.05411084854275,1.05695615998043,1.05786008563572,1.06545100676369,1.26412975704398,1.22434675632867,1.19579092312738,1.28281431121417,1.09609203210161,1.08062257713717,1.08903524886086,1.0889119862715,1.09216817300704,1.1858991003314,1.10687750867044,1.10706240255448,1.11046239564427,1.1134515134362,1.12320980176038,1.1240315523561,1.10953792622408,1.11004124846396,1.08050958643026,1.07504494496872,1.08558389635884,1.11045212376182,1.12214152598594,1.08131079326109,1.09681106387286,1.09927631566003,1.18450212431867,1.1983794375039,1.16999822630421,1.17138493043449,1.17882177332576,1.22820898412855,1.22789055577271,1.29041550422458,1.2286609469562,1.1501837650649,1.15192998508081,1.16485201319851,1.17905802662203,1.13463213504089,1.14553060231664,1.13072881971122,1.12191554457212,1.10871617562836,1.09292829230809,1.15188889755102,1.08520383670831,1.047054065302,1.04717732789135,1.05502504608048,1.01107679703311,1.01088676720785,0.981941629661849,0.99668999847854,0.971855668287626,0.964755743140602,0.979243206143152,0.976818014697532,0.975210465094654,0.974296267556915,0.974008654848413,0.982002233768283,0.967951325769709,0.968370418573527,0.976835476897691,0.972215184173254,0.971468418319393,0.972658929494942,0.971953251170868,0.976962848240028,0.979997162314725,0.985552196341795,0.985323133363238,0.982463441290131,0.982109061345727,0.975019408081149,0.984212742870771,0.985874733450615,1.03337191788325,1.03775801168791,1.04393141303826,1.04272960279202,1.01029818834367,1.05769573551658,0.985516244753232,1.00538103821653,1.09886544036217,1.02935561184667,1.02970485584985,1.09969746284033,1.11642008746324,1.10862372868634,1.15095415624839,1.14867379834527,1.08633374377743,1.08736093202208,1.07812650970267,1.14679404385756,1.06293439556429,1.05147097475399,1.05185103440451,1.05709996633468,1.14306535052947,1.05821960152135,1.04178458960694,1.03838459651715
1.17884231709065,1.17992086474753,1.17855470438215,1.26774545966515,1.18960724989459,1.13289618690743,1.13259830231649,1.13257775855159,1.11522854909945,1.11479713003669,1.10894215704219,1.10482313218114,1.09357542090222,1.09345215831286,1.0909663627608,1.0884908390912,1.08598449977425,1.08137242455577,1.07095673575501,1.06727940183916,1.06502985958338,1.06516339405518,1.0574800259852,1.05645283774055,1.05465525831241,1.05178940310983,1.04936523885246,1.04801962225197,1.04740330930518,1.04251389326064,1.04105528595324,1.04254470890798,1.04136344242663,1.04222628055214,1.04525648587386,1.05356643877308,1.05963712129896,1.0599760934197,1.05960630565162,1.05590842797088,1.05544619326079,1.05676099421394,1.06333499897971,1.0727440433007,1.28661490771938,1.10091981685147,1.15235113226111,1.23507060160282,1.09846483694675,1.09692405457978,1.09338025513573,1.09224007618417,1.09912223742333,1.10001589119617,1.11332825084684,1.12941401875807,1.23518359230973,1.11672824393664,1.12845873369054,1.10613793313429,1.09942012201428,1.08718631002049,1.131827911133,1.13234150525532,1.10984608269748,1.12583940366669,1.13236204902022,1.14065145815455,1.14045629238806,1.10440198500083,1.23128027698006,1.23181441486727,1.2604010637159,1.18209850382619,1.18208823194375,1.17653114354019,1.21089059032374,1.2821363669727,1.26085302654354,1.19521569771038,1.15112877824998,1.15549432828975,1.14067200191944,1.16760487769417,1.25330319294536,1.22544584775044,1.20484045156275,1.20990448960888,1.17096378325418,1.11832038571584,1.14098015839283,1.07672953368995,1.05676099421394,1.05749029786765,1.04966312344341,1.00468049583368,1.02574299079023,0.985808993402958,0.973032826015995,1.00535022256919,0.968324195102518,0.972889019661744,0.975674754181236,0.968473137397992,0.972611678835689,0.979275048978736,0.989087778279882,0.990345056691334,0.973227991782479,0.975265933259865,0.97215252569033,0.971813553569595,0.971712889121619,0.973405695348803,0.975890463712613,0.976914570392529,0.979093236659433,0.97827764919318,1.00989347617528,0.975534029391719,0.981832747707916,0.983516309240898,0.985636425777856,1.03202630128276,0.976372214999354,0.97628079524558,0.975193002894495,0.984961563101121,0.98461231909794,1.00480273123479,1.08834703273694,1.02924262113976,1.03090666609609,1.02807162654086,1.12927021240382,1.0564425658581,1.1363783550568,1.12953728134743,1.08517302106097,1.08651863766147,1.08736093202208,1.08139296832066,1.09492103750271,1.06225645132282,1.05448063631082,1.05554891208526,1.26646147435933,1.03173868857426,1.03414230906674,1.2509920193949
1.18106104369909,1.18231421335757,1.18410152090326,1.36650960938829,1.2077884818249,1.35495374163597,1.13295781820211,1.13035903194315,1.25323128976824,1.11427326403192,1.11396510755853,1.10181347062431,1.10151558603336,1.09529082527078,1.09528055338834,1.09539354409525,1.08592286847957,1.08596395600936,1.07544554838413,1.06792653043329,1.06647819500834,1.06346853345151,1.06002745283193,1.05869210811389,1.05517912431718,1.05195375322898,1.05066976792317,1.04912898555619,1.04933442320512,1.04698216212487,1.04434228833612,1.04251389326064,1.0436540722122,1.04582143940842,1.0474752124823,1.04867702272854,1.0536588857151,1.08527573988544,1.06045887189468,1.06044860001224,1.05685344115596,1.06293439556429,1.06736157689874,1.06793680231574,1.09249687324533,1.15273119191164,1.18454321184846,1.21889238674957,1.28411884028488,1.09882435283238,1.09885516847972,1.0956914286862,1.09734520176008,1.10036513519936,1.11764244147438,1.15308043591482,1.13801158436579,1.13771369977485,1.12479167165714,1.10039595084669,1.11097598976659,1.14279828158587,1.10016996943287,1.16196561423104,1.19255528015673,1.20002293869534,1.14881760469952,1.14365084782893,1.16015776292046,1.20289906578036,1.20270390001388,1.24216847237335,1.20552866768667,1.26594788023701,1.21276007292901,1.20922654536741,1.31951574719553,1.26447900104716,1.28043123448658,1.2171975261459,1.19701327713852,1.19609907960078,1.21035645243653,1.20322776601865,1.21126037809182,1.23090021732954,1.21274980104656,1.15841154290455,1.1593051966774,1.19243201756738,1.11678987523132,1.15227922908399,1.12788350827354,1.09032950604912,1.02314420453127,1.03634049191029,1.04856403202163,1.05209755958323,1.00822634965421,0.989242883704824,0.98537449277547,0.981778306730949,0.97060866175862,1.00459113045639,0.982750026810388,0.976164722973934,0.949597526214295,0.976964902616517,0.970723706842021,0.971195186246316,0.971027754562437,0.969333921147009,0.971543403061252,0.969211685745896,0.972972221909561,0.975559709097835,0.998323227787534,0.975148833799975,0.972392887739578,0.973324547477476,0.981082900289321,0.982101871028014,0.982695585833422,1.04372597538933,0.975814451782509,0.977562726174904,0.974100074602187,0.98226005801769,0.986600955539583,0.993223238152845,1.03385469635824,1.02879065831211,1.02741422606428,1.01809351993232,1.11684123464355,1.11358504790801,1.11450951732819,1.13058501335697,1.15265928873451,1.08518329294342,1.08575851836043,1.08088964608078,1.21033590867163,1.22328875243668,1.27745238857709,1.06077730025053,1.02742449794673,1.0283695111318,1.07085401693055,1.02469834034542
1.18338248913201,1.18396798643146,1.18532387491439,1.18491299961653,1.21295523869549,1.27107354957781,1.35529271375671,1.2894704910395,1.12365149270558,1.11405755450055,1.11047266752672,1.10433008182371,1.10349805934554,1.0983210305925,1.09814640859091,1.09324672066393,1.4724024455293,1.12730828285654,1.07275431518315,1.06734103313384,1.06797788984553,1.06822441502424,1.05951385870961,1.05975011200588,1.0542341111321,1.04976584226787,1.04988910485723,1.04943714202959,1.04798880660463,1.04771146577857,1.04698216212487,1.04481479492866,1.05163532487314,1.05287822264916,1.04745466871741,1.05481960843155,1.05653501280012,1.05649392527033,1.05867156434899,1.06112654425371,1.06351989286374,1.10106362320572,1.16843690017234,1.31573569445522,1.16412270954481,1.21250327586785,1.13599829540628,1.28866928420868,1.10646663337258,1.09308237054478,1.10313854345991,1.10347751558065,1.09270231089426,1.16807738428671,1.13632699564457,1.13425207539037,1.14515054266612,1.15204297578772,1.11687205029089,1.1335741311489,1.13647080199882,1.10082736990945,1.09967691907544,1.17464111717003,1.19244228944982,1.26680044648007,1.20879512630466,1.19648941113374,1.19717762725766,1.20187187753571,1.22911290978384,1.22698663011742,1.21980658428731,1.22202531089576,1.23025308873541,1.26279441232593,1.27798652646431,1.25889109699626,1.25898354393828,1.23694008420808,1.22135763853673,1.22047425664633,1.24950259644015,1.2367449184416,1.25597388238145,1.28959375362886,1.22617515140414,1.22670928929136,1.17601754941786,1.15760006419128,1.15562786276155,1.14855053575591,1.11479713003669,1.14031248603381,1.17746588484282,1.05263169747045,1.10049866967116,1.01929327580207,1.05569271843951,0.981547189375903,0.984202470988324,1.02963295267272,0.980927794864379,0.957373341226299,0.979714685547446,0.964148674888013,0.954454072235002,0.966353020861033,0.959135996254119,0.96133623347416,0.967695555896791,0.974230527509258,0.975997291290057,0.968278998819753,0.967966733593379,0.968907638025479,0.970799718772125,1.00548992017046,0.970436094133519,0.971496152401998,1.0098020564215,1.00668351291074,1.01253848590525,1.03948368793892,0.976909434451306,0.977228889995392,0.974867384220941,1.03831269334002,1.0465918305919,0.989859196651614,1.03236527340349,1.06534828793922,1.01958807882829,1.01807092179094,1.10422736299924,1.09028841851933,1.15319342662173,1.1441541700688,1.18829244894143,1.16371183424695,1.08398148269718,1.2281987122461,1.20959633313548,1.23213284322312,1.30928495227881,1.0543881893688,1.04304803114786,1.02884201772434,1.09671861693085,1.0213897670094
1.18548822503354,1.18696737610584,1.19040845672541,1.1889703931829,1.18543686562131,1.24123373107072,1.25769955863247,1.34251449199325,1.28584451653589,1.34885224346275,1.11134577753467,1.10105335132327,1.10113552638284,1.09892707165684,1.09948175330896,1.09099717840814,1.0909869065257,1.07483950731979,1.07427455378523,1.06930296268113,1.0699603631577,1.06397185569139,1.06093137848722,1.05998636530215,1.05076221486518,1.04709515283178,1.04777309707325,1.05148124663644,1.04941659826469,1.04647883988499,1.04537974846322,1.04496887316536,1.04994046426946,1.05289876641406,1.0555797277326,1.05623712820917,1.05657610032991,1.05577489349908,1.05810661081444,1.0818654749132,1.08709386307847,1.0923119793613,1.0831905477488,1.09285638913096,1.10122797332486,1.18792266117336,1.13213606760639,1.13227987396064,1.11165393400806,1.10550107642261,1.10438144123594,1.09232225124374,1.09190110406344,1.11161284647828,1.28112972249294,1.14990642423885,1.11023641423045,1.10355969064022,1.1172726537063,1.10616874878163,1.09806423353134,1.10075546673232,1.10272766816205,1.1842658710224,1.18436858984687,1.19519515394549,1.19607853583588,1.21593408460498,1.23287241875926,1.24032980541543,1.22485007856854,1.23855276975218,1.28174603543973,1.28304029262799,1.3372244725333,1.2737647827788,1.2480542610152,1.26913216379543,1.26967657356509,1.28762155219913,1.24568145617006,1.25173159493105,1.26206510867223,1.26294849056263,1.25036543456566,1.2537756995379,1.34305890176292,1.24811589230988,1.20870267936264,1.26377024115835,1.19155890755942,1.21974495299263,1.22005310946603,1.14605446832141,1.10764789985393,1.13327624655796,1.08298511009987,1.06091083472233,1.03188249492851,1.05369997324489,1.02638087469016,0.993328011353799,0.989792429415712,0.964303780312955,0.967885585722052,0.969249691710948,0.956024643061073,0.956305065451863,0.953745312346194,0.954057577572567,0.956345125793404,0.983537880194035,0.979143568883421,0.964603719280393,0.965410062052444,0.968062262100132,0.979387012497403,0.968793620130323,0.998104436691424,0.991065115650834,0.974631130924671,0.97622121832739,1.010858005937,0.976476988200308,0.975449799955658,0.975010163386947,0.973848413482248,0.973970648883361,1.0330740332923,0.988131466024112,1.02862630819297,1.07088483257789,1.01545775489655,1.01204338117133,1.07586669556444,1.10846965044965,1.1328653712601,1.1400454170902,1.14676322821022,1.14570522431823,1.15651124465195,1.15051246530319,1.18081451852038,1.21782411097513,1.06359179604087,1.04328428444413,1.26999500192093,1.13987079508861,1.13802185624824,1.2376077565671
1.18704955116541,1.18878549929887,1.19129183861581,1.19087069143551,1.18629970374681,1.23059206085614,1.28071884719508,1.28744693019754,1.28214663885515,1.31375322114304,1.11032886117246,1.1072883839683,1.10352887499288,1.09953311272119,1.10004670684351,1.09324672066393,1.46865320843633,1.07999599230794,1.07544554838413,1.07067939492896,1.07294948094963,1.0643724591068,1.05646310962299,1.05728486021872,1.05479906466666,1.04853321637429,1.04743412495252,1.05035133956732,1.04937551073491,1.04673563694615,1.0448250668111,1.04475316363398,1.05358698253797,1.05470661772464,1.05643229397566,1.05695615998043,1.05434710183901,1.05098819627901,1.05344317618372,1.05388486712892,1.0639513119265,1.06410539016319,1.11075000835277,1.18448158055378,1.10328234981416,1.36892350176322,1.13104724806706,1.1322696020782,1.12402128047366,1.10631255513588,1.10704185878958,1.09768417388082,1.09926604377758,1.11627628110899,1.12407263988589,1.15207379143506,1.11235242201443,1.1111095242384,1.12881824957617,1.16818010311118,1.14206897793216,1.16362965918738,1.15366593321427,1.19230875497802,1.18964833742437,1.1788525889731,1.20786038500203,1.21790628603471,1.25728868333461,1.23449537618581,1.25969230382709,1.25991828524091,1.33170847165953,1.312417876425,1.38693011169194,1.39402798246247,1.29721549040417,1.28101673178603,1.2788904521196,1.26545482987958,1.26281495609082,1.31026078111123,1.33240695966589,1.27334363559849,1.3444456058932,1.30969582757667,1.31794414918121,1.25422766236555,1.27101191828314,1.22289842090371,1.20894920454135,1.22892801589981,1.22962650390617,1.17173417443767,1.22388452161857,1.14683513138734,1.1244732433013,1.10442252876572,1.13246476784468,1.04855376013919,1.11105816482617,1.03039307197377,1.00060358569066,0.948443993815553,0.957166876389124,0.999809569177543,0.958140650845053,0.958534063942754,0.96145538731054,0.953306702965728,0.957377449979278,0.964448613855451,0.970209085531451,0.965878459892005,0.966533805992092,0.966542023498049,0.980354623823864,0.962461004602053,0.964053146381261,0.966546132251027,0.974888955174078,0.97479650823206,0.970922981361483,0.970420686309849,1.02275490018655,0.972031317477461,0.975225872918324,0.97583910430038,0.985450504705575,1.03892900628681,1.04392114115581,1.08111562749461,1.08947693980606,1.07974946712922,1.00107506509495,1.01029818834367,1.1108219115299,1.08993917451615,1.09679052010797,1.10013915378553,1.14272637840874,1.14738981303945,1.16280790859166,1.1638556406012,1.28357443051521,1.072014739647,1.35122504830789,1.25521376308041,1.13296809008456,1.00414224919348
1.18526224361972,1.19181570462059,1.1923703862727,1.19082960390572,1.19007975648713,1.22303195537551,1.22079268500217,1.15917166220559,1.24955395585239,1.1183101138334,1.36216460311342,1.11111979612085,1.10569624218909,1.10265576498493,1.10365213758224,1.09058630311028,1.08875790803481,1.0850908460014,1.07865037570744,1.07403830048896,1.07222017729593,1.06321173639035,1.05831204846337,1.05769573551658,1.05573380596929,1.0495295889716,1.04907762614396,1.05066976792317,1.04804016601686,1.04680754012328,1.04575980811374,1.04590361446799,1.05148124663644,1.05417247983742,1.05984255894789,1.05700751939266,1.04693080271264,1.0448250668111,1.16025020986248,1.05573380596929,1.06546127864613,1.11048293940916,1.07917424171222,1.11197236236391,1.376165178888,1.13587503281692,1.27149469675812,1.20431658555798,1.10955846998898,1.1096303731661,1.11117115553308,1.09420200573145,1.0996461034281,1.13956263861522,1.13613182987808,1.16455412860756,1.11540317110104,1.11458142050532,1.12688713567623,1.25403249659906,1.17569912106202,1.20512806427126,1.17120003655045,1.18091723734484,1.1817698035879,1.21445493353268,1.28290675815619,1.24279505720259,1.26152069890257,1.27645601597978,1.26265060597168,1.28790916490764,1.29435990708404,1.30262877245348,1.34813321169149,1.33993624949918,1.33404018897489,1.26004154783027,1.2878783492603,1.32631573337512,1.27527474949843,1.39007330772057,1.28097564425624,1.27722640716327,1.36288363488467,1.3266649773783,1.36737244751379,1.28135570390677,1.24754066689287,1.26951222344595,1.23600534290545,1.22676064870359,1.23375580064966,1.32722993091286,1.23530685489909,1.18830272082388,1.18252992288895,1.11642008746324,1.11662552511217,1.10233733662908,1.08204009691479,1.05473743337198,1.05554891208526,0.978472814959664,0.978587860043065,0.95044906526911,0.965859970503601,0.967105949844362,0.954985128557487,0.955737030352571,0.956065730590859,0.964013086039719,0.96517278156793,0.96464480681018,0.964088070781579,0.963327951480538,0.990952124943922,0.960752790551199,0.96405520075775,0.989461674800934,0.972594216635529,0.973329683418699,0.971020564244725,0.967916401369391,0.968044799899972,0.971837178899222,0.974786236349613,1.0122221119259,0.983380720392604,1.03487161272044,0.995497432926501,0.996589334030564,1.00921039599258,1.01180507349857,1.00685299897111,1.08167030914672,1.08294402257008,1.09060684687518,1.08360142304666,1.08172166855895,1.15003995871065,1.15940791550186,1.13457050374622,1.05074167110029,1.09246605759799,1.05380269206935,1.03237554528594,1.01879303512693,1.07724312781227,1.28186929802909
1.28909043138898,1.19188760779771,1.19437340334976,1.19093232273019,1.19130211049826,1.22663738611424,1.21055161820301,1.28717986125393,1.29981427666313,1.3585386286098,1.12175119445298,1.11100680541393,1.10747327785234,1.10557297959973,1.09668780128351,1.09561952550907,1.08867573297523,1.08258450668446,1.08158813408714,1.08032469254622,1.07134706728798,1.06207155743879,1.0601301716564,1.05979119953566,1.05759301669211,1.05597005926556,1.05636039079853,1.05301175712097,1.0486462070812,1.04763956260145,1.04662264623924,1.04890300414237,1.04984801732745,1.05870237999633,1.05811688269688,1.05660691597725,1.05983228706545,1.06028424989309,1.23757694091976,1.13057474147452,1.12931129993361,1.11359531979045,1.07832167546916,1.38554340756166,1.38464975378882,1.31667043575785,1.18378309254742,1.16419461272193,1.15637771018014,1.11224970318996,1.12067264679609,1.10113552638284,1.1166974282893,1.11989198373016,1.14848890446123,1.11677960334887,1.11748836323768,1.15108769072019,1.33288973814088,1.31219189501117,1.22922590049075,1.17646951224551,1.2000126668129,1.22404887173772,1.2164682224922,1.21226702257158,1.23896364505004,1.39476755799862,1.29481186991169,1.25140289469276,1.31311636443136,1.28474542511411,1.29842757253286,1.29791397841053,1.34404500247778,1.32970545458246,1.56854726522859,1.3087302706267,1.31209944806915,1.28541309747313,1.30692241931612,1.34377793353417,1.38401289707713,1.28716958937149,1.31164748524151,1.31258222654414,1.30509402424064,1.3013961465599,1.24866030207954,1.23420776347731,1.23377634441456,1.2339406945337,1.27425783313623,1.24936906196835,1.2239358810308,1.18468701820271,1.15326532979885,1.18133838452515,1.15211487896484,1.20227248095113,1.1260859288454,1.06743348007586,1.05870237999633,1.03342327729548,1.03287886752582,0.981685859788931,0.968787457000855,0.959163730336725,0.93536069714344,0.93249586912911,0.927510924577821,0.965039247096125,0.965235440050854,0.964207224617958,0.961228378708472,0.960684996127052,0.948819944713095,0.960483667231101,0.963324869915804,0.971419113283649,0.971772466039809,0.972326120503676,0.972652766365475,0.986085307040768,0.965887704586207,1.03147161963065,0.972220320114477,0.976623876119293,0.978240670416373,1.02082686785134,0.99310305712822,1.05691507245064,1.0627597735627,1.01047075596877,1.01176090440405,1.18838489588345,1.07872227888457,1.07650355227613,1.13515600104567,1.08365278245889,1.10370349699447,1.07931804806647,1.0389495500517,1.02599567909842,1.03463535942417,1.05684316927352,1.06743348007586,1.02516365662025,0.971813553569595,1.07441836013948
1.19208277356419,1.19274017404077,1.19557521359601,1.19441449087955,1.19164108261899,1.19962233527993,1.22334011184891,1.23119810192048,1.23885065434313,1.28540282559069,1.11985089620037,1.34198035410604,1.31973145672691,1.10709321820182,1.10614820501674,1.09886544036217,1.09260986395224,1.08490595211737,1.08236879715308,1.08254341915467,1.07155250493691,1.06475251875732,1.06122926307817,1.06003772471438,1.05734649151339,1.05613440938471,1.05569271843951,1.06191747920209,1.0507211273354,1.04987883297479,1.04967339532586,1.04951931708916,1.05112173075081,1.06153741955157,1.06064376577872,1.05444982066348,1.05491205537357,1.05320692288745,1.05395677030605,1.05443954878103,1.06329391144992,1.14706111280116,1.2897786475129,1.08445398928972,1.22262108007765,1.22080295688462,1.16110277610554,1.15821637713807,1.40598445363021,1.12392883353164,1.12457596212577,1.15341940803555,1.12651734790816,1.12817112098204,1.11745754759034,1.11914213631157,1.1205185685594,1.19577037936249,1.16133902940181,1.22988330096733,1.2395285985846,1.30187892503488,1.22285733337392,1.23289296252416,1.24257934767121,1.27086811192888,1.2718644845262,1.39081288325672,1.32937675434417,1.40738142964293,1.30764145108737,1.31730729246953,1.31772843964984,1.3091719615719,1.35387519397909,1.31262331407393,1.3536800282126,1.36726972868933,1.30863782368468,1.28864874044378,1.34266857022995,1.32789760327188,1.33465650192168,1.33546798063495,1.33786132924499,1.3432540675294,1.51573951757111,1.32084082003113,1.32023477896679,1.24933824632101,1.25631285450219,1.28805297126189,1.24871166149177,1.25561436649583,1.23194794933908,1.22002229381869,1.24120291542338,1.14379465418318,1.1284484618081,1.17029611089516,1.11143822447669,1.0806944803143,1.0279278201866,0.990542276834307,0.961321852838735,0.985703193013759,0.988525906310058,0.95833889817627,0.917849191948639,0.929866267222804,0.960429226254134,0.975985992219365,0.964360275666411,0.964945772965862,0.964888250424162,0.963504627858618,0.948184115189656,0.960819557787101,0.962619191591729,0.969422259336049,0.970224493355121,0.971364672306683,0.993345473553958,0.964181544911842,1.00436206747783,1.00377862455487,0.973045152274931,0.974039470495753,0.982279574594339,0.987195697533236,0.993786137310913,1.0058956595271,1.04107582971813,1.01014513729522,1.01087444094892,1.09636937292766,1.11383157308672,1.09285638913096,1.0272190602978,1.09745819246699,1.09262013583469,1.01830101195774,1.22494252551056,1.26373942551101,1.16699883662983,1.16601273591497,0.96667042202863,0.965858943315356,1.177239903429,0.978762482044655
1.19059335060945,1.19478427864763,1.19492808500188,1.19345920581203,1.19363382781362,1.19885194409644,1.2099969365509,1.26661555259603,1.22747968047485,1.36526671161226,1.335170096044,1.35975071073849,1.40664185410678,1.11186964353944,1.10335425299129,1.10383703146627,1.09204491041769,1.08948721168851,1.0792358730069,1.07887635712127,1.07196338023477,1.06696097348332,1.0635096209813,1.05926733353089,1.05906189588196,1.05758274480966,1.06689934218864,1.066447379361,1.05287822264916,1.05211810334812,1.05147097475399,1.04792717530995,1.05093683686678,1.05159423734335,1.05626794385651,1.05386432336403,1.05653501280012,1.05862020493676,1.05341236053638,1.05278577570715,1.04945768579448,1.12151494115671,1.06808060866999,1.07830113170426,1.15435414933818,1.15978797515238,1.15728163583544,1.22637031717063,1.18430695855219,1.12970163146657,1.14211006546195,1.12996870041018,1.12746236109323,1.10475122900401,1.17838008238056,1.17889367650288,1.20005375434268,1.16803629675693,1.20635041828239,1.21944706840168,1.29295265918887,1.29151459564636,1.28164331661527,1.26271223726636,1.3087302706267,1.2957876987441,1.29532546403401,1.30011216125408,1.28842275902996,1.32260758381193,1.32680878373255,1.32787705950698,1.32617192702086,1.38669385839567,1.34996160676697,1.35166673925309,1.36457849548835,1.34098398150872,1.32525772948313,1.32840092551176,1.33170847165953,1.34236041375656,1.33780996983275,1.34109697221564,1.34236041375656,1.33079427412179,1.35083471677492,1.31591031645681,1.3197520004918,1.29265477459792,1.25550137578891,1.25565545402561,1.23135218015718,1.22465491280206,1.23853222598729,1.31557134433607,1.18194442558949,1.19300724298438,1.14889977975909,1.16419461272193,1.12056992797163,1.09813613670846,1.09041168110869,1.03293022693805,0.966985768819738,0.968179361560022,0.957452434721137,0.925121684720764,0.924380054808126,0.93680081506244,0.937660571623212,0.991214057946308,0.962787650463852,0.961641308382822,0.964223659629873,0.961066082965817,0.950621632894211,0.981416736468832,0.960257685817278,0.967915374181147,0.968310841655337,0.969973859423426,0.991553030067043,1.01786034820079,1.00692079339526,1.00960483627853,1.0088241732126,0.99347181770805,0.979658190193991,0.990020465206024,0.99990612487254,1.02529719109205,1.0427706903218,1.01209679496005,1.00807535298225,1.09029869040178,1.09850592447654,1.12003579008441,1.10754518102946,1.11200317801124,1.16251002400071,1.08607694671627,1.22141926983141,1.14266474711406,1.28095510049135,0.978944294363959,1.21877939604266,0.960988016659224,1.12809921780492,1.29457561661542
1.31004507157985,1.19334621510511,1.19479455053007,1.1952876008875,1.19492808500188,1.19056253496211,1.20262172495431,1.20283743448568,1.21326339516889,1.28046205013392,1.13144785148248,1.14983452106172,1.12092944385726,1.12181282574766,1.10585032042579,1.10651799278481,1.08916878333267,1.08380686069559,1.08249205974244,1.07867091947234,1.07616458015539,1.07218936164859,1.06572834758974,1.10352887499288,1.06223590755793,1.06059240636649,1.06883045608859,1.06604677594558,1.05284740700182,1.05240571605663,1.05171749993271,1.04500996069514,1.08168058102916,1.05416220795498,1.05310420406299,1.05401840160073,1.0557132622044,1.05698697562777,1.05226190970237,1.05054650533381,1.05146070287155,1.05740812280807,1.0651017627605,1.13314271208615,1.16068162892523,1.18125620946558,1.13160192971918,1.14590039008471,1.14634208102991,1.13083153853569,1.13238259278511,1.14257230017204,1.15768223925085,1.10532645442102,1.22856850001418,1.23193767745663,1.15711728571629,1.17647978412795,1.19526705712261,1.23180414298483,1.31235624513032,1.2756650810314,1.29504812320796,1.37615490700556,1.35517972304979,1.34921175934837,1.33475922074614,1.32428190065071,1.32676769620276,1.33007524235054,1.3282776629224,1.32816467221549,1.33506737721954,1.348996049817,1.34729091733088,1.35309453091315,1.34365467094482,1.34748608309736,1.34426071200916,1.32660334608362,1.34625345720378,1.3741108023987,1.35328969667964,1.40617961939669,1.32967463893512,1.34380874918151,1.35949391367733,1.33227342519409,1.32946920128619,1.32117979215186,1.3147598656228,1.27150496864057,1.25616904814794,1.2314446270992,1.23346818794116,1.22433648444622,1.19169244203123,1.25531648190488,1.25599442614635,1.18188279429482,1.18896012130046,1.15359403003714,1.11332825084684,1.06776218031415,0.999295975055218,1.01874373009119,0.985608691695251,0.955869537636131,0.959511947151661,1.01378446524601,0.997106009717623,0.977180612147894,0.976208892068454,0.959349651409007,0.960934602870502,0.958845301980883,0.951499878843388,0.957362042155608,0.957907479113517,0.98276132588108,0.968484436468683,0.967847579757,1.00509445269627,1.00524750374472,0.953379633331098,1.00412786855805,1.00111204387176,1.00252442770815,0.989492490448274,0.999935913331635,1.03906254075862,0.997786008335582,1.00048135028954,1.02128602099669,1.00111204387176,0.999954402720039,1.0931748174868,1.09404792749475,1.02848250183872,1.02100970735888,1.02611894168778,1.18867250859195,1.0883367608545,1.06828604631892,1.25874729064201,0.962633572227154,0.954651292377975,0.955317937548753,0.954219873315222,0.953852139923637
1.30694296308101,1.19280180533545,1.19291479604236,1.19316132122108,1.19493835688432,1.19388035299233,1.20012565751981,1.20656612781377,1.216601756964,1.28411884028488,1.28441672487582,1.12866417133948,1.12045693726472,1.11921403948869,1.10455606323753,1.10438144123594,1.13197171748725,1.08467997070354,1.08252287538978,1.07841412241117,1.07726367157717,1.07041232598535,1.06918997197421,1.06693015783598,1.06647819500834,1.06363288357065,1.06719722677959,1.06868664973434,1.06152714766912,1.05366915759755,1.05455253948794,1.08574824647798,1.05411084854275,1.0532171947699,1.05398758595339,1.05486069596134,1.05775736681125,1.0558467966762,1.05079303051252,1.05054650533381,1.05376160453956,1.05466553019486,1.22102893829844,1.07847575370585,1.11252704401602,1.17792811955291,1.13996324203063,1.15479584028338,1.15448768380999,1.14063091438965,1.14083635203858,1.1857450220947,1.1449040174874,1.12175119445298,1.22766457435889,1.22872257825088,1.24006273647182,1.22381261844145,1.23178359921993,1.23754612527242,1.25157751669435,1.27012853639274,1.35099906689407,1.34874952463828,1.38462921002392,1.36358212289103,1.34537007531338,1.37251866061949,1.3635307634788,1.3520878864334,1.35862080366937,1.36019240168369,1.34562687237454,1.34395255553576,1.36432169842718,1.34266857022995,1.34463049977723,1.40462856514727,1.3667766783319,1.40839834600513,1.35288909326422,1.36245221582192,1.38597482662441,1.3971711784911,1.37420324934072,1.3600177796821,1.42254272813397,1.34326433941185,1.31101062852982,1.33771752289074,1.33341360414565,1.36027457674326,1.4123222050997,1.22960596014128,1.25235817976028,1.21698181661452,1.2170434479092,1.16448222543044,1.21669420390602,1.20059816411235,1.17027556713027,1.17081997689993,1.0824407003302,1.069231059504,1.05698697562777,1.06433137157702,1.06440327475414,0.981916977143977,0.982419272195611,0.98693376453085,0.989920827946293,0.987998958740552,0.968568665904744,0.966715618311395,0.956133525015006,0.957192556095241,0.95085994056697,0.957811950606765,0.958261859057922,0.965345349193031,0.96865597690554,0.968854224236757,1.01638016994024,0.948731606524055,0.949973477111837,0.998855311298263,0.971805336063638,0.975917170606974,1.01766826399904,1.03143053210086,1.02014070610391,0.995965830766061,0.994404504634192,0.995964803577817,1.05945222741493,1.03652538579433,1.08900443321352,1.02825652042489,1.07608240509582,1.03172841669181,1.17464111717003,1.02803053901107,1.21314013257953,0.950871239637662,1.29155568317614,1.30705595378792,1.32658280231872,0.950534321893416,0.950576436611447,0.950867130884683
1.27086811192888,1.28753937713956,1.19491781311943,1.19608880771833,1.19421932511307,1.19482536617741,1.19937581010121,1.20788092876692,1.21769057650333,1.29062094187351,1.13707684306316,1.28103727555092,1.12071373432588,1.12061101550142,1.10990771399216,1.10328234981416,1.10307691216523,1.08301592574721,1.08292347880519,1.0823071658584,1.554546689454,1.07176821446829,1.07075129810608,1.06740266442852,1.06667336077482,1.06758755831256,1.07075129810608,1.05856884552453,1.05595978738312,1.05772655116391,1.05817851399156,1.05731567586605,1.0524878911162,1.05372051700978,1.05898999270483,1.05991446212502,1.06073621272074,1.06003772471438,1.06061295013138,1.05463471454752,1.05581598102886,1.05627821573896,1.21832743321501,1.07543527650169,1.3050632085933,1.2568675361543,1.25590197920433,1.19313050557374,1.19012084401691,1.14193544346036,1.13460131939355,1.17028583901271,1.21428031153109,1.16323932765441,1.19300724298438,1.30491940223905,1.24807480478009,1.24746876371575,1.23763857221444,1.23870684798888,1.24523976522486,1.2834614398083,1.27439136760804,1.40148536911864,1.36409571701336,1.37253920438439,1.39125457420192,1.34929393440795,1.3503211226526,1.3454625222554,1.34642807920537,1.37243648555992,1.37191261955515,1.41234274886459,1.4480169966013,1.41221948627523,1.35509754799022,1.36504073019844,1.37360748015882,1.39110049596522,1.40276935442445,1.36815311057973,1.39042255172375,1.36578030573459,1.37258029191417,1.44016927841217,1.44386715609291,1.35168728301798,1.31076410335111,1.30619311566241,1.30858646427245,1.31439007785472,1.26329773456581,1.25561436649583,1.2380494475123,1.2392409858761,1.19151782002964,1.21703317602675,1.23537875807621,1.2577303742798,1.25896300017339,1.1651807134368,1.14451368595443,1.06933377832846,1.03966858182296,1.06065403766117,1.06354043662864,1.00986368771618,0.990535086516594,0.982372021536357,1.00580115820859,1.00759873763673,1.0081893708774,0.958244396857762,0.957233643625027,0.957567479804538,0.976094874173298,0.957290138978482,0.955940413625011,0.965398762981753,0.967765404697428,0.964832782258951,0.964058282322484,0.984309298565768,0.963040338772036,0.965587765618769,0.970782256571966,0.973305030900828,0.98183377489616,0.982253894888222,0.990995266850198,0.990476536786649,0.992579191123449,0.992797982219559,0.989349711282268,0.979590395769844,0.981927249026424,0.976004481607769,0.952283623474056,1.15992150962419,1.15571003782112,1.00115826734277,1.0009220140465,0.942876633529547,0.943581284665377,1.01938264117936,1.0004895677955,0.943140620908422,0.943775423243616,1.33728610382798
1.27058049922038,1.19293533980725,1.19459938476359,1.19496917253166,1.19470210358805,1.19441449087955,1.19449666593912,1.19317159310352,1.22200476713086,1.2239358810308,1.36623226856223,1.34266857022995,1.12380557094228,1.12441161200662,1.13177655172077,1.10976390763791,1.43195177245497,1.09253796077512,1.08797724496887,1.44025145347174,1.54416181630058,1.07992408913081,1.07381231907514,1.07022743210131,1.06724858619182,1.0660056884158,1.07253860565177,1.05798334822508,1.05670963480171,1.0617223134356,1.05799362010752,1.05412112042519,1.05308366029809,1.05385405148158,1.05767519175168,1.05647338150544,1.0573259477485,1.05867156434899,1.06177367284784,1.05640147832832,1.05896944893994,1.06084920342765,1.07285703400762,1.07450053519906,1.09575305998087,1.18241693218203,1.16611545473943,1.28870009985602,1.20618606816325,1.20627851510526,1.18191360994215,1.19223685180089,1.13835055648653,1.13512518539833,1.19149727626474,1.25851103734574,1.31261304219148,1.31434899032494,1.31183237912554,1.2594971380606,1.24768447324712,1.29339435013407,1.31176047594842,1.31602330716372,1.3291610448128,1.34072718444756,1.35953500120711,1.34789695839522,1.41494153512356,1.39595909636242,1.41480800065175,1.34155920692573,1.43922426522709,1.37682257936458,1.38987814195409,1.55045848024029,1.55088989930305,1.54861981328237,1.41945089151757,1.39240502503593,1.39207632479764,1.41521887594961,1.39815727920597,1.42209076530632,1.42114575212125,1.36287336300223,1.3550256448131,1.34335678635387,1.30994235275539,1.35467640080992,1.30845292980064,1.27995872789404,1.27311765418467,1.27277868206393,1.24630804099929,1.23053042956146,1.23522467983951,1.21665311637623,1.20254982177718,1.20306341589951,1.25232736411294,1.19524651335772,1.17349066633602,1.09711922034626,1.05102928380879,1.10642554584279,1.03663837650124,1.02859549254563,1.00726079270424,1.0106484595351,1.00388442494407,0.997552836604046,0.992607952394299,0.957442162838691,0.958315272846643,0.958529955189775,0.943149865602624,0.958465242330362,0.959418473021398,0.966445467803052,0.967637006166846,0.964227768382852,0.959145240948321,0.958704577191366,0.962039857421746,0.966064380964286,0.968245101607679,0.991515024101991,0.977123089606193,0.97920314580161,1.01104289982104,0.98935895597647,0.992576109558715,0.987857206762791,1.05772655116391,0.980635046214653,0.979638673617342,1.06006854036172,1.07802379087821,0.972241891067614,1.16571485132402,1.05157369357846,1.23195822122152,0.936317009399209,1.25201920763955,1.19393171240457,1.02269224170362,0.941430352481079,0.943422070487456,0.998265705245834
1.24658538182535,1.19138428555783,1.19322295251576,1.19408579064126,1.1935413808716,1.19229848309557,1.19112748849667,1.18664894774999,1.24950259644015,1.26805361613854,1.36065463639378,1.12807867404002,1.12754453615281,1.37116277213655,1.36953981471001,1.10573732971888,1.10643581772524,1.09202436665279,1.09468478420644,1.09659535434149,1.56052492503787,1.08550172129926,1.07325763742303,1.07090537634278,1.07010416951195,1.06682743901152,1.07280567459538,1.06016098730374,1.06034588118777,1.06222563567548,1.05750056975009,1.05604196244269,1.0551380367874,1.05464498642996,1.05890781764526,1.0582093296389,1.05642202209321,1.05757247292722,1.06759783019501,1.05887700199792,1.0602637061282,1.0621845481457,1.06712532360247,1.44796563718907,1.08980564004435,1.20737760652704,1.19808155291295,1.17407616363547,1.15068708730478,1.19483563805986,1.20553893956912,1.24153161566167,1.19634560477949,1.15705565442161,1.17534987705884,1.27394967666284,1.2574633053362,1.32852418810111,1.30963419628199,1.32089217944336,1.31385593996751,1.29150432376391,1.29185356776709,1.31980335990403,1.36624254044468,1.34814348357394,1.35559059834765,1.39048418301843,1.42989739596567,1.40966178754605,1.39146001185085,1.39238448127103,1.39207632479764,1.46296258556097,1.4340575083565,1.41195241733162,1.64231992495938,1.4408164070063,1.42718561899979,1.39983159604475,1.41896811304259,1.40429986490898,1.43663575085057,1.45140671780865,1.40140319405906,1.38876877864986,1.36566731502768,1.3150474783313,1.2984378444153,1.32988007658405,1.30822694838682,1.31207890430426,1.29189465529688,1.2677351877827,1.2608222108962,1.2709605588709,1.35557005458276,1.28391340263595,1.33641299382003,1.22018664393783,1.24913280867208,1.14573603996557,1.11691313782067,1.07790052828885,1.05933923670802,1.06388968063182,1.07537364520701,1.014603134277,0.956685125102383,0.992493934499143,1.00041971899487,0.973791918128792,1.00013621503934,0.963818947461481,0.956102709367666,0.946958679613788,0.936445407929791,0.942877660717792,0.957245969883962,0.965159428120749,0.964872842600492,0.96455646862114,0.958119079891915,0.957510984451082,0.960498047866526,0.964267828724393,0.964681785586987,0.995959667636593,0.983116733013729,1.05680208174373,0.982916431306022,0.984851653958943,0.983441324499038,0.983370448510158,0.984722228240117,0.979375713426712,1.02246112434858,1.01672016924922,1.16067135704278,1.09622556657341,1.1112430587102,0.95454857355351,0.979489731321868,0.926340957167164,0.930328501932897,0.93396474831896,0.936758700344409,1.07279540271294,0.942548960479504,0.944333186460461
1.27025179898209,1.19011057213447,1.1911788479089,1.1901619315467,1.19050090366743,1.1897202406015,1.18940181224566,1.2136639985843,1.2036797288463,1.20610389310367,1.29902334171475,1.26789953790184,1.335170096044,1.29627047721909,1.26404758198441,1.18194442558949,1.10321044663704,1.09914278118822,1.0973041142303,1.09916332495311,1.08910715203799,1.0890660645082,1.07572288921019,1.07645219286389,1.06895371867794,1.07423346625545,1.0733398124826,1.07052531669226,1.06079784401542,1.05830177658092,1.05855857364208,1.05323773853479,1.05400812971828,1.05690480056819,1.06340690215683,1.06214346061591,1.05671990668416,1.05840449540538,1.06888181550082,1.0604177843649,1.0614347007271,1.06839903702583,1.06874828102901,1.45295777205807,1.09957420025097,1.29132970176232,1.1888368587111,1.21617033790125,1.15771305489819,1.1876453203473,1.24510623075305,1.2074803253515,1.17742479731303,1.16664959262665,1.22281624584414,1.2064634089893,1.2856698945343,1.30895625204052,1.29405175061065,1.29454480096808,1.27821250787814,1.3222480679263,1.301375602795,1.37360748015882,1.3232649842885,1.32435380382783,1.36659178444786,1.34371630223949,1.38992950136632,1.46030216800732,1.46643448182788,1.39974942098518,1.40100259064365,1.40567629715681,1.42337475061214,1.47190939517187,1.64914045490386,1.58352366983559,1.45608042432181,1.45068768603739,1.45534084878566,1.41512642900759,1.49791780152642,1.50353652122466,1.40981586578275,1.38996031701366,1.35214951772807,1.35142021407437,1.33690604417746,1.35622745505934,1.35668968976943,1.35872352249384,1.33098943988828,1.27502822431972,1.35666914600454,1.28303002074555,1.31941302837106,1.30701486625813,1.27112490899005,1.22021745958517,1.14541761160972,1.13191008619257,1.10943520739962,1.12799649898045,1.06955975974229,1.05779845434104,1.02609942511113,0.993211939082153,1.00700707720781,0.966477310638636,0.961204753378845,0.998474224459498,0.962287409788707,0.936838821027492,0.954856730026905,0.955381623219922,0.943008113624862,0.941286546126828,0.954442773164311,0.961815930384412,0.96333719617474,0.960932548494013,0.997130662235495,0.955070385181793,0.959863245531332,0.96016113012228,0.960102580392335,0.99019406001937,0.989484272942317,1.01367352891559,0.978753237350453,0.982712020845336,0.977948948954892,0.979281212108204,0.979224716754748,0.987293280416477,1.0264024456433,0.943609018747983,0.943276209756716,1.12041584973493,0.927464701106812,0.923307670280711,0.921571722147252,0.922908094053542,1.28859738103155,0.932213392361831,0.93273006804889,0.93653580049532,0.937501357445291,0.942483220431846
1.27406266736975,1.27170013440705,1.18584774091917,1.18657704457287,1.18332085783733,1.18485136832185,1.18467674632026,1.18118430628845,1.23010928238115,1.19490754123698,1.27888018023716,1.29825295053127,1.26261979032434,1.11691313782067,1.11543398674838,1.11344124155376,1.35680268047634,1.35160510795841,1.09899897483397,1.10177238309453,1.10134096403177,1.09163403511983,1.08586123718489,1.0795029419505,1.07622621145007,1.07166549564382,1.07398694107673,1.06925160326889,1.05827096093358,1.05772655116391,1.05987337459523,1.05703833504,1.05733621963095,1.05942141176759,1.06102382542924,1.06067458142606,1.0593803242378,1.06315010509567,1.06714586736736,1.06059240636649,1.06116763178349,1.06793680231574,1.06991927562792,1.10244005545355,1.17099459890152,1.22266216760744,1.13696385235625,1.16644415497772,1.16803629675693,1.14380492606562,1.18567311891758,1.17093296760684,1.1791402016816,1.20145073035541,1.22205612654309,1.25925061288189,1.24425366450999,1.32226861169119,1.3200396132003,1.28928559715547,1.32275139016618,1.30561789024541,1.35730600271622,1.33333142908608,1.4973836636392,1.34843109628244,1.3478250552181,1.32314172169915,1.43788892050905,1.45894627952438,1.4550635079596,1.40822372400354,1.40647750398764,1.47010154386129,1.46824233313847,1.52965791828612,1.53696122670559,1.51791715664977,1.51078847023189,1.47541210708613,1.57323124362419,1.48493414211404,1.55333460732531,1.44368226220888,1.43000011479013,1.45186895251874,1.37728481407467,1.3660268309133,1.46713296983425,1.41862914092185,1.48291058127208,1.35834346284332,1.27942459000682,1.30301910398644,1.37425460875295,1.38801893123127,1.34640753544048,1.28307110827533,1.22965731955351,1.19658185807576,1.1353614386946,1.11321526013993,1.12649680414326,1.10410410040988,1.0992044124829,1.05726431645382,1.05995554965481,1.05133744028219,1.02113091557175,1.02828733607223,1.00858586553984,0.953914798406561,1.01278295670748,0.953510086238169,0.954275341480433,0.952680118136491,0.935708913958376,0.936134169891662,0.957718476476502,0.961276656555971,0.960988016659224,0.957052858493968,0.950528158763948,0.951059215086433,0.954348271845803,0.954966639169083,0.957519201957039,0.990299860408569,0.96991941844646,0.971337965412322,1.02335477812142,1.01314041821662,0.975610041321823,0.976796443744394,1.05400812971828,1.06287276426961,1.04360271279997,1.14643452797193,0.931359798930526,0.925880776833561,0.925081624379222,0.917874871654755,0.91825801287001,0.920058673862882,0.924799147611944,0.92854222157545,0.930463063592946,0.936247160598573,0.937527037151407,0.942661951186415
1.31230488571808,1.18186225052992,1.18196496935439,1.18203687253151,1.18056799334166,1.18033174004539,1.18147191899695,1.17890394838533,1.24289777602705,1.19902656609803,1.18019820557359,1.20236492789315,1.26601978341413,1.34954045958666,1.11719047864673,1.11447870168085,1.10792524067998,1.1078841531502,1.10023160072755,1.10159776109294,1.10204972392058,1.09617420716118,1.08834703273694,1.08827512955982,1.07893798841595,1.07668844616016,1.07521956697031,1.07266186824113,1.06899480620773,1.06732048936895,1.10941466363473,1.05920570223621,1.05992473400747,1.06185584790741,1.06742320819341,1.06407457451585,1.06441354663659,1.06620085418228,1.06830659008381,1.06022261859842,1.06791625855085,1.07073075434119,1.07132652352309,1.11084245529479,1.13202307689948,1.15095415624839,1.30748737285067,1.21129119373916,1.21944706840168,1.14696866585915,1.17848280120502,1.36654042503563,1.46084657777699,1.21633468802039,1.20260118118942,1.24633885664663,1.24889655537581,1.29351761272343,1.29548981415316,1.31839611200886,1.31185292289044,1.36344858841923,1.3630890725336,1.34263775458261,1.51229843695153,1.36621172479734,1.32398401605976,1.31693750470146,1.35350540621101,1.54539444219417,1.46026108047754,1.40785393623547,1.42073487682339,1.47925379112112,1.46952631844428,1.46921816197089,1.53129114759511,1.49816432670514,1.47310093353567,1.46426711463167,1.47632630462387,1.44708225529867,1.61118584926403,1.47856557499721,1.45772392551325,1.42339529437703,1.4352285029554,1.52536427142348,1.56461313425158,1.52480958977137,1.50053713155028,1.4205397110569,1.28888499374005,1.3140305619691,1.36636580303404,1.38854279723604,1.35764497483695,1.23811107880698,1.1876658641122,1.15290581391323,1.14649615926661,1.15766169548596,1.1316738328963,1.12342551129176,1.15286472638344,1.11380075743938,1.07242561494486,1.09064793440496,1.0546963458422,1.04870783837588,0.994974594109974,0.982970872282988,0.958653217779133,0.963081426301822,0.989272672163919,0.98978318472151,0.93535864276695,0.935907161289594,0.958175575245371,0.960681914562318,0.957485304744966,0.951573836397002,0.951497824466898,0.950696617636071,0.95083323367261,0.953850085547148,0.987030320225847,0.97212171004299,0.967306251552069,0.967918455745881,1.00656949501559,0.975504240932624,1.0182126737687,1.02990002161633,1.03765529286344,1.04247280573086,1.10796632820977,1.1156599681622,1.15411789604191,0.923646642401446,0.925146337238636,0.924643014998757,0.920484956984412,0.920839336928816,0.92508984188518,0.928900710272833,0.932462999105281,0.934583115642239,0.942620863656629,0.943766178549414
1.17746588484282,1.17746588484282,1.17592510247584,1.17689065942581,1.17878068579597,1.17730153472367,1.17761996307952,1.17676739683646,1.30883298945117,1.17214504973553,1.17405561987058,1.13103697618462,1.13142730771758,1.41842370327292,1.36891322988077,1.27703124139679,1.10581950477845,1.1061173893694,1.10183401438921,1.10262494933759,1.1028714745163,1.09576333186332,1.09232225124374,1.09049385616826,1.08050958643026,1.0783319473516,1.08007816736751,1.06962139103697,1.06869692161678,1.0689229030306,1.06888181550082,1.06138334131487,1.06467034369775,1.06213318873347,1.06696097348332,1.06661172948014,1.06631384488919,1.25305666776665,1.06526611287965,1.06207155743879,1.06422865275255,1.06611867912271,1.095824963158,1.1171185754696,1.11344124155376,1.24199385037176,1.30841184227086,1.20230329659847,1.27975329024511,1.1919286953275,1.18281753559745,1.37582620676727,1.34294591105601,1.34391146800598,1.21419813647152,1.23064342026837,1.27415511431177,1.27879800517759,1.30534054941935,1.34779423957076,1.32638763655224,1.33570423393122,1.33566314640144,1.40902493083437,1.38041773822086,1.39094641772852,1.34871870899094,1.33692658794236,1.36670477515477,1.47389186848405,1.47324473988992,1.48421511034278,1.46562300311461,1.5395497410821,1.46647556935767,1.47311120541811,1.49964347777743,1.49898607730086,1.51437335720572,1.49439454584727,1.49394258301962,1.45836078222493,1.47532993202656,1.48312629080345,1.4690435399693,1.44656866117634,1.49912988365511,1.66329510891514,1.52834311733297,1.52863073004147,1.50233471097842,1.50161567920716,1.32280274957841,1.30259795680614,1.30262877245348,1.35938092297041,1.26626630859285,1.24670864441471,1.1986875939773,1.16721454616121,1.14881760469952,1.15013240565267,1.15109796260264,1.15373783639139,1.20226220906868,1.14500673631186,1.06736157689874,1.02221768073459,1.03253989540509,0.996772173538112,1.0120105111475,0.961362940368521,0.983234859661863,0.970369326897617,0.967307278740314,0.967916401369391,0.936645709637497,0.936490604212555,0.957180229836305,0.957368205285076,0.949537949296105,0.949054143632875,0.946253001289713,0.944105150670149,0.952002173895022,0.953021144633715,0.989412369765191,0.976519102918339,0.966921055960325,0.967612353648975,0.968434104244695,1.00848520109186,1.09216817300704,1.02926316490465,1.04152779254578,1.06489632511157,1.10714457761405,1.11834092948074,1.13945991979075,0.917692032147207,0.921805921067032,0.919149612266366,0.920308280606332,0.921711419748524,1.29140160493945,0.930763002560384,0.932341790892412,0.94242672507839,0.94339639078134,0.944004486222173
1.17235048738446,1.17144656172917,1.17011121701112,1.17170335879033,1.17307979103816,1.17389126975143,1.17306951915571,1.1732441411573,1.1662181735639,1.1675432463995,1.17051182042653,1.21844042392193,1.13688167729668,1.1374158151839,1.12285028587475,1.1231687142306,1.32011151637743,1.34229878246188,1.10356996252266,1.1036213219349,1.1041965473519,1.10238869604132,1.09644127610479,1.31721484552751,1.08159840596959,1.08194764997277,1.08763827284814,1.06963166291941,1.06580025076687,1.069231059504,1.06840930890828,1.06594405712112,1.06505040334827,1.06063349389628,1.06815251184712,1.06778272407904,1.07116217340394,1.07101836704969,1.06331445521481,1.06170176967071,1.06020207483352,1.06998090692259,1.07047395728003,1.10420681923435,1.13952155108543,1.1387408880195,1.30223844092051,1.20608334933878,1.21178424409659,1.23883011057824,1.19154863567698,1.23639567443842,1.43734451073938,1.25287177388261,1.24498296816369,1.23670383091181,1.30501184918107,1.40758686729186,1.39949262392401,1.33435861733073,1.43662547896813,1.34190845092891,1.37633980088959,1.37827091478954,1.38069507904691,1.3870328305164,1.33751208524181,1.37953435633046,1.38710473369353,1.46884837420281,1.51643800557747,1.47760001804724,1.45708706880157,1.45238254664107,1.46092875283656,1.48632084624432,1.48558127070817,1.54834247245631,1.48991600510059,1.49634620351211,1.5327908424323,1.45072877356718,1.50852865609366,1.47674745180418,1.47531966014411,1.49128216546598,1.53249295784136,1.53008933734887,1.52548753401284,1.51376731614138,1.51615039286897,1.51541081733282,1.39320623186675,1.35096825124673,1.43638922567186,1.4239191603818,1.38607754544888,1.23851168222239,1.20846642606637,1.19590391383429,1.18076315910815,1.18476919326228,1.16674203956867,1.15733299524767,1.17541150835352,1.0940581993772,1.08127997761375,1.08610776236361,0.999853738272063,0.989080587962169,0.994262752656431,0.966722808629108,0.964058282322484,0.971455064872212,0.953737094840236,0.983927184538758,0.96185290916122,0.93868056955015,0.975760010805542,0.980703867827045,0.948396743156299,0.946369073561359,0.944951553783741,0.944864242782946,0.944548895991838,0.952078185825126,0.95443147409362,0.960981853529756,0.964482511067525,0.966218459200984,0.968885039884097,1.10641527396035,1.03197494187053,1.04191812407874,1.05042324274445,0.925086760320446,0.920832146611104,0.920746889986798,0.917701276841409,0.92085782631722,0.916230343275069,0.91774133718295,0.918960609629351,0.917893361043159,0.918114206515758,0.930036780471416,0.935465470344394,0.941344068668529,0.946386535761518,0.946540613998215
1.16563267626444,1.16745079945748,1.16683448651069,1.16918674759094,1.1691353881787,1.17049127666164,1.1690018537069,1.16706046792451,1.16551968555753,1.16293117118101,1.29470915108722,1.13451914433398,1.13500192280897,1.1369741242387,1.12665088237996,1.12336387999708,1.31756408953069,1.10414518793967,1.10275848380939,1.10514156053698,1.10326180604927,1.10297419334077,1.0968418795202,1.09636937292766,1.08919959898,1.08445398928972,1.08362196681155,1.07322682177569,1.06693015783598,1.06754647078277,1.07000145068749,1.06939540962314,1.06672472018705,1.06461898428552,1.06669390453971,1.06289330803451,1.06533801605677,1.06574889135463,1.06755674266522,1.06062322201383,1.04893381978971,1.081423783968,1.07929750430157,1.06948785656516,1.13467322257068,1.16745079945748,1.17365501645517,1.30281366633751,1.22005310946603,1.20195405259528,1.19998185116556,1.25089957245288,1.27061131486772,1.26253761526477,1.34386010859375,1.31588977269191,1.31263358595637,1.30587468730657,1.39096696149342,1.34069636880022,1.34113805974542,1.38627271121536,1.38677603345524,1.42111493647391,1.39731498484536,1.3923331218588,1.36436278595697,1.38796757181904,1.45879220128769,1.4584429572845,1.5217691125672,1.4801988043062,1.54741800303613,1.48184230549764,1.46304476062054,1.48590997094646,1.48895044815062,1.49311056054146,1.50178002932631,1.50080420049389,1.48042478572002,1.4542006698341,1.44746231494919,1.48647492448102,1.48596133035869,1.47175531693517,1.56830074004987,1.51624283981099,1.49005981145485,1.48826223202671,1.55387901709498,1.37723345466244,1.37893858714856,1.35811748142949,1.35724437142154,1.43006174608481,1.38476274449573,1.26270196538391,1.22795218706739,1.2543714687198,1.24292859167439,1.18835408023611,1.17912992979915,1.13426234727282,1.11522854909945,1.13224905831331,1.088049148146,1.04330482820902,1.03945287229158,1.00386696274391,0.986765305658727,0.960632609526575,0.975259770130397,0.986852616659523,0.966794711806233,0.976415356905629,0.960427171877645,0.945670585554996,0.94632079571386,0.942451377596262,0.944296207683654,0.986626635245699,0.981947792791316,0.942275728406426,0.942109323910793,0.951556374196843,0.952087430519328,0.965813747032592,0.962444569590138,0.964522571409066,0.975716868899267,0.966349939296299,1.03257071105242,1.0538129639518,1.05466553019486,0.920753053116266,0.921632326253686,0.922742716746153,0.922275346094838,0.919580004140875,0.928821616777995,0.919255412655565,0.919633417929597,0.917546171416467,1.2725937881799,1.27450435831495,1.28955266609908,0.941640926071233,1.23368389747254,1.13812457507271
1.1619553423486,1.16176017658211,1.16376319365918,1.16453358484267,1.16560186061711,1.16528343226126,1.16491364449319,1.16299280247569,1.16096924163373,1.16140066069649,1.283615518045,1.31128796935588,1.1382786533094,1.13706657118072,1.13163274536651,1.12342551129176,1.11960437102166,1.2874161145502,1.10158748921049,1.10318990287214,1.10383703146627,1.09236333877353,1.09205518230013,1.09167512264961,1.0858201496551,1.08580987777266,1.08256396291956,1.076431649099,1.07079238563587,1.07101836704969,1.07049450104492,1.06997063504015,1.06039724060001,1.06438273098925,1.06533801605677,1.06369451486533,1.06374587427757,1.05556945585015,1.06990900374547,1.06475251875732,1.06316037697812,1.09944066577917,1.105234007479,1.10477177276891,1.08549144941682,1.12838683051342,1.1788525889731,1.24697571335831,1.27770918563826,1.29763663758448,1.21875885227777,1.22705853329454,1.24867057396199,1.28714904560659,1.33780996983275,1.38454703496435,1.30987044957826,1.30128315585298,1.38483464767285,1.38712527745842,1.35984315768051,1.51142532694357,1.39279535656889,1.40766904235143,1.40885030883278,1.45939824235203,1.42080678000051,1.41992339811011,1.45792936316218,1.45838132598983,1.55034548953338,1.50434799993793,1.53359204926313,1.5555636058162,1.46710215418691,1.50025979072422,1.53402346832588,1.53649899199549,1.51524646721367,1.47347072130374,1.55075636483124,1.50142051344068,1.52897997404465,1.49316191995369,1.5255902528373,1.51783498159019,1.44752394624387,1.44392878738759,1.48691661542621,1.48652628389325,1.49902716483064,1.46603387841247,1.37664795736299,1.36323287888785,1.35631990200136,1.42481281415465,1.39420260446406,1.26368806609878,1.23015036991094,1.22063860676548,1.2227648864319,1.17775349755132,1.17812328531939,1.13168410477875,1.09922495624779,1.12125814409555,1.12703094203048,1.06945704091782,1.04611932399936,1.0120772783834,0.988277326754852,0.955690806881561,0.961706021242235,0.958136542092074,0.969520869407535,0.961098952989646,0.976570462330571,0.94718876978059,0.949607798096741,0.942227450558928,0.98340640009872,0.930580163052836,0.931242699470636,0.939657425570813,0.949935471146785,0.95019945852566,0.950105984395397,0.950805499590004,0.956821741138922,0.959276721043636,0.991832425269588,1.01373926896325,1.02210366283944,1.05625767197406,0.932382878422198,0.924298906936799,0.92304676446657,0.923213168962203,0.924124284935208,1.11411918579522,0.941880260932236,0.92450229020924,0.923579875165544,1.26806388802099,1.27088865569378,1.27749347610688,1.28013334989563,0.957157631694922,0.961360885992032,0.962646925674334
1.28117081002273,1.15749734536681,1.158421814787,1.15735353901256,1.15711728571629,1.16138011693159,1.16056863821832,1.15963389691569,1.15843208666945,1.15689130430247,1.1591511184407,1.23836787586814,1.14117532415932,1.1416786463992,1.12562369413531,1.12426780565237,1.32327525617095,1.25546028825913,1.30333753234229,1.09955365648608,1.10035486331691,1.09466424044154,1.09182920088631,1.09120261605707,1.0893536772167,1.08531682741523,1.5826197441803,1.63319849334689,1.069231059504,1.07085401693055,1.07152168928957,1.08122861820152,1.06162986649359,1.06106491295903,1.06161959461114,1.06206128555634,1.05765464798679,1.28020525307276,1.06954948785984,1.06444436228393,1.06708423607268,1.09813613670846,1.09940985013183,1.12136086292001,1.09556816609684,1.17733235037101,1.17754805990239,1.20350510684471,1.26181858349351,1.29562334862496,1.24923552749655,1.25253280176187,1.28956293798152,1.28886444997516,1.35410117539291,1.35599120176307,1.3115344945346,1.33007524235054,1.33071209906222,1.34093262209649,1.33492357086529,1.5079637025591,1.44106293218502,1.39923582686285,1.45154025228045,1.43293787316983,1.43234210398794,1.42889075148591,1.4201185638766,1.46872511161346,1.46794444854752,1.50201628262258,1.50027006260667,1.48979274251124,1.49147733123246,1.49465134290843,1.47883264394082,1.52388512035118,1.51886216983484,1.52582650613357,1.55304699461681,1.50747065220167,1.5444083414793,1.53241078278178,1.54703794338561,1.49022416157399,1.48130816761042,1.48001391042216,1.47740485228075,1.61089823655552,1.42185451201005,1.40837780224024,1.39317541621941,1.35797367507524,1.35883651320075,1.41870104409898,1.30198164385935,1.28859738103155,1.28133516014187,1.2274694085924,1.21255463528008,1.17353175386581,1.1742816012844,1.12449378706619,1.11547507427816,1.13141703583514,1.08560444012373,1.06205101367389,1.01756143642159,1.01797436609594,0.989870495722305,0.991419495595238,0.950690454506603,0.967277490281219,0.951367371559828,0.951438247548709,0.955669235928424,0.951303685888659,0.95284344106739,0.950924653426383,0.952097702401774,0.929236600828834,0.932989946674786,0.934932359645421,0.953278968883122,0.950221029478798,0.949535894919616,0.951628277373969,0.956574188771961,0.957392857802947,0.959565360940383,0.961625900559152,0.952446946404955,1.00502049514266,0.929302340876491,0.929125664498411,0.92771841660324,0.928843187731133,1.09745819246699,1.11325634766972,0.964745471258155,0.926958297302199,0.925165853815284,1.18461511502559,1.2530463958842,1.26534183917266,1.12726719532675,1.06383832121958,0.993502633355389,1.15271064814674
1.15081034989414,1.15334750485843,1.15374810827384,1.15523753122858,1.15565867840889,1.15470339334136,1.15409735227702,1.15374810827384,1.15551487205464,1.15332696109353,1.15366593321427,1.15261820120472,1.14530462090281,1.13744663083124,1.22690445505784,1.12381584282472,1.12265512010827,1.11164366212562,1.11087327094213,1.10299473710566,1.10034459143446,1.09669807316595,1.0920038228879,1.13046175076761,1.45407740724474,1.08152650279247,1.07359660954376,1.07370960025068,1.07111081399171,1.07017607268908,1.07208664282413,1.08159840596959,1.20698727499407,1.06279058921004,1.06104436919414,1.05683289739107,1.05670963480171,1.28763182408158,1.06779299596149,1.06396158380894,1.06358152415842,1.06369451486533,1.06345826156906,1.09199355100545,1.24900954608272,1.19459938476359,1.19534923218218,1.19359274028383,1.25383733083258,1.27089892757622,1.28326627404182,1.26860829779065,1.26584516141254,1.26694425283432,1.2705188679257,1.28731339572574,1.31150367888726,1.27825359540792,1.29568497991964,1.32097435450293,1.46485261193112,1.43969677181963,1.38107513869743,1.42986658031833,1.40586119104085,1.4104219068471,1.43433484918256,1.43041099008799,1.42163880247868,1.48367070057312,1.46143207507644,1.50145132908802,1.49564771550574,1.49065558063674,1.50741929278944,1.49226826618084,1.51663317134395,1.6089054913609,1.53324280525995,1.56265120470429,1.5635140428298,1.56428443401329,1.52890807086753,1.53920049707892,1.54225124616554,1.49527792773767,1.47544292273347,1.47733294910363,1.46855048961186,1.47338854624417,1.45539220819789,1.474189753075,1.38433132543297,1.37368965521839,1.38870714735518,1.40207086641809,1.32608975196129,1.28573152582898,1.32733264973732,1.23308812829064,1.21524586848106,1.20031055140384,1.19933472257143,1.11003097658152,1.10789442503264,1.10630228325343,1.122418866812,1.10462796641465,1.1024297835711,1.02931452431688,1.01857321684257,1.01474488625476,0.969049390003241,0.990886384896265,0.954228090821179,0.987488446182961,0.953870629312041,0.954999509192912,0.946927863966448,0.94366140534846,0.953005736810045,0.976379405317066,0.934054113696244,0.934544082488943,0.952157279319964,0.947617107278609,0.947938617199185,0.953612805062634,0.956694369796585,0.957224398930825,0.960462096277963,0.961489284522613,1.00467946864543,1.00975069700927,0.9326704911307,0.929887838175942,0.929816962187061,0.931843604593756,0.9322288001855,1.09250714512778,1.16464657554958,1.23185550239706,1.22542530398555,0.938584013855153,0.941309144268211,1.24564036864027,0.99668999847854,1.30537136506669,1.11547507427816,1.14317834123639
1.14694812209425,1.14737954115701,1.14680431574,1.14780068833731,1.14704056903627,1.15092334060105,1.1504713777734,1.15202243202283,1.15099524377818,1.1501837650649,1.14910521740802,1.14782123210221,1.1434248664151,1.14194571534281,1.13590584846426,1.12388774600185,1.12341523940931,1.11832038571584,1.10658989596194,1.10603521430983,1.1011252545004,1.0972835704654,1.0961125758665,1.09705758905158,1.09087391581879,1.56269229223408,1.45460127324951,1.06990900374547,1.07368905648578,1.0736274251911,1.07653436792346,1.0777567219346,1.07376095966291,1.06377668992491,1.06256460779622,1.05983228706545,1.05774709492881,1.06240025767707,1.06074648460319,1.06660145759769,1.06359179604087,1.07041232598535,1.06371505863023,1.12070346244343,1.17461030152269,1.19621207030769,1.20543622074465,1.25607660120592,1.26186994290575,1.26227054632116,1.33204744378027,1.30228980033274,1.3025671411588,1.3027212193955,1.27372369524901,1.27472006784632,1.29406202249309,1.28274240803704,1.30588495918902,1.37581593488482,1.43210585069167,1.51760900017637,1.41164426085823,1.39565093988902,1.43007201796726,1.43602970978623,1.4358242721373,1.44696926459176,1.43708771367822,1.43551611566391,1.48954621733252,1.49051177428249,1.46247980708598,1.47352208071597,1.52275521328207,1.59008740271891,1.49706523528336,1.5283944767452,1.57177263631679,1.56889650923177,1.55771042924752,1.53823494012895,1.52651472225749,1.53260594854827,1.53843010589544,1.51754736888169,1.49817459858758,1.45473480772132,1.45424175736388,1.53257513290093,1.45852513234408,1.46152452201846,1.37838390549645,1.37682257936458,1.41142855132685,1.4090762902466,1.3791234810326,1.26257870279456,1.26222945879137,1.25483370342989,1.23851168222239,1.24292859167439,1.17280245021211,1.19533896029974,1.11315362884525,1.17131302725736,1.19215467674132,1.14732818174477,1.09848538071164,1.03883655934479,1.05749029786765,1.01936826054393,0.964802993799856,0.960555570408226,0.990863786754883,0.997456280909049,0.954189057667883,0.951246163346959,0.944569439756731,0.944083579717011,0.952779755396222,0.949774202592375,0.933899008271302,0.948640186770281,0.951386888136476,0.945760978120526,0.948216985213485,0.952771537890265,0.956837148962591,0.957005607834714,0.960570978231896,0.961509828287506,1.00861462681069,0.942428779454879,1.10117661391263,1.10080682614455,0.933040278898774,1.13070827594633,1.10379594393649,1.14294208794012,1.16649551438995,1.18575529397715,1.23271834052257,1.15476502463604,1.05714105386446,1.10681587737576,1.11108898047351,1.13903877261044,1.14624963408789,1.25142343845765
