0.929966100890516,0.930405009204203,0.930619984704785,0.930808088267794,0.934829921591172,0.937499200723393,0.938009767537274,1.0042311790289,1.00846798785286,0.946617744873058,0.94677001918597,0.946796891123543,0.952798290514776,0.954186673956032,0.955915435273208,0.956775337275534,0.959157982406979,0.961818304226675,1.03621774205292,0.965777436362384,0.966664210302283,0.968464630119653,0.969682824622948,0.972602908505847,0.974322712510499,0.976848674642331,0.976759101517089,0.977493601144076,0.983208366534534,0.982769458220847,0.983477085910261,0.987418303420922,0.987409346108397,0.987472047296067,0.989738247364697,0.992425441121966,0.995560500505446,0.995757561380979,0.996447274445345,0.99900010851475,0.999913754392221,1.00118569277066,1.12628351948405,1.09623173596526,1.13871626926768,1.00793950641393,1.00793054910141,1.00835154279005,1.00819031116461,1.00662278147287,1.00491193478074,1.00365791102735,1.00183061927241,0.999456931453486,0.998561200201063,0.99847162707582,0.997862529824173,0.997468408073107,0.996214384319715,0.996008366131657,0.998176035762521,0.996769737696217,0.996348744007578,0.997011585134371,1.00337127702657,1.24964362756773,1.22278960462009,0.996590591445732,0.964792131984719,1.20326266331727,1.2802418071505,1.2223506963064,1.26840023999347,1.02498527214754,1.02088282301144,0.917210887856014,1.04056203862717,1.26977070880967,0.939828101979692,1.34331920194612,0.891887669618766,0.891157648648041,0.890397172814734,0.886398628503918,0.885120420006711,0.884181693654171,0.881987152085735,0.88149002124064,0.881259818308768,0.881122771427147,0.879160224253089,0.878023541293764,0.877692120730367,0.878293156400743,0.871800896283182,0.869886718596754,0.869926130771861,0.870659734667595,0.869599188864726,0.872270259459451,0.86871331065608,0.866664773281789,0.866083443698966,0.865022897896098,0.865092764933787,0.863404311522969,0.862457523589158,0.864474710369615,0.865542422022503,0.866375452087256,0.865822785904511,0.865385669053329,0.864201512337626,0.862124311563257,0.859517733618706,0.859431743418474,0.859475634249843,0.859699567062948,0.861295760154766,0.86255426256442,0.862338391332586,0.861217831535805,0.861979203100365,0.861175732166941,0.862625921064614,0.863385501166669,0.865047978371165,0.865906088910987,0.864440672582023,0.865429559884698,0.864197033681364,0.865598853091406,0.864389615900635,0.867176235826922,0.867565878921726,0.864346620800518,0.862566802801954,0.862773716721264,0.882459202455762,0.95013796869508,0.886526718073015,0.886600168035713,0.850158237762139,0.906954765015771,0.837471996034074,0.834747181564203,0.832150456663429,0.826116810947109,0.826566468035825,0.828438546353389,0.830465586177622,0.828931198542221,0.828845208341989,0.977780235144851,0.874677985065964,0.832629672883475,0.834462339025933,0.834594907251291,0.834603864563815,0.834604760295068,0.832874207515387,0.828291646427991,0.828518266434854,0.8273520243442,0.826889827017949,0.821649799191275,0.819594095966965,0.818953648121482,0.818966188359016,0.8188121225836,0.818725236652114,0.81849413798899,0.81645007927096,0.810945810724822,0.811428609869878,0.810831157124511,0.810513172529901,0.8102910311793,0.811634628057935,0.814116699358399,0.811260212394422,0.810702171824163,0.805347490397178,0.803613354692488,0.802410387620484
0,0,0,0,0,0,0,0,0,0,0,0,0,0,0,0,0,0,0,0,0,0,0,0,0,0,0,0,0,0,0,0,0,0,0,0,0,0,0,0,0,0,0,0,0,0,0,0,0,0,0,0,0,0,0,0,0,0,0,0,0,0,0,0,0,0,0,0,0,0,0,0,0,0,0,0,0,0,0,0,0,0,0,0,0,0,0,0,0,0,0,0,0,0,0,0,0,0,0,0,0,0,0,0,0,0,0,0,0,0,0,0,0,0,0,0,0,0,0,0,0,0,0,0,0,0,0,0,0,0,0,0,0,0,0,0,0,0,0,0,0,0,0,0,0,0,0,0,0,0,0,0,0,0,0,0,0,0,0,0,0,0,0,0,0,0,0,0,0,0,0,0,0,0,0,0,0,0,0,0,0,0,0,0,0
0.929365960951393,0.929267430513626,0.93067372857993,0.933414666212344,0.93730213984786,0.937087164347278,0.938036639474847,1.00487610553064,0.99370633681293,0.946143007309274,0.947137268999463,0.947307457937424,0.947818024751305,0.95570941708515,0.955960221835829,0.958307037717177,0.961316694725318,0.96140626785056,1.0533262089742,0.966081984988208,0.966816484615195,0.968473587432177,0.969700739247997,0.971993811254199,0.972549164630701,0.972316274505071,0.977081564767961,0.978335588521353,0.979974776713287,0.981407946717164,0.984632579225886,0.98650465754345,0.987167498670243,0.989075406237904,0.989397869488776,0.993518233249922,0.9937690380006,0.993294300436816,0.996617463383305,0.998462669763296,0.998892620764459,1.12021046159262,1.10260934248251,1.14059730489776,1.00486714821812,1.0077424455384,1.00913978629218,1.00933684716771,1.00857547560315,1.00679297041083,1.17887190131379,1.04179814775552,1.00169625958454,1.00138275364619,0.9998689678296,0.998184993075045,0.997755042073882,0.996850353508935,1.12495783723046,1.0881880693185,1.11731724964729,0.996160640444569,0.995497799317776,0.994225860939336,1.25265328457587,1.22722347431958,1.16995041803966,1.19036413328238,1.25699758115012,1.23997868735409,1.24089233323156,1.16588379815366,1.16652872465541,0.932321874084388,1.07669583734991,1.03197197591644,0.911218445777305,0.911048256839344,0.903497242381419,0.952619144264292,0.893454303579253,0.893444450535477,0.894212987950056,0.886352946210044,0.883210720976545,0.882675969418848,0.880015647599152,0.88123832075871,0.880836137426372,0.88146404503432,0.882178838573754,0.884584772717762,0.875384717024126,0.873059398692836,0.872069615658909,0.871154178318932,0.871688929876629,0.872345500884655,0.873396193643747,0.872538978835178,0.86863179911211,0.868510875393033,0.867863261697531,0.865128594183884,0.864072527037277,0.863618391292299,0.864449629894547,0.865839804798307,0.865570189691328,0.865658867085318,0.865331925178184,0.864382450050615,0.86327890914763,0.86302004281568,0.859405767212154,0.859421890374697,0.859365459305795,0.860044423595131,0.860778923222118,0.860398237439838,0.860777131759613,0.86162986791192,0.862294500501218,0.862318685245033,0.860586341002847,0.862032051244258,0.862915242259147,0.863207250647436,0.868226928586014,0.867996725654142,0.866215116193073,0.865031855208622,0.865614976253949,0.867046354795321,0.86589981879222,0.865579147003852,0.865572876885085,0.865616767716454,0.880799412445022,0.856543905860662,0.88878396082912,0.904124254258115,0.906318795826551,0.908593953207705,0.836012849823877,0.83469433342031,0.834614613338845,0.830412738033729,0.828735033397941,0.829628973187859,0.829572542118956,0.828766383991775,0.946734189935873,1.00712439097423,1.00805595147675,0.833798602167887,0.834685376107786,0.835183402684133,0.834740015714184,0.952672888139437,0.961863090789296,0.82647599917933,0.826991044649473,0.826873703855406,0.827342171300423,0.821084592770997,0.821391828590578,0.821910456985731,0.817841149905973,0.819205348603413,0.818901695708842,0.819019036502909,0.814414082134203,0.812262535665883,0.809796587527963,0.810178169041495,0.810106510541301,0.810295509835563,0.813764676976196,0.814942563573133,0.815527476080965,1.01427232636856,0.807140744364529,0.801752025149953,0.802357539476591
0.92410801849967,0.927350565633441,0.931112636893617,0.933029501773802,0.936701999908736,0.936854274221648,1.00148128408396,1.02129485938756,1.0208290791363,0.944638178805203,0.946366940122379,0.947844896688877,0.94816735993975,0.955180935646221,0.954858472395349,0.958002489091353,0.958074147591547,0.961047975349591,0.963797870294529,0.965544546236754,0.967022502803252,0.967980935243344,0.969817184310811,0.972217744067305,0.972692481631089,0.971796750378666,0.976562040641556,0.978102698395723,0.979777715837754,0.982554482720265,0.98296651909638,0.986047834604715,0.986119493104908,1.04862361989898,0.989039576987807,0.991619282994785,0.993034538373613,0.995426140817582,0.995623201693116,0.99923299864038,0.999886882454648,1.00240388727396,1.00520752609404,1.0073751957249,1.00650633641005,1.00764391510063,1.0077424455384,1.00875462185364,1.00735728109986,1.0050462944686,1.12302305772523,1.04950143652635,1.06214020449804,1.00104237577027,1.08519632693541,1.07818275122894,1.11156665500674,1.14090185352359,1.14244251127776,0.995578415130494,1.11385076970042,1.14115265827427,0.992380654559345,0.992515014247208,1.163975890586,1.33466643804771,1.20813544133045,1.25322655257742,1.15760724138128,1.15878960663447,1.20619170451269,1.27395377375849,0.934767220403503,0.934435799840106,1.27777854620633,1.08245538930299,0.90987484889867,0.918375338484164,0.961621243351142,0.93107680764352,0.900711518186384,0.892439440070258,0.885786844058513,0.884325010654559,0.882842575431799,0.88158228155964,0.880875549601478,0.881675437609892,0.881511518790699,0.882460993918267,0.882438600636956,0.880645346669606,0.873989167732851,0.873102393792952,0.872782617735837,0.872568537966508,0.873750903219707,0.874446886402839,0.874848174003925,0.875693744306212,0.868470567486673,0.868534164405595,0.867984185416608,0.866961260326341,0.865095452127544,0.865540630559998,0.864944073545884,0.864340350681751,0.864581302388653,0.862027572587995,0.861869028156317,0.862770133796254,0.863776935723977,0.864016991699627,0.862595466202032,0.862969881865544,0.862648314345924,0.860995690185204,0.861396082055037,0.860651729384274,0.859461302549804,0.859314402624406,0.860675914128089,0.860515578233906,0.859524003737473,0.859920812682297,0.860638293415487,0.963081285292591,0.86717892302068,0.867055312107845,0.866449797781207,0.865910567567249,0.865596165897648,0.864649377963837,0.865069475921224,0.866174808286713,0.865598853091406,0.865884591360928,0.879554346004155,1.0271171125283,1.02640052752637,0.849949532380325,0.980843636028138,0.912490384155745,0.833607811411121,0.83371440343016,0.829262619105618,0.83193995981911,0.831572710005616,0.829453409862384,0.83053903614032,0.83097884018526,0.94740598837519,0.997047414384468,0.836970386532717,0.834456068907166,0.835254165453075,0.835647391472888,0.835383150753424,0.960161201409693,0.962239297915314,0.826741135630047,0.827689715026363,0.826256545022486,0.821091758621016,0.821948077698332,0.822138868455098,0.822588525543815,0.818935733496434,0.81849055506398,0.819949701274177,0.818795103689804,0.81459054119093,0.810615285892678,0.812635159866891,0.8096622278401,0.809873620415671,0.810089491647505,0.814671157003648,0.814714152103765,0.816649827340251,1.01457687499438,0.806658840950726,0.805637707322963,0.804201850125329
0.922343427932397,0.92573824937908,0.929876527765274,0.933325093087102,0.934686604590785,0.935940628344177,0.998946364639605,0.980359941151829,1.01805231225379,1.01775672094049,0.945184574869181,0.946420683997525,1.00939954835538,0.955897520648159,0.954338948268944,0.955449655021948,0.957456093027375,0.95983873815882,0.962248255227838,0.963081285292591,0.965929710675296,0.968007807180917,1.00052285164387,0.971465329815269,0.973946505384481,1.02495840020997,0.977153223268155,0.978299759271256,0.98040472771445,0.982948604471331,0.982644055845508,1.08963915394742,0.984686323101032,0.985734328666366,0.989568058426737,0.990078625240618,0.992712075122741,0.994709555815644,0.994709555815644,1.11643047570739,1.00158877183425,1.0048581909056,1.00346085015182,1.00477757509288,1.00795742103898,1.0080022076016,1.14280080377872,1.11452256813973,1.00501942253103,1.00519856878152,1.14737799047861,1.12050605290592,1.00034370539338,1.08398708974464,1.08332424861784,0.996993670509323,1.11647526227001,1.0829032549292,0.994440836439917,1.12241396047358,1.08890465432044,1.09206658564149,1.2413133269202,1.12597897085822,1.11093068581752,1.2420926131098,1.17974971794117,1.18161283894621,1.26473669917106,0.968912495745864,0.944279886304234,0.941449375546578,0.935349445717578,0.936549725595825,0.980342026526781,1.02132173132513,1.0036041671522,0.950756023259252,0.965750564424812,0.94740598837519,0.936782615721454,0.890143680870298,0.891597452692981,0.883977466928619,0.881443443215514,0.881436277365495,0.881622589465999,0.880297802943666,0.881424632859214,0.882376795180539,0.881791882672707,0.879759468460959,0.878608453801596,0.872176207677947,0.87234012649714,0.872074990046423,0.874587516209469,0.874832050841381,0.874762183803692,0.872427908159878,0.871173884406486,0.87039549394813,0.868932764812924,0.866034178480083,0.865839804798307,0.865757397523084,0.865926690729792,0.865976851679928,0.865795913966939,0.865569293960076,0.865246830709203,0.864836585795594,0.864525767051003,0.863790371692764,0.863012876965661,0.862791631346312,0.863043331828243,0.864661022470119,0.86029522834581,0.859428160493464,0.859410245868416,0.859320672743173,0.859310819699397,0.856366551072683,0.857653716882414,0.857452177350619,0.859586704925143,0.861527754549143,0.88762667605099,0.865500322653639,0.865406270872135,0.86456517922611,0.86470580903274,0.865926690729792,0.864471127444605,0.865028272283612,0.865203835609087,0.865720672541735,0.968572117869944,1.02209206020221,0.90453629063423,0.848962436540155,0.908952245708675,0.834280505581691,0.834665670020233,0.834022534980993,0.83062771353431,0.831358630236287,0.831706173962227,0.83028733565839,0.829323528830782,0.83027658688336,0.993150983436428,0.948874987629164,0.93933544979086,0.835216544740473,0.835745921910655,0.865756501791832,1.06303593575046,1.06360024643949,0.829061079573823,0.830605320253,0.82964061769414,0.826181303597283,0.819620967904537,0.819837734867624,0.821482297447072,0.82159963824114,0.822044816673594,0.820754067938852,0.821127587871113,0.821075635458472,0.817872500499808,0.81854609040163,0.808762017931415,0.80971059732773,0.81043524391094,0.811287084331995,0.815728119881508,0.816014753882283,0.816160758076428,0.844285823671255,0.805755048117031,0.805232836796868,0.803751297305361
0.924752945001415,0.925881566379468,0.93096931989323,0.930611027392261,0.934561202215446,0.934731391153406,0.936066030719516,1.00238597264891,1.00582558065821,1.01457687499438,0.945972818371313,0.946349025497331,1.00854860366558,1.01546364893428,0.953783594892441,0.955843776773014,0.958871348406203,0.958745946030864,0.961218164287551,0.961836218851723,0.967147905178591,0.967658471992472,0.967873447493054,0.97047106812508,0.974089822384869,0.976893461204952,0.977404028018834,0.978066869145626,0.980019563275908,0.980118093713675,0.981318373591922,1.07740346503933,0.986119493104908,0.986997309732283,0.990284643428675,0.990472746991684,0.991162460056049,0.996536847570587,0.996053152694279,0.997629639698543,1.00220682639842,1.00241284458648,1.00312942958842,1.13526770394585,1.00589723915841,1.00645259253491,1.0050821237187,1.00494776403084,1.14186028596368,1.07124083402266,1.16050941063913,1.13667400201215,1.07412508865546,1.12332760635105,1.12976791405597,1.11655587808273,1.08545608899861,0.995291781129719,0.992622501997499,1.08266140749105,1.10140010529174,1.10129261754145,1.2386530051005,1.17183145366975,1.10573544455346,1.10626392599239,1.11944909002806,1.1738826782378,1.17718792655924,1.12267372253678,1.20623649107531,1.29622165269372,1.2964366281943,0.939846016604741,1.05797505417427,0.924009488061904,0.990159241053336,0.944871068930833,0.975093041387582,0.967076246678397,1.02375812033172,0.897881007428727,0.894187907474988,0.978335588521353,0.88392999317224,0.882806746181702,0.88239560553684,0.882297970830326,0.88172291136627,0.881885038722959,0.880105220724395,0.879730805060882,0.878465136801208,0.874642155815867,0.874237285289772,0.874497047352975,0.875306788405165,0.874625136922071,0.872944745092526,0.872027516290045,0.871745360945532,0.871466788526028,0.869883135671744,0.866940658507535,0.866319021018354,0.866153310736655,0.865869363929637,0.866093296742743,0.865509279966163,0.865800392623201,0.86543045561595,0.86549315680362,0.865267432528009,0.864293772656625,0.864051925218471,0.864967362558448,0.86429914704414,0.864677145632662,0.860801316503428,0.859462198281056,0.859261554480514,0.858888034548253,0.858501078647206,0.858705305372759,0.858641708453837,0.857949308195714,0.858960588779699,0.860588132465352,0.974143566260014,0.877205738660302,0.871723863395473,1.12714342148637,0.86252112050808,0.862738783202419,0.863283387803892,0.863241288435029,0.861094220622971,1.03307372535692,0.86755244295294,0.853359581258299,0.85174457781018,0.966359661676459,0.842891170111232,0.833963416718333,0.8339696868371,0.83466477428898,0.833419707848112,0.832555327189524,0.831425810080219,0.831484032611627,0.831234123592201,0.993777995313124,0.99673390844612,0.915428382663692,0.915517955788934,0.836887979257494,0.836678378144427,0.974627261136322,0.97460038919875,0.97123243968964,0.829595831131519,0.828227153777817,0.830443192896311,0.818359778301126,0.819220576034704,0.82026499867503,0.821047867789647,0.821880002123148,0.821302255465335,0.820324116937689,0.821076531189725,0.820244396856224,0.819549309404344,0.819108609628152,0.81433167485898,0.811303207494538,0.811483249476275,0.811884537077361,0.856040504896801,0.81703409604754,0.817793676149595,0.87362281365061,0.804443697563484,0.803685908923934,0.803747714380351
0.921698501430653,0.925729292066556,0.927422224133635,0.951723413011869,0.936173518469807,0.935528591968062,0.936146646532234,0.93753502997349,1.01326910736585,0.999430059515913,1.00638093403471,0.949582615318578,0.949385554443045,0.952260851763322,0.952162321325556,0.952914735577591,0.956730550712913,0.958548885155331,0.960653853598525,0.962552803853662,0.96466672960938,0.967371837991697,0.967676386617521,1.08065496948562,0.972764140131283,0.974116694322441,0.977224881768349,0.977045735517864,0.979338807524067,0.98000164865086,1.0547683362906,1.09577491302652,0.986262810105296,0.987695980109173,0.992810605560507,0.991959660870706,0.993751123375551,0.995408226192534,0.995936707631463,1.00025413226814,1.00246658846163,1.00328170390133,1.00740206766248,1.00589723915841,1.00521648340656,1.00628240359695,1.08631599100094,1.14173488358834,1.15984656951233,1.07116917552246,1.13159520581091,1.17184041098228,1.06152214993387,1.07742137966438,0.996223341632239,1.08980038557286,1.08692508825258,1.08680864318977,0.99243439843449,0.990714594429838,0.990777295617507,1.17682963405827,1.16883971128666,1.16929653422539,1.27517196826178,1.10596833467909,1.21656427241575,1.21290968890587,1.11798904808661,1.24964362756773,0.949815505444208,1.0951747730874,0.9853402069153,0.987239157170437,1.06067120524407,1.07007638339451,1.06961060314325,0.957267989464366,0.983477085910261,0.910215226774591,1.03675518080438,0.895217998415274,0.895089908846178,0.888433729909423,0.884992330437614,0.884052708353823,0.882846158356809,0.883260881926681,0.882722547443974,0.880759104538663,0.879100210259176,0.878572624551499,0.87870967143312,0.875595213868445,0.873254668105864,0.873910343382638,0.871199860612806,0.872203975346772,0.872172624752937,0.871721176201716,0.871473954376047,0.871495451926106,0.870488649998382,0.866989027995166,0.866009098005015,0.866233030818121,0.866310959437082,0.864892121133244,0.864737159626575,0.863961456361977,0.864895704058254,0.865687530485395,0.865390147709591,0.864463961594586,0.863894276518045,0.86621422046182,0.864803443739254,0.863046019022,0.860050693713898,0.860474374596294,0.859697775600443,0.859627012831502,0.859536543975007,0.859198853292844,0.859276781911805,0.859360980649532,0.859489965949881,0.859430847687221,0.903318096130935,0.883222365482826,0.87205528395887,0.872766494573294,0.85979988896322,0.911621524840895,0.860552303215255,0.86035076368346,0.859236474005446,0.859311715430649,0.983889122286375,0.853612177471482,0.852236334267761,1.11710227414671,0.844442576640429,0.844275970627478,0.834056572768585,0.834682688914029,0.834587741401272,0.833666929673781,0.831309365017404,0.831576292930626,0.831157090704492,0.832815089252727,0.992953922560895,0.887237928687438,0.872220994240568,0.866155997930413,0.86726401748966,0.8687392868624,0.915482126538838,0.972683524318565,0.827969183177119,0.827515943163393,0.826865642274134,0.82290113575091,0.822422815262116,0.820163781043506,0.820195131637341,0.822000925842225,0.81965142276712,0.81930029611617,0.821895229554439,0.818426062413805,0.818296181382204,0.818983207252812,0.817545558592674,0.812935229836453,0.812753396392211,0.813388469850179,0.815562409599809,0.817394180011014,0.818468161782669,0.818184214975651,1.02829052046898,0.804679274882871,0.803674264417652
0.947432860312763,0.923382476185208,0.924197591624912,0.933987934213895,0.935851055218935,0.93607498803204,0.936155603844758,0.936800530346503,1.0137707168672,1.0126958393643,1.00089010145736,0.949546786068481,0.949931950507023,0.950388773445758,0.951230760823036,0.952099620137886,0.957384434527181,0.958826561843582,0.962230340602789,0.962095980914926,0.965884924112675,0.966906057740437,0.968563160557419,0.971322012814882,0.972880585194098,0.973498639758269,0.974958681699719,0.97813852764582,0.978317673896305,1.07470731396953,1.0585393648633,1.07354286334138,1.09905328941039,0.987624321608979,0.990445875054111,0.991789471932745,0.994673726565547,0.997343005697767,0.998749303764072,1.00010185795523,1.00269947858726,1.00602264153375,1.00587932453336,1.00607638540889,1.13986280527078,1.13159520581091,1.14196777371397,1.16173656245494,1.15887917975972,1.14933068460889,1.08803579500559,1.17205538648286,0.996841396196411,1.20535867444794,0.995309695754768,1.08797309381792,1.08711319181559,1.08804475231811,1.08322571818008,0.989568058426737,0.988412565111111,0.986862950044419,1.1671557365321,1.1665645539055,1.13676357513739,0.977350284143688,1.18510619083066,1.24721619587366,1.21649261391556,1.21422641384693,1.25909359228079,1.24692060456036,1.14542529634832,0.95530633802156,1.29803998713614,1.07663313616224,0.95240416876371,0.950084224819935,0.977914594832715,1.08079828648601,0.904527333321705,0.905602210824613,0.897137550489217,0.90976736114838,1.35213319746996,0.885837005008649,0.883872666372085,0.879359972322379,0.878956893258788,0.880430371169024,0.879795297711056,0.879366242441146,0.875153618361001,0.874712022853556,0.884489825205005,0.885406158276233,0.86770023860959,0.867680532522036,0.871525011057436,0.870902477837002,0.870275465960306,0.868845878881439,0.866870791469846,0.866690749488109,0.865790539579424,0.866530413593925,0.864657439545109,0.86508291189001,0.864522184125993,0.864427236613236,0.862937635540457,0.862759385021225,0.861647782536968,0.862865977040263,0.863342506066552,0.86261696375209,0.862547096714401,0.920614666615221,0.859602828087687,0.861588664274308,0.860068608338946,0.860731449465739,0.861669280087026,0.860592611121614,0.86058365380909,0.85947115559358,0.855541582589201,0.854799021380943,0.870504773160926,0.857942142345695,0.858061274602267,0.894304352537803,0.859571477493852,0.859353814799513,0.859790931650695,0.860059651026422,0.859484591562367,0.859695984137939,0.855355270488697,0.852370693955624,0.852392191505682,0.847613465274006,0.844842968510262,0.917282546356208,0.83839101629906,0.838077510360712,0.835409126959744,1.00194706433522,0.829372794049666,0.82993262608243,0.832469336989292,0.833244144522638,0.844050246351868,0.881515997446961,0.841019987524921,0.841653269520384,0.842695900698204,0.854292933223324,0.853339875170746,0.834872583939542,0.82618757371605,0.826929239193056,0.826506454041912,0.823823738940906,0.822766776063047,0.82366250731547,0.822139764186351,0.821764452791585,0.819054865753006,0.819331646710005,0.817627070136644,0.81721145083552,0.816546818246222,0.816633704177707,0.813802297688798,0.975952943389909,0.810018728878564,0.809523389495974,0.8163909610083,0.814539484509542,0.825564144764363,0.82389181451609,0.845801400950354,0.804655985870308,0.802233928563756
0.920641538552794,0.920847556740851,0.926445877068494,0.930100460578379,0.933889403776128,0.934955323966512,0.93596750028175,0.935815225968838,0.992291081434102,1.01441564336895,1.0373911499936,0.947208927499657,0.94960948725615,0.950782895196825,0.952789333202252,0.954043356955644,0.955987093773402,0.959686463845908,0.960528451223186,0.961916834664441,0.9653026987986,0.966915015052961,0.969234958996737,0.97233418913012,0.973113475319728,0.972513335380604,0.976669528391847,0.977636918144463,0.976974077017671,1.02730521609131,1.067299616512,1.09571221183885,0.986218023542675,0.989460570676446,0.990221942241006,0.992398569184393,0.994136287814094,0.997826700574076,0.999179254765235,1.00038849195601,1.00381914265279,1.00528814190676,1.00500150790598,1.15762515600632,1.07039884664538,1.13513334425798,1.00185749120998,1.15522459624983,1.06925231064228,1.0416817026927,1.16451332933746,1.16563299340298,0.996286042819909,0.995900878381367,0.994861830128556,1.10097015429057,0.992586672747402,0.99080416755508,1.08662053962676,1.08911962982102,0.987194370607816,0.985277505727631,0.984551963413168,1.24409009380271,1.22424068924902,1.11763075558564,1.1483005936686,1.11969989477874,1.22344348843436,1.22578134700318,1.2648262722963,1.24606070255804,1.07634650216147,0.965831180237529,1.21910814917263,0.934856793528745,0.961334609350366,0.971438457877697,1.29520947637848,1.08613684475045,0.908692483645472,1.03962152081213,0.897030062738925,0.904491504071608,0.88863974809748,0.886958460536682,0.885566494170417,0.881283107321331,0.878433786207373,0.878776851277052,0.879108271840448,0.878998992627652,0.878644283051693,0.873982001882832,0.881301917677632,0.866814360400944,0.867465557021455,0.868814528287604,0.869513198664494,0.869740714402609,0.868534164405595,0.868445487011606,0.867710091653366,0.865788748116919,0.864998713152282,0.86420688672514,0.863157089697301,0.861683611787065,0.862054444525568,0.865511967159921,0.86531580201564,0.861053016985359,0.860452877046236,0.861208874223281,0.862116249981985,0.862597257664536,0.862619650945847,0.862897327634098,0.858718741341545,0.858735760235341,0.859369937962057,0.862168202394626,0.862319580976285,0.861432807036387,0.860561260527779,0.857436949919328,0.857650133957405,0.857233618925028,0.857472779169425,0.858262814134062,0.85842852441576,0.857647446763647,0.862785361227545,0.862276585876169,0.859619846981483,0.860689350096876,0.858138307489975,0.855233451038368,0.866789279925876,0.852108244698664,0.850001484792965,0.848633703170516,1.01827624506689,1.04942082071364,0.996339786695054,0.845324871924065,0.830223738739468,0.831410582648928,0.828770862648038,0.829335173337064,0.830879414016241,0.833376712747996,0.875182281761078,1.0420489525062,0.841655956714141,0.841934529133645,0.844297468177536,0.851071883639611,0.859254388630494,0.980342026526781,0.987946784859851,0.824915635337609,0.825671632514654,0.825924228727838,0.824730218968358,0.823909729141138,0.823139400264055,0.822412066487087,0.81857206660795,0.818090163194147,0.818349029526097,0.817488231792519,0.815923389294536,0.814295845608883,0.813117959011947,0.812421080097562,0.809759862546614,0.809725824759022,0.809511744989692,0.808714544175036,0.875914094194308,0.875846914350376,0.807465894809159,0.803485265123391,0.802435468095551
0.956372258211943,0.961782474976578,0.951884644637305,0.962678206229001,0.933289263837005,0.934722433840882,0.93457015952797,1.00008394333018,1.00114090620804,1.00533292846938,1.00089905876989,0.944566520305009,0.944987513993648,0.949161621629939,0.949806548131684,0.95246686995138,0.953917954580305,0.959955183221635,0.960850914474058,0.962588633103759,0.964639857671807,0.968240697306547,0.970927891063816,0.971823622316239,0.971008506876534,0.973453853195648,0.977708576644657,0.978855112647758,0.978299759271256,0.978156442270869,1.05152578915683,1.08048478054766,0.986003048042093,0.987982614109948,0.990024881365472,0.989827820489939,0.995435098130107,0.996053152694279,0.998650773326305,1.00064825401921,1.00161564377182,1.00237701533638,1.12953502393034,1.14712718572793,1.1477452402921,1.13769513563991,1.13791906845302,1.13962991514515,1.12659702542239,1.04207582444377,0.997978974886988,1.16056315451427,0.995757561380979,0.995094720254186,0.993580934437591,0.992559800809829,0.991475965994397,1.09054384251237,0.989308296363534,0.98709584017005,0.986325511292966,0.984901298601613,1.20113978024903,1.10553838367793,1.11978051059146,1.23421913540101,0.974376456385644,1.14990395261044,1.14991290992296,0.964854833172389,1.16895615634947,0.955207807583794,1.21445034666003,1.21275741459295,1.21262305490509,0.936478067095631,0.925388914190635,0.953246156140988,0.953649235204578,0.907644478080137,0.922209068244534,0.907366801391886,0.891483694823923,0.890852204290965,0.891649405105621,0.89032551431454,0.884187963772938,0.879497914935252,0.879074234052856,0.879839188542425,0.880614891807023,0.879248901647078,0.877665248792795,0.877477145229786,0.875753758300124,0.878552918463946,0.872827404298459,0.871663849401561,0.868295899892451,0.86920506711366,0.868963219675506,0.868449069936615,0.866154206467908,0.866171225361704,0.866520560550149,0.864526662782255,0.86177049771855,0.862373324851431,0.863784997305249,0.864385137244373,0.862039217094277,0.861565375261745,0.85863902126008,0.858348804334295,0.858765319366671,0.860627544640458,0.860378531352285,0.859524003737473,0.859512359231192,0.85930096665562,0.859196166099087,0.86084252014104,0.86035076368346,0.859826760900792,0.859539231168765,0.856985501368107,0.856898615436622,0.857161064693582,0.858073814839801,0.858267292790324,0.858074710571053,0.85494950423135,0.853609490277725,0.855672359352055,0.857051785480786,0.856908468480398,0.967927191368199,0.853766243246899,0.879635857548125,0.848532485538992,0.848930190215068,0.848103430269081,1.01834790356708,0.839005487938222,0.83760366852818,0.834860939433261,0.832671772252339,0.829648679275412,0.829058392380065,0.830621443415543,0.83144462043652,0.832331394376419,0.837124452308134,1.00138275364619,0.843250358343454,0.843904242157723,0.843864829982616,0.864363639694314,0.983942866161521,0.829439078162345,0.828150120890109,0.824486580067699,0.826131142647147,0.825436055195267,0.825157482775764,0.825223766888443,0.826382843129078,0.826418672379175,0.822545530443698,0.821166104314967,0.814178504814816,0.812926272523929,0.812487364210241,0.811956195577555,0.811322017850839,0.81215415218434,0.811760030433274,0.810498840829863,0.809720450371507,0.807745362959915,0.80768445323475,0.807849267785196,0.80725181503983,0.807036839539248,0.803770107661662
0.953237198828463,0.918438039671833,0.965141467173164,0.974053993134772,0.930494582329445,0.937024463159609,0.93503593977923,0.934964281279036,0.961737688413957,1.00552103203239,0.955924392585732,0.943267709988996,0.94624153774704,0.9467073179983,0.948364420815283,0.952287723700895,0.952502699201477,0.95850409859271,0.96060010972338,0.962033279727256,0.96477421735967,0.967828660930433,0.970480025437604,0.972155042879635,1.03611025430263,0.974797450074283,0.97686658926738,0.978246015396111,0.980342026526781,0.980028520588433,0.981461690592309,0.986083663854812,0.985949304166948,0.988188632298005,0.989353082926155,0.989433698738873,0.995309695754768,0.995712774818358,0.998507456325917,0.999197169390283,1.00022726033057,1.02979534897305,1.09984153291252,1.12960668243053,1.00005707139261,1.06668156194783,1.05911263286485,1.15916581376049,1.07616735591098,1.17517253124129,0.996214384319715,0.996053152694279,0.994924531316226,0.993616763687688,0.992873306748177,1.11802487733671,0.990427960429063,1.11866980383845,0.98843047973616,1.11026784469072,1.06672634851045,0.983674146785794,0.990410045804014,1.1216078023464,1.11040220437859,1.23208729502024,1.19405454604236,1.11050073481635,0.969270788246834,0.968160081493829,0.971456372502745,1.14001507958369,1.13982697602068,1.23067203964141,1.06510507494356,0.933181776086714,0.935447976155344,0.928228382260816,1.37635377053547,1.37661353259868,1.25451640558091,0.894203134906279,0.893461469429273,0.891118236472934,0.891944996418921,0.891644926449359,0.884348299667122,0.884328593579569,0.879428943628815,0.878642491589188,0.878771476889537,0.878589643445295,0.878225080825559,0.877413548310864,0.875395465799155,0.8738037513636,0.872837257342235,0.871714010351697,0.871492764732348,0.869850889346657,0.869363611545339,0.865969685829909,0.866171225361704,0.865646326847784,0.865476137909824,0.861645991074463,0.861749895899744,0.862255088326111,0.862353618763877,0.891764954437184,0.860348972220955,0.857994990489587,0.858338951290518,0.858612149322507,0.858791295572991,0.860211029608082,0.861163191929407,0.860833562828516,0.858676641972681,0.85627697794744,0.856482100404245,0.856421190679081,0.859856320032122,0.859767642638132,0.857770161945229,0.855314962582338,0.857983345983306,0.857606243126036,0.857503234032007,0.856798293536351,0.857591015694745,0.857365291419134,0.854629728174235,0.854899343281214,0.856405067516537,0.875841539962862,0.853222534376678,0.844875214835349,0.845508496830812,0.846300323257954,0.847085879566329,0.846938979640931,0.847190680122862,0.838282632817516,0.838085571941983,0.836922912776338,0.837439749708986,0.830826565872348,0.829544774450131,0.830727139703329,0.831226062010929,0.834835858958193,0.836735704944582,0.853673982927899,0.844066369514411,0.843942758601577,0.843949028720344,0.863812764974074,0.831709756887237,0.828400029909534,0.828820127866921,0.828730554741678,0.827222143312598,0.826536013173242,0.826168763359749,0.825394851557656,0.82592512445909,0.826670372861106,0.821613969941179,0.821994655723458,0.813244257118539,0.813043613317996,0.813315915618733,0.812241038115825,0.811376657457237,0.811408008051072,0.811568343945256,0.811045236893841,0.808022143916913,0.807870765335254,0.804038827037388,0.804162437950223,0.806809323801133,0.807318099152509,0.804882605877171
0,0,0,0,0,0,0,0,0,0,0,0,0,0,0,0,0,0,0,0,0,0,0,0,0,0,0,0,0,0,0,0,0,0,0,0,0,0,0,0,0,0,0,0,0,0,0,0,0,0,0,0,0,0,0,0,0,0,0,0,0,0,0,0,0,0,0,0,0,0,0,0,0,0,0,0,0,0,0,0,0,0,0,0,0,0,0,0,0,0,0,0,0,0,0,0,0,0,0,0,0,0,0,0,0,0,0,0,0,0,0,0,0,0,0,0,0,0,0,0,0,0,0,0,0,0,0,0,0,0,0,0,0,0,0,0,0,0,0,0,0,0,0,0,0,0,0,0,0,0,0,0,0,0,0,0,0,0,0,0,0,0,0,0,0,0,0,0,0,0,0,0,0,0,0,0,0,0,0,0,0,0,0,0,0
0.912427682968076,0.918464911609406,0.958056232966499,0.924367780562873,0.92440360981297,0.933620684400401,0.936173518469807,0.935555463905635,0.937096121659803,0.93776792009912,0.941055253795512,0.941019424545415,0.943912636490741,0.946761061873446,0.950272328382944,0.950729151321679,0.954079186205741,0.957733769715627,0.961379395912988,0.96216763941512,1.02012145144688,1.03228548185479,0.990454832366635,1.04222809875668,0.972092341691966,0.973883804196811,0.976929290455049,0.977780235144851,0.980413685026975,0.980270368026587,0.981309416279397,0.982070787843957,0.987346644920728,0.987597449671406,0.988976875800138,1.07948156154495,0.995121592191759,0.996178555069618,0.998104377262327,1.11046490556626,1.11654692077021,1.11385972701294,1.11937743152787,1.12952606661782,1.0518840816578,1.13247302243829,0.997316133760195,0.997907316386794,0.996393530570199,0.995641116318164,1.08324363280512,1.18329681370076,0.993446574749728,0.993491361312349,0.992550843497305,0.990598149367023,0.989648674239455,0.988654412549265,0.987570577733833,1.08539338781094,1.14219170652708,1.05494748254109,0.996492061007966,0.982169318281723,1.12210045453523,1.18733656164919,1.14487890028435,1.14616875328783,0.971357842064979,0.971241397002164,1.20718596620288,1.20966714177209,1.13538414900866,1.22847749807298,1.22931948545025,0.994503537627587,1.25327133914004,1.25297574782674,0.996205427007191,0.980986953028525,0.897872050116203,0.893596724848388,0.893358460335244,0.890993729828848,0.888867263835596,0.885905976315085,0.882158236754948,0.882146592248666,0.880057746968016,0.878689965345567,0.878380042332228,0.877787963974376,0.877094667985001,0.876101302026064,0.875956193563172,0.875928425894347,0.873048649917807,0.872409097803577,0.870012120972093,0.869340322532776,0.869125347032195,0.865398209290863,0.865593478703891,0.865407166603387,0.865407166603387,0.862620546677099,0.862412737026537,0.862388552282722,0.861335172329873,0.861725711155929,0.856679161279778,0.856770525867525,0.857440532844338,0.857493380988231,0.855565767333016,0.857324087781523,0.859463094012309,0.859339483099474,0.859704941450463,0.856620043017118,0.856190092015955,0.857368874344144,0.858930133917117,0.859133464911417,0.858742926085361,0.859256180092999,0.857626844944842,0.856377299847712,0.855228076650853,0.85462793671173,0.857316026200251,0.857625949213589,0.856826956936428,0.855952723234063,0.856033339046781,0.856594066810798,0.851868188723015,0.846301218989206,0.846802828490563,0.846608454808787,0.847054528972494,0.845656292487462,0.844962996498086,0.844549168659467,0.837763108691111,0.838175145067226,0.837425418008948,0.834680897451524,0.835164592327832,0.831810078787508,0.831266369917288,0.834333353725584,0.919280027049111,0.931345527019247,0.842898335961252,0.842911771930038,0.844577832059545,0.847520309223754,0.82862754564765,0.830114459526672,0.831459847867811,0.827580435813567,0.826446440048,0.827033144018337,0.826887139824192,0.826175929209768,0.826264606603758,0.827317090825355,0.828498560347301,1.32773347815396,0.856354010835149,0.812628889748124,0.812948665805239,0.812876111573793,0.812537525160377,0.812820576236143,0.811539680545178,0.810313424460611,0.808390289461659,0.808378644955378,0.805167448415441,0.806100800380466,0.808592724724707,0.808630345437308,0.806072136980388
0.912696402343802,0.917972259420573,0.918052875233291,0.921080446866481,0.92800444944771,0.927565541134022,0.936451195158058,0.93753502997349,0.937454414160772,0.938153084537661,0.939765400792023,0.941861411922693,0.944306758241807,0.944665050742776,0.944924812805979,0.949000390004503,1.01153138873615,0.956318514336798,0.957285904089415,1.02832634971908,1.02726938684122,1.01463061886953,1.03016259878654,1.04229975725687,0.972692481631089,0.973776316446521,0.974761620824186,0.978523692084362,0.980019563275908,0.980261410714063,1.05458919004012,0.986235938167723,0.98639716979316,0.988099059172763,0.991108716180904,0.993625721000213,0.99476329969079,0.996241256257287,0.997092200947089,1.08491865024716,1.03116581778926,1.12531612973143,1.11793530421146,1.09977883172485,0.996984713196798,0.996751823071168,0.996420402507772,0.995739646755931,0.995282823817195,0.994772257003314,0.993079324936235,1.14215587727698,1.18134411957048,0.992326910684199,0.992362739934296,0.991225161243719,0.989272467113437,1.10413208561163,1.0890031847582,0.985832859104133,0.984041396599287,0.983297939659776,1.04226392800678,1.04196833669348,1.21197812840335,1.11619758558176,1.11764867021069,0.974018163884675,0.972835798631477,0.970050074436441,1.22932844276278,1.22862081507336,1.13671878857477,1.18711262883609,1.2281550348221,1.09796049728243,1.03110311660159,0.98040472771445,0.957026142026212,0.905315576823837,0.895802910923106,0.893602099235903,0.893325318278904,0.894095647155988,0.887598012650912,0.885340769894807,0.880244954799773,0.881614527884727,0.880225248712219,0.87958211367298,0.877824688955726,0.878005626668715,0.877344577004427,0.87661366030245,0.875731365018814,0.875703597349988,0.872282799696985,0.87167459817659,0.868980238569302,0.868619258874576,0.871847474308308,0.860760112865817,0.861203499835766,0.862539930864381,0.861222310192067,0.862655480195944,0.860828188441001,0.861006438960233,0.860365991114751,0.86003277908885,0.85558189049556,0.856282352334955,0.854936963993816,0.853856712103394,0.855254948588426,0.855920476908976,0.857917061870627,0.946787933811018,0.855915102521462,0.854936068262563,0.855706397139647,0.856757089898739,0.85849480852844,0.858558405447362,0.859455032431037,0.859103010048835,0.857130609830999,0.857671631507463,0.853762660321889,0.853787740796957,0.856303849885013,0.856927278836699,0.959587933408142,0.854596586117895,0.854185445473033,0.854296516148333,0.848840617089825,0.848712527520729,0.84802908457513,0.846251058039071,0.846586957258729,0.844308216952565,0.844764144160049,0.846640701133875,0.837562464890568,0.837817748297509,0.834359329931904,0.834505334126049,0.833567503504762,0.833301471322793,0.83416943490639,0.835789812742024,0.978550564021935,0.964953363610155,0.908531252020036,0.90976736114838,0.906560643264705,0.837842828772577,0.83111946999189,0.829812598094605,0.831294137586113,0.830212094233186,0.826859372155367,0.826208175534855,0.825754039789877,0.828245068402865,0.828168035515157,0.828679498060291,0.828562157266223,0.829262619105618,0.820931422726832,0.821038910477123,0.812603809273056,0.813083921224355,0.81322634249349,0.813116167549442,0.812809827461114,0.813392948506441,0.809013718413345,0.808045432929476,0.806526272725367,0.806777077476045,0.806651675100706,0.80658270379427,0.80550693056011
0.912212707467494,0.915311937600877,0.917255674418635,0.921635800242983,0.926732511069269,0.931327612394199,0.931918795020798,0.936083945344565,0.937902279786983,0.938556163601252,0.938654694039018,0.939837059292217,0.943294581926569,0.944360502116952,0.946877506936261,0.948498780503146,1.02228016376522,0.955333209959133,0.957733769715627,0.960644896286001,0.96233782835308,1.02119632894979,0.983271067722204,1.04939394877606,0.972450634192935,0.974510816073507,0.975379675388358,0.978093741083199,0.980628660527556,0.98053013008979,1.05616567704438,1.08281368180396,0.986791291544226,0.987525791171212,0.988609625986644,0.994852872816032,0.995372396942437,0.995712774818358,1.00787680522626,1.008333628165,1.12867512192801,0.996402487882724,0.996008366131657,0.995587372443019,0.996044195381754,0.995847134506221,0.99556945781797,0.995390311567485,0.994575196127781,0.994100458563997,0.994324391377102,0.992631459310023,0.992559800809829,0.992067148620997,0.990813124867604,0.99016819836586,1.0826076636159,1.08898527013316,1.12119576597028,1.10232270848173,0.983889122286375,0.982572397345314,1.09127834213936,1.15677421131652,1.12399940479037,1.11636777451972,1.11571389070546,0.973059731444582,0.972952243694292,0.970336708437217,1.20822501445569,1.20781297807958,1.12729569579928,1.12883635355345,1.22991962538938,1.23165734401908,1.05646126835768,0.945444336932384,1.26003411009583,0.908934331083626,0.895489404984758,0.895332652015584,0.8901813015829,0.887269279281273,0.887768201588873,0.884852596362236,0.882345444586704,0.880245850531025,0.880399916306442,0.878576207476509,0.87614788005119,0.877919636468483,0.877930385243512,0.877888285874648,0.877893660262162,0.873323639412301,0.872299818590781,0.871372736744524,0.868376515705169,0.868361288273878,0.86572604692925,0.862037425631772,0.862065193300597,0.862117145713238,0.861560000874231,0.861974724444103,0.861298447348523,0.861319049167329,0.860646354996759,0.859950371813627,0.856272499291178,0.855421554601376,0.854357425873498,0.854497159948876,0.854555382480284,0.854196194248062,0.989559101114212,0.864454108550809,0.962499059978516,0.854406691092381,0.854124535747868,0.855394682663804,0.85616590727214,0.856490161985517,0.856931757492961,0.858072023377296,0.857985137445811,0.858033506933442,0.853383766002114,0.85331569042693,0.853397201970901,0.853994654716267,0.875830791187832,0.856139035334567,0.850942898339262,0.848903318277495,0.848939147527592,0.850000589061713,0.849424633866405,0.848012961412587,0.847505081792463,0.844810722185175,1.16041088020136,0.843360533287502,0.837712947740975,0.83765920386583,0.832588469245864,0.834313647638031,0.833576460817286,0.832833003877775,1.02595266190016,0.89070620009682,0.980350983839305,0.964944406297631,0.963484364356181,0.836806467713524,0.836434739243768,0.837055481001697,0.834757930339232,0.831135593154434,0.830135061345478,0.832161205438458,0.829481177531209,0.828427797578359,0.82870905719162,0.828842521148231,0.829006439967425,0.828785194348076,0.829377272705928,0.829759749950712,0.821788637535401,0.822069897148662,0.819558266716868,0.93370130021312,0.816696405365377,0.816197483057777,0.813547014281858,0.823660715852965,0.822751548631756,0.804144523325174,0.804170499531495,0.804959638764879,0.806241430187096,0.806755579925987,0.806299652718504
0.91127218965245,0.959014665406591,0.919718935362798,0.924081146562098,0.925612847003741,0.928147766448098,0.929697381514789,0.931766520707886,0.936800530346503,0.937194652097569,0.938565120913776,0.939792272729595,0.94386784992812,0.944700879992873,0.945811586745877,0.946160921934322,0.951347205885851,0.952019004325168,0.95647078864971,1.00253824696182,0.96280360860434,0.964129290857926,1.04217435488153,1.03601172386486,0.972083384379441,0.972638737755944,0.974842236636904,0.980136008338723,0.981175056591534,0.98273362897075,1.07705412985088,1.06884923157869,1.02966994659771,0.988206546923054,0.989657631551979,1.0997967463499,0.994691641190596,0.995390311567485,0.995417183505058,1.12283495416222,0.995470927380204,0.995435098130107,0.995381354254962,0.995614244380591,0.995408226192534,0.995408226192534,0.995426140817582,0.995130549504283,0.994154202439142,0.99330325774934,0.992586672747402,0.992380654559345,0.991198289306146,0.99033838730382,0.990651893242168,0.989191851300719,1.080610182923,1.12863929267792,1.08174776161358,1.09565846796371,1.11677085358331,0.983378555472494,0.980745105590371,0.979992691338336,0.979177575898631,0.978389332396499,0.977072607455437,0.974036078509724,0.973821103009142,0.97227148794245,1.17258386792179,1.12607750129599,1.12687470211064,1.20982837339753,1.2115929639648,1.21058974496209,0.973185133819922,0.930548326204591,0.950738108634203,0.90930158089712,0.89412968494358,0.893472218204302,0.890339846014579,0.890147263795308,0.890392694158472,0.884024940684997,0.881828607654056,0.881780238166425,0.88704265927441,0.875875577750454,0.887710874788718,0.876054724000938,0.876636053583761,0.876456011602024,0.876363751283024,0.873441875937621,0.871430959275931,0.871978251071162,0.868286046848674,0.867372400971203,0.862556054026925,0.861865445231307,0.862518433314323,0.862298083426227,0.862617859483342,0.862595466202032,0.862438713232858,0.862169993857131,0.861576124036774,0.856718573454885,0.856059315253102,0.855239721157135,0.85427322713577,0.854219483260625,0.85381819565954,0.853989280328752,1.04688590126928,0.847892933424762,0.848151799756712,0.966144686175878,0.852283808024139,0.854310847848372,0.855240616888387,0.855622198401919,0.856255480397382,0.855252261394669,0.881417467009194,0.858372093346857,0.853333605051979,0.8531750606203,0.853726831071792,0.853199245364115,0.847768426780675,0.845545221812162,0.848002212637557,0.847460295229842,0.84696047719099,0.84719336731662,0.847273087398085,0.846333465314294,0.846870008334495,0.845387573111735,0.842556166622826,0.842506005672691,0.843684788000879,0.836519833712748,0.83493080647095,0.834462339025933,0.831603164868199,0.83161480937448,0.831752751987353,0.883947012066037,0.989317253676058,0.835327615415773,0.835461975103637,0.836227825324458,0.836534165412787,0.836612094031748,0.835851618198441,0.832615341183437,0.834547433494913,0.832152248125934,0.832655649089796,0.854932485337554,0.829271576418142,0.830325852102244,0.831292346123608,0.832681625296116,0.832566075964553,0.821205516490074,0.82365892439046,0.821725936347731,0.820187965787321,0.820316055356418,0.819197287022141,0.81884168171493,0.816722381571697,0.895248453277856,0.90354202894404,0.803205796972635,0.823323920902054,0.821308525584102,0.807350345477596,0.807770443434982,0.805619792697915
0.909050776146441,0.90976736114838,0.942757143175115,0.924260292812582,0.924690243813745,0.926965401194899,0.928264211510912,0.974573517261177,0.934122293901758,0.934435799840106,0.934919494716415,0.986540486793547,0.941897241172789,0.944638178805203,0.944718794617921,0.946420683997525,0.950388773445758,1.00963243848101,0.95676637996301,0.958378696217371,0.962472188040944,0.964541327234041,1.03260794510566,0.970488982750129,0.971151823876922,0.971393671315076,1.04700234633209,0.979374636774164,0.980951123778428,0.981649794155318,0.983091921471719,0.983826421098706,0.986316553980441,0.986674846481411,0.989720332739649,0.991664069557406,0.993410745499631,0.994216903626811,0.994494580315063,0.994852872816032,0.995229079942049,0.995327610379816,0.995390311567485,0.995435098130107,0.995435098130107,0.995390311567485,0.995085762941662,0.994539366877684,0.993733208750503,0.992819562873032,0.992407526496917,0.99150283793197,0.990938527242944,0.990839996805177,1.11082319806723,0.989397869488776,0.989424741426349,1.11430759263915,1.08533068662327,1.08263453555348,1.10768813868375,1.10795685805947,0.980780934840468,0.980252453401538,0.978792411460089,1.11161144156936,0.974824322011856,0.973910676134384,0.973632999446133,1.23368169664955,1.2342907939012,1.12029107740534,1.19367833891635,1.23457742790198,1.21256931102994,0.931336569706723,0.927673028884313,0.966538807926944,0.965660991299569,1.38669050918843,0.896609069050287,0.894384072619268,0.891528481386544,0.888226815990113,0.887486046244359,0.885118628544206,0.881347599971505,0.88841044089686,0.887895395426717,0.888448957340714,0.869166550669806,0.869455871864339,0.876888649796944,0.873358572931145,0.876571560933586,0.878984660927614,0.866228552161859,0.873474122262708,0.865933856579812,0.865537047634988,0.863015564159418,0.862621442408352,0.861866340962559,0.862171785319635,0.862126998757014,0.862282855994936,0.862270315757402,0.86247275102045,0.86081654393472,0.855789700146122,0.855138503525611,0.853774304828171,0.854538363586487,0.853240449001727,0.853851337715879,0.851329854240309,0.847277566054347,0.847109168578892,0.848005795562567,0.850212877368537,0.852841848594398,0.854271435673265,0.856474038822973,0.85625458466613,0.856360280953916,0.855225389457096,0.855997509796684,0.854030483966364,0.853700854865472,0.849498979560356,0.850187796893469,0.885950762877707,0.882415311624393,0.846954207072223,0.847233675222979,0.847718265830539,0.84617671234512,0.846220603176488,0.847880393187228,0.846797454103049,0.847149476485251,0.841427545244773,0.841391715994676,0.860378531352285,0.839201653082502,0.96930661749693,0.832940491628066,0.832400365682855,0.831952500056644,0.831635411193286,0.831814557443771,1.03329765817002,0.834414865269554,0.836410554499953,0.837051898076687,0.83742989666521,0.83705637673295,0.83754455026552,0.837353759508754,0.835115327108949,0.833649910779985,0.833712611967655,0.835461079372384,0.835456600716122,0.834474879263467,0.834355747006894,0.834248259256604,0.832927951390532,0.833193983572502,0.832326915720156,0.82401005104141,0.82578091172745,0.823931226691197,0.822525824356145,0.822128119680069,0.819784886723731,0.816717007184182,0.816284368989262,0.814995411717025,0.822902031482163,0.807614586197061,0.808775453900201,0.808505838793222,0.808995803788297,0.807894054347817
0.908889544521005,0.912615786531084,0.942076387423274,0.921564141742789,0.92393782956171,0.924269250125106,0.92916890007586,0.929518235264305,0.931103679581093,0.929903399702846,0.932035240083613,0.939192132790472,0.940625302794349,0.942542167674534,0.943043777175891,0.946868549623736,0.947692622375965,0.951096401135173,1.03377239573381,0.958683244843195,0.961737688413957,0.963493321668706,0.979643356149891,0.969646995372851,0.970587513187895,0.97133992743993,0.976597869891653,0.979177575898631,0.980789892152992,0.984292201349966,0.983271067722204,0.984229500162296,1.01349304017895,0.989514314551591,0.98993530824023,1.08672802737705,0.993088282248759,0.99336595893701,0.993679464875358,0.994109415876521,0.994485623002539,0.994718513128169,0.994888702066129,0.995058891004089,0.995040976379041,0.994852872816032,0.99453040956516,0.994046714688851,0.993357001624485,0.992640416622547,0.992308996059151,0.991350563619058,0.990562320116926,0.99237169724682,0.98929933905101,0.989129150113049,1.1073388034953,1.12303201503775,0.986253852792772,0.984193670912199,0.983548744410455,0.983315854284825,0.982151403656675,1.1419767310265,0.978272887333684,1.11096651506761,0.976517254078935,0.974869108574477,0.976015644577578,0.973785273759045,1.25686322146226,1.20746364289113,1.21680611985391,1.30269778964874,1.08835825825646,1.20105916443631,0.928792692949842,0.991171417368574,0.952529571139049,0.940849235607454,1.10878988812423,0.891875129381232,0.890653351952927,0.88901685095475,0.889162855148895,0.883977466928619,0.883502729364835,1.01833894625456,0.89102776761644,0.868591491205751,0.868623737530838,0.869223877469961,0.872352666734674,0.872417159384849,0.865743065823046,0.864885851014477,0.865551379335027,0.865499426922387,0.864181806250073,0.96477421735967,0.861128258410563,0.964559241859089,0.868689125912265,0.858360448840576,0.860658895234293,0.861154234616883,0.860847894528554,0.858022758158413,0.857627740676094,0.856534948548138,0.85669080578606,0.854239189348178,0.854963835931388,0.853717873759268,0.853596054308939,0.852051813629761,0.851902226510607,0.849098587690523,0.85067238750103,0.850984101976873,0.852681512700215,0.854347572829721,0.856941610536738,0.857118069593465,0.857171813468611,0.855495900295328,0.853897915741005,0.85306040701999,0.853273591058066,0.851156978108591,0.850098223768227,0.849289378447289,0.847325039810726,0.846977496084786,0.847387740998395,0.847174556960319,0.847033031422436,0.846824326040621,0.847401176967182,0.844378979721507,0.844065473783159,0.838599721680874,0.839061023275872,0.870056011803462,1.18840248183957,0.868710623462323,0.83275686672132,0.832386033982817,0.83167751056215,0.83132996683621,0.847727223143064,1.03624461399049,0.872220994240568,1.03793754605757,1.03784797293233,0.837664578253345,0.837975396997935,0.838254865148691,0.840140379435042,0.84029892386672,0.840105445916197,0.924761902313939,0.837136992545668,0.835558714078898,0.834509812782311,0.834566243851214,0.834720309626631,0.835129658808988,0.833309532904064,0.825068805381774,0.825183458982084,0.827714795501431,0.827726440007712,0.825889295208993,0.819723081267314,0.818448455695116,0.817361933685927,0.81518172381753,0.81544059014948,0.814720422222532,0.809391717001868,0.808936685525637,0.810341192129436,0.809918406978292,0.808832780700356
0.943643917115014,0.916261412728446,0.915643358164274,0.920632581240269,0.921734330680749,0.922280726744727,0.927341608320917,0.926866870757133,0.927986534822662,0.929177857388384,0.929724253452362,0.936934890034366,0.996295000132433,0.940347626106098,0.94200472892308,0.944826282368212,0.94897351806693,0.950756023259252,0.952762461264679,0.955333209959133,1.03048506203742,1.02931165409674,1.02834426434412,0.968930410370913,0.970668129000613,0.972441676880411,0.975290102263115,0.975316974200688,0.98046742890212,0.983271067722204,0.983477085910261,1.04118009319134,0.987015224357331,0.987382474170825,0.988412565111111,1.0620148021227,0.991278905118864,0.992532928872257,0.992810605560507,0.993294300436816,0.993697379500406,0.994019842751279,0.994261690189433,0.99440500718982,0.994413964502345,0.994315434064578,0.994019842751279,0.993563019812543,0.992936007935847,0.992443355747014,0.992192550996336,0.99103705768071,0.990427960429063,0.989451613363922,0.988788772237129,0.989424741426349,0.987928870234803,0.986513614855975,0.985626840916076,0.984390731787732,1.08856427644452,1.12080164421922,0.980342026526781,0.979956862088239,0.978774496835041,0.977421942643882,1.04684111470666,0.974582474573701,0.972853713256525,1.14024796970932,1.20332536450494,1.17811948706176,0.954177716643507,1.19849737305438,1.10232270848173,1.10352298835998,1.12618498904628,0.958665330218146,0.959193811657076,0.957375477214657,0.950702279384106,0.893514317573166,0.890704408634315,0.889114485661264,0.888096039227259,0.887727893682514,0.881888621647969,0.879978026886551,1.00007498601766,0.867109951714243,0.893329796935166,0.870812008980507,0.871782085926881,0.871938838896055,0.865479720834833,0.865524507397455,0.865611393328939,0.864813296783031,0.864730889507808,0.861722128230919,0.860646354996759,0.860537075783964,0.856292205378732,0.85599571833418,0.857013269036932,0.859901106594744,0.859620742712735,0.859543709825027,0.857108216549689,0.856612877167099,0.856691701517312,0.854928902412544,0.854246355198198,0.854310847848372,0.853194766707853,0.852256040355314,0.851325375584046,0.849671855692074,0.850506677219332,0.850780770982573,0.85096081296431,0.85424725092945,0.857508608419522,0.857521148657056,0.85729721584395,0.854389672198585,0.853188496589086,0.853179539276562,0.8531750606203,0.851204451864969,0.849820547079976,0.849945949455315,0.848164339994246,0.847088566760086,0.847292793485638,0.84760002930522,0.847273087398085,0.847187992929105,0.84568137296253,0.843656124600802,0.840339231773079,0.839373633482968,0.838697356387388,0.837767587347373,0.871824185295745,0.832211366388594,0.832236446863662,0.831654221549587,0.832577720470835,0.831909504956527,0.832781947196387,0.832388721176574,0.908038599831203,0.865986704723705,0.866204367418043,0.838326523648885,0.83975163207149,0.841334389194521,0.841357678207084,0.841397090382191,0.841658643907898,0.842434347172497,0.843346201587463,0.833379399941753,1.04045455087688,0.834736432789174,0.835237146559278,0.833967895374595,0.833741275367732,0.824699764105775,0.826261919410001,0.828181471483943,0.828164452590147,0.822539260324931,0.822420128068359,0.819340604022529,0.81587681126941,0.815952948425866,0.81508588057352,0.815317874967898,0.8137476580824,0.809158826876238,0.809822563734283,0.810109197735059,0.809876307609429
0.95560192933486,0.918169320296106,0.916100181103009,0.915670230101846,0.922791293558609,0.922791293558609,0.926096541880049,0.927001230444996,0.925998011442283,0.92550535925345,0.990875826055274,0.933611727087877,0.93637057934534,0.93863677941397,0.940929851420172,0.944414245992098,0.948758542566349,0.949224322817609,0.952475827263904,0.955548185459714,0.960340347660177,0.962087023602402,1.01952131150776,0.965849094862578,0.968778136058001,0.9734359385706,0.975021382887388,0.977457771893979,0.980619703215032,0.981703538030463,0.982366379157256,0.983020262971525,0.983082964159195,0.985949304166948,0.987131669420146,0.989200808613243,0.989711375427124,1.12382025853988,0.992425441121966,0.992568758122353,0.993025581061089,0.993419702812155,0.993697379500406,0.993912355000988,0.993876525750891,0.993804867250697,0.993571977125067,0.993124111498855,0.992577715434878,0.992380654559345,0.991923831620609,0.99103705768071,0.989962180177803,0.989397869488776,0.988520052861402,0.987848254422085,0.9879646994849,0.986361340543063,0.986003048042093,0.984274286724917,0.983109836096767,1.09256819514285,0.980458471589596,0.979965819400763,0.979177575898631,0.9772069671433,0.976830760017283,0.974654133073895,0.973579255570988,0.973274706945164,1.22803858975929,1.22820877869725,1.23156777089383,1.09901746016029,1.2047137479462,1.01893012888116,1.18898470715365,1.02796805721811,0.948597310940913,0.937391712973102,0.896438880112327,0.897065891989023,0.890891616466071,0.890288789333191,0.889358124561923,0.8858190903836,0.885524394801553,0.881765010735134,0.879775591623503,0.879495227741495,0.87876878969578,0.873475913725213,0.872608845872867,0.872306088709548,0.86382978386787,0.865391939172096,0.863986536837044,0.865048874102418,0.86452845424476,0.859742562163064,0.860345389295945,0.868815424018856,0.868794822200051,0.909167221209256,0.858483164022158,0.859360980649532,0.859728230463026,0.859749728013084,0.858359553109324,0.856057523790597,0.85576282820855,0.855443947882687,0.853763556053142,0.852473703049653,0.853154458801494,0.851563640097191,0.851674710772491,0.85091244347668,0.850152863374625,0.850342758400139,0.848916754246281,0.849264297972221,0.85050219856307,0.856541218666905,0.856270707828673,0.856141722528324,0.854088706497771,0.853830735897073,0.853732205459307,0.850874822764078,0.848136572325421,0.848726859220768,0.847883080380985,0.846906733315844,0.846967643041009,0.84681268153434,0.845760197312743,0.885923890940134,0.844012625639266,0.842635886704292,0.839065501932134,0.839009070863232,0.838147377398401,0.836445488018797,0.835052625921279,0.831681989218412,0.831442828974015,0.831527027711743,0.832741639290028,0.833399106029307,0.83318592199123,0.833408063341831,0.915535870413983,0.915374638788547,0.839804480215383,0.84131557883822,0.84062407431135,0.841261834963075,0.842345669778507,0.842363584403555,0.843161680949464,0.842045599808945,0.839980043540858,0.841105977725153,0.840885627837057,0.84103073629995,0.835347321503327,0.835267601421861,0.836528791025272,0.828400029909534,0.827297384737802,0.826870120930396,0.824834123793639,0.821089071427259,0.821515439503412,0.820777356951416,0.816984830828657,0.813922325676623,0.814827909972823,0.815909953325749,0.812833116473677,0.81279370429857,0.811745698733235,0.811103459425248,0.809871828953166
0.914523694098745,0.91487302928719,0.915240279100683,0.917596052294556,0.921877647681137,0.924278207437631,0.92474398768889,0.924081146562098,0.923248116497344,0.92364223824841,0.966449234801701,0.933459452774965,0.935277787217384,0.938753224476785,0.940043077480274,0.941100040358133,0.945892202558596,1.00835154279005,0.952995351390309,0.956730550712913,1.01794482450349,1.026633417652,0.965813265612481,0.965858052175102,0.969127471246446,0.970677086313137,1.0431954885093,0.978246015396111,0.979867288962997,0.981237757779204,1.04361648219794,0.983056092221622,0.984659451163459,0.984838597413944,0.987875126359657,0.98917393667567,0.989326210988583,0.990884783367798,0.992156721746239,0.992353782621772,0.992613544684975,0.993088282248759,0.993437617437204,0.99359884906264,0.993643635625261,0.993563019812543,0.993348044311961,0.992944965248371,0.992452313059539,0.992380654559345,0.99190591699556,0.991054972305759,0.990114454490715,0.989684503489552,0.988251333485675,0.9879646994849,0.987006267044807,0.986522572168499,0.986003048042093,0.984050353911812,0.983575616348027,1.09177995164071,1.10260934248251,1.08108492048679,0.978550564021935,0.977296540268543,0.976373937078547,0.975101998700107,0.973516554383318,1.15529625475002,1.16009737426301,1.16265020833242,1.10835097981054,1.10809121774734,1.10500094492648,1.20994481846035,1.19459198479382,0.956363300899419,0.95740234915223,0.956399130149516,0.897746647740864,0.897245038239507,0.890408817321015,0.890521679458821,0.891077032835323,0.885801175758552,0.883545724464951,0.880833450232615,0.880124926811948,0.878212540588025,0.877742281680503,0.873943485438977,0.873764339188493,0.872693940341847,0.875930217356851,0.863761708292686,0.863293240847669,0.864199720875121,0.86316783847233,0.863919356993113,0.863332653022776,0.861369210117465,0.861025249316534,0.859176460011533,0.859539231168765,0.859125403330145,0.859768538369385,0.858523471928517,0.858279833027858,0.855763723939802,0.855705501408395,0.856181134703431,0.855162688269426,0.85363367502154,0.85319745390161,0.852943066225922,0.851572597409715,0.850933941026738,0.852106453236159,0.853297775801882,0.8499217647115,0.849928034830267,0.85023258345609,0.854065417485208,0.856180238972179,0.85628414379746,0.854625249517972,0.85486082683736,0.852038377660975,0.852635830406341,0.853183122201572,0.851089798264659,0.84803625042515,0.871418419038397,0.870367726279305,0.844943290410533,0.844353003515186,0.844935228829261,0.8416962646205,0.840826509574398,0.838760057575058,0.838448343099215,0.83925270976389,0.838457300411739,0.884593730030286,0.831520757592976,0.831543150874286,0.83208417255075,0.832180911526011,0.829849323075955,0.83028733565839,0.9223075986823,0.923373518872683,0.924824603501609,0.841767027389442,0.840612429805068,0.841889742571024,0.843268272968502,0.842589308679166,0.841616544539035,0.843107041343066,0.842606327572962,0.840896376612086,0.840776348624262,0.840636614548884,0.840691254155282,0.840189644653925,0.922567360745503,1.06563355638249,0.878042351650065,0.826981191605697,0.824371030736136,0.816117762976312,0.816533382277436,0.822773046181814,0.817041261897559,0.816530695083678,0.81726698617317,0.817431800723616,0.817173830122918,0.81482701424157,0.815773802175381,0.81613209467635,0.851373745071677,0.820933214189337
0,0,0,0,0,0,0,0,0,0,0,0,0,0,0,0,0,0,0,0,0,0,0,0,0,0,0,0,0,0,0,0,0,0,0,0,0,0,0,0,0,0,0,0,0,0,0,0,0,0,0,0,0,0,0,0,0,0,0,0,0,0,0,0,0,0,0,0,0,0,0,0,0,0,0,0,0,0,0,0,0,0,0,0,0,0,0,0,0,0,0,0,0,0,0,0,0,0,0,0,0,0,0,0,0,0,0,0,0,0,0,0,0,0,0,0,0,0,0,0,0,0,0,0,0,0,0,0,0,0,0,0,0,0,0,0,0,0,0,0,0,0,0,0,0,0,0,0,0,0,0,0,0,0,0,0,0,0,0,0,0,0,0,0,0,0,0,0,0,0,0,0,0,0,0,0,0,0,0,0,0,0,0,0,0
0.911084086089441,0.913914596847097,0.914147486972727,0.915347766850974,0.920784855553181,0.963242516918027,0.923077927559384,0.922334470619873,0.921814946493468,0.922791293558609,0.929016625762948,0.932913056710987,0.93357589783778,0.936397451282913,0.940428241918816,0.942085344735798,0.946205708496943,0.94816735993975,0.951338248573327,0.954159802018459,1.01838373281718,1.00053180895639,0.962669248916477,0.965741607112287,0.96593866798782,0.969011026183631,0.972719353568662,1.03276917673109,1.02069471944843,1.02676777733986,1.05246630697187,1.05027176540344,0.984372817162684,0.984148884349578,0.986818163481798,0.988958961175089,0.989353082926155,0.990150283740812,0.991726770745076,0.992353782621772,0.992362739934296,0.992747904372838,0.993052452998662,0.993267428499243,0.993321172374389,0.993267428499243,0.993106196873807,0.992676245872644,0.992317953371675,0.992353782621772,0.991771557307697,0.990992271118089,0.990051753303045,0.989460570676446,0.988394650486063,0.987292901045583,0.986880864669468,0.986764419606653,1.14425188840765,1.09608841896487,0.983808506473657,1.13426448494313,1.14226336502727,0.97959856958727,0.979150703961058,0.976956162392622,0.977126351330582,0.974027121197199,0.973830060321666,1.2235688908097,1.10065664835223,1.17686546330837,1.11359100763721,1.10626392599239,1.10728505962016,0.956685764150291,0.956945526213494,1.06367190493968,0.983423342035116,0.916807808792423,0.898006409804066,0.897361483302322,0.890019174226212,0.894034737430823,0.893618222398447,0.893817970467737,0.885060406012798,0.881747096110086,0.880113282305666,0.880025500642929,0.877617775036416,0.875665976637387,0.874377915096402,1.0481130530851,0.877654500017766,0.863169629934835,0.863636305917347,0.863802016199045,0.863983849643287,0.864229280006451,0.863664073586172,0.862094752431927,0.862474542482954,0.862625921064614,0.861993534800403,0.860984045678923,0.862251505401101,0.85860229627873,0.857596390082259,0.855606075239376,0.855543374051706,0.854265165554498,0.854374444767294,0.853895228547248,0.854264269823246,0.85192551552317,0.851044115970786,0.851445403571871,0.852589252381215,0.852166467230072,0.851403304203007,0.850539819275671,0.849953115305335,0.850304241956284,0.851113983008475,0.855272863213474,0.855384829620027,0.853447362921036,0.852437873799556,0.852711071831545,0.85250236644973,0.851911183823131,0.872099174790239,0.980673447090177,0.846092513607392,0.846331673851789,0.844725627716195,0.841313787375716,0.840843528468194,0.840804116293087,0.838072135973197,0.837889406797703,0.838678546031087,0.838399973611584,0.882761959619081,0.925577017753644,0.833455537098209,0.832532038176961,0.831518966130471,0.831315635136171,0.830812234172309,0.830561429421631,0.930055674015758,0.841499203744967,0.84181808407083,0.842260575309527,0.843050610274164,0.843684788000879,0.843789588557412,0.844604703997117,0.841111352112668,0.841802856639539,0.841567279320151,0.840692149886534,0.840839945543184,0.84082382238064,0.840858755899485,0.881689769309931,0.86947468222064,0.83208058962574,0.858365823228091,0.824456125205116,0.816146426376389,0.813921429945371,0.813672416657197,0.816306762270573,0.817837566980964,0.817064550910123,0.818675971433231,0.819855649492672,0.827453241975723,0.819807280005041,0.820018672580613,0.826315663285146,0.870253968410247
0.910537690025463,0.912974079032053,0.912651615781181,0.913448816595838,0.956228941211556,0.960653853598525,0.920596751990172,0.918509698172027,0.919315856299208,0.922289684057252,0.92881060757489,0.930378137266631,0.996554762195635,0.935170299467093,0.939693742291829,0.940150565230565,0.944960642056075,1.00834258547752,0.981192971216582,0.99383173918827,1.01506056987069,0.962955882917252,1.02869359953257,1.0588707854267,0.965356442673745,1.03439045029798,1.00712439097423,1.01903761663145,1.01834790356708,0.987248114482961,0.986289682042869,0.983781634536085,0.983996610036666,0.985761200603939,0.986271767417821,0.98929933905101,0.989783033927318,0.990365259241393,0.991386392869155,0.992219422933909,0.992398569184393,0.992362739934296,0.992685203185168,0.992918093310798,0.992944965248371,0.992855392123129,0.992703117810217,0.992353782621772,0.992353782621772,0.992326910684199,0.991681984182455,0.990857911430226,0.98993530824023,0.989388912176252,0.988439437048684,0.987588492358882,1.07387428390478,0.986361340543063,1.07032718814519,0.983593530973076,0.983297939659776,1.15465132824828,1.10008338035068,1.09619590671516,1.09616903477759,1.0573928288602,0.977189052518252,0.974707876949041,0.973597170196036,1.19664320936187,1.17849569418778,1.15955993551156,1.191331523035,1.19694775798769,1.1959534962975,1.17330941023625,1.178209060187,1.11273110563489,0.947182055562084,0.971384714002552,1.00638989134724,0.899833701559009,0.892405402282666,0.892685766164674,0.89352327488569,0.892782505139936,0.887557704744553,0.880919440432847,0.880849573395158,0.880414248006481,0.875414276155456,0.875662393712377,0.875179594567321,0.871735507901755,0.872401036222305,0.922388214495018,0.865391043440843,0.86551913300994,0.865693800604162,0.863980266718277,0.861620910599395,0.86060963001541,0.862290917576208,0.862395718132741,0.862588300352012,0.861106760860505,0.86098314994767,0.859828552363297,0.85973718777555,0.855535312470434,0.854663765961827,0.854013465072568,0.853579035415143,0.856179343240926,0.853763556053142,0.850097328036975,0.851914766748141,0.851828776547908,0.853577243952638,0.853279861176833,0.852943961957175,0.851332541434066,0.851124731783504,0.849734556879743,0.850111659737013,0.850660742994749,0.852623290168807,0.852065249598548,0.851735620497656,0.851172205539882,0.851428384678075,0.851290442065202,0.8738037513636,0.890337158820822,0.846405123814487,0.845444004180638,0.845255004886376,0.840566747511195,0.839712219896383,0.840740519374165,0.839317202414065,0.83829517305505,0.838814697181456,0.83887918983163,0.838989364775678,0.837890302528955,0.837598294140665,0.833597958367345,0.83057576112167,0.828094585552458,0.830416320958738,0.831532402099257,0.884156613179104,0.840866817480757,0.840820239455631,0.841019091793668,0.843756446501073,0.844538419884438,0.843964256151635,0.842287447247099,0.841730302408092,0.841127475275212,0.840240701335313,0.839366467632948,0.838199329811041,0.836981135307746,0.837179987645784,0.836780491507203,0.858027236814675,0.832679833833611,0.830192388145633,0.82630222731636,0.822911884525939,0.812592164766775,0.815759470475342,0.81589562162571,0.81796923947507,0.817182787435442,0.816658784652775,0.817069029566385,0.819865502536449,0.822470289018495,0.82266466270027,0.827793619851644,0.823065950301356
0.910537690025463,0.911890244216622,0.912150006279824,0.915025303600102,0.956354343586895,0.918805289485327,0.919074008861053,0.918321594609018,0.918921734548142,0.920068270551243,0.920229502176679,0.92847022969897,0.933154904149141,0.934283525527195,0.934991153216609,0.996662249945926,0.997396749572913,1.02683047852753,1.01016091991994,1.01213152867527,0.962615505041331,0.962812565916864,1.00366686833987,0.962955882917252,1.03992606943795,1.04511235338948,1.04501382295171,1.03288562179391,1.04213852563144,1.04321340313434,1.02330129739298,0.980924251840856,0.982984433721428,0.984749024288701,0.986809206169274,0.989362040238679,0.989442656051397,0.990141326428287,0.991090801555855,0.99196861818323,0.992389611871869,0.992344825309248,0.992479184997111,0.992738947060314,0.99290017868575,0.992765818997887,0.992523971559732,0.992282124121578,0.992353782621772,0.992344825309248,0.991753642682649,0.990893740680322,0.989989052115375,0.989272467113437,0.989227680550816,0.988152803047908,1.12379338660231,0.986325511292966,0.985089402164622,0.985877645666754,1.07436693609361,1.10210773298115,0.980691361715226,1.10812704699743,1.07614944128594,1.0762479717237,1.06169233887183,0.974761620824186,0.974824322011856,0.970820403313525,1.16444167083726,1.1657494384658,1.18734551896172,0.958889263031252,1.17373040392489,1.16242627551931,1.16735279740764,0.995856091818745,0.923230201872296,0.964908577047534,0.962454273415895,0.896116416861454,0.893517900498175,0.893302029266341,0.893436388954205,0.886132596321949,0.885231490682011,0.878934499977478,0.882016711217065,0.880286158437384,0.878285990550724,0.877003303397254,0.874548999765615,0.872339230765888,0.8718815120959,0.87022530501017,0.865508384234911,0.865563919572561,0.865511967159921,0.863425809073028,0.86339714567295,0.861088846235456,0.864131645299937,0.862471855289197,0.862513954658061,0.860975984097651,0.861081680385437,0.860937467653797,0.858924759529602,0.855731477614715,0.856144409722082,0.8532861312956,0.854026005310101,0.85421410887311,0.853373017227085,0.850538027813167,0.85038754496276,0.851320896927784,0.852796166300525,0.851283276215183,0.851309252421503,0.850690302126079,0.850928566639223,0.851111295814717,0.851439133453104,0.851735620497656,0.85311235943263,0.853928370603588,0.854289350298314,0.853916726097306,0.852960980850971,0.881842043622843,0.849299231491066,0.904688564947141,0.84710468992263,0.846827908965631,0.843676726419607,0.83911566288227,0.840212933666488,0.840881149180795,0.83977760827781,0.837668161178354,0.837880449485179,0.840293549479206,0.839858224090528,0.838340855348924,0.83724895895222,0.836171394255556,0.832494417464359,0.8380363067231,0.830557846496621,0.908925373771102,0.841996334590062,0.840530918261098,0.842248930803245,0.843579987444346,0.843921261051519,0.843960673226625,0.842826677461058,0.84266096717936,0.842414641084943,0.840899959537096,0.839877930178082,0.837948525060363,0.837769378809878,0.836240365561992,0.836772429925931,0.836644340356835,0.835465558028646,0.830478126415156,0.829631660381616,0.824550176986621,0.824700659837028,0.848472471545079,0.820528343663242,0.820159302387244,0.816693718171619,0.816606832240134,0.816061331907409,0.816968707666113,0.818059708331564,0.841323640419492,0.823736853009421,0.825136880956958,0.82397690898507
0.910985555651675,0.911084086089441,0.910878067901384,0.914281846660591,0.913914596847097,0.913018865594675,0.917587094982032,0.917882686295331,0.918052875233291,0.920560922740075,0.926248816192961,0.927664071571789,0.930593112767212,0.934516415652824,0.935188214092142,0.937042377784657,0.999770437391834,1.01989751863378,1.00824405503975,1.00878149379121,0.963027541417446,0.963117114542688,1.01721032487651,0.969046855433728,1.02185917007658,0.977341326831164,1.04891921121228,1.04822949814791,1.04846238827354,1.04586476764152,0.979374636774164,0.979096960085913,0.981828940405803,0.981873726968424,0.986612145293741,0.989370997551204,1.04193250744338,0.989639716926931,0.99080416755508,0.991681984182455,0.992317953371675,0.992389611871869,0.992344825309248,0.992506056934684,0.99266728856012,0.992568758122353,0.992362739934296,0.992246294871481,0.992362739934296,0.992335867996723,0.991825301182843,0.990875826055274,0.990033838677997,0.98929933905101,0.989156022050622,0.988394650486063,1.1038633662359,1.09534496202536,1.13497211263255,1.07837981210447,1.07931137260699,1.08258079167833,1.08617267400055,1.07082879764654,1.10362151879775,0.977063650142913,0.975979815327481,0.975030340199913,0.973615084821085,1.12957085318044,1.18446126432891,1.14809457548054,1.19781661730254,1.2023848466899,1.17195685604509,1.17159856354412,1.17291528848518,1.16198736720562,1.21548043760032,1.0454885605155,0.955422783084375,0.898337830367463,0.891976347012756,0.89265083264583,0.891755101393407,0.887446634069253,0.886684366773441,0.883278796551729,0.881311770721408,0.879832022692406,0.878662197676741,0.876790119359177,0.875893492375502,0.872714542160653,0.87138617271331,0.868878125206526,0.86809973474817,0.867589167934289,0.866483835568799,0.863126634834718,0.860833562828516,0.859953059007384,0.862441400426615,0.86231778951378,0.861706005068376,0.86165942704325,0.860949112160078,0.86069472448439,0.86104226821033,0.85625100174112,0.855094612694242,0.85666124665473,0.853989280328752,0.853338979439493,0.853975844359966,0.849447027147716,0.849893101311422,0.850065081711887,0.850540715006924,0.850700155169855,0.850399189469041,0.851143542139805,0.851290442065202,0.851540351084628,0.851052177552057,0.852348300674313,0.85390329012852,0.853603220158958,0.85439146366109,0.85500145664399,0.854933381068806,0.906318795826551,0.994306476752054,0.897692903865718,0.891104800504148,0.846157901988819,0.844161317027168,0.841595942720229,0.84120092523791,0.841741946914374,0.840542562767379,0.837128930964396,0.839885096028101,0.841049546656251,0.840905333924611,0.840089322753653,0.837557986234306,0.836499231893942,0.836546705650321,0.863621078486056,1.0669323666985,0.90133853006308,0.841198238044153,0.842501527016428,0.843922156782771,0.844075326826936,0.843689266657141,0.841303934331939,0.842067097359003,0.842193395465595,0.841953339489946,0.841370218444618,0.840209350741478,0.837587545365636,0.836405180112438,0.836163332674284,0.83568142926048,0.836423990468739,0.832278546232526,0.830002493120119,0.827821387520469,0.828399134178282,0.827503402925859,0.827655677238771,0.825423514957733,0.820052710368205,0.816734921809231,0.816462619508494,0.816307658001825,0.815858000913109,0.815947574038351,0.863009294040651,0.823301527620743,0.824083501004109,0.825592808164441
0.907160783203829,0.908611867832754,0.908961203021199,0.91190815884167,0.91120948846478,0.912642658468657,0.915267151038256,0.917022784293005,0.917049656230578,0.923973658811807,0.927592413071596,0.927699900821886,0.995014104441468,0.934561202215446,0.935895841781556,0.936012286844371,1.00555686128249,1.00166043033445,1.00226952758609,0.961495840975803,0.962472188040944,0.961773517664054,1.01243607730109,1.04092928844067,1.03884223462252,0.978756582209992,0.990902697992847,1.0335126336706,1.03651333336622,0.977144265955631,0.978640137147177,0.97826393002116,0.98233054990716,0.983145665346865,0.986092621167336,1.05977547399164,1.02791431334296,0.989451613363922,0.990517533554305,0.991583453744688,0.992255252184005,0.992389611871869,0.99237169724682,0.99237169724682,0.992470227684587,0.992398569184393,0.992237337558957,0.992282124121578,0.992353782621772,0.992353782621772,0.991861130432939,0.990938527242944,0.990454832366635,0.988529010173926,0.988054272610142,0.987561620421309,1.0518840816578,1.10503677417657,1.09775447909438,1.09488813908662,1.08071767067329,1.0809416034864,1.08074454261087,1.07290689415216,1.07376679615449,0.976902418517477,1.05604027466904,0.973462810508173,0.973005987569437,1.17826280406215,1.20993586114782,1.14839016679384,1.14990395261044,1.14929485535879,1.20676497251424,1.1117368439447,1.04959996696412,1.24082963204389,0.934516415652824,1.00217099714833,0.901096682624926,0.899188775057265,0.899170860432217,0.899385835932798,0.900066591684639,0.887467235888059,0.887434989562971,0.884267683854404,0.88161184069097,0.879885766567551,0.87958211367298,0.878065640662628,0.874803387441303,0.875076585473292,0.86941556395798,0.86929374450765,0.867599020978066,0.867326718677329,0.86714219803933,0.868791239275041,0.862822086208895,0.862758489289973,0.861039581016573,0.862649210077177,0.862597257664536,0.861142590110602,0.860871183541117,0.861797369656123,0.859775704219404,0.859543709825027,0.85813651602747,0.85573326907722,0.854552695286526,0.854402212436119,0.853768930440656,0.852715550487807,0.851641568716152,0.850602520463341,0.850484283938021,0.851071883639611,0.852256936086566,0.851612009584822,0.851241176846319,0.851021722689475,0.850737775882457,0.852084059954849,0.852882156500757,0.8543950465861,0.856249210278615,0.855536208201687,0.855103570006766,1.01403943624293,0.997763999386406,0.848717901908243,0.848851365864854,0.845812149725383,0.844711296016156,0.844180127383469,0.84399202382046,0.842085907715304,0.838303234636322,0.837667265447102,0.839956754528295,0.840785305936786,0.840734249255398,0.840171730028876,0.836155271093012,0.835445851941093,0.835824746260868,1.06688758013588,0.84407711828944,0.84434315047141,0.844804452066408,0.843717930057219,0.843515494794171,0.842033955302664,0.840465529879671,0.840903542462106,0.838510148555632,0.838617636305923,0.837350176583744,0.836216180818177,0.836508189206467,0.836909476807552,0.835764732266956,0.833322073141598,0.833769043036557,0.834480253650981,0.830848063422406,0.829304718474482,0.828465418290961,0.828583654816281,0.830002493120119,0.828090106896196,0.824945194468939,0.819930890917876,0.817557203098955,0.816595187733853,0.816616685283911,0.81622077207034,0.816061331907409,0.82418023997937,0.824336097217292,0.825317818669947,0.825352752188792
0.905288704886265,0.904787095384908,0.908558123957609,0.909776318460903,0.910197312149543,0.913547347033604,0.914989474350005,0.91696904041786,0.918455954296881,0.921976178118904,0.922567360745503,0.928613546699358,0.930396051891679,0.932859312835842,0.934686604590785,0.935259872592335,0.997002627821847,0.997226560634953,0.996635378008353,0.959596890720666,0.961460011725706,1.01139702904828,1.0173178126268,1.03071795216305,1.02889961772063,0.978622222522129,0.997763999386406,1.01710283712622,0.972988072944388,0.97383901763419,0.977063650142913,0.978066869145626,0.982151403656675,0.983262110409679,0.985671627478697,0.986889821981992,0.989317253676058,0.992729989747789,0.991081844243331,0.992040276683424,0.992344825309248,0.992389611871869,0.992380654559345,0.992416483809441,0.992470227684587,0.992398569184393,0.992344825309248,0.992353782621772,0.992389611871869,0.992300038746626,0.992013404745851,0.991296819743913,0.992613544684975,0.992246294871481,1.14457435165852,1.16589275546619,0.989720332739649,1.06481844094279,1.06386000850269,1.15727582081788,1.08217771261474,1.08610101550035,0.982017043968812,1.12519968466861,1.12536091629405,1.06868799995325,1.06638597063453,1.09793362534486,1.21165566515247,1.21295447546849,1.15082655580043,1.17897043175156,1.1796511875034,1.19383061322926,1.1735512576744,1.19171668747354,1.16655559659298,1.21179002484034,0.933943147651274,1.00311151496337,0.90627400926393,0.898633421680762,0.899421665182895,0.899143988494644,0.898660293618335,0.89063991598414,0.889735227419193,0.902368621003366,0.881732764410047,0.881176515302293,0.879909055580114,0.877270231310476,0.878019958368754,0.874447782134092,0.873953338482754,0.870925766849565,0.869837453377871,0.868908580069108,0.869422729807999,0.866187348524247,0.866452484974965,0.862517537583071,0.862504101614284,0.861143485841854,0.861603891705599,0.861499091149066,0.861916501912695,0.861614640480628,0.859483695831114,0.859122716136388,0.858183094052596,0.855281820525998,0.856048566478072,0.854823206124758,0.853560225058842,0.852669868193933,0.852972625357252,0.851867292991762,0.852521176806031,0.852939483300913,0.85186998018552,0.853195662439106,0.852616124318788,0.852148552605023,0.850535340619409,0.851753535122705,0.852590148112468,0.854180966816771,0.854335032592187,0.853423178177221,0.853141022832708,0.853191183782843,0.853570973833871,0.849940575067801,0.850373213262721,0.879402071691243,0.843944550064082,0.890976710935051,0.84150009947622,0.840460155492157,0.838105278029537,0.838978616000649,0.840789784593048,0.840927727205921,0.840537188379865,0.839978252078353,0.837972709804178,0.835759357879441,0.837083248670522,0.843744801994791,0.84437270960274,0.844776684397583,0.844827741078971,0.845057048279591,0.843895284845198,0.840626761505107,0.840150232478818,0.837908217154004,0.838567475355787,0.838315774873856,0.835569462853927,0.836541331262806,0.837656516672073,0.834882436983319,0.834815257139387,0.834257216569128,0.834397846375758,0.834219595856526,0.825005208462852,0.828683976716552,0.828793255929348,0.828711744385378,0.828489603034777,0.827990680727177,0.824663039124426,0.819508105766732,0.819225950422219,0.816752836434279,0.8174076159798,0.816078350801205,0.816588021883834,0.817853690143507,0.841815396877072,0.825324984519967,0.827031352555832
0.903407669256177,0.903228523005692,0.906265051951406,0.908611867832754,0.907949026705961,0.910394373025075,0.95833390965475,0.918832161422899,0.91870675904756,0.920919215241045,0.921286465054538,0.930566240829639,0.930682685892454,0.933764001400789,0.933584855150305,1.00896959735422,0.990947484555468,0.995408226192534,0.978819283397662,0.960662810911049,0.961818304226675,0.962696120854049,0.973641956758657,1.02302362070473,1.02008562219679,1.02863985565742,1.02030059769737,0.966073027675684,0.967703258555093,0.972701438943613,0.974860151261953,0.978577435959508,0.981031739591146,0.983297939659776,0.985214804539961,0.986406127105684,0.989917393615182,0.992085063246045,0.991681984182455,0.99226420949653,0.992407526496917,0.992425441121966,0.992425441121966,0.992407526496917,0.992389611871869,0.992291081434102,0.992308996059151,0.992326910684199,0.992308996059151,0.992255252184005,0.992183593683812,0.991171417368574,0.990445875054111,0.990884783367798,1.18236525319824,1.06405706937823,1.13297463193964,1.08652200918899,1.10091641041543,0.986298639355393,1.07187680321188,1.08791934994277,1.09561368140109,1.06355545987687,1.06215811912309,1.05694496323399,0.988573796736547,0.989370997551204,1.16444167083726,1.0931414631444,1.09500458414944,1.11345664794935,1.14852452648171,1.15019954392374,1.15373768237081,1.10234958041931,1.16591962740376,0.956605148337573,1.06446910575434,0.946886464248785,1.04822949814791,0.897227123614459,0.898051196366688,0.898257214554745,0.898463232742802,0.894590986538578,0.894934051608256,0.904975198947917,0.886364590716326,0.882102701417298,0.881151434827225,0.882385752493064,0.882784352900392,0.875940966131881,0.875244982948748,0.872172624752937,0.871468579988533,0.868981134300555,0.868420406536538,0.867800560509861,0.868732121012381,0.865745753016803,0.863821722286599,0.861639720955696,0.861692569099589,0.861370105848717,0.862293604769965,0.862404675445265,0.862322268170042,0.859661946350347,0.859214976455388,0.855270176019717,0.855964367740345,0.854944129843835,0.853805655422006,0.851797425954073,0.851758013778967,0.851285067677687,0.853210889870397,0.853272695326814,0.854070791872723,0.85395882546617,0.853208202676639,0.853073842988776,0.851908496629374,0.852580295068691,0.853003080219835,0.853940910841121,0.853882688309714,0.85337480868959,0.853344353827008,0.853102506388854,0.853062198482494,0.852973521088505,0.852108244698664,0.888484786590811,0.87882432503343,0.845906201506888,0.844174752995954,0.840933997324688,0.838363248630234,0.839165823832405,0.840741415105417,0.840830092499407,0.84070558585532,0.840418951854545,0.838683024687349,0.83620991069941,0.836888874988746,0.900478628060754,0.845990400244616,0.844123696314566,0.845110792154736,0.845654501024957,0.843874683026393,0.841329910538259,0.838522688793166,0.837532010027986,0.837616208765714,0.836717790319534,0.835657244516665,0.835867741360984,0.836360393549817,0.834443528669632,0.834443528669632,0.831735733093557,0.831680197755907,0.826508245504417,0.825637594727062,0.825466510057849,0.828364200659438,0.828389281134505,0.827938728314537,0.825339316220005,0.824139932073011,0.821951660623342,0.815369827380538,0.815772906444129,0.816382003695776,0.816281681795505,0.817451506811169,0.816173298313962,0.816639078565222,0.817045740553822,0.825848091571382
0.901410188563274,0.906775618765287,0.907178697828877,0.908522294707512,0.908782056770714,0.90900598958382,0.957017184713688,0.918061832545815,0.918169320296106,0.922630061933172,0.923731811373653,0.928300040761009,0.93003775939071,0.982885903283662,0.932930971336036,1.0065242510351,0.98110339809134,1.00039744926853,0.958889263031252,1.0129197721774,0.960806127911437,1.00915770091723,1.02107092657445,1.01967358582067,0.998901578076983,1.00207246671056,0.962248255227838,1.04685007201918,0.965195211048309,0.969315574809455,0.972477506130507,0.973749444508948,1.06447806306686,1.06471991050502,0.984435518350353,0.986531529481023,0.988618583299168,0.99010549717819,0.992622501997499,0.992398569184393,0.992425441121966,0.992461270372063,0.992479184997111,0.99243439843449,0.992398569184393,0.992452313059539,0.992398569184393,0.992452313059539,0.992380654559345,0.992344825309248,0.992094020558569,0.991054972305759,0.990777295617507,1.18627959877133,0.992416483809441,0.991771557307697,0.99179842924527,1.17810157243671,1.07918597023165,1.18593922089541,1.11012452769034,1.10251976935727,1.12014776040495,1.1117368439447,1.10320948242163,1.08597561312501,1.14528197934794,1.11437925113935,0.983692061410842,0.983674146785794,1.09503145608701,1.1523672135546,1.23309051402295,1.18840248183957,1.15956889282408,1.19079408428354,1.15026224511141,0.952887863640018,0.918814246797851,1.02763663665471,0.91127218965245,1.21875881398419,0.904805010009956,0.900890664436868,0.910528732712939,0.894678768201315,0.894752218164014,0.894726241957694,0.899457494432992,0.882832722388022,0.882530860955956,0.882257662923967,0.882117033117336,0.87780408713692,0.872845318923507,0.872933996317497,0.872160084515403,0.872587348322809,0.872054388227617,0.868727642356119,0.867719944697143,0.866359328924713,0.862856123996487,0.862516641851818,0.862651001539682,0.862831939252671,0.862918825184156,0.862796110002574,0.861782142224832,0.85979630603821,0.857374248731658,0.857103737893427,0.856140826797072,0.856354010835149,0.856232191384819,0.856049462209325,0.852311575692964,0.85285349310068,0.853067572870009,0.853945389497384,0.855970637859112,0.853251197776756,0.853693689015453,0.853218951451668,0.853386453195872,0.853678461584161,0.854461330698779,0.854623458055468,0.854803500037205,0.852271267786605,0.853168790501533,0.853459007427318,0.853184017932824,0.852517593881021,0.85235457079308,0.853465277546085,0.890439272183598,0.847323248348221,0.848506509332672,0.919486045237168,0.840889210762067,0.840593619448768,0.840933997324688,0.840409994542021,0.839381695064239,0.838448343099215,0.837599189871918,0.83791807019778,0.838224410286109,0.931820264583031,0.846245683651556,0.84736713917959,0.844886859341631,0.845226341486299,0.843557594163035,0.840814865068116,0.839994375240897,0.837488119196617,0.837290162589832,0.836441905093787,0.835135928927755,0.833717986355169,0.834922744889678,0.833452849904452,0.833251310372657,0.831407895455171,0.830393927677428,0.826821751442765,0.827047475718376,0.827123612874832,0.828680393791543,0.828486915841019,0.828059652033614,0.827740771707751,0.828254921446642,0.821086384233501,0.82179938631043,0.817453298273674,0.816633704177707,0.816356027489456,0.812053830284069,0.816465306702251,0.817668273774256,0.817343123329626,0.876110259338588
0.899502280995613,0.907115996641207,0.906184436138688,0.906551685952181,0.907223484391498,0.907178697828877,0.911890244216622,0.912633701156133,0.920202630239106,0.921080446866481,0.925478487315877,0.925944267567137,0.991072886930807,0.986119493104908,0.986943565857137,0.988735028361983,0.990427960429063,0.955557142772239,1.01456791768186,1.0149172528703,1.00185749120998,1.03061046441275,1.01169262036158,1.01859870831776,1.00179479002231,0.999895839767173,0.99190591699556,0.962848395166961,0.966135728863353,0.968518373994798,0.972638737755944,0.97390171882186,0.973856932259239,1.03039548891217,0.982411165719878,1.05166910615722,0.989953222865278,0.99046378967916,0.991986532808279,0.9917357280576,0.992156721746239,0.992380654559345,0.992389611871869,0.992344825309248,0.992425441121966,0.993016623748565,0.992631459310023,0.993312215061864,0.992909135998274,0.992918093310798,0.992461270372063,0.991601368369737,0.990490661616732,1.0457841518288,1.14080332308582,1.07711683103855,1.08194482248911,1.08380794349415,1.10077309341504,1.09642879684079,1.08301074267949,1.13133544374771,1.09023033657402,1.12329177710095,1.04921480252558,1.04985972902732,0.994172117064191,1.07356077796643,0.986818163481798,0.996053152694279,1.09013180613626,1.08993474526072,1.14173488358834,1.15973908176204,1.16097519089039,1.18795461621336,1.18925342652938,1.05370241610022,0.926929571944802,0.968581075182468,0.911666311403516,0.905602210824613,0.905861972887815,0.90493936969782,0.900012847809494,0.896412008174754,0.894878516270606,0.893360251797749,0.891644926449359,0.889737018881698,0.88201850267957,0.881852792397872,0.881474793809349,0.877587320173834,0.874338502921296,0.874081428051851,0.872838153073488,0.872153814396637,0.871712218889192,0.871299286781825,0.865960728517384,0.865946396817346,0.865966102904899,0.864168370281286,0.865080224696253,0.865675885979114,0.865118741140107,0.86302362574069,0.862475438214207,0.85988140050719,0.859181834399048,0.857724479651356,0.857945725270704,0.857003415993155,0.856673786892264,0.85610320608447,0.856025277465509,0.856122912172024,0.855128650481834,0.855417075945114,0.857314234737746,0.856404171785284,0.852293661067916,0.85433951124845,0.855291673569775,0.855701918483385,0.856171281659654,0.855691169708356,0.853765347515646,0.85398121874748,0.852503262180983,0.852575816412429,0.852053605092266,0.852577607874934,0.852500574987225,0.853095340538834,0.853560225058842,0.851772345479005,0.847969070581218,0.847061694822513,0.843567447206812,0.839942422828256,0.841256460575561,0.840799637636825,0.837025026139115,0.837716530665985,0.837820435491266,0.839019819638261,0.839982730734615,0.847994151056286,0.847166495379047,0.847711995711772,0.84689419307831,0.84614715321379,0.841765235926937,0.841603108570248,0.840822030918135,0.837625166078238,0.837624270346986,0.837327783302434,0.833193983572502,0.832729994783747,0.83184769950011,0.832906453840474,0.831552108186811,0.831640785580801,0.83196235310042,0.826651562504805,0.825741499552343,0.827917230764478,0.828328371409341,0.82830597812803,0.828984942417367,0.828298812278011,0.827066286074677,0.821306734121597,0.820821247782784,0.820728091732532,0.817068133835132,0.8161688196577,0.81181019138341,0.812709505560842,0.817434487917373,0.817985362637613,0.819062031603026
0,0,0,0,0,0,0,0,0,0,0,0,0,0,0,0,0,0,0,0,0,0,0,0,0,0,0,0,0,0,0,0,0,0,0,0,0,0,0,0,0,0,0,0,0,0,0,0,0,0,0,0,0,0,0,0,0,0,0,0,0,0,0,0,0,0,0,0,0,0,0,0,0,0,0,0,0,0,0,0,0,0,0,0,0,0,0,0,0,0,0,0,0,0,0,0,0,0,0,0,0,0,0,0,0,0,0,0,0,0,0,0,0,0,0,0,0,0,0,0,0,0,0,0,0,0,0,0,0,0,0,0,0,0,0,0,0,0,0,0,0,0,0,0,0,0,0,0,0,0,0,0,0,0,0,0,0,0,0,0,0,0,0,0,0,0,0,0,0,0,0,0,0,0,0,0,0,0,0,0,0,0,0,0,0
