0.988601547297447,0.989967814244751,0.990474793803813,0.992296483066884,0.995544589394435,0.995656296754906,0.995664889628789,0.996592920008089,0.997194421179858,0.998148230180805,1.00033082014694,1.00085498545376,0.997881851090451,1.05529084149884,1.00197205905848,1.00331254738413,1.00285712506837,1.00546935872862,1.00662080382886,1.00850264320911,1.01045322558042,1.01431142595362,1.01148437044631,1.01335761695267,1.03123079462809,1.03074959369067,1.0477377053562,1.04038220531285,1.04245308791851,1.04147350029592,1.10350545685304,1.08088041992065,1.12089743359104,1.15064596297194,1.15108419953995,1.12165360649269,1.11983191722962,1.11988347447292,1.12326906678258,1.12289957320564,1.13070190269087,1.11699626884843,1.11544095867571,1.1480766936811,1.16047621069342,1.15994345251271,1.176948749926,1.17589182643847,1.18469952216794,1.18774139952231,1.18660714016983,1.23263057268402,1.24556284787705,1.27307723004853,1.24876798983519,1.24790010957307,1.24747905875283,1.25014284965638,1.30095251292307,1.29370012736631,1.3833495805815,1.31158189791561,1.3146151823961,1.299715139084,1.40893056612944,1.28221145498553,1.28795149473898,1.2794445495954,1.30940790082336,1.33181811590869,1.43647072692257,1.45059741158525,1.45082941918007,1.44756412710476,1.421751133962,1.42089184657376,1.35877396127781,1.33296956100893,1.31969357086061,1.3033327389885,1.29486016534044,1.29695682656775,1.27956484982975,1.27937580660434,1.30229300124873,1.31143581905961,1.31109210410431,1.31511356908128,1.26604825921272,1.28926620444299,1.291165229571,1.25972390403526,1.2593630033322,1.28655944917003,1.28344023595072,1.21418167245849,1.20577784180149,1.20960167067916,1.17351160037304,1.14524963817379,1.13681143602126,1.20443735347583,1.11684159711854,1.09593513496264,1.09404470270851,1.09169025526473,1.07573328846509,1.07514897304109,1.07121343680294,1.05086551144939,1.06604052672573,1.02578291258664,1.0259977344337,1.03276891905304,1.03069803644738,1.03893000962673,1.03190103879091,1.01702677410046,1.00935333772347,1.01050478282371,0.984837868536952,0.984777718419775,1.0073855696044,0.978573663476674,0.988429689819799,0.999651983110228,0.943145244459496,0.974767020346766,0.999119224929518,1.04987733095292,1.04303740334252,0.986822822403788,1.04349282565829,1.03486558028035,1.03024261413161,1.02921146926572,1.02963252008596,1.15202941566701,1.02369484423321,1.02094512459084,1.02061000250943,1.06593741223914,1.0146637337828,1.009972024643,1.01016106786842,1.01036729684159,1.02891071867984,1.02636722801064,1.02256058488073,1.02002568708542,1.0126100369249,1.01194838563596,1.01218039323078,1.0121718003569,1.01443172618797,1.00665517532439,1.00771209881193,1.00828782136205,1.01148437044631,1.0140278611155,1.01117502698654,1.0104618184543,1.01083131203124,1.00981735291312,1.0106594545536,1.01006654625571,1.00835656435311,1.00744571972157,1.00757461282981,1.01193979276207,1.01475825539551,1.01639090143316
0.983772352175533,0.988567175801918,0.99146297430029,0.994341587050898,0.994264251185956,0.991600460282409,1.28524473946602,0.998251344667394,0.997563914756802,0.998852845839163,0.999471532758697,0.999763690470699,0.997306128540329,1.00000429093941,1.00204939492342,1.00286571794225,1.0048420789352,1.00338988324908,1.01149296332019,1.00960253106606,1.01719863157811,1.01450906205292,1.01274752290702,1.0138302250162,1.0619503187577,1.02986452768078,1.03100737990714,1.08092338429007,1.04480753536229,1.04418025556888,1.04411151257782,1.06198469025323,1.21741259303827,1.16648262953723,1.13089953879017,1.15414326264209,1.11842268591291,1.11916167306679,1.11851720752561,1.12283942308846,1.13112295351111,1.12729053175955,1.16637092217676,1.14274051900013,1.1884288294329,1.23116978412401,1.15174585082889,1.18066946431709,1.17781663018813,1.18771562090066,1.19269948775246,1.19933318638968,1.22891845116682,1.24655102837353,1.24487541796646,1.25217076789263,1.25199891041498,1.24716112241918,1.26157137191998,1.37022826216306,1.27324908752618,1.24733297989683,1.25826311547525,1.25906225274632,1.26520615757224,1.27143599113699,1.28507288198837,1.29563352398986,1.32406734366675,1.34614243667067,1.39203697607662,1.47486368742918,1.46586694847429,1.44415275617344,1.41092411287016,1.3287848314282,1.33638952481413,1.33678479701272,1.27798376103539,1.26257673816422,1.2630751248494,1.26035977670256,1.25865838767384,1.26538660792377,1.27095479019957,1.35427129536343,1.28866470327122,1.27277647946265,1.25523842386865,1.25851230881784,1.25815140811478,1.26113313535198,1.30868609941724,1.28753044391874,1.28610402685426,1.20399911690783,1.20217742764476,1.18770702802678,1.14908205992535,1.15053425561147,1.1397759775107,1.1114882366898,1.09320260106803,1.0918019626252,1.08714462498093,1.0785603439724,1.08079449118183,1.05671725856332,1.06004270075581,1.03679038403001,1.05045305350304,1.0328376620441,1.04242730929687,1.02287852121438,1.00980016716535,1.02847248211183,1.00871746505617,1.01875394175083,1.00337269750131,1.01293656613243,0.985886199150606,0.994204101068779,0.973933511580173,0.988300796711563,0.991196595209935,0.953542621857213,0.938316049337581,0.939364379951235,1.0103157395983,1.0486657357355,1.04421462706441,1.04106963522345,1.04156802190863,1.03058632908691,1.03145420934903,1.02946925548219,1.02933176950007,1.027217922525,1.02833499612971,1.02447679575651,1.02435649552216,1.02137476828496,1.01900313509342,1.01356384592585,1.00955956669665,1.01004076763406,1.02671953583982,1.02628129927182,1.02546497625299,1.0181782192007,1.01455202642233,1.01340917419597,1.0120257215009,1.01438016894468,1.01381303926844,1.12114662693363,1.01791184011035,1.01138125595972,1.01206009299643,1.0118796426449,1.00943926646229,1.00879480092111,1.01183667827549,1.0117335637889,1.01023840373336,1.00865731493899,1.00792692065899,1.00662939670274,1.00913851587641,1.03648963344412,1.0576023245732,1.05190524918917
0.985078469005659,0.990612279785931,0.990663837029226,0.99481419511443,0.992356633184061,0.992459747670649,1.28477213140249,0.99966057598411,0.999462939884814,0.99937701114599,0.998973146073517,0.999729318975169,1.00135337213894,1.00387108418649,1.00592478104439,1.00513423664721,1.00672391831545,1.01079694053571,1.01056493294089,1.01737908192964,1.01978508661672,1.01226632196961,1.01216320748302,1.0419718869811,1.04332956105452,1.21831484479593,1.05124359790022,1.06114258861276,1.04409432683005,1.04439507741594,1.04358734727099,1.09504147607887,1.1447082871192,1.16900034158477,1.12840760536427,1.12721319589461,1.15668675331128,1.18622905371901,1.11853439327338,1.13320242899065,1.12201450719575,1.13071049556475,1.15072329883689,1.12657732322731,1.15469320657056,1.21315912046648,1.14989838294418,1.16220337834379,1.17483490295093,1.18511198011429,1.19074031250727,1.20550286983725,1.21416448671072,1.24808915279848,1.25818577961031,1.25078731519756,1.2523769968658,1.25061545771991,1.27859385508104,1.23211500025108,1.24043290216925,1.2404586807909,1.24564018374199,1.25613208275242,1.25271211894722,1.31517371919846,1.2746067615996,1.26492259273412,1.28362927917613,1.36726372067363,1.28429093046508,1.39176200411238,1.42428603175731,1.30955397967936,1.31747660939894,1.33176655866539,1.26663257463672,1.25590866803147,1.24785714520365,1.26677865349272,1.24655962124741,1.24130078243138,1.23981421524972,1.24674866447282,1.27487314068995,1.26833396366544,1.34757744660903,1.25780769315949,1.25331362011899,1.25854668031337,1.25789362189831,1.26707940407861,1.25032330000791,1.25268634032557,1.21505814559449,1.21718058544345,1.21783364385851,1.19585307246731,1.26557565114919,1.15143650736913,1.09462042525863,1.08723055371976,1.08898349999177,1.11850002177785,1.1031359632761,1.070843943226,1.06238855532571,1.06775050862833,1.06134881758593,1.03624903297541,1.02620396340688,1.02176144760967,1.01550583542327,1.0232136432958,1.00382811981708,0.99435017992478,0.998870031586928,1.00172286571589,1.00294305380719,0.989478020433453,0.979544658225387,0.974131147679468,0.986496293196257,0.973091409939696,0.977267546646548,0.959471704836076,0.957933580411124,0.9508616452059,0.976691824096426,1.01613311521669,1.04674093198584,1.04180002950345,1.02276681385391,1.02630707789346,1.02630707789346,1.02757023035418,1.02739837287653,1.0267281287137,1.02666797859653,1.02733822275935,1.02518141141487,1.02319645754803,1.02343705801674,1.01921795694048,1.01263581554655,1.01139844170748,1.02363469411604,1.0262898921457,1.02636722801064,1.01777435412823,1.01667446627128,1.01441454044021,1.01511915609857,1.01512774897245,1.01581517888304,1.01497307724257,1.01277330152867,1.01393333950279,1.01514493472021,1.01286782314137,1.01161326355454,1.0115359276896,1.01105472675219,1.01012669637289,1.00923303748911,1.0084081215964,1.00716215488345,1.00667236107216,1.02762178759747,1.05367538120894,1.05414798927247,1.0532543303887
0.985207362113895,0.987518845188264,0.989692842280513,0.995080574204785,0.992339447436296,0.993576821275363,0.998998924695164,0.999480125632579,0.999462939884814,0.999548868623638,0.999488718506462,0.999437161263167,1.00015036979541,1.00277978920342,1.00515142239497,1.00668954681992,1.00986031728253,1.01132110584254,1.01259285117714,1.01766264676776,1.01898594934565,1.01165622792395,1.01206009299643,1.02108261057296,1.03580220353353,1.03056914333914,1.0460277234536,1.0560384215266,1.044609899263,1.03818242959896,1.11001026238203,1.05694067328426,1.05771403193368,1.0720641313173,1.19276823074352,1.19168552863434,1.18976931775856,1.20926654859775,1.1203818611581,1.13467181042454,1.10359997846575,1.10474283069211,1.12476422683812,1.11058598493215,1.11718531207384,1.12772017545367,1.12767721108426,1.16426566807557,1.14344513465848,1.17305617805727,1.21626974081191,1.21601195459544,1.21792816547122,1.20693787977562,1.26161433628939,1.23866277014948,1.24962727722343,1.2489570330606,1.22567893771315,1.21379499313378,1.21905383194981,1.21707747095686,1.22325574727831,1.23543184956969,1.22251676012443,1.24758217323942,1.24333729354151,1.28088815240764,1.32382674319805,1.24795166681636,1.25613208275242,1.27935002798269,1.28576031189897,1.27572383520431,1.33929391618639,1.2855970472952,1.25645001908607,1.23506235599275,1.23514828473157,1.22859192195929,1.24672288585118,1.22728580512916,1.22755218421952,1.23529436358757,1.23764021815747,1.2567765482936,1.26143388593786,1.23444366907321,1.23317192373862,1.23167676368308,1.25919973872844,1.27123835503769,1.22141687226748,1.23246730808026,1.20138688324758,1.2047982541789,1.20105176116616,1.20163607659017,1.18685633351242,1.09730999478382,1.09727562328829,1.06966671950411,1.08179126455219,1.0656624402749,1.07051741401847,1.06297287074971,1.0430459962164,1.06175268265841,1.02813736003042,1.01469810527833,1.0078238061724,1.000983878562,1.02334253640403,0.995682075376554,0.991359859813701,0.991041923480052,1.00272823196013,1.00167130847259,1.04687841796796,0.988945262252744,0.971407206658744,0.989520984802865,1.01137266308584,0.952709113090619,0.983153665255999,0.97652855949266,0.994126765203837,0.950835866584253,1.00406872028579,1.00530609412485,1.01773138975882,1.02085060297813,1.02402996631463,1.02891071867984,1.02635863513676,1.02060140963554,1.02656486410994,1.0260922560464,1.02604929167699,1.02664219997488,1.02526734015369,1.02397840907133,1.02299022857485,1.02163255450143,1.0181782192007,1.01377007489903,1.01589251474798,1.0207217098699,1.02013739444589,1.01694084536164,1.01616748671222,1.01529101357621,1.01585814325245,1.01657135178469,1.01732752468635,1.01566050715316,1.01481840551268,1.01409660410656,1.01499885586421,1.0124639580689,1.01258425830325,1.01425986871033,1.00988609590418,1.00882917241664,1.00839093584864,1.00815892825381,1.0072394907484,1.09212849183273,1.01055634006701,1.06825748818739,1.00906118001147,1.05063350385457
0.986736893664964,0.986908751142612,0.989048376739333,0.991574681660761,0.994109579456072,0.995441474907846,1.00027926290364,0.999832433461758,0.999566054371403,1.00033082014694,0.999961326569994,0.999772283344581,0.999265303785519,1.00112136454412,1.00493660054791,1.00661221095498,1.010264182355,1.01071960467077,1.01177652815831,1.01077975478795,1.01491292712539,1.01375288915126,1.017791539876,1.02022332318472,1.0292716193829,1.17389827969775,1.0342039289914,1.03834569420272,1.03952291792461,1.04131882856604,1.10347108535751,1.05532521299437,1.05844442621368,1.0706463071267,1.03973773977167,1.05844442621368,1.19018177570492,1.19185738611199,1.1076300363166,1.1020618540408,1.0992262056596,1.12543447100095,1.10687386341495,1.12558914273084,1.11658381090207,1.11635180330724,1.12294253757505,1.14767282860863,1.22259409598937,1.16960184275654,1.22910749439224,1.19408294044753,1.18328169797734,1.22926216612212,1.22945980222141,1.24978194895332,1.23409995411792,1.23434055458662,1.20737611634362,1.20203994166264,1.20265003570829,1.21077889440105,1.19251903740093,1.22044587751877,1.22017949842841,1.23776911126571,1.23586149326381,1.23804408322994,1.24066490976408,1.23519124910098,1.24673147872506,1.2680589917012,1.31402227409822,1.26693332522261,1.22866066495035,1.23500220587557,1.22885830104965,1.21234279744765,1.20641371446879,1.23165957793531,1.22208711643031,1.2237025767202,1.21822032318322,1.21948347564394,1.25253166859569,1.24426532392081,1.23588727188546,1.23502798449722,1.23391950376639,1.23206344300778,1.2314189774666,1.22709676190375,1.2262890317588,1.20966182079634,1.19865434935297,1.17861576745919,1.16506480534663,1.22242223851172,1.15468461369668,1.13698329349891,1.10214778277962,1.10024016477772,1.06204484037041,1.07153996601047,1.06945189765705,1.03257128295374,1.04778926259949,1.03592250376788,1.04038220531285,1.01224913622184,1.00877761517335,0.997993558450922,0.997864665342686,0.993765864500776,0.990560722542637,0.988266425216033,0.984159031500241,0.988214867972739,0.994384551420309,0.973796025598054,0.972318051290279,0.985499519825897,0.964953958373054,0.96504847998576,0.962788554154686,0.964730543652111,0.977293325268195,0.997331907161976,1.05338322349694,1.04975703071856,1.02699450780406,1.0264359710017,1.02630707789346,1.02879041844548,1.02730385126382,1.02755304460641,1.026487528245,1.02659064273158,1.02629848501958,1.02502673968499,1.02362610124215,1.02212234831273,1.02152084714096,1.02325660766521,1.0172501888214,1.0158839218741,1.01516212046798,1.01578080738751,1.01726737456917,1.01758531090282,1.01404504686326,1.01652838741528,1.01791184011035,1.01574643589198,1.01871097738141,1.01804932609247,1.0171556672087,1.01389037513338,1.0142254972148,1.01531679219786,1.01392474662891,1.01409660410656,1.00819329974934,1.00900962276817,1.00787536341569,1.0391362385999,1.03407503588316,1.01180230677996,1.01415675422374,1.01468951240445,1.01086568352677,1.01077975478795
0.987536030936028,0.988919483631096,0.990027964361928,0.991737946264527,0.99531258179961,0.998560688127161,0.998801288595869,1.00045112038129,1.00057142061565,0.999858212083405,1.00076905671494,1.00057142061565,1.00175723721142,1.00283134644672,1.00521157251215,1.00744571972157,1.00878620804723,1.01457780504397,1.00956815957053,1.009387709219,1.01382163214232,1.01441454044021,1.01649401591975,1.01792902585811,1.01947574315695,1.1671786523217,1.03215882500739,1.1671786523217,1.14229368955824,1.23764881103135,1.05388161018212,1.05358085959624,1.05356367384847,1.10187281081538,1.05303950854164,1.07465058635591,1.07239925339871,1.07213287430836,1.08411134050044,1.09469776112357,1.11318103284463,1.13339147221606,1.12380182496329,1.12709289566026,1.12777173269697,1.12996291553698,1.1199865889595,1.12021859655433,1.12137863452845,1.15370502607408,1.23008708201483,1.19197768634634,1.17926023300037,1.17866732470249,1.18020544912744,1.18606578911524,1.24635339227423,1.19936755788521,1.19902384292992,1.18704537673784,1.18759532066631,1.23021597512307,1.20233209937464,1.20877675478645,1.22971758843789,1.21512688858555,1.22852317896823,1.2139324791159,1.22054899200535,1.21754148614651,1.21690561347921,1.21511829571167,1.22483683607268,1.21135461695118,1.22967462406847,1.22664993246187,1.2325446439452,1.21318489908813,1.20521071212525,1.20643949309044,1.20436861048478,1.20428268174595,1.20828696097515,1.20820103223633,1.22163169411454,1.28472916703308,1.28582905489003,1.26347039704799,1.25635549747336,1.26755201214214,1.24775403071707,1.21780786523687,1.21484332374743,1.20266722145606,1.19715059642355,1.18510338724041,1.17797989479189,1.1662506219424,1.14481999447967,1.11731420518207,1.09789431020783,1.09486961860122,1.06137459620758,1.07105017219918,1.05983647178263,1.07447013600438,1.01896876359789,1.01827274081341,1.00508267940391,1.02973563457255,1.00954238094888,0.999583240119168,1.00012459117376,0.99549303215114,0.991995732480999,0.988936669378861,0.987888338765207,0.98379813079718,0.980000080541154,0.971639214253569,0.98807738199062,0.988008638999561,0.995192281565256,0.994324401303133,0.975841129582068,1.03500306626246,1.03540693133494,1.05486119780471,1.05469793320095,1.01131251296866,1.05582359967954,1.02653049261441,1.02711480803841,1.02866152533725,1.02760460184971,1.02728666551606,1.02698591493018,1.02746711586759,1.02673672158759,1.0252157829104,1.02324801479133,1.02291289270991,1.02107401769908,1.08404259750938,1.01476684826939,1.01371851765573,1.01363258891691,1.01289360176302,1.01474106964774,1.01714707433482,1.01664868764964,1.01742204629905,1.01862504864259,1.01937262867036,1.01984523673389,1.02051548089672,1.01840163392165,1.01454343354844,1.01438876181856,1.0145176549268,1.01151874194184,1.00897525127264,1.00934474484959,1.01010951062512,1.01340058132208,1.01486996275598,1.01781731849764,1.16204011374002,1.01473247677386,1.01677758075787,1.01377007489903,1.01166482079784
1.08442068396021,0.990595094038166,0.990930216119581,0.993645564266422,0.995785189863142,0.999351232524343,0.999866804957288,1.00071749947165,1.00120729328294,1.0000558481827,1.00029644865141,0.999772283344581,1.00134477926506,1.00397419867308,1.00545217298085,1.00827922848817,1.00858857194793,1.00253918873472,1.0028914965639,1.16673182287982,1.01174215666278,1.01363258891691,1.01509337747692,1.02103964620355,1.01505900598139,1.01452624780068,1.0159354791174,1.15579309442751,1.17009163656784,1.05630480061696,1.09377832361815,1.05328870188423,1.05461200446212,1.1147105643957,1.10161502459891,1.08151629258795,1.08202327214701,1.06671936376244,1.08365591818467,1.09865048310948,1.1049920240347,1.12252148675482,1.12312298792658,1.12127552004187,1.11864610063385,1.1179844493449,1.14223353944106,1.13897684023963,1.12053653288798,1.1520380085409,1.14176093137753,1.14838603714087,1.19735682539673,1.21474020926084,1.19904962155156,1.19898947143439,1.18725160571101,1.19363611100564,1.17202503319138,1.18503464424935,1.26181197238869,1.20726440898315,1.18759532066631,1.22427829927032,1.22595390967739,1.27109227618169,1.22058336350088,1.18412379961782,1.20162748371629,1.21919131793193,1.18805074298208,1.1788563679279,1.20839866833563,1.21755867189428,1.19695296032426,1.34359035312759,1.18825697195526,1.19161678564328,1.19565543636801,1.19739119689226,1.19578432947625,1.19898947143439,1.19550076463813,1.20162748371629,1.21436212281002,1.23300006626097,1.28542518981755,1.26598810909554,1.26588499460895,1.23835342668971,1.25156926672086,1.21740400016439,1.18064368569544,1.18252552507569,1.16408521772404,1.16344934505674,1.13724967258927,1.12515090616283,1.12193717133081,1.11446137105311,1.05836709034874,1.06533591106737,1.09441419628545,1.05460341158824,1.07511460154556,1.07379129896767,1.03544989570435,1.03754655693166,0.996713220242443,1.02928021225678,1.01874534887694,1.00258215310413,0.999548868623638,1.04326081806346,0.988137532107797,0.988747626153448,0.98190769854305,0.976159065915717,0.981950662912462,0.981778805434813,0.974070997562291,0.975952836942539,0.976021579933598,0.994272844059838,0.994530630276311,0.99987539783117,1.05804915401509,1.00648331784674,0.99459937326737,1.06094495251346,1.04228123044087,1.02697732205629,1.02797409542665,1.02953799847325,1.02792253818336,1.02664219997488,1.02799128117442,1.02816313865207,1.02846388923795,1.02632426364123,1.02415026654898,1.0233597221518,1.05770543905979,1.09112312558849,1.01391615375503,1.0126100369249,1.01159607780678,1.01306545924067,1.00967127405712,1.01616748671222,1.01752516078564,1.0177399826327,1.0206701526266,1.02109120344684,1.02142632552826,1.0214521041499,1.01856489852541,1.01541990668445,1.01468951240445,1.01453484067456,1.01047900420206,1.01141562745525,1.01191401414043,1.01452624780068,1.01490433425151,1.01520508483739,1.01464654803503,1.01579799313528,1.01662290902799,1.01699240260493,1.28533926107873,1.01288500888914
0.992116032715353,0.993757271626894,0.993559635527598,0.994925902474901,0.995132131448079,0.999531682875874,0.998964553199634,0.999969919443876,1.0003480058947,1.00312350415872,1.00494519342179,1.00392264142979,1.00368204096108,1.00395701292531,1.00595055966603,1.00632864611686,1.00680125418039,1.00634583186463,1.00543498723309,1.01043603983265,1.01074538329242,1.01332324545714,1.01350369580867,1.01514493472021,1.01480121976492,1.01394193237668,1.01469810527833,1.14897894543876,1.14693384145474,1.18794762849549,1.10300707016786,1.05358945247012,1.05338322349694,1.06315332110124,1.06752709390739,1.08269351630984,1.05309965865882,1.05256690047811,1.07076660736106,1.0901865023353,1.08650875231363,1.11593075248701,1.16670604425817,1.20168763383346,1.13329695060336,1.13993064924058,1.14072978651164,1.12057949725739,1.12064824024845,1.13633023508385,1.12741942486779,1.14225931806271,1.13795428824762,1.16400788185909,1.20062211747204,1.19836219164097,1.18058353557826,1.16865662662948,1.16897456296313,1.17199925456974,1.1611722334779,1.15679846067175,1.18396912788793,1.22367679809855,1.22513758665856,1.22304951830514,1.21774771511969,1.18371134167146,1.1862806109623,1.16327748757909,1.16947294964831,1.16303688711038,1.19113558470586,1.17544499699658,1.17947505484743,1.18596267462865,1.16839884041301,1.16593268560875,1.19090357711104,1.18371993454534,1.18453625756417,1.18433862146488,1.19312913144658,1.18504323712323,1.2015243692297,1.23213218599884,1.2579967363849,1.27127272653322,1.30200084353672,1.30157979271649,1.21596899022603,1.2154448249192,1.19523438554777,1.16352668092168,1.14908205992535,1.19554372900754,1.19705607481084,1.1276600253365,1.11928197330115,1.11311228985358,1.08137880660583,1.08182563604772,1.07316401917425,1.05966461430498,1.0545776329666,1.0278537951923,1.01798917597529,0.992511304913944,0.99335340655442,1.02177004048355,0.991660610399586,1.00216110228389,1.00275401058178,1.00851982895688,0.993336220806656,0.999815247713993,0.979896966054566,1.04705886831949,0.978668185089381,1.03271736180974,0.983703609184473,0.982131113263992,0.982062370272933,0.981606947957165,0.983196629625411,0.986058056628254,0.999806654840111,0.993920536230659,0.996747591737973,1.11652366078489,1.0480298630682,1.0282920317603,1.02872167545442,1.0320041532775,1.03288062641351,1.02622114915464,1.02653908548829,1.02743274437206,1.02930599087843,1.02851544648124,1.02555090499181,1.02420182379227,1.02745852299371,1.02744993011983,1.01346073143926,1.01218039323078,1.01150155619407,1.01252410818608,1.01288500888914,1.01465514090892,1.01679476650564,1.01773138975882,1.02140054690661,1.02279259247556,1.01639949430705,1.01578080738751,1.115346437063,1.10261179796927,1.01784309711929,1.01022981085947,1.00943926646229,1.01248114381667,1.01394193237668,1.01470669815221,1.01688069524446,1.01782591137153,1.01819540494847,1.0181782192007,1.01996553696825,1.02049829514896,1.18234507472416,1.05987943615204
0.991892617994411,0.997495171765742,0.99630935516997,0.996498398395383,0.997787329477744,0.999419975515402,0.999729318975169,1.00051127049847,0.999488718506462,1.00543498723309,1.00546935872862,1.00599352403545,1.00516001526885,1.0057701093145,1.00687859004533,1.0070418546491,1.00769491306416,1.00690436866698,1.00749727696487,1.01169059941948,1.01156170631125,1.01378726064679,1.01493870574704,1.0149558914948,1.01518789908963,1.01429424020585,1.01445750480962,1.01812666195741,1.01953589327413,1.13129481098876,1.14402085720861,1.09308230083368,1.06683107112291,1.11697049022678,1.06652172766315,1.06677092100574,1.07454747186932,1.07698784805192,1.07587077444721,1.12828730512991,1.09215427045438,1.09248079966191,1.10987277639991,1.16167062016308,1.13188771928664,1.13355473681983,1.13457728881184,1.11758058427243,1.11955694526538,1.1302980376184,1.11265686753781,1.11860313626444,1.14928828889852,1.13406171637889,1.13572873391208,1.14527541679544,1.15888652902518,1.20191964142829,1.17433651626575,1.20651682895538,1.17552233286152,1.15622273812163,1.21507533134226,1.17547936849211,1.17474038133822,1.23221811473767,1.21361454278225,1.21196471099683,1.18488856539335,1.15537204360727,1.16124956934284,1.15816472761905,1.14532697403873,1.1599520453866,1.15895527201624,1.16447189704874,1.16579519962663,1.16757392452029,1.16758251739418,1.17598634805117,1.17242889826386,1.17630428438482,1.17082203084784,1.17801426628742,1.19449539839389,1.20295078629418,1.22523210827127,1.25771317154678,1.31824996804836,1.34193192846829,1.35420255237237,1.22333308314326,1.18831712207243,1.14520667380438,1.14394352134366,1.19294868109505,1.12477281971201,1.10139160987797,1.11937649491385,1.11039694170673,1.07611137491592,1.07607700342039,1.07874079432393,1.05396753892094,1.05358945247012,1.08556353618657,1.01500744873809,1.0146121765395,1.00467022145755,0.983102108012705,0.983669237688944,1.05065068960233,1.00058001348953,0.994556408897958,1.03147998797068,0.979630586964211,0.99124815245323,0.979707922829152,0.977886233566082,0.979707922829152,0.985516705573662,0.979475915234327,1.00801284939781,1.0076261700731,1.04673233911195,1.01201712862702,1.01304827349291,1.06190735438829,1.05615012888708,1.02337690789956,1.0268742075697,1.02989889917631,1.03038010011373,1.03058632908691,1.02701169355182,1.02619537053299,1.02706325079512,1.02723510827276,1.02881619706713,1.02925443363513,1.02710621516453,1.02751867311088,1.02806861703936,1.01438016894468,1.01274752290702,1.0118280854016,1.01249832956443,1.01462076941339,1.01454343354844,1.01456061929621,1.01485277700821,1.02039518066237,1.02043814503178,1.02067874550049,1.01517071334186,1.02911694765301,1.01352947443032,1.01227491484349,1.01164763505007,1.01042744695877,1.01147577757242,1.01357243879973,1.01278189440255,1.01429424020585,1.01633075131599,1.01878831324636,1.02124587517672,1.02100527470802,1.02196767658285,1.02183019060073,1.02668516434429,1.27313738016571
1.07212428143448,1.00246185286978,1.00236733125707,1.00075187096718,0.997727179360567,1.00136196501283,1.00291727518554,1.00171427284201,1.00312350415872,1.00839952872252,1.00842530734417,1.00646613209898,1.00626849599968,1.00581307368392,1.00583885230556,1.01166482079784,1.00783239904628,1.00886354391217,1.01035011109383,1.0106078973103,1.01151014906795,1.01245536519502,1.01464654803503,1.01505900598139,1.0151019703508,1.01459499079174,1.01479262689103,1.01856489852541,1.01822118357012,1.22122782904207,1.11557844465783,1.15524315049903,1.07661835447498,1.08160222132678,1.05673444431108,1.06492345312102,1.11367082665593,1.0335680563241,1.03318996987328,1.07126499404624,1.06582570487867,1.09857314724454,1.0901865023353,1.1145644855397,1.16611313596028,1.14217338932389,1.09669130786429,1.1035741998441,1.10616065488271,1.10483735230481,1.1010822664182,1.12235822215105,1.12524542777554,1.12441191900895,1.12659450897508,1.13926040507775,1.17261794148927,1.17639880599753,1.16370713127321,1.16362979540827,1.14321312706366,1.14229368955824,1.21144913856388,1.19832782014544,1.22390021281949,1.28474635278084,1.2322009289899,1.28992785573194,1.16113786198237,1.15328397525384,1.14258584727024,1.19254481602258,1.12794359017462,1.12521105628001,1.13591777713749,1.15838814234,1.15139354299971,1.16265020778567,1.18799918573878,1.15080063470183,1.15691016803222,1.16087148289201,1.16007234562095,1.16941279953113,1.19611945155766,1.18767265653125,1.20846741132669,1.19574136510684,1.19765757598261,1.21708606383074,1.21146632431165,1.20265003570829,1.17566841171752,1.17803145203519,1.14820558678934,1.1574601119607,1.13701766499444,1.09347757303227,1.10918534648931,1.0984442541363,1.0978599387123,1.07771824233193,1.11332711170064,1.06049812307158,1.0540878391553,1.00990328165194,1.00939630209288,1.071574337506,0.993465113914892,0.988085974864503,0.988799183396743,0.998801288595869,0.999926955074464,0.990844287380757,0.991024737732287,0.990268564830635,0.982165484759522,0.990277157704517,0.970814298360858,0.970169832819677,0.997684214991155,1.01552302117104,0.996610105755854,1.03838865857213,1.00888932253382,1.010118103499,1.01289360176302,1.11295761812369,1.02255199200685,1.02732962988547,1.02730385126382,1.0290739832836,1.03151435946621,1.03660134080459,1.02719214390335,1.02624692777629,1.02615240616358,1.02842092486854,1.0298559348069,1.03460779406387,1.08566665067316,1.08351843220255,1.07349054838178,1.01315138797949,1.01193119988819,1.01210305736584,1.0245799102431,1.01633075131599,1.01527382782845,1.01633934418987,1.01630497269434,1.01792902585811,1.01956167189577,1.02025769468025,1.17926882587425,1.03659274793071,1.12248711525929,1.01200853575313,1.01193119988819,1.01196557138372,1.08309738138232,1.01560035703598,1.01475825539551,1.01512774897245,1.01624482257716,1.0207217098699,1.02268947798897,1.02129743242002,1.02127165379837,1.02103105332966,1.0202834733019,1.03390317840552
1.00308913266319,1.00173145858977,1.00143070800389,0.999961326569994,1.00097528568812,1.00074327809329,1.00300320392437,1.00398279154696,1.00599352403545,1.00650050359451,1.00776365605522,1.00720511925287,1.01130392009478,1.09459464663698,1.010118103499,1.00872605793005,1.00925022323688,1.00980016716535,1.01055634006701,1.01163044930231,1.01143281320301,1.01291078751079,1.01494729862092,1.01533397794563,1.01672602351458,1.01490433425151,1.01105472675219,1.01151874194184,1.01842741254329,1.01872816312918,1.1684503976563,1.0660061552302,1.07772683520581,1.05461200446212,1.05896859152051,1.07652383286227,1.10936579684084,1.07389441345425,1.04573556574159,1.02881619706713,1.0732843194086,1.11739154104702,1.11875780799432,1.08350983932867,1.08614785161057,1.09398455259133,1.14169218838647,1.11396298436793,1.10470845919658,1.09570312736781,1.10311877752833,1.11758917714631,1.09818646791983,1.16455782578757,1.18175216642627,1.17146649638903,1.15403155528161,1.1541346697682,1.14008532097046,1.14143440217,1.14175233850365,1.1341046807483,1.13816911009468,1.17525595377117,1.1433420201719,1.15239890924396,1.16668026563652,1.16106052611743,1.2711352405511,1.13016055163628,1.13916588346504,1.13099406040287,1.10697697790153,1.12191998558305,1.1335203653243,1.13148385421417,1.13817770296857,1.1373785656975,1.18731175582819,1.23418588285674,1.15644615284257,1.15811317037576,1.15732262597858,1.17259216286762,1.1695245068916,1.185790817151,1.17861576745919,1.2001065450391,1.28040695147023,1.19081764837221,1.19438369103341,1.20761671681233,1.16979088598196,1.15212393727972,1.10463112333164,1.11304354686252,1.10086744457114,1.08742818981905,1.18748361330584,1.13963849152858,1.09314245095085,1.06360874341701,1.03257128295374,1.02489784657675,1.027802237949,1.0123694364562,1.01118361986042,1.0002019270387,0.999574647245286,0.995140724321962,0.986547850439551,1.09181055549908,0.98087655367716,0.97798934805267,0.982672464318584,0.983901245283769,0.983480194463531,1.02380655159368,0.987097794368026,0.967274034321304,0.983806723671062,1.04660344600372,1.04747991913972,1.01269596566373,1.01215461460913,1.01639949430705,1.01673461638846,1.02854122510289,1.02576572683887,1.02761319472359,1.03093863691608,1.03105893715044,1.03216741788127,1.03042306448314,1.02708902941676,1.02708902941676,1.02683124320029,1.02640159950617,1.02396981619745,1.02760460184971,1.03963462528508,1.04082044188086,1.01424268296256,1.01241240082561,1.01161326355454,1.01255847968161,1.13013477301463,1.02011161582425,1.01535975656727,1.01563472853151,1.0151535275941,1.01865082726424,1.01995694409436,1.02065296687884,1.02338550077345,1.03085270817726,1.09735295915323,1.11815630682255,1.16399069611133,1.09548830552075,1.08586428677245,1.01783450424541,1.01835007667835,1.01598703636069,1.01652838741528,1.02219968417767,1.02294726420544,1.02143491840214,1.02029206617578,1.02038658778848,1.0231620860525,1.17283276333633
1.00534046562038,1.00443821386273,1.00382811981708,1.00152522961659,1.00174864433754,1.00222125240107,1.00078624246271,1.00301179679825,1.00549513735027,1.00803862801946,1.00716215488345,1.00691296154086,1.09236049942755,1.00931896622794,1.00885495103829,1.05607279302213,1.07199538832624,1.01084849777901,1.0113898488336,1.01238662220396,1.01328887396161,1.01527382782845,1.01549724254939,1.01591829336963,1.01548864967551,1.02199345520449,1.01347791718703,1.02128024667225,1.02027488042801,1.02089356734755,1.11006181962532,1.03190103879091,1.06454536667019,1.05651962246402,1.05654540108567,1.04181721525122,1.04199766560275,1.05309106578494,1.03233068248503,1.05397613179483,1.07787291406181,1.09171603388637,1.08488469914986,1.12564069997413,1.07571610271733,1.07795884280063,1.07852597247687,1.08912957884777,1.08565805779927,1.08057966933477,1.11203818061827,1.1138340912597,1.09840988264077,1.23422025435227,1.11825082843526,1.14561913175073,1.15306915340678,1.12134426303292,1.16051917506283,1.16010671711648,1.14715725617569,1.1365966141742,1.13412186649607,1.17822908813448,1.14170937413424,1.24661977136459,1.14561053887685,1.1718188042182,1.15383391918232,1.14231946817989,1.12430880452236,1.10155487448173,1.10123693814808,1.13332272922501,1.12815841202168,1.12237540789881,1.12490171282024,1.16038168908072,1.17237734102056,1.13364066555865,1.13994783498834,1.14134847343118,1.21352002116954,1.15531189349009,1.15709061838375,1.28475494565473,1.15675549630234,1.15179740807219,1.27847355484668,1.19680688146825,1.17639880599753,1.25091620830579,1.19813018404615,1.13965567727634,1.16783171073677,1.11361067653876,1.13087376016852,1.13120028937605,1.07403189943637,1.07662694734886,1.09582342760217,1.08948188667695,1.05928652785416,1.01755093940729,1.02262073499791,1.02210516256497,1.00559825183686,0.998775509974221,0.999256710911636,1.00000429093941,0.9736757253637,0.9955617751422,0.979183757522325,1.00603648840486,1.00741134822604,1.00748868409099,0.999574647245286,1.02317067892638,1.02370343710709,0.9929237628603,0.983016179273881,1.00970564555265,1.05828116160991,1.01572065727034,1.01641668005481,1.13124325374546,1.02192471221344,1.02740696575041,1.02625552065017,1.02962392721208,1.02822328876924,1.03158310245726,1.03074100081679,1.02924584076125,1.02916850489631,1.02820610302148,1.027364001381,1.0262898921457,1.08864837791035,1.08605332999787,1.0398236685105,1.04045954117779,1.01333183833102,1.01195697850984,1.01181949252772,1.06554214004055,1.12841619823815,1.01896876359789,1.02036940204072,1.01903750658895,1.01896876359789,1.01963041488683,1.01894298497624,1.02371202998098,1.02377218009815,1.02615240616358,1.02339409364733,1.02205360532167,1.0213060252939,1.08355280369808,1.01839304104776,1.01887424198518,1.01797199022753,1.01743923204682,1.01931247855318,1.02329097916074,1.02299022857485,1.0210138675819,1.0208677887259,1.18660714016983,1.17496379605917,1.02574854109111
1.00764335582087,1.00687859004533,1.0059161881705,1.00549513735027,1.00451554972767,1.00241888850036,1.00234155263542,1.00265948896907,1.00760039145146,1.00850264320911,1.01357243879973,1.01457780504397,1.0084596788397,1.00915570162417,1.00974001704818,1.01636512281152,1.01633075131599,1.01242958657337,1.03243379697162,1.01445750480962,1.01401067536774,1.01503322735974,1.01568628577481,1.01571206439645,1.01640808718093,1.0191578068233,1.02311052880921,1.02317927180027,1.0208677887259,1.0215981830059,1.02480332496404,1.03062070058243,1.03508040212741,1.03557878881259,1.04142194305262,1.04198047985498,1.04318348219852,1.04825327778914,1.05060772523292,1.03561316030812,1.07798462142228,1.08609629436728,1.07237347477707,1.08612207298892,1.07288045433613,1.06530153957184,1.06949486202646,1.06778488012386,1.07879235156723,1.11856876476891,1.11837972154349,1.09575468461111,1.09426811742945,1.09455168226757,1.09686316534194,1.10884163153402,1.15850844257435,1.1287341345718,1.11275138915051,1.11055161343662,1.10973529041779,1.11140230795098,1.14191560310742,1.16944717102666,1.16417973933674,1.16945576390054,1.13035818773557,1.13902839748293,1.12019281793268,1.11849142890396,1.11153979393309,1.11386846275523,1.09649367176499,1.09841847551465,1.16223774983932,1.11892966547197,1.10472564494434,1.11045709182391,1.1028438055641,1.13368362992807,1.10224230439233,1.12882006331062,1.15410889114656,1.16382743150756,1.27311160154406,1.17596056942953,1.15299181754184,1.14590269658885,1.14533556691262,1.14602299682321,1.20060493172428,1.15180600094607,1.16598424285205,1.32515863864982,1.31782032435424,1.11566437339665,1.08889757125294,1.18148578733592,1.15693594665387,1.05969898580051,1.07853456535076,1.02061859538331,1.02126306092449,1.02375499435039,1.01121799135595,1.09488680434898,1.07661835447498,1.00246185286978,0.994625151889017,0.990337307821694,1.04806423456373,0.998242751793512,0.986479107448492,1.01291078751079,1.01267877991596,1.00901821564205,1.00224703102272,1.00286571794225,1.00540061573756,1.02821469589536,1.03050040034808,1.01644245867646,1.01784309711929,1.01659713040634,1.01829851943506,1.02119431793343,1.02641019238005,1.02662501422711,1.02696872918241,1.02835218187748,1.0293661409956,1.03138546635797,1.03077537231232,1.03067225782573,1.03085270817726,1.02724370114665,1.02723510827276,1.03291499790904,1.03543270995658,1.03680756977777,1.03856910892366,1.01470669815221,1.01311701648396,1.0118280854016,1.0121718003569,1.03882689514014,1.03421252186528,1.01882268474189,1.01958745051742,1.02018035881531,1.02051548089672,1.02082482435649,1.02376358722427,1.10962358305732,1.02750148736312,1.02667657147041,1.0236518798638,1.02341987226897,1.02300741432262,1.02177004048355,1.02098808896025,1.02022332318472,1.01938981441812,1.01920077119271,1.02076467423931,1.02510407554993,1.02260354925015,1.02099668183414,1.05091706869269,1.03610295411941,1.03641229757918,1.0382082082206
1.00779802755075,1.00652628221616,1.00599352403545,1.00540920861144,1.00525453688156,1.00509127227779,1.00491941480015,1.00580448081003,1.0098775030303,1.00913851587641,1.00925022323688,1.009533788075,1.00939630209288,1.01044463270654,1.01131251296866,1.01166482079784,1.0116820065456,1.01192260701431,1.02082482435649,1.02372062285486,1.01558317128822,1.01594407199128,1.01591829336963,1.0164682372981,1.01838444817388,1.02152944001484,1.02396122332357,1.02392685182804,1.02595477006429,1.02406433781016,1.02607507029864,1.02943488398666,1.0293661409956,1.03538115271329,1.03901593836555,1.11607683134301,1.03586235365071,1.01998272271601,1.0312222017542,1.06098791688287,1.0683004525568,1.062586191425,1.09261828564403,1.03963462528508,1.03819102247284,1.05386442443436,1.08240135859784,1.07733156300722,1.07375692747214,1.0742123497879,1.06540465405843,1.06980420548623,1.09567734874616,1.09597809933205,1.10026594339937,1.10669341306341,1.10817138737119,1.09478368986239,1.09462042525863,1.12810685477838,1.12762565384097,1.13500693250596,1.11635180330724,1.16886285560266,1.11546673729736,1.12503060592848,1.1261906439026,1.11800163509267,1.11416062046723,1.11460744990912,1.12246992951152,1.10043780087702,1.1109039212658,1.08265055194043,1.08186860041713,1.0826677376882,1.09467198250192,1.09810913205489,1.10915956786767,1.13082220292522,1.10424444400693,1.11054302056274,1.17604649816835,1.13172445468288,1.15241609499172,1.22615154577669,1.17057283750525,1.26123624983857,1.14009391384434,1.13662239279585,1.13605526311961,1.13609822748902,1.13688877188621,1.28836395268534,1.28773667289192,1.18638372544889,1.08400822601385,1.07085253609988,1.05602982865272,1.05144123399952,1.05898577726827,1.05955290694451,1.01841881966941,1.0026938604646,1.0014736723733,0.999428568389285,0.999883990705052,1.05957009269228,0.994925902474901,0.992004325354882,0.995252431682433,0.989770178145455,0.987845374395795,1.01840163392165,1.00067453510223,1.00094950706647,1.00564980908015,1.08331220322938,0.99630935516997,1.06266352728994,1.01937262867036,1.01847896978659,1.01951870752636,1.02024050893248,1.02085060297813,1.02639300663229,1.02749289448924,1.02986452768078,1.02793972393112,1.02915131914854,1.03093863691608,1.03209008201633,1.03202133902527,1.02954659134713,1.02917709777019,1.02885056856266,1.02911694765301,1.02630707789346,1.07854315822464,1.03722002772413,1.03623184722765,1.01425986871033,1.01302249487126,1.01193119988819,1.01260144405102,1.15441823460632,1.02139195403273,1.02060140963554,1.02035221629295,1.02262073499791,1.02191611933955,1.02270666373673,1.02247465614191,1.05042727488139,1.0278537951923,1.02732103701159,1.02474317484687,1.02456272449534,1.0244338313871,1.02612662754193,1.02528452590146,1.02348861526003,1.02210516256497,1.02093653171696,1.02503533255887,1.02543919763134,1.0236518798638,1.02347142951227,1.27981404317234,1.27949610683869,1.03102456565491,1.03133390911467
1.00722230500063,1.00560684471074,1.00557247321521,1.00485067180909,1.00661221095498,1.00613101001756,1.0057701093145,1.00584744517945,1.00754024133428,1.00914710875029,1.01022121798559,1.0103157395983,1.01090864789619,1.01164763505007,1.01208587161808,1.01250692243831,1.01300530912349,1.01374429627738,1.02395263044968,1.01770561113717,1.0173962676774,1.01773138975882,1.01829851943506,1.01855630565153,1.02348861526003,1.02340268652121,1.02470880335134,1.02478613921628,1.02732962988547,1.02740696575041,1.02673672158759,1.03010512814949,1.0300020136629,1.03202993189915,1.04650033151713,1.04734243315761,1.04833920652797,1.02112557494237,1.02087638159978,1.05904592738545,1.06432195194925,1.02683124320029,1.02919428351795,1.05376990282165,1.05993099339534,1.02952081272549,1.0696237551347,1.07175478785753,1.05075380408892,1.04565822987665,1.05950134970122,1.08616503735834,1.08678372427787,1.10146035286903,1.09798023894665,1.07684176919592,1.07668709746604,1.0982981752803,1.11066332079709,1.09934650589395,1.10773315080319,1.11086095689638,1.10749255033448,1.10768159355989,1.10875570279519,1.11933353054444,1.11447855680088,1.11610260996465,1.11923900893173,1.11736576242537,1.10097055905773,1.10239697612221,1.10805108713684,1.08460972718562,1.08933580782095,1.08764301166611,1.08155066408348,1.0899459018666,1.09088252511978,1.10661607719847,1.0900404234793,1.09272140013062,1.10892756027284,1.13489522514549,1.26145966455951,1.24484963934481,1.23177987816966,1.23007848914095,1.26232754482163,1.13662239279585,1.13554828356055,1.13449136007301,1.24917185490766,1.10544744635047,1.25800532925878,1.08443786970797,1.08457535569009,1.07639493975404,1.05777418205085,1.06261197004665,1.06108243849558,1.02033503054519,1.04863136423997,1.04037361243897,1.03642948332694,0.999402789767637,1.08903505723506,0.982045184525168,0.982663871444702,0.98379813079718,0.992562862157239,1.02077326711319,0.994831380862195,0.996266390800558,0.996678848746913,1.00300320392437,1.02304178581815,1.02702887929959,1.02335112927792,1.02233717015979,1.07383426333708,1.02580869120828,1.02335112927792,1.13433668834313,1.0295122198516,1.02928880513066,1.03246816846715,1.0320557105208,1.03125657324973,1.03111908726761,1.03224475374621,1.03162606682668,1.0310761228982,1.03166903119609,1.03326730573822,1.02818032439983,1.02768193771465,1.02547356912687,1.02456272449534,1.19049971203856,1.13040115210499,1.01383881789009,1.01322872384444,1.01206868587031,1.01346932431314,1.01438876181856,1.01956167189577,1.01984523673389,1.02195908370896,1.02372062285486,1.02337690789956,1.02358313687274,1.02490643945063,1.1487125663484,1.02708902941676,1.02715777240782,1.02534467601863,1.02552512637017,1.02644456387558,1.026487528245,1.02238872740309,1.02334253640403,1.0235058010078,1.02532749027087,1.02531889739699,1.02489784657675,1.02170129749249,1.05131234089128,1.03286344066574,1.03131672336691,1.03160028820503,1.03074100081679
1.00726526937004,1.00829641423593,1.00414605615073,1.00436087799779,1.39223461217592,1.00793551353287,1.00901821564205,1.00980876003924,1.0086057576957,1.00891510115547,1.01004936050794,1.01131251296866,1.01175074953666,1.01247255094278,1.0129537518802,1.01297953050185,1.01364977466467,1.02702887929959,1.02134039678943,1.02007724432872,1.01846178403882,1.01828992656118,1.01962182201295,1.01875394175083,1.02311052880921,1.02133180391555,1.02236294878144,1.02880760419325,1.02897086879701,1.02838655337301,1.02787957381395,1.06080746653134,1.11337007607005,1.05063350385457,1.04632847403948,1.04465286363241,1.04409432683005,1.03857770179755,1.05056476086351,1.02149506851931,1.04815875617643,1.02630707789346,1.04552933676842,1.02273244235838,1.01102894813054,1.01334902407879,1.03561316030812,1.0234542437645,1.02793972393112,1.02851544648124,1.08271070205761,1.06590304074361,1.09451731077204,1.12112084831198,1.09037554556072,1.0768503620698,1.07700503379969,1.10520684588176,1.10922831085873,1.11086954977027,1.09543674827746,1.09528207654757,1.14840322288864,1.16177373464967,1.09649367176499,1.09589217059323,1.088528077676,1.09542815540357,1.08879445676635,1.08875149239694,1.08954203679412,1.1046483090794,1.10559352520647,1.07416079254461,1.07391159920202,1.07117906530741,1.07217583867777,1.07715111265569,1.08849370618047,1.07696206943027,1.09263547139179,1.15597354477904,1.15523455762515,1.11392001999852,1.11341304043946,1.16415396071509,1.1671786523217,1.21065000129282,1.24656821412129,1.24719549391471,1.20427408887207,1.13578888402926,1.14352247052343,1.08458394856397,1.07880953731499,1.14336779879354,1.06585148350032,1.06553354716667,1.08648297369199,1.09576327748499,1.01475825539551,1.01260144405102,1.00253059586083,1.04555511539006,1.01138125595972,1.00125025765236,1.03471090855046,0.974277226535469,0.983463008715766,0.968305179187194,0.967213884204128,0.994900123853254,0.996764777485737,0.999944140822229,0.99698819220668,1.03868081628414,1.02932317662619,1.02455413162145,1.0239955948191,1.03373991380175,1.03064647920408,1.02964970583372,1.02738118712877,1.02971844882478,1.03381724966669,1.03324152711657,1.03318137699939,1.03223616087233,1.03381724966669,1.02922865501348,1.03551863869541,1.03273454755751,1.02714917953394,1.03290640503516,1.03448749382952,1.02718355102947,1.02689139331747,1.02674531446147,1.02809439566101,1.02250043476356,1.11147105094204,1.01487855562986,1.01347791718703,1.01212883598749,1.01279048727643,1.16863084800783,1.01939840729201,1.02169270461861,1.0221395340605,1.02329097916074,1.02682265032641,1.02482910358569,1.16071681116213,1.04595898046254,1.02928880513066,1.02886775431042,1.02604069880311,1.02691717193912,1.02775068070571,1.03013949964502,1.02706325079512,1.02784520231842,1.02984734193302,1.0265820498577,1.0279998740483,1.02683983607417,1.02363469411604,1.02392685182804,1.02914272627466,1.07656679723168,1.0323478682328,1.0309300440422
1.00822767124487,1.00479911456579,1.00386249131261,1.00449836397991,1.00626849599968,1.008949472651,1.01067664030136,1.01079694053571,1.01090864789619,1.01147577757242,1.01190542126654,1.01170778516725,1.01193119988819,1.01296234475408,1.01330605970938,1.0123694364562,1.01287641601526,1.01441454044021,1.01728456031693,1.02377218009815,1.03634355458812,1.01968197213013,1.01965619350848,1.02016317306754,1.0214521041499,1.02278399960168,1.0329837409001,1.03064647920408,1.02999342078902,1.02862715384172,1.0293661409956,1.03230490386339,1.03235646110668,1.11523472970253,1.03863785191472,1.04576993723712,1.04701590395007,1.04808142031149,1.05023823165598,1.04566682275054,1.02766475196689,1.02783660944453,1.0332758986121,1.0144660976835,1.01267877991596,1.02129743242002,1.01741345342517,1.01439735469244,1.01670024489293,1.04023612645685,1.04757444075243,1.04952502312374,1.09454308939369,1.08289974528302,1.07063771425282,1.08616503735834,1.07416079254461,1.0832520531122,1.14017984258317,1.11467619290017,1.10238838324833,1.10331641362763,1.20728159473091,1.15043973399877,1.10765581493824,1.07359366286837,1.10558493233258,1.08129287786701,1.08365591818467,1.09778260284736,1.08258180894937,1.09040132418236,1.08387933290562,1.09890826932595,1.0741178281752,1.06926285443163,1.06633268443773,1.06603193385185,1.08312316000396,1.1387963898881,1.09796305319889,1.09311667232921,1.15828502785341,1.10983840490438,1.11203818061827,1.17849546722484,1.24670570010341,1.24606982743611,1.24677444309447,1.24850161074484,1.2582888940969,1.25004832804367,1.14051496466458,1.14300689809048,1.10372887157398,1.0649320459949,1.0683520098001,1.06467425977843,1.11138512220321,1.06915973994505,1.06085043090075,1.00923303748911,1.02641019238005,1.02631567076735,0.999823840587876,0.999806654840111,1.0253618617664,0.977112874916664,0.981117154145868,0.97053932639662,0.97053932639662,0.965383602067174,0.971140827568389,1.04870010723103,1.03757233555331,1.03795042200413,1.08542605020445,1.08514248536633,1.03304389101727,1.03259706157539,1.03243379697162,1.0318580744215,1.02973563457255,1.02992467779796,1.03388599265775,1.03346494183751,1.03392895702716,1.29669904035128,1.05087410432328,1.04544340802959,1.0456840084983,1.17437088776128,1.17231719090338,1.06262915579441,1.04735102603149,1.04073451314203,1.02763038047136,1.02754445173253,1.02727807264218,1.02512985417157,1.02800846692218,1.01478403401715,1.0135380673042,1.01232647208678,1.01277330152867,1.07801040004393,1.04345845416276,1.02818032439983,1.0234542437645,1.02334253640403,1.02329957203462,1.02567120522617,1.02665938572264,1.02367765848545,1.02782801657065,1.02823188164312,1.02796550255277,1.02775068070571,1.03021683550996,1.03124798037585,1.03080974380785,1.02890212580595,1.02796550255277,1.02719214390335,1.02762178759747,1.02811158140877,1.02538764038805,1.02541341900969,1.06262056292053,1.27257025048947,1.03219319650292,1.03239942547609
1.00650909646839,1.00512564377332,1.00419761339402,1.00546935872862,1.00579588793615,1.00846827171358,1.00851123608299,1.009679866931,1.0067496969371,1.01321153809667,1.01494729862092,1.0155402069188,1.01431142595362,1.01465514090892,1.01210305736584,1.01199135000537,1.01444031906186,1.01662290902799,1.02062718825719,1.02376358722427,1.02353157962945,1.02089356734755,1.02056703814001,1.02029206617578,1.02595477006429,1.0262898921457,1.03325871286433,1.03288921928739,1.04074310601591,1.02866152533725,1.02888494005819,1.03227912524174,1.03218460362903,1.03402347863987,1.03489135890199,1.03312122688222,1.0334735347114,1.027802237949,1.02793113105724,1.02909116903137,1.03100737990714,1.02815454577818,1.02676250020923,1.05449170422777,1.05468074745318,1.01520508483739,1.01027277522889,1.00994624602136,1.00309772553707,1.01380444639456,1.03404066438763,1.05393316742541,1.0944399749071,1.05444014698448,1.08882882826188,1.08929284345153,1.09124342582284,1.09757637387418,1.09466338962804,1.12213480743011,1.08175689305666,1.11512302234206,1.19351581077129,1.13538501895678,1.08047655484818,1.08880304964024,1.06946049053093,1.08075152681242,1.08448083407738,1.06071294491864,1.07242503202036,1.08338953909432,1.07966023182935,1.07798462142228,1.07728000576392,1.08132724936254,1.08179985742607,1.07642071837568,1.07351632700343,1.06049812307158,1.0583842760965,1.16067384679272,1.09033258119131,1.09683738672029,1.10437333711516,1.1977606904692,1.10517247438623,1.2453909903994,1.21541045342367,1.11491679336888,1.1135419335477,1.11243345281687,1.13960412003305,1.13853001079775,1.10519825300788,1.06540465405843,1.06789658748433,1.08153347833572,1.08162799994842,1.08870852802753,1.03648104057024,1.01183667827549,1.00766913444252,1.03673023391283,1.00685281142369,1.03186666729538,0.991454381426408,0.974182704922762,0.9701096827025,0.969405067044142,0.970367468918972,0.968562965403666,0.99431580842925,0.979819630189624,1.06810281645751,1.02949503410384,1.03674741966059,1.03554441731706,1.03280329054857,1.0335680563241,1.03328449148598,1.03187526016927,1.03118783025867,1.03075818656455,1.03276891905304,1.03320715562104,1.0327861048008,1.04485049973171,1.15160836484677,1.02509548267604,1.02364328698992,1.02329957203462,1.02280977822332,1.02180441197908,1.02176144760967,1.08015002564065,1.08069996956912,1.02488066082898,1.02844670349018,1.03251113283657,1.0315659167095,1.03306966963892,1.01322013097055,1.01218898610466,1.01303108774514,1.05025541740374,1.12190279983528,1.02657345698382,1.0234542437645,1.0242361952878,1.02384092308921,1.02592899144264,1.02627270639794,1.02628129927182,1.02930599087843,1.02819751014759,1.02705465792123,1.02766475196689,1.02903101891419,1.03188385304315,1.03038869298761,1.02897946167089,1.02846388923795,1.0293661409956,1.02769912346242,1.02665079284876,1.02386670171086,1.02378936584592,1.27618785039396,1.10646999834247,1.26491399986024,1.03495150901917
1.00691296154086,1.00833078573146,1.08350124645479,1.0322017893768,1.0430459962164,1.02742415149818,1.01242099369949,1.01291938038467,1.01285923026749,1.01293656613243,1.01522227058516,1.01731893181246,1.01735330330799,1.01432861170138,1.01430283307974,1.01590970049575,1.01694943823552,1.02095371746472,1.02296444995321,1.02495799669393,1.02498377531557,1.02630707789346,1.02184737634849,1.02186456209626,1.02411589505345,1.02830921750807,1.03256269007986,1.03704817024648,1.06344547881324,1.05626183624755,1.03300092664786,1.03219319650292,1.03068944357349,1.03593968951565,1.03624044010153,1.03319856274716,1.02697732205629,1.04385372636135,1.05444014698448,1.05548847759813,1.02923724788737,1.03207289626856,1.0232136432958,1.02210516256497,1.04545200090348,1.01741345342517,1.01444891193574,1.00604508127874,1.00726526937004,1.03037150723984,1.01763686814611,1.02381514446757,1.01931247855318,1.04423181281217,1.05877954829509,1.05456044721883,1.08063981945195,1.07696206943027,1.09505006895275,1.09469776112357,1.07142825865,1.06633268443773,1.20166185521182,1.19662643111672,1.06934878317046,1.06208780473982,1.08414571199597,1.05334885200141,1.05295357980282,1.05393316742541,1.05662273695061,1.0571640880052,1.05964742855722,1.05420813938965,1.05992240052145,1.04884618608703,1.07285467571448,1.22577345932586,1.06784503024104,1.10866977405637,1.18733753444984,1.30404594752074,1.06811140933139,1.18420972835664,1.16663730126711,1.18415817111335,1.10253446210433,1.09947539900219,1.1956124719986,1.21623536931638,1.11263968179004,1.23532014220922,1.25902788125079,1.11991784596844,1.12411976129694,1.05960446418781,1.06339392156995,1.06079028078358,1.08694698888164,1.04532310779524,1.10720898549636,1.0115359276896,1.00902680851594,1.00106121442694,0.996094533322909,1.1668864946097,0.967248255699657,0.969533960152378,0.960648928557966,0.961817559405974,0.941942242115958,0.943067908594554,0.952734891712266,1.01314279510561,1.0330782625128,1.03361102069351,1.03710832036365,1.03880970939237,1.03535537409164,1.0346421655594,1.03569049617306,1.03181511005209,1.03204711764691,1.03152295234009,1.0336196135674,1.03372272805399,1.03238223972833,1.03058632908691,1.19035363318256,1.02543919763134,1.02413308080121,1.02340268652121,1.02262932787179,1.02186456209626,1.02158959013202,1.0217958191052,1.02166692599696,1.07714251978181,1.07003621308105,1.0757762528345,1.0152480492068,1.01456061929621,1.01289360176302,1.01206868587031,1.045194214687,1.44878431519606,1.15829362072729,1.02456272449534,1.02579150546052,1.02539623326193,1.02645315674947,1.02652189974052,1.02833499612971,1.02911694765301,1.0293661409956,1.02915991202242,1.02693435768688,1.02645315674947,1.02697732205629,1.0295637770949,1.19295727396893,1.06271508453324,1.06193313300994,1.05520491276001,1.05963024280945,1.28796008761286,1.03387739978387,1.27315456591347,1.1041585152681,1.26876360735956,1.24934371238531,1.03598265388506
1.0146121765395,1.01025558948112,1.01172497091501,1.01399348961997,1.01504182023362,1.07396315644531,1.01347791718703,1.01497307724257,1.0145176549268,1.01514493472021,1.01624482257716,1.01737048905576,1.018083697588,1.01859927002094,1.01664868764964,1.017937618732,1.02117713218567,1.02197626945673,1.02434790264828,1.02607507029864,1.02621255628076,1.02647034249723,1.02186456209626,1.02357454399886,1.02362610124215,1.02750148736312,1.03292359078292,1.03850895880649,1.03955728942014,1.05688911604096,1.05433703249789,1.03331886298151,1.03196118890809,1.03465075843329,1.03804494361684,1.03829413695943,1.0355701959387,1.07987505367641,1.03050899322196,1.01794621160588,1.02895368304925,1.02462287461251,1.07457325049096,1.02760460184971,1.02727807264218,1.01938122154424,1.0140278611155,1.01269596566373,1.01267018704208,1.01810088333576,1.01827274081341,1.02605788455087,1.02415885942286,1.0178860614887,1.04278820999993,1.04729087591431,1.03632636884036,1.0961499568097,1.07434124289614,1.04937035139385,1.06972686962128,1.06095354538734,1.12796077592238,1.12735927475061,1.04821031341973,1.05059053948516,1.05083113995386,1.04613083794019,1.08115539188489,1.11886951535479,1.13136355397982,1.070990022082,1.0645883310396,1.07245940351589,1.07014792044152,1.05712112363579,1.2311783769979,1.13570295529043,1.03963462528508,1.03911905285214,1.10345389960975,1.088820235388,1.06637564880714,1.28321682122977,1.17403576567987,1.16894878434148,1.09899419806478,1.10566226819753,1.1740185799321,1.13046989509605,1.12272771572799,1.20301093641135,1.34722513877985,1.10170095333773,1.05941542096239,1.05320277314541,1.05377849569553,1.04734243315761,1.04143912880039,1.03946276780744,1.02649612111888,1.00593337391827,1.00644894635121,1.01247255094278,1.01157889205901,0.987037644250849,1.04171410076463,0.950449187259545,0.95545883273299,0.96265966104645,0.962934633010687,1.02812876715654,1.02655627123605,1.03569049617306,1.03509758787517,1.0338602140361,1.0352780382267,1.03563893892976,1.03829413695943,1.03581938928129,1.02877323269772,1.0292200621396,1.03157450958338,1.03295796227845,1.03353368482857,1.03241661122386,1.02894509017536,1.03003638515843,1.07878375869335,1.02528452590146,1.02388388745862,1.02331675778239,1.02254339913297,1.02189034071791,1.0217442618619,1.02242309889862,1.02158099725814,1.07275156122789,1.01731893181246,1.01616748671222,1.01527382782845,1.0142254972148,1.01257566542937,1.01199994287925,1.2447551177321,1.10900489613778,1.04440367028982,1.02546497625299,1.02546497625299,1.02530171164922,1.02537045464028,1.02470880335134,1.02909116903137,1.02774208783183,1.02715777240782,1.02743274437206,1.02681405745253,1.0264359710017,1.02620396340688,1.0262898921457,1.02744993011983,1.035621753182,1.11469337864794,1.11929915904891,1.30041116186848,1.30047990485954,1.02214812693438,1.27369591696806,1.11043990607615,1.26736296891673,1.24435984553351,1.03710832036365
1.06241433394735,1.01309123786232,1.01306545924067,1.0136841461602,1.01444891193574,1.01523086345904,1.0146637337828,1.01395911812444,1.01489574137762,1.01540272093669,1.01596985061292,1.01733611756023,1.01827274081341,1.02025769468025,1.01910624958,1.018814091868,1.02041236641013,1.0233081649085,1.02402137344074,1.02506111118052,1.02641878525394,1.02397840907133,1.02358313687274,1.02383233021533,1.11856876476891,1.03118783025867,1.03662711942624,1.04015879059191,1.0402103478352,1.04143053592651,1.03828554408554,1.0376238927966,1.03387739978387,1.03533818834388,1.03691927713824,1.03797620062578,1.03550145294764,1.04830483503244,1.04765177661737,1.04169691501686,1.02968407732925,1.03145420934903,1.07352491987731,1.07142825865,1.01423409008868,1.0172501888214,1.01731893181246,1.05863346943909,1.05886547703392,1.04445522753312,1.01443172618797,1.036206068606,1.01761968239835,1.0310761228982,1.01611592946893,1.01277330152867,1.02997623504125,1.04916412242068,1.03749499968836,1.03086130105114,1.03219319650292,1.03593109664176,1.018668013012,1.01865082726424,1.03074100081679,1.06337673582218,1.03938543194249,1.04082903475474,1.04901804356468,1.0290739832836,1.03582798215518,1.03682475552554,1.03636933320977,1.02862715384172,1.02726088689441,1.08071715531689,1.02754445173253,1.03086130105114,1.03069803644738,1.03071522219514,1.03585376077682,1.18963183177644,1.07761512784534,1.04851106400561,1.10603176177447,1.12528839214495,1.19380796848329,1.21030628633752,1.20935247733657,1.12600160067719,1.12545165674872,1.32279559833216,1.32119732379003,1.11066332079709,1.0855979076821,1.1345944745596,1.04947346588044,1.03349072045916,1.03536396696553,1.02504392543275,1.02537904751416,1.01028136810277,1.0161760795861,1.01635652993763,1.00784958479405,0.987819595774148,0.9578476516723,0.958964725277013,1.07601685330321,1.05775699630309,0.999462939884814,1.00955097382276,1.01529101357621,1.13715515097656,1.03488276602811,1.03380006391893,1.03424689336081,1.03575064629023,1.03339619884645,1.03707394886813,1.03679038403001,1.03061210770855,1.03245957559327,1.03233068248503,1.03367976368457,1.03419533611752,1.03151435946621,1.03035432149208,1.02675390733535,1.02455413162145,1.02407293068404,1.02342846514286,1.02241450602473,1.02621255628076,1.02617818478523,1.02368625135933,1.02205360532167,1.07361084861613,1.0687902463681,1.01628778694657,1.01479262689103,1.01349510293479,1.01230069346514,1.07579343858227,1.24076802425067,1.10182984644597,1.02061000250943,1.0242877525311,1.0241416736751,1.02417604517063,1.02494081094616,1.02641019238005,1.02715777240782,1.02628129927182,1.02605788455087,1.02621255628076,1.027510080237,1.02799128117442,1.02572276246946,1.0248720679551,1.03135968773632,1.01789465436258,1.01580658600916,1.12190279983528,1.11903277995856,1.02045533077954,1.02143491840214,1.03149717371844,1.02787098094006,1.03154013808785,1.03132531624079,1.04454115627194
1.01723300307364,1.01552302117104,1.01549724254939,1.0144660976835,1.01346073143926,1.01630497269434,1.01569487864869,1.01376148202515,1.01562613565763,1.0159354791174,1.01623622970328,1.01750797503788,1.01829851943506,1.01990538685107,1.01953589327413,1.02244028464638,1.02177004048355,1.02265510649344,1.02360891549439,1.02452835299981,1.02616959191135,1.02619537053299,1.02544779050522,1.19892072844333,1.08646578794422,1.03626621872318,1.03751218543613,1.03891282387896,1.04042516968227,1.04117274971003,1.03793323625637,1.03681616265165,1.03499447338858,1.03508040212741,1.03536396696553,1.03653259781353,1.03516633086623,1.04699012532843,1.04726509729266,1.04108682097121,1.03091285829444,1.03222756799845,1.04116415683615,1.04147350029592,1.01193979276207,1.01188823551878,1.06321347121842,1.0548182334353,1.07419516404014,1.02051548089672,1.01975071512119,1.01283345164585,1.02440805276545,1.03076677943844,1.02715777240782,1.00966268118324,1.04442944891147,1.03294936940457,1.01272174428537,1.03111908726761,1.02416745229674,1.02548216200075,1.02349720813392,1.01206868587031,1.01236084358231,1.01517071334186,1.07215865293001,1.17482631007705,1.027656159093,1.02726088689441,1.02650471399276,1.02645315674947,1.05521350563389,1.02775068070571,1.17546218274435,1.02328238628686,1.02699450780406,1.03015668539278,1.03239083260221,1.03250253996268,1.03210726776409,1.03046602885255,1.14150314516106,1.0498343665835,1.06842934566504,1.08616503735834,1.13690595763397,1.12717882439908,1.21327942070084,1.1271702315252,1.12569225721742,1.22469935009056,1.21987015496864,1.17287572770574,1.08348406070702,1.13333132209889,1.062732270281,1.03104175140267,1.02822328876924,1.02626411352405,1.01547146392774,1.00864012919123,0.993963500600072,0.995003238339843,0.985920570646135,0.986307249970844,0.965692945526941,0.96629444669871,0.996343726665499,1.053598045344,1.04505672870488,1.01106331962607,1.03863785191472,1.08086323417289,1.03270876893586,1.03218460362903,1.03271736180974,1.03282906917021,1.03456482969446,1.03260565444927,1.03520070236176,1.03532100259611,1.03250253996268,1.03502884488411,1.03463357268552,1.0345476439467,1.0349343232714,1.03370554230622,1.03001919941067,1.18683914776466,1.0357162747947,1.02418463804451,1.02467443185581,1.02478613921628,1.0262898921457,1.02446820288263,1.02207079106944,1.02202782670002,1.02067874550049,1.01663150190187,1.01444031906186,1.01318575947502,1.01268737278984,1.12753972510214,1.13396719476619,1.0221395340605,1.02333394353015,1.0322963109895,1.0242877525311,1.02421041666616,1.02455413162145,1.02604929167699,1.02622114915464,1.02572276246946,1.02511266842381,1.02456272449534,1.02645315674947,1.026779685957,1.02366047273768,1.30988910176078,1.01376148202515,1.01244677232114,1.01338339557432,1.19387671147435,1.1881882289642,1.03040587873537,1.03520070236176,1.03451327245117,1.03686771989495,1.13214550550311,1.25762724280796,1.24050164516031
1.01552302117104,1.01513634184633,1.01486996275598,1.01480121976492,1.01464654803503,1.0173017460647,1.01726737456917,1.0173017460647,1.0154456853061,1.0157378430181,1.01598703636069,1.01818681207459,1.01821259069623,1.01865942013812,1.02024910180637,1.02178722623132,1.02238872740309,1.0235058010078,1.02388388745862,1.02396981619745,1.02454553874757,1.02548216200075,1.02925443363513,1.0332758986121,1.03612013986718,1.03807072223848,1.03834569420272,1.03795042200413,1.03813087235566,1.03804494361684,1.03813946522954,1.03508899500129,1.03504603063188,1.03510618074905,1.03353368482857,1.03604280400224,1.03587094652459,1.03582798215518,1.06915114707116,1.03883548801402,1.03337901309869,1.03206430339468,1.0339117712794,1.03519210948788,1.02344565089062,1.13112295351111,1.05265282921694,1.06850668152998,1.06079028078358,1.06123711022546,1.06428758045372,1.02352298675556,1.02374640147651,1.02110838919461,1.01484418413433,1.00497956491732,1.0207217098699,1.01578080738751,1.06320487834454,1.05583219255343,1.02559386936122,1.02627270639794,1.02308475018756,1.00956815957053,1.01218039323078,1.01771420401105,1.01079694053571,1.07031118504529,1.17526454664505,1.0985903329923,1.03834569420272,1.02622114915464,1.14702836306745,1.02625552065017,1.02255199200685,1.1745083737434,1.05417376789412,1.05058194661127,1.03433282209964,1.03360242781963,1.03348212758528,1.14815402954605,1.14699399157192,1.28829520969428,1.05928652785416,1.05929512072804,1.10086744457114,1.13067612406922,1.14564491037238,1.18780154963949,1.12224651479058,1.12244415088987,1.31986542833826,1.16899174871089,1.15477913530938,1.08906942873059,1.07069786437,1.0647859671389,1.0242361952878,1.02725229402053,1.04419744131664,1.03411800025258,1.09462042525863,0.989271791460275,0.98978736389322,0.9912137809577,1.02742415149818,1.14620344717474,1.14902190980817,1.02418463804451,1.01755093940729,1.01770561113717,1.14630656166133,1.03004497803231,1.03079255806008,1.03143702360126,1.03239942547609,1.0340062928921,1.03319856274716,1.03532959547,1.03399770001822,1.03480543016317,1.03411800025258,1.03572486766859,1.03529522397447,1.03506321637964,1.03359383494575,1.03439297221681,1.06503516048149,1.04057124853827,1.03015668539278,1.02539623326193,1.02500096106334,1.0259977344337,1.02497518244169,1.02448538863039,1.02139195403273,1.02105683195131,1.02233717015979,1.06035204421557,1.01478403401715,1.01438016894468,1.01721581732587,1.17082203084784,1.02116853931178,1.02158959013202,1.02169270461861,1.0215981830059,1.02656486410994,1.0252157829104,1.02525874727981,1.0249236251984,1.0247775463424,1.02445101713486,1.02502673968499,1.02519859716263,1.02518141141487,1.02494081094616,1.05120063353081,1.05434562537177,1.01498167011645,1.01308264498843,1.01317716660114,1.05142404825175,1.20125799013934,1.27955625695587,1.27670342282691,1.03656696930906,1.03656696930906,1.09053881016448,1.08973108001954,1.07975475344206
1.01719863157811,1.01780013274988,1.01517930621574,1.0145176549268,1.01503322735974,1.01728456031693,1.01694943823552,1.0166658733974,1.01674320926234,1.0155402069188,1.01580658600916,1.01782591137153,1.01790324723647,1.01796339735364,1.02000850133766,1.02248324901579,1.02407293068404,1.02432212402663,1.02532749027087,1.02484628933345,1.02615240616358,1.02713199378618,1.03050899322196,1.03604280400224,1.03570768192082,1.03740907094954,1.17834938836884,1.06073872354028,1.03731454933683,1.03731454933683,1.03396332852269,1.03323293424269,1.03357664919798,1.03456482969446,1.03717706335471,1.03646385482247,1.03674741966059,1.03736610658013,1.04934457277221,1.03612873274106,1.03504603063188,1.03597406101118,1.03398910714434,1.03354227770245,1.03974633264555,1.03068944357349,1.08103509165054,1.04467004938018,1.0532543303887,1.05384723868659,1.05343478074023,1.05584078542731,1.01578940026139,1.01328887396161,1.01935544292259,1.03172918131327,1.04470442087571,1.11317243997075,1.02679687170476,1.026487528245,1.02683124320029,1.02700310067794,1.01846178403882,1.00872605793005,1.01502463448586,1.01445750480962,1.01051337569759,1.01140703458136,1.14841181576252,1.01999990846378,1.0188656491113,1.01933825717483,1.02095371746472,1.02331675778239,1.02305897156591,1.0235058010078,1.02053266664448,1.04502235720935,1.03111049439373,1.03380006391893,1.03490854464976,1.03936824619473,1.10653014845965,1.09225738494097,1.09863329736171,1.11693611873125,1.11807897095761,1.15707343263599,1.15484787830044,1.16869959099889,1.20262425708665,1.17893370379284,1.16471249751745,1.3200888430592,1.15610243788728,1.32107702355568,1.14701977019357,1.2244329710002,1.02702887929959,1.0267281287137,1.03218460362903,1.04252183090957,1.03848318018484,1.07752060623263,1.02370343710709,1.02574854109111,1.02187315497014,1.01806651184023,1.02236294878144,1.02352298675556,1.0175939037767,1.0928245146172,1.03202133902527,1.03285484779186,1.03248535421492,1.03279469767468,1.03374850667563,1.03603421112835,1.03613732561494,1.03528663110058,1.03579361065965,1.03754655693166,1.03750359256225,1.03763248567048,1.03910186710437,1.03538115271329,1.03456482969446,1.03524366673117,1.03566471755141,1.03666149092177,1.0319096316648,1.02650471399276,1.02615240616358,1.02494940382004,1.02425338103557,1.02309334306144,1.0221395340605,1.02126306092449,1.02207079106944,1.06012003662075,1.01774857550658,1.01706973846987,1.01731033893858,1.27831029024292,1.02016317306754,1.02079045286096,1.02025769468025,1.02303319294427,1.02589461994711,1.0257055767217,1.02660782847935,1.02693435768688,1.02535326889252,1.02491503232451,1.02378936584592,1.0250181468111,1.02625552065017,1.33341639045082,1.32616400489406,1.13742153006692,1.01300530912349,1.01160467068066,1.01195697850984,1.18982946787574,1.0893100291993,1.28047569446129,1.03589672514623,1.0393338746992,1.03845740156319,1.03907608848273,1.25481737304841,1.04268509551334
1.01735330330799,1.01892579922847,1.01445750480962,1.01438016894468,1.01737048905576,1.01873675600306,1.0195015217786,1.01633075131599,1.01599562923457,1.01614170809057,1.01600422210845,1.01836726242612,1.01865942013812,1.02041236641013,1.02153803288873,1.02242309889862,1.02357454399886,1.02470021047745,1.02452835299981,1.0292200621396,1.02873886120219,1.02980437756361,1.03126516612362,1.03523507385729,1.03613732561494,1.03673882678671,1.03357664919798,1.03467653705493,1.03523507385729,1.03609436124553,1.03417815036975,1.0340578501354,1.03364539218904,1.03488276602811,1.03628340447094,1.0374778139406,1.04207500146769,1.04261635252228,1.04215233733263,1.07027681354976,1.03476246579376,1.03517492374011,1.03514914511847,1.03578501778576,1.03943698918579,1.04015019771803,1.0292200621396,1.02910835477913,1.12457518361271,1.12248711525929,1.05801478251956,1.05937245659298,1.07422094266179,1.0190117279673,1.04330378243287,1.01448328343127,1.02192471221344,1.02407293068404,1.02326520053909,1.0401158262225,1.04116415683615,1.02552512637017,1.00656924658557,1.0149558914948,1.01449187630515,1.01445750480962,1.0245799102431,1.0084081215964,1.00261652459966,1.15086937769289,1.0173962676774,1.02096231033861,1.02036940204072,1.01947574315695,1.01859927002094,1.0163737156854,1.02024050893248,1.02062718825719,1.02959814859043,1.05209429241458,1.03915342434767,1.03862925904084,1.04389669073076,1.07594811031215,1.09703502281959,1.06861838889045,1.16616469320358,1.15563842269763,1.13963849152858,1.13627867784055,1.14593706808438,1.15708202550987,1.19208080083293,1.17871888194578,1.11370519815146,1.15818191336682,1.16008953136871,1.28294184926554,1.11364504803429,1.09732718053159,1.08279663079643,1.07824240763875,1.04385372636135,1.0829083381569,1.0483220207802,1.02684842894806,1.03995256161873,1.03785590039142,1.03444452946011,1.03518351661399,1.03636074033588,1.0374778139406,1.03707394886813,1.03652400493965,1.03634355458812,1.03549286007376,1.03515773799235,1.03583657502906,1.03557878881259,1.03541552420882,1.03642089045306,1.04118134258392,1.03876674502296,1.03736610658013,1.03812227948178,1.03845740156319,1.03621466147988,1.035621753182,1.03654119068742,1.03653259781353,1.03551863869541,1.02789675956171,1.02818891727371,1.02893649730148,1.03064647920408,1.02839514624689,1.02767334484077,1.02577431971276,1.02705465792123,1.02309334306144,1.05684615167155,1.20533101235961,1.41460186289183,1.41204118647487,1.02387529458474,1.02390107320639,1.02426197390945,1.02347142951227,1.02781083082289,1.02948644122996,1.02984734193302,1.03030276424879,1.02918569064407,1.02703747217347,1.02636722801064,1.02634144938899,1.0803218831183,1.14938281051123,1.01596125773904,1.01357243879973,1.01169059941948,1.01091724077007,1.01106331962607,1.04517702893924,1.05079676845833,1.2921448171936,1.03929091032979,1.27892038428857,1.08628533759269,1.04025331220462,1.04088918487192,1.04156802190863
1.01780872562376,1.02002568708542,1.01372711052962,1.03262284019704,1.22647807498422,1.02103105332966,1.02156381151037,1.02219109130379,1.02147788277155,1.01999131558989,1.01854771277765,1.01804073321859,1.01939840729201,1.0202834733019,1.02107401769908,1.02337690789956,1.02504392543275,1.02467443185581,1.02725229402053,1.02915131914854,1.02922865501348,1.03042306448314,1.03217601075515,1.03260565444927,1.03555301019094,1.03559597456035,1.03340479172034,1.03302670526951,1.0338602140361,1.03726299209354,1.03692787001212,1.03515773799235,1.03583657502906,1.0337141351801,1.03754655693166,1.03760670704883,1.04119852833168,1.04430914867711,1.04465286363241,1.05401050329036,1.03379147104504,1.03308685538669,1.03349072045916,1.03039728586149,1.03926513170814,1.03972055402391,1.0300535709062,1.02919428351795,1.02920287639184,1.1224785223854,1.10205326116691,1.0675700582768,1.03508040212741,1.03487417315423,1.03373991380175,1.0217442618619,1.01267877991596,1.01216320748302,1.01619326533387,1.01619326533387,1.04587305172371,1.03257128295374,1.01631356556822,1.01639949430705,1.0132974668355,1.01282485877196,1.0487602573482,1.04735102603149,1.15063737009806,1.16551163478852,1.01903750658895,1.02635863513676,1.02662501422711,1.35972777027876,1.01741345342517,1.01883127761577,1.02336831502568,1.02373780860262,1.05777418205085,1.06243151969512,1.25877009503432,1.04746273339196,1.06266352728994,1.05444873985836,1.05529943437272,1.07396315644531,1.13745590156244,1.10568804681917,1.10556774658482,1.11108437161733,1.11125622909498,1.09025524532636,1.08833903445059,1.40669641892001,1.08862259928871,1.08698995325105,1.07472792222085,1.03892141675284,1.10667622731565,1.04135320006157,1.04463567788465,1.04425759143382,1.04558089401171,1.04511687882206,1.04016738346579,1.18371993454534,1.03851755168037,1.03707394886813,1.03663571230012,1.03554441731706,1.03950573217685,1.03909327423049,1.03863785191472,1.03752937118389,1.03836287995049,1.03353368482857,1.03415237174811,1.03351649908081,1.03499447338858,1.03632636884036,1.04868292148326,1.04101807798015,1.04076888463756,1.03720284197636,1.03805353649072,1.04020175496132,1.03799338637354,1.036498226318,1.03559597456035,1.03666149092177,1.03532959547,1.03508040212741,1.0303457286182,1.03232208961115,1.0318580744215,1.0321502321335,1.03174636706103,1.02882478994101,1.02771630921018,1.05975054304381,1.42088325369987,1.05897718439439,1.22854895758988,1.21102808774364,1.21089060176153,1.027364001381,1.02480332496404,1.03071522219514,1.03103315852879,1.03248535421492,1.03250253996268,1.02940910536501,1.02940051249113,1.02948644122996,1.02678827883088,1.1480766936811,1.0187195702553,1.12246992951152,1.01438016894468,1.0121202431136,1.01120080560819,1.01050478282371,1.04654329588654,1.04902663643856,1.05245519311764,1.05454326147107,1.03186666729538,1.03632636884036,1.04117274971003,1.08021876863171,1.04352719715382,1.0442661843077
1.02024910180637,1.02117713218567,1.02397840907133,1.01794621160588,1.0235058010078,1.02221686992544,1.02328238628686,1.0225777706285,1.02158099725814,1.02128883954614,1.02013739444589,1.01954448614801,1.02055844526613,1.01960463626518,1.02215671980826,1.02327379341297,1.02598054868593,1.02644456387558,1.02731244413771,1.02925443363513,1.0301996497622,1.03243379697162,1.03276032617916,1.03320715562104,1.03541552420882,1.03563893892976,1.03581938928129,1.03245957559327,1.03331886298151,1.0380621293646,1.03682475552554,1.03578501778576,1.03544130283047,1.03711691323754,1.03686771989495,1.03731454933683,1.03787308613919,1.04031346232179,1.04106104234956,1.04009864047473,1.03679897690389,1.03370554230622,1.03536396696553,1.03682475552554,1.03812227948178,1.03867222341025,1.03101597278103,1.03006216378008,1.02753585885865,1.02722651539888,1.02811158140877,1.12190279983528,1.03276032617916,1.03265721169257,1.03388599265775,1.0423156019364,1.04271087413499,1.04872588585267,1.06546480417561,1.07383426333708,1.08678372427787,1.0687902463681,1.09769667410853,1.18651261855713,1.19556950762919,1.1968842173332,1.0658600763742,1.02039518066237,1.14292956222554,1.05398472466871,1.02460568886475,1.02975282032031,1.03095582266385,1.21015161460764,1.21154366017659,1.03077537231232,1.03628340447094,1.03628340447094,1.05415658214636,1.07586218157333,1.07233051040766,1.05216303540564,1.05162168435105,1.04969688060139,1.08144754959689,1.07306949756154,1.10690823491048,1.12524542777554,1.11370519815146,1.20773701704668,1.20436001761089,1.12567507146966,1.09943243463278,1.10659889145071,1.10365153570904,1.10673637743283,1.03817383672507,1.03746062819283,1.10709727813589,1.04443804178535,1.0450996930743,1.04650033151713,1.04737680465314,1.04586445884983,1.04491924272277,1.08839918456776,1.0401158262225,1.0419203297378,1.03897297399614,1.03923935308649,1.04044235543003,1.04069154877262,1.11116170748227,1.02983015618525,1.10317033477163,1.03213304638574,1.03232208961115,1.03261424732315,1.03398051427046,1.0357162747947,1.03858629467143,1.04092355636745,1.0396260324112,1.03844021581543,1.03789027188695,1.0384058443199,1.03825117259002,1.03592250376788,1.03558738168647,1.03624903297541,1.03650681919189,1.03678179115612,1.03573346054247,1.03537255983941,1.03612013986718,1.03258846870151,1.03217601075515,1.03194400316033,1.03209867489021,1.03031994999655,1.03519210948788,1.2619064940014,1.40417870687247,1.0468096749769,1.40798535000237,1.02954659134713,1.03196118890809,1.03111908726761,1.03081833668173,1.03099878703326,1.03239942547609,1.03288921928739,1.02923724788737,1.05264423634305,1.03939402481638,1.04272805988275,1.04173987938627,1.0148098126388,1.01325450246608,1.01178512103219,1.01110628399548,1.01041026121101,1.05072802546728,1.05068506109786,1.05362382396565,1.05368397408282,1.05899437014215,1.04175706513404,1.0402103478352,1.04591601609313,1.0484680996362,1.0477377053562
1.02225983429485,1.02346283663839,1.02259495637626,1.02378077297204,1.02396122332357,1.02411589505345,1.02549934774852,1.02413308080121,1.02219109130379,1.02239732027697,1.02044673790566,1.02128024667225,1.02364328698992,1.02188174784402,1.02146069702379,1.02382373734145,1.02610084892029,1.02627270639794,1.02714917953394,1.03257987582762,1.0315659167095,1.03239942547609,1.03239942547609,1.03228771811562,1.03486558028035,1.0361115469933,1.03915342434767,1.03228771811562,1.03818242959896,1.03767545003989,1.03670445529118,1.035767832038,1.03540693133494,1.03587094652459,1.03587953939847,1.03646385482247,1.03719424910248,1.04041657680838,1.0425562024051,1.04292569598205,1.03892141675284,1.22874659368917,1.03506321637964,1.03551863869541,1.03813946522954,1.03530381684835,1.03349072045916,1.0311276801415,1.03255409720598,1.03243379697162,1.1392346264561,1.03221038225068,1.03506321637964,1.03442734371234,1.03432422922575,1.0411899354578,1.03841443719378,1.0382597654639,1.03921357446485,1.16183388476684,1.0520856995407,1.05201695654964,1.04935316564609,1.04920708679009,1.15094671355783,1.18146860158815,1.07228754603824,1.07305231181378,1.04010723334862,1.05805774688897,1.1487641235917,1.03516633086623,1.03409222163093,1.03378287817116,1.03361102069351,1.11995221746397,1.36173850276724,1.04337252542393,1.04459271351523,1.26163152203716,1.22928794474377,1.06186439001888,1.05186228481975,1.24408487356928,1.08419726923926,1.21547919641473,1.12181687109646,1.12864820583297,1.11312947560134,1.11968583837362,1.20239224949182,1.20249536397841,1.19397123308706,1.09645930026946,1.05242082162211,1.05299654417223,1.04016738346579,1.10633251236035,1.04877744309597,1.04813297755479,1.04829624215855,1.05030697464704,1.05028119602539,1.04703308969784,1.04670656049031,1.04468723512794,1.04157661478251,1.03943698918579,1.04392246935241,1.04331237530676,1.04303740334252,1.15229579475737,1.11247641718628,1.02949503410384,1.02918569064407,1.03066366495185,1.03125657324973,1.03105034427656,1.03160888107891,1.03398051427046,1.03973773977167,1.04107822809733,1.04132742143992,1.04135320006157,1.03983226138438,1.03824257971613,1.03697942725542,1.03643807620083,1.03665289804789,1.03872378065355,1.03830272983331,1.0385519231759,1.03852614455425,1.03878393077072,1.03895578824837,1.03630059021871,1.03322434136881,1.03231349673727,1.02746711586759,1.02900524029254,1.0301996497622,1.027071843669,1.40062125708515,1.04427477718159,1.40734947733508,1.02972704169866,1.03093863691608,1.03054336471749,1.0306378863302,1.03215882500739,1.03272595468363,1.03270876893586,1.05704378777085,1.16974792161254,1.04877744309597,1.34135620591816,1.04314051782911,1.04532310779524,1.0132459095922,1.01161326355454,1.01057352581477,1.01190542126654,1.05250675036093,1.05376130994777,1.05657117970731,1.05753358158214,1.16081133277484,1.15239031637007,1.04186017962063,1.04339830404558,1.0489063362042,1.04845091388844
1.02489784657675,1.02404715206239,1.02323082904356,1.02374640147651,1.02507829692828,1.02455413162145,1.02462287461251,1.02573135534334,1.02763038047136,1.03957447516791,1.02262073499791,1.02307615731368,1.02315349317862,1.02332535065627,1.02270666373673,1.0237979587198,1.02671953583982,1.02548216200075,1.02635863513676,1.02816313865207,1.03093863691608,1.03164325257444,1.0322017893768,1.03252831858433,1.03279469767468,1.03789886476084,1.03809650086013,1.06839497416951,1.23722776021111,1.03893000962673,1.03645526194859,1.03336182735092,1.03477965154152,1.03233927535892,1.03393754990105,1.0349343232714,1.03556160306482,1.24644791388694,1.04357875439711,1.04405995533452,1.04430055580323,1.22811931389576,1.03341338459422,1.03339619884645,1.17032364416266,1.03824257971613,1.03490854464976,1.02952081272549,1.03202993189915,1.03344775608975,1.03505462350576,1.03518351661399,1.03578501778576,1.03689349851659,1.03847458731096,1.04101807798015,1.03986663287991,1.03777856452648,1.03886126663567,1.0424616807924,1.04291710310816,1.0455379296423,1.04781504122114,1.04711901843666,1.03943698918579,1.03922216733873,1.09203397022002,1.09097704673249,1.08738522544964,1.12517668478448,1.14878130933946,1.03586235365071,1.14596284670603,1.03231349673727,1.14294674797331,1.18358244856322,1.22034276303218,1.04448959902865,1.36078469376629,1.30952820105772,1.22603983841621,1.22611717428116,1.11273420340275,1.11573311638771,1.14374588524437,1.10501780265635,1.12490171282024,1.12633672275861,1.11813912107479,1.1182766070569,1.25162082396415,1.33936265917744,1.25461114407523,1.12527979927107,1.09749044513535,1.09742170214429,1.05639932222967,1.05087410432328,1.04840794951902,1.04833920652797,1.04896648632138,1.19159100702163,1.05947557107957,1.0477377053562,1.04585586597595,1.04809860605926,1.04673233911195,1.04222108032369,1.04313192495522,1.04457552776747,1.10151191011232,1.11768369875902,1.1250220130546,1.0292200621396,1.03291499790904,1.03160028820503,1.03221038225068,1.03148858084456,1.03349072045916,1.03563034605588,1.03920498159096,1.03966040390673,1.03954869654626,1.04168832214298,1.04173987938627,1.03905890273496,1.0382082082206,1.03667008379565,1.0391362385999,1.03886126663567,1.0398236685105,1.04037361243897,1.03943698918579,1.04034783381732,1.04101807798015,1.03905890273496,1.03580220353353,1.03416096462199,1.0321502321335,1.03357664919798,1.03294077653069,1.03038010011373,1.03133390911467,1.03774419303095,1.03126516612362,1.03008794240173,1.02898805454478,1.03089567254667,1.03255409720598,1.03392895702716,1.03415237174811,1.03406644300928,1.17235156239891,1.05738750272614,1.04765177661737,1.04581290160654,1.04992029532233,1.01432861170138,1.01281626589808,1.01135547733807,1.00998921039077,1.09514459056546,1.05557440633695,1.05663992269837,1.05770543905979,1.15427215575032,1.15343005410985,1.13734419420197,1.13325398623395,1.04537466503853,1.04764318374349,1.0713337370373
1.02561964798287,1.02598054868593,1.02324801479133,1.02332535065627,1.02491503232451,1.02363469411604,1.02420182379227,1.0257055767217,1.02509548267604,1.38985438611049,1.03662711942624,1.0258000983344,1.02518141141487,1.02478613921628,1.02515563279322,1.02660782847935,1.02636722801064,1.02481191783793,1.02629848501958,1.02764756621912,1.0295637770949,1.03043165735702,1.03145420934903,1.03349931333304,1.49216973542835,1.03833710132884,1.04044235543003,1.04039939106062,1.04052828416885,1.0413360143138,1.03667867666953,1.03495150901917,1.0338602140361,1.03243379697162,1.03379147104504,1.03409222163093,1.03398910714434,1.03831991558107,1.04173987938627,1.04476457099288,1.04322644656793,1.27391933168901,1.0326400259448,1.0328376620441,1.22379709833291,1.03892141675284,1.15408311252491,1.02982156331137,1.02900524029254,1.0308355224295,1.20454906083631,1.03940261769026,1.03963462528508,1.03823398684225,1.0398236685105,1.0413360143138,1.0409922993585,1.04149927891757,1.04175706513404,1.04220389457592,1.04292569598205,1.04339830404558,1.04760021937408,1.04735102603149,1.08102649877665,1.08118117050654,1.20142984761699,1.2001065450391,1.19954800823674,1.08799531949529,1.18507760861876,1.16572645663558,1.1653741488064,1.03874096640131,1.13649349968761,1.07574188133897,1.12379323208941,1.22063492074418,1.21944051127452,1.07420375691402,1.22201837343925,1.10275787682527,1.11433247794488,1.20845022557892,1.10429600125022,1.26744889765555,1.11422077058441,1.1390885476001,1.1749466103114,1.15025069077335,1.20522789787302,1.10505217415187,1.2589247667642,1.25723197060936,1.18760391354019,1.06283538476759,1.11727983368654,1.05586656404896,1.25282382630769,1.25217936076651,1.03847458731096,1.03794182913025,1.04086340625027,1.04215233733263,1.04323503944181,1.0492500511595,1.04913834379903,1.04430914867711,1.04457552776747,1.04428337005547,1.04443804178535,1.04507391445265,1.06684825687068,1.0672779005648,1.03238223972833,1.03254550433209,1.03239942547609,1.0326400259448,1.03368835655846,1.0357162747947,1.04066577015097,1.04151646466533,1.0430459962164,1.04393965510017,1.04369905463146,1.03973773977167,1.0369880201293,1.03818242959896,1.03801057212131,1.03945417493355,1.0413360143138,1.0413360143138,1.0414820931698,1.04129304994439,1.04029627657403,1.04091496349356,1.04107822809733,1.0408977777458,1.03614591848882,1.03311263400833,1.03124798037585,1.03384302828834,1.03548426719988,1.03048321460032,1.02999342078902,1.02828343888642,1.02807720991324,1.03302670526951,1.03288921928739,1.03509758787517,1.0349343232714,1.03438437934293,1.0344015650907,1.3293691468522,1.14264599738742,1.0492500511595,1.05010933854774,1.01338339557432,1.01222335760019,1.01118361986042,1.01448328343127,1.01514493472021,1.05920059911533,1.05880532691674,1.10695979215377,1.08044218335265,1.10204466829303,1.03555301019094,1.22036854165382,1.05172479883764,1.05026401027763,1.05165605584658
1.02757023035418,1.02844670349018,1.02602351305535,1.02512985417157,1.0235058010078,1.02332535065627,1.02397840907133,1.02451976012592,1.02577431971276,1.04729087591431,1.15644615284257,1.02918569064407,1.02994186354572,1.02939191961725,1.026487528245,1.02818891727371,1.02931458375231,1.027071843669,1.02896227592313,1.02805143129159,1.02934036237396,1.03035432149208,1.03221038225068,1.0349858805147,1.0369880201293,1.03911905285214,1.04024471933073,1.04107822809733,1.04079466325921,1.04120712120556,1.03674741966059,1.03644666907471,1.03016527826667,1.02966689158149,1.03355087057634,1.03568190329917,1.03601702538059,1.03822539396837,1.03944558205967,1.04022753358297,1.04072592026815,1.04074310601591,1.09232612793202,1.22919342313106,1.03972914689779,1.03937683906861,1.03914483147379,1.0320041532775,1.03102456565491,1.03092145116832,1.03902453123943,1.0390417169872,1.04178284375569,1.04196329410722,1.04216093020651,1.0423156019364,1.04112978534062,1.04129304994439,1.14814543667216,1.04465286363241,1.04497939283994,1.04726509729266,1.04520280756089,1.05045305350304,1.05213725678399,1.14349669190178,1.14213901782836,1.07082675747823,1.19935037213745,1.1901903685788,1.12241837226823,1.13782539513939,1.15911853662,1.16710990933064,1.1929744597167,1.19015599708327,1.06836060267398,1.06772473000668,1.06781065874551,1.23412573273956,1.10028312914714,1.13185334779111,1.18247396783239,1.22829117137341,1.09729280903606,1.09807476055936,1.10427022262858,1.10778470804648,1.11509724372041,1.11551829454065,1.28391284401425,1.21000553575164,1.2101688003554,1.20912906261563,1.14302408383825,1.0627838275243,1.06211358336147,1.05940682808851,1.18802496436043,1.03838006569825,1.03862066616696,1.03992678299709,1.04098370648462,1.04144772167427,1.04477316386676,1.04830483503244,1.04799549157267,1.04465286363241,1.04421462706441,1.04470442087571,1.04491064984888,1.04336393255005,1.11336148319617,1.07468495785144,1.06268071303771,1.03526085247894,1.03550145294764,1.03406644300928,1.03892141675284,1.03616310423659,1.04014160484415,1.05108033329645,1.04513406456983,1.04508250732653,1.04403417671288,1.28610402685426,1.03808790798625,1.03808790798625,1.03784730751754,1.03895578824837,1.04112978534062,1.04112978534062,1.04335533967617,1.04416306982111,1.0413875715571,1.04125867844886,1.03916201722155,1.0388956381312,1.03919638871708,1.03678179115612,1.03854333030202,1.03740907094954,1.03581079640741,1.03084411530338,1.02720932965112,1.02727807264218,1.02875604694995,1.03199556040362,1.03287203353963,1.03392036415328,1.03429845060411,1.0334735347114,1.03580220353353,1.02402996631463,1.02645315674947,1.04859699274444,1.01763686814611,1.0133919884482,1.01238662220396,1.01285063739361,1.02353157962945,1.01586673612634,1.20765968118174,1.12476422683812,1.14767282860863,1.07728000576392,1.07674724758321,1.14388337122649,1.05231770713552,1.05385583156047,1.0646398882829,1.05506742677789
1.02883338281489,1.02906539040972,1.02867871108501,1.02457131736922,1.02247465614191,1.02355735825109,1.02433930977439,1.02553371924405,1.0274155586243,1.02969267020313,1.03202133902527,1.03256269007986,1.03016527826667,1.03281188342245,1.02867011821113,1.02953799847325,1.02915131914854,1.02644456387558,1.02903101891419,1.03051758609585,1.03091285829444,1.03161747395279,1.03259706157539,1.0347882444154,1.03694505575989,1.0381136866079,1.03830272983331,1.04058843428603,1.04150787179145,1.04317488932464,1.04460130638912,1.03819961534672,1.03497728764082,1.03301811239563,1.03222756799845,1.03533818834388,1.03617169711047,1.03787308613919,1.03819961534672,1.0386980020319,1.03858629467143,1.04014160484415,1.04038220531285,1.04070873452038,1.04088059199803,1.03893860250061,1.03976351839332,1.03825117259002,1.20486699716996,1.03885267376178,1.03857770179755,1.19496800645742,1.0394799535552,1.04258198102675,1.04225545181922,1.04276243137828,1.04166254352133,1.04204062997216,1.12552899261366,1.12555477123531,1.04784081984279,1.04884618608703,1.05039290338586,1.0519396206847,1.05464637595765,1.19606789431437,1.14231946817989,1.07296638307495,1.07232191753377,1.07223598879495,1.20164466946405,1.09535081953863,1.08448942695127,1.08381918278844,1.08002113253241,1.1970302961892,1.07518334453662,1.07085253609988,1.0681543737008,1.19105824884092,1.13079642430358,1.17278979896692,1.1977606904692,1.22577345932586,1.09776541709959,1.09749903800924,1.10374605732175,1.10338515661869,1.11510583659429,1.32046692951002,1.14771579297804,1.17539343975329,1.20961026355305,1.07691910506086,1.07101580070365,1.06794814472763,1.06265493441606,1.25035767150344,1.07301794031825,1.12254726537646,1.04118134258392,1.04116415683615,1.04132742143992,1.04112119246674,1.04335533967617,1.04873447872656,1.0488118145915,1.04997185256562,1.04552933676842,1.04325222518958,1.04375061187476,1.04307177483805,1.04168832214298,1.04189455111616,1.04113837821451,1.03817383672507,1.03607717549777,1.03792464338248,1.03687631276883,1.03881830226625,1.04115556396227,1.29328766941996,1.0469557538329,1.04693856808513,1.04716198280607,1.08408556187879,1.08137021373195,1.06637564880714,1.12622501539813,1.03673882678671,1.04096652073686,1.04116415683615,1.04470442087571,1.04204922284604,1.04245308791851,1.04309755345969,1.04312333208134,1.04147350029592,1.03917920296932,1.03813946522954,1.03914483147379,1.03815665097731,1.03676460540836,1.0334219774681,1.02997623504125,1.0290739832836,1.02934036237396,1.03090426542055,1.03314700550386,1.0331298197561,1.03453045819893,1.03553582444317,1.03813946522954,1.04489346410112,1.02276681385391,1.02038658778848,1.01702677410046,1.017791539876,1.01688069524446,1.05995677201698,1.01893439210236,1.06452818092243,1.19719356079296,1.11604245984748,1.10738084297401,1.09622729267464,1.29561633824209,1.29084729323735,1.14857508036628,1.05398472466871,1.0566742941939,1.05723283099626
