0.00345231,0.0992326,0.0938064,0.0937643,0.0933521,0.093382,0.0930599,0.0664128,0.00363752,0.0648009,0.0646297,0.0633644,0.0637835,0.0641918,0.00346596,0.00353201,0.0273403,0.0272721,0.0242495,0.0263011,0.0209258,0.00983724,0.0100735,0.00904652,0.0263004,0.0261641,0.0274467,0.0287509,0.0310173,0.032018,0.00346216,0.00361435,0.00373943,0.00372882,0.00352679,0.0757001,0.00370067,0.0760963,0.0770385,0.091735,0.0924707,0.0928901,0.00358458,0.00380003,0.00338013,0.00301334,0.539107,0.00359508,0.165284,0.16617,0.165503,0.615157,0.00345795,0.638994,0.00358329,0.00340288,0.00362745,0.179614,0.00305242,0.00384363,0.00352924,0.211402,0.00358826,0.250387,0.251528,0.252758,0.253063,0.252457,0.00354237,0.0037365,0.00358681,0.290348,0.00384702,0.00357249,0.00353464,0.00395561,0.0034867,0.00378745,0.00354747,0.00389594,0.00355107,0.00362682,0.00333222,0.00349087,0.407454,0.408946,0.00341269,0.00355367,0.410567,0.410748,0.00330379,0.443607,0.443827,0.438937,0.430338,0.403269,0.434176,0.417612,0.415403,0.428828,0.449086,0.480542,0.508631,0.507113,0.494347,0.50829,0.520482,0.527745,0.616778,0.617666,0.547863,0.548753,0.518411,0.517328,0.517513,0.61007,0.656817,0.642253,0.608214,0.662605,0.798163,0.770131,0.782175,0.822617,0.832416,0.834867,0.839265,0.896264,0.944183,1.00065,1.02226,1.02516,1.03794,1.04759,1.06244,1.06385,1.1341,1.13539,1.19288,1.2487,1.21282,1.21335,1.21339,1.22308,1.23032,1.25001,1.25366,1.25385,1.26362,1.26464,1.26763,1.28855,1.29421,1.28172,1.27293,1.25976,1.25103,1.24886,1.25658,1.26574,1.28489,1.23679,1.2241,1.24496,1.22019,1.22392,1.22087,1.22042,1.19233,1.1938,1.19208,1.19989,1.20192,1.19151,1.20612,1.18401,1.18483,1.16854,1.18464,1.19764,1.19886,1.19406,1.16997,1.17097,1.185,1.1634,1.13675,1.1332,1.12876,1.13061,1.1237,1.12576,1.0976,1.10114,1.12952,1.1217,1.1268,1.12325,1.1074,1.12974,1.14114,1.13529,1.20685,1.12926,1.14824,1.21215,1.16201,1.16713,1.18709,1.16186,1.19113,1.16749,1.20598,1.17642,1.1791,1.22897,1.17576,1.17463,1.16494,1.16663,1.16934,1.17916,1.18875,1.2162,1.20323,1.32894,1.23138,1.23316,1.23981,1.24464,1.2604,1.2728,1.27519,1.27635,1.27724,1.27816,1.27975,1.27982,1.28234,1.28738,1.28856,1.29729,1.29919,1.30441,1.30926,1.31232,1.31415,1.52982,1.37545,1.34395,1.3439,1.3469,0.00345366,1.38476,1.37875,1.37825,1.37622,1.37036,1.3641,1.36471,1.37078,0.00354587,0.0036153,0.00369581,0.00344693,1.48605,1.42049,1.42624,1.42987,1.43659,1.43493,1.43774,1.43874,1.448,1.45038,1.4513,1.45607,1.45962,1.47795,1.57102,1.48419,1.52033,1.52677,1.52696,0.00343832,0.00346198,1.53861,1.53797,1.53898,1.5536,1.55266,1.55465,1.55652,1.55723,1.84262,0.0039344,1.57438,1.58179,1.58233,0.0039214
0.00353438,0.094753,0.0940052,0.0930773,0.093144,0.092103,0.092059,0.00371608,0.07042,0.0649939,0.06507,0.0639881,0.0631069,0.0621373,0.0631485,0.0400341,0.040865,0.0348019,0.0344976,0.00362126,0.00352864,0.00360549,0.00384,0.00840363,0.00376178,0.00376111,0.0214904,0.0277519,0.0275621,0.0286435,0.0283644,0.00350357,0.0112074,0.00371048,0.0701308,0.0712131,0.0723548,0.0746967,0.0752179,0.0788005,0.079279,0.00340883,0.00371808,0.00338198,0.00361318,0.00350056,0.00373032,0.00386652,0.161417,0.161418,0.00358752,0.61505,0.662751,0.00328399,0.003584,0.00362795,0.435708,0.00364223,0.00368999,0.00330592,0.00325677,0.00378972,0.248454,0.25172,0.252167,0.252101,0.253302,0.253336,0.287433,0.00352896,0.290248,0.00335231,0.0036323,0.00334997,0.0034286,0.00310319,0.00364068,0.00334856,0.00380489,0.0035629,0.00348389,0.00361041,0.00358632,0.00351781,0.00352401,0.00369003,0.604957,0.00333929,0.410414,0.405624,0.424544,0.424155,0.434649,0.4346,0.42122,0.424066,0.436258,0.393727,0.40855,0.450221,0.43046,0.445664,0.483048,0.522388,0.521129,0.492989,0.52285,0.541603,0.490849,0.549518,0.521778,0.541537,0.549747,0.536403,0.61797,0.613029,0.64695,0.667551,0.715993,0.782933,0.798953,0.84199,0.825292,0.825829,0.860549,0.901206,0.901213,0.939802,0.973702,0.976425,1.03304,1.03292,1.04323,1.07169,1.08482,1.11622,1.11815,1.22697,1.23118,1.26815,1.26824,1.2563,1.25734,1.27416,1.27284,1.27546,1.29197,1.29237,1.29977,1.29804,1.29603,1.30186,1.32866,1.29512,1.29627,1.28169,1.28295,1.28212,1.30715,1.27697,1.2805,1.28868,1.29942,1.26407,1.25692,1.29361,1.27497,1.27213,1.2693,1.23425,1.24024,1.2184,1.21884,1.2224,1.20439,1.22593,1.20513,1.1844,1.19562,1.20572,1.20886,1.21606,1.2061,1.18592,1.17789,1.15757,1.15764,1.1563,1.14684,1.14783,1.14725,1.14169,1.10826,1.10988,1.12686,1.14272,1.14344,1.14044,1.14118,1.11693,1.14672,1.1367,1.15236,1.14425,1.14667,1.21606,1.22115,1.20633,1.18896,1.17888,1.16132,1.16337,1.16914,1.17118,1.17794,1.19873,1.1764,1.17466,1.18165,1.16203,1.18591,1.17532,1.17601,1.18243,1.18986,1.19223,1.3329,1.24148,1.24431,1.25512,1.27172,1.2717,1.27119,1.27262,1.27438,1.27639,1.27196,1.2791,1.279,1.28173,1.28594,1.29358,1.29506,1.29985,1.30187,1.31004,1.31643,1.3228,1.33315,1.34024,0.00356453,0.00337053,0.00393692,1.3756,1.37809,1.37706,1.3549,1.35183,1.35422,1.35875,0.00340945,0.00370955,0.00348859,0.00347602,1.43999,0.00336366,1.42916,1.42587,1.4263,1.43123,1.43379,1.43755,1.4413,1.44393,1.44518,1.44814,1.45313,0.00342393,1.47111,1.47165,0.00408709,1.51038,1.51267,1.51114,1.52898,1.52432,1.54568,1.54,1.54149,1.54773,1.54644,1.54733,1.54784,1.55021,1.55643,1.61608,1.56989,0.00329597,1.5827,0.00360411
0.210555,0.0960021,0.0960277,0.0901886,0.0894273,0.0887258,0.0884869,0.0879432,0.0721827,0.0725881,0.0653648,0.0646868,0.072459,0.0640286,0.00351366,0.0437289,0.0426271,0.0433774,0.00326534,0.00358075,0.00347871,0.0109746,0.00436697,0.0103242,0.0045156,0.00430531,0.00919592,0.0111943,0.0120118,0.00358487,0.00348554,0.00345172,0.00349954,0.00339372,0.069501,0.0700532,0.0714564,0.0719969,0.0758113,0.0727697,0.0721375,0.0036613,0.00393046,0.00356708,0.00361723,0.00318058,0.00345498,0.154198,0.00366475,0.610944,0.133563,0.137199,0.657952,0.658044,0.0037902,0.00372931,0.00389467,0.00331231,0.00357652,0.00382847,0.00341483,0.00385537,0.00352321,0.00337499,0.249014,0.24944,0.00356171,0.00353677,0.00360227,0.00362523,0.287592,0.286816,0.00356948,0.00377319,0.00363362,0.318324,0.00378717,0.00352213,0.00387034,0.00371747,0.00382449,0.603987,0.376622,0.00322996,0.380669,0.381369,0.375973,0.377129,0.383522,0.394131,0.00334684,0.342268,0.343467,0.344951,0.407244,0.407608,0.413205,0.396624,0.391712,0.42102,0.425789,0.488497,0.506994,0.508784,0.490626,0.542385,0.560767,0.540064,0.553285,0.555267,0.562958,0.531037,0.528291,0.527412,0.590736,0.591659,0.645153,0.659275,0.704033,0.730259,0.719682,0.854474,0.850436,0.849551,0.980169,0.92278,0.93558,0.963771,0.98468,0.9853,1.07544,1.08045,1.10534,1.15674,1.11094,1.16204,1.22241,1.22255,1.32921,1.29859,1.31071,1.32497,1.32529,1.33684,1.33298,1.34752,1.3395,1.32975,1.34781,1.34779,1.32462,1.32394,1.31318,1.33409,1.33077,1.30596,1.30799,1.30775,1.32224,1.3082,1.32662,1.31206,1.30647,1.31205,1.30213,1.29703,1.28747,1.28995,1.27374,1.2557,1.26284,1.27681,1.26461,1.23796,1.24391,1.22431,1.21907,1.2226,1.23017,1.22923,1.21466,1.21574,1.197,1.19533,1.18674,1.18771,1.21645,1.16965,1.17202,1.18584,1.16053,1.16223,1.16356,1.14612,1.1568,1.13517,1.1811,1.2159,1.19497,1.15404,1.16091,1.15006,1.16002,1.1563,1.17441,1.17939,1.16396,1.19822,1.18918,1.16968,1.17032,1.16528,1.1675,1.19156,1.19302,1.16825,1.16998,1.17746,1.18717,1.17752,1.17733,1.16107,1.16013,1.18626,1.18731,1.2521,1.21255,1.24328,1.2447,1.25748,1.26504,1.26606,1.26728,1.26957,1.26846,1.26862,1.26848,1.2771,1.27491,1.28007,1.28286,1.28256,1.29507,1.29736,1.29926,1.3055,1.3191,0.00379061,0.00354418,1.34703,1.35083,1.35554,1.36614,0.00381333,1.3594,1.36046,1.35294,1.35112,1.35454,1.35683,1.43366,1.36432,0.00352152,1.43319,1.43253,0.00386398,1.41399,1.41936,1.42534,1.43328,1.43372,1.43375,1.44396,1.44295,0.00354415,1.45021,1.45758,1.45754,1.47257,1.50794,1.50647,1.50083,1.50919,1.51858,1.51945,1.52384,1.54145,1.53358,1.53782,1.53582,1.54056,1.53848,1.54885,1.54605,1.54452,1.54885,0.00384078,0.00335376,1.5749,1.58132
0.00361719,0.0036417,0.0905666,0.0892593,0.0887353,0.0881477,0.0884212,0.0880154,0.0741075,0.0735297,0.0814701,0.0710871,0.072762,0.00373014,0.00344012,0.0462598,0.0454031,0.0441512,0.0465919,0.0291817,0.0289191,0.00394351,0.0170556,0.00384038,0.011428,0.0124703,0.00923972,0.0105442,0.0159216,0.00442247,0.0171506,0.00357106,0.00350112,0.00359459,0.0687324,0.0695769,0.0697173,0.0703739,0.0713947,0.0717894,0.00345273,0.00366268,0.00375688,0.00337831,0.00356454,0.00355033,0.148367,0.00339949,0.00415067,0.130997,0.132805,0.00367912,0.00359203,0.00359063,0.00352019,0.00369681,0.00359115,0.00392122,0.524314,0.00402886,0.00317657,0.00343168,0.00373082,0.00356419,0.00398582,0.00356376,0.00364958,0.00340998,0.28341,0.28474,0.285574,0.00381901,0.00407929,0.00363023,0.0036679,0.00330398,0.325345,0.00346897,0.00365809,0.00365188,0.00371282,0.00339289,0.366505,0.379155,0.379642,0.379659,0.379687,0.38125,0.379019,0.378358,0.375698,0.341641,0.342491,0.342855,0.397348,0.4038,0.392871,0.394816,0.396046,0.396878,0.402968,0.485487,0.505067,0.505789,0.484758,0.519406,0.524246,0.53783,0.555905,0.559882,0.576348,0.548339,0.527459,0.527508,0.565159,0.564398,0.626922,0.698149,0.69208,0.691616,0.818461,0.819395,0.819797,0.98082,0.981667,0.988708,0.9909,1.00008,1.10916,1.12917,1.09565,1.09812,1.16765,1.17066,1.20029,1.25367,1.29008,1.33914,1.38164,1.33528,1.34139,1.3625,1.36719,1.36417,1.37505,1.37247,1.40555,1.40328,1.37972,1.38531,1.35493,1.36154,1.36767,1.33665,1.32754,1.36625,1.34726,1.36394,1.34434,1.35367,1.34454,1.34776,1.33413,1.3336,1.32586,1.31418,1.32723,1.29382,1.28869,1.2995,1.28538,1.28256,1.27489,1.25392,1.27145,1.24731,1.2526,1.25002,1.23407,1.24342,1.21564,1.20092,1.20396,1.21969,1.1945,1.21065,1.21094,1.20287,1.17903,1.1927,1.17498,1.18133,1.17827,1.18036,1.16433,1.16467,1.16785,1.16677,1.17364,1.17696,1.16138,1.16162,1.16171,1.20546,1.17345,1.17944,1.2062,1.19253,1.20136,1.17772,1.16367,1.16561,1.18097,1.18239,1.19496,1.17684,1.17606,1.17904,1.21175,1.1615,1.15049,1.1534,1.15121,1.15672,1.19807,1.2627,1.22048,1.22407,1.24741,1.25869,1.25878,1.26101,1.2653,1.26483,1.26708,1.26578,1.26664,1.2691,1.27257,1.27852,1.28068,1.28504,1.29282,1.29768,1.30142,0.00377334,1.3512,1.33093,1.33402,1.41011,1.3554,1.3574,1.36388,1.35365,1.34998,1.35154,1.34442,1.34476,1.34745,1.34835,1.35804,1.36204,1.36385,1.39161,1.40855,1.41103,1.4154,1.41466,1.41989,1.42552,1.43018,1.43123,1.43137,1.43041,1.43638,1.45171,0.00366861,0.00334937,1.5006,1.49879,1.49928,1.50698,1.50568,1.52698,1.52379,1.52337,1.528,1.53315,1.53361,1.53758,1.54021,1.53816,1.54032,1.54269,1.54735,1.54698,1.55897,1.56843,1.57575,0.00331934
0.00353295,0.103585,0.091029,0.0902654,0.0898291,0.0886404,0.0830739,0.0815381,0.0786997,0.0814903,0.082376,0.0797762,0.07871,0.00370711,0.00405681,0.0620504,0.0037983,0.00377396,0.00374367,0.00326403,0.00415929,0.0233265,0.011321,0.0233791,0.00378791,0.0112846,0.00342084,0.00481999,0.0039447,0.0101446,0.0165168,0.0170195,0.00358629,0.0497871,0.0507053,0.051216,0.0523205,0.065987,0.0664865,0.0656426,0.00325778,0.00365455,0.00364895,0.00390919,0.00352815,0.00353986,0.662743,0.00368719,0.00400978,0.117615,0.645908,0.64661,0.00334158,0.00351658,0.00343897,0.00376823,0.00362692,0.00386709,0.0034932,0.00353126,0.00368695,0.00363008,0.00331811,0.00363749,0.00343439,0.00372318,0.00383926,0.00361345,0.00328618,0.279028,0.00367589,0.00345918,0.00306738,0.00338462,0.301188,0.00390396,0.0035124,0.00377199,0.00347527,0.00366948,0.00319035,0.36528,0.366355,0.374805,0.375728,0.374759,0.37646,0.377267,0.37726,0.37904,0.375676,0.375688,0.375198,0.343462,0.342754,0.384558,0.511249,0.510599,0.414444,0.397963,0.442983,0.504665,0.498582,0.497988,0.502121,0.477487,0.504026,0.566742,0.544226,0.559667,0.524478,0.53817,0.539921,0.542906,0.614612,0.623322,0.708087,0.709372,0.71391,0.718905,0.842205,0.857479,0.99055,1.00125,0.995219,0.982199,0.986521,1.00829,1.09712,1.09821,1.23511,1.21292,1.22278,1.27492,1.30333,1.33672,1.35823,1.39023,1.39313,1.39339,1.43969,1.38516,1.39597,1.39831,1.4302,1.40459,1.40544,1.39754,1.3965,1.39108,1.38463,1.39334,1.3789,1.37614,1.3818,1.3834,1.38509,1.37863,1.37574,1.37546,1.36676,1.3491,1.34827,1.34359,1.34159,1.33703,1.32783,1.31677,1.3172,1.30807,1.29393,1.29476,1.2831,1.29794,1.30743,1.30696,1.25994,1.25099,1.24862,1.24191,1.22704,1.21697,1.21611,1.21452,1.23073,1.22624,1.20724,1.20817,1.18238,1.19934,1.22336,1.17925,1.19428,1.18608,1.18826,1.18628,1.18154,1.19525,1.16433,1.15032,1.15744,1.17185,1.17814,1.16403,1.16512,1.18581,1.18594,1.19809,1.21882,1.21806,1.18258,1.18215,1.19158,1.18176,1.18416,1.18434,1.17769,1.17529,1.2026,1.18183,1.15803,1.16025,1.15853,1.15826,1.20116,1.20211,1.21981,1.21882,1.25187,1.25182,1.25823,1.258,1.25916,1.26162,1.26161,1.26051,1.25907,1.26713,1.26793,1.27766,1.2771,1.27938,1.28288,1.39668,1.31357,1.32069,1.3299,1.33545,1.33662,1.34712,1.35646,1.33726,1.39153,1.3446,1.34525,1.33939,1.34028,1.34212,1.34304,1.35012,1.35145,1.35617,1.36489,1.4299,0.00389732,1.40693,1.4098,1.41586,1.42,1.41875,1.42214,1.42064,1.42973,1.43273,1.44131,1.44313,1.45617,1.5004,0.00305655,1.49997,1.50302,1.50924,1.50772,1.53319,1.51678,1.52179,1.52658,1.52746,1.53343,1.54009,1.53951,1.53774,1.53853,1.54472,1.54464,1.55414,0.00381565,0.00367969,1.57693,1.58519
0.102464,0.101297,0.101037,0.100253,0.0995633,0.0962198,0.0843875,0.083221,0.082188,0.0823746,0.0819495,0.0792836,0.0813484,0.0795065,0.0644487,0.00351128,0.0622554,0.003463,0.00364537,0.00374498,0.00344913,0.00388625,0.0217729,0.003587,0.0109561,0.0172981,0.0163184,0.0034269,0.0183229,0.00349957,0.00334986,0.00344151,0.00374212,0.003581,0.00349467,0.0033477,0.0517027,0.00366881,0.00365112,0.00365717,0.00378121,0.0036275,0.00360086,0.00354242,0.00362026,0.00337059,0.109597,0.111277,0.111697,0.112019,0.111681,0.00376422,0.130987,0.00376601,0.130808,0.00368171,0.00362987,0.00366759,0.00316403,0.00386897,0.00348348,0.00316026,0.00340336,0.00372705,0.00371482,0.00360872,0.00368136,0.00375786,0.272559,0.00348485,0.273159,0.00386425,0.300622,0.301816,0.30221,0.302691,0.302911,0.00337819,0.0039229,0.00341546,0.00368712,0.0035936,0.00344674,0.35918,0.369046,0.363305,0.368617,0.373448,0.376383,0.379074,0.3762,0.375477,0.375317,0.341683,0.398839,0.389718,0.39406,0.429083,0.437553,0.44894,0.462716,0.463228,0.450895,0.490168,0.490375,0.481824,0.61498,0.546987,0.555175,0.538848,0.527325,0.521669,0.535482,0.542633,0.625183,0.625047,0.723228,0.746449,0.747374,0.756567,0.756867,1.00459,1.00525,1.01966,0.996889,1.00245,1.00197,1.04062,1.06828,1.21125,1.25145,1.25803,1.30956,1.31786,1.32831,1.33707,1.42298,1.43666,1.42839,1.41684,1.41623,1.41234,1.41323,1.41971,1.44374,1.43755,1.41747,1.40488,1.40429,1.41014,1.44512,1.39843,1.4169,1.41713,1.41217,1.39158,1.38447,1.38812,1.3852,1.42005,1.38098,1.38943,1.37603,1.36401,1.36359,1.3678,1.33912,1.33346,1.31664,1.31374,1.31953,1.32235,1.3257,1.30444,1.3257,1.29631,1.27624,1.27444,1.25493,1.2618,1.26361,1.23829,1.24014,1.22629,1.22198,1.22724,1.22929,1.22521,1.22414,1.20602,1.21447,1.19173,1.19739,1.19918,1.19932,1.20131,1.20145,1.17543,1.24556,1.22179,1.22155,1.18432,1.19511,1.18845,1.18621,1.18742,1.21282,1.20552,1.18405,1.18567,1.20602,1.20068,1.19904,1.19716,1.19819,1.20178,1.18579,1.18542,1.18626,1.18501,1.19257,1.16069,1.1535,1.1723,1.20135,1.22131,1.2443,1.21079,1.21258,1.25096,1.25302,1.26034,1.26044,1.25756,1.25672,1.25893,1.26456,1.2688,1.27028,1.27613,1.2763,1.28126,1.28471,1.28434,1.29569,0.00344962,0.0037245,1.33118,1.33572,1.33676,1.33197,1.33113,1.33179,1.3326,1.33018,1.33661,1.33665,1.33928,1.34015,1.34338,1.3468,1.35626,1.37029,1.37054,1.40066,1.40115,1.4088,1.41338,1.41255,1.41328,1.41921,1.42006,1.43323,1.43475,1.43656,1.43828,1.49346,1.50256,1.50338,1.57208,1.51969,1.51781,1.5325,1.51401,1.52108,0.00358022,0.00355247,1.53721,1.53573,1.53686,1.5419,1.54215,1.54162,1.54953,1.54923,1.55788,1.55961,1.56863,1.56702,1.56816
0.00353266,0.10142,0.0996885,0.00365288,0.0914808,0.0907865,0.0902672,0.0906549,0.0827264,0.0805212,0.0800864,0.08077,0.0834476,0.0755442,0.00386843,0.0756869,0.0032387,0.00381092,0.00366388,0.0108411,0.00364241,0.00347306,0.00368521,0.0269252,0.0179033,0.00373507,0.00333404,0.00284897,0.00395013,0.00320309,0.003918,0.00387774,0.003449,0.00362825,0.00365282,0.0518349,0.00332804,0.00347391,0.00339626,0.00392413,0.00376272,0.00346003,0.0948683,0.0931873,0.0954511,0.107288,0.110559,0.112337,0.112854,0.11206,0.608135,0.00378807,0.131683,0.00362231,0.00314904,0.0035795,0.00372469,0.00387548,0.00333647,0.00412814,0.00379952,0.00371781,0.00325065,0.00376394,0.00374917,0.00374603,0.00349145,0.0105599,0.00367502,0.00361324,0.00341697,0.296077,0.298528,0.299255,0.299478,0.28617,0.0034717,0.0106864,0.00339255,0.00373492,0.00349053,0.00347066,0.00348645,0.357414,0.362795,0.365348,0.364219,0.372382,0.375618,0.375358,0.376915,0.370747,0.389106,0.37918,0.380283,0.38116,0.381991,0.424562,0.463307,0.458968,0.473774,0.471855,0.456261,0.469706,0.500473,0.469813,0.546286,0.589851,0.515103,0.53472,0.535809,0.536144,0.546699,0.558532,0.562117,0.636083,0.674174,0.735566,0.73993,0.767299,0.867026,0.971205,0.984578,0.994795,0.989021,1.00529,1.0257,1.09647,1.10043,1.18034,1.26111,1.27555,1.34627,1.34676,1.42512,1.43675,1.43666,1.47733,1.47211,1.45693,1.45028,1.44304,1.46157,1.43327,1.43409,1.43605,1.43697,1.43014,1.44345,1.44218,1.44679,1.45805,1.424,1.41581,1.43017,1.41413,1.40184,1.40236,1.39302,1.4137,1.39267,1.39282,1.40601,1.40288,1.37311,1.35917,1.35024,1.33536,1.43179,1.32874,1.32872,1.34129,1.3081,1.30225,1.30101,1.27342,1.28599,1.25787,1.25464,1.26158,1.26793,1.26618,1.23999,1.24206,1.2385,1.21999,1.21975,1.2237,1.22635,1.2188,1.21972,1.19123,1.18989,1.20728,1.20198,1.21195,1.20488,1.20204,1.21314,1.21321,1.19663,1.20292,1.19553,1.18474,1.20887,1.20603,1.22384,1.19471,1.22096,1.23271,1.18637,1.1815,1.18239,1.16769,1.16866,1.16834,1.18539,1.16166,1.17431,1.18895,1.18808,1.18174,1.16429,1.16268,1.1774,1.17722,1.19789,1.20806,1.24567,1.24581,1.25159,1.25718,1.25393,1.25455,1.25715,1.26237,1.26729,1.26514,1.27019,1.2741,0.00375062,1.28947,1.29449,1.29421,1.31019,1.32228,1.31946,1.31984,0.00343751,1.3241,1.45199,1.32932,1.32928,1.32931,1.32803,1.33269,1.33483,1.33463,1.33666,1.34403,1.34643,0.00352741,0.00367405,0.00327584,1.39498,1.40042,1.40488,1.405,1.40975,1.41427,1.41672,1.42368,1.42265,1.42986,1.51127,1.50236,1.50119,1.46899,1.4864,1.50712,1.51279,1.51632,1.51279,1.51758,1.51783,1.52185,0.0032038,1.53485,1.53506,1.53621,1.53777,1.54086,0.00379871,1.54761,1.54938,1.55743,1.5559,1.55892,1.56746,1.56661
0.00326158,0.00339526,0.100367,0.0931029,0.0920698,0.0914408,0.0904809,0.0909214,0.0860279,0.0874947,0.0873147,0.087174,0.088595,0.074765,0.0724736,0.0728045,0.072009,0.00341958,0.00326898,0.00364845,0.00976698,0.00392135,0.00363625,0.00311429,0.0105075,0.00488549,0.007185,0.00823127,0.00468916,0.017172,0.0190391,0.0167001,0.00413417,0.00340901,0.0037781,0.0374566,0.0365373,0.0505009,0.0504345,0.00349158,0.00382974,0.00361734,0.00336361,0.00381762,0.0923591,0.0953435,0.0991493,0.0991832,0.100111,0.610038,0.596555,0.00347665,0.00396912,0.00372727,0.00322562,0.0035466,0.00366791,0.00351697,0.00340194,0.0037311,0.00411294,0.00356382,0.00372803,0.00342325,0.00369107,0.00364663,0.00354498,0.00377334,0.00381754,0.25191,0.251522,0.00358202,0.0031934,0.00349514,0.290419,0.0037885,0.00323044,0.00368088,0.00388056,0.00364399,0.00371181,0.00332139,0.00368978,0.00352312,0.358688,0.359854,0.371305,0.373291,0.374634,0.379114,0.410024,0.410513,0.412038,0.374412,0.374585,0.441025,0.438191,0.441147,0.428913,0.452379,0.452096,0.474249,0.468393,0.535134,0.497335,0.481087,0.490079,0.500306,0.480931,0.486966,0.486306,0.485034,0.55291,0.571663,0.570688,0.628142,0.7017,0.701214,0.75326,0.775333,0.918064,0.927369,0.996288,0.997985,1.01826,1.01852,1.08777,1.10994,1.10737,1.20523,1.28059,1.33743,1.36288,1.44635,1.46393,1.45846,1.4819,1.48174,1.50317,1.50261,1.50673,1.50746,1.48031,1.52672,1.50588,1.46327,1.44818,1.44542,1.43792,1.43553,1.46856,1.46322,1.4615,1.42457,1.43592,1.43181,1.46178,1.41727,1.42299,1.40269,1.39838,1.4,1.39932,1.41472,1.40205,1.39628,1.39187,1.35544,1.35282,1.33638,1.35325,1.35176,1.31087,1.31574,1.30401,1.28255,1.28974,1.27568,1.26385,1.26323,1.26653,1.25464,1.25606,1.24369,1.23115,1.23025,1.21531,1.2415,1.21736,1.22016,1.24789,1.21999,1.21902,1.20981,1.22267,1.22796,1.22667,1.22562,1.23273,1.20833,1.2087,1.19628,1.18234,1.19219,1.19203,1.17895,1.18275,1.20587,1.19092,1.18567,1.1837,1.18552,1.17425,1.16922,1.17446,1.1539,1.17503,1.16928,1.16747,1.14513,1.1485,1.15137,1.15084,1.14823,1.14742,1.15727,1.18932,1.21202,1.21304,1.23228,1.2527,1.256,1.2553,1.25148,1.25674,1.26034,1.26467,1.26599,1.27328,1.27534,0.00361851,1.29767,1.30068,1.30247,1.2984,1.29826,1.30535,1.30527,1.30978,1.30793,1.31384,1.32375,1.32555,1.32334,1.32421,1.32851,1.33322,1.33586,1.33699,1.33873,1.35742,1.52959,1.47614,1.38924,1.38915,1.39703,1.39675,1.39994,1.4042,1.4159,1.41331,1.42035,1.42261,1.43126,1.50347,1.50294,1.50218,1.50275,1.48621,1.48487,1.49022,1.51132,1.513,1.51057,1.50944,1.5209,1.5246,1.52772,1.52512,1.52858,1.53078,1.52959,1.53988,1.54484,1.54436,1.55405,1.55757,1.56061,1.5614,1.58247
0.0033945,0.00378143,0.0039979,0.00366077,0.00377558,0.00367339,0.0943402,0.0915316,0.0916263,0.0923941,0.0924971,0.0911871,0.0920148,0.0798511,0.0730725,0.0801443,0.0721832,0.0694018,0.0686762,0.0683373,0.00358935,0.00338563,0.00365247,0.00330088,0.00414803,0.00374996,0.00486703,0.00417313,0.00410191,0.0043893,0.00442087,0.00453719,0.00439122,0.00345312,0.0036577,0.00349796,0.00358934,0.0503773,0.0507022,0.05018,0.0033073,0.00397603,0.0751825,0.0765995,0.0850469,0.077477,0.0888561,0.0878477,0.00367094,0.111674,0.00344309,0.116715,0.00357005,0.00362901,0.00371981,0.00378407,0.00337805,0.0037899,0.0034457,0.00337796,0.00363595,0.180245,0.00336948,0.00333823,0.00363765,0.00368509,0.00358213,0.00336387,0.00343163,0.258293,0.253634,0.00320019,0.57243,0.572529,0.0037226,0.00377208,0.00356044,0.00347416,0.0036467,0.00351393,0.325753,0.56882,0.567952,0.339579,0.339863,0.371418,0.370464,0.37414,0.373385,0.373248,0.408996,0.418022,0.413022,0.411578,0.422833,0.416945,0.426574,0.465809,0.459927,0.44101,0.441529,0.553596,0.555379,0.55616,0.483854,0.483763,0.482852,0.486493,0.480804,0.481586,0.482929,0.548602,0.551518,0.586619,0.589364,0.590478,0.69821,0.704046,0.727837,0.901615,0.900786,0.901176,0.992061,1.02601,1.02223,1.07099,1.08428,1.13687,1.17184,1.19693,1.34862,1.40704,1.43992,1.44578,1.46687,1.4666,1.46499,1.50258,1.49168,1.49122,1.50657,1.47877,1.47733,1.50825,1.49448,1.47602,1.47839,1.45235,1.46084,1.44388,1.46132,1.45124,1.44524,1.41828,1.44065,1.43369,1.43611,1.43652,1.42611,1.43363,1.42044,1.42869,1.43684,1.41567,1.4167,1.41363,1.40589,1.40389,1.38314,1.37065,1.37996,1.42011,1.42022,1.3816,1.30735,1.31105,1.30143,1.2692,1.2707,1.27104,1.26734,1.23948,1.24038,1.24049,1.33319,1.33124,1.33318,1.21643,1.21899,1.2425,1.23554,1.23348,1.23943,1.25674,1.21881,1.21221,1.22172,1.20862,1.21458,1.19195,1.18416,1.17325,1.19193,1.17856,1.18325,1.23715,1.26462,1.19563,1.19975,1.18988,1.21696,1.21775,1.20813,1.21445,1.21182,1.15321,1.15069,1.13607,1.16153,1.15901,1.1642,1.14276,1.1669,1.18099,1.15064,1.17313,1.17339,1.25688,1.24738,1.24856,1.24971,1.25283,1.25197,1.25303,1.25312,1.25684,0.00351158,1.26929,0.00380853,0.00355641,1.29823,1.29903,1.30059,1.29601,1.2951,1.29729,1.30296,1.30215,1.31423,1.31292,1.31664,1.31531,1.31994,1.32137,1.32309,1.3269,1.33316,1.33222,1.33367,1.33769,1.56413,1.46465,0.0034346,1.38877,1.39475,1.39337,1.51744,1.41316,1.40616,1.41101,1.41213,1.41899,1.49899,1.49959,0.00359622,1.49081,1.4885,1.48168,1.50829,1.48151,0.00353511,1.50883,1.5084,1.52486,1.51015,1.514,1.51838,1.52221,1.52181,1.52007,1.52792,1.5275,1.5295,1.53792,1.53868,1.54992,1.54981,1.55278,1.57299,0.00360887
0.00346129,0.0031407,0.00350538,0.00318097,0.00390391,0.00369242,0.00369599,0.00337262,0.0940011,0.0937643,0.0937052,0.0937083,0.0819864,0.0811571,0.0835278,0.0803211,0.0721312,0.069014,0.00368626,0.00395559,0.00355976,0.00360913,0.00413508,0.00408507,0.00386168,0.0092473,0.018121,0.00354579,0.0107588,0.00376665,0.0106894,0.00393366,0.0049452,0.00573887,0.00390836,0.00655148,0.00364006,0.0034674,0.00403367,0.00334828,0.00348788,0.0684243,0.00364226,0.0742997,0.0783503,0.00354612,0.0861023,0.00346623,0.608069,0.00384981,0.10951,0.00333965,0.00351274,0.00368405,0.00342558,0.00336062,0.0037118,0.00345899,0.00345278,0.00310298,0.00373171,0.0034922,1.35505,0.606859,0.599285,0.00334404,0.6014,0.00329151,0.00380839,0.00338595,0.00366219,0.00366098,0.00368473,0.272473,0.273006,0.00331462,0.00385946,0.00319298,0.00399745,0.324452,0.32588,0.32623,0.327014,0.00329402,0.361606,0.00342838,0.373654,0.373917,0.354015,0.355291,0.356784,0.350989,0.346123,0.351809,0.407446,0.440923,0.462635,0.4571,0.419151,0.45897,0.434306,0.449647,0.554883,0.480642,0.473564,0.486999,0.496324,0.497103,0.496215,0.514042,0.532519,0.53754,0.618688,0.588611,0.594245,0.667271,0.68724,0.753169,0.753447,0.794476,1.01809,1.00389,0.992742,1.0657,1.0771,1.1185,1.15591,1.15688,1.19243,1.27695,1.43398,1.49824,1.477,1.47482,1.49084,1.48263,1.48127,1.4802,1.51623,1.50064,1.49892,1.49901,1.50151,1.49475,1.49377,1.48171,1.48487,1.46936,1.46912,1.46876,1.46096,1.44176,1.44031,1.44802,1.44303,1.43397,1.43269,1.44747,1.46163,1.43049,1.43678,1.44321,1.42613,1.41777,1.41879,1.41135,1.4153,1.3895,1.37815,1.37397,1.37582,1.34818,1.34314,1.33997,1.39249,1.39084,1.38915,1.28271,1.28887,1.26132,1.25322,1.27848,1.27891,1.28558,1.2337,1.23357,1.23347,1.25001,1.24505,1.23955,1.22655,1.22451,1.22758,1.23638,1.24667,1.22518,1.21406,1.20609,1.20825,1.19825,1.20771,1.18134,1.18369,1.19972,1.17804,1.26621,1.24051,1.23888,1.17899,1.18166,1.1816,1.18679,1.21947,1.22197,1.15369,1.1533,1.14798,1.14967,1.13693,1.13939,1.14067,1.17169,1.19543,1.19791,1.16456,1.16355,1.16555,1.20902,1.20633,1.24736,1.23757,1.24783,1.24914,1.25016,1.2517,1.25104,1.25423,0.00310788,1.27812,0.0036297,1.3021,0.00345267,1.38888,1.29083,1.29074,1.29094,1.30205,1.49236,1.30748,1.30842,1.3106,1.31229,1.31443,1.32247,1.32956,1.3333,1.33337,1.33224,1.33415,1.3376,1.35428,0.00351711,1.37903,1.38034,1.39169,1.39107,1.39867,1.39686,1.39905,1.48116,1.4953,1.49517,1.49361,1.49544,1.47946,1.4911,1.48447,1.46688,0.00374485,1.4803,1.48321,1.48625,1.49498,1.50339,1.49956,1.49897,1.511,1.51384,1.51582,1.51781,1.52237,1.52821,1.52832,1.53032,1.54803,1.55009,1.54703,0.00336616,1.56164,0.00349804
0.00379483,0.00411818,0.00335998,0.00387047,0.00408153,0.00408613,0.00340447,0.112092,0.109642,0.110245,0.00364539,0.093501,0.0835462,0.081944,0.0817567,0.0822679,0.0798932,0.0816925,0.00342099,0.0040097,0.00335187,0.00392639,0.00392545,0.00317986,0.00396245,0.0164361,0.00404175,0.0137746,0.00468985,0.00330681,0.00349331,0.00310212,0.0034619,0.00616244,0.00520967,0.00635597,0.00601306,0.00479364,0.00372648,0.00352416,0.00350374,0.0667922,0.0677701,0.0720991,0.0724899,0.0727209,0.00351936,0.0037918,0.583464,0.00366002,0.00321893,0.0034126,0.00335406,0.00396109,0.00362145,0.00342641,0.00335869,0.1528,0.153327,0.153044,0.00336251,0.00372918,0.00345848,0.598471,0.00310321,0.00364812,0.00340135,0.0036955,0.00360975,0.00372352,0.00345276,0.57955,0.00351196,0.580451,0.00371066,0.0034827,0.00355063,0.553161,0.00341356,0.00333746,0.324661,0.32514,0.569711,0.00366634,0.00362906,0.362585,0.366253,0.366041,0.406821,0.40929,0.410816,0.312616,0.312749,0.350375,0.361173,0.442825,0.428298,0.431443,0.462823,0.444829,0.443464,0.438509,0.490925,0.4775,0.494723,0.49414,0.470686,0.480529,0.516332,0.459029,0.475249,0.474422,0.630771,0.628838,0.642851,0.678531,0.686675,0.681167,0.769684,0.768422,0.919005,1.05003,1.06335,1.07194,1.07635,1.14684,1.12257,1.17499,1.30953,1.44193,1.43754,1.47268,1.47187,1.48135,1.48898,1.49463,1.48493,1.49351,1.50779,1.48958,1.48965,1.49978,1.51711,1.59334,1.5369,1.48974,1.48834,1.49222,1.47735,1.49157,1.48697,1.45552,1.45644,1.4547,1.44753,1.45386,1.4594,1.44036,1.44452,1.43158,1.43077,1.42497,1.41369,1.44166,1.44117,1.41554,1.41738,1.41185,1.40593,1.3888,1.39824,1.344,1.34673,1.32445,1.32979,1.3154,1.30917,1.28003,1.28537,1.25984,1.26514,1.2642,1.31415,1.31547,1.23927,1.23793,1.26273,1.24021,1.24842,1.25069,1.24622,1.27214,1.27358,1.23763,1.25538,1.23269,1.21329,1.21329,1.22512,1.1916,1.20392,1.21024,1.18232,1.18186,1.18534,1.18516,1.17927,1.18499,1.18238,1.17475,1.1923,1.19301,1.17319,1.17007,1.14034,1.14213,1.13181,1.1341,1.16358,1.19557,1.21855,1.1786,1.18477,1.18995,1.19677,1.18435,1.16758,1.17865,1.2134,1.22293,1.22678,1.24099,1.24984,1.26326,1.26228,1.25934,1.26163,1.26297,1.29773,1.30003,1.29515,1.28745,1.28808,1.28795,1.28309,1.30615,1.29831,1.41565,0.00313976,1.30713,1.31167,1.31386,1.31586,1.32017,1.3253,1.332,1.33337,1.33933,1.33948,1.348,0.00356538,1.37716,1.3782,1.38164,1.3797,1.38659,1.39516,1.39676,1.39978,0.00366721,1.4853,1.48645,1.4978,1.44108,1.47192,1.45191,1.45978,1.45904,1.47459,1.47995,1.48128,1.48542,1.4942,1.49526,1.50209,1.50359,1.50405,1.50855,1.51438,1.51932,1.51928,1.5226,1.52984,1.5342,1.5378,1.54266,1.54398,1.56113,1.55925,1.56578
0.00362734,0.00336832,0.00408469,0.152547,0.153312,0.00332078,0.00382435,0.00337769,0.0034689,0.00322649,0.00394822,0.00354814,0.00390338,0.0843386,0.0907153,0.0825966,0.0832245,0.00372548,0.00378371,0.00340898,0.00343132,0.00327716,0.00373938,0.00331643,0.00399129,0.031959,0.0315736,0.0310415,0.0116314,0.00369356,0.00333527,0.00444883,0.00318854,0.00398122,0.00459838,0.00424341,0.0135684,0.0116987,0.00391611,0.00357091,0.0036969,0.0678866,0.068895,0.0712766,0.0728281,0.0730913,0.00336717,0.00364226,0.00357311,0.00357962,0.00313937,0.0034373,0.605312,0.00373449,0.00346264,0.0034597,0.00367636,0.154469,0.154077,0.153578,0.00344,0.182984,0.184148,0.18482,0.00335035,0.00371055,0.00366582,0.00340522,0.00382828,0.00376163,0.00345928,0.00360852,0.00365797,0.00374828,0.0037414,0.00347171,0.00371372,0.00361526,0.00370212,0.00382536,0.00357359,0.00357911,0.530653,0.00358851,0.00343593,0.36212,0.361582,0.329746,0.330876,0.331452,0.415017,0.413824,0.415063,0.414696,0.432746,0.411757,0.411871,0.40424,0.413897,0.431716,0.440085,0.457165,0.466104,0.463783,0.483075,0.465839,0.467545,0.472439,0.468296,0.459977,0.497321,0.496692,0.621761,0.623991,0.614259,0.661005,0.684815,0.68357,0.721913,0.824488,0.910359,0.925363,1.06856,1.07544,1.09072,1.10707,1.18809,1.22624,1.34802,1.43114,1.46905,1.46803,1.47537,1.49262,1.55016,1.4809,1.4932,1.49374,1.50725,1.52023,1.50141,1.49535,1.52118,1.50661,1.50547,1.50866,1.50842,1.49502,1.46592,1.46077,1.46165,1.4619,1.45746,1.46761,1.44549,1.46115,1.46233,1.46002,1.44529,1.45338,1.44603,1.43111,1.44399,1.45741,1.42674,1.42376,1.44318,1.42912,1.41968,1.39485,1.39604,1.36876,1.35471,1.3386,1.33938,1.31922,1.30291,1.30176,1.27874,1.28453,1.31616,1.312,1.30951,1.3111,1.26347,1.26304,1.24787,1.25422,1.26022,1.23065,1.23262,1.23855,1.30272,1.22597,1.24796,1.25344,1.25319,1.19947,1.21097,1.25215,1.2002,1.20291,1.19379,1.19579,1.1856,1.19301,1.19943,1.20185,1.21585,1.18128,1.1797,1.16838,1.16819,1.16377,1.15425,1.15979,1.16435,1.1449,1.14428,1.17704,1.17468,1.15906,1.16834,1.17136,1.16748,1.16842,1.16632,1.19216,1.19535,1.1961,1.2759,1.24511,1.27911,1.26629,1.27131,1.27417,1.27585,1.28063,1.27499,1.27613,1.27817,1.28213,1.28003,1.28143,1.26587,1.26661,1.43018,0.00355594,0.0038052,1.3037,1.30609,1.31022,1.31669,1.31838,1.32708,1.33456,1.33801,1.33991,1.34383,1.45405,1.35548,0.00364989,1.38113,1.37971,1.3824,1.38685,1.38836,1.39273,1.48373,1.49692,1.48865,1.47813,1.49296,1.47257,1.49039,1.46153,0.00325839,1.46484,1.47047,1.47821,1.47771,1.48471,1.48001,1.48856,0.00343505,0.00366666,1.50256,1.50642,1.51639,1.51688,1.5194,1.52353,1.52699,1.53112,1.53411,1.5421,0.0034502,1.55552,1.56088,1.5599
0.154232,0.153363,0.152145,0.152574,0.15274,0.153872,0.00337144,0.00346846,0.00364849,0.120665,0.114995,0.117163,0.115057,0.00377956,0.00370128,0.124276,0.00352308,0.00310851,0.00366326,0.00372366,0.00352725,0.0693649,0.00440653,0.00373672,0.0316642,0.0303844,0.0293226,0.0336481,0.0348725,0.0277324,0.0141497,0.00959555,0.00503026,0.00408053,0.00450742,0.00434045,0.00376215,0.0105701,0.00401724,0.00327559,0.00305024,0.00351964,0.00341565,0.0702809,0.0696663,0.0709871,0.0712768,0.0705481,0.0933969,0.0943551,0.00346413,0.599688,0.00334616,0.00393449,0.00379141,0.132043,0.00319152,0.133405,0.00317877,0.00344125,0.00313571,0.00353397,0.00330752,0.00423753,0.00333072,0.00356962,0.00341438,0.00392523,0.00328178,0.00329744,0.00358382,0.00350944,0.0033576,0.568704,0.00328851,0.00420151,0.00358037,0.00390715,0.552422,0.00346134,0.00380386,0.00377366,0.00315765,0.00333569,0.00350197,0.337804,0.336939,0.335894,0.335818,0.336535,0.336345,0.414492,0.416002,0.41579,0.418143,0.423938,0.375476,0.383362,0.378037,0.415602,0.417315,0.414687,0.416814,0.463103,0.458862,0.459346,0.46699,0.486831,0.486593,0.468978,0.479971,0.508508,0.600161,0.604567,0.611271,0.650388,0.735715,0.689622,0.687839,0.939638,0.943328,1.02177,1.06398,1.0875,1.10221,1.16656,1.21423,1.21715,1.42883,1.46047,1.45736,1.46674,1.476,1.48387,1.4997,1.50165,1.50688,1.52721,1.53445,1.53691,1.52972,1.50598,1.5143,1.4952,1.48983,1.46781,1.47898,1.46122,1.45443,1.44178,1.4522,1.4571,1.45792,1.46499,1.4433,1.4851,1.48889,1.47837,1.46652,1.47133,1.49176,1.45478,1.43953,1.44033,1.44073,1.42864,1.41379,1.42626,1.40575,1.40312,1.41958,1.39349,1.37146,1.35832,1.34159,1.34481,1.38781,1.39484,1.30642,1.31663,1.28202,1.30518,1.30057,1.26876,1.24973,1.24995,1.24067,1.24053,1.24311,1.23777,1.25946,1.29261,1.25318,1.24447,1.23998,1.24072,1.22646,1.22512,1.22961,1.23886,1.19134,1.19122,1.20314,1.19491,1.22888,1.20054,1.17502,1.19795,1.19642,1.17435,1.17614,1.17031,1.15269,1.15074,1.17296,1.14248,1.14017,1.13886,1.15804,1.18442,1.19847,1.19559,1.20185,1.19568,1.15507,1.15702,1.15778,1.1827,1.23841,1.2405,1.24469,0.00349392,0.00345563,1.2686,1.2704,1.27344,1.28236,1.28292,1.28319,1.28066,1.2792,1.28198,1.27649,1.28115,1.26908,1.27048,1.27681,1.3132,0.00381309,1.30605,1.30471,1.30805,1.30877,1.38743,1.37294,1.44739,1.3387,1.33732,1.34323,1.35305,0.00354312,1.36788,1.37406,1.37523,1.37998,1.38218,1.39253,1.39431,1.49239,1.49302,1.48553,1.43031,1.44334,1.44456,1.45535,1.46091,1.46266,1.46736,1.47162,1.47293,1.47598,1.47481,1.48339,1.48383,1.48916,1.49415,1.49455,1.50234,1.5135,0.00353886,1.52211,1.52745,1.52719,1.53352,1.5336,1.54396,1.5434,1.55084,0.00344722,1.55797
0.0038584,0.00346354,0.154834,0.00393275,0.00383451,0.00337758,0.00372655,0.00346297,0.11809,0.11944,0.119486,0.119498,0.117798,0.119297,0.00359807,0.00347776,0.0993275,0.00348153,0.00387426,0.00353093,0.00359536,0.0035995,0.00437875,0.00374084,0.033594,0.00372242,0.0313072,0.0326743,0.00416096,0.00349272,0.0239742,0.0228608,0.0107192,0.00453567,0.0059952,0.00459105,0.00346215,0.00345284,0.00391896,0.00336432,0.00361859,0.00369719,0.00356353,0.0683095,0.0694195,0.0693928,0.0691013,0.00384468,0.00345562,0.00340848,0.599617,0.600515,0.00369745,0.00366871,0.00327086,0.13291,0.13385,0.134248,0.133958,0.00343973,0.00371363,0.00352442,0.00361651,0.00366043,0.00383421,0.0036763,0.00371767,0.00344572,0.00371196,0.00326224,0.00407069,0.00335874,0.00363758,0.00349294,0.0037257,0.00353086,0.00371349,0.00336433,0.00356096,0.0033265,0.00340311,0.00347502,0.00373187,0.00337121,0.334268,0.334473,0.337725,0.338221,0.336109,0.328909,0.358311,0.358027,0.355769,0.363234,0.409211,0.394495,0.386253,0.392104,0.406345,0.400166,0.418819,0.404436,0.382425,0.404033,0.418917,0.446799,0.464295,0.474426,0.502246,0.503564,0.486664,0.487831,0.598794,0.600428,0.610429,0.621178,0.680057,0.707042,0.708796,0.89564,0.981901,1.01354,1.01673,1.13407,1.13557,1.18863,1.2104,1.4449,1.45542,1.48202,1.46333,1.46387,1.44266,1.49185,1.48822,1.51773,1.52162,1.53978,1.53761,1.53832,1.55228,1.55443,1.55025,1.52344,1.49584,1.4677,1.45963,1.45864,1.462,1.44083,1.45637,1.45777,1.45547,1.45745,1.47881,1.46215,1.49934,1.48515,1.4728,1.49726,1.47201,1.43702,1.43745,1.43813,1.41424,1.42083,1.4191,1.41213,1.41627,1.42242,1.42033,1.40631,1.37482,1.36421,1.36552,1.37099,1.34031,1.43828,1.43754,1.43635,1.29978,1.28441,1.27048,1.27093,1.31137,1.32017,1.32056,1.29405,1.24968,1.26042,1.25664,1.26398,1.25463,1.24178,1.26689,1.23017,1.23185,1.23408,1.203,1.19519,1.21066,1.19493,1.19533,1.19432,1.19614,1.20652,1.17501,1.20298,1.18931,1.17124,1.16831,1.16997,1.14932,1.15007,1.16102,1.20199,1.17441,1.1356,1.15695,1.16514,1.18587,1.18395,1.18543,1.23043,1.22967,1.15639,1.15858,1.18083,1.18004,1.19819,1.19825,0.0037511,1.26364,1.26805,1.26743,1.2689,1.27237,1.27183,1.2717,1.27205,1.27361,1.27783,1.27701,1.27345,1.26672,1.27168,1.27311,1.2977,1.29933,0.00318707,1.30176,1.30638,1.31312,1.31261,1.32708,1.32827,1.33086,1.33912,1.33928,1.34343,1.46905,1.37089,1.37509,1.37767,1.37637,1.37971,0.00348851,1.49616,1.49714,1.47185,1.46986,1.48095,1.43401,1.44282,1.44526,1.45718,1.45944,1.46455,1.46662,1.46773,1.47255,1.47414,1.48171,1.47982,1.4868,1.49227,1.49436,1.49751,1.50423,0.00346811,1.51506,1.52026,1.52479,1.53273,1.53148,1.54401,1.54553,1.55054,0.00343357,0.00346769
0.00379714,0.00357177,0.00348302,0.17517,0.174898,0.175139,0.00359277,0.00368454,0.00360744,0.118277,0.00355571,0.119214,0.117908,0.117453,0.119968,0.00374109,0.00337365,0.00386631,0.00382129,0.00407691,0.00330986,0.00409771,0.00352809,0.0035579,0.0488653,0.0487242,0.0476803,0.0374347,0.0388759,0.0377542,0.00351456,0.00364897,0.00365364,0.00407812,0.00432733,0.0110909,0.00341787,0.0179602,0.0038781,0.00357801,0.00334876,0.00391597,0.00313375,0.00401808,0.00338287,0.00367106,0.00343761,0.00334785,0.00310878,0.568188,0.569938,0.0734707,0.00331532,0.00323063,0.00385139,0.00330364,0.00322941,0.132064,0.134257,0.00344585,0.00367222,0.00362427,0.0032093,0.00368257,0.00341013,0.00353705,0.0034309,0.187611,0.00366264,0.00360763,0.00354638,0.00336228,0.00360217,0.00365084,0.00353315,0.00349532,0.00366443,0.0037579,0.00339319,0.00369272,0.00346302,0.00347106,0.00362341,0.00380662,0.338782,0.338223,0.338051,0.338644,0.344315,0.345147,0.359823,0.358723,0.359933,0.409159,0.408823,0.393587,0.376289,0.409525,0.422399,0.404956,0.391916,0.391926,0.408155,0.407957,0.394383,0.466546,0.420524,0.460578,0.502019,0.471709,0.452067,0.49073,0.474008,0.557501,0.580627,0.579672,0.593678,0.643347,0.750348,0.75037,0.849172,0.840031,1.04795,1.04909,1.22607,1.22651,1.36,1.44335,1.4769,1.48647,1.50632,1.47207,1.48283,1.48821,1.48746,1.50345,0.0036237,1.54461,1.55099,1.55731,1.56455,1.50137,1.49992,1.53442,1.53153,1.53624,1.51119,1.50033,1.50191,1.53076,1.44739,1.44924,1.45504,1.43813,1.45676,1.45681,1.47717,1.48708,1.48155,1.47877,1.45397,1.44381,1.43941,1.44725,1.44221,1.4425,1.44175,1.43375,1.43395,1.43459,1.41002,1.40018,1.39776,1.39705,1.39301,1.37789,1.36698,1.35174,1.35127,1.35191,1.30627,1.29806,1.28463,1.28075,1.28467,1.2845,1.2828,1.26152,1.26476,1.25809,1.26165,1.27226,1.29441,1.2994,1.23439,1.23065,1.25275,1.25344,1.19552,1.20766,1.17752,1.17516,1.20316,1.19123,1.19363,1.19396,1.18782,1.18671,1.16808,1.15858,1.17839,1.16366,1.16389,1.1609,1.16359,1.17475,1.16334,1.17249,1.17646,1.19899,1.18132,1.19227,1.19439,1.19651,1.27491,1.20918,1.17782,1.17815,1.1645,1.20547,1.2064,1.2122,0.00328641,1.25957,1.2616,1.26315,1.26316,1.26546,1.26524,1.26251,1.26409,1.26648,1.26071,1.26166,1.26042,0.00336216,1.29489,1.30332,1.28962,1.29498,1.29893,0.00330098,1.31393,1.32004,1.32275,1.32843,1.3329,1.33808,1.47059,1.34327,1.47129,1.36609,1.36736,1.36969,1.37332,1.37652,1.48827,1.49289,1.46033,1.46193,0.00372375,1.42988,1.48527,1.44704,1.45144,1.45506,1.45515,1.46188,1.46318,1.46854,1.46946,1.47369,1.48253,1.48317,1.48625,1.49057,1.49033,1.5006,1.49889,1.50475,1.52365,1.7552,1.52983,0.00334867,1.53719,1.54351,1.54294,1.55547,1.55594,1.55682
0.198789,0.198249,0.197667,0.159017,0.157819,0.157689,0.00362585,0.00341824,0.12223,0.118436,0.115975,0.114537,0.00337441,0.115018,0.0979676,0.0969695,0.0963434,0.0036237,0.0967566,0.00355557,0.0095699,0.00376901,0.051311,0.0492393,0.0478932,0.0477546,0.0473262,0.0383452,0.0376737,0.0381042,0.0287658,0.0291564,0.0295838,0.00361517,0.0105499,0.00377659,0.00598965,0.003466,0.0116689,0.0120707,0.00356788,0.00355454,0.00353982,0.00352238,0.00345846,0.0033624,0.00359283,0.0694526,0.0700211,0.0720306,0.0734672,0.00316313,0.00401345,0.00353955,0.00409541,0.00320281,0.00403044,0.00360145,0.137025,0.137166,0.00354848,0.00334295,0.00359466,0.00340575,0.00389975,0.00340622,0.18719,0.00336341,0.00364445,0.00335733,0.527953,0.0033818,0.0103802,0.00360489,0.00365032,0.00322587,0.00382555,0.00347434,0.534832,0.00348724,0.293733,0.00345788,0.297655,0.297221,0.00361374,0.00375264,0.342149,0.343094,0.345959,0.356589,0.357797,0.359544,0.416016,0.410685,0.410566,0.411763,0.399071,0.399478,0.400811,0.400747,0.378007,0.386187,0.379707,0.407856,0.381871,0.428888,0.414057,0.45912,0.464613,0.460785,0.497224,0.496124,0.517258,0.554982,0.556255,0.591322,0.607694,0.609204,0.624669,0.776094,0.778617,0.835663,1.03428,1.23042,1.23151,1.28874,1.43084,1.42863,1.44261,1.51384,1.5222,1.52294,1.51346,1.51525,1.52055,1.52358,1.53003,1.54397,1.57344,1.56532,1.59335,1.53581,1.5145,1.5158,1.50994,1.51077,1.51339,1.53325,1.53011,1.51191,1.45093,1.45835,1.47128,1.48902,1.48795,1.48785,1.48498,1.50962,1.48527,1.48849,1.45048,1.45236,1.45159,1.44082,1.43058,1.41717,1.42265,1.42561,1.42559,1.41252,1.41326,1.43172,1.47932,1.39118,1.38969,1.37741,1.37161,1.34548,1.35473,1.35893,1.3368,1.28929,1.29056,1.33817,1.33871,1.26716,1.27081,1.27054,1.2704,1.2723,1.2743,1.26795,1.27633,1.26414,1.26888,1.26447,1.25162,1.23613,1.23234,1.21338,1.19449,1.19428,1.19174,1.17829,1.18064,1.18227,1.18452,1.19254,1.15709,1.16,1.15624,1.15767,1.17144,1.14314,1.14412,1.14402,1.16749,1.19206,1.20227,1.20882,1.21469,1.17974,1.19208,1.21982,1.20502,1.2096,1.13215,1.17385,1.15262,1.24161,1.2427,1.24337,1.25111,1.24717,1.24377,1.24152,1.32306,1.27191,1.24942,1.25117,0.00336385,1.25613,1.25408,1.25543,1.24987,1.29707,1.29763,1.29376,1.29586,1.29804,1.29888,1.30469,1.30924,1.31302,1.32409,1.32575,1.33253,1.33415,1.3568,1.3586,1.36259,1.35922,1.35969,1.52001,1.49092,1.49917,1.49512,1.49592,1.45851,1.46524,1.46308,1.4296,1.44769,1.44809,1.4497,1.45375,1.45364,1.46044,1.46371,1.46106,1.47274,0.00336408,1.47983,1.48113,1.49254,1.49269,1.49993,1.50257,1.50295,1.50366,1.77147,0.00331404,1.52756,1.53285,0.00355366,1.54658,1.54536,1.55404,1.55994,1.56081
0.197051,0.197413,0.197981,0.17338,0.157995,0.157858,0.157566,0.158394,0.00336657,0.0035629,0.00344169,0.116111,0.1154,0.00325314,0.00330017,0.00358143,0.0959938,0.0942029,0.00361467,0.0906891,0.00357708,0.00358265,0.00342918,0.00396643,0.0512813,0.0510176,0.0519764,0.0376915,0.0380689,0.0381411,0.0385932,0.0304792,0.0270558,0.00411948,0.0108105,0.0101742,0.0111794,0.0104152,0.0117164,0.0119515,0.0119919,0.0149078,0.00358761,0.00373026,0.00355374,0.00365175,0.0035016,0.00389749,0.0693457,0.0714656,0.0714145,0.0721909,0.00322427,0.00357685,0.00361586,0.00375165,0.00306794,0.00396323,0.00330918,0.00350242,0.00355032,0.00356918,0.00329518,0.00376902,0.0032278,0.00377035,0.00332192,0.00337014,0.00341797,0.00340624,0.0034032,0.52806,0.00346294,0.00397463,0.00339235,0.00363638,0.00346837,0.00329435,0.00342514,0.00375342,0.00349578,0.00380099,0.00342407,0.00385932,0.00332731,0.328134,0.331716,0.348691,0.346366,0.347192,0.359629,0.389591,0.389428,0.439667,0.433201,0.421269,0.397813,0.40204,0.401297,0.402031,0.347758,0.373466,0.386727,0.413367,0.404344,0.40345,0.406821,0.452389,0.458645,0.436668,0.437752,0.438237,0.468885,0.555735,0.555032,0.596589,0.614048,0.609348,0.666501,0.669875,0.77349,1.00214,1.00645,1.05951,1.06414,1.31137,1.46705,1.48632,1.49817,1.5424,1.54268,1.52091,1.5188,1.52471,1.52522,1.55633,1.56134,1.54085,1.57885,1.52358,1.52151,1.52124,1.52599,1.50195,1.52937,1.50924,1.50788,1.50313,1.50254,1.49565,1.48036,1.45464,1.48391,1.48498,1.47507,1.47346,1.46933,1.47141,1.46542,1.47023,1.46476,1.52284,1.52271,1.47647,1.47596,1.45741,1.43334,1.43385,1.42288,1.43364,1.44148,1.45365,1.4753,1.50953,1.39238,1.40094,1.36994,1.35675,1.34955,1.33292,1.33419,1.3375,1.29547,1.27748,1.29082,1.29423,1.27153,1.27155,1.26862,1.26921,1.2617,1.26193,1.26435,1.26457,1.27412,1.2602,1.24573,1.23725,1.23326,1.20837,1.20004,1.20189,1.23756,1.19504,1.19847,1.15303,1.15427,1.15672,1.16795,1.15138,1.14497,1.17163,1.17136,1.14821,1.14968,1.13444,1.13642,1.12476,1.22237,1.22992,1.18247,1.16815,1.1673,1.15564,1.17089,1.14092,1.14431,1.16495,1.1705,1.23775,1.23874,1.2182,1.21937,1.22787,1.228,1.23121,1.23277,1.26037,1.24085,1.24331,1.24445,1.24685,1.30145,1.29333,1.29565,1.3018,1.30387,1.3051,1.30316,1.30033,1.30109,1.29967,1.30934,1.31139,0.00333129,1.32661,1.3286,0.00352315,0.00350367,0.00366133,1.35634,1.3583,1.36725,1.36873,1.46259,1.49478,1.38912,1.46571,1.46193,1.46912,0.00330825,1.45389,1.44151,1.44575,1.44744,1.44911,1.45063,1.45618,1.46159,1.46139,1.46829,1.46853,1.47844,0.00339867,1.48952,1.49995,1.50069,1.50097,1.5097,1.50931,1.52026,1.52114,1.52806,1.53063,1.54082,1.54391,1.54386,1.55202,0.00343249,1.56258
0.19629,0.196445,0.167244,0.167249,0.165459,0.166088,0.166362,0.165914,0.0037134,0.00365736,0.00356187,0.00331005,0.00380779,0.00343772,0.00351085,0.00358444,0.00368264,0.00391559,0.0036343,0.00359016,0.00334698,0.00349367,0.00364987,0.00359551,0.00379274,0.003582,0.0407015,0.0321275,0.0317609,0.0407015,0.0313744,0.0300396,0.0308154,0.0240419,0.00980897,0.00972575,0.00355607,0.0103204,0.0116827,0.0137189,0.0115477,0.00413231,0.0146691,0.00368462,0.00334939,0.00348909,0.044563,0.00305882,0.04418,0.0449349,0.00370445,0.0033881,0.00357848,0.00340794,0.00376319,0.0034913,0.00338789,0.00364384,0.00371206,0.00356637,0.00361461,0.00352321,0.00331794,0.003577,0.00352462,0.00348787,0.00327745,0.00343582,0.00344011,0.00317539,0.00377016,0.00349524,0.0033019,0.00337807,0.00332443,0.00344619,0.00342284,0.00341957,0.0041363,0.0037655,0.0036133,0.00342315,0.00340046,0.00314831,0.00378578,0.00345296,0.34534,0.346386,0.346644,0.347727,0.347516,0.389602,0.404138,0.414608,0.400301,0.393989,0.427916,0.41772,0.403632,0.349564,0.35036,0.369955,0.34758,0.407908,0.407773,0.405084,0.448985,0.442229,0.449383,0.46906,0.493413,0.507645,0.517763,0.480932,0.587726,0.593446,0.618021,0.631286,0.658374,0.671727,0.779103,0.781211,1.04433,1.09807,1.23477,1.23748,1.45825,1.47216,1.50067,1.51401,1.54493,1.53281,1.51342,1.53072,1.52987,1.5546,1.56311,1.56297,1.54431,1.53391,1.52256,1.5142,1.51275,1.49734,1.50167,1.49264,1.48214,1.47875,1.48533,1.46879,1.46788,1.4809,1.47959,1.46701,1.48482,1.48451,1.46333,1.4676,1.46342,1.4618,1.4621,1.49887,1.49954,1.474,1.44457,1.46921,1.44624,1.4327,1.42455,1.44961,1.46273,1.43757,1.45389,1.49319,1.38467,1.3856,1.34951,1.34431,1.32259,1.32372,1.32364,1.32555,1.45409,1.34333,1.34386,1.30174,1.28308,1.28598,1.31035,1.27536,1.27843,1.25506,1.25597,1.31253,1.24158,1.21741,1.21886,1.28944,1.20267,1.20329,1.21053,1.20778,1.212,1.20457,1.20149,1.18483,1.19121,1.17609,1.15541,1.15688,1.15713,1.16073,1.168,1.13182,1.13501,1.12327,1.12157,1.12269,1.10302,1.14152,1.14413,1.1506,1.13386,1.13239,1.15378,1.15383,1.13853,1.12914,1.13844,1.15188,1.16675,1.16512,1.22752,1.22228,1.22995,1.22914,1.22903,1.22904,1.23332,1.23273,1.24343,0.00327489,1.2962,1.2888,0.00361393,1.30026,1.3021,1.30046,1.30209,1.30254,1.29828,1.3011,1.30327,1.31502,1.31977,1.32507,1.33021,0.00343396,1.45587,1.46446,1.36073,1.36063,1.48633,1.48612,1.49178,1.38526,1.39088,0.00344502,1.40926,1.46457,0.00336465,1.45067,1.44054,1.4403,1.44235,1.44679,1.44866,1.45514,1.4557,1.46392,1.46291,1.46845,1.47541,0.00344883,0.00329511,0.00348575,1.50639,1.50444,1.51315,1.51422,1.5163,0.00349212,1.52926,1.53197,1.54004,1.54158,1.54251,1.54532,1.56066,1.56445
0.169047,0.167754,0.166927,0.16676,0.166796,0.166412,0.168197,0.168705,0.00350542,0.00355171,0.00372791,0.116779,0.00358026,0.00357127,0.00379048,0.00389862,0.00342205,0.00356037,0.00383522,0.0107406,0.00367718,0.00357335,0.0723857,0.0034859,0.0036985,0.00379909,0.00347695,0.0387014,0.0378073,0.0353464,0.0360135,0.0347556,0.0333941,0.0322228,0.00475394,0.00764679,0.00623682,0.00897619,0.0109104,0.00398936,0.0160199,0.0164232,0.0237221,0.0169431,0.0213544,0.0422105,0.0428187,0.0429584,0.042939,0.0436804,0.00335988,0.00344368,0.00346225,0.00325179,0.00311935,0.00379429,0.00343027,0.0034718,0.00333173,0.00357414,0.543872,0.543984,0.0032297,0.00348451,0.00350419,0.00327072,0.00335761,0.00366388,0.00358988,0.00360673,0.00345505,0.534775,0.535462,0.204877,0.204338,0.224265,0.00338005,0.00368452,0.00340666,0.0037073,0.00349702,0.00331575,0.00367326,0.0039442,0.00359318,0.00359155,0.0035463,0.349272,0.351511,0.352256,0.0034918,0.411461,0.411571,0.400855,0.400542,0.395038,0.394685,0.396808,0.356786,0.355455,0.34915,0.349198,0.466365,0.382381,0.433088,0.409513,0.400021,0.404081,0.470357,0.4935,0.518769,0.499417,0.522416,0.490483,0.573763,0.575475,0.668478,0.644163,0.67816,0.663329,0.687869,0.686573,0.991709,1.07256,1.25271,1.26493,1.41032,1.46557,1.50121,1.51219,1.52812,1.52726,1.53071,1.53337,1.54046,1.54119,1.54064,1.55358,1.5548,1.55964,1.50785,1.50215,1.5018,1.50378,1.48353,1.48533,1.48932,1.46153,1.45811,1.44429,1.44511,1.458,1.46217,1.46213,1.4507,1.46449,1.4517,1.46811,1.47144,1.46817,1.45638,1.48157,1.4565,1.48137,1.45484,1.46592,1.46679,1.45231,1.44842,1.43535,1.43531,1.44136,1.44663,1.43651,1.40227,1.38272,1.35259,1.35072,1.33839,1.34834,1.34225,1.34289,1.34582,1.29617,1.28231,1.28448,1.28258,1.29207,1.27808,1.27797,1.27589,1.25297,1.28505,1.22816,1.22978,1.23018,1.21684,1.20328,1.20273,1.22188,1.21101,1.20792,1.20952,1.20924,1.19748,1.20392,1.19687,1.16229,1.13579,1.15116,1.15641,1.14626,1.13971,1.11268,1.13029,1.10788,1.20823,1.10007,1.10186,1.12324,1.16684,1.16862,1.13508,1.15024,1.12411,1.10397,1.10583,1.13408,1.11244,1.14405,1.18149,0.00342849,1.2113,1.21367,1.21814,1.22315,1.22591,1.22032,1.21756,1.22947,1.2504,0.00350911,1.28163,1.28581,0.00370012,1.29756,1.29689,1.30202,1.29583,1.29645,1.29845,1.30228,1.30604,1.309,1.31673,1.32151,1.33689,1.33913,1.45318,1.48551,1.45049,1.49026,1.45362,1.3805,1.38214,1.46317,1.46401,1.4662,1.46241,1.4609,1.44737,1.43829,1.44021,1.43945,1.44064,1.4402,1.44769,1.45645,1.45972,1.45912,1.46631,1.46936,1.47485,1.48416,1.4893,1.49457,0.00373093,0.00378734,1.50929,0.00374056,1.52108,1.5262,1.52962,1.533,0.00340281,1.54232,1.5544,1.55383,1.56283,1.57438
0.176784,0.173495,0.171926,0.172358,0.169505,0.170268,0.170363,0.169307,0.00327705,0.0036322,0.00413129,0.00356886,0.00367429,0.00372727,0.00388673,0.00336737,0.00381196,0.0035035,0.0041527,0.00362188,0.00356149,0.00337057,0.0715492,0.00351726,0.0734577,0.00351272,0.0392853,0.00337344,0.0369297,0.0345232,0.0341455,0.00384515,0.0163786,0.00351658,0.00472254,0.0162007,0.0110867,0.00422543,0.0112494,0.00349193,0.0111732,0.0162034,0.00403868,0.0196919,0.0260264,0.042605,0.0447082,0.0446373,0.0447752,0.044668,0.00332828,0.00325176,0.00380437,0.00357136,0.0039006,0.00374087,0.00313108,0.00341741,0.00362394,0.00363178,0.00372974,0.0034539,0.00347989,0.0033639,0.494756,0.495742,0.496066,0.00354766,0.00306895,0.00334082,0.535464,0.535366,0.207171,0.207239,0.20758,0.00357013,0.0036722,0.00373423,0.00382382,0.00318146,0.00345999,0.00374988,0.00365091,0.0036866,0.00367772,0.00336157,0.00354722,0.349779,0.352169,0.393832,0.396309,0.38867,0.392731,0.447296,0.4473,0.447826,0.398466,0.40852,0.351574,0.338925,0.338351,0.332863,0.356077,0.384081,0.394484,0.420016,0.421218,0.420503,0.419926,0.476118,0.489763,0.489902,0.475325,0.515733,0.478334,0.567293,0.608852,0.608095,0.660507,0.661783,0.648208,0.697187,0.738652,1.0249,1.02269,1.05153,1.39774,1.42068,1.41929,1.44476,1.46703,1.46311,1.48841,1.50518,1.5026,1.53642,1.54328,1.54314,1.53526,1.5339,1.50655,1.50545,1.48127,1.48204,1.51605,1.51066,1.46152,1.45636,1.46739,1.46817,1.46163,1.44462,1.45261,1.44467,1.42668,1.46543,1.45673,1.4603,1.46385,1.4692,1.48825,1.48466,1.50356,1.45796,1.48022,1.45788,1.45381,1.45471,1.44648,1.44469,1.44628,1.44736,1.43252,1.43942,1.44005,1.37468,1.3734,1.38974,1.39633,1.32347,1.30927,1.2919,1.29494,1.31916,1.34286,1.28383,1.29134,1.27775,1.2784,1.25777,1.27789,1.25525,1.25577,1.27488,1.28167,1.23006,1.23258,1.25345,1.2006,1.20418,1.20141,1.18008,1.19092,1.18017,1.19677,1.18758,1.16399,1.14511,1.14679,1.1497,1.15018,1.15646,1.15766,1.12507,1.13577,1.1226,1.11216,1.15008,1.12333,1.16071,1.15367,1.15288,1.12985,1.13345,1.16161,1.11507,1.11225,1.16171,1.16292,1.19468,1.20102,1.2053,1.20734,1.21506,1.22056,1.22424,1.22426,1.22671,1.22675,1.22892,1.22807,0.00345746,1.3025,1.29509,0.00373379,1.28996,1.28937,1.29616,1.29572,1.29832,1.3047,1.30499,1.30575,1.30879,0.00325601,0.00350874,1.33489,1.33592,1.34531,1.35485,1.35689,0.00349968,1.37218,1.37566,1.38077,1.46443,1.46596,1.47609,1.45962,1.43079,1.42876,1.42706,1.43126,1.43583,1.43645,1.4383,1.43824,1.44798,1.45287,0.00350618,1.46597,1.47202,1.47559,0.0034502,1.48654,1.48962,1.49479,1.5053,1.5091,0.00354954,1.51985,0.00329194,1.53125,1.53318,1.53824,1.54406,1.55355,0.00329339,1.56898,1.57134
0.00389515,0.172336,0.171445,0.171813,0.17102,0.171415,0.172036,0.171459,0.0034287,0.00362153,0.00375093,0.00341837,0.00344773,0.00412425,0.00307646,0.00376557,0.00355527,0.00364144,0.00400517,0.00363632,0.00342193,0.0035372,0.00330387,0.00372172,0.0033227,0.0037979,0.00340447,0.0036479,0.0481188,0.00386584,0.00359146,0.00462182,0.00413309,0.0167728,0.00459601,0.0159972,0.0156096,0.0141583,0.0040987,0.0137133,0.003732,0.00445913,0.0180956,0.00350167,0.00354711,0.0424856,0.0439486,0.0439897,0.0449519,0.0439986,0.0439882,0.0780454,0.0790842,0.0797708,0.00370228,0.00365464,0.00349812,0.00324489,0.00368643,0.00382931,0.00343122,0.00329868,0.0031545,0.00328719,0.00331646,0.00334652,0.0032575,0.00380406,0.00333874,0.00335511,0.00335069,0.00343901,0.00340394,0.00339505,0.00328599,0.546074,0.00323261,0.0035285,0.00353161,0.00369476,0.00357563,0.00344777,0.00329067,0.00358276,0.00355451,0.00337333,0.348433,0.351029,0.35115,0.352696,0.349013,0.412403,0.411191,0.408557,0.370805,0.40866,0.407698,0.380782,0.339044,0.333184,0.346031,0.369445,0.400741,0.403813,0.394552,0.366341,0.396872,0.394337,0.428999,0.434131,0.495289,0.514038,0.496783,0.460732,0.530936,0.535312,0.58287,0.665818,0.652074,0.668297,0.717249,0.71461,0.718599,0.97935,1.02211,1.09883,1.15023,1.39291,1.40059,1.40218,1.40938,1.39692,1.40704,1.42945,1.43786,1.44984,1.45358,1.44489,1.46338,1.44337,1.45376,1.48095,1.48173,1.47537,1.47576,1.46718,1.46711,1.45357,1.452,1.45841,1.45038,1.44975,1.43078,1.44641,1.4799,1.46689,1.45819,1.46306,1.48184,1.48952,1.49133,1.47937,1.49085,1.47813,1.47942,1.46966,1.45005,1.44807,1.45591,1.45561,1.43647,1.4456,1.44651,1.42541,1.4208,1.39039,1.3806,1.38506,1.38986,1.39146,1.40933,1.29436,1.29549,1.30905,1.2752,1.27539,1.26727,1.26882,1.27168,1.26215,1.24753,1.2646,1.27269,1.25917,1.23618,1.2385,1.24144,1.24288,1.21893,1.18632,1.18702,1.17781,1.17891,1.17174,1.19138,1.16424,1.16393,1.15098,1.15372,1.14419,1.12243,1.13071,1.13765,1.11166,1.12533,1.11568,1.10026,1.10206,1.12354,1.13618,1.15384,1.14468,1.14901,1.14303,1.14341,1.12091,1.12295,1.11206,1.13747,1.15343,1.19921,1.20141,1.20309,1.20901,1.21691,1.2264,1.22682,1.22525,1.22484,1.22592,1.23301,1.29325,0.00341237,1.28993,0.00355937,1.28612,1.28595,1.29128,1.29384,1.29833,1.29925,1.30526,1.30766,1.31397,1.316,1.33439,1.337,1.33852,1.34155,1.35395,1.35755,1.45284,1.46277,1.37563,1.37792,1.38901,1.39044,1.39523,1.43303,1.41292,1.41439,1.41721,1.42648,1.43024,1.43055,1.43744,1.4407,1.44754,0.00393698,1.4591,0.00374785,1.48069,1.48357,1.4834,1.48659,1.49161,1.4946,1.50392,0.00345961,1.51566,0.00326371,1.52651,1.53458,1.53416,1.54204,0.00343758,0.00360494,1.56161,1.56918,1.57462
0.00331673,0.172716,0.171959,0.171635,0.171844,0.171658,0.16917,0.165274,0.167464,0.00344226,0.00387629,0.00362593,0.00368035,0.00343748,0.136847,0.136649,0.136913,0.13706,0.00358942,0.00365983,0.0034918,0.00343736,0.00385572,0.00354437,0.0632497,0.0614774,0.0608288,0.0605938,0.0603482,0.00321554,0.00375262,0.00424753,0.00497781,0.003754,0.00381969,0.00394756,0.015773,0.0147674,0.00335185,0.00381081,0.011288,0.0034689,0.00425548,0.00427218,0.00437464,0.00412439,0.00424397,0.00332346,0.0406399,0.0413569,0.0403231,0.00338608,0.0812058,0.0812936,0.080736,0.0800845,0.00357955,0.00337613,0.0885848,0.00313788,0.00386589,0.00342163,0.503206,0.00350282,0.528022,0.00309224,0.00336447,0.00327045,0.00371189,0.00324139,0.00380755,0.00332454,0.003705,0.00322907,0.00343982,0.00352589,0.610042,0.00362491,0.00365622,0.00326014,0.00355907,0.00332242,0.00347846,0.00331778,0.00334469,0.00315612,0.345107,0.349654,0.346498,0.350108,0.349365,0.348972,0.414088,0.414305,0.384924,0.370038,0.376877,0.383407,0.376544,0.382781,0.359303,0.33227,0.38723,0.404598,0.368631,0.36596,0.403261,0.391509,0.421182,0.413289,0.414659,0.415167,0.459895,0.507133,0.542708,0.533292,0.52589,0.503515,0.663343,0.707864,0.749289,0.744032,0.737597,0.95589,0.952704,1.09713,1.12387,1.12824,1.34616,1.38929,1.36837,1.388,1.36557,1.36792,1.41203,1.40087,1.39844,1.42328,1.42349,1.43576,1.42317,1.45422,1.45324,1.46804,1.45996,1.46021,1.46036,1.45494,1.44551,1.45172,1.42958,1.45172,1.45234,1.45325,1.46737,1.4581,1.46775,1.48494,1.48861,1.49008,1.48549,1.49608,1.49605,1.4823,1.49203,1.45332,1.45296,1.46396,1.44911,1.45356,1.43324,1.42996,1.39809,1.39513,1.39338,1.37949,1.37738,1.36135,1.36028,1.42779,1.43748,1.29609,1.28799,1.29428,1.29529,1.27184,1.27087,1.2652,1.25983,1.24961,1.24935,1.24813,1.26135,1.2508,1.24589,1.22266,1.21154,1.20319,1.17782,1.22272,1.20272,1.16592,1.16877,1.19665,1.15187,1.14649,1.15767,1.16274,1.15374,1.13748,1.13695,1.16937,1.17042,1.11856,1.15752,1.1244,1.12711,1.11468,1.09451,1.14366,1.14368,1.13325,1.13385,1.14645,1.22812,1.22952,1.23259,1.1258,1.16201,1.18971,1.18555,1.18828,1.19724,0.00345218,0.00382005,1.22212,1.22467,1.2236,1.22575,1.22631,1.22971,1.23284,1.2842,0.00338311,1.27634,0.00349855,1.28418,1.28965,1.29474,1.29567,1.29575,1.29851,1.30643,1.30974,1.43668,0.00332248,1.42997,1.3437,1.3431,1.34463,1.45706,1.46065,1.37451,1.37329,1.37424,1.38229,1.38954,1.39259,1.39301,0.00347966,0.00359741,0.00360885,1.41849,1.42256,1.42676,1.42753,1.44627,1.45301,1.45116,1.78491,1.46613,1.46483,1.75903,1.48833,1.4893,1.49001,1.49914,1.5018,0.00348902,0.00355651,1.51835,1.52414,1.52567,0.00354592,0.00369997,0.00356825,1.55295,0.00339467,1.57507,1.57441
0.175611,0.1751,0.174598,0.173309,0.171907,0.172836,0.166699,0.167356,0.165713,0.166467,0.166615,0.00378246,0.135398,0.136055,0.134389,0.132954,0.134263,0.134896,0.0034878,0.00395628,0.00338078,0.00390534,0.00370354,0.00364259,0.0707238,0.0619975,0.061083,0.0607934,0.0611734,0.0622974,0.0039701,0.00369993,0.00374105,0.0492477,0.00338492,0.00318289,0.0424415,0.00310151,0.00373465,0.0310283,0.00443392,0.00609505,0.00391898,0.0040832,0.00354763,0.00366662,0.00371813,0.0371638,0.0387508,0.0404951,0.00351706,0.0789006,0.0790702,0.0793526,0.0797672,0.0795388,0.0862844,0.0857024,0.00333751,0.104799,0.003494,0.00345325,0.467607,0.468608,0.00370735,0.00371742,0.00333779,0.00359803,0.00332476,0.00359668,0.00347109,0.00353038,0.00337573,0.00366165,0.00351403,0.00338065,0.0032481,0.00361656,0.00348195,0.00334068,0.00371762,0.00352084,0.265266,0.00338926,0.00375655,0.00348777,0.348249,0.348593,0.348949,0.345013,0.345941,0.345315,0.410697,0.361726,0.377551,0.380171,0.379888,0.38039,0.378198,0.349663,0.403165,0.38303,0.380881,0.387883,0.364989,0.399679,0.387005,0.370411,0.407521,0.407325,0.424373,0.418235,0.446533,0.521973,0.511418,0.494807,0.510271,0.515536,0.483049,0.655301,0.736048,0.727773,0.743815,0.747838,0.94561,0.991273,1.10834,1.10914,1.23293,1.23242,1.32129,1.34435,1.35891,1.35967,1.40338,1.39854,1.39579,1.39522,1.39876,1.42289,1.44795,1.43765,1.43842,1.45387,1.45356,1.44993,1.43811,1.45548,1.45182,1.45092,1.4689,1.44338,1.43634,1.46344,1.45831,1.45851,1.47346,1.46722,1.48062,1.49963,1.49558,1.49806,1.50665,1.5067,1.50249,1.4671,1.46708,1.44471,1.4469,1.43511,1.40956,1.4151,1.39585,1.38169,1.37522,1.34909,1.36153,1.32577,1.30635,1.30923,1.28441,1.28742,1.28683,1.29169,1.32045,1.25157,1.2535,1.25409,1.26192,1.25752,1.23632,1.2366,1.26106,1.26444,1.22002,1.22632,1.19994,1.16092,1.16065,1.17724,1.16294,1.17209,1.18249,1.18576,1.15664,1.17403,1.16109,1.15906,1.13572,1.12923,1.1666,1.12993,1.13401,1.12285,1.105,1.12887,1.10986,1.10948,1.11284,1.094,1.13099,1.11156,1.12914,1.21087,1.21197,1.12729,1.1269,1.15965,1.19968,1.20178,1.18781,1.18815,1.19229,1.36558,1.21654,1.21931,1.22035,1.22344,1.22296,1.24152,0.00354343,0.00388497,0.00347648,1.26481,1.27043,1.27087,1.27865,1.28575,1.29092,1.29471,1.29122,1.292,1.43174,1.44662,1.43348,1.32245,1.33147,1.33702,1.337,1.45362,1.35086,1.37111,0.00333314,1.37898,1.38184,1.38464,1.39511,1.39923,1.39737,1.40247,1.40311,0.00350626,1.41791,1.4214,1.42127,1.42486,1.43789,1.44435,0.00356702,1.45562,1.76134,1.76432,1.47917,1.48124,1.48152,0.00375053,1.49757,1.50513,1.50219,1.51638,1.51998,1.51956,1.52811,1.53439,1.53396,1.63566,0.00326684,0.00387028,1.56998,1.58257
0.00389786,0.00338506,0.00350441,0.00350533,0.00372872,0.170135,0.167244,0.167386,0.166356,0.166508,0.166075,0.00378778,0.135996,0.135071,0.135591,0.132347,0.13233,0.132684,0.132085,0.00350966,0.00389657,0.00395148,0.00359089,0.0719164,0.0697163,0.0687422,0.067845,0.0629583,0.0635333,0.0639931,0.00367868,0.00339909,0.0105465,0.00373067,0.0430547,0.0420676,0.00386793,0.0416706,0.0305559,0.00367025,0.00445535,0.00367887,0.00352706,0.00416668,0.00346336,0.00382239,0.00360302,0.00312748,0.00358122,0.00365312,0.00336459,0.00346324,0.0766877,0.0763777,0.0759553,0.0850463,0.0868297,0.0863298,0.0870536,0.105899,0.549945,0.00352023,0.00344808,0.00333393,0.00338877,0.00339848,0.00390664,0.00333449,0.00329562,0.00345738,0.00377282,0.00335674,0.00350859,0.00358572,0.00332623,0.00330175,0.621346,0.00321975,0.00371887,0.00361745,0.0038416,0.00361498,0.00358646,0.00346944,0.00353653,0.00342945,0.00340951,0.34343,0.345717,0.345115,0.344794,0.343089,0.342006,0.00339336,0.378891,0.373568,0.368963,0.368829,0.363446,0.399401,0.315984,0.382596,0.368817,0.369282,0.37708,0.4339,0.405579,0.432323,0.399558,0.435037,0.411769,0.438424,0.401313,0.438018,0.493974,0.493511,0.483719,0.481305,0.542057,0.539765,0.705233,0.726098,0.735459,0.709045,0.754474,0.913374,0.961252,1.02175,1.09485,1.0913,1.21845,1.31505,1.32347,1.35571,1.36666,1.36281,1.37858,1.37862,1.37874,1.39743,1.41938,1.43423,1.44132,1.44609,1.47897,1.47775,1.44171,1.4289,1.44358,1.46114,1.45268,1.44726,1.45071,1.45637,1.48288,1.4872,1.48982,1.49614,1.49607,1.491,1.48359,1.46946,1.46578,1.46625,1.47254,1.46086,1.49371,1.44795,1.43086,1.43715,1.42214,1.40875,1.39907,1.39367,1.40027,1.4055,1.30147,1.28856,1.28876,1.29791,1.2921,1.2773,1.28152,1.25973,1.27849,1.25631,1.24031,1.24015,1.24533,1.24785,1.2288,1.24089,1.25088,1.25329,1.20309,1.20592,1.20032,1.20596,1.19234,1.1818,1.1743,1.17338,1.1599,1.15324,1.15102,1.16046,1.1458,1.13662,1.14385,1.14723,1.12123,1.12417,1.12708,1.13255,1.1346,1.08529,1.10187,1.07812,1.12518,1.12813,1.11881,1.10273,1.11184,1.10486,1.1062,1.12581,1.15639,1.15741,1.16817,1.17119,1.18743,1.1857,1.18868,0.00348001,1.2097,1.21761,1.22066,1.22062,1.2367,1.22983,1.26058,0.00311284,1.26041,1.26356,1.26543,1.26995,0.0037095,1.28524,1.28707,1.28821,1.28928,1.29197,1.29408,1.44472,1.43474,1.44774,1.42676,1.45054,1.44321,1.38928,0.00341785,1.38788,1.36354,1.45294,1.38682,1.38738,1.39181,1.39236,1.3957,1.39933,1.40184,1.40124,1.41675,1.42129,1.42384,1.42377,1.43259,1.44369,1.4539,1.4554,1.46235,0.00347926,1.4738,1.47992,1.47968,0.00344801,1.49712,1.50594,0.00339302,0.00347473,1.51922,0.00343066,1.53313,1.53117,1.53266,0.00349001,0.00369672,1.56289,1.57245,1.9263
0.00369458,0.00364946,0.00344553,0.00340508,0.00332034,0.0032755,0.0035214,0.169461,0.00318405,0.00351932,0.00376895,0.00384475,0.00333201,0.00367925,0.132365,0.132261,0.130754,0.130907,0.129053,0.12956,0.129426,0.107633,0.107607,0.107239,0.00343277,0.00357515,0.00350637,0.0659176,0.066428,0.0653373,0.0601853,0.0592699,0.058525,0.0589192,0.0489852,0.0497572,0.0486308,0.0473127,0.0443027,0.00302725,0.00387423,0.0036073,0.0040449,0.0038364,0.0124524,0.0146088,0.00377465,0.00394323,0.00342553,0.00329006,0.00293261,0.00351029,0.00332411,0.00358695,0.00347258,0.00378002,0.00328689,0.0037412,0.00301277,0.00349018,0.00340288,0.110241,0.111226,0.111291,0.00344649,0.00362923,0.00338951,0.0034864,0.00387349,0.00353134,0.00335036,0.00363369,0.00333218,0.00369735,0.00352826,0.00384457,0.00358399,0.00381178,0.00356429,0.0039611,0.00348147,0.00370921,0.00332851,0.00368717,0.00369688,0.00354201,0.00316244,0.00373638,0.343534,0.341434,0.342541,0.340928,0.341958,0.336178,0.330395,0.323313,0.318352,0.337266,0.338587,0.33806,0.331944,0.33737,0.339864,0.340919,0.341176,0.34116,0.414348,0.411294,0.409152,0.352395,0.351719,0.417681,0.400257,0.435067,0.476514,0.490468,0.500024,0.517768,0.514297,0.546604,0.5514,0.684058,0.686754,0.688057,0.704458,0.704323,0.702023,0.957105,0.973554,1.00515,1.13374,1.13572,1.21209,1.30476,1.30904,1.34457,1.36913,1.45832,1.39377,1.43255,1.41959,1.42298,1.46461,1.46453,1.46383,1.46463,1.47447,1.46515,1.44226,1.44634,1.44191,1.45592,1.46388,1.45506,1.47117,1.47818,1.4606,1.48633,1.45307,1.45526,1.46655,1.46741,1.44575,1.465,1.45539,1.45739,1.45536,1.45706,1.43577,1.41758,1.42707,1.41601,1.42628,1.41089,1.41965,1.41936,1.27846,1.29148,1.28127,1.28583,1.28934,1.29134,1.29229,1.25956,1.23783,1.24193,1.24737,1.24748,1.25367,1.24635,1.22267,1.22584,1.25406,1.24807,1.19871,1.19586,1.19966,1.22264,1.18981,1.19207,1.18752,1.14887,1.14986,1.14178,1.13712,1.12857,1.12578,1.13139,1.10806,1.10246,1.15379,1.13045,1.14341,1.134,1.07366,1.07306,1.07421,1.07726,1.11509,1.10835,1.13443,1.1372,1.12214,1.12341,1.11118,1.11053,1.1406,1.14269,1.15355,1.18163,1.18244,1.18173,1.19168,0.00368266,0.00329334,1.21742,1.22068,1.2227,1.2261,1.26098,0.00355086,0.00340039,0.00318774,1.26142,1.26241,1.26776,1.28057,1.28237,1.28556,1.28553,1.28886,1.29128,1.29234,1.42937,1.44512,1.44909,1.4449,1.43121,1.4305,1.44003,1.44634,1.44611,1.45555,0.00339435,0.00347817,1.38748,1.38671,1.39183,1.39317,1.39583,1.40444,1.40972,0.00331406,0.00348138,0.00369026,1.43618,1.43924,1.44702,0.0033192,1.46498,0.00336197,1.47099,1.47166,1.47437,1.47575,1.48901,0.00355924,0.00354546,1.50922,1.51179,1.51844,1.5303,0.00327987,0.00348683,1.54639,1.54573,1.55861,1.57297,1.57087,1.57138
0.00325178,0.00341227,0.0038063,0.00355482,0.0040048,0.003759,0.00377001,0.00348199,0.0102205,0.00319167,0.166794,0.165809,0.165399,0.165255,0.132271,0.00361717,0.131314,0.130269,0.128428,0.128151,0.128289,0.104854,0.104319,0.104253,0.104069,0.104214,0.00342997,0.0643644,0.063243,0.0630447,0.0633133,0.0633726,0.0582381,0.0494525,0.0498016,0.0490652,0.0506478,0.0478234,0.0489274,0.00330664,0.00339078,0.00351401,0.00411308,0.0114413,0.0068157,0.00891089,0.00494348,0.00614968,0.0037883,0.0174154,0.0191426,0.00347205,0.00343105,0.00334731,0.00346008,0.00336896,0.00357158,0.00354278,0.00389735,0.106676,0.108834,0.00335425,0.459157,0.00327048,0.00368499,0.00317645,0.13152,0.00351073,0.131327,0.152125,0.151926,0.152738,0.00377197,0.00338784,0.00384076,0.00367615,0.00368142,0.00362661,0.00344302,0.00316974,0.00337686,0.0032469,0.00366448,0.00318477,0.00338953,0.00349171,0.00396558,0.00348797,0.331377,0.3315,0.329748,0.327292,0.32709,0.321441,0.340628,0.330161,0.330197,0.337686,0.346086,0.410353,0.406766,0.401722,0.369102,0.342749,0.343051,0.410284,0.41357,0.389615,0.414414,0.413664,0.413841,0.391183,0.409405,0.390746,0.427363,0.45959,0.501168,0.496948,0.535919,0.550292,0.57415,0.566603,0.562329,0.676533,0.669689,0.700973,0.702513,0.703152,0.908427,0.908393,0.991182,1.09217,1.14971,1.17406,1.17617,1.24794,1.33233,1.34132,1.39464,1.37265,1.37907,1.38079,1.4121,1.40502,1.41636,1.45574,1.44128,1.43042,1.4473,1.5079,1.44618,1.44684,1.43693,1.46037,1.46171,1.45047,1.44902,1.44964,1.45757,1.43789,1.42107,1.44771,1.44175,1.45366,1.42788,1.42504,1.46177,1.45394,1.44079,1.43061,1.40427,1.41914,1.42061,1.42155,1.42345,1.37512,1.37689,1.28939,1.29511,1.31752,1.31778,1.28132,1.23186,1.23763,1.24103,1.2429,1.24436,1.28109,1.24003,1.22485,1.22302,1.21761,1.23271,1.23407,1.19173,1.19929,1.19829,1.17701,1.2016,1.16841,1.16994,1.174,1.16365,1.15426,1.12886,1.11846,1.1264,1.12351,1.10305,1.11943,1.12712,1.13163,1.13562,1.15362,1.10072,1.10531,1.10696,1.15039,1.14892,1.16562,1.16555,1.15843,1.10832,1.10955,1.11168,1.14803,1.15178,1.1546,1.18082,1.18005,1.17804,1.17797,1.18002,1.36117,0.0034129,1.2218,1.21416,1.21865,1.28895,1.24123,1.23999,1.24684,1.25327,1.25663,0.00353301,1.27152,1.27475,1.28733,1.28814,1.28495,1.28794,1.2885,1.29153,1.44141,1.4407,1.31551,1.42896,1.33479,1.34049,1.34143,1.34662,1.35026,1.39701,0.00327171,1.37642,1.38375,1.38425,1.38479,1.39448,0.00369917,1.40614,1.40876,0.00348941,0.00328022,0.00339957,1.43717,1.74514,0.00346329,0.00331669,1.46387,1.4638,1.79752,1.47809,1.47855,1.48263,1.4913,0.00377951,0.00326552,0.0034191,0.00327539,0.00349587,0.00364135,0.00372265,1.5417,0.00378255,0.00336651,1.55885,1.56681,1.56868,1.91147
0.252125,0.0032944,0.003372,0.0036801,0.00342793,0.00374808,0.00350567,0.00346047,0.00330024,0.00336563,0.165822,0.16483,0.164562,0.164207,0.163664,0.0036004,0.00347156,0.00336493,0.00406558,0.00333664,0.129195,0.104677,0.103837,0.103482,0.103312,0.104024,0.00349415,0.0037034,0.0650557,0.0634454,0.0642221,0.0614976,0.058835,0.0583488,0.0581573,0.0578916,0.0502782,0.0497984,0.00352638,0.00373887,0.00351128,0.00341319,0.00355058,0.00364154,0.00362756,0.00408046,0.0110791,0.0119488,0.0256395,0.027765,0.00349078,0.0271338,0.00353878,0.00365141,0.00383814,0.00343089,0.00336071,0.00324857,0.0036172,0.00357322,0.00318174,0.00350491,0.0976879,0.0980058,0.00350132,0.00376313,0.0034871,0.453357,0.0036699,0.541846,0.00356573,0.00359594,0.00361997,0.003289,0.00367203,0.00351481,0.00346237,0.00344608,0.00335541,0.00336812,0.00331287,0.00359272,0.00342058,0.00342164,0.00349365,0.0033264,0.00350916,0.00358723,0.327242,0.32586,0.327535,0.328049,0.327662,0.324999,0.33011,0.324809,0.332119,0.398178,0.403286,0.383597,0.402422,0.369857,0.369446,0.418132,0.410547,0.417592,0.410929,0.418129,0.374197,0.37467,0.376061,0.376038,0.411592,0.46692,0.469734,0.450895,0.496962,0.486511,0.486481,0.49654,0.553039,0.569594,0.585745,0.660082,0.714843,0.708103,0.714446,0.716546,0.735687,0.784761,0.915778,0.938711,1.0882,1.1257,1.16865,1.22598,1.22625,1.25938,1.3279,1.38287,1.40867,1.41618,1.41044,1.40994,1.4152,1.41231,1.41327,1.41173,1.43301,1.43317,1.44081,1.45803,1.45041,1.4452,1.44296,1.4258,1.44657,1.47845,1.41741,1.41919,1.42328,1.40589,1.44057,1.41451,1.42439,1.42311,1.43015,1.38139,1.40482,1.41441,1.38101,1.38106,1.41793,1.4314,1.27625,1.26704,1.27307,1.24605,1.24691,1.24582,1.23457,1.23352,1.23911,1.21442,1.23171,1.23659,1.22341,1.20939,1.20907,1.21573,1.21706,1.23551,1.22208,1.20988,1.20629,1.2186,1.21881,1.19198,1.19494,1.1507,1.1716,1.16369,1.12406,1.16058,1.13079,1.13409,1.12244,1.12577,1.10056,1.10062,1.10055,1.10181,1.08653,1.08717,1.08963,1.09138,1.0928,1.23122,1.23517,1.10417,1.1097,1.12567,1.08796,1.08502,1.08712,1.14684,1.14098,1.16953,1.16938,1.16991,1.17479,1.18049,1.18005,1.19916,1.20107,1.20523,1.20536,1.20662,0.00340162,1.36185,0.00364731,0.00332237,1.25527,1.25884,1.26045,0.00387852,1.28309,1.28495,1.28177,1.27939,1.28397,1.28507,1.44668,1.43615,1.30972,1.42416,1.42261,1.44056,1.43474,1.43412,1.35088,1.34855,0.00341955,0.00356453,0.00361359,1.38238,1.38659,1.3871,1.39336,1.39686,1.40583,1.40544,0.00359462,1.4261,0.00344192,1.43658,0.00363423,1.45266,0.0034754,0.00350786,1.46626,1.4863,1.47947,1.48557,1.48831,0.00346548,1.50297,1.50255,0.00336631,0.00360124,0.00326709,0.00352572,1.54419,1.54786,1.54651,0.00352155,0.00320181,1.56815,1.5665,1.87341
0.00338549,0.00379361,0.00343176,0.00310586,0.00380935,0.00334918,0.0032894,0.00338965,0.00386749,0.00358239,0.0031937,0.00336142,0.165128,0.00387254,0.00367483,0.00371868,0.00346305,0.00341783,0.00382223,0.00337585,0.00321563,0.00385793,0.01024,0.0032484,0.00382706,0.00355672,0.0038319,0.00339903,0.00337185,0.00330619,0.0801991,0.00370799,0.0621742,0.00321851,0.00380474,0.0594408,0.055868,0.00353275,0.00314028,0.00317328,0.00365795,0.0376922,0.00368277,0.00382483,0.00357951,0.00376858,0.00417006,0.00336411,0.00403787,0.0039912,0.0266524,0.00358147,0.00354401,0.00356038,0.00352534,0.00341861,0.545947,0.545848,0.544827,0.00325975,0.0958761,0.0034732,0.00349319,0.00337001,0.00364255,0.00324649,0.00386768,0.00334944,0.507444,0.50792,0.508157,0.00362021,0.00354612,0.00326843,0.00354401,0.00351368,0.00344272,0.0036423,0.00366867,0.00343991,0.003532,0.00362915,0.0033803,0.00348028,0.00388494,0.00325873,0.00362228,0.300087,0.324994,0.327573,0.329101,0.330448,0.331129,0.326073,0.327749,0.344937,0.344778,0.344982,0.363574,0.384582,0.384682,0.370019,0.370952,0.36935,0.379517,0.38338,0.379427,0.376916,0.372507,0.374791,0.376116,0.37712,0.415636,0.446474,0.479146,0.46685,0.49973,0.473849,0.490067,0.528779,0.558321,0.585013,0.599284,0.610696,0.608829,0.639839,0.712029,0.745762,0.722516,0.721748,0.722265,0.880637,0.895397,1.04351,1.07065,1.1223,1.15611,1.18815,1.23237,1.282,1.34399,1.35137,1.35245,1.38872,1.38222,1.35993,1.35013,1.37941,1.3952,1.37642,1.41886,1.38868,1.39128,1.37833,1.37809,1.38768,1.41842,1.41953,1.3885,1.38619,1.39831,1.38992,1.39236,1.38032,1.3311,1.3277,1.32586,1.33238,1.32963,1.32953,1.34725,1.27851,1.28385,1.24866,1.2849,1.2777,1.22738,1.22049,1.22304,1.23329,1.22653,1.22522,1.22184,1.22445,1.22924,1.20573,1.20344,1.20954,1.19576,1.20518,1.19428,1.20685,1.20671,1.18191,1.18939,1.16757,1.16969,1.17566,1.13505,1.15129,1.15499,1.14312,1.14476,1.13066,1.12635,1.12549,1.16786,1.12201,1.12321,1.12287,1.12299,1.11229,1.08455,1.08797,1.09001,1.09272,1.10903,1.11185,1.07495,1.07872,1.1061,1.10804,1.07921,1.10125,1.10486,1.15755,1.16841,1.16231,1.15994,1.1649,1.16965,1.17238,1.18195,1.19529,1.19715,1.19936,1.20175,1.20375,0.00347626,0.0033751,0.00340312,0.00339088,0.00335344,0.00335296,1.41828,0.00324368,1.27577,1.27396,1.27261,1.2757,1.27872,1.28117,1.28524,1.45111,1.45111,1.43965,1.427,1.43535,1.43396,0.00325864,1.35018,0.00331317,1.37402,1.37581,1.37723,1.38582,1.38586,1.38849,1.39122,1.39092,1.40153,0.00347523,1.41844,1.44017,1.41227,1.45002,1.44871,0.00382563,1.46079,1.46111,1.46247,1.47504,1.47735,1.47953,1.49221,1.48976,1.50158,1.50898,1.76178,0.00332548,0.00341764,0.00338371,1.54671,1.54525,1.54759,1.55834,1.55932,1.55876,1.56505,0.00353849
0.00375124,0.00365529,0.00352437,0.00348661,0.00398008,0.00359951,0.0036488,0.0035515,0.00342723,0.00365529,0.00370889,0.00407441,0.00350319,0.00348497,0.00342166,0.00385907,0.00327552,0.00418298,0.0036893,0.00432764,0.00344849,0.00362205,0.00325604,0.00384114,0.00340093,0.00365389,0.0916155,0.0894289,0.0891424,0.0830242,0.00344628,0.00343688,0.00356673,0.00349433,0.00347035,0.00345781,0.00392876,0.06505,0.00350708,0.00363756,0.00333792,0.0035761,0.00360063,0.00334703,0.00385974,0.00431966,0.00316148,0.00396014,0.00407391,0.0242936,0.00352046,0.00350512,0.00326828,0.00334485,0.00346244,0.531781,0.00338594,0.00364008,0.00340933,0.549314,0.0824963,0.441957,0.440669,0.440786,0.441366,0.441382,0.00346129,0.00352078,0.00337602,0.00366925,0.508898,0.00337137,0.00351009,0.168429,0.168067,0.169893,0.1693,0.00360247,0.00336713,0.0035301,0.00347898,0.00337737,0.0034533,0.00386616,0.00353458,0.0033993,0.00339268,0.00389466,0.00325496,0.327705,0.328217,0.328811,0.325713,0.327695,0.327198,0.343378,0.343035,0.374229,0.375629,0.376257,0.401436,0.402983,0.404151,0.405315,0.405406,0.40773,0.418817,0.374657,0.373096,0.372905,0.415955,0.396335,0.434481,0.500218,0.50969,0.488788,0.517952,0.494318,0.518082,0.507745,0.518194,0.586677,0.587535,0.58638,0.564506,0.592471,0.651247,0.597562,0.598948,0.723295,0.714139,0.756619,0.772991,0.930522,0.937479,0.937649,1.08522,1.11239,1.12666,1.19412,1.22053,1.32998,1.33063,1.36658,1.35509,1.32157,1.31903,1.32704,1.35076,1.3678,1.37481,1.4257,1.41053,1.41203,1.37824,1.37967,1.38197,1.36448,1.38213,1.36619,1.35646,1.36064,1.33407,1.30918,1.31073,1.31203,1.33703,1.33093,1.34096,1.27962,1.27597,1.28314,1.26238,1.27055,1.27823,1.20495,1.20547,1.20001,1.20258,1.20171,1.21092,1.20968,1.18851,1.18585,1.19578,1.20022,1.20299,1.20252,1.17487,1.15645,1.1546,1.16018,1.11191,1.11289,1.13696,1.12775,1.14074,1.13916,1.15735,1.14338,1.11961,1.12099,1.13795,1.14012,1.10887,1.13236,1.13161,1.13653,1.10347,1.11824,1.11258,1.09575,1.07157,1.07688,1.08067,1.08384,1.08283,1.0819,1.07534,1.07721,1.092,1.0947,1.07186,1.07861,1.13091,1.12195,1.15634,1.15532,1.15509,1.16334,1.16567,1.16882,1.17859,1.18936,1.1949,1.19762,0.00360776,1.20431,1.2067,1.21534,0.00341797,1.42577,1.25363,1.2544,0.00340585,1.26254,1.26484,1.26722,1.26706,1.27234,1.27311,1.27957,1.45095,1.43821,1.30014,1.43271,1.43544,1.4352,1.33709,1.3392,0.00335873,1.36807,1.37686,1.3763,1.37811,1.38595,1.38731,1.38783,1.39021,1.4306,1.43588,1.44663,1.4393,1.41031,1.43589,0.00337982,1.44811,1.44892,0.00345486,1.46492,1.46466,1.46727,1.47988,1.48633,1.4857,1.49278,1.50072,0.00351872,0.00367617,0.0036135,1.52618,1.53733,1.53588,1.54105,1.55053,1.54892,1.55246,1.55391,0.00337481,1.57305
0.00357796,0.00362346,0.00339936,0.00368656,0.00366436,0.00376064,0.00353388,0.0034459,0.00353398,0.00329898,0.00360871,0.00385904,0.00317498,0.00371957,0.00361625,0.00362983,0.00382054,0.00369157,0.00355673,0.00365599,0.00393125,0.00391212,0.00376077,0.00352215,0.00379728,0.00374054,0.0921349,0.0912054,0.0910815,0.0910067,0.0925679,0.0955164,0.094688,0.0800446,0.00330288,0.00343096,0.00346748,0.0032572,0.00363755,0.00350679,0.00391794,0.00393073,0.0268001,0.0272476,0.026961,0.0051273,0.00469898,0.00442863,0.00374781,0.00368371,0.0043067,0.00338256,0.00339996,0.529235,0.52996,0.539085,0.51785,0.00344903,0.00357712,0.0037515,0.44076,0.0867661,0.440943,0.441514,0.00334034,0.00358676,0.00346866,0.119614,0.120049,0.120175,0.612595,0.00337202,0.00384806,0.00339249,0.16935,0.00365239,0.00347746,0.00342401,0.00382776,0.0035434,0.00379857,0.00339722,0.003626,0.00355384,0.00340917,0.00321241,0.00359923,0.00317402,0.00362185,0.00335123,0.324992,0.320577,0.311114,0.311124,0.340979,0.341771,0.342414,0.342801,0.374722,0.375845,0.401505,0.402516,0.40427,0.400094,0.405149,0.43565,0.403559,0.395927,0.380352,0.369043,0.368763,0.413461,0.41804,0.481653,0.507838,0.499533,0.480101,0.483503,0.539708,0.540043,0.542363,0.571277,0.560411,0.56537,0.57421,0.58,0.539513,0.622187,0.622149,0.631678,0.700641,0.700327,0.777993,0.780908,0.787151,0.850421,0.946153,0.954545,1.07403,1.164,1.16486,1.16843,1.19181,1.26494,1.25798,1.2265,1.22924,1.30217,1.30545,1.30714,1.33483,1.30832,1.30726,1.33995,1.34691,1.34519,1.34758,1.34113,1.3524,1.32904,1.33257,1.33764,1.28602,1.28541,1.27822,1.25117,1.32715,1.33976,1.26214,1.2618,1.26433,1.26664,1.25097,1.25252,1.18703,1.18557,1.15782,1.1542,1.15668,1.15785,1.15071,1.16201,1.15,1.15773,1.15687,1.14915,1.15388,1.15804,1.131,1.13422,1.13648,1.10979,1.12085,1.11602,1.09944,1.10841,1.13861,1.13033,1.13607,1.12723,1.13992,1.17524,1.22717,1.17033,1.15495,1.11458,1.10448,1.11938,1.13425,1.09081,1.08627,1.0754,1.07667,1.09724,1.08641,1.0778,1.07918,1.08042,1.079,1.07589,1.07466,1.07347,1.10833,1.09559,1.16193,1.14714,1.14937,1.14943,1.15688,1.15569,1.16605,1.17103,1.17255,1.18904,1.19198,1.19756,1.19826,1.22044,1.2085,1.21181,1.21891,1.26381,1.26662,0.00352803,0.00337945,1.25792,1.25814,1.26258,1.26484,1.26988,1.27211,1.44299,1.43398,1.43512,1.30636,1.30841,1.43644,1.43711,1.34259,0.00358582,0.00405789,1.3734,1.36862,1.37436,1.38067,1.38194,1.38071,1.3752,1.37131,1.40658,1.4113,0.00326748,1.41981,0.00328829,1.43648,1.43827,1.44923,1.44945,1.45773,1.46594,1.47079,1.47395,1.48216,1.48134,1.49261,1.49476,1.50338,1.50572,1.86501,1.53039,1.5316,1.53712,1.53663,1.54683,1.54585,1.54725,1.55442,1.55609,1.56398,1.57183
0.286796,0.00351711,0.0033856,0.00347142,0.0036079,0.00332364,0.00336887,0.00408582,0.00318759,0.00351318,0.00359975,0.00363676,0.00337546,0.00348037,0.00374396,0.00334979,0.00354169,0.00351984,0.00334386,0.00326697,0.00361525,0.00419697,0.00378531,0.00369427,0.00352724,0.00343522,0.00333474,0.00352875,0.00318239,0.117427,0.00351994,0.089935,0.00339819,0.0808717,0.0807635,0.00356569,0.00333255,0.00365445,0.00348389,0.00319032,0.00342866,0.00373918,0.00339717,0.00394156,0.00346576,0.0039951,0.00429895,0.00476467,0.00850481,0.00401912,0.00417009,0.00325318,0.00336821,0.527744,0.00336225,0.531068,0.00344297,0.00353294,0.00332427,0.00328891,0.00347224,0.0854159,0.0853882,0.0861473,0.0868362,0.0995931,0.0990645,0.00347543,0.00329588,0.00349886,0.00347798,0.00371416,0.00328277,0.00355318,0.00343823,0.00377276,0.00336329,0.0034211,0.00356159,0.00341641,0.00317675,0.00347375,0.00340932,0.0032732,0.00335472,0.00372344,0.00319164,0.00354887,0.290339,0.00363412,0.00332026,0.315014,0.00333623,0.313169,0.312498,0.341626,0.342616,0.339885,0.00364245,0.387433,0.389796,0.396156,0.395931,0.40358,0.376557,0.387841,0.440703,0.403212,0.38984,0.364919,0.366159,0.386404,0.441022,0.446055,0.483884,0.4653,0.463883,0.473448,0.473407,0.558936,0.536721,0.556405,0.542599,0.542863,0.56437,0.566739,0.590582,0.586984,0.550563,0.607925,0.700635,0.701998,0.692359,0.732569,0.732618,0.790815,0.865599,0.876451,0.910693,0.950775,0.957836,1.03456,1.03586,1.10245,1.15059,1.17427,1.18126,1.19078,1.19065,1.2201,1.31016,1.28808,1.28514,1.27439,1.28536,1.28717,1.28079,1.28572,1.27594,1.27098,1.27661,1.29916,1.3118,1.24599,1.24945,1.24651,1.22376,1.22607,1.21251,1.21287,1.21357,1.21213,1.21203,1.19251,1.18102,1.14135,1.15264,1.14312,1.1108,1.11088,1.12334,1.11976,1.12062,1.1125,1.14149,1.12135,1.1222,1.11882,1.12293,1.12945,1.12951,1.09348,1.10416,1.10269,1.10584,1.10887,1.0765,1.08874,1.07754,1.0896,1.06558,1.06364,1.07034,1.05336,1.05533,1.09834,1.13269,1.1546,1.12398,1.06862,1.07005,1.07131,1.07414,1.1408,1.16558,1.09726,1.10454,1.08368,1.1075,1.09426,1.10425,1.11683,1.11814,1.15969,1.13732,1.14224,1.14559,1.14774,1.14978,1.15403,1.16109,1.17589,1.18125,1.18508,1.19224,1.19526,1.19782,1.22667,1.21026,1.21189,1.21341,1.41526,1.41436,1.42914,0.00330453,1.25987,1.25799,1.43076,1.26701,1.26768,1.27103,1.44084,1.44284,1.44325,1.4423,0.00352864,0.00326195,0.00369608,0.0034027,0.00333115,1.37776,1.38157,1.37875,1.37857,1.37664,1.37638,1.38115,1.38012,1.37808,0.00355111,1.4168,1.41701,0.00331684,0.00314373,0.00346768,1.4439,1.45091,1.45318,1.45861,0.00374978,1.47537,1.47728,1.48164,1.48335,0.00340425,1.49868,1.50587,1.85999,1.52206,1.52936,1.52869,1.53511,1.53206,1.53289,1.53942,1.54816,1.55024,1.55341,1.56159,1.56165
0.285259,0.285735,0.00348913,0.00334126,0.00322792,0.00353854,0.00351068,0.00396204,0.00346542,0.00344228,0.00373065,0.0033163,0.00352298,0.00338996,0.00402036,0.00329322,0.00328492,0.00348083,0.0035949,0.00333344,0.00350149,0.003412,0.00392972,0.00350717,0.13843,0.003333,0.00340182,0.00342372,0.113952,0.113477,0.113307,0.0964656,0.0038135,0.0867484,0.0857657,0.0837976,0.0828114,0.0804383,0.00386734,0.00337221,0.00357631,0.00332878,0.0292225,0.00383729,0.0173502,0.0106234,0.00390421,0.0141368,0.00471218,0.00674692,0.00928077,0.0032905,0.0199615,0.0207261,0.0208247,0.00378579,0.0450043,0.00349254,0.00337424,0.00325786,0.00353895,0.0860657,0.0868567,0.00334865,0.0876523,0.0992963,0.00368885,0.00330468,0.00368479,0.00353921,0.00367057,0.00320794,0.00355724,0.0033314,0.00342699,0.00350424,0.00367173,0.00338385,0.00368057,0.00329349,0.00353498,0.00356529,0.00340248,0.00336953,0.00345489,0.00341751,0.00353427,0.292615,0.293137,0.00348886,0.00322209,0.00348275,0.00353205,0.00343561,0.00331942,0.331432,0.341487,0.342618,0.343027,0.343313,0.00351291,0.399348,0.401204,0.400999,0.380273,0.379691,0.380637,0.454212,0.453743,0.439176,0.359195,0.366505,0.36789,0.369739,0.403902,0.453515,0.473314,0.510516,0.500365,0.501028,0.490257,0.511245,0.514473,0.504103,0.572896,0.588351,0.588578,0.577394,0.578284,0.608828,0.582072,0.629495,0.680878,0.690796,0.710431,0.755845,0.756122,0.859308,0.835832,0.83633,0.899134,0.9283,0.993848,0.994489,1.00113,1.02628,1.02573,1.0972,1.10247,1.19524,1.17446,1.16862,1.19417,1.19611,1.20447,1.23221,1.22023,1.21712,1.22349,1.21918,1.19413,1.20411,1.19669,1.19544,1.1919,1.19753,1.18927,1.1771,1.17701,1.18183,1.18266,1.1382,1.14321,1.14366,1.10491,1.12245,1.10533,1.09519,1.09123,1.09075,1.10108,1.12527,1.12249,1.12412,1.10358,1.10625,1.11843,1.12673,1.10149,1.07163,1.09139,1.09262,1.10083,1.08269,1.07852,1.07046,1.05718,1.06116,1.08415,1.06514,1.07049,1.06763,1.06941,1.05961,1.09108,1.11193,1.10628,1.09511,1.08372,1.08375,1.09171,1.10213,1.07925,1.08293,1.08516,1.08943,1.09138,1.08432,1.08833,1.10189,1.1059,1.17179,1.17295,1.16241,1.1471,1.1333,1.14232,1.14272,1.1445,1.15864,1.15964,1.16911,0.00371163,1.19114,1.19345,1.19829,0.00353858,1.21576,1.21993,1.21392,1.21858,1.21914,1.22349,1.41559,1.42999,0.0033994,1.25616,1.25723,1.26328,1.26564,1.27073,1.4467,1.28638,1.28748,1.30099,1.42452,0.00305352,1.4166,0.00344544,1.37514,1.37552,1.37438,1.37865,1.38642,1.3769,1.37793,1.37983,1.38215,1.41458,1.41532,1.41646,1.4221,1.42643,1.43516,1.43739,1.44779,1.45182,1.45479,1.46546,1.46532,1.47218,1.47899,1.48234,0.00352845,0.00330328,1.49922,0.00372442,1.51579,1.52386,1.52255,1.52468,1.5301,1.53096,1.54205,1.54093,1.54493,1.54903,0.00345496,1.55956,1.56738
0.284034,0.0108014,0.00357989,0.00329229,0.0034179,0.00342049,0.00318162,0.00347571,0.00398107,0.00344896,0.00351716,0.00324148,0.00362678,0.0035158,0.00345431,0.00372879,0.00356419,0.00344308,0.00349738,0.00339665,0.00350918,0.00346825,0.00355562,0.134713,0.134325,0.134509,0.00362626,0.00362792,0.111478,0.118363,0.00398317,0.00314894,0.00344694,0.00354571,0.00361272,0.0827934,0.0819962,0.00341242,0.0800141,0.00375315,0.00317544,0.00410569,0.00362211,0.00382177,0.0120162,0.0114597,0.0110797,0.0103197,0.00979652,0.010194,0.0213943,0.0219504,0.0236618,0.0252208,0.00334898,0.535413,0.528396,0.00321476,0.00367062,0.00383687,0.538105,0.00390579,0.0856991,0.00359739,0.0033571,0.00371148,0.00328558,0.0037036,0.00367929,0.00336783,0.00365229,0.00377845,0.00330245,0.00338371,0.00336333,0.00354151,0.00350215,0.701383,0.00353073,0.00372642,0.00327413,0.00348892,0.00327964,0.00403931,0.00342925,0.00371713,0.00344642,0.00340495,0.00349781,0.0035262,0.00354056,0.00315304,0.00355462,0.00343204,0.00348,0.339847,0.344771,0.344683,0.347761,0.346227,0.351401,0.350458,0.00351575,0.405626,0.38409,0.405196,0.406798,0.452908,0.434744,0.362752,0.362945,0.364171,0.365268,0.365712,0.411278,0.476943,0.4581,0.462487,0.50196,0.496512,0.467758,0.47523,0.560141,0.526553,0.545583,0.54594,0.604086,0.572541,0.598397,0.62054,0.613948,0.653126,0.67327,0.659881,0.632334,0.662677,0.74002,0.724736,0.798879,0.841206,0.86086,0.830249,0.894385,0.916615,0.910999,0.933055,0.956176,1.04645,1.05948,1.08859,1.0709,1.06218,1.12457,1.1083,1.10919,1.15252,1.14643,1.1402,1.1456,1.14042,1.15035,1.15422,1.13527,1.14426,1.16514,1.16713,1.14813,1.14102,1.14209,1.12013,1.12858,1.12489,1.14515,1.12046,1.10093,1.10296,1.10586,1.09836,1.07894,1.09093,1.11348,1.09697,1.08608,1.08686,1.08201,1.08042,1.06388,1.06447,1.08332,1.07337,1.08303,1.08634,1.09444,1.03855,1.06732,1.05521,1.06471,1.05705,1.05848,1.04306,1.02995,1.02627,1.02854,1.02516,1.06813,1.14151,1.13907,1.07662,1.07783,1.09778,1.06646,1.06634,1.08684,1.17507,1.17633,1.1236,1.13202,1.13912,1.06813,1.08444,1.08787,1.11443,0.00345029,1.17873,1.17981,1.13247,1.13467,1.14001,1.14018,1.34165,1.16999,1.17516,0.00327729,1.18827,1.19519,1.19908,0.00337032,0.00331717,1.22176,1.22109,1.22305,1.21923,1.22646,1.42911,0.0035907,1.25082,1.25137,1.50584,1.44319,1.26583,1.2672,1.44573,0.0035581,1.4431,1.30528,1.30659,1.41343,0.00331616,0.0033304,1.37821,1.37818,1.37934,1.3796,1.37948,1.38175,0.00351146,1.41354,1.41582,1.41505,1.4147,1.41776,1.42753,0.00362162,1.44472,1.44465,1.44799,1.45329,1.46072,1.46777,1.46897,1.47598,1.48237,1.48652,1.49625,0.00339071,1.5167,1.51661,1.51707,1.51933,1.52324,1.52609,1.52469,1.53042,1.53125,1.54428,1.5469,1.54981,1.55674,1.56179,1.56764
0.309757,0.00353896,0.00360116,0.00355785,0.00337452,0.00335987,0.00339892,0.00344242,0.00323693,0.00344397,0.00382968,0.00373653,0.00391203,0.00367599,0.0165443,0.00358612,0.00352364,0.00389412,0.00338224,0.00330113,0.0036309,0.00349816,0.00319668,0.00352678,0.132785,0.00355786,0.00348393,0.00327838,0.00327779,0.117743,0.115378,0.115297,0.115505,0.092246,0.0910059,0.0906741,0.0905197,0.0907532,0.00414225,0.00334403,0.00298704,0.00341556,0.00380325,0.00375161,0.00357191,0.00464016,0.00926726,0.00368363,0.0112042,0.00378478,0.0216328,0.0233085,0.0232563,0.0232426,0.023519,0.00354641,0.0523573,0.00337257,0.00374238,0.00343748,0.00369914,0.00337114,0.00362266,0.00337186,0.00373206,0.00356227,0.00342505,0.00337687,0.00360963,0.00335052,0.00369435,0.00333706,0.00375442,0.00334173,0.00383091,0.003593,0.00366606,0.00336534,0.00360795,0.00328129,0.00369935,0.00357607,0.00367033,0.00354744,0.00355537,0.00327703,0.00364475,0.00363791,0.00338615,0.00318343,0.00364073,0.00341395,0.00370925,0.00344859,0.0034984,0.0032105,0.00366528,0.343562,0.350986,0.352072,0.351444,0.351758,0.00340554,0.00341737,0.410003,0.411734,0.410597,0.413471,0.413205,0.43563,0.435657,0.393663,0.366047,0.394073,0.379353,0.376939,0.412398,0.456428,0.464645,0.473271,0.494025,0.481695,0.512434,0.505669,0.514849,0.525123,0.571378,0.567263,0.575798,0.591476,0.590376,0.61902,0.632785,0.633806,0.635704,0.631241,0.673524,0.638616,0.734075,0.771941,0.771738,0.756728,0.770272,0.893339,0.891974,0.889817,0.887833,0.910304,0.937746,0.925913,0.961697,0.967637,1.00388,1.00888,1.07089,1.07067,1.04224,1.08077,1.10393,1.10779,1.11226,1.11264,1.11819,1.09089,1.10536,1.07091,1.11523,1.09096,1.10579,1.10715,1.08267,1.09831,1.08978,1.08122,1.09409,1.06831,1.08869,1.08838,1.11245,1.0859,1.07132,1.09968,1.0804,1.07726,1.07734,1.07784,1.06133,1.08252,1.06074,1.0635,1.06058,1.06832,1.03236,1.02601,1.02592,1.03538,1.1071,1.0238,1.02109,1.0337,1.0346,1.04275,1.02128,1.01302,1.01544,1.05674,1.04695,1.05438,1.05216,1.07245,1.07371,1.05732,1.06481,1.06696,1.10318,1.08468,1.10292,1.0652,1.08532,1.08709,1.11133,1.11171,1.11223,1.16818,1.18074,1.12772,1.12871,1.13297,0.00380867,1.15979,1.16545,1.16992,1.17379,0.00347426,0.00358299,0.00318384,0.00364562,1.21033,1.21377,1.21592,1.22188,1.22466,1.22675,1.23956,1.23855,1.24128,1.24312,0.00348613,1.43736,0.00328478,1.44173,0.00317376,0.00368078,0.00343361,0.00327319,0.00333976,0.00327515,0.00350995,1.38152,0.00328433,1.39296,1.39518,1.40071,1.40207,1.4089,1.40956,1.41721,1.41969,1.42086,1.42262,0.00371169,1.44323,1.44313,1.44163,1.4478,1.45146,1.45633,0.0031386,0.00340107,0.00340272,1.47884,0.00355416,1.49183,1.49224,1.50796,1.50762,1.51576,1.51595,1.51936,1.5232,1.52485,1.5298,1.53058,1.53518,1.54187,1.54749,1.55208,0.00307447,0.00367538,0.00355768
0.00361149,0.0108973,0.00389946,0.00352097,0.00356772,0.00388383,0.00301801,0.00392556,0.00369756,0.00341986,0.00329047,0.00380206,0.00405558,0.00353392,0.00363776,0.00383019,0.00376261,0.00373891,0.00359532,0.00346719,0.00344933,0.00348977,0.00353089,0.00365261,0.00355984,0.00365443,0.0035404,0.118622,0.11812,0.117694,0.118025,0.117726,0.00335812,0.00362681,0.00316307,0.00337742,0.0038041,0.00316319,0.00334469,0.00349886,0.00389726,0.0591682,0.0584517,0.00381992,0.00365899,0.00363015,0.00398537,0.0109418,0.00378989,0.0202283,0.0105397,0.0209573,0.004017,0.00341131,0.00367944,0.00385269,0.00349607,0.0526905,0.0535861,0.0486476,0.00320923,0.00368344,0.00351639,0.00350637,0.00342593,0.00355863,0.00343055,0.00329913,0.00320601,0.0034732,0.00320381,0.00380468,0.00355821,0.00338157,0.00342131,0.00338879,0.00348061,0.003533,0.00320002,0.00363805,0.0032125,0.0035756,0.00345794,0.00335604,0.00344938,0.00340464,0.00338647,0.00341664,0.00338427,0.26968,0.00336325,0.00371777,0.00337575,0.00347901,0.315159,0.315283,0.00326524,0.00349488,0.00342007,0.352133,0.352123,0.358323,0.35832,0.37342,0.375411,0.421556,0.423351,0.423316,0.424796,0.411381,0.434369,0.433238,0.43244,0.415024,0.401974,0.386056,0.392991,0.392249,0.414091,0.526162,0.46988,0.471532,0.511034,0.511107,0.511681,0.532933,0.52633,0.565161,0.556622,0.588607,0.590265,0.617342,0.617869,0.635005,0.635386,0.653007,0.67625,0.671288,0.664531,0.694655,0.68501,0.744292,0.764666,0.748149,0.868991,0.870837,0.894379,0.87517,0.922575,0.897851,0.911416,0.916955,0.908589,0.939695,1.0268,0.988259,0.989191,0.99527,1.09148,1.10887,1.09187,1.0928,1.07085,1.07383,1.07657,1.07464,1.04689,1.05116,1.06161,1.06219,1.0564,1.05586,1.07326,1.07364,1.06297,1.05947,1.05964,1.06011,1.07918,1.06124,1.06411,1.04738,1.06513,1.07032,1.05256,1.053,1.06972,1.06778,1.06781,1.05459,1.04126,1.02949,1.03974,1.06486,1.04835,1.10133,1.00369,1.01617,1.01271,0.99959,1.02276,1.01876,0.980492,1.02512,1.03243,1.04285,1.02621,1.02922,1.03293,1.10537,1.0326,1.04614,1.06499,1.05397,1.01888,1.0206,1.02065,1.01158,1.08429,1.08584,1.11324,1.12244,1.12205,1.1187,1.12394,1.12616,1.12805,1.37393,1.3508,1.16096,1.16402,1.16416,0.00327355,1.35009,0.00326945,0.0035692,0.00336062,1.20719,1.21044,1.21411,1.21771,1.22172,1.22559,1.22931,1.23681,1.23562,1.24616,1.42563,1.43047,0.00362595,0.00336766,1.27651,1.27908,0.00337237,0.00335361,1.39292,0.00337545,0.0034935,1.65761,1.39249,1.39546,1.39705,1.40314,1.40654,1.40735,1.40682,1.42332,0.00370356,0.00326722,1.43687,1.43975,1.4428,1.44102,1.44073,1.44523,1.45129,1.45673,1.47898,0.00340174,1.47817,1.48377,0.00350837,1.49853,1.50702,1.50644,1.50923,1.51532,1.51547,1.51754,1.51824,1.52472,1.52629,1.52885,1.54343,1.54161,1.54743,0.00325702,0.00340886,0.00337567,0.00323679
