1.23331129900778,1.2479766459705,1.25022755314503,1.25021225558528,1.24859038635546,1.25701423352397,1.259283968875,1.26114913860182,1.26237639307587,1.26534581426895,1.26740562850085,1.26959448161133,1.27124663790104,1.27802908479742,1.29275588988074,1.29131537956848,1.3303399996577,1.31449560595681,1.33350999962884,1.28531105185323,1.27924924917144,1.28607252252759,1.2912419250885,1.29257535699517,1.31606999873004,1.28858970776963,1.28574759215271,1.28882353752187,1.29115356827151,1.29055353658743,1.29135589713577,1.29064446551585,1.2917963422588,1.29248155338053,1.29374977020919,1.29752118371482,1.30064798671176,1.29599432871243,1.29187288014564,1.29278021624306,1.27314005064649,1.28928539797614,1.28911654208296,1.29834173774825,1.30670919729287,1.30662624402783,1.30801997826564,1.27472697186806,1.27592029727795,1.25082182713552,1.24847393296893,1.25316278763972,1.255097011161,1.25692020216334,1.25789860870038,1.24906951563565,1.23301943676412,1.24003158541714,1.24286527665156,1.24412897089618,1.24426340401909,1.24487817974917,1.24573526714619,1.243826569849,1.24044832776569,1.24335998951191,1.25361313984371,1.25403727472108,1.2560498195255,1.24723881552885,1.24531626706734,1.23724424917075,1.22198868388929,1.22675837947979,1.2115449281733,1.20987723788825,1.21004062445347,1.20763467150814,1.20430916080218,1.20130227325062,1.19895656275623,1.19868903557228,1.19753724041447,1.19770738171965,1.19760014729626,1.1965744735395,1.18729081313463,1.18862468257841,1.18531114150971,1.18306752549763,1.18302748835586,1.16051420053114,1.15710487653025,1.15444783251438,1.14021489016278,1.14122595382825,1.14357480217398,1.14990337165565,1.15747822448486,1.15172048234297,1.14324940832199,1.14833316200147,1.21626999999233,1.16152877987851,1.17161863838269,1.15278335451476,1.15576180855289,1.14032013729081,1.14028353982335,1.13267404826114,1.11747510983461,1.11574264338378,1.11503411335649,1.10910554751637,1.09348371631879,1.09701376349828,1.09753495193624,1.0995497685239,1.09988857773531,1.11589692717363,1.1469455762093,1.14678074512621,1.14818252350654,1.14343336969673,1.14159038598793,1.14405853160058,1.14590318017602,1.13572029644742,1.13422471684981,1.13625123298119,1.14360906017076,1.14169809370523,1.14227440774552,1.14405348533357,1.14466275406397,1.14571926576577,1.14394695320408,1.15339297789187,1.18150422417224,1.18251316340105,1.18224220134709,1.19327056343156,1.18846904596044,1.20011742564553,1.20190021822501,1.2028485081188,1.20417565880892,1.20505705409768,1.20542825156474,1.20946861504152,1.21650533507157,1.22853062204386,1.23423648716263,1.2350291431034,1.23705696844296,1.23781518946872,1.24014089417738,1.2399247711914,1.24198887625744,1.24189626093541,1.24334321294539,1.24350066711174,1.24470115175618,1.24371243382132,1.26178747891946
1.24525657863604,1.24815482218,1.24933411131262,1.25037006837608,1.25223216945019,1.25543029303854,1.25821454742042,1.26037180528793,1.2624896637985,1.26453949213296,1.26840400447794,1.27030399884038,1.27409111635906,1.27718894877235,1.27747753180436,1.27753473717226,1.27932285814092,1.28111591230237,1.28248036008867,1.28302910907941,1.28279354186721,1.28414256129347,1.28349658005056,1.28378907760142,1.28428689945966,1.28536404638689,1.28606294350406,1.28746705146789,1.28828706417468,1.28877147686729,1.28893760529482,1.28922618057372,1.28998771033499,1.29197943741711,1.29343268960527,1.29430486278866,1.29450677801434,1.29399184421208,1.29293021018617,1.29264111253154,1.2912701931421,1.28988953192221,1.29033070218079,1.29253473452726,1.29449066498854,1.29472717326129,1.29482024262445,1.27389167032307,1.27355812759615,1.25156747729973,1.25184310823971,1.25387945889308,1.25538959817938,1.25696953774555,1.25903598759831,1.24396316918841,1.23476646045106,1.23766687914371,1.24297453959602,1.24440263818415,1.24480383989677,1.24484131280212,1.24440254746915,1.24299291544495,1.24072682745298,1.23850632348276,1.23609773190515,1.23371339538438,1.23145422697285,1.22937029660739,1.22768292630993,1.22733796295984,1.227348842709,1.22757824334894,1.2084337349872,1.20750136131806,1.20743125780036,1.20592421971104,1.20293223880704,1.20197468954535,1.201444263113,1.19945125199479,1.19839405613092,1.1975927707828,1.19701776647755,1.19561584535321,1.19226690898426,1.19097024547088,1.18959317693383,1.17945935675543,1.16992003756563,1.1573901956791,1.1543359130257,1.15273873271301,1.13949491396798,1.14020920404466,1.14115892331419,1.14038115915364,1.13958633043513,1.13907453247993,1.13884743744373,1.13885995624174,1.13856638284772,1.13783894183151,1.13707395770086,1.13671650351827,1.1369709628374,1.13780821380583,1.13888581473939,1.12664051982566,1.11445083991954,1.11106075039471,1.10732129800773,1.10370672075514,1.09603672955777,1.09772484303398,1.09886549992349,1.09960222151738,1.11383638240379,1.11729527692264,1.14599540876529,1.1456193608314,1.1452044793793,1.14424621718854,1.14358214994744,1.14384607913219,1.14306692890331,1.13886238085078,1.13778811353089,1.13737390200221,1.13938846034449,1.1396290319782,1.14384318578509,1.14540868882234,1.14717313829256,1.1490252290427,1.15137189082233,1.15568120202535,1.18167210030959,1.18234784933872,1.18688821199939,1.19562487314665,1.19793964640974,1.19945317007617,1.20068789893339,1.20156837593593,1.20216463354392,1.20296501498849,1.20344867797281,1.2064793977401,1.22120723087557,1.22565274244867,1.22874270495226,1.23181634589141,1.23482077693747,1.23634002051301,1.23713528621401,1.23824162615042,1.23965350057929,1.24125193400821,1.24255565567163,1.24339556955955,1.24404260802653,1.24363753947084,1.26304675148529
1.24425613587096,1.25346567507244,1.27025412897557,1.27238053176483,1.27161876070589,1.27386016058202,1.28014136611738,1.25997130117734,1.24152002534833,1.26220755569924,1.27102457860262,1.26950277679076,1.28085526212491,1.27840276200908,1.27759461440668,1.27591039529483,1.27269931059661,1.27268160099145,1.27263626505744,1.263481979902,1.25699311315205,1.27245543946066,1.28262018297236,1.28332687730726,1.28299257714134,1.27905648712037,1.27526966037932,1.28281809733377,1.2870803384421,1.28730471660878,1.28673365621491,1.28764306652723,1.28716678913339,1.27564944965116,1.26194663037603,1.2615118522988,1.2610920423077,1.27662077595063,1.29225667115864,1.2928058979758,1.31674999937867,1.28392009650264,1.27731749638818,1.28700004463034,1.29639489186432,1.29538597079948,1.2953915735845,1.27241697061886,1.27022696908983,1.25280178222365,1.25368700340139,1.25488151461763,1.25553204773069,1.25634368469912,1.26279799396774,1.24224703170166,1.23112104538432,1.2338333955193,1.24733333909069,1.24577282156275,1.24565573779088,1.23007882988253,1.21720534755013,1.21740165620833,1.21901201498719,1.21904011626264,1.21275423660704,1.21701639876951,1.21567331446082,1.22646653695041,1.2270799392372,1.22811701439924,1.23103773672938,1.22733857730778,1.20486078033221,1.20602908592975,1.20586328565825,1.20584194829185,1.19867112158978,1.20239728750894,1.20488670091526,1.19934636173043,1.19841773790115,1.1972926090426,1.19654394498661,1.19584434757813,1.19510872065475,1.1928440591542,1.19221635121481,1.17597389932698,1.13629661804958,1.14443725852399,1.1403900974034,1.14732088553045,1.13521701746684,1.1386214283621,1.12759396265503,1.1319087082661,1.12982108372926,1.12922170132162,1.12915438437842,1.12975991813326,1.13133784728389,1.12916850983562,1.1269798758037,1.12939677049001,1.13323718839469,1.1354285877844,1.17092999951416,1.12072455519808,1.10212601771481,1.10599017967587,1.09366274424881,1.09966496927948,1.09676380823855,1.09957336015247,1.10099438427795,1.10088738259981,1.12703281388581,1.11930879862492,1.14567159283386,1.14485875512613,1.14309260140514,1.14425039402698,1.14396694233689,1.14397731285413,1.14346515982211,1.13881037406557,1.14012462094409,1.1354026400724,1.12455559644047,1.13635007402142,1.16063955126736,1.14711918911294,1.14985313007847,1.15149993812497,1.15296903694887,1.15831943994234,1.18088785242463,1.18233718287889,1.22955999956642,1.19633575526999,1.1995618259361,1.19901952883793,1.20049594789812,1.20003701456328,1.20074104072118,1.20088344930743,1.20167535250501,1.20395808498574,1.28760000001301,1.22376200723803,0.00329484999998205,1.22839363377892,1.23441835492162,1.23481419927092,1.23481604510085,1.23593341183729,1.23805793750785,1.24068683986238,1.24312328334391,1.24377000105051,1.24531687868568,1.24404032740747,1.27762963832591
1.25355791255792,1.2565129785253,1.27336393108959,1.27429615742072,1.27438969799776,1.27547698014464,1.27665802385669,1.25966259880524,1.25837101628293,1.26004597662995,1.26123021499764,1.26325898939932,1.26504846916063,1.26468887891876,1.26454649078352,1.26470087789881,1.26491686530123,1.26480730238046,1.26411319595166,1.26291911265238,1.26093752753544,1.26462836345147,1.26705962390606,1.26888400846584,1.27446824732184,1.27641994463036,1.27574026654422,1.27367276667349,1.27209939648943,1.27050535237896,1.26905882606035,1.2660636773046,1.26384744862882,1.26241656719739,1.26145846554153,1.26141791268914,1.26147274574248,1.25978607180261,1.25784184640391,1.2560605400646,1.25502379204713,1.25510388899785,1.25601542538581,1.25389739793211,1.25244643762776,1.25171587983624,1.2516925444049,1.25178861659482,1.25237515943731,1.25327649957536,1.25452616558999,1.25581945028263,1.25664833539453,1.24835739619935,1.24484189012256,1.23971564400548,1.23089072303113,1.22944140514598,1.22704517048506,1.22426632635057,1.22157662274126,1.21938084459761,1.21748798230789,1.21603367798982,1.21761437735534,1.21828941076859,1.21807107682152,1.21878891200116,1.22197189083577,1.22548843326283,1.22679535716943,1.2276160989215,1.22827169550925,1.22712395847859,1.21911088918966,1.21341732813728,1.21017995583322,1.2047760734255,1.20410511440626,1.20321094126391,1.20391101542282,1.19941332334687,1.19831251860444,1.19568231431381,1.19035989669309,1.18449286490239,1.18020842478603,1.17756297796856,1.17640158971261,1.17247963923908,1.15882200637758,1.15764697596284,1.15429647491097,1.14996455821108,1.14609263816074,1.14230447634933,1.13928166080371,1.13559077146831,1.13136471508067,1.12899420493118,1.12896120351002,1.12877773001646,1.12955371822588,1.12902159234725,1.12810483679869,1.12700817646709,1.12436767597435,1.12136555577083,1.11758751149848,1.11374762334391,1.11223247944609,1.10966706089164,1.10932986887392,1.10857142424557,1.10551360985131,1.10316140688864,1.10309109116478,1.10287134919843,1.1122647632414,1.11434892928456,1.14536511897119,1.14527694526868,1.14572600632969,1.14515392188406,1.14480202836916,1.14441210290214,1.14391084225084,1.13540122342921,1.13335387445469,1.13254542491125,1.12947871159024,1.13294434926515,1.13602126998327,1.14057384197722,1.14495298706145,1.15475506771035,1.15913822571026,1.16124833388305,1.17359675404606,1.18371620680392,1.19183457021926,1.19424127671328,1.19632179066747,1.19702027316207,1.19754917425751,1.19801878536046,1.19830123204007,1.19890352990883,1.19965205370128,1.20215049895648,1.21979274475531,1.22107412312651,1.22063456992276,1.2250320206483,1.23437219386458,1.23368809732477,1.23240318384698,1.23181549964484,1.23121808844515,0.894781348776563,0.858718648463748,0.858725588683937,0.858736036242665,0.858745517253321,0.858750893565875
1.293129998562,1.27776971212778,1.29446999894018,1.27543600224774,1.27531119227521,1.27592225445845,1.2762425223747,1.2605120738342,1.2555593763086,1.25888348534564,1.26032965196595,1.26263691261622,1.26646567241404,1.25838769007931,1.25299273902118,1.2525007193909,1.2519451911073,1.24850683124562,1.24575367097056,1.2462798072073,1.247031628595,1.2561691333697,1.26110240770351,1.26632934780737,1.27648116936353,1.27645842199491,1.27612909429513,1.27319742223796,1.2696178484032,1.27006822887988,1.27099255011254,1.26069821964013,1.25321232207075,1.25595048291621,1.26017572027147,1.2611233933998,1.26399148688378,1.26001341619264,1.25356243492838,1.25225127442825,1.25007179271084,1.25525527865639,1.26033635736005,1.24946544560546,1.2410792563818,1.2466764027504,1.25249162641027,1.25137548719198,1.25024097924431,1.24339188333926,1.23254889627961,1.24309036176757,1.25745219717194,1.23576659835059,1.22228494203203,1.21996629069636,1.19192023171677,1.20426561871979,1.20305487915151,1.21013306974735,1.21164918982388,1.21095106906016,1.2100386803753,1.21167042328559,1.20935340498026,1.22729233796593,1.28059000004158,1.2459382682146,1.24434364797528,1.22656136066355,1.22692863882857,1.22742274525179,1.22846923313759,1.22736286935077,1.23500892554188,1.22394579597444,1.23404043678495,1.20506135297191,1.20734554474445,1.20303643386506,1.20312752614951,1.19212003558379,1.18007167354596,1.18051748500092,1.18194211156914,1.18065918545434,1.17980206652799,1.17739070620239,1.17596829653101,1.16810270977598,1.1592444689107,1.15879222946474,1.15982126546408,1.15112614033049,1.15250172742133,1.15289112310346,1.15638926860564,1.14010442024979,1.14321437889575,1.1270145202198,1.12332514182228,1.12661889073929,1.12890527287383,1.1290316080639,1.12895640602008,1.12677104656809,1.12364560546542,1.1145311303599,1.11041413454078,1.11186627454606,1.11374813081124,1.11105054479655,1.1294497434871,1.11099295249983,1.11507903473042,1.10504014577752,1.10594122253436,1.10530613349746,1.10724904432121,1.11082713454207,1.18723999993536,1.15508725543689,1.16259066196994,1.15362982905793,1.17846999915402,1.16733660913877,1.17756999364104,1.13123960824508,1.11709438515172,1.1182977729542,1.12082344439382,1.12116959944983,1.12220122099074,1.12354298410728,1.12318198283505,1.15839282320514,1.16568898179355,1.16457342531874,1.16550287210187,1.18559766422045,1.18901863286843,1.19205036981902,1.19464061679662,1.19465847831328,1.19518450666665,1.19571361045647,1.19635992981397,1.19720669725622,1.19930761425868,1.20066711503584,1.2175936176337,1.21931984831912,1.21959701116373,1.22173701193435,1.30267000001418,1.23212760954175,1.23023886142228,1.22945181496899,1.2303879081608,0.894775855238966,0.00356644389022237,0.00358789908099185,0.00372603642110036,0.142737100298845,1.27440999999999
1.2548609774569,1.25585989002795,1.25677255229602,1.25815106259053,1.25992473340805,1.26227246899051,1.26419379952834,1.26024538330887,1.25872108715917,1.25959554241004,1.26137399747905,1.25910893243877,1.25632338388866,1.25491140369964,1.25341852003935,1.25211813628728,1.24996319595235,1.24772957289012,1.24515622362333,1.24585497849758,1.24633187727527,1.25141459547543,1.26312889873277,1.26378753704301,1.26417007817008,1.26410560746287,1.264740447464,1.26351485888173,1.26299098067024,1.26237422510828,1.26095532455971,1.25850286895114,1.25548643132222,1.25468550758907,1.25721640204863,1.25925211087251,1.26229622625988,1.25652683967953,1.25374886774226,1.25279506386305,1.25181048389342,1.25133353550753,1.24957115917755,1.24669985613726,1.24304690852565,1.24064673790334,1.23816705274181,1.23583484774744,1.23375809802371,1.23217439367216,1.23130534862424,1.22966236165622,1.22838526795134,1.22709199830025,1.22315271107925,1.21766768621445,1.20941090654077,1.20526531787842,1.20450226544343,1.20726403668373,1.21162967457022,1.21106757927149,1.2197656968381,1.22417848105766,1.22666180824438,1.22893212607686,1.24766711004651,1.24666809093901,1.24542944858387,1.22697598787239,1.22692500336194,1.22641168500678,1.22435610529495,1.22169825664514,1.2187701262179,1.2146374028361,1.21235160595232,1.20196877469561,1.19899670379927,1.19615130637344,1.19340527067607,1.18996558037153,1.180363513217,1.18038773701781,1.1803989696276,1.17971111515639,1.17869409411498,1.17404940095578,1.1707762016273,1.16332438865397,1.15814180245071,1.1577176644174,1.15735841731363,1.15064209707074,1.15018281853236,1.14972235940175,1.1482155200708,1.14076985799279,1.14166531635552,1.12639442432666,1.12612385123407,1.12521833677655,1.12255516155409,1.1200212065372,1.11808991259293,1.11634425767633,1.1142860627419,1.11224674933197,1.11080045735879,1.11003325440812,1.11061850481232,1.109905226486,1.10957376081402,1.10933050042978,1.10896920978942,1.10646158735113,1.10572087906733,1.10558098976126,1.10618039582873,1.10849737003214,1.12672326252236,1.12518441795691,1.12469131834615,1.12479709597754,1.1257269368231,1.12762246251764,1.13034078568016,1.12855186417172,1.11706496689281,1.11733628316992,1.11907587890613,1.12037086952173,1.12243038565132,1.12481981715429,1.12558005828886,1.16214719519707,1.16709341661113,1.16635106583458,1.17678918138167,1.18744805284661,1.18920765510027,1.190073878648,1.19116343868066,1.19216150827497,1.19304044979062,1.19387915663374,1.19453436853547,1.19520117816018,1.19622296846299,1.19957100103909,1.2168239449723,1.21816946686414,1.21906233026318,1.21966047539246,1.21946940182973,1.22053383171599,1.22225296239809,1.22349820747056,1.22266989156788,0.894766301779113,0.00350713657089634,0.00357353552243903,0.00370629159583001,0.106472974981765,0.140905213926449
1.24839221732383,1.24832200869462,1.24729035384743,1.25528709933322,1.25939533989552,1.26241447501737,1.26829865018933,1.25993857150236,1.25859818849271,1.25928787232994,1.26611891931639,1.25690578134969,1.2547178910753,1.24940946020598,1.23360449249748,1.23572055623264,1.23890805131665,1.23895533634751,1.24027455851832,1.23639830396057,1.22484748805835,1.24624971291246,1.26430493749221,1.26309276535916,1.26119803635098,1.2639979994948,1.26756119479849,1.2518169022243,1.2351340352201,1.24246739117017,1.24461276308005,1.24452064106615,1.24721748963265,1.24999418555877,1.25276209786987,1.25641277400529,1.26981382995644,1.24076266986114,1.22983536803952,1.23013617536832,1.22968933300521,1.2278227000426,1.22529617146408,1.22778430692956,1.23021804032174,1.22134383272246,1.21301279074872,1.21666727078805,1.22040350203203,1.2217664628375,1.22312380181465,1.22570560238187,1.22889060652232,1.22632944363019,1.22362366144479,1.21551770933359,1.21340508886531,1.20299065944862,1.20052206646305,1.20540799186851,1.21355924851049,1.21097591428708,1.24379776760007,1.23392757104744,1.24357271625257,1.23447114827562,1.24691840521845,1.24637465588111,1.24452251024806,1.2151723227965,1.2049908384669,1.20476034002685,1.20508634136286,1.21357732634411,1.21989866885439,1.21269769249913,1.21027813754456,1.19682338150146,1.18596106726997,1.18273357994813,1.1794348440617,1.17846875044067,1.17934253148022,1.17965259167874,1.17984731916142,1.1793848630448,1.17833290099025,1.16913075384292,1.15798607768082,1.15887014667489,1.15766577020333,1.1574695263657,1.15722364730531,1.14895240775523,1.14745769773971,1.1483291975425,1.14821401993787,1.14046543457294,1.14043033901853,1.12741124658163,1.12968971622878,1.1186423060713,1.10026929344652,1.1019217862131,1.10259727911208,1.10322945908517,1.10415873597132,1.10331081875271,1.10056474855485,1.10753086606241,1.10899589680557,1.1084946602868,1.10964658062867,1.1076186373537,1.10783113509154,1.10563133049471,1.10512784944655,1.10510794364366,1.10567055818737,1.10700587426495,1.12872755858528,1.12428687219522,1.12084851201052,1.11527829634663,1.10208744658589,1.12312617700305,1.13476483734686,1.12426995242062,1.11365223333147,1.11624505012042,1.11521410801877,1.12006618284934,1.13864740976562,1.13008852549636,1.12723893623091,1.16553054553211,1.16986905184687,1.16849368520352,1.18744004158788,1.18732879307296,1.18971834191075,1.1884589442901,1.18789231456808,1.18940278155526,1.19135258524976,1.19199090984226,1.19349764781935,1.19362384796751,1.19535029677353,1.1987215427628,1.21365497541541,1.21646229111458,1.21826939744819,1.21845180382395,1.2187485322239,1.21955850069807,1.22077324517824,1.22194506694068,1.22232611177271,0.894755926669139,0.00348374889557361,0.00362552908573601,0.00392162142749498,0.0727908742197162,0.00347262999956124
1.2505242377912,1.24952364961934,1.24886125193283,1.24999128194191,1.24700979037981,1.24597632752088,1.24553882721618,1.24427744859737,1.2437342880586,1.24350063426167,1.24279736817109,1.24086345701076,1.23789514360468,1.23515419127559,1.23431830512032,1.23490699715742,1.23607900855933,1.2366371893855,1.23669129226969,1.23277046001709,1.22797668463097,1.24050371554025,1.25154978996877,1.24918795137536,1.24600926744299,1.24271598081419,1.23999859687593,1.23815719699336,1.23709405365605,1.23980740894093,1.24150221481463,1.24251075383407,1.24455191007977,1.24563761871392,1.2443495678218,1.24062828334561,1.23728897657442,1.2338428943269,1.23044657605508,1.23033810624367,1.22960868601272,1.22810161517007,1.22603004743574,1.22340895162447,1.220359017818,1.2171326588866,1.21413447636884,1.21268822173857,1.21193009180722,1.21181578841213,1.21207781001724,1.21232357842559,1.21212688874452,1.21116291134951,1.20938155592517,1.20709071757449,1.20483885286777,1.20316880884228,1.20236249697943,1.20362060149038,1.2060616923838,1.20823557763083,1.22187241948041,1.22153091669779,1.22102719670387,1.21857497653642,1.21637119127058,1.21404550386872,1.21134633633353,1.20828612810952,1.20480529701226,1.20132207632256,1.19797075216041,1.19507670883138,1.19282318312268,1.19113302710274,1.18960923795093,1.1877641689134,1.18534961551469,1.18251815192342,1.17972121091249,1.17772536915692,1.17547435870495,1.17235447927123,1.17009286314798,1.1683320254197,1.16583713840277,1.16239504632848,1.15912525961128,1.15894995362622,1.15520867803922,1.15353193023078,1.15244541816044,1.14856298657941,1.14389738446688,1.14052334116955,1.13598572692182,1.1308160087134,1.12536606947308,1.11931071286139,1.11321438833286,1.10823833613521,1.10292612212322,1.10269593203731,1.10283890083546,1.10320269206703,1.10384813515159,1.10386267052429,1.10399202366247,1.10591960803878,1.10692793592239,1.10552678962707,1.10530327863016,1.10430646328861,1.10396552798401,1.10368513436072,1.1043401865431,1.10404624171177,1.1061950026242,1.10668783724294,1.10719201014721,1.10827522915462,1.10973999387173,1.1110561473389,1.11143383087613,1.11783356963453,1.11894844004443,1.12014429573352,1.11850778462297,1.1187524324843,1.12078135673614,1.12048512061196,1.14623156521137,1.15390487021568,1.16001862270817,1.16803912957406,1.16991736549811,1.17021074961788,1.17249489022959,1.17520389190668,1.17874985521234,1.18118326836267,1.18476323622923,1.18646577382124,1.18853418626153,1.18969806892867,1.19062895004955,1.1917033062038,1.19280110305294,1.19763129625379,1.21375463316762,1.21520041572565,1.21617421650681,1.21715843521762,1.21806824970107,1.21880028227488,1.2196943585403,1.22097467830867,1.22186058194265,0.894749103673718,0.220336613449045,0.183932182887637,0.147755779658175,0.111774239473607,0.0761023060982801
1.25309675777198,1.25066617407515,1.24857766063143,1.24886775152036,1.24734683800039,1.24628315819336,1.24761922210823,1.24335793542643,1.23961971902809,1.2379768518033,1.23402878412321,1.23448359990606,1.23358334684064,1.23433996004478,1.23409233833007,1.2342413614167,1.23366589925308,1.23482448107499,1.23752010466016,1.23049226254942,1.22589912121315,1.2342685948825,1.25299439875749,1.24223711841049,1.22882427297665,1.22169252089901,1.21384048099673,1.22513828573809,1.23532864580435,1.23820301092661,1.23949115964723,1.24060531245003,1.26148172772061,1.24554207363968,1.24603645357382,1.23904146623519,1.2342573124745,1.23008528297569,1.20606791524514,1.22383645114242,1.2296264295447,1.22840746808339,1.22687284826766,1.21324820674175,1.20504985144789,1.19457598299505,1.18815519503412,1.18360639711892,1.17456308035236,1.17668144479763,1.18083729127946,1.18188901342782,1.18223928266996,1.17516301754161,1.14216178890833,1.14829881588391,1.14311220187478,1.13922770556631,1.13085035573522,1.15261298320862,1.16450999632932,1.18433873906943,1.22303359232566,1.22250569417029,1.22350231478912,1.20198889475391,1.18251299823491,1.18401413935465,1.1847944830554,1.19003957961348,1.19514067421716,1.18690131289304,1.17767021135014,1.17720992043393,1.17695713737245,1.1770990361564,1.1774636043977,1.16553415286615,1.1483129218782,1.14789631340959,1.14842749209217,1.14781812512504,1.13398546026877,1.14105757573036,1.12925001064554,1.15650709443378,1.15797435357196,1.15938377865286,1.15926056778099,1.15855770236167,1.11920389925753,1.11764188511664,1.10486198568515,1.10476826783116,1.10384336921416,1.10499243390847,1.10551407594864,1.10454429277569,1.10314523056947,1.10381215380495,1.10334528157009,1.10509606688586,1.10496112632499,1.10328941877168,1.10302523533751,1.10331721919499,1.10445474653956,1.10453508692523,1.12977996211167,1.10615388112774,1.09675401468925,1.10098861976959,1.09745497279452,1.10038923003026,1.09876437304087,1.10061979931956,1.09029979831771,1.10051850679876,1.10795795305367,1.10690257142758,1.10660183589134,1.10745526848182,1.09466305273951,1.11149077810489,1.1121461254554,1.11612862026433,1.11884161444143,1.11948551319874,1.12131677987001,1.12014649000019,1.12369683005358,1.12122182330489,1.16592705207189,1.16609072709658,1.16879152470968,1.16940882870101,1.17018083969238,1.17074081614109,1.17178836831599,1.17387176374907,1.17514826083588,1.1783216764554,1.17957652659319,1.18374734796222,1.18692430207166,1.18766937449974,1.18858537243237,1.18872662811028,0.00356346999998212,1.19586814008894,1.21189984604717,1.21375218995519,1.21390491209963,1.21578650075551,1.21774088280823,1.21792051665547,1.21847613705758,1.22042854785257,1.22245387523145,1.22438545619133,1.22696892805652,1.22774822061206,1.22952735325746,0.14826482593338,0.00413684999928892
1.25157476822814,1.25151275208297,1.25065856950687,1.24922349964737,1.2473091775143,1.2449272313536,1.24320230489904,1.24135953662647,1.23950724290814,1.23760002752169,1.2361688740754,1.23559345436976,1.23536012691503,1.23489529320441,1.23456073098132,1.23396963899419,1.23358030348154,1.23185437561263,1.22908293226361,1.22839288888259,1.22752221740159,1.22757652211211,1.22695905234292,1.22526126816638,1.22257693198206,1.21937592146914,1.21619912044616,1.21566549766285,1.21556679621029,1.21575511905451,1.21602181644151,1.21623601571299,1.21637715404302,1.21654670903635,1.21694452821656,1.21683288899118,1.21666618328552,1.21576794558875,1.2148105436077,1.21280995422751,1.2117047685509,1.2081795141752,1.20404533206385,1.19902786047178,1.1941469679191,1.1894628711462,1.18625879519686,1.17877277682874,1.17379327347896,1.17287056410645,1.1710422398861,1.16872976136297,1.16671401079875,1.16523947602241,1.16302050798787,1.15656993235651,1.15063837404056,1.13607523535045,1.1339257058708,1.13494125196695,1.13631751848006,1.13843390557154,1.14155264044662,1.14565956218914,1.15049695339843,1.15176889995163,1.15255109380288,1.15373122333639,1.15468032643061,1.15316679896048,1.1513270791525,1.14970214911241,1.14862540164419,1.14845304203298,1.14854851212827,1.14875118571878,1.14889549534878,1.14803019060065,1.14739949827446,1.1471238377592,1.1474067903295,1.14686863707887,1.1493294435323,1.15245345525592,1.15767897699674,1.15699837445729,1.15754552315127,1.15828729827368,1.15838315543791,1.15810484104346,1.14261450341933,1.11566545914601,1.1050040211731,1.10538431843816,1.10514215318141,1.1054295251555,1.10511237965695,1.10483490085967,1.10441829036026,1.10479851011075,1.10471856693903,1.10504696032256,1.10395196044111,1.10288359167134,1.10256992320501,1.10308782235475,1.10417601795384,1.10551801951479,1.10522724186745,1.10639069199789,1.10674922016549,1.10425957423789,1.10290465388269,1.10099863988603,1.09936680061834,1.09813559969041,1.0950916168992,1.09743932481412,1.09920513203106,1.10108190283906,1.10504156808454,1.10736502140913,1.10915456896471,1.11068733228909,1.112246304641,1.11515786357028,1.11633839340588,1.11722272098525,1.11720932942641,1.11854942045702,1.12025844005768,1.12003437033222,1.14307428049416,1.16559681562874,1.1707205212308,1.17015974718246,1.17041644935084,1.17074555342465,1.17174366604936,1.1728811206874,1.17430199078567,1.17641102989507,1.17852287156767,1.18146630802237,1.18419450384769,1.18578485751858,1.18698972344927,1.18795899300427,1.18822278977105,1.19371915528339,1.20341481125873,1.21328779934416,1.21325277818393,1.21446783679673,1.21582578591562,1.21689100491558,1.21805276237357,1.22001049260548,1.22208796744067,1.22398630380246,1.22582645435885,1.22709297656374,1.22829075253411,1.22844372985573,1.22890853370383
1.27236903681615,1.25352121291632,1.25328030444409,1.25088583789574,1.24745847275791,1.24400479360536,1.23985287358446,1.24031040276894,1.23915648952313,1.2376439192194,1.23702948827289,1.23683022339841,1.23731176175388,1.23601393553966,1.23493944099174,1.23404121035777,1.23512699389285,1.23025587657435,1.22686128803347,1.22698658172837,1.22736778759049,1.22018746602434,1.197417196453,1.19501388998863,1.1921174041702,1.19202768047342,1.1903825425496,1.19343376718864,1.19498310500431,1.20061237989445,1.2060219423121,1.20978572409023,1.21367467669976,1.21556150480985,1.21775968366287,1.21743784303364,1.2180817891755,1.21672738654739,1.21700282293465,1.21374422158498,1.21275580535822,1.19873297491645,1.18197903861296,1.18203080623537,1.18024984464139,1.18265038986321,1.18439152163744,1.1761817567144,1.17109305608653,1.17160546888128,1.17091511055632,1.16751398295981,1.16406863510262,1.16439852017268,1.18205997241788,1.16460284470195,1.17470639628066,1.13534767251108,1.12981939298615,1.12845874441558,1.12658202486087,1.12760410711367,1.12879407359878,1.1429991791208,1.15449495191358,1.1527016452488,1.15220854130493,1.15446682813636,1.15776519986941,1.15449752054855,1.15263538607038,1.15073280188604,1.14967235528786,1.14947690359473,1.14946058584924,1.14929358807846,1.15009512972615,1.14770834371387,1.14647541445563,1.14371859157691,1.13803502877816,1.14296382713243,1.15713229219053,1.1552094308243,1.19347999710648,1.18205818539632,1.19622999737324,1.18688931822997,1.19640999935466,1.1790658488404,1.19824999978097,1.11330667005227,1.10456993754209,1.10625428380724,1.10582450774486,1.10627707758715,1.10481239511072,1.10525987211846,1.10505194262081,1.10614940749367,1.10581232905216,1.10755030718158,1.1203040942921,1.11968056227429,1.12657473291592,1.12365610375444,1.15399999954899,1.1082950538277,1.10276412157193,1.10694649038764,1.10843350257044,1.10953158836832,1.11289086586162,1.10199503678097,1.09936406693404,1.09739064845539,1.09490914097686,1.09516360392846,1.09355729157303,1.09548820168989,1.09218508105633,1.10693202953978,1.10902964744706,1.1094853811252,1.11128812803142,1.10511083248137,1.09620058666154,1.09584633185608,1.08774229233387,1.11237048133613,1.10533032337151,1.11915994860515,1.11850307407317,1.16458581956742,1.1731163083575,1.17007918079983,1.17027829086144,1.17041313967179,1.17135759690626,1.17200697700083,1.17282480971205,1.17466840584485,1.17595285434081,1.17954806987401,1.18276902153803,1.18446320808965,1.18596573408318,1.18800599166162,1.18851456433887,1.19217511584962,1.18967589081961,1.21185226246493,1.21091400630433,1.21292822102561,1.21445780294033,1.21580990354531,1.21707853797865,1.21953139598213,1.22219802209428,1.22382346999995,1.22560816629265,1.22697402841967,1.22874692978211,1.22926154107543,1.23161011839538
1.25792933164645,1.25589538717966,1.25495830243254,1.25334377244417,1.25220943027172,1.24198336376511,1.2409044483832,1.23990574125701,1.23856798364356,1.23714503470009,1.23671990293666,1.23711880574673,1.23767061206383,1.23655930362562,1.23472014403746,1.2324357583299,1.23072919214,1.22914609165654,1.22716339464167,1.22517856675287,1.22303754497806,1.21619024428401,1.19652022752774,1.19521085143729,1.19363528236685,1.19305223212977,1.1927106402611,1.19364859001169,1.19353185021286,1.19255333426706,1.19195500548798,1.19150022226116,1.19106310239881,1.19002982368413,1.18903541732801,1.18728459880635,1.18630913503165,1.18685153465765,1.18803071179513,1.18856276959702,1.18854054322513,1.18706722166202,1.18313969052461,1.18311603382405,1.18229543072526,1.18214970973437,1.17989176686581,1.17647180047611,1.17281527280114,1.1703177526816,1.16720588720592,1.16146571913913,1.1561785092811,1.15070410791087,1.14554498781503,1.14078800100646,1.13722645313147,1.13385182267857,1.13076617984165,1.128838214789,1.12761147382515,1.12753099638972,1.12798411701122,1.13483080827624,1.1382644383874,1.13900322268872,1.14047126047119,1.14248141196651,1.14479927001867,1.14720458895294,1.15013526955399,1.15081455098907,1.15087885135027,1.14984381840288,1.14879117132204,1.14884782996625,1.1487440929708,1.14623800462249,1.14414290121004,1.14168561476321,1.13777230779118,1.13319615576334,1.1293266688049,1.12602180160149,1.12294892798627,1.11986815593624,1.11677942729292,1.11391628372775,1.11164980771146,1.1103371352345,1.11015237023626,1.11093730580183,1.1096275027981,1.10912527676922,1.10921343136728,1.10920352074676,1.10804155194967,1.10694167473801,1.10792401592381,1.10903941609413,1.10909436252532,1.11157148842784,1.11649918902113,1.11850505035565,1.11921316533641,1.11913831433106,1.11471993215006,1.11099752364108,1.10961938043539,1.10921047676263,1.11006168570429,1.10931876718919,1.10878042479709,1.10420216547089,1.10045406631572,1.0973893862923,1.09494226742925,1.0952219175271,1.09540651473269,1.09753214629774,1.10023214794365,1.10519521483765,1.10743721510482,1.10752694971529,1.10387039193813,1.09923010929882,1.09598561048802,1.09490842050674,1.09391845314248,1.12836141849158,1.13267825771673,1.1363951047926,1.14752163737312,1.16336221014868,1.16404281420579,1.16658497716025,1.16810755052814,1.16895335141559,1.17014290598971,1.1706961202488,1.17169679552785,1.17329263291888,1.17532712825798,1.1779934457283,1.18137735885868,1.18341852210046,1.18711584607402,1.18943709674519,1.19179275026888,1.19343110292768,1.2037849973456,1.21073792669616,1.2107510097422,1.21203760469294,1.21340094190932,1.21506182771598,1.21670968853768,1.21905455347285,1.2221488841875,1.22382399591343,1.225511918992,1.22691136499963,1.2280543877276,1.22912701675606,1.23030023946842
1.25830035973513,1.25715043753186,1.25729442906875,1.25530445077308,1.25527500149048,1.24159323118389,1.24098862704753,1.23307724890937,1.22476076613113,1.2323341786572,1.23649939879432,1.23754904341242,1.2394633087986,1.23804230444455,1.26490999940072,1.23018471891478,1.22775251013443,1.22809904305732,1.22758895025875,1.22344797638896,1.22081441213405,1.21304355400633,1.17534617323669,1.17478483778594,1.16866360851271,1.17149410906877,1.17404591190455,1.18187568572445,1.19230411342362,1.19229111511163,1.19223159528943,1.19192948099416,1.19226732932772,1.19094129672809,1.19095262266121,1.18799761857203,1.1862813658781,1.18731086447755,1.18925379398054,1.18930503628991,1.19015415197213,1.18600461599473,1.15355000096004,1.18381609059807,1.21280999941762,1.16633177686699,1.16174394247484,1.15868302665643,1.15473197627541,1.16050274460738,1.166885527773,1.15592130547259,1.14728994118885,1.13904444249102,1.13257526563905,1.13364207484179,1.1345598631853,1.13312148070135,1.13014331138797,1.12817333624004,1.12736800714924,1.12725543481952,1.12766903003888,1.13073102030272,1.1393588902442,1.13712197993825,1.13380776187423,1.1387882243189,1.14388394488964,1.14671102870171,1.1497983566549,1.15117980383669,1.15328286070921,1.14939888247829,1.14683659459327,1.14848520112679,1.14972638475021,1.14434793325953,1.14225840993954,1.12093296516192,1.10510749062117,1.10404195692472,1.10272132959841,1.09582981517055,1.08982970618696,1.09040196908333,1.0886595449428,1.09264118919139,1.09391096316936,1.09677366361056,1.09866503401484,1.10261321402907,1.11387844560395,1.11110119700923,1.11261999053388,1.11276827402473,1.12020822285631,1.11913012313438,1.12090231420903,1.11246598306313,1.11029734133134,1.11372953577693,1.11555118576839,1.11778220469484,1.1187888564072,1.11733781135994,1.11345529078962,1.11205676495178,1.11049860467246,1.11094649332936,1.11379957958409,1.11031236795694,1.12348615777,1.10816535089666,1.11412879974022,1.09923650219793,1.09234557929359,1.09502854892495,1.09530101358946,1.09859402742103,1.10074319063828,1.10434031256313,1.10827670259566,1.10893768743135,1.0926445266365,1.09562600259515,1.0921584802423,1.09368611326402,1.09338452114684,1.13064983318262,1.13631380951937,1.13873484417136,1.1597858185268,1.16147829580107,1.16235671181557,1.1644843023059,1.16641926951647,1.16743773222404,1.16920464353897,1.16922705565506,1.16965507268518,1.17175877295676,1.17396452627963,1.17586633675481,0.00335109999998206,1.18173012015133,1.18923083582806,1.1905065757609,1.1954852225615,1.19570466689423,1.20793621945683,1.20950398887354,1.20946696179131,1.21128256706291,1.21224986500432,1.21441840192605,1.21579060772994,1.21781056333618,1.22360209392674,1.22399076056414,1.22603413089047,1.22742786065513,1.22801340770744,1.22964964438698,1.23147616553165
1.23932059781812,1.23730277298665,1.23555424282974,1.2340428430527,1.23270808178714,1.23035237236221,1.22838290065923,1.22661332364367,1.22485402356186,1.22365134897373,1.22307319006906,1.22244864114266,1.22133176182234,1.21953425304849,1.21716697047,1.21585470332508,1.21433312598211,1.21263633460924,1.21080409689508,1.20896226980687,1.20731881969529,1.20719832350847,1.18396361917048,1.1736878641532,1.17157871851335,1.17181664520025,1.17241155902541,1.17205265516119,1.17317795198601,1.17292972255451,1.17326661972197,1.17390911701734,1.17469986340804,1.17569798290566,1.17708456280623,1.17892294884147,1.18100112533345,1.1829350253278,1.1843818033822,1.18516542064625,1.18535368322216,1.18525666853752,1.18447411117346,1.18386021549752,1.18375331885837,1.15987742754974,1.15889050364876,1.1559469226951,1.15283357052411,1.15016099059427,1.14709266504061,1.14358191510785,1.13997828579753,1.13658713641465,1.13358611184315,1.13201864260441,1.13083356979041,1.12937139598877,1.12754664751202,1.12701683229456,1.12681616352641,1.12633328031163,1.12558758587614,1.12553152834117,1.12484509096746,1.12381106667406,1.12292280995867,1.12246479341007,1.1223706906845,1.12244047424959,1.1224039674016,1.11802468434106,1.11409069660041,1.11107457133739,1.10897343721821,1.10753331091391,1.10638327281034,1.1052230681773,1.10392313609761,1.10248506978124,1.10093836335146,1.09927243204207,1.09741474711938,1.09522996266998,1.09257339686201,1.09207607516326,1.09211661731411,1.09406821862359,1.09554224963542,1.09714805206275,1.09804062541329,1.1016869171902,1.10521952651734,1.10845590283751,1.11387069475026,1.11504320274487,1.11732193249392,1.11763865990936,1.11786514531829,1.11727522252788,1.11898408625747,1.1181093254218,1.11712996569605,1.11855843512258,1.1184711149598,1.11724330769693,1.1148697982328,1.11319218363122,1.11197127555965,1.11075501591001,1.11011945050324,1.10860967502735,1.10733827030462,1.1061493951143,1.10324095936762,1.10072182159981,1.09963642197388,1.09892777708787,1.10002817336181,1.10046067950518,1.10163410467381,1.10341365848244,1.10578799891188,1.11064835248013,1.11371633561242,1.11713106109597,1.11908941050187,1.12023460710197,1.12413760724772,1.13133844823777,1.1383837524763,1.14318527279056,1.15876265440394,1.16014975059556,1.1610565017254,1.16239347739222,1.16377332931779,1.16483895511019,1.16618412793062,1.16706640877003,1.16803846845323,1.17007714300854,1.17383847261495,1.17568950208086,1.17679044261653,1.18068897577697,1.18618505606892,1.19120258131278,1.19793155504587,1.1988730963422,1.20975875963783,1.21094844879503,1.21092423006996,1.21177190161079,1.21308736053683,1.21470618307832,1.21638930551303,1.21864503784219,1.22161653132038,1.22261964674225,1.22854804648497,1.22905376686873,1.22959792115001,1.23056541057863,1.23161151928054
1.22978287012278,1.23031842758088,1.23066085342111,1.23249961615471,1.23382581082325,1.22761356293942,1.21908205605073,1.22051245240205,1.22198108176768,1.21534165082968,1.20691667002896,1.20760830609037,1.20848927563959,1.21218499701293,1.21582217212789,1.19513418760927,1.17280728665557,1.17363809105126,1.17452444353994,1.19257508473664,1.20589043165713,1.2006525210178,1.19230267774231,1.16373870945545,1.15757721301443,1.16313694874323,1.16869272871919,1.17124676478915,1.17618387771971,1.17160083990646,1.16732517034142,1.16077481698755,1.15487507048348,1.16346686527656,1.17120473960257,1.17211857419213,1.17263328151828,1.17032434227104,1.16787972350551,1.15598064585153,1.14764518640517,1.16190184549435,1.19117799349558,1.18353151764453,1.18378149644358,1.15455975539523,1.14680653006018,1.14462808459306,1.14295347489852,1.13624357877889,1.13213035194913,1.12897616379503,1.11952494110389,1.11890205493192,1.11250686902497,1.11280212747182,1.11258015606236,1.11973240512458,1.12119444145242,1.12163562543715,1.11914593601272,1.12199897202833,1.12268397880559,1.11912600218809,1.11469246465341,1.11514749931822,1.11547710544622,1.1136733627988,1.11254861405523,1.11921663121863,1.12668964282824,1.11202684382347,1.10013404733803,1.10153013984376,1.10237856177764,1.09209909721568,1.08555292884176,1.09273650885984,1.09983980755301,1.08427422108889,1.07438516931404,1.07398687308053,1.0720380966682,1.07185238923372,1.07116385229151,1.0734455861062,1.07593714024364,1.07628844434492,1.07695584292288,1.08608517778843,1.09451153317976,1.09206805836913,1.08964162230727,1.09641182848964,1.11328290943951,1.11555404473068,1.13165439043807,1.11673037230013,1.11648811000679,1.1185280327127,1.12210987884737,1.12227969233186,1.12618922441791,1.12106135174866,1.10168867757545,1.10413792420291,1.09634356117054,1.11337231755514,1.11349874309717,1.11078187868308,1.10473286887391,1.10715713678541,1.1070981778844,1.10566850247635,1.09272957899298,1.10074385902245,1.11571970283995,1.10007651086868,1.10181208660132,1.10158522086612,1.13614999878043,1.10171777580597,1.1010077253742,1.11378572551058,1.11805396985105,1.11873024338495,1.11977027755879,1.1209686610137,1.16116201672835,1.16617398367561,1.18130371174935,1.16065993651124,1.15597366531358,1.15877063418957,1.15892354295353,1.1602812514085,1.16115513812887,1.16216868611728,1.16412184029138,1.16526260053442,1.16549377437758,1.16730908107825,1.17572411241945,1.17666481431891,1.17863579880027,1.18004039636327,1.18356528285044,1.19209591634678,1.20079170463315,1.2038079522481,1.21115798014913,1.21439268614242,1.21182878793945,1.21252423042505,1.21399982812268,1.21500599759513,1.21641069700796,0.146640070908542,0.00348964999923382,1.06165693226793,1.23046832450874,1.23063919881234,1.23104640206172,1.23173314662723,1.23271530915413
1.18376159214241,1.18635031467502,1.18877121252827,1.18638690426413,1.18408423368502,1.18217683020243,1.18080430732927,1.18005829913819,1.1798993304899,1.18015745816345,1.18055245991083,1.18073752661699,1.18039097426535,1.17933367426712,1.17760418737987,1.17542407747746,1.17306479735619,1.17097553970808,1.16897469231082,1.16701791714693,1.16499179044936,1.16278375614425,1.16035788432365,1.16003334218253,1.15965213086296,1.16064033082053,1.1615044171095,1.16203575733887,1.16207867131329,1.16174959892977,1.16126270755842,1.15886006962143,1.15569797039755,1.15326672285659,1.15120135634444,1.14947199140924,1.14805674667561,1.1470829329033,1.14664865593888,1.14674069439201,1.14721979135122,1.14743073432452,1.14768416568296,1.14809159785375,1.1481417411747,1.14673495350709,1.14538206886705,1.14388294397889,1.14260986317908,1.13300506425658,1.12915374889877,1.12588341212707,1.12073184620159,1.11811954921977,1.11454376874922,1.11400993123865,1.11475757806824,1.11850720839145,1.12071151530448,1.12132214928654,1.12006263587084,1.11933948742937,1.1182992823273,1.11689430806807,1.11502243783052,1.11462600667173,1.11404113806977,1.1128742369989,1.11139805352762,1.10695399643909,1.10304139447306,1.09870923173254,1.09425166108365,1.09043354430906,1.08708026066411,1.08391645407727,1.08154668946068,1.08028152210595,1.07950701884608,1.07827411137863,1.0761329712579,1.07481469925962,1.07326278599858,1.0724555008043,1.07222587614492,1.0733247737594,1.07453427303272,1.07619615281871,1.07814260337228,1.08137999790296,1.08430488002877,1.08662371091585,1.08832793477365,1.08963116095138,1.11512585813893,1.11660388217888,1.11762423643266,1.11695321518962,1.11676678818925,1.11860905743696,1.12165322384741,1.12292734871478,1.12428803014989,1.12320840630885,1.11180101015328,1.10556951945575,1.10088723655705,1.11338638080456,1.11321786096255,1.11124060318566,1.10797184994097,1.10712324422838,1.10590409217928,1.10307295192794,1.09950696167258,1.10048046881281,1.10091188910362,1.10098216259755,1.10169118948974,1.10199434461588,1.10174896124783,1.10118120093595,1.10022102400559,1.11574433967704,1.11891857913343,1.11967640542653,1.11999890921481,1.12277575346469,1.16617366402839,1.1701593296968,1.17526395063032,1.16932629464932,1.16380891477065,1.15884297863033,1.15802600650943,1.1583487694795,1.15880541735631,1.15910404493328,1.15830381268211,1.15832603776573,1.15838431185861,1.00161077600923,1.00158144024502,1.00151032431191,1.0013863376088,1.0012115072605,1.18904404304642,1.19455499732656,1.20211717452826,1.21023940722765,1.21708118665491,1.21979160664562,1.21761479848723,0.25223125635553,0.216088150826493,0.18041768097522,0.145154896288853,0.110207996385581,0.0753475874919848,1.061656932188,1.23221966140874,1.23210937438747,1.23257894630344,1.23293334242905,1.23363934876979
1.17451626363264,1.18381132423591,1.19338937438067,1.18620897155412,1.17976085381018,1.17928471618373,1.17932908017584,1.16522129578354,1.14929411236235,1.14918716696092,1.14884950091555,1.15289548863996,1.15691929941737,1.15728133102004,1.15780564601107,1.15772004578208,1.15728087976279,1.15108127513293,1.14495176285982,1.1467118437455,1.14804482763734,1.15346016236787,1.15886665819188,1.14820732335824,1.13944450520284,1.14395104251249,1.14742775788873,1.1381417671787,1.13307457766667,1.14773107623317,1.16280470924775,1.15424930092804,1.14521105887794,1.14331971011619,1.14193656969601,1.14261127404846,1.14338968076729,1.14203571496593,1.14019104874624,1.1390937378061,1.13741205366878,1.1427847200863,1.14838990743271,1.14842548910614,1.14965405516852,1.14680008962965,1.14415045895116,1.14283948842612,1.14041312948979,1.12836744075185,1.12088330334259,1.12185162728949,1.12181381185553,1.11732816418908,1.11389558759003,1.11416815383079,1.13405959630325,1.11947819846838,1.12086681860049,1.10822642135849,1.10075576358752,1.10008378632793,1.09919601103598,1.1054522147318,1.11305957396767,1.11368360317351,1.1125962445051,1.1122177007691,1.11067321803128,1.10034314184512,1.09158000264087,1.08998686060727,1.08939343339759,1.08322319582125,1.07407366376333,1.07663374388071,1.07834207753323,1.07300401763066,1.06794483903736,1.06532666922303,1.06161377919228,1.06201677347525,1.06107762732676,1.06129888264403,1.06200090222086,1.06189428840606,1.06178993928065,1.06013683379209,1.05445463522202,1.06367519807083,1.06591674282486,1.06627068918678,1.06985943483246,1.08481845947205,1.14361999908746,1.11850989104697,1.12071170798652,1.11747419159915,1.11561760840644,1.11726936669445,1.12366281596309,1.12347582303166,1.12425423046208,1.12352286127796,1.12258547300586,1.11085478603184,1.07553000123545,1.1133791299322,1.11493414842767,1.11295960933429,1.12156774961623,1.10764061833398,1.08757076576146,1.1010272707285,1.09731135356631,1.10206991167587,1.10197710401943,1.10212118233365,1.10193966280501,1.10235351530519,1.10170647167149,1.10149483587971,1.08471000118997,1.11693392162086,1.11810482731565,1.12001840114552,1.1192642307085,1.12535477831878,1.20291999985206,1.17496356580834,1.18246096275686,1.17144803286132,1.19908999911007,1.15701337783886,1.15481580184856,1.15611193650576,1.15642335679076,1.15648613740623,1.15578044930587,1.15751837752224,1.1582230086429,0.252599661453042,0.00351708999998211,0.0768587724000936,0.00356645999997649,1.00099737516874,1.19186055548014,1.19329357007575,1.20150520004668,1.21027832155422,0.00363315999998221,0.196751847117076,1.21298095193259,0.119070163033573,0.00366938370969673,0.00365027112370022,0.00359305946376053,0.0738929602508721,0.00352017999934444,1.061656932188,1.23439162156136,1.23306266046632,1.23445522416836,1.23390828127378,1.23535615608304
1.12621560117191,1.12686445564685,1.12820986430795,1.12991177876905,1.13171739064667,1.13348453334525,1.13513052855009,1.13659056027215,1.13781013488424,1.13875160746881,1.13939304047255,1.13971883447295,1.1397167490392,1.13939199465962,1.13879160709008,1.1380175561711,1.13720914510913,1.13649489077235,1.13593751337489,1.13550343894469,1.13507747873288,1.13452974947333,1.13378357518218,1.13290026040548,1.13228367496127,1.1322438830171,1.13261498396523,1.13217406663645,1.1332345622074,1.134601598029,1.13523012379798,1.13520734476644,1.13491883324904,1.13480863424487,1.13519801692152,1.13611510240396,1.13725808683127,1.13804588702945,1.13820789637243,1.13874454651149,1.13889009888522,1.13655623850888,1.13457470918991,1.13302911425881,1.13183385918189,1.13079380516336,1.12968676741563,1.12832729720849,1.12660629782508,1.1245158571419,1.12213619566265,1.12080541669611,1.11920430487159,1.11733000305005,1.11493060760476,1.11486036687346,1.11498044035948,1.11223750086125,1.10905193525731,1.10557169728164,1.10209231833241,1.09990575432894,1.09718367915797,1.09433215259879,1.09318707315824,1.09272465332091,1.09301065406094,1.09190058163479,1.09138635634963,1.09176619725361,1.09277636721329,1.08804227477274,1.08535573655489,1.08102785487813,1.0705428632418,1.06839312754866,1.0675216646825,1.06663802385353,1.06553413777343,1.06456920835542,1.06324306131438,1.06271149308178,1.06172476650148,1.06058655392062,1.06253273475159,1.06213557410023,1.06112662379437,1.05941678311928,1.05785603097053,1.06069320174251,1.06323021405559,1.06365686982587,1.07351467113505,1.08163395270278,1.12932452317429,1.11866950441815,1.11871722213986,1.11756710752159,1.11669111489226,1.11720347704649,1.11750548396074,1.11788220124502,1.11783718033308,1.11880439119698,1.11785848498177,1.11482928840136,1.11437094738353,1.11339158742173,1.11274551107793,1.1115600766362,1.10964329536067,1.10871688145806,1.10934474473968,1.10984653265323,1.10780597588815,1.10583546869529,1.10390487757672,1.10335433238675,1.10310147275578,1.10291797399001,1.10227382523051,1.10157567969924,1.09971989713245,1.11794163138562,1.11825862915439,1.12322930815458,1.12516108742342,1.12759519310257,1.1378226912657,1.14807127503026,1.15714674997686,1.16386700650315,1.17981607297013,1.1558666113356,1.15470565510294,1.1546120371422,1.15468084289266,1.15452031791225,1.15411971374839,0.286910069678599,0.251414619440341,0.217043093990082,0.150152338516896,0.113505116868278,0.0768587724002666,1.00075076724885,1.19151907496271,1.19398595298925,1.20048416580152,1.20959009121462,0.196751847117076,0.160166080878983,0.119076143937669,0.0824066609129264,0.00366595723353896,0.00368904868148968,0.00360145007663677,0.108868225722779,0.1452289720342,1.06165693226793,1.23112989346069,1.23172562369179,1.23262016214459,1.23318096948696,1.23406866817947
1.11673082752741,1.12012166793473,1.12372827468361,1.12430079605801,1.12565346779363,1.12096836434507,1.11629312354229,1.11481477980783,1.1126269148521,1.08847508898269,1.07097098185001,1.08429830699888,1.08888010825344,1.09130816327156,1.09440370538603,1.10392410979874,1.11354321492444,1.1160165192568,1.11856842811647,1.11864105959737,1.11885077202862,1.12008508531823,1.12153577617612,1.12126730790379,1.12175273261162,1.13014653337569,1.13377688958422,1.1293295352286,1.12624882587612,1.1245214759877,1.12349329126863,1.12295083300108,1.12200581270919,1.12158924127523,1.12184776388232,1.12555878697518,1.12938145565142,1.13195340684291,1.13560330706809,1.13856820562057,1.14225701516138,1.12452870468048,1.10566695159478,1.10471265165669,1.10429792112037,1.10351482221655,1.10374606787052,1.10003511388754,1.08943308838533,1.09336143043823,1.09622572850039,1.09607869432877,1.09622849982788,1.10789266919784,1.11355367324996,1.11535218691295,1.11759295787593,1.10360027322169,1.09122742585279,1.08969665360483,1.08869535450773,1.09132279235929,1.0961807769216,1.09375841361515,1.09386794656561,1.09306776241623,1.09550922585395,1.09092598989274,1.08941050695432,1.09232308379074,1.09623143297442,1.08452079803717,1.05235000845499,1.06356894904965,1.05302003403682,1.06468469866087,1.06199416525645,1.05696565308201,1.04996563165047,1.04960559298735,1.0501037916695,1.05103113486091,1.05243201188305,1.05615203682795,1.06554802072405,1.06295541632345,1.06175661829469,1.05875348454551,1.05653923347517,1.0574850894239,1.05451809004625,1.06027619243132,1.07536938486737,1.07842585468413,1.15167999983453,1.10811074573487,1.09628000034302,1.08707410795471,1.0728684995065,1.07221785350456,1.07169263092246,1.09002818106758,1.11586497011865,1.098240190625,1.07847002716143,1.09147641934546,1.11433034430119,1.11298499060695,1.11123292221743,1.11060814976704,1.10936368013049,1.10880559317954,1.13162999920057,1.11188915069823,1.11300203950843,1.10979904201541,1.15705999973482,1.13784410469008,1.15664999945593,1.13727218200429,1.15791999971582,1.10277555479928,1.0985434920382,1.11801080407173,1.1176761982534,1.12494120397001,1.13237500050446,1.13115593585005,1.13234133909564,1.13300746444179,1.13334197606261,1.15717538946848,1.19519999781509,1.15491974078523,1.15387029542228,1.15263213115967,1.15304638224238,1.15274619950808,1.15197409742618,0.207137829929402,0.00327667999998204,0.184829320410361,1.37124999999998,0.150152338516897,0.0034904699999821,1.00046683596663,1.18969745539572,1.19135293004113,1.19481516172592,1.20779852337923,1.48225999999998,0.123702168219925,0.00336432438283334,0.00359134849198061,0.00362163429259522,0.00378860764925532,0.00350773435833405,0.144404138082958,1.22798937887117,1.22755855257579,1.22837681413409,1.23001184493037,1.23143620675153,1.23227474284925,1.23336580351313
1.07194635297906,1.06926385994028,1.06749913290164,1.0670987089976,1.06806583966271,1.07003469422348,1.07251856899421,1.0736621615258,1.0747554290265,1.07558282460141,1.07498925033162,1.08204879417596,1.0866708561128,1.09067041315011,1.09326484725886,1.09819738946383,1.10068915031358,1.10348364877416,1.10682034245859,1.1097164065795,1.11263728276431,1.11515690203252,1.11747892444175,1.11977835517465,1.12215117237515,1.12516023783597,1.12727658640524,1.12509169236958,1.12516720492997,1.12383643487371,1.12348136652274,1.12293606650003,1.12185970980846,1.12014462780385,1.11775215767339,1.11560163237486,1.11389262730438,1.11250057146404,1.11123370626535,1.11007528398365,1.10940946950853,1.10898489863879,1.10564657332759,1.1036569775919,1.10216472618285,1.10100179969499,1.09963856990642,1.0984187997131,1.09342698122478,1.09409210353304,1.09402444896406,1.09353460701397,1.0929938416763,1.09264050090101,1.09242896959182,1.09226675568719,1.09223687465258,1.09123668896931,1.09014312639564,1.08914133149288,1.08852395586659,1.09019964219722,1.09176953738498,1.09198833672353,1.09184860845607,1.09130854168224,1.09048847105401,1.08901469990109,1.0866589560834,1.08335287856529,1.08142358290671,1.0808155838372,1.0774875918661,1.0744767132026,1.07115908781766,1.06708946693207,1.06453602884252,1.0524071315195,1.04924737247891,1.04907539898929,1.0492623820008,1.05112074941147,1.05305119756724,1.05529193756476,1.05657003934349,1.05741316252158,1.05793515921769,1.05800543813713,1.05752256239184,1.05798686822656,1.05879455684024,1.05863242135941,1.05840193628957,1.05873889094737,1.05953196308241,1.06061097991336,1.06180249918023,1.06303108651243,1.0643374953494,1.06584257919076,1.06767879678072,1.06988557913031,1.07233273313267,1.07476064271964,1.07694615582317,1.0788647614516,1.08069395680051,1.08264805280252,1.08479505412616,1.08700927007995,1.08908008977885,1.09087144016063,1.09240667501919,1.09383083499557,1.09529829830765,1.09687558752639,1.09851716775912,1.10010422691306,1.10147842664996,1.10252004252351,1.10307695955602,1.10378740414111,1.11593143056953,1.11943391464477,1.12281706630857,1.12743744729359,1.13080972225706,1.1317014134531,1.13254293875984,1.13315195514419,1.13326011668726,1.14367651482764,1.1446263933718,1.14609328085626,1.14792734989088,1.14969670389062,1.1503751317026,1.15141775284779,1.15201716592423,0.170864038485946,0.0768500416693092,0.153566616870933,0.99934197323551,0.999460501328135,0.999788826354757,1.0001406389064,1.1847459607824,1.18594377407787,1.18496083598555,0.48413018159336,0.124258253853206,0.0872841841636802,0.00363641580197334,0.00375958457966258,0.00388778415745875,0.00415855922366368,0.0956738351690208,0.180274661163404,1.22591771305863,1.22640546307631,1.22719607848938,1.22878490290731,1.23025697249754,1.23151506713,1.23280298293308
1.07483728258648,1.06315771875499,1.0529703777401,1.05298577426976,1.05305038570127,1.06238178717799,1.07398910930091,1.07331061533807,1.07250994064554,1.05376460488957,1.04033986637113,1.04057723475858,1.04017784781127,1.04951129275238,1.05142055895502,1.05360510662845,1.05584729725365,1.08140903653212,1.10557572870808,1.1048801676631,1.10413451287157,1.1029838912104,1.10165284198931,1.10063492896747,1.09950869536715,1.11159761002455,1.13138397629117,1.12160499083086,1.11916766068132,1.12204309898345,1.12342469036609,1.11534222667538,1.10631996243157,1.09759512680344,1.09016668766965,1.09838106217193,1.10590340873038,1.10703533337551,1.10752800732258,1.10826290974018,1.10918078854754,1.1086632296544,1.09685475814908,1.10094939179863,1.0992255879101,1.09959292164667,1.09826837131501,1.0845140735952,1.07128081454118,1.07105365838444,1.07019242817778,1.07037422529903,1.0705600455394,1.07723202239677,1.08799067625019,1.09090781766702,1.09308549902861,1.09111178198199,1.08886677711324,1.08811996306687,1.08623582666983,1.08919849663367,1.09156691879035,1.09081654637062,1.08868725145664,1.090288432358,1.09087983726922,1.0883204146053,1.08560155559109,1.08311381751046,1.08103889311152,1.08055715966938,1.12402999971891,1.09838791918022,1.12888999981813,1.10159941071153,1.13028999993144,1.05025740686669,1.04776425190304,1.0480456164231,1.0469634580679,1.04537457131214,1.04289717902004,1.04050853692227,1.03627708649278,1.04822694410576,1.0569374601032,1.05746121507003,1.05758104320323,1.05798162574965,1.06408961763082,1.0519464540082,1.04700428493461,1.04691289097345,1.0464286279214,1.04690294355577,1.04700472036315,1.0476860234131,1.04831543154108,1.0465950993202,1.04604522091388,1.04443179207259,1.04021352505605,1.04121592205422,1.04066949024255,1.04541389965363,1.04539995708546,1.05215490153419,1.05346048311872,1.05305314399165,1.05346745795271,1.05501117294916,1.05444981601297,1.05965157123716,1.0638880164508,1.06314909468336,1.06329483702967,1.07081974634022,1.07459471985453,1.10282824359641,1.10282282576624,1.10554988236428,1.12390505495616,1.12667924615699,1.12911985264414,1.12888755760862,1.1318448045696,1.13197678068494,1.19260000003108,1.13355569191378,0.00341360999998211,1.14155863276486,1.14448802414638,1.1445725187713,1.14597877367461,1.14692381997468,1.1473784194792,1.15047306705502,1.15264508820888,0.134957918960623,0.00359683000411105,0.12311765322048,1.17819999999998,0.99934197323551,1.18073482542249,1.17962624758688,1.18368582391642,1.18464445251141,1.18424674736824,0.483321462595279,0.00361174907221216,0.00407402899390451,0.00375979138132322,0.00380370798529547,0.0037723110668833,0.00421578606193964,1.22015999999998,0.216523416079986,1.22341677128918,1.22504411651039,1.22539230277759,1.22786143469255,1.22962134591659,1.23088977510144,1.23212093971488
1.03580878122297,1.03810710438198,1.04079134646094,1.04069855821473,1.04015093644874,1.03884808317136,1.03816737795094,1.0382028406726,1.03858473737957,1.03888557844973,1.03958478551652,1.04115582984297,1.04332193627706,1.04813546177423,1.05055543475957,1.05252948646517,1.05424324618485,1.05542496226983,1.06034389054823,1.06682395754123,1.07907607866052,1.07988786559335,1.08057591755458,1.08176799928629,1.0839741813582,1.0841054797165,1.08423979986271,1.08465849938531,1.08631153115543,1.08859653874449,1.09098764696217,1.09079987306084,1.0910213687571,1.09180978449188,1.09280271141079,1.09610003621246,1.09887873534603,1.10145145354877,1.10422067565966,1.10730131178654,1.10926287404472,1.10784420767442,1.10530971883845,1.10374129387126,1.09545130532309,1.09197176799897,1.08786831771969,1.08244243822793,1.07129168822996,1.07138390180625,1.07124302119631,1.07001461475537,1.07059734388293,1.07100624100175,1.07181420003519,1.07358612472789,1.0761531755325,1.0780335911943,1.0798084550443,1.08155057059281,1.08356879537308,1.083026210102,1.08235346987988,1.08007041179705,1.07791113922239,1.07564771499003,1.07283893212277,1.068773344067,1.06466275651795,1.06129389231076,1.05903344933208,1.05683157030633,1.05534647656966,1.05418002957461,1.05303453552656,1.05180657939627,1.05058223347556,1.04955864389123,1.04869903170176,1.04829857642009,1.0474440953546,1.04599808340266,1.0439478385632,1.04201680079549,1.04087155959002,1.04379289651481,1.04601436000753,1.04736135746943,1.04776165136485,1.04739411648702,1.04674730280804,1.04647612220803,1.04680560046539,1.04746308066999,1.04760694054424,1.0473303894439,1.04732212733974,1.0471859883261,1.04596376011242,1.04541169748985,1.04511242174293,1.04359956447061,1.04209466654258,1.04256046990749,1.04365849833564,1.04543988704563,1.04688886788552,1.05023707509321,1.05162032493944,1.0520591745397,1.05388871798977,1.05567012792465,1.05721068557323,1.05978458128268,1.06181026327563,1.0632283721776,1.06405308194692,1.06861948104966,1.07086807711728,1.10300414921626,1.10299650278155,1.10671891839198,1.12512146033571,1.12647144516112,1.12767340355571,1.1284057643883,1.13042110671186,1.13250411332488,1.13373044774857,1.13370650089415,1.13423734068333,1.13737997612509,1.13954772032236,1.14260503556576,1.14382919522822,1.14476223183854,1.14512043709689,0.229047065057574,0.1357173297511,0.0994038933594437,0.0645151206468979,0.0933257642127044,0.129479391707091,0.863056783929293,1.17853250212524,1.17749942864596,1.17568322958071,1.1747024994137,0.481928261915137,0.482022608599065,0.100883154246416,0.00445396973693304,0.00403565369992291,0.00383772541007436,0.00379015462578523,0.00385051073145588,0.0890384441423493,0.122483797831688,0.156352758994367,0.190783675585016,0.225888266552942,0.261745097846988,1.2289797750646,1.23059704943875,1.23186756372229
1.01193112639488,1.02808878094357,1.04333568780892,1.0417379864113,1.04140885417084,1.03885698968944,1.03660495914109,1.03341921926116,1.03020985640052,1.03274139306397,1.034554326057,1.03347170077257,1.03184197882047,1.03082708709099,1.030697326474,1.04002547544055,1.03912341958773,1.0475219648803,1.04892584870028,1.06216858989199,1.07786226292561,1.07396841475838,1.06989129598964,1.08010248364263,1.08711292523471,1.08532616204452,1.08531666856718,1.08290610236778,1.08092944022462,1.08725318383287,1.09343829524832,1.0905027045712,1.08711740049934,1.08649016087859,1.08626678197055,1.08666469068808,1.08749050837357,1.0753626542396,1.06134807594277,1.08888419125319,1.11286837184096,1.10897224689223,1.12052738080963,1.10503365362146,1.07406754883754,1.07263954602411,1.06650528122877,1.06844027098069,1.07125626459598,1.07105488101398,1.08259396585558,1.06650025697402,1.06395462973975,1.0630612446778,1.06213509807127,1.07002584991129,1.07698018304819,1.07688204309561,1.07638277129021,1.06958671931166,1.06110076295019,1.07749781232829,1.08393492400919,1.07691858419882,1.0599365982282,1.06725289790811,1.0741206054534,1.06424784857682,1.05186169617838,1.05584519576105,1.05980419740375,1.04708394845341,1.03902823481521,1.0397620254729,1.04030400153233,1.03041615251329,1.0261188406255,1.02758459848382,1.02955905911608,1.02526639497087,1.01621458120001,1.01579386703179,1.01566673594245,1.01464327077067,1.0141355371934,1.01095047201751,1.00647455782195,1.00898981929933,1.00138092227971,1.0145068271593,1.0152869056154,1.04309614608387,1.06856997266085,1.04843358315784,1.04922568434428,1.0389701722191,1.03421425948034,1.03784865406044,1.04248503998483,1.04382327093396,1.05760554390132,1.04273247166611,1.04160740332527,1.04334143550367,1.04609763690562,1.04579700526963,1.06018038207103,1.05025288616857,1.05062246584087,1.04955592391153,1.04595291797816,1.04483209052603,1.04443317854905,1.03887800494756,1.02676605640961,1.02932068192512,1.01356000067533,1.03861414143248,1.03368181684741,1.10335368832455,1.10322928410085,1.10705665541897,1.1523699179791,1.1424856608073,1.1515015254688,1.14641113546732,1.1493434070833,1.13461889317178,1.1352758891181,1.13320439367991,1.13156974356691,1.13368028735925,1.1342217207644,1.14197280510122,1.14201082466857,1.14314668212914,1.14330987099204,0.192735769030732,0.00360141889119263,0.00353776060416843,0.00343833616881916,0.00354931515860366,0.00373660781899014,0.863057507270387,1.17730974323065,1.17612873451696,1.17540724250728,1.17436903399073,0.00347121999998212,0.480827599193576,1.37738999999998,0.00442170898782788,0.00374429074873163,0.00345007554893938,0.00335964450564815,0.0026989019880333,0.0031449498782719,0.00337056256190525,0.00358211606722837,0.00361468324554294,0.00369862235064532,0.14966862139967,1.22682695173084,0.878143034934119,0.00341838999998208
1.0083344374154,1.01087425645353,1.01316951553503,1.01520713914244,1.01699673952958,1.02070095104299,1.02399958445993,1.02673048242921,1.02876448438567,1.03004531854792,1.03063594143932,1.03077218398022,1.03087409410911,1.03045678732683,1.03559775701974,1.04054534285479,1.04277085155236,1.04564536972933,1.04654308833252,1.0468468098556,1.04731996556574,1.04828157074526,1.04993969005446,1.05237099399823,1.05551704106456,1.05690142383494,1.05788047091584,1.05846315788551,1.05948735298037,1.06078201774169,1.06219668321176,1.06349384221596,1.06432497401189,1.06440822249603,1.06375432454795,1.06270839596611,1.06174780673957,1.06120288855183,1.06112356025613,1.07828306956207,1.10698776554647,1.10717844709639,1.10655923704469,1.10606456537769,1.0887426675222,1.07050209730083,1.06818479566941,1.06793950333721,1.06761380049097,1.06732577183644,1.0666503239965,1.0655303607818,1.06483403909198,1.06372078941263,1.06298859774563,1.06313812303622,1.06321163506234,1.06288695738384,1.06205009431598,1.06078538852392,1.05925073959012,1.05756769879473,1.05577042605984,1.05381436598274,1.05162667339034,1.04919270584873,1.04664101432989,1.04425189458129,1.0423225390085,1.0409491512368,1.04001002128092,1.03887225270442,1.03730168164711,1.03312084004217,1.03122580713416,1.02928843593251,1.02697310981477,1.02484434115202,1.02175806288426,1.02047166010708,1.01774065143261,1.01541370123062,1.01507843331904,1.01408100267147,1.01245468723768,1.00940752856537,1.00891699010623,1.01136437565721,1.01365017599619,1.01415796374001,1.02213352159741,1.03634395414259,1.03918541706661,1.03892221961829,1.03793398901203,1.03621487860652,1.03489190554161,1.03560957757843,1.03667749813165,1.03754555469503,1.03833602105683,1.0389794389352,1.03940811234867,1.03937002823262,1.03843099303462,1.03717657686519,1.03608262989542,1.0352074530634,1.03443466098363,1.03366595997017,1.03286072288519,1.03184328408357,1.03028950997157,1.02816382480056,1.02788094754601,1.03094972417049,1.03256258241367,1.04295777482207,1.04466427357391,1.10428593625449,1.10590277288697,1.10676650148421,1.1171822233936,1.12847552852735,1.14063075836508,1.14175656275322,1.13989025891108,1.13604406111831,1.13466350493883,1.13262216507403,1.13101943094335,1.13129719650971,1.13803844806155,1.14095878189568,1.14183352133036,1.14258288936678,1.14288372197809,0.156740785626745,0.00362774286779147,0.00367097719659004,0.00358567654272528,0.00356354563589391,0.00360997123026447,0.863057954319496,1.17507861795762,1.1742958107984,1.17348974252515,1.17319471136388,0.478945849624612,0.480026681633558,0.0979114866971389,0.0041612998045643,0.00364300192226133,0.00287642748081274,0.00194632477158055,0.000416769941899276,0.00208599498270703,0.00306221042977513,0.00347145195090666,0.00357465442709914,0.00361740222013604,0.113051395869804,0.14966862139967,0.878168684706339,0.878143034934119
0.966458194419374,0.977178681806022,0.987228000044832,1.00052895155259,1.0148486772512,0.990969662908615,0.966970497102328,0.982237869410779,0.997327296213449,0.994622665733673,0.991571844756285,0.996181084025331,1.00078535636476,1.01020403386869,1.04464165142425,1.04362168719221,1.04548676729107,1.04534345923337,1.0446080921031,1.04471865189262,1.04461132239987,1.04087545786815,1.03700609550154,1.04894428358046,1.05778144474263,1.05776544554992,1.05875835631281,1.05581337206226,1.0528070984446,1.0516505931272,1.05050091461791,1.05255047612884,1.05451589447658,1.05753666563086,1.06037472134111,1.05113221594897,1.04504379060533,1.03893288542489,1.03410142821566,1.05568349914856,1.10757744398566,1.10703277713964,1.10659575604752,1.10640588399674,1.13670000002255,1.05695262724502,1.04784358261324,1.04384187318821,1.03886915930112,1.05014689831744,1.0604047351662,1.0641072109078,1.06644699551818,1.06439079813243,1.06331083552058,1.05447587332211,1.04043969835882,1.03290264333058,1.02696102617545,1.02345197066585,1.01050283798431,1.01125372392884,1.00950621923922,1.02077816445224,1.02931129648069,1.03155823992193,1.03369263312438,1.0365364058377,1.03936912436546,1.03979298969118,1.04039979549146,1.03927294340518,1.03837378403151,1.02934146657216,1.02729013402093,1.02432189809704,1.01348426348035,1.01574778900813,1.01880895795708,1.01935357398666,1.01780453230236,1.01301952153642,0.991666151224718,0.993143566656381,0.991427996125031,1.00576716872339,1.0226903197573,1.01381762397293,1.01487351207536,1.01449282177131,1.0329452860804,1.03439996359383,1.04249149292403,1.03272671476718,1.02201055134941,1.02371563684115,1.02713062823664,1.02792621368368,1.00560974673249,1.01203783704736,1.00434478457335,1.03108597523931,1.03722276083938,1.03437538991265,1.03174049503256,1.02001436280506,1.00126053194198,1.02173585510004,1.0335490731433,1.02362634228415,1.01794343277436,1.0192654620629,1.01947231930493,1.02642842966282,1.02536988397735,1.03303131582507,1.03369484710519,1.04440990805969,1.04492634764562,1.10429844449182,1.11018642372099,1.10735670081296,1.10638893519964,1.12095871778249,1.13913437099794,1.14051628163855,1.14030530716195,1.1269785721422,1.11691941640573,1.12834215138707,1.12916195764932,1.12952774743695,1.37058999999998,1.21885512328827,1.37159999999998,1.21296939793632,1.29916999999998,0.121019990794486,0.00367515600497318,0.00396806516975066,0.00374933518724013,0.00361692900128622,0.00360877006893506,0.863057507269509,1.1735022968628,1.17242095014671,1.17096090100891,1.17174286579421,1.17197905954785,0.480918280236229,0.0034822263784615,0.00372031243526402,0.00352936231856742,0.0970556994528746,1.20187047596249,1.20174351448243,1.20404796206425,0.106051520938352,0.00347387844433056,0.00355220357425612,0.00362758593440808,0.0764945278755874,0.00333335999991001,0.878232326779645,1.22069416924809
0.947525567934628,0.950341429703021,0.953493833671483,0.956926213477993,0.960373794840286,0.963543308981422,0.965903198418673,0.973423833995546,0.976763216608942,0.979195962235303,0.982133954462031,0.985576018000328,0.989320123103061,0.993177428949643,0.997086022504771,1.00103545649771,1.00498384976404,1.00888269588346,1.01303879614492,1.01669351896129,1.02017838236924,1.02319134904561,1.02639811652777,1.02942183554818,1.03223822990332,1.03486622464781,1.03736056676388,1.03788667094691,1.0376338423944,1.03630691408549,1.03579457706172,1.03617922480828,1.03702885584002,1.03768185237564,1.03766550729213,1.03688564412205,1.03566244851225,1.03471836695397,1.03448863923391,1.03435950954436,1.03417664802895,1.0337341924485,1.03307784211017,1.03244971174407,1.03199045874219,1.0320526700441,1.03264496511241,1.03420269458887,1.03695527940139,1.03835964616693,1.04089616660079,1.0374082144979,1.03578282818232,1.03406165494953,1.03218402488389,1.03018921449788,1.02792881005193,1.025232748977,1.02214168091946,1.01865441201954,1.01488916480837,1.01378854113853,1.01347536076479,1.01374392581465,1.01436376962107,1.01502314121957,1.01535650259097,1.01536641870251,1.0153649691518,1.01568367434893,1.01641548404451,1.0173764447551,1.01821190342913,1.01869096281282,1.0189198772594,1.01616974032209,1.01449717722907,1.015301876832,1.0172850644074,1.01906727748358,1.01970132480998,1.01087449170079,0.994271824920789,0.995939103471362,0.998429528869204,1.00277580057486,1.0030403165787,1.00603885275138,1.00911922487742,1.0120436685293,1.01376766577106,1.01473186264389,1.01577107286933,1.01741164326306,1.02010328815523,1.02197422811327,1.02615148838685,1.02906097750785,1.02475339025662,1.02249424787595,1.02191531058576,1.02096352658802,1.01986615730111,1.01671971390834,1.01351214445651,1.00994986464928,1.00587305317295,1.01151671740729,1.01546512811823,1.02048154319581,1.02005469173077,1.02041558023235,1.02034329348085,1.0354158589602,1.04284784037664,1.05059728007286,1.05843673725964,1.06386975089116,1.07862508017648,1.10518147451108,1.10587694265209,1.10688506859537,1.10756137382263,1.10873726699109,1.10980543427732,1.11123687356125,1.1135117967704,1.11697919365529,1.11971467203701,1.1247572299388,1.12704414504396,1.12838372730723,1.12948520961885,1.13012803944039,1.13046398903397,0.225790095170965,0.122012461363251,0.0855136470661599,0.00422775549660535,0.00455045465958755,0.0994248669717716,0.135975490549871,0.172573787594907,0.863056783927872,1.17118086657547,1.1707801788589,1.17039955212078,1.17074534657468,1.17105781190313,0.481930892354805,0.00342951300891594,0.00350748583481949,0.00348983683902744,0.133705916193578,1.19956940221373,1.19972969292026,1.19954003506692,0.724693667659976,0.724727538532611,0.724761407922347,0.724761403869857,0.724727527461001,0.724693652535873,0.878275293514823,1.20218684820337
0.945238966065022,0.942672067855514,0.940152605150491,0.942172683280717,0.944196377990219,0.932988374752098,0.921759878183231,0.932854101076973,0.937393387685338,0.958314515218317,0.964476681424852,0.976222891481439,0.987687364687366,0.98567729366067,0.982825606285979,0.986276473816262,0.993523117016269,0.990794283131259,0.9879788120518,0.985131684070919,0.982803798381381,0.984210109272303,0.984185849394049,1.00553346735929,1.01617999987373,1.02998221262482,1.03928485645631,1.03873639778115,1.03955880836485,1.03534609733776,1.03075189666607,1.03201893572953,1.03245997358046,1.03325211777428,1.03385941095858,1.03471358348027,1.03557145244941,1.02785437621128,1.01892657294796,1.01718221756762,1.01576413411756,1.01567019416647,1.01642739046845,1.02405936163335,1.03158147676403,1.01896037749635,1.00969342997867,1.01970657662252,1.03333421803012,1.03768267110498,1.04716720980249,1.03599923250434,1.03582436989179,1.01979714913769,1.00203480662598,0.998201287414588,0.981143789741638,0.995199159077799,1.01550249653949,1.01662051840382,1.0164438469024,1.01572524371956,1.01697900795755,1.01251909100011,1.00494916352276,1.00190686380131,0.997921477079184,0.994084041311928,0.992184830190976,0.998232491488093,0.998866183332941,1.00684730477453,1.01605940097227,1.01886490754247,1.02127014206961,1.01424508581125,1.01141943146954,1.01377831429809,1.01564540980249,1.01897859561789,1.02136227800561,1.00848645211756,0.99533195738637,0.997732556332664,1.00039548637489,1.00101645258176,1.0008386819067,1.0006312058687,1.00063570810581,1.00481787198559,1.00862843755289,1.01143706627309,1.01379291866921,1.01683344012863,1.01935670627584,1.02039865165197,1.03885918737711,1.03449665303825,1.05399999944182,1.02263417005045,1.02242603759167,1.02173367952507,1.02230849016292,1.01479673600257,1.00426632850487,1.0061555181242,0.993309065244252,1.00196616282031,0.987695024329386,1.02212942544663,1.02190432586016,1.0214611148169,1.01193459033707,1.03852598769222,1.0707780301035,1.06741973765641,1.06494036881218,1.06959429840925,1.10780937731496,1.10567609266027,1.1046784033229,1.10655870667758,1.10842340452484,1.10895556754087,1.10979987335395,1.10562214312762,1.09912068531265,1.11857435520183,1.12053146944593,1.12311452695321,1.12577074095868,1.12743445143841,1.12995449465608,1.13038123206779,1.13080870352236,0.189560843076717,0.00358111010650815,0.00383987660094722,0.00404881892200006,0.00468920118447091,1.16514999999999,1.08200166447196,1.16742721430622,1.16777933426261,1.16918838042918,1.16912894847873,1.16898934289653,1.16977992343959,1.17040788110173,0.482580182982748,0.00335295982400393,0.00342863955344873,0.00349638454619197,0.170374913985194,1.19707558379545,1.19758597897572,1.19797732436965,1.19792123931581,1.19886675153221,1.19935449788621,1.20076622797175,1.19980059387417,1.19959209482845,1.20003004063546,1.20170318711291
0.908964631905713,0.915085686648659,0.926774449434858,0.926271339725125,0.92521441221752,0.924116334952112,0.923150336963936,0.929553345090283,0.946392480378599,0.953910698608606,0.958247933127727,0.970496410221521,0.980226556966977,0.98059106874528,0.982124690928536,0.98238690140531,0.982347849463014,0.982826041527644,0.985122507796448,0.984478058687937,0.984899166214147,0.985849950065775,0.986874603281163,0.997067701969232,0.997533180892971,0.997084431200542,0.996646652428553,0.996635202198909,0.997156826515984,0.998104983728664,0.999328492845036,1.00072741351657,1.00225582646908,1.00388205622862,1.00553449307502,1.00705603910972,1.00821252612488,1.00880085093418,1.00882540821768,1.00859075439975,1.00855866004662,1.00902655354606,1.0098995403825,1.01077225975491,1.01126516889539,1.01130930138501,1.0111413545666,1.01245643748294,1.01383168802219,1.01456551991194,1.01490855323863,1.01512922266046,1.01529481425636,1.00713191034784,0.998056998258838,0.995407594994403,0.982331056692629,0.984423874593804,0.986437736051737,0.987616515075755,0.988189880816243,0.988631243139041,0.989227693182075,0.990065647898346,0.990902714280192,0.992235489216556,0.993414410165784,0.992677122487259,0.994013557024803,0.99697637596989,0.997969394920162,0.997605785388536,0.999542372604697,1.00229709205502,1.0049494468308,1.00762649445262,1.01054969269183,1.01235663436281,1.01279811959682,1.01059717744263,1.00831080475407,1.00523071041164,1.00011772528612,0.99935201525076,0.999854840526779,1.00045578533818,1.0007101548711,1.00052336281744,1.00026228865402,0.999645840388768,0.99921647614069,0.999106683057077,0.99892591649015,0.998739535795587,0.998685496878175,0.99887540961788,0.999384777049687,1.0002457185477,1.00139185291114,1.00261519614876,1.00362893829268,1.00425238217545,1.00457829358829,1.00491006887205,1.00544468484462,1.0070768683418,1.00992470956134,1.01154881784508,1.01287630910502,1.02452431876774,1.02918412850974,1.03631398202093,1.04117738923125,1.0422065745585,1.07047539228507,1.07125024841687,1.07310679295141,1.07494383447893,1.07907764499094,1.08387179007448,1.08728325217313,1.08886178945987,1.09117126378988,1.09449558392824,1.09881744989836,1.10326830371344,1.10858790487388,1.11828278439625,1.11946600088749,1.12131336873236,1.1232412832672,1.12562433702028,1.1289132053083,1.13062496270176,1.13210419528051,0.153727147019779,0.00368305501308637,0.00394757269586209,0.0041658607062809,0.00462178521739156,0.107144746582076,1.08200166439204,1.16692042411634,1.16667813152771,1.1669840738076,1.16747436150337,1.16810997566201,1.16892057367372,1.16948228325279,0.87661959693281,0.876620320274191,0.876620767323767,0.876620320274247,0.8766195969329,1.19481645587935,1.19556617125294,1.19638115548449,1.19693838021246,1.19766828366817,1.19845305369665,1.1991295463535,1.19907988587395,1.19891765573971,1.19921810409172,1.19930376355711
0.884766636112315,0.906531921674447,0.926287502388803,0.926062487471513,0.925115035755746,0.924299889229764,0.92379789499463,0.926599527222434,0.964060985402065,0.945743868833468,0.932814032913926,0.952920633690524,0.980405603267908,0.977140473127981,0.973198590155619,0.981973782597441,0.981427379999977,0.981417091828044,0.976370400418102,0.983288168681343,0.986606636670087,0.987623912154163,0.991014410187599,0.995484975720092,0.997834079932898,0.989640808936927,0.981668196121238,0.981812636560183,0.982328955872161,0.988710714558981,0.994137410599624,0.991218410023376,0.98842046728258,0.99056835540802,0.992911990289656,0.992121598515763,0.9914674098086,0.993059706479929,0.99492302611911,0.991329885791105,0.988870144087105,0.994464315974339,1.00333865266849,1.00404903817601,1.00365544938614,1.00228518382777,1.00071940193993,1.00683230669863,1.01424486860118,1.01470257946043,1.01492949220882,1.01519371449087,1.01548495174591,0.990052819253808,0.967375256398225,0.967619890792764,0.966700065699457,0.969811700664376,0.97276474355555,0.969293627618217,0.965967574588038,0.979043025824669,0.980199765498463,0.990410333057905,0.990765748087354,0.991960968260871,0.982941634890362,0.989002165889068,0.985286504050107,0.997297407834365,0.99889898336209,0.996387629946608,0.993764514807118,0.994005809659356,0.993336952488602,0.991456097398412,0.984427311819007,1.00052085915264,1.0224193618511,1.00349325069482,0.985320035657782,1.00290179118826,1.00009378936213,0.999321881616763,0.999127738424454,0.999918699194389,1.03346999951913,0.988038871060829,0.980869845668663,0.992279529182515,0.998917405813752,0.996914159110213,0.995260022824063,0.989719648972084,0.984305662037914,0.983713385972773,0.974029480742984,0.976839991863297,0.979122217709053,0.980645466490663,0.98151052193877,0.983901876583947,0.985051396698627,0.983692057993918,0.981810828799699,1.00653417818559,1.01076021855645,1.01094560949535,1.01435928137379,1.02683485910286,1.04784127287844,1.04394134646605,1.05044045900007,1.05297310708264,1.08765871785452,1.08424928958858,1.09279734623562,1.07489094033827,1.07149612732656,1.07248082701607,1.07133899182725,1.07169625654918,1.07204436289457,0.149736952813115,0.00335537999992273,0.277844426072071,1.11434266984489,1.11638528168081,1.11740322145984,1.11929785479938,1.12016367915843,1.12291159427048,1.12924085589345,1.13070990162219,1.13531513625851,0.118240851858607,0.00363327409918524,0.00405008047886136,0.00374241571986326,0.00421810313436153,0.0038881869459312,1.08200166439204,1.16677422742971,1.16513204020369,1.16456445454057,1.16571122595337,1.1670226097846,1.16835295636213,1.16912358899018,1.21909715268839,1.41653839616256,1.40956087318152,1.41113918448981,1.19094319462662,1.19190034090598,1.19357719067059,1.19509162898629,1.19585977856723,1.19645047579352,1.19771213388005,1.19823652858153,1.19857141137056,1.19790368192837,1.19857693803461,1.19822580712105
0.87986014569427,0.886424575061087,0.89066052511629,0.895717323353382,0.9017664090243,0.908427633026413,0.914773774508861,0.918992313021475,0.924524811019171,0.926092975713637,0.928887823707888,0.94771833282543,0.955899170549794,0.965579155152374,0.97891273532748,0.981347315375207,0.981809559684796,0.982430845476891,0.980581521551114,0.982212413188963,0.983530754045891,0.984498187076152,0.984778046080564,0.984392201445298,0.983657216502673,0.982960656340975,0.982426992299265,0.982416313747257,0.982915647479398,0.983589404065974,0.984407970026896,0.98536319616579,0.986377888971643,0.987428530803297,0.988584669310114,0.98991978354487,0.991347125230512,0.992499571133285,0.992668580621899,0.990286883429807,0.989192566851816,0.988612285033304,0.988246850650318,0.988324619182099,0.98850568225876,0.986465587671471,0.984842231979075,0.983808145713575,0.983920655958555,0.984387866645096,0.984360506640761,0.975441599937423,0.97485556892598,0.972956020975709,0.969552445777448,0.968626696105044,0.968134537655902,0.968845683255561,0.969158979830562,0.969189864583451,0.969462878412065,0.976949692462817,0.985171944693683,0.991819640676198,0.992843608091795,0.992749569061381,0.992482479654232,0.991948871399275,0.994104913661922,0.995739673165404,0.996453481428609,0.995903779442689,0.994996603582317,0.994742976235164,0.993521952629678,0.989344170692655,0.98753187219402,0.988165016270474,0.989813679991382,0.992832339634451,0.999226382012525,1.00204368850046,1.00113354330666,0.998445048856367,0.994421645024007,0.990271228853006,0.986168492445276,0.983695039188526,0.981590552983279,0.980705852151799,0.980493813681928,0.980744491983567,0.981086692422884,0.98125732325986,0.982225799791633,0.982065980267545,0.979094025518201,0.977775531113283,0.979124043368274,0.980568858758521,0.981342399421416,0.981996308204866,0.982823000296663,0.983422783169362,0.983065268985489,1.00691879333356,1.00860311278272,1.00911700638565,1.00981140138955,1.02886932384965,1.03691702449832,1.0392090538726,1.04535344383817,1.05409338646456,1.08203337956182,1.08170457210301,1.07987805134968,1.07651021596028,1.07470975419686,1.07436326983419,1.07418732317096,0.337440927842206,0.149736952813115,0.113114049677428,0.0765408449189601,0.24221685609672,1.11444246553968,1.11585447761114,1.11700645751853,1.11816520255337,1.11874337851013,0.261321985609743,0.191381068226543,0.155010505598277,0.118904142902421,0.0830352115840005,0.00419276572693412,0.00458981866617855,0.0985223489865647,0.135153584644673,0.171804461618591,1.08200166447196,1.16140837454244,1.16254894822743,1.16304664475783,1.16377593555181,1.20633427503629,1.23311320934517,1.26278204136822,1.29444966995454,1.41276975825714,1.40887833772028,1.40676456710925,1.19037761299968,1.19076004078206,1.19190065864768,1.19394482903326,1.1950385384027,1.19667273566725,1.19775429158478,1.1986007298441,1.19917687929548,1.19990383656215,1.19930557701112,1.19850474513288
0.867441497728039,0.880106073651165,0.881363576617349,0.883090897663553,0.873165420156879,0.900481847234912,0.908410294902766,0.918001329009319,0.923538176478178,0.919723389246078,0.91595307772022,0.915300751421031,0.914492820248934,0.940821999103047,0.982942387439724,0.982136508808087,1.00374999933923,0.986312441433098,0.989828319442682,0.963129422826611,0.950397137527326,0.950178057175325,0.950529802496714,0.950114700940848,0.94957370951486,0.950055090447532,0.94966528749885,0.958880442337926,0.969631180785249,0.966543647708336,0.963558776193986,0.963222326197916,0.963082220198231,0.964196082575456,0.965921051012223,0.971887102175856,0.977532166015627,0.98396612979665,1.01198996425772,0.987897522920093,0.985515723074895,0.98682890553782,0.988474726647062,0.98942654524354,0.992299545306755,0.987824432770673,0.985683793678184,0.982939826520598,0.98025937435597,0.98188510645851,0.983398880228835,0.971278385874234,0.95875116615435,0.956088633491494,0.954004875027756,0.952499401437879,0.951540279804626,0.951627533702145,0.952826285074733,0.967318208915704,0.973309702238085,0.974869925669031,0.997902224586537,0.995195086784332,0.997217741156001,0.993533337436234,1.06178000002367,0.992808413376192,0.994485252736855,0.994991577785148,0.995237051953492,0.996014100139174,1.03035999883919,1.00179662688312,1.00639514180253,0.988698910196483,0.988210178183161,0.987967721342586,0.988023785556533,0.989680751333498,1.00356993156861,1.00308175168494,1.00332775983268,0.987498833944303,0.978914925043915,0.981990182383514,0.984558866860199,0.978222297693474,0.970734264004607,0.970497519819308,0.958801303730769,0.969653786268363,0.978800795285945,0.980221341036112,0.980508167946952,0.982441148363457,0.984974694068004,0.972903651611104,0.968099433815751,0.968803464594433,0.96937399785664,0.968626574993686,0.968531120776524,0.969643823824673,0.971198136287763,1.0069347730602,1.00846828096013,1.00775955821966,1.00689341266186,1.03061246991182,1.03371491774304,1.03534643654175,1.02967042901826,1.06011307367312,1.0809935683673,1.08085479941668,1.08202103348648,1.07801783685546,1.07631164854776,1.07610201886394,1.07689892998079,0.303258448657204,0.00335464517396357,0.0033193266913758,0.00340922018743008,0.207555928118705,1.11377754786281,1.11546502034836,1.11645008247888,1.11758090379106,1.11784080710548,0.225458674528431,0.0033275909159178,0.00339318696715197,0.00337694962453542,0.00369866978802575,0.00386278924683209,0.00466591219495163,1.15715999999998,1.07882769703468,1.15754916854338,1.15793730517938,1.1599565600505,1.16037103567299,1.16119936469186,1.16254347709544,1.41705999999998,1.26822798294974,1.42259999999998,1.32849279125782,1.42385999606734,1.40633474439157,1.40388274552251,1.18971908733302,1.18908809435624,1.18957925745666,0.00342466999998208,1.19372194185094,1.19760774690919,1.1981785578252,1.19934813599312,1.19959768826232,1.20388112799947,1.20097148662129,1.21288969035869
0.876519373890971,0.879764079286552,0.881998602785977,0.884717612477083,0.889939886200544,0.892983554592784,0.894748842675282,0.896420587327964,0.898607746754041,0.901416303022434,0.904585649773491,0.907878987560197,0.911196285755604,0.916702910278165,0.931176398448872,0.933279725833969,0.935976017474358,0.938942219204376,0.942035941185394,0.944946272001617,0.949330447739018,0.949540634397631,0.949614835278444,0.950140545741628,0.950624408069343,0.950787796591085,0.951467815814193,0.953658606457372,0.955383441759243,0.956642270356186,0.957617665965569,0.958641890944311,0.960095661860844,0.962238084057624,0.965069129208532,0.968342224016138,0.971715140977276,0.974900019220724,0.977700944943472,0.979986864032114,0.981699954139405,0.982987102433556,0.984346903410513,0.981810657290686,0.979703742774463,0.977711356330951,0.975612413631035,0.973218787099667,0.970403635345037,0.967175261038845,0.963879992304864,0.960814102688104,0.958326647999309,0.955909865665249,0.95390449466512,0.952389112030274,0.951432989436473,0.951108126243236,0.951310727573629,0.964968589896251,0.972602152917577,0.973970575593575,0.977354956980116,0.981403953069682,0.988600247386045,0.990673779170321,0.99210581218471,0.992549463971128,0.993626890456382,0.994811013752141,0.995953374539302,0.997015466406273,0.998829831503071,1.0008251468721,1.00378598767818,0.988410200146027,0.988231914567671,0.988151870626695,0.987993367213107,0.987606327917104,0.986960084069247,0.986067231393871,0.984804557108845,0.982950891062993,0.9804501513177,0.978974561994206,0.977020521451336,0.974683252646435,0.972158779051765,0.970227354956284,0.968147725042057,0.96854018770945,0.970497882566523,0.972763411037216,0.974650601143107,0.975434824397062,0.974734936019276,0.972722835614942,0.970069629764985,0.968972190951013,0.968732615705558,0.968578987255445,0.968546908491201,0.969370689385897,0.970388706838218,1.0067091107527,1.00744083652781,1.02006264346769,1.02488896047209,1.03202594456519,1.03303682377462,1.0483357261218,1.05875579714751,1.06650418412484,1.07916860988529,1.07911418378263,1.07888164371053,1.0778140304188,1.07699766799848,1.07692202104491,1.07726335415427,0.27149589420772,0.00328543168714,0.00329601407419254,0.00337268169806533,0.173754231204509,1.11488761125006,1.11568162313119,1.11659447449566,1.11778742467268,1.11871173896208,0.190348726472431,0.00343494621528834,0.00347228375529612,0.00351017573636182,0.00378697404794816,0.00410180560676544,0.00455307242043817,0.105168462387034,1.07882769695475,1.15751373410831,1.15723637264656,1.15762618173573,1.1580379047409,1.15738964599284,0.741689012397749,0.74172286799232,0.74175671091969,0.741756676311101,0.741722773439878,0.741688883236686,1.0188123004078,1.18228016713604,1.18386352717089,1.18655739644979,1.18798795878191,1.18972749985432,1.19221156800974,1.1947856727839,0.569855070504462,0.569599503517902,0.569238142784729,0.568982714094032,0.568982867748052,0.569238591328047
