0.524558888018806,0.526487669826982,0.527855039257892,0.528775704334689,0.528542882473335,0.528177750573574,0.530027846766301,0.53095309828646,0.532274553610132,0.533636538454322,0.534041863102827,0.534735881153655,0.53588548085672,0.538189781352393,0.540879593220007,0.54388991728764,0.547233178975609,0.55065686373941,0.553829534133412,0.557062468554575,0.559810478512314,0.562209501784632,0.564447266895425,0.566565533519921,0.568498475094932,0.56907984121822,0.569399876921413,0.574163980080483,0.575039675225566,0.576406301036756,0.578691399012429,0.582684302313126,0.586983287601764,0.591722654264244,0.596902284858303,0.602025203524557,0.603609446471,0.604414423759964,0.606083233552371,0.692824535854598,1.10228263980989,1.10273375821388,1.10332263980988,0.938520110199543,0.875415750998046,0.855409160515582,0.855626997215401,0.767409405444732,0.727196130439178,0.654336514688325,0.653270315335103,0.653663629527941,0.653943814174267,0.654400030112175,0.654585905645412,0.661196860810469,0.664859770184,0.668082080232466,0.677880918127436,0.678726113036602,0.679752183987306,0.680904054406049,0.682299500584148,0.684138580775045,0.68640138008653,0.68727833704873,0.688231599014022,0.688403152814729,0.689238129700839,0.689820418506661,0.690403431143906,0.704648569574958,0.706978471961839,0.709715929075021,0.713204158356243,0.715494143514889,0.717153571914598,0.719863465426708,0.720911496666909,0.722823171196671,0.724237325864021,0.725414302383633,0.727220284346269,0.729149401838156,0.73185899518258,0.733336847646103,0.735527495081357,0.737478287577676,0.739940093407664,0.742074904318654,0.744372396868826,0.745933186599982,0.747574762366286,0.74867040289723,0.750673890434337,0.750968507787399,0.760519395652417,0.765898588518262,0.766375869229833,0.76825370267525,0.769566068207109,0.772506906490871,0.776101565065687,0.779621425661016,0.782289058162771,0.783900449946976,0.784509021261637,0.784295871965,0.801076912133015,0.800866363785175,0.800900804451961,0.802607291707484,0.803969886706199,0.805122016876578,1.06879177803245,1.03559547390544,1.00694897733512,0.9803162645804,0.955404504720289,0.931888821388013,0.909390216976759,0.866775776134301,0.866082850828034,0.866630834656241,0.86649661627522,0.866532553352073,0.866455809376165,0.866662260038813,0.866991525296767,0.868005365749985,0.869438417724436,0.873158748123345,0.876862386175221,0.879419036664456,0.880932281400341,0.881786072320508,0.883166334105012,0.884212401653608,0.884304169309598,0.885623404861886,0.886646971540493,0.889031647572639,0.889602465925332,0.891328527046949,0.893400131456535,0.895935286496298,0.899032948017466,0.902022987400276,0.904302099107492,0.905990693887589,0.906806176028843,0.907863846620308,0.908893100483466,0.910821864610637,0.912626613338428,0.913794514786477,0.924791116751477,0.928688677491948,0.92993698237486,0.940617535265862,0.940523604151434,0.94211763198436,0.942535996560238,0.947243052360215,0.949552285182293,0.961684449594626
1.30936,0.507648250305511,0.503587146896083,0.513817404446811,0.508193170349869,0.524865475014411,0.520535151480952,0.529694755509159,0.529332859559686,0.531480810782823,0.532542009782276,0.532813829449528,0.532299715351705,0.532873063142255,0.532716603308472,0.532540487549178,0.532717155163658,0.538151837942047,0.540474899593216,0.540704446828641,0.542287760859329,0.541833070994878,0.5426949649269,0.557701160852485,0.562908715144755,0.564625293646689,0.564068860225039,0.57319618774176,0.57429837396465,0.575484734328017,0.577009062962094,0.577059753958415,0.576969822885937,0.583828066493055,0.585948766346252,0.59406195898853,1.26818,0.601979534267833,0.59988189769727,0.712054338757688,1.57437,1.10332263980988,1.10415292828113,0.905388905790951,0.619588,0.80586552636159,1.40488,0.803109825101951,1.40408,0.653367065599565,0.651196174374861,0.65308530269115,0.653128195444224,0.654047789591165,0.653797083670039,0.654473994761948,0.655065638329852,0.663825214440705,0.678768056064295,0.679021473655467,0.679507876454391,0.680394236992853,0.681582116596252,0.682836729896776,0.685118936167489,0.686527345577366,0.688072343706648,0.68731003244816,0.688888950278815,0.689522071590079,0.690381360982792,0.7011666251297,0.705338624327891,0.708325182619415,0.708883149873757,0.712676929551626,0.715102724919923,0.717108089465021,0.717989380234291,0.719924567168241,0.720509394921601,0.722559052166915,0.723499425731815,0.726514170254803,0.730106626227399,0.731669847180909,0.733758672289015,0.735875386687954,0.739027275229527,0.740542706795458,0.743590422815312,0.744014007328921,0.74589204706943,0.745902514964773,0.745679231455525,0.749117920951126,1.44255,0.763730377546529,0.763310535665485,0.765246630716687,0.765856981300664,0.76632027793587,0.766222390256477,0.766247578665644,0.767402690264211,0.767172169154003,0.768176382076126,0.782629431941546,1.46038,0.799570810356782,0.797930435879274,0.802071482926538,0.804117976108767,0.805221380163475,1.46582,0.974960363946158,0.840402000000026,0.888754755962322,0.84139099888407,0.852535716687639,0.852992225742188,0.852492456355907,0.853524823920851,0.851941542201958,0.851662208196841,0.852589695569889,0.854557916210518,0.854163477871941,0.854566826140522,0.859782235160293,0.869274214493905,0.862636413000076,0.842759994323407,0.856504176899326,0.855996849408367,0.879057159052649,0.882437412386283,0.88321647114506,0.88308780863991,0.884418573600485,0.885994002385807,0.887496451174979,0.889601170292294,0.890924797627398,0.894312916985381,0.89529133470468,0.898926692144715,0.899920640775186,0.90138354363069,0.902706453818151,0.90402529150264,0.904813334608235,0.905936608638043,0.908435925955134,0.911030319087855,0.911651959358819,1.01187999999994,0.929409022958684,0.931035824202663,0.939745490880887,0.938394891926127,0.942196720324221,0.942475197210609,0.949247121973016,0.952566204073011,0.96003471244674
0.503871430316418,0.502347694357889,0.502248806334771,0.518638817368954,0.522171599657422,0.524326913821464,0.525481466628078,0.528519201849007,0.529354235641518,0.530694948323108,0.53116574341886,0.531848375093668,0.531900024401429,0.532353078404669,0.532215169188125,0.53239072220959,0.533348172600449,0.53626953016749,0.538746496160947,0.539717472855787,0.540568240046767,0.540890005763918,0.541389733216102,0.552510354881228,0.558118224886831,0.566650000060193,0.567750830190709,0.570840593700077,0.57256395825007,0.573945762258232,0.575543905051795,0.57694940345392,0.579117600996989,0.58165937128928,0.58332782763641,0.588923055222379,0.592910496763197,0.601061081065342,0.600155987856746,0.731495738032099,0.975589158719206,0.940771483195651,0.906638368951385,0.873173340052677,0.799223030836143,0.771807172684641,0.745947884976061,0.72017446068055,0.69448073224649,0.653845046850624,0.65327228365451,0.653828228279049,0.65411410486885,0.654455588505689,0.654381485404603,0.654309466695076,0.655870183428847,0.658054420873943,0.661521585578711,0.665245378547267,0.669036123423052,0.672921088138864,0.676251834936638,0.67821169080739,0.679743449065554,0.680830537302584,0.682086872329005,0.684569392964567,0.68710820376501,0.689221599966267,0.691034051405097,0.695749066038235,0.700514785365642,0.704637901787921,0.708239033845284,0.710120178207578,0.713839166439904,0.715164092645784,0.716572866457858,0.717787982856989,0.719004928281346,0.71996262693836,0.72113793770062,0.722946559818587,0.725135830637255,0.728056070651457,0.731072912918526,0.734093060162899,0.735860663574747,0.737868801298064,0.739424182341518,0.741163767635163,0.742246517872199,0.743044357438456,0.744438081820303,0.747839911224374,0.760955091459313,0.76201798845222,0.762474348633443,0.763046798076075,0.764090390896465,0.764573886952238,0.764816279112818,0.76513102678499,0.765871356096521,0.766230672573725,0.767239818781824,0.780778675871416,0.782482880458342,0.79474975391699,0.795429713170801,0.803520088796476,0.803924533834241,0.806152690955848,0.926054062663212,0.926957536342351,0.899324769889635,0.891452257287642,0.887394466279099,0.851264091166272,0.851855439628297,0.851114378269545,0.850985553826974,0.85071312935881,0.850901229284723,0.851603515643257,0.85239461931313,0.852480217539231,0.85343856361035,0.853333207432309,0.854474432385521,0.855640715166241,0.856332024335489,0.856684740645157,0.856728334768713,0.876230371672513,0.883128414303461,0.88342621438549,0.883375543020182,0.883832735720632,0.88473419640789,0.886305347594493,0.88762130166688,0.889550565944411,0.891461345583768,0.89343692728081,0.895363232467233,0.89732217990318,0.898818653628677,0.900319259917374,0.901111656173633,0.902747179971472,0.903950051252766,0.906465478485063,0.908733563384555,0.909946404459162,0.921985191985888,0.924929331035336,0.952190648322651,0.953528364365501,0.951723178762313,0.949375509494288,0.948147788360202,0.949206444264453,0.952368208359503,0.957057247657125
0.500503424409225,0.501037898042517,0.500139606767925,0.588663621046511,1.36158,0.685884366709768,1.31196,0.529381588825771,0.528758708955884,0.530050081853579,0.529710075565796,0.530990805482385,0.531078079528395,0.531563177616258,0.531588210122198,0.531518565011782,0.532467189550132,0.534372086670976,0.539846285072234,0.53890705037048,0.540119831491333,0.539943518354442,0.541002598865839,0.540629892408696,0.541111832921162,0.56707053085647,0.569114628931183,0.56982189568236,0.570705816991528,0.572391565644846,0.57375155685836,0.575326529729071,0.581670744345205,0.580357054249349,0.582180507306849,0.582746721309172,0.584868123089074,0.60036815930203,0.599069178570031,0.748056005404212,1.10206,0.902184242636457,0.863656999999167,0.85559097255213,0.847142000000669,0.713772021850956,0.627971968990419,0.628289279577003,0.629939817058887,0.629520977547741,0.630758661912352,0.631344805042014,0.633309734359814,0.634433703952315,0.635366939244501,0.651938489665461,0.657163032978817,0.655817052394539,0.656815591371488,0.658000214132902,0.659873106535404,0.669571968319107,0.675874660120465,0.676448204060151,0.675378887918301,0.674836029894,0.676770554967882,0.677700212257118,0.679382062919719,0.688700664160557,0.690476350858387,0.691634098020685,0.691565395645022,0.690062432105144,0.690408190431537,0.707496160938586,0.711955358493883,0.713741791876879,0.714949630375993,0.715860712593474,0.717173598124799,0.717468178057029,0.717780872915066,0.719169668929973,0.719515217501729,0.721340049557515,0.723211481338542,0.724161603292711,0.72542338514495,0.735030262098337,0.737146715548177,0.738387400026693,0.739213638387472,0.739727647603329,0.739091411992221,0.74708630389584,0.759571318961519,0.760860160403686,0.760950283620722,0.761385284477714,0.762900759068949,0.762419629064315,0.76425796116561,0.763711973512354,0.764934944489974,0.765074142308612,0.767355266205148,0.778647063432504,0.772347019116855,0.793153029217796,0.792512796110865,0.804434290090528,0.802623535826474,0.807770092852445,0.923701545732372,0.926054062663212,1.46899,0.960059126060935,1.175,0.848521368305108,0.845028692086418,0.846865459407847,0.849403808388247,0.849170753450138,0.84966652985089,0.85065880076278,0.850970738917846,0.850629932710042,0.849185158710915,0.852196881484627,0.853606532560855,0.855125050041833,0.855931755625753,0.856965078396033,0.857340186893222,0.873304380038499,0.883323509433584,0.88344229135126,0.883452406902846,0.88214856615955,0.883829105478046,0.884709662766929,0.886552427442816,0.887474242080204,0.890487576211272,0.890837532992851,0.892622806389358,0.894456917220039,0.897563358685428,0.897511588538095,0.899186381311184,0.900041081952575,0.901661016642938,0.904404050449218,0.907446335117973,0.909708701068084,0.920066677796459,0.922896788189157,1.04790999999994,0.999601298571743,1.14803,1.03898429122774,1.15691,1.05353679604598,1.0772299923033,1.08701610667163
0.499764115510409,0.500694631272726,0.573920711525109,0.624174539356652,0.685884366709768,0.650676647227005,0.598118168354306,0.530253123189764,0.530190232398727,0.530776480775514,0.531040707199373,0.531745596533244,0.531757530864154,0.531627826930089,0.530957771030595,0.530595881359649,0.530889268998278,0.532473485210183,0.536030304778804,0.537157159114197,0.538052542493639,0.538561228907663,0.539249635809493,0.54017804876516,0.549525307193922,0.566692267144246,0.567139524563688,0.568125549061362,0.569268068928437,0.570573198802543,0.572017121897401,0.573257989552802,0.57408396954282,0.57735226269879,0.579967879822861,0.580963926917174,0.582974056514395,0.666393811814888,0.701780051573295,0.761572985226614,0.7727988160945,0.758815271566119,0.748049743827787,0.724303926771679,0.700685104030037,0.677091345521418,0.627497144055022,0.626887497379797,0.627549499764784,0.627850079051641,0.628593987526893,0.629977337570747,0.632336808166876,0.634558391479967,0.638794751663251,0.648921714865053,0.64972486051831,0.651460804723673,0.656981342018339,0.657410411166489,0.6590758873443,0.660672482648619,0.663128257583202,0.666455950130203,0.669530136778777,0.672832403900987,0.674508453225823,0.674895603496694,0.683031313638061,0.686281392116252,0.687371414865644,0.688309141505172,0.688745489666869,0.688530791165426,0.688830263018983,0.704847814481486,0.712364991459087,0.712511933031255,0.712602887960502,0.713139002714148,0.714145971990464,0.71477385175356,0.715516530273684,0.716551032144629,0.717584183828342,0.719705315813427,0.721487008942404,0.723140761866233,0.724658897878987,0.730490821832546,0.734315634047154,0.73609395184373,0.737155077139383,0.737907966335194,0.73809375149722,0.746457114072565,0.748295457426399,0.749602739113496,0.75189433380697,0.754462716777053,0.756338360738174,0.758804094744567,0.760365868952117,0.761947073070574,0.762646598653994,0.761672669788904,0.774020679674913,0.782284292957214,0.784995413961172,0.79161404224123,0.791867099591316,0.80641661112554,0.806326495621377,0.809903940334588,0.816098494858774,0.817471427445166,0.81987258131653,0.839371765639543,0.840872993257152,0.841140079620095,0.842502753132265,0.844200279261702,0.8453467022148,0.847849851748848,0.84918098860648,0.850170102701015,0.85023954207003,0.850038318530969,0.850261939225238,0.851615487030872,0.852615022347865,0.854648532799311,0.85748550599855,0.857887640905632,0.857735234547034,0.870145017184478,0.871315732531785,0.87283721553338,0.875133469045762,0.877625954801051,0.88284136859262,0.883672647840931,0.884053190422525,0.88577417475354,0.886747954835049,0.888481318729536,0.889320409960539,0.891912028110674,0.893473308518349,0.895403152989472,0.896309399983607,0.898107623469432,0.899553443833384,0.901408845664422,0.908493396032381,0.908853982277376,0.915570143159371,0.917624850195602,0.947360964588349,0.967547507369439,0.984520058103844,1.00096701598002,1.01764073845662,1.03506820214364,1.08703399072237,1.09077425427628
0.478950812834315,0.487006559737158,1.28938,0.659704007250799,1.29832,0.61602643755071,0.497129848511757,0.505162128249191,0.50724985520576,0.510396813215364,0.512417836332856,0.512300210882708,0.512914757567122,0.51442942863025,0.516406528399739,0.524281728175415,0.524639089792088,0.528803339211164,0.536184545660983,0.535201122965994,0.536821339197284,0.536888338202424,0.537784695314924,0.54096382440178,0.680511,0.565167239918101,0.564013888567296,0.566260894903518,0.566981846979312,0.56871461419821,0.570597185930722,0.570738348374156,0.57163527540067,0.572392196590273,0.573074615687703,0.578131553265153,0.575088347708702,0.70153768633267,1.07515,0.809197870490023,0.794906999999925,0.741327912612272,0.691538999999902,0.671459654288423,0.621880556028942,0.622277647284676,0.622406657206871,0.624278936854908,0.624243931462198,0.625841326630437,0.625731601651969,0.627370812344091,0.626031535347607,0.634373962037226,0.644765302553455,0.645274918392103,0.645784898007668,0.64921759796938,1.2969,0.656033468068851,0.654846065609086,0.65860681941436,0.662563469016323,0.665812663921756,0.668420465134861,0.669469411170071,0.669170395350594,0.672012570352179,1.40845,0.685601575672234,0.685276320540458,0.685391960246339,0.686999479622635,0.686769338509901,0.687927553113578,0.701927404996346,1.41688,0.711157973580903,0.709721166898322,0.710469362041742,0.711720230896972,0.71192018585395,0.713385722905511,0.713730556982935,0.714733120355842,0.717155189891427,0.720702342157842,0.721037176740967,0.72252898722058,0.725707341509635,0.733306087868791,0.734719112051831,0.735626850993176,0.736731650759495,0.73735859054128,0.745583580211215,0.747233635399616,0.748460896106094,0.750208779617246,0.752382652496981,0.754079156525913,0.75468771270373,0.754742676092842,0.754465531615574,0.754613481697142,0.757307500048578,0.856573999999945,0.786417606503867,0.787091272165142,0.789243025316229,0.791077466001021,0.807816709558875,0.814320495626785,0.812643224876365,0.813724597310486,0.815652579670152,0.813837358898186,0.836813527197223,0.841464428791584,0.839770044249903,0.839430115040423,0.841327889416678,0.843051599286076,0.841386235377972,0.838656831392665,0.838307088190105,0.838875990472038,0.844277948027935,1.48297,0.851162454162204,0.850442090945285,0.852838556234626,0.86278717196792,0.859067855790005,0.858011111026842,0.865778974653903,0.863513355733031,0.863682219356111,0.863471596767964,0.87504871608343,0.909555999995421,0.882610348719805,0.882231919664836,0.883004389685717,0.885139714819348,0.885421625663983,0.887131544246748,0.888791641219388,0.891792235554132,0.892513076756247,0.894716641884086,0.895600707996324,0.896674152692228,0.899049004832518,0.909288907279767,0.907599676903552,0.906996463457659,0.908193461620147,0.910396890352345,0.910087373973887,0.910790973309247,0.910892284703726,0.911347177008524,1.00152163833908,1.11166000011715,1.10591398693878
0.478924575205162,0.481538289987397,0.481060871690936,0.48286923377651,0.485403034653432,0.488350758850111,0.495843837363152,0.502573019697803,0.506757065065014,0.510108160436847,0.511816107891344,0.511828685751192,0.512033759641372,0.514106130091737,0.517152843617473,0.521295266617477,0.523841408153938,0.526127611153539,0.527939292462918,0.53140696083196,0.533461883636018,0.534756881948867,0.535208030138131,0.541833048374923,0.562967351042952,0.563980692941111,0.564211049025412,0.56521403868912,0.565859845354391,0.566549428723342,0.567536811439973,0.567682378107921,0.568595709556274,0.569564136017804,0.571278083079462,0.637471075321462,0.673512201706266,0.736836835509093,0.869816454741075,0.82164188619258,0.810647073009976,0.71090990965993,0.671786725351091,0.65452323135132,0.622290995139221,0.622302269110415,0.621950008833417,0.623311206827726,0.624107374300086,0.625448559102079,0.625969104844229,0.627974232581957,0.628711934651368,0.63479433416979,0.636838565846288,0.640649204889937,0.642976628235673,0.643791212716376,0.645890702292113,0.648501620018146,0.651893264322041,0.654508640574062,0.657666527289866,0.660739180488749,0.66361861273154,0.666271719099365,0.668673237898332,0.670111741571261,0.671858215629259,0.6750617753263,0.679289248261333,0.681937664736258,0.683398771496218,0.684133478117694,0.68553858711965,0.69884773164132,0.699025138389287,0.700231450035782,0.702371989125784,0.70510338138626,0.707186105897106,0.708587496217913,0.709487321471556,0.7116586972542,0.71324133887185,0.71504353479604,0.716279538727536,0.718670651883128,0.720631355135945,0.723553580570431,0.728193546923665,0.732273683650436,0.734912891002367,0.735883992486094,0.739763178935406,0.743003909573078,0.745062925152236,0.746602579203602,0.748230052362254,0.749686150993185,0.750940591493216,0.751794287403458,0.753201135050145,0.752431706049815,0.753255641659224,0.753828314975685,0.764743141370534,0.785968730486893,0.785386258184742,0.786782389195002,0.78908850971663,0.808639818642645,0.811901616333573,0.812396251311698,0.816554502895259,0.8188987592594,0.822087485771056,0.833436167299596,0.834170228394557,0.836796103440367,0.837868491911768,0.837313625251051,0.837163014530998,0.837057732415975,0.837195942342684,0.837286114799383,0.838626857623704,0.840792758632902,0.843959736282156,0.847289440763774,0.85038569479371,0.852584510340912,0.85522051563565,0.857989169118806,0.861098431343529,0.863871934346706,0.863749962784618,0.864292467421997,0.864028404543775,0.872174391451803,0.884519446807707,0.88247422161259,0.880543599013975,0.881506592745473,0.882071108888603,0.883571583277537,0.884247912208467,0.886867243525466,0.888563046349581,0.890875453279862,0.892187922002686,0.894052513983495,0.89550111393738,0.897511246561449,0.900548216936739,0.903990068741516,0.906205888280504,0.907059220810558,0.90825920874347,0.909025225572266,0.909938624985796,0.910447578490626,0.910841606292482,0.971270430143471,1.00453023472777,1.03782689956689
0.478850453504378,0.478812984745494,0.479342836517261,0.484041876724607,0.48672364061413,0.485355659941469,1.29083,0.647041886610374,1.29955,0.51188804112805,0.513073267927419,0.511301241691135,0.509649737842548,0.513002251647005,0.516862312161322,0.519174707542517,0.522780301717949,0.523914728106148,0.526098919160279,0.528502652520716,0.531179516312978,0.533398295497629,0.531760173497331,0.542372295262945,0.561241794980514,0.562914207618321,0.562993207906296,0.564217812392095,0.56403838046572,0.564287710805338,0.561663480365999,0.564086150569727,0.565171435681378,0.565833151029479,0.565608417828686,0.669815268514607,1.07727,0.802996541172012,1.07756,0.844379773614142,0.872941999999763,0.680033637037764,0.607571273760793,0.607382780992591,0.608104054904466,0.616597520331081,0.620083140400051,0.62264794494607,0.623320577344991,0.625661887387603,0.623958784879508,0.630088731443362,0.631735431039173,0.633988239433429,0.635714207276781,0.638081693445888,0.638204530502752,0.639034181859756,0.63901981155058,0.645731326528864,0.647839213734567,0.648644953235163,0.649935796561171,0.650454477903244,0.650778837201305,0.659888610730282,0.661067150581339,0.668427345791256,0.670388324195888,0.672879534799867,0.67908468147086,0.679744985787124,0.681064977123121,0.681269570139402,0.681489365221248,0.695605944891321,0.697349991294908,0.698767270257219,0.700611856208542,0.70271112251549,0.705136755460679,0.705900491682633,0.706114846797374,0.70554010821251,0.705221535364764,0.709993738464431,0.713562907683691,0.715797162992902,0.7181063787198,0.719440855393113,0.71853113181238,0.719146342806607,0.719380759259105,0.733680851400908,0.741294946115505,0.741694794154689,0.743644493094601,0.744475675467447,0.746373315930829,0.747022279736192,0.747998560949523,0.747576877489677,0.745637129275269,0.748559197166283,0.747700577819865,0.750040754007073,0.74741484651134,0.785712746990794,0.780920484956443,0.783516056920837,0.781035301725697,0.808983398963897,0.808761660366435,0.812168131424098,0.980071,0.821074948603632,0.825064401474499,0.829021625550615,0.8328254137532,0.835422556921584,0.83752480507977,0.834713399628258,0.829883935658756,0.829223733558284,0.830115170441272,0.830817229594724,0.832129406210012,0.832378302982319,0.834172687772847,0.835123056480351,0.838049356090233,0.837299852124184,0.83874041338437,0.85585793523144,0.863739937087148,0.86500140638929,0.877109694019786,0.865502901759784,0.86475394506622,0.869393949156302,0.88641298685274,0.880553346470403,0.877562614961952,0.878503679999109,0.881128698385048,0.880677718708765,0.882402000712283,0.883924587669493,0.888002357454082,0.888317511786925,0.891177989281222,0.892198480387259,0.894374793945157,0.895327104270661,0.895345867007872,0.901437463203752,0.907386739578868,0.905559418749679,0.90627915924809,0.907802283228697,0.909335026492632,0.910092444639954,0.91061744858899,0.911764527530783,0.912176047876876,1.00575510878161
0.476834174982985,0.477906575339491,0.480142042635205,0.482586783895664,0.483851779406455,0.482920830693712,0.647045284803544,0.610760677530523,0.575237661489087,0.512291110460059,0.512146378258454,0.510662499036179,0.510157989129115,0.511734819467369,0.513974403957369,0.516620422078978,0.519732209788047,0.521565974388909,0.523616226673635,0.525434061641938,0.533513740303363,0.535556510422043,0.539236650506142,0.54249986780869,0.544441676563756,0.546358861706032,0.549154874616583,0.552416350885769,0.555536822896812,0.558052251340456,0.5595992705689,0.560977908933775,0.561946781370082,0.562498320847987,0.634423139113808,0.702040336091921,0.802996541171895,0.768889608297983,0.73752122517607,0.707310811937281,0.678044014766265,0.649421164344293,0.607007754477179,0.607178016779659,0.609122137750773,0.613938001176685,0.616550629384871,0.624301555973564,0.625563328387244,0.628580077369685,0.630834611607619,0.632260404706567,0.633681201288318,0.635264764764607,0.636358720331263,0.637678447145258,0.638200725106375,0.639008451577484,0.639890928027896,0.642876338331371,0.645192912776121,0.647016592900895,0.648916623783743,0.650915578572141,0.653308177347335,0.65798577397964,0.660663999468133,0.665055071371099,0.667704390251876,0.669989896490263,0.671485681310715,0.674304200944506,0.677846295722334,0.678482348355771,0.67957945459103,0.692391683459354,0.695940791844794,0.69663991688559,0.697707566401277,0.698476324715026,0.698988403603228,0.701192857333259,0.703018657462774,0.703583317418828,0.70413142133005,0.708054125946422,0.711264102619775,0.713293347209288,0.716303258385971,0.717920878330674,0.718476904572914,0.71964962364331,0.721195665444434,0.730809448033172,0.738336069212847,0.739187700559259,0.740238485259418,0.741616651473194,0.74304616070542,0.744031434245076,0.744659528639935,0.745094415064003,0.745257075961325,0.74777804096758,0.749663843273183,0.755203763732225,0.763090406055364,0.789105091274831,0.791275699894578,0.793301162186585,0.793446071942938,0.8089717009965,0.809606674256812,0.811094483109385,0.813890967037545,0.819929576286868,0.822674772254084,0.825329331520198,0.826306963177043,0.826917848862549,0.827191872841033,0.82752114169854,0.827803538974576,0.82746577379857,0.82786664037923,0.828921347042013,0.830332628471174,0.831091342867731,0.832519079669776,0.833815334545141,0.835169612776969,0.835618788972566,0.836317406715797,0.853879505676607,0.865596169541901,0.867702940811779,0.869619759736973,0.866948089491663,0.865474399792581,0.866719205958485,0.867870727135481,0.869471232097837,0.873290941816583,0.875867942962885,0.877524212937099,0.87876769823886,0.879361202774563,0.881938180219917,0.883818104809724,0.885948423662531,0.888688644864055,0.890312966557455,0.893067624923019,0.89424115795296,0.895575883575152,0.898225356024089,0.899550896363678,0.902180018052968,0.903905883344586,0.90630590353768,0.907845676059733,0.909737042372645,0.911206958767753,0.912395548417358,0.913372524652288,0.973699105500645
0.474323270559,0.475932379111784,1.28172,0.481798132068846,0.481967249938618,0.4820235430917,1.28481,0.565696641913211,0.493377060602547,0.498775726306551,0.506649551446598,0.508527428175549,0.50837831039789,0.510011534007539,0.511344403269261,0.51236297997097,0.51238975876572,0.518191690063496,0.521807665252497,0.523604408624883,1.06336,0.586585270030577,0.632757999999919,0.543652144860456,0.544717945922436,0.5446342802421,0.544966487495598,0.544862093439375,0.545452017295795,0.552957298114856,0.557296945041366,0.55822264483578,0.558847382062991,0.559841304967189,0.801179999999989,0.734266890029588,1.36027,0.727036333308132,0.572533000000091,0.584943726612266,0.00411566,0.599174306705138,0.601284298816938,0.602584405347208,0.602875591003057,0.602282943592695,0.601512035399388,0.624472388468215,0.635285193168099,0.63392733335454,0.635874370292677,0.634638985493948,0.63649079013858,0.635994575035138,0.638213132024493,0.637208734302093,0.638430316034333,0.638010063043568,0.63942235133861,0.640780832965898,0.640654281956789,0.645543601859793,0.648321914928853,0.650052437856536,0.65574517456077,0.656406613265175,0.65935973808535,0.662482476176632,0.665835729097978,0.667323700186211,0.669155342055242,0.671261869208112,0.670255866548414,0.6760811767171,0.675425582153293,0.689074489071499,0.693801095665984,0.694022219909157,0.695002463875468,0.695593696794778,0.696397972608707,0.696089536389801,0.696232887146364,0.698468159272195,0.700643044531066,0.700062162701013,0.700844303368907,0.709495516573214,0.716125191025098,0.717211116027564,0.718025819496982,0.719397190054675,0.725159378315184,0.727605008104103,0.736329461948658,0.735882657279913,0.736405953757392,0.738434956914076,0.740561271335606,0.741177694263906,0.741581067218383,0.742668448881807,0.742686917214634,0.748869152948218,0.940053999999999,0.869292553470924,0.928880999999949,0.794178036101171,0.789401833400271,0.793960435846315,1.29618,0.808167887747699,0.808705157040641,0.810316854533298,0.810668539093947,0.817663517148148,0.822574177684204,0.823474958022485,0.825427513874837,0.826252305457231,0.826456025513283,0.826729679635942,0.826044090870854,0.825709994702581,0.82554605023871,0.824862976363225,0.824144157852197,0.824930182603693,0.825507237225509,0.82654904010832,0.826942258634693,0.833850301928644,0.833601379701131,0.852030263793669,0.873073939072439,0.869968114607641,0.871347317235271,0.865958603121334,0.863795989478997,0.864363450920444,0.864639014278658,0.867311502585751,0.871704356855902,0.87391264190823,0.876174556789677,0.876105269148842,0.87748969013136,0.878671297742791,0.881655660930391,0.88193381243487,0.881223927475982,0.887140349248875,0.894104910842053,0.892824156911481,0.894314581191436,0.895753294184808,0.897748834252094,0.899348068686639,0.900149514363052,0.906029420883581,0.904969736046515,0.910191627659409,0.911874636142401,0.913143116245129,0.915461377925281,0.921983569981853
0.473506902498552,0.474936188881688,0.477102091272331,0.479896774246433,0.481957057747989,0.483083014308117,0.486316130623744,0.488762996097593,0.492171218484229,0.494662607664915,0.497955216735457,0.501340618483895,0.50447496113997,0.506951537005329,0.507564616103823,0.509433981906232,0.511431141302344,0.516246831009744,0.520164976846706,0.523220222475772,0.525271490762003,0.528548046537518,0.530567610972044,0.534243836796228,0.543644166547468,0.543790804996561,0.543780343329982,0.544057421098046,0.54573834929257,0.550248597420931,0.552968946578377,0.555735435679312,0.556854029133361,0.557911296585532,0.611828557055903,0.639314515796698,0.665447263395099,0.691780985944414,0.660835449284512,0.594586287797601,0.594431948610292,0.596717292430477,0.599875809778202,0.60154995501136,0.601816102961552,0.601754735349616,0.601667143136528,0.624497765103375,0.63448344978565,0.63412992763194,0.634803935188041,0.63487300299715,0.63517952951611,0.635737966383848,0.636034449876911,0.636417890165812,0.636334111715256,0.637051701902391,0.637630410431008,0.639507168807189,0.64146738309944,0.644006528364813,0.646471565824093,0.649068514394272,0.651598549879563,0.654061485607548,0.657576222162214,0.660049565286294,0.662605768658927,0.664734186592441,0.667280227345947,0.67040843533115,0.672363602107693,0.675079099282815,0.676903967053433,0.686071190276488,0.687347644715643,0.689865539341329,0.691241385841425,0.692600070774139,0.693377868495573,0.693901068765448,0.694193220888734,0.695438625352142,0.697247854964959,0.697408969623164,0.698198218960846,0.705838425185449,0.71654097410744,0.716662832988843,0.718223106394116,0.719014793408592,0.724286903348818,0.726500530924638,0.729980019732965,0.732349025619493,0.733575477866043,0.735642950719461,0.737560176432261,0.738908845122844,0.740292164296843,0.741477160574497,0.741908991468371,0.749154666277638,0.809462826096407,0.841533595170782,0.869820264349675,0.800688226817367,0.800294359161924,0.800521094396419,0.804531565879427,0.8064762678055,0.807912687465536,0.809396489244629,0.811303762006915,0.81445994099491,0.815650760005374,0.816031659790439,0.8160531210155,0.816852781832703,0.817907282516528,0.818888843519388,0.820058254988901,0.821716703505959,0.82276179058586,0.82226201835706,0.822584302047749,0.823587193922016,0.82454878553953,0.826242646570699,0.826455875317639,0.833010009012323,0.83296405044349,0.850376229345178,0.870586650897174,0.868447285519722,0.865201523546579,0.863354583106777,0.862851862299632,0.862494095223844,0.862997202266429,0.86452631285979,0.867026344402972,0.869019427654956,0.870672750907024,0.872368820176708,0.873652206698202,0.876310116954571,0.878060634131033,0.880035112612765,0.881503882087544,0.884260152937968,0.886273158566188,0.889122517270629,0.891056783118979,0.892830114368571,0.894861120412942,0.896740053308148,0.897400243184053,0.906676565608494,0.907661067869184,0.909582478749783,0.911346600602354,0.912673473613788,0.914055528926768,0.918516426473688
0.471016171657809,0.473544940832606,0.475955502395403,0.479021451392474,0.482379875203614,0.48282330945818,0.483085077928212,0.48719844947606,0.492460870785991,0.490200430379376,0.489770869532842,0.490112125815718,0.490295086553695,0.500075515109552,0.504051241288024,0.505728928523995,0.507615434909645,0.507658242326534,0.508059751194044,0.50896444795769,0.511203710548039,0.527156771910218,0.52511740784162,0.531482162090594,0.542788657059392,0.543063034832214,0.542816529370897,0.542070163334652,0.542727114707712,0.54131083702394,0.00440530000000001,0.552807935564976,0.554972453271784,0.557033507640264,0.559032963685239,0.586097035267086,0.559671000000067,0.713998142998431,0.814043999999958,0.594471104478634,0.591213262564398,0.593182178863469,0.590903894927769,0.601272201448012,0.600371650797065,0.601291685040308,0.601818741394094,0.624467721746889,0.633955871281318,0.633411505495459,0.634961617624125,0.634032572085031,0.635089915717021,0.634287602705425,0.63598480092371,0.634422345029822,0.63555541768975,0.634824518286257,0.63604382061544,0.637608589041085,0.64116718719427,0.642417333159931,0.645352183932737,0.646934924422439,0.649163307817768,0.650479484518326,0.650007058567677,0.657710065454828,0.660105843457186,0.661594436539596,0.664316655054671,0.671000533856059,0.673133732524493,0.674591533714423,0.680088103040052,0.682386712440251,0.685784462564207,0.687883832049116,0.688496099327844,0.690149045761295,0.690944003748863,0.691204734186032,0.691396938925879,0.692240369447277,0.692120554127543,0.694355651929727,0.695314044183048,0.702541714691124,1.8694,0.714676874622639,0.707097447315667,0.717034523193017,0.722742626994799,0.725075537958162,0.72956927844904,0.730085884204654,0.730232776326728,0.732583312870698,0.735994668418825,0.736452506198523,0.739497060064873,0.740999470415876,0.741712018085887,0.748679973115364,0.747695156460015,0.817524203271803,1.43117,0.801446727709195,0.799974967943661,0.801578374334518,0.802249434421393,0.805273128843819,0.806462424820781,0.808400617141555,0.809519425195259,0.812148691407104,0.813804877552635,0.814299476246737,0.814168132381319,0.81313254269138,0.813505408197133,0.813725040298215,0.816089843378858,0.815439655372351,0.815927737519895,0.818383981237983,0.820168593213871,0.821594584703209,0.822877115415806,0.826216370063006,0.82494211615349,0.833049298172883,0.832764022501295,0.848782616881387,0.871385075174224,0.85931210598985,0.849088293730897,0.857462564821145,0.884747000137234,0.860507360096165,0.859373611865497,0.860985986363369,0.861529217437899,0.862240311394253,0.863562811100833,0.86734777966803,0.871039468512194,0.873032500182813,0.876915808335291,0.877540900254176,0.881056736501652,0.882571811927678,0.885240833249529,0.886260254315442,0.887475573434773,0.889499306614684,0.891749472056904,0.895476569537905,0.89469204958156,0.969142072426581,1.06789999999994,0.961502266623831,0.910994355853355,0.911925402173313,0.91384057361097,0.914644534888768
0.469708123533104,0.471071690897971,0.473839875528193,0.474452814440347,0.476304699052358,0.479869249103942,0.483018901018281,0.485498844369717,0.486885442561549,0.488525472941574,0.489240129112444,0.490164812647979,0.490853558771904,0.497130226052014,0.499136840650686,0.50225413860823,0.504398176790494,0.505894377291831,0.506870101479235,0.50720265839383,0.518387764273238,0.527194226518304,0.526985203815688,0.529657539590636,0.532185146557113,0.534644685593922,0.537113746173386,0.539201362794684,0.539752133916805,0.539950698554829,0.539830199991603,0.548752562691976,0.552085124699164,0.554722719387056,0.556620721136563,0.607454042292568,0.651465083999442,0.736425170513484,0.759025908999418,0.59602024162567,0.596899484636544,0.597224904039889,0.598875366790254,0.601753067114825,0.606128189861535,0.611442013937937,0.617999337447922,0.625956694815927,0.62940856230754,0.631028147284386,0.631899818586107,0.632368347212601,0.63239752477127,0.632403654497798,0.632003523250206,0.632074226919447,0.631849106088877,0.63248439115637,0.634052671332167,0.636255323502077,0.638978278014391,0.640443104196482,0.643190635470645,0.645120797705942,0.646880391725963,0.648638219605007,0.650314147278157,0.653600695434216,0.655902929843151,0.657015194786355,0.667679488654481,0.670175055991575,0.67197058807281,0.674361848727161,0.676902609624841,0.678615606765514,0.679468092943779,0.682812225607055,0.685513239814694,0.6874351782261,0.687793798637481,0.688766028875184,0.689093448822163,0.689443397589502,0.690887876571644,0.691606796382169,0.694733240217454,0.69958873511154,0.71726423567961,0.713340508687444,0.710853888499922,0.714546405552784,0.716622066459951,0.719025755368016,0.721072969877821,0.723986551225431,0.727777016504201,0.729139804010076,0.731068474534421,0.731828724570941,0.740748858196099,0.741443526476859,0.742064481797518,0.755794484069191,0.758539701977871,0.781010580430157,0.788130101296293,0.803532956962907,0.802609961858896,0.803610674759559,0.804208984873977,0.80516518255297,0.806333809582764,0.807412463103855,0.808859231224117,0.809921491676033,0.811156981526791,0.811306482045189,0.811497877790262,0.81100011114738,0.811109697134668,0.811958416351104,0.812785279474891,0.8133785592111,0.81427566732189,0.81536411772923,0.818210393485427,0.819363403220762,0.821346380966039,0.830598996611896,0.832172666225114,0.836708037141633,0.841563952615458,0.847150030471811,0.847157799822098,0.847558414537863,0.849841055645029,0.852942395961445,0.853915441662006,0.854634824396024,0.856756578633912,0.858326667034321,0.859463338480166,0.860727599767102,0.86212824878968,0.865072811589519,0.867668724350066,0.870265399995115,0.872308837160089,0.87453926354974,0.876653269663762,0.878955864192284,0.880935003487444,0.883566164207236,0.885142327362659,0.885429912914682,0.93787838068197,0.959111159992619,0.980313446694255,1.00145074549508,1.01916996150765,0.98409273097914,0.910650589660967,0.910585253404512,0.911801382291407,0.911142864343517
0.466699879501889,0.468019500379627,0.467653601504299,0.470594456861961,0.472384505093232,0.472336933218251,0.472809455647564,0.480819753053735,0.486495645011094,0.486936289654681,0.488426769998231,0.489468449957343,0.489883102448016,0.493654149399337,0.494282751656625,0.499798475725214,0.501559657366908,0.503723047121783,0.506322749563217,0.505896277728632,1.29858,0.527099913363405,0.525793682531582,0.525059194618724,0.521156701823041,0.533830688470117,0.536577575701597,0.537470022225049,0.536984289038672,0.538914267292925,0.539782329186401,0.543580998105768,0.543381012984814,0.545472370458697,0.547991012496981,0.625585677021868,1.33121,0.791312548973277,1.33365,0.596821887549098,0.597656821912413,0.596191384183413,0.837635999999989,0.769221098425411,0.845995,0.653284737253221,0.668835000037156,0.626344750835889,0.62846907102873,0.628947509934504,0.63011177833099,0.63014076495663,0.631487596847364,0.629567530245834,0.629129974157963,0.62865267808762,0.628890267524811,0.628677110381252,0.627510351328683,0.628906324578303,0.62926722482717,0.636570739102204,0.64255783416151,0.64380208233437,0.645681215410841,0.646718263091167,0.648791008877197,0.650715677995036,0.652245755978228,0.653816281357388,1.01894,0.670207532057839,0.669855499633502,0.673072196626613,0.674965586722381,0.67630050199788,0.676759181009768,0.674318480104965,0.673834295935774,0.678740559248605,0.685858770034243,0.686662474081521,0.686757532680691,0.686437221003592,0.685310156402888,0.687712290296041,0.697500152023954,0.697422581508395,0.72133490041759,0.71092305068542,0.708648828843191,0.709127605910323,0.708818893153185,0.71547949799378,0.720097848577988,0.719790063926354,0.7200615853333,0.725948786721304,0.727553255866989,0.727728535298789,0.741628758690945,0.742225059662871,0.743143859336444,0.758427077022069,0.766726545450018,0.77429252995906,0.00448655,0.805833053210161,0.808620478946823,0.805689217823662,0.805340470970967,0.805004383196555,0.805504465050973,0.806558744153049,0.807529557814836,0.808045012362232,0.809153093268995,0.808830232473636,0.808619577851043,0.808651822543499,0.808257823047296,0.807608185196511,0.807160773204954,0.807644496379915,0.807924849392049,0.809150473913419,0.808431322261641,0.816230928669828,0.812940382426709,0.834434376126063,0.844987861884323,0.842261025597776,0.853030102320176,0.845072875234662,0.841810455404309,0.846011193414696,0.877422000129763,0.852231973854635,0.851488978111407,0.852697667244757,0.854849561420596,0.855604294622788,0.858292311738561,0.858092722415459,0.859721046009278,0.862211339955418,0.866077143173747,0.866907090333121,0.869361787448003,0.870810216874782,0.871423312329393,0.873212705661488,0.874797491330556,0.877110088716229,0.879476947746248,0.881385449629057,1.05212000000512,1.07159531853482,1.09224751811524,1.09614001813248,1.1081041231234,1.00693110176956,0.902549132127886,0.904200245249131,0.903400921548416,0.906618727337503
0.464251641673972,0.465391422664511,0.46679349058946,0.46833798056344,0.46977740960366,0.47073987128393,0.472715856821805,0.477892964644579,0.481395948416075,0.484225339180528,0.488945706918905,0.488977334411164,0.489362866781334,0.492076913969476,0.496116972913532,0.497337520688805,0.498822857759341,0.501305657891156,0.503836517625059,0.504417805605034,0.607286119891456,0.527586793307332,0.526944253448951,0.526567275912702,0.526539346003636,0.530493371490492,0.533842479469358,0.53632354702893,0.537577377459129,0.538778276049552,0.539984152519827,0.542066870268957,0.543438637468441,0.544627138468038,0.546421883796784,0.641595361329707,0.781993391381356,0.766443901991757,0.681593733704049,0.596586394563777,0.596105540249823,0.59421321024315,0.769221098425363,0.735451828871337,0.701683702550922,0.641841250094887,0.634144730809695,0.626271783709878,0.626790857700763,0.626696993449528,0.627217508329454,0.627860509521941,0.627602885499388,0.6270253255887,0.62587597421286,0.625982670151751,0.62681346490713,0.626216324969734,0.626168437686338,0.62770064628502,0.62931491631013,0.632792618336518,0.635433528392503,0.638307022869058,0.64197434632211,0.644567053933457,0.64665192706062,0.648300279656528,0.65008676267845,0.652986749361739,0.656309585859622,0.660022037121267,0.663132549714138,0.665772005431706,0.668187934785925,0.66994378437758,0.670746531746974,0.671678325916446,0.672552963844925,0.673646497166501,0.675389869588526,0.677337954199846,0.679891479934602,0.682988583038459,0.684519805825256,0.684817512172295,0.693183639667083,0.693799973263463,0.694847925488365,0.696879627650999,0.701209969226535,0.705641462230929,0.709330247541964,0.712437969773693,0.714469202778737,0.71584132292001,0.721560302478474,0.722419422955956,0.724492515768296,0.724192968570185,0.74470430614069,0.747010348813274,0.749919744270037,0.765329122008286,0.77688219874805,0.785208337042374,0.78858156296468,0.807110491808985,0.807105594197443,0.804891152960822,0.804744273033853,0.803538005282948,0.805267133088537,0.804889551327721,0.804983926146633,0.805014373821743,0.805298488263974,0.805804011075784,0.806427020962363,0.805941234700441,0.806128101618155,0.80498637007777,0.804722141697199,0.805162944742918,0.805978763909391,0.806274225607708,0.811538006036766,0.816779465187349,0.823054140085869,0.837607736133531,0.842458969767943,0.840737093293879,0.840476043121743,0.841834547753694,0.842818688899552,0.844775593146764,0.84561148948572,0.846853865656547,0.849017947732725,0.850416532107858,0.851403815598295,0.852776731760905,0.854555497588886,0.855386802957586,0.857015995846354,0.859220538506471,0.861278986122319,0.863490428613214,0.865857965969094,0.868106279654787,0.869458679356169,0.871276798528823,0.872657741651253,0.875083742463642,0.877015771754151,0.878467541152519,1.07159870124512,1.08131823558812,1.09614073064293,1.09931758350646,1.10459735195013,1.02971841017553,0.994132586723619,0.903159000777186,0.90364819013171,0.903786526066524
0.460403039118957,0.462804657434158,0.465935804805617,0.465833426235503,0.467000280686726,0.46799886611294,0.468525085641003,0.465627759630973,0.463110323252104,0.474807583530929,1.26895,0.487573422173333,0.485471560053542,0.49189182427465,1.26784,0.495703107899681,0.495161042341761,0.496338189479239,0.496413264524501,0.50119092794731,1.2908,0.512025335558925,0.508758210311479,0.513833496384159,1.03341,0.52732685379476,0.523866765841224,0.52479014649483,0.517860473455006,0.538296288484572,0.539030504933242,0.54089336311374,0.517989000003928,0.542743622362943,0.540570393347101,0.656317953149027,0.820780999999929,0.752564628017318,0.56239200000005,0.584742152423785,0.565663000000047,0.590973964741613,1.33199,0.701683702560272,0.667814999999999,0.63139060367742,0.00384905,0.620891033754202,0.621785934740096,0.624040444126018,0.624761560824143,0.625564274372795,0.625450961945509,0.623984142733841,0.622195451755758,0.621599207453964,0.618584257947978,0.621538217992088,0.622242199149186,0.625312996493344,0.627920455232763,0.629782906638873,0.629964257811342,0.633232215516861,0.633986488066656,0.642071022425557,0.645791403967658,0.645791891158564,0.647605239951659,0.647700014441826,0.648834869272068,0.649435390035918,0.651687127644124,0.662379469168715,0.667709779805152,0.669124193967362,0.669113039891157,0.669454546076061,0.669718339539661,0.670755162124482,0.672118694033092,0.672900771337614,0.674679166005217,0.676205889544357,0.677803259052158,0.682385270955024,0.691454225098755,0.692774630352651,0.693567017510997,0.695013324216284,0.696650899275696,0.696339140555981,0.697198421226918,0.705655085732143,0.706052219219846,0.712739226837921,0.91603,0.717496722570841,0.00446662,0.71976852790992,0.902575,0.74835702048751,0.759256608831275,0.817823074885317,0.8975629999999,0.855793659231287,0.855787325956823,0.855986361200122,0.856476908635677,0.801429749645002,0.00460062,0.799526253915956,0.806796961547257,0.80321802787443,0.801627640551046,0.802146862896051,0.801176394136741,0.803471224091394,0.804636664256229,0.803792675400827,0.800626243249163,0.801694759666362,0.801373329100522,0.802094793463088,0.801662267516232,0.803898497209116,1.4917,0.863652822753059,0.903710999999849,0.839939735799231,0.841659055448526,0.839397358765289,0.837900241814765,0.839059697947201,0.874462999994999,0.844825944537871,0.844557902724119,0.845703557646475,0.848051677210702,0.847937092968935,0.848904689323823,0.84919917040507,0.848920130770286,0.851087924881436,0.851742645053381,0.85420841746319,0.856035118134345,0.859437091548942,0.863294752594086,0.86565873272,0.866629875693783,0.868457748109284,0.869484877405989,0.872213837379554,0.874425029662671,0.876324440042457,1.08729341653022,1.09034678211186,1.1046703486969,1.10248437298157,1.10929995470833,1.05245555250331,1.11094999999997,0.900725463547525,0.898664250799521,0.900763764084741
0.459302984907314,0.459637362893703,0.460230971899362,0.462387047492084,0.464161125392982,0.465242731579569,0.465662341413531,0.465064781654376,0.464244811547805,0.472227128069193,0.474585533418957,0.477280756775503,0.48838843329584,0.490235337973583,0.490165524063687,0.491258110926647,0.492887837533435,0.494438244951761,0.495766220198874,0.498263718191058,0.50240509931824,0.506333542328769,0.509955758089997,0.514208973428803,0.518167611415683,0.520809386355136,0.522547627293532,0.528948000698039,0.530856366609106,0.53664811492351,0.536731810914771,0.541423251874213,0.542239238621843,0.542507362736281,0.541919529267447,0.670430778635126,0.758564110804453,0.743765935865917,0.582007202946338,0.583500866911933,0.585365393050743,0.588866982576715,0.591660740666401,0.595867050915441,0.601460850650337,0.608311729697587,0.616174925423434,0.619779041002695,0.621571045270946,0.623039835145979,0.624113179827541,0.624768331446957,0.624064252181387,0.622035202061721,0.621422914913692,0.620163681038756,0.618858403611523,0.620368487045965,0.621469270177752,0.623690502884559,0.625453483260097,0.628572782665437,0.630208769414213,0.632668076485532,0.634764086252527,0.638049145270351,0.640060185293634,0.641861753548134,0.643660006215648,0.645393240428978,0.646468103873564,0.647747086794112,0.649835261654664,0.65558417371645,0.656779666295307,0.658443144255079,0.661130218912589,0.663832233476482,0.666540600740118,0.668073096072077,0.66973643180509,0.671135354165213,0.672825494201988,0.674535583483753,0.676796985165583,0.680497569778073,0.684125198933234,0.687519846238622,0.69073651120385,0.692910543017351,0.694884182715923,0.69495361465707,0.695820012235553,0.705751213191187,0.706632301293195,0.710184583847786,0.710739754705394,0.713423880210498,0.714914849941055,0.717027274211038,0.732135233028171,0.734431168311662,0.817132754281905,0.839772170654762,0.863283502232032,0.855804788227947,0.855759254017987,0.855765350417227,0.855674926254689,0.797227805260191,0.795148520256964,0.796199746585978,0.797268104745844,0.799183425638539,0.800089474334511,0.799740171424061,0.799390390196052,0.799593014948658,0.799617033017936,0.799944409726308,0.80003513758314,0.798860502373223,0.79905248817305,0.799547284743675,0.799940383841126,0.801590585174167,0.818232029196606,0.81985001287903,0.822828793002918,0.826316897712479,0.829513665758892,0.832869879359844,0.835832309656587,0.836161169290591,0.837696196609444,0.839528473654439,0.841977950875357,0.843759534550968,0.845093063634739,0.845480056070093,0.846059442529276,0.846380796078915,0.847274151445868,0.848273652384731,0.849746584137083,0.852153611167161,0.854130808050761,0.855306612776857,0.864194970860198,0.864871769610763,0.865202032931103,0.866593492116793,0.867639505053005,0.869735279601859,0.872234434364425,0.875379519081011,0.954842860061907,1.09274906508508,1.10370652511233,1.10292647607606,1.02984993241002,1.0017979693282,0.973724387139282,0.900201703820993,0.89950041182459,0.899461386123024
0.450758323785919,0.455301033796295,0.457232775748033,0.458882447183658,0.4588710796177,0.46401049002717,0.463377764831621,0.464610169659911,0.464359324362711,0.465853186285654,0.464680844013464,0.475336349557563,0.792248,0.489428680574865,0.487697556886039,0.489283747042662,0.489823878922678,0.492146251310442,0.493346886911099,0.495114708785457,0.495653076085121,0.494097933172402,0.493783738245447,0.5030436321634,0.504479681469255,0.504509929796552,0.504930421278527,0.531312421307961,0.531874331125529,0.534018919443573,0.533279569443824,0.607400809320708,0.725770086092283,0.626785181546726,0.542225130009675,0.684301260542608,0.894807,0.733697081652721,0.558707000000018,0.681790765013937,1.5173,0.70508682034965,0.567676999930699,0.573053199395024,0.569319088583196,0.60687498944694,0.620935448082398,0.620766522997566,0.62186069342482,0.617799355901982,0.609694240687266,0.612047705581526,0.614340018576024,0.61814734106522,0.75477,0.618312062367388,0.616401341269647,0.618706821687842,0.61959525010177,0.621971544669702,0.62117105709816,0.628555239630981,0.629647374858317,0.631793796571587,0.634108519354506,0.634870141202012,0.633224191558211,0.63896977358453,0.64032534083502,0.642831424470062,0.643758242459081,0.645178714797156,0.64479795040896,0.654071069428254,0.656031962894808,0.657429748594533,0.65882509603149,0.661301003800718,0.662770812425594,0.665264817874983,0.66720941877842,0.669056160341626,0.670567847888502,0.672362177236986,0.672651720323315,0.674400774810985,0.675133194378635,0.685896970190604,0.689397914129104,0.690915411824117,0.69577739792265,0.692840305690352,0.691973849020201,0.705646919832662,0.707190767123692,0.708166143119222,0.709253227831606,0.710618839985363,0.953158,0.711075210089626,0.00394479,0.728305837867497,1.0137,0.907723068447271,0.985052,0.813869709025647,0.761590997031306,0.805596371849566,0.85486286366646,0.79481096567748,0.792110276918938,0.793491395976462,0.792016816224006,0.797081529753713,0.799366197173382,0.797748428514148,0.796720863024193,0.793267613961146,0.790680308154755,0.790817808948384,0.791581402345355,0.794866150005578,0.796040570906067,0.797317414115361,0.797930438531042,0.799486677654681,0.816351641520412,0.818189323341529,0.820477308701906,0.826872103317442,0.828852650962193,0.8312678420323,0.829548035447005,0.831450304100889,0.830394472305003,0.838802113105526,0.840325046786,0.841809647939101,0.844112789639974,0.842862251181506,0.841267527085397,0.843423384149432,0.845430737202272,0.845575541514376,0.845726682605754,0.846252134605085,0.847144045435981,0.850850847252221,1.07324,0.863716076300015,0.862692443796119,0.864477053516313,0.864614302846559,0.866358216311959,0.865592987504988,0.87352579712939,0.870988889964999,1.095319350468,1.10374138548173,1.1027232945449,0.884647,0.96019829267826,0.886676000000194,0.895404782027612,0.895188337035555,0.897437936780029
0.450916294488964,0.452403074944549,0.454356141332184,0.455519757638527,0.457965816543988,0.464286743790531,0.464532380519641,0.465197281590162,0.465741288355333,0.466910898170083,0.466870040566358,0.473018966537441,0.476791820997517,0.479622672913757,0.485590243373002,0.487266194183739,0.489448579761678,0.490737564613773,0.491505101887373,0.492505030303374,0.492871940318514,0.492625183698221,0.493362196658233,0.501847449591774,0.503090735353864,0.504140676887116,0.504559410643247,0.532487767786016,0.532935575019578,0.533812473721451,0.53381547015177,0.64295695498982,0.726422464157877,0.726638457977455,0.726095887857623,0.724480426266283,0.725677132967661,0.725941454272398,0.73102061955658,0.747328010774595,0.78210783077144,0.737215593265056,0.660636879148223,0.583724049349997,0.583591454783321,0.583263962032488,0.583781298857712,0.5846939574426,0.586419279545601,0.589213168540851,0.593091380668699,0.597809705475868,0.602916106276962,0.607848113845306,0.612048448101678,0.615105111193617,0.616885148660675,0.618312120997945,0.621743013073547,0.623175637604659,0.623986677232583,0.627257702433485,0.629117455600605,0.630797511085364,0.632178768400693,0.633110946745973,0.633909953806726,0.636609498425244,0.63971235394626,0.641534301401268,0.643068826018077,0.644276128913363,0.64552714285721,0.650778956826144,0.653715106480785,0.655603279993035,0.65738715943728,0.658755844195059,0.660300180661249,0.66217651060855,0.665162358925021,0.666310137987516,0.668691903381992,0.67042094037317,0.672426083706049,0.673932236917901,0.674988930611469,0.682717498472148,0.683811020335893,0.685371465456878,0.687526457512691,0.688959230819938,0.689800975085065,0.705585869356212,0.705635777367792,0.7064273008823,0.707529052338482,0.709217636512559,0.71004261489552,0.710603481430408,0.710748854405705,0.724203064063494,0.90772306844807,0.87273157174998,0.838705373170298,0.795117938880238,0.766468723863189,0.7708825111132,0.777269178483249,0.78432550791131,0.792768460546252,0.793347851906815,0.793871196756417,0.795931643426386,0.796859791358683,0.795866270458414,0.794105555482376,0.791996480448928,0.789601377554138,0.789613397661445,0.790718665716118,0.79267118132113,0.794374935414771,0.795559220827471,0.796621794564862,0.797611619910851,0.808417058099033,0.815628551012517,0.818867024634681,0.825866782294099,0.830949219035299,0.832508251782738,0.831669800443929,0.832543267355777,0.83375893466788,0.836841191113052,0.838599236725325,0.839895332025349,0.840910791798802,0.840278587609742,0.840429373543544,0.840867509944595,0.840962000871571,0.841960311333894,0.843081877150388,0.844612725594164,0.846087433566985,0.847596595650146,0.943164319169805,0.863083993252967,0.862617263116127,0.863748574174919,0.864643285121242,0.865042838427251,0.864511336929818,0.932316596931056,0.967630976324633,1.09818727490761,1.10115440088182,1.10177627545711,1.03259481982451,1.00206273725178,0.971507453460424,0.895216218757771,0.895303975002994,0.896277987300194
0.447548786341831,0.449803599099996,0.448747851818513,0.451336450047086,0.448871270096411,0.544768288486536,1.2406,1.14411235881505,1.23964,0.466849628957039,0.467099664700978,0.469694917137717,0.469555332526807,0.476799404221474,0.483830570666414,0.485361269206379,0.784137,0.4895065318709,0.489218495292222,0.490191236613709,0.490442120725388,0.489848599582814,0.488155078799221,0.499829926045511,0.502068579344497,0.504387325663596,0.504614727101837,0.587426828072774,1.29167,0.614596936672823,0.524552823935654,0.678570622745903,1.29691,0.886811338175505,1.3017,0.72078672700535,0.547492,0.696228261462062,0.822707999999955,0.768770447019931,0.878472,0.769407051445996,0.836329999999989,0.583300795350961,0.583428997851878,0.582381448651605,0.582285287456575,0.582176335696591,0.583338162717887,0.583990883372383,0.585695542428709,0.585861003775605,0.586977906819247,0.586908741583438,0.587611850573898,0.587235880384275,0.587121331602667,0.600008106781383,0.994616,0.623896950213382,0.623661092092663,0.626778869454374,0.628338639935552,0.62985994457654,0.630392404284903,0.631538300422401,0.631574787781979,0.634284767605092,0.640524063218579,0.640708514534948,0.642383293632836,0.643047087314119,0.644280736266624,0.646683811504563,0.653531479440991,0.654375784678055,0.655620276856964,0.656026372517113,0.65666838358166,0.658843712853066,0.65803755010466,0.66391079364059,0.665968729668993,0.668799551158606,0.671950286622789,0.673067212715214,0.674323182280361,0.678793229984482,0.681193224287421,0.682738593929609,0.682242294115178,0.686146041922855,0.687803180580301,0.704897859207066,0.703019206768695,0.704518201879423,0.702858198019403,0.709003500224971,0.71007010113794,0.71024495426926,0.71068605389518,0.722159397989228,1.16251,0.811453232673155,0.755128847489411,0.751936128445309,0.748378203784963,0.765819005788906,0.776966533766057,0.779397128784754,0.821947000616825,0.808511185671065,0.866433999999907,0.796423060214096,0.796992003237145,0.790475646530895,0.784521622167242,0.785884321614372,0.785431600667423,0.787445235252249,0.788816174312059,0.790841329499645,0.792997872914728,0.79416666095682,0.795418921995392,0.797130842716242,0.801817933481106,0.812086943285371,0.817886929598888,0.824902368696896,0.84437818969825,0.838714010922875,0.847103330282289,0.832906070323671,0.835763943649084,0.835924167672585,0.838310997719975,0.83857929100385,0.839933098046267,0.83805344467787,0.834461116896547,0.834839070949405,0.835333746496844,0.836749316154632,0.838117326784405,0.839414200986008,0.839687068715932,0.844476266154548,1.07001,0.862118433906055,0.860459423802777,0.862464042912057,1.0886,0.864043630419265,0.862456012717846,0.956430459978237,1.10204266796744,1.10466327059949,1.10770754151231,1.10918600058242,1.11650535453052,1.11639682166529,1.1191908854134,0.894498751202172,0.894202094279821,0.895169183916331
0.546883843452637,0.565709720685994,0.585964169330879,0.608091302481891,0.632456941258139,0.659382739768287,0.692003539642356,1.14389809552649,1.14411235881505,0.465532635772739,0.467361410184546,0.468453062593344,0.469823471987124,0.473821195813788,0.477668390491984,0.480832381839693,0.574661291675236,0.48810554304205,0.488555711678107,0.488216740463026,0.488066264090626,0.487954913063377,0.487556346823158,0.498027563937273,0.498383846154166,0.555366457022431,0.587238243570665,0.619536765683969,0.649419252069768,0.680172808133279,0.713159346248142,0.747361874317507,0.886811338175505,0.85277362840454,0.756757166499972,0.715799999383479,0.690413389411897,0.683512730859732,0.666804707107505,0.651079957338687,0.635966913521895,0.620478041252212,0.603424116932831,0.582308216137077,0.581322355835331,0.580387320939356,0.580439078648025,0.580764905978442,0.581782239620077,0.582782220262236,0.584144846854206,0.584785497104988,0.585518584666114,0.586049371129395,0.58669296134293,0.586944747099228,0.587324560397427,0.592116255676705,0.603254965020451,0.604517356989138,0.625843852990018,0.627300103331722,0.628549987586453,0.629462342697008,0.630025251663555,0.6306022260466,0.631287809073137,0.633726848351833,0.636779104950908,0.638405569169321,0.639975752465335,0.640987667583975,0.642340312914113,0.644029998334333,0.645484236298589,0.647903864300733,0.650553848435525,0.652593195078377,0.654360829316103,0.656561409711589,0.658987065699426,0.661232226824257,0.663917634766644,0.666076898523235,0.669705609358815,0.671461262462228,0.673774113923668,0.676515743471231,0.67939075405511,0.680745301895917,0.68207529429466,0.683830435858383,0.685396446869001,0.705252211184227,0.70430734385546,0.704956302813548,0.70539679801068,0.70762902075728,0.70887952859661,0.709479094722044,0.710062330617539,0.717509536331125,0.721981479685566,0.727811431863993,0.734882367134898,0.750175441049918,0.749386606403752,0.754192755008497,0.756317064902373,0.759777465835486,0.764115230002444,0.769195693815977,0.78040361074199,0.779458634325813,0.780008900669074,0.781610886890152,0.783784514686882,0.784494936351381,0.785458174972162,0.785600736733707,0.787321292895307,0.787980776465477,0.791973696716789,0.792492324673747,0.793148297756195,0.793678084210916,0.804916980204736,0.807748023815929,0.812781648011878,0.823940481044167,0.824220780684999,0.82733008832261,0.828575551031764,0.830966228843273,0.832727088329725,0.83360388972162,0.834051564255515,0.832795665509989,0.832441938522726,0.832743100917877,0.833419085524739,0.833526263221179,0.833342833396073,0.834512351726949,0.836039227856477,0.837825828512204,0.839226766098155,0.841934618452461,0.84372540976682,0.845555447606715,0.847518795427096,0.849546672418786,0.852104387855285,0.85524954862692,0.858829164589914,0.98084489439481,1.10319610154656,1.10478608920175,1.10718445286218,1.10984637202876,1.11350674605469,1.11557260436866,1.11708687121153,0.893526330474908,0.893007799750128,0.893420032874987
0.780789000000048,0.805491851484058,1.21939,0.985719923687511,1.10469951181113,0.692003539642361,0.449499,1.14313999612755,1.23301,0.46200956722327,0.456231521159767,0.466165704704527,0.467051088666584,0.467140836961434,0.466827215951439,0.46944475671254,1.24425,0.485997812854952,0.483250136571656,0.485819092967912,0.485319331833091,0.486061358935862,0.486118578477434,0.495929255461127,0.495045362374931,0.586596863702518,1.27115,0.654463259455637,0.507108,0.714539855721073,1.28273,0.89532287012612,1.2892,0.82156446439623,0.702963948560774,0.709729837856017,0.815472,0.633596012797149,0.542438758041641,0.544259300410213,0.544878743395336,0.575300825535378,0.578424877640063,0.577603176514738,0.577236657574695,0.577757408677536,0.578040599735141,0.578758935963762,0.579884650056123,0.581284513054686,0.583016586863275,0.583669876388121,0.584033937931883,0.585140226372532,0.586002377989422,0.586598681770544,0.587855585006262,0.587951548567242,0.589375052895686,0.596486396153273,0.801448000000035,0.828946417679084,1.34049,0.6290651381262,0.629049981356673,0.629489996474892,0.62867827638216,0.63221732201757,0.634427776536011,0.636275880794316,0.6379263370999,0.638801940775105,0.639817852578593,0.641301016192664,0.64147980455069,0.64250572139633,0.642426416043115,0.649894413639719,0.650646790610733,0.654662729932947,0.658184844403676,0.659618109189724,0.660954681832197,0.662595268644871,0.661441832331507,0.669634517892637,0.672123290259538,0.673665887393399,0.679583148548802,0.67894828594109,0.680854585096616,0.68213940448924,0.684628840735534,0.705355485138721,0.703254333802288,0.704996219300616,0.705263536274778,0.706981994406863,0.708087641698803,0.708571013094477,0.709922142291709,0.715261007380244,0.711567361672592,0.7211119965594,0.718847999955837,0.750327599733058,0.749236631782305,0.750343904686509,0.750103105261701,0.758207730242962,0.760422836515595,0.768196015957194,0.782529910723026,0.777524702170179,0.772564746435324,0.77302840925181,0.773494060913034,0.781617233509695,0.796402927356878,0.782725748203473,0.781301315864898,0.785564749086769,1.97235,0.791583956151197,0.790950416400304,0.791032630333284,0.806831736671022,0.803174332027526,0.801334306904153,0.822868129467,0.820145893270192,0.827830477157244,0.828204754357587,0.829735888275131,0.831029440085883,0.831389506805031,0.832226411616141,0.830967572407863,0.828369112317732,0.827016573207178,0.82597952983626,0.82723141241348,0.828875799400969,0.831807381178324,0.833274445239723,0.835970171531473,0.837256250308663,0.839197106916573,0.839290289665741,0.8440706939743,0.848629019279712,0.846890014802495,0.847539051561882,0.850600770610963,0.853286703589126,1.00564145262402,1.17377999999992,1.15435332670286,1.17525999999992,1.12863124182569,1.00088999999992,1.04203600252,1.13257999999997,0.892385428845202,0.890442189556669,0.891271117291222
0.805491851484,0.834258916019071,0.917037588444172,0.952143281307917,1.11865650217984,1.13081244367233,1.13727179267691,1.1417092375593,1.14265024203093,0.459980832018498,0.459747230991711,0.461965667507927,0.466350557475351,0.466107370502447,0.46548196450104,0.465760539613205,0.467755732643271,0.470738868456449,0.47420706163893,0.477811982089016,0.481410888394533,0.484581991393339,0.485668867818003,0.494580983793884,0.493996691484084,0.618312382165771,1.11364668067605,1.11364462746439,1.11367006504602,1.11368564422145,1.11370740075777,0.860199652507758,0.825531081631717,0.791350975068026,0.733098475994147,0.670550757005277,0.635512906065312,0.60089089133152,0.543980722134053,0.545323782216696,0.546160734830592,0.568581709927231,0.570926554551388,0.572824088113186,0.574654549529984,0.574778731048549,0.575482223651896,0.575903687602904,0.577204212285353,0.579018653009573,0.581339957024639,0.582425603248269,0.583564062112126,0.584171907892832,0.585136063556606,0.585411868283557,0.586000983106098,0.586515276970341,0.587988092247842,0.593164102158122,0.828946417678626,0.859114676474411,0.889282817661905,0.62812440022694,0.627959076468177,0.628968633444924,0.629951892066415,0.631442533283824,0.632655437356629,0.633951268543028,0.63512579808473,0.636331510929877,0.637734355114266,0.639138680081379,0.640348046015118,0.641549749232278,0.643002330632873,0.646515281838765,0.650342288593617,0.652832282158255,0.655566906854327,0.656972049120028,0.6589009801957,0.660549408103253,0.662680938487989,0.666018260891629,0.668474564682898,0.670729002661234,0.672125720273167,0.675721139536261,0.678502198705325,0.678991871236928,0.686275990857254,0.706236493679703,0.705530073428387,0.705871587723661,0.70611924876195,0.706567256681404,0.706188295339748,0.706655759357001,0.707663853643143,0.717821571258689,0.719626917123894,0.722867055985934,0.729957458844509,0.750959390044776,0.750664197143313,0.751775993913796,0.752073229873444,0.756632647917722,0.757266511671139,0.764967909931695,0.765809781704156,0.767864934572633,0.770877131332368,0.773100474190627,0.775858857457595,0.77850084784527,0.779487137815271,0.780478017344086,0.781680140836399,0.78303062663072,0.783762355021357,0.78524876197284,0.787788297963381,0.788920105207584,0.793412008389081,0.798080801327589,0.811255109042363,0.824194271098075,0.824431321645543,0.82849498856454,0.829593100757384,0.829019281116424,0.829253956401951,0.828490268834489,0.827106181155213,0.826854862381342,0.826232407727734,0.825328590361192,0.824632930037377,0.825738912592207,0.827571615235778,0.829885814476598,0.832785336954994,0.835695142770858,0.837772638721598,0.839658679016872,0.840902454763271,0.842992363002711,0.843538550789069,0.845264579491735,0.846315662283841,0.84770111958648,0.929771134863465,1.03083665644443,1.13003886930056,1.14268300184821,1.14391600194907,1.12883391821909,0.988210637235508,0.974710834746349,0.959862526635001,0.892299306526692,0.891107259796948,0.889780264572152
0.87132486435363,0.871089025836625,0.870827264508581,0.920281733994226,1.21572,1.1339979138276,1.21622,1.14265024203093,1.22195,0.458649823377698,0.455601901029465,0.459175170036032,1.23579,0.464794823756844,0.463085658187023,0.464256170182863,0.466198251434501,0.466169716085141,0.467669226326936,0.467377907660552,0.468506596592835,0.468331715956005,0.469428430403279,0.493499759657501,0.492163841703798,0.650765245578602,1.26262,1.11361559651735,1.27185,1.11366461150426,1.27337,0.824380465760784,0.786602999999964,0.775434988674062,0.760776999999994,0.60661404892119,0.537589016816066,0.539382468482898,0.53925621601579,0.546720215162215,0.548181549599729,0.566026878148903,0.570996823326519,0.572271459250212,0.572886929274474,0.572523299230474,0.571059579000216,0.572817892872579,0.573531860633388,0.576411280143236,0.580668500150606,0.581796849928546,0.583339757268138,0.582920525491238,0.584685227422198,0.58405295342202,0.584019958136902,0.584127841275492,0.583024656102578,0.592295341441697,1.10965,0.889282817662352,0.952288999999965,0.626884857524416,0.625176013962716,0.628221476922584,0.630160488595597,0.630733926877071,0.630223954347557,0.631856745878835,0.631010000680558,0.63400343618603,0.635318458588289,0.637287393359205,0.638533010477444,0.639978152789874,0.640325380925754,0.643908669072579,0.651298414474954,0.651379726377109,0.653132581268464,0.654830825986399,0.655791286644071,0.658715717472603,0.662355769521815,0.663505340866846,0.664781605181093,0.667881109712963,0.669566629237758,0.670854779309798,0.670235813374637,0.675909203069197,1.40371,0.809148700549835,1.40397,0.90856203336765,1.40723,0.781881723287755,0.703219161430531,0.704605358708549,0.703296552186536,0.797581825722815,1.05792359843649,1.05872040130652,1.05963996207285,0.811112076112243,0.00420065,0.752658281357523,0.753654272333948,0.755409328827903,0.755017125395041,0.764124696833897,0.764599749940867,0.767278462938967,0.769991744728511,0.772292607013918,0.778905897947128,0.776965800749251,0.775158676885376,0.778356811429856,0.780594531828449,0.781650795259408,0.782643944871349,0.784154920250042,0.785606637661475,0.786631401726533,0.788361069726946,0.794835622275666,0.819680345776001,0.825631182911587,0.835360287446566,0.831965244456593,0.832550014740091,0.827587037308599,0.824023113132366,0.825951564910038,0.825080170346143,0.825274080412799,0.823210337439698,0.82320668576432,0.821012549452148,0.821653556963464,0.820741975337705,0.820852377544681,0.821479219595642,0.82072591173055,0.821938569806405,0.822629513753877,0.825236691533313,0.835662138885448,0.841745909404095,0.843771144484835,0.844579926099108,0.845914604839626,1.11517999999997,1.05636614193877,1.11672999989549,1.14073154980191,1.14459191142762,1.13068387804381,0.864496000000025,0.925939378596268,0.866566640969268,0.875682796851781,1.13658,0.885616373799567
0.731295924420152,0.890682993181865,0.895080000645589,0.910391083670472,0.656234829610462,0.621663438175143,0.587950904396056,0.5549834425145,0.52255081638945,0.458880364809699,0.458023306762221,0.45820742993842,0.456917635314553,0.457678329430478,0.460152524926958,0.461668349920167,0.463964343026781,0.464323062130883,0.465661303155054,0.466138262568279,0.466934465108772,0.467259312248366,0.541147041428048,0.576749156504251,0.615340579017633,0.684144621689954,1.11357225373245,1.11359440302196,1.1136101445726,1.11363549366144,1.11363315218213,0.69894729785441,0.665077655257663,0.63274984905286,0.60179431022202,0.571911216967942,0.539415168968907,0.541386994613644,0.54321087599021,0.546683263578116,0.548669576152346,0.56202029471443,0.563321680053746,0.564263486869463,0.565349521294069,0.567405075292889,0.569485398741703,0.569898744068096,0.571199693519913,0.572648969435201,0.574218421903882,0.576109295579785,0.577755028971561,0.579666244522156,0.581247465370196,0.581861124666467,0.582381442455038,0.582837769333843,0.583108331205811,0.590706552974345,0.592289287467852,0.608421582579287,0.608112090582159,0.608527740210527,0.609965399342011,0.611773699724472,0.614303323082004,0.61755520853695,0.621405888465084,0.625641018344323,0.629568744607904,0.632888271435008,0.634745074721588,0.635802993229197,0.63711786348263,0.638701817767908,0.640738901865689,0.642786652133553,0.645395314736769,0.648138245396818,0.650394052526353,0.651828763426779,0.653828024441185,0.655871261701811,0.658773677052317,0.660749539111953,0.663555895124414,0.665751304039843,0.668234537569448,0.669680378145763,0.670475094498591,0.672314311823347,0.739042724941804,0.773876779071157,0.809148700045931,0.875554918982069,0.908562033367655,0.817033587018768,0.760622194297346,0.794915452299912,0.829782092942665,0.864913762027687,1.05824849778756,1.05865971306972,1.05910667960574,0.889589048029058,0.854560917033674,0.819879774588283,0.753783405299378,0.756584715550095,0.759233873315717,0.762565336790756,0.764349375162658,0.766498284335735,0.768581274963819,0.77276584739902,0.775346004684059,0.775527680914558,0.775521841469429,0.776767591138405,0.778431622956998,0.779685450917553,0.781119898796328,0.782431917150541,0.783864233136403,0.785119484901184,0.786212061720045,0.792786313663674,0.82393978958421,0.827775638147294,0.830665509614447,0.831432655124503,0.830706889195916,0.82872236524216,0.826812275869231,0.82638377241007,0.825340254893406,0.823652948471355,0.821929632036868,0.820758365213544,0.82029543746355,0.820061784240442,0.819853414437531,0.818949979789775,0.818660911532596,0.818731470518432,0.820190467999171,0.8213977399519,0.822905954422102,0.831233999074395,0.842722702142809,0.843223945392553,0.843579227372985,0.845019038701895,0.918902229821574,0.954274412589072,0.989701035660127,1.13824778992898,1.13661577692743,1.13432991550287,0.983990049788668,0.94893219744727,0.869573473690151,0.875897905242402,0.879030442175823,0.88371535984215
0.421812,0.899672063161526,1.20506,0.924430877989595,0.427823151454682,0.433947249833825,0.433476689619271,0.43549413321524,0.43716292931193,0.44541025808758,0.448052862949712,0.450770843164008,0.454568428541511,0.455958240773009,0.457911203936558,0.458661616032411,0.458522876724536,0.461846394207544,0.46449292821294,0.464881981496126,0.466010734778363,0.466767228773781,1.25116,0.615567894154625,1.24684,0.718542327075853,1.25205,0.575773007263291,0.485524237902154,0.5692916247629,1.26712,0.551853369101054,0.506923999799549,0.517905000000029,0.528886000200451,0.145493510065627,0.00394209000000073,0.543708804482944,0.545661075636235,0.547886689985243,0.551387541319984,0.558369835761053,0.562900234443319,0.563595212169926,0.564016637919627,0.563699589514482,0.563245690643752,0.566663968384896,0.568207383524724,0.569259904424216,0.568919175044738,0.569612382797194,0.569794382061718,0.576137704927541,0.579640983496418,0.57997955644386,0.580691148022697,0.581885631865744,0.583413613272101,0.58798691661334,0.589991489786787,0.607478449217384,0.606655864339134,0.6072924459382,0.607915000091742,0.608049445330687,0.60971603339449,0.609604734665628,0.61068629392281,0.615182518741833,0.621085902698568,0.618547055151723,0.00385457,0.634015010753423,0.635210644238508,0.637066644507963,0.640787378003588,0.641030062778881,0.642882224963944,0.645281680060636,0.647263634899933,0.649169217267419,0.650485201212672,0.653064395836772,0.652523125808486,0.657867410585928,0.663657658270744,0.663769763532334,0.667321948264825,0.668701279661527,0.669259067417225,0.670244184641816,0.670415886281314,0.670780349310968,0.670954528085424,0.847471602564833,1.00762000000154,0.852366899779262,0.691234000000005,0.830184087272804,1.4062,1.12178798586214,1.07397000000007,1.10098651773015,1.12989999999998,1.06766391555748,1.04494095839622,0.854356599964283,0.749938798143494,0.758522704890323,1.1759,0.762719971841213,0.763348774817348,0.765777803329286,0.764711027701844,0.77351484408461,0.774372181506927,0.774575816988569,0.773838660766233,0.775375021584977,0.775723430861094,0.778068916278699,0.778990541051476,0.780885948359581,0.781915746562872,0.783472682724606,0.785169083237715,0.791053289422057,0.832743505820575,0.830913233746745,0.832177925646852,0.809850466861006,0.800885205247768,0.803064120767979,0.805949278358727,0.804854576928903,0.80444938463955,0.806539903731433,0.809964137952633,0.810200756405805,0.811110989906199,0.810353201816469,0.810955089674532,0.813713813118782,0.815698731497246,0.816036224187657,0.81523103022649,0.815776314790926,0.816131126186649,0.828351574062125,1.03504,0.842403945893394,0.841132270659635,0.840017403279687,0.840986981660357,0.875925019254419,0.842754000000059,1.13732755829913,1.13757315135877,1.13715152535697,1.13931125368112,0.972769995816793,0.867388879198821,0.874395932013512,0.87580755019074,0.884186409462932
0.727363125758736,0.908449790637757,0.944810155384844,0.938890216576371,0.521892859903367,0.433963535520366,0.434117243403701,0.435639356973133,0.437877458247182,0.442162866766993,0.446644557215578,0.449186372634764,0.451849152559653,0.453298467980594,0.454869698557287,0.455953886463012,0.457156187858344,0.459554125968869,0.461890654990916,0.46282204128438,0.463601993318276,0.46634803136069,0.485393613931038,0.485960884345877,0.486141012743949,0.486224089676054,0.486802031139269,0.487512564187794,0.487441515991822,0.488629819452046,0.489190549748361,0.490078439944268,0.216011886550077,0.180602672016879,0.145281338277415,0.110026310062985,0.0747011622849156,0.544120599271546,0.547830305978402,0.548973711895248,0.551094222085756,0.55326578813756,0.553366540622482,0.554107777557884,0.55643347469106,0.559377566382754,0.562487026470599,0.564528315878712,0.566163014051795,0.5668961671417,0.567385591763622,0.568394862600786,0.569843127527405,0.572789434053979,0.576060481319653,0.578094329010351,0.579511145771097,0.580581266493851,0.582173369868427,0.584807608447052,0.586495610933135,0.60636488965197,0.605761692668129,0.605905203601324,0.606057800110318,0.606630267822682,0.607548276625705,0.608229209461303,0.60952292904367,0.61145410438927,0.613964444178582,0.616738019024754,0.621030961853225,0.631296008649469,0.632409459664841,0.633953931107808,0.634959335814847,0.637549945947543,0.639803221995759,0.641745365905363,0.644777326643921,0.646086486497096,0.649393843339468,0.65112962155645,0.653017827240431,0.655475139936845,0.658320112406626,0.659440197491244,0.667975092923881,0.66792170515704,0.667823693984146,0.668678704512994,0.669703451941232,0.670898630571305,0.671387180249385,0.821572656899383,1.02462844371648,1.03529624506657,1.0421113554444,1.04849288945173,1.24323583486499,1.21065256159876,1.18375579763259,1.15912859712311,1.14130000079974,1.09897577491143,1.04398485182457,0.889130316567212,0.853248810751352,0.760503829367871,0.761322461788484,0.761783661079493,0.763958257527438,0.767841142612345,0.769563327819938,0.773104127326498,0.774035018888157,0.773618685538129,0.773208095524845,0.774013241998551,0.775301868087187,0.776879133597981,0.778615873489959,0.779624859659317,0.780649080509041,0.781523597100195,0.782381177879771,0.789081060548736,0.793446187087395,0.793693486045863,0.794249150677676,0.795152219749788,0.797158347246889,0.797347429062666,0.798279841066344,0.799674780104407,0.801630736232759,0.801619006369835,0.802529800254209,0.804672532230432,0.807333322877033,0.808277016002222,0.809712145097125,0.81152123935068,0.812746842580675,0.813576713335642,0.814382386257164,0.814640592123087,0.814798964731517,0.825390889331128,0.825593379389159,0.83330772722196,0.834777414311584,0.836639456729855,0.838919791666058,0.896508812781288,0.939043490610627,1.13620709170728,1.13614469323168,1.13652344499772,1.13769491434729,0.997143669794617,0.868838215268926,0.871554557561038,0.874022230202862,0.883528204917635
1.19159,0.936465845284249,1.20577,0.944775702119832,1.19587,0.433261804506519,0.432964947601902,0.434791842985632,0.436177297502519,0.438217454286553,0.437028255603701,0.446562701025992,0.450589145582511,0.450609200380954,0.451814532493245,0.453329473197316,0.453947803493615,0.457543622311837,0.460424131695681,0.461436454965289,0.460415375721713,0.465754763075401,0.483836353709555,0.485248121169148,0.485327246367188,0.484850849918204,0.485923486865873,0.487564091330733,0.487570022328923,0.488544931610559,0.488111121116103,0.490082554045117,0.00399440000000072,0.0748219121335519,0.00387178000000063,0.0746671378131146,0.00363986,0.544356729072244,0.549215373481693,0.548929449765671,0.550868391437015,0.550530250935974,0.549993659698079,0.551147830463091,0.552777537899445,0.55385718036942,0.553925960316937,0.56290580830859,0.564454922178685,0.565164971263767,0.564974873217629,0.56670459690099,0.567353180813075,0.569501546050846,0.568619519978683,0.576629276041518,0.578451541123476,0.578953653927079,0.579948622658565,0.582223366280229,0.584606061465569,0.604915092587532,0.60368499836064,0.604342714469196,0.603795584350666,0.605049533051395,0.605750134151966,0.606636196218415,0.607239936847623,0.608070514193683,0.607673700870397,0.61374106073268,0.625474682487959,0.628020471735409,0.628993278308847,0.63106482155093,0.632102892447888,0.634519211677481,0.63589858645932,0.63822665172709,0.638199980059816,0.641933682248673,0.649626343624239,0.64980305966936,0.651802424754801,0.652364961700998,0.652269263956334,0.65575231896827,1.39339,0.666731586583328,0.664967744803165,0.666787139350025,0.668654872130675,0.671614042031701,0.672227864215518,0.806402131209426,1.40156,1.03673737041771,1.40036,1.07773262103285,1.40091,1.24323583486499,1.40418359197103,1.40344270169384,1.40312989525983,1.1310294299614,1.0430289584043,0.924250504084299,1.0232,0.761732096191034,0.749259770607226,0.75824266757461,0.754339202928748,0.770165633202874,0.776442827595339,0.775016240471576,0.783985523326952,0.772676283649925,0.770303386402656,0.772855418358717,0.773538348793373,0.776021883379752,0.778390205461848,0.778466284907931,0.779344775738385,0.779629756675452,0.780382426370102,0.786478733870521,0.793470514486929,0.793497704991673,0.793865036498204,0.794226387572918,0.795276281713718,0.794476237841513,0.795159636088846,0.795418420234845,0.797171391671481,0.798492549006926,0.800497845662772,0.800818414751221,0.802275261897009,0.804888539485679,0.807711285260339,0.809552388681351,0.809278565090876,0.811380561968476,0.813428940419965,0.813012897611036,0.813372824852996,0.822681241054412,0.821602289682003,0.831497373374194,0.834159381041845,0.834084831116173,0.834500618333295,0.914662594093977,1.13576340823977,1.13522322250701,1.1343495051562,1.13552954220541,1.13737269689915,1.02211305038286,0.867036370317404,0.868769660232551,0.867611567102909,0.881402573889782
0.61555256654655,0.583664378777089,0.553349021162636,0.524358049618178,0.496355505251406,0.432186054785472,0.432606170343754,0.433982000240592,0.435270279960422,0.437071754812788,0.438481111313661,0.442278367302904,0.444274728395296,0.446744810588926,0.449151595970111,0.451100950115321,0.453137941383996,0.455148574411433,0.460521886758932,0.46146966609974,0.461813936847197,0.465008568333153,0.473296943337853,0.474617710546342,0.478181162172664,0.481450217166585,0.483892894860232,0.48862092459524,0.488745596187063,0.489366706384645,0.489960564018493,0.491459528625957,0.074875746672889,0.110193872212645,0.145450138080071,0.180771616757494,0.216180700039388,0.544643296032519,0.546321434647575,0.546898293913342,0.54758012213256,0.548011738827102,0.548367979325812,0.549555471023255,0.550948648149377,0.553054136640581,0.555197938729148,0.559524182271408,0.562512515508656,0.563733394531692,0.564498319928154,0.565617193265049,0.566837729570027,0.568588288833998,0.570376667892805,0.573563212756003,0.575556925630758,0.576870132320477,0.578082093968972,0.579394587287276,0.591890105638993,0.604028158392434,0.603411818137573,0.603682339557321,0.603730140983829,0.603935674447891,0.604754182492727,0.605288819905388,0.60623745816785,0.60693456807965,0.608035893242503,0.610283798481435,0.616361077098154,0.623205658844302,0.627753903118328,0.628461117375883,0.629867946047338,0.631428431869527,0.633381769884964,0.635261026792573,0.637293724946171,0.639416910586744,0.641479565199518,0.645475868395485,0.648455220424509,0.650051849774248,0.651538118826306,0.653304226302972,0.65580643887022,0.658878619566322,0.66278710656771,0.664669505269403,0.665781698974991,0.69366722502722,0.742918248320025,0.79785014864384,0.805221731837427,0.824267111766457,0.851770274095665,0.881723784641168,0.914388602165343,1.08319915469733,1.40310721782329,1.40303689956819,1.40306700845965,1.16407799895998,1.09392069325904,0.87255159665957,0.837029143139306,0.763589899200515,0.766290172559128,0.769668533090463,0.771158577582998,0.772411108885512,0.77447487393658,0.775122354972663,0.775457336001949,0.773664634711217,0.772339835827421,0.772626777194744,0.773563745086332,0.774681774933148,0.775975766693947,0.77635257799616,0.776711213014686,0.777383079477912,0.777942075408785,0.783544732726783,0.792572595765845,0.792746403152303,0.793033442422302,0.792366275005588,0.792424112309352,0.79226168174189,0.792537312952843,0.79368632318815,0.795318448799223,0.796332575511393,0.797470038139331,0.799485622885593,0.800762883473901,0.80096119743906,0.808572055415417,0.808751836764464,0.807859256303119,0.808558541720722,0.809882725316251,0.810940183491205,0.812232959065634,0.820665027838073,0.819691914188565,0.828802765747546,0.829308760270501,0.830201883262784,0.832543420985766,0.930894513927674,1.13512135778557,1.13461661125412,1.13445995438412,1.13403329173588,1.13275126046294,1.04765942333553,0.970611353127104,0.935453740656135,0.875632894808905,0.877733147820919
0.409911000000003,0.419231245802563,0.418802000000051,0.419346264849882,0.00403908,0.430225768845929,0.430764586400553,0.432834252982036,0.433348004263045,0.436085450441527,0.437196935614911,0.439406642274876,0.439316846877901,0.443553921638311,0.446544063268315,0.449149429896415,0.45148887366171,0.452182270893993,0.462492350146623,0.462527812366156,0.46294234124245,0.464326862170513,0.471825429819677,0.47209732457193,0.472493818545585,0.479114530827654,0.476859757339129,0.567737897310109,0.803554,0.565020760129999,0.495176715743669,0.493438265783148,0.0040153300000004,0.145662682872812,0.541586166554248,0.541597345858212,0.542355894793096,0.543303189558224,0.544740197275177,0.544646403961836,0.544965577811138,0.545388518459876,0.546201679060618,0.547239342104047,0.548804972879893,0.551157368113461,0.554253327490991,0.556546594044266,0.562883245707735,0.562970396424915,0.562988648031028,0.564746002476719,0.565493109048996,0.568004477980267,0.570175318077385,0.572036353029817,0.573214850527274,0.575091479006442,0.576014384287162,0.578320152480887,0.739343,0.603227302541709,0.601816788828764,0.602971443670951,0.603313442029627,0.602340018217192,0.604488638270574,0.603883398013323,0.605328328121177,0.605473633826921,0.606575288154457,0.608218057113746,0.609988023561929,0.619626250051227,0.626411972795472,0.626234392322201,0.626364384701147,0.628869329574666,0.629585527208286,0.632833367486354,0.634962708306288,0.637102720137149,0.640073330581233,0.640441159274767,0.64042192656068,0.647479848669923,0.651139182270127,0.650575527978098,0.650911875517964,0.652014455885477,0.652431265692759,0.663177971263356,0.663959091110462,0.701140091412189,0.818253999999912,0.786105213978761,0.686419999932748,0.694585320478294,0.689109142765984,0.695403740988234,0.695123843651306,1.05326467552049,1.40212344364717,1.40256378265487,1.55232,1.19831011085452,1.41065,0.837071599925165,0.739818309316048,0.752515898467241,0.791430999993562,0.771831517957886,0.774216537954225,0.773519400379896,0.773926778979335,0.774307007997867,0.775935608273259,0.773563773298112,0.771986028958068,0.772143067293239,0.772889230049523,0.773257103712535,0.774486982784541,0.77399958049621,0.774125452613123,0.774941141333433,0.7757570041313,0.780749797480398,0.791572576897802,0.792257622579185,0.792907738779802,0.790991767327035,0.788423353647938,0.789390959825128,0.79046030361312,0.790533037448597,0.790506335191368,0.792953421088255,0.793995796481632,0.794063923346267,0.793906113552662,0.797169278471562,1.06417,0.861876747847887,0.803850594347879,0.805451952301106,0.805025073171329,0.805547409309239,0.804351851060807,0.819392437248439,0.815758036964008,0.825408524235184,0.822713098371768,0.825103844682114,0.822781028990636,0.945575775215387,1.13501381941544,1.1344345853053,1.13488506206748,1.13346040363355,1.13153768524106,1.07367078322064,1.13318999999997,0.953287585364141,0.872385115406025,0.875596495015135
0.421699625957449,0.419943910223525,0.419627136618784,0.420282051389934,0.423208395140376,0.427710734678236,0.430384815106469,0.432661044675501,0.43429022763523,0.436126335087193,0.437076582845238,0.438245330058143,0.439160529799161,0.441106884149303,0.444488874855339,0.447370516348607,0.449437441664975,0.449687364262867,0.462482998267927,0.462826007650152,0.463300131506927,0.464566345604222,0.467651318285577,0.468793676515717,0.470128916870736,0.479606326564871,0.555676400638475,0.602793308958977,0.638144579060573,0.600378944193839,0.564114977028347,0.540426412306514,0.54029448658172,0.540628123416926,0.541020893783882,0.541024597662108,0.541503386717941,0.541663041560062,0.542402946331768,0.542329642215875,0.542410513726214,0.542776115126601,0.543887256644045,0.544639935517628,0.546307250553251,0.54882790324961,0.552343349263162,0.55434534466013,0.562540150174881,0.562788560268298,0.563085663471723,0.564289706595685,0.565881464383114,0.567618576756142,0.569467589149238,0.571058192267005,0.572606613107609,0.574052567719441,0.575702183969839,0.577640480923403,0.581784345928201,0.585627883271468,0.589149646573662,0.592440268861513,0.595041906338861,0.598265283739305,0.59920190262172,0.600863782810563,0.602020864302309,0.602770752158348,0.60458384677389,0.605431486014547,0.60771099817846,0.617259192328877,0.619087506872617,0.623776638177986,0.625089200272867,0.626771847915792,0.62872438023523,0.630289005052885,0.632973116366363,0.634905054677315,0.637308423055112,0.639021893657422,0.640590177551019,0.643911495818713,0.645890698091321,0.647966839587173,0.64948566793002,0.652267654702583,0.653519030619857,0.66100290039842,0.661651822046815,0.702544949822264,0.78723760565739,0.770189339839861,0.713988655171128,0.706262620777398,0.692366153084775,0.695458443941632,0.696556066832981,1.03909470562663,1.05968126383953,1.09374208587646,1.12803791129624,0.888693590653146,0.837071599926673,0.801681259093869,0.744139651890046,0.748413841831983,0.752579591448849,0.756434159642321,0.760369510702272,0.764305412495941,0.768205624185831,0.771733052849619,0.77507277604111,0.772247336923397,0.770935267131303,0.770725499030267,0.771007042810557,0.77106946959276,0.771389122658626,0.771556680378707,0.771746192032127,0.77306508304833,0.773939553574864,0.778536536830234,0.779600435529542,0.780670468802054,0.782039983950256,0.783388256067889,0.785917461294134,0.786183045183337,0.78692737465479,0.788553434612089,0.790349456418147,0.791843032875661,0.792664630689547,0.793190134242337,0.793265211192933,0.793513069769203,0.924748786578828,0.890156954621481,0.802263189154887,0.80315147125387,0.803615560321816,0.803852515906896,0.803524301441442,0.820793256688935,0.821970120981013,0.823892351354332,0.824052241346935,0.824618196763147,0.824077132275539,0.958990661337325,1.12897261743892,1.1288711954164,1.12829697911634,1.06935396848094,1.04361636739474,1.01863435224407,0.994591299257914,0.971641470194022,0.998257710731336,1.0261840382183
1.1883,0.556467680415804,0.885475,0.622869354128326,0.895469,0.515036030454567,0.417664000000179,0.499632469504087,0.889247,0.436716372584856,0.436197562318779,0.437252638816867,0.437458792377802,0.437908477918538,0.437190028588674,0.437534659107559,0.438670356285212,0.447897097667175,0.461621657091756,0.462510083643746,0.462605804723492,0.46354286509757,0.465543009625607,0.465914989198424,0.465980609028888,0.480783567388795,0.739202,0.638144579057669,0.751643,0.635811091114676,0.751122,0.54015379176428,0.53947245134674,0.540257300207376,0.540706491298941,0.540552087378796,0.540961289756161,0.540534484574944,0.541101414049453,0.539787075358005,0.539988367491733,0.539739421601819,0.538807610752693,0.541531379582888,0.543088261010898,0.545109299959294,0.552432048774602,0.553198615056015,1.28862,0.562452178389678,0.561851593384112,0.563661292552177,0.565905596646241,0.567243368369509,0.568807294595443,0.570350110092856,0.572041942256511,0.572982280580564,0.574711777504163,0.575889082987501,0.576239200551854,0.576927593001045,0.577921445012724,0.592506644345855,0.594494383536129,0.595876956602125,0.596516215345624,0.598099330456092,0.597748301839455,0.600017704451767,0.599078673218533,0.601828162585555,0.600374687418018,0.612913569782485,0.611823740602909,0.622364528061074,0.623228384527704,0.625527921137872,0.626782358532421,0.627828412499588,0.626402338317968,0.62875680116489,0.628275359132547,0.636720762700031,0.638171921557022,0.641008698669544,0.643668578675263,0.645295642759116,0.64666198020758,0.653437040553975,0.655041326201163,0.658667357854438,0.660037112955771,0.70493572474675,0.85669,0.751071716469144,0.727572791304328,0.713981421295019,0.00408194,0.697293407797228,0.69893870791944,1.00115691600136,1.00080874316735,1.05996947242912,1.94832,0.854232531327769,0.718776814951099,0.732209549806003,0.733387157067002,0.741205780894572,0.743018625128598,0.74313379736192,0.744431858114213,0.747670215706164,0.751272639651563,0.769248952519852,0.780305873060499,0.769592451737499,0.768580094538113,0.768824714077672,0.769497973505529,0.76858743746378,0.767408831102327,0.768723599040394,0.769284552851871,0.770564267722929,0.771312084144773,0.776627216688054,0.781434792843709,0.77987746148468,0.781926331362575,0.780534073702386,0.77991925457137,0.780182305823981,0.780735460678595,0.780076839004251,0.780266667836289,0.780329333547614,0.781824322687862,0.7843934193309,0.78773435514828,0.790362197098386,1.08323,0.920245211390453,0.799535380768165,0.801184605904191,0.801327972738451,0.801965109465777,0.802182632786392,0.878817880027379,1.09999461822151,1.09863216306604,1.12337,0.915581873977703,0.824586332717588,0.971403317304065,1.12858315305055,1.12841028183846,1.12720456960143,0.95230356001621,0.851685515216494,0.851555159625077,0.852437533077673,0.941448387192496,1.15431,1.06004590223351
