0.75641301320171,0.778507352843166,0.775801083397128,0.790684869476502,0.790299841748623,0.825631999553642,0.804731580376086,0.804685961038671,0.802957683658183,0.833052105862691,0.834480503211078,0.887028978766365,0.886677417957058,0.928040999524794,0.913083167466075,0.913236324403442,0.915916198232017,0.918490643066729,0.919318800685512,0.917694901692098,0.944239609413033,0.96415686680438,0.960814506111922,0.970131720127972,0.967259871888287,0.988123765059119,0.995440420505049,0.99451127146524,0.999791042737955,1.00110831792635,1.00289088484402,1.00580480880309,1.05678713542559,1.05958737526036,1.05999367609331,1.07222936433514,1.0684534153545,1.14717999999898,1.09324337852433,1.09986328008075,1.09726604384013,1.10271369157738,1.11545056043423,1.12618558626791,1.12554924361881,1.15506999924765,1.13907127726197,1.13854997822544,1.1382096618677,1.13848735144841,1.13980987721324,1.14204203795622,1.14064109844917,1.13990266837001,1.14104042164906,1.14603307517523,1.14397127172888,1.15475822579394,1.14881425800264,1.14928121663206,1.14623766309599,1.14373251231965,1.14685107159693,1.14998537297371,1.16117021924368,1.17923854102175,1.16902655848585,1.14320871927517,1.14725110124194,1.13373999349804,1.14282142311745,1.13538494072914,1.15222597905213,1.19187999967132,1.15341894526167,1.15248562125238,1.15289945837281,1.15246941137817,1.17201492300057,1.17471126121396,1.17599837378844,1.17749718998086,1.17828094696815,1.17943786434089,1.17954116119246,1.25628999999942,1.24052429205677,1.24594001110355,1.22320148079944,1.29170999999955,1.19896677882139,1.19975592123615,1.19032047889955,1.1873889060531,1.17822305329825,1.16172402194593,1.16287291709366,1.16608413791488,1.16500527790872,1.16505600995359,1.16826215872888,1.16858447132374,1.17465599253174,1.22445001077346,1.2184847085311,1.22618000872497,1.18093982150923,1.15244094494989,1.15339749229138,1.15273688172067,1.18798869019901,1.19203230906902,1.19110207356633,1.19140012667642,1.1901248090868,1.18731317351707,1.18832214422976,1.18760564756066,1.18734221073639,1.18860190635234,1.18877047791072,1.18864630280032,1.18546638345453,1.18172178864266,1.18114034690828,1.18016416638028,1.17647970000627,1.17276386807291,1.17376450748602,1.21869627000149,1.21834767054345,1.21946853353245,1.21373292053224,1.21069999859872,1.210204752083,1.20951363100779,1.19830465300636,1.17250068447628,1.1908913461237,1.20768267978519,1.19409165672123,1.18540513151156,1.18816258507658,1.19127915723053,1.19184460724165,1.2049200236692,1.18042801251213,1.17788604141468,1.17649571073782,1.17696826293663,1.1731615815322,1.17234684600229,1.15292670504844,1.13415253894358,1.14456676065788,1.17032450255986,1.15422962695346,1.14966703105829,1.1520229618234,1.15303082990637,1.14027331332654,1.12979112395022,1.13154150886769,1.13373779022001,1.1380152025358
0.727819512082574,0.74096700993126,0.753687496025037,0.764792730110453,0.773760975536443,0.806701780976467,0.806010482756959,0.805590142649465,0.805105184049555,0.817955490547639,0.835000418048177,0.886087926495339,0.886244178307505,0.894170783415759,0.898956530817738,0.904826232570189,0.917987516616417,0.921094946361712,0.920928999764773,0.929766648182126,0.945451055318007,0.952800320521054,0.955716199532664,0.959748585972404,0.960416021106233,0.991535867195689,0.994471189653507,0.995943860921075,0.998044670440394,0.999136860940659,1.00018467907808,1.02980294179127,1.05483922299905,1.05674995677847,1.05787946532551,1.06242303485986,1.06657197815123,1.07133090357264,1.07551419294581,1.08110946233325,1.08428962824649,1.1104971833944,1.11732096385056,1.1243787714324,1.12467115749565,1.1399795331651,1.13962813372218,1.14005535160116,1.13902096968464,1.13797031698602,1.13842504880438,1.13912943356442,1.13931668443068,1.13979262929638,1.14056060513198,1.14192588268899,1.14262371450952,1.14365952322282,1.14541824262307,1.14614483455691,1.14550986494516,1.14560898185324,1.14652512085293,1.14780739475076,1.14752325693934,1.14854619613032,1.15087791252084,1.15232680773896,1.15146025979202,1.15248725570347,1.1526114503742,1.15193314074511,1.1527686738984,1.15291943149342,1.15415477383007,1.15447672096757,1.15358063351384,1.15278815522718,1.17416772656557,1.17582788006114,1.1769159851266,1.1783333451568,1.17953539286138,1.18110982049354,1.18083141690775,1.2419276244721,1.23538847495829,1.22909419586454,1.22132227474857,1.21210000658831,1.20190650645415,1.20266175933664,1.18271927185263,1.17862758151342,1.17149934005216,1.16140870412653,1.16140244648243,1.16346344147688,1.16432662204616,1.1645083156913,1.16789089598035,1.17955045501833,1.18109797722546,1.20667239227212,1.20507405485952,1.2033443730339,1.18625034406644,1.18076288403996,1.17129935683842,1.17109273505647,1.18553089160112,1.18573764310569,1.18802341622259,1.1893821296764,1.18789004433008,1.18672075497839,1.18675879813721,1.18703969001925,1.1851512190591,1.18318331886643,1.18203477452739,1.18111411742946,1.18065364047144,1.18015146815911,1.17902302132146,1.17755051978274,1.176101189552,1.17429393936682,1.17403157900032,1.18468986947895,1.1931430101722,1.21549276729804,1.21223757559044,1.20974447598782,1.20912035982727,1.2087234742392,1.19131389281339,1.17069075788404,1.16920473044321,1.16781983910532,1.16676529152535,1.16620924589626,1.16610598201021,1.16618911922092,1.16613492515298,1.16576887928236,1.16515017224979,1.16448363851523,1.16394709838321,1.16379213563818,1.15772978267368,1.15338450358636,1.15040539058533,1.1365986311399,1.13894488845562,1.14082971066518,1.14189416670463,1.14212962323509,1.1417157998004,1.14114814345003,1.13736322551664,1.13053587435187,1.13077953861587,1.12978212350247,1.12853316243135
0.694762062376412,0.680178011422203,0.706788468215756,0.724779000000346,0.754205484893733,0.80739113677167,0.807093522036855,0.808122667700535,0.807234044126522,0.809925123427795,0.835142864643674,0.885262517948079,0.8863934767471,0.885415939750512,0.88607224683268,0.884483287218076,0.919760892167756,0.923966506933158,0.922517551338043,0.936531331846671,0.945832340893621,0.949610092555875,0.954005267932033,0.957186475229475,0.95807504990661,1.00921002200331,0.995464427249054,0.997018442300888,0.997213109484061,0.996915540213699,0.998379369798895,1.05174431593017,1.05244102348169,1.05374728845125,1.05269543153471,1.0533872235545,1.06592083288163,1.06577673777851,1.07324334264207,1.07610876109867,1.07984602652305,1.12207820007457,1.11908850345299,1.12272932530594,1.12396568347493,1.14037742741878,1.14044810176221,1.14322768299986,1.13972720405024,1.13602160257559,1.13669115113891,1.13663009786537,1.13768588314744,1.13909870465349,1.13923943325141,1.13852688792123,1.14115469009671,1.14242680529715,1.14352896587159,1.14302582785193,1.14472990175965,1.14556308717012,1.14645600134935,1.14732120260409,1.14734711513734,1.13363000052929,1.15261643767158,1.15499250183778,1.15400882334636,1.15358109698588,1.15310989290992,1.15114036304387,1.1529787383645,1.15179339999862,1.15634010680398,1.15738742391255,1.15444506016713,1.15246110478571,1.17423403566755,1.17698834499566,1.17757810787278,1.17832845137418,1.1807681240179,1.18393999633941,1.18218691248625,1.25240999971963,1.2199856516694,1.20472135127406,1.2053224754,1.20606573712832,1.20478581050186,1.20682539842012,1.17808493369871,1.17168088824618,1.16519689226706,1.15499287392847,1.15626256695997,1.15574068053702,1.15390735229345,1.14982346718364,1.16761105523642,1.20461151391615,1.19132810004264,1.20865055143576,1.20624120715486,1.20122363847589,1.19249974600605,1.21324999958114,1.17166126232825,1.17109286875309,1.1828091305737,1.18309074451269,1.18675685666519,1.18813691095573,1.18655725304289,1.18299143173191,1.18568095092395,1.18877505140302,1.18002704490477,1.17496252177372,1.17618595036203,1.17580252912171,1.1689158820968,1.15621740119093,1.15347728099785,1.15108879896588,1.15080833672928,1.15133501259413,1.153178776181,1.15571513042501,1.17639073109964,1.29569999999987,1.20956704950072,1.20699882338535,1.2078797184259,1.20756472512383,1.18380962109202,1.17032112390968,1.16691572267787,1.16416697212774,1.16419630559174,1.16425563561123,1.16453775426956,1.16583627419326,1.16276662368075,1.16168092968138,1.16185095828813,1.16362897091466,1.16373003242201,1.1637464302936,1.15309026985232,1.125508312451,1.13104084123276,1.11580665886247,1.11762879951319,1.11567210288108,1.13445909424929,1.14228829783407,1.14148079191164,1.14022824543927,1.12497658679983,1.11347290744709,1.11225259465709,1.1098580828476,1.10966813530086
0.663886615847503,0.670882968960981,0.695663086871002,0.708622458607594,0.738120654235597,0.753202190421822,0.775234145275705,0.805425148710328,0.806197063627292,0.807202174356656,0.835021973703472,0.887372416945951,0.888931458443442,0.889337149260498,0.888710886675475,0.905601084310537,0.921220213483076,0.923266182076179,0.922833165415223,0.942255140213046,0.94503117495113,0.949564385854264,0.951771093022332,0.955229699374965,0.956823460833125,0.971476514187252,0.984396356534084,0.996519368176464,0.996908633642933,0.997198371350774,0.997571835755164,1.03506951877828,1.04958742532303,1.05029822802186,1.05079030574458,1.05197545091101,1.06587020204081,1.0660054964121,1.07091727628952,1.07329642446227,1.07654629332659,1.09701183408767,1.11583152301807,1.12435552682116,1.12446769808481,1.1277375511864,1.1336002378312,1.14230533586947,1.14082442340801,1.13892458559315,1.13576720980897,1.13471737713247,1.13551841548308,1.13650395910828,1.13832459472268,1.13919035367662,1.1403557542525,1.14136130089119,1.1422381323455,1.14301285351211,1.14366387356142,1.14437257242564,1.14595046250722,1.14696570273367,1.14783997472477,1.14985116465535,1.15240603456876,1.15516680719641,1.15591404200911,1.15649624673764,1.15733258672049,1.15774133909568,1.15895727183015,1.15953009262573,1.16013678773786,1.16182006498865,1.16510673596047,1.16940662469192,1.1739437276747,1.17616096164529,1.17739509994345,1.17867188442443,1.18048157358017,1.18164627949476,1.17822415956844,1.17412317765877,1.16988688368825,1.16618413650094,1.16324281555119,1.16104240414805,1.15935471920483,1.15790419228732,1.15651239945031,1.1551624080263,1.15388725722724,1.15364727128205,1.15421974790244,1.15420352513457,1.1542931031152,1.15511492863014,1.16744887657416,1.18053240980775,1.18566668317665,1.20835343145391,1.20678608293975,1.20547325379508,1.18511483666464,1.18329234426323,1.17262019462439,1.17376591890238,1.17835414584875,1.1857061107974,1.18624793426201,1.18750141874197,1.18513953785579,1.18354427306881,1.18302580337216,1.18146259751915,1.17956826080549,1.1773921111726,1.17665034346431,1.17614327817141,1.16287620627361,1.15459472090338,1.15314547820348,1.15140999996754,1.14985834452758,1.15057395308005,1.15246067703472,1.15446754424142,1.15996440169492,1.16625086669151,1.17377725658124,1.18179525097102,1.19119140772644,1.20093010118752,1.17659588491113,1.1683348590771,1.16600172091008,1.16408251052363,1.16396877056404,1.16414749624154,1.16343255888831,1.16329819307461,1.16076339003056,1.15908977749464,1.15535688853304,1.15197683988191,1.14876615658354,1.1451612284248,1.14250920008271,1.13854409912739,1.13532232906302,1.11952715629338,1.12119938765452,1.12331329538819,1.12165031112744,1.11823181870991,1.11549254247416,1.11357115256193,1.11269875700068,1.11302152281061,1.11333523850913,1.1125537705915,1.11153481763695
0.645133644132886,0.638302813341681,0.681884108324988,0.687415537001325,0.720616074551679,0.733208000023461,0.754831456453118,0.802877545441218,0.804856451274255,0.80557201842376,0.834738356682412,0.894642581632479,0.892281051470816,0.894947784459866,0.891358300784918,0.922894949062031,0.922435462359952,0.923100028361307,0.922894911991046,0.944873162878497,0.945785699084158,0.946921757288775,0.948838904415415,0.94781466313393,0.949331663609412,0.947288713204973,0.976316870624828,0.995705948749681,0.996604626228875,0.997221163933316,0.996447153592663,1.01959000068266,1.04606974875488,1.04056066693329,1.04823013121826,1.04349335245284,1.06468939345638,1.06528211936519,1.06685991151649,1.06662032313757,1.07443401633725,1.07871107643908,1.11239490322158,1.12592952416654,1.12454742012895,1.12298122278023,1.12809424121389,1.14320367109807,1.14242042325275,1.14312088297283,1.13275414680947,1.1310291834005,1.13317730347105,1.13287363106482,1.13837327272169,1.21916999999927,1.13997016289647,1.13989668209956,1.14155578579196,1.14242557995132,1.14280427175345,1.14210243785332,1.17195809424308,1.18895988257559,1.18836587479995,1.18700970248499,1.17037408783292,1.15740419303875,1.1581110224709,1.15938236348766,1.15993710691914,1.16419494361279,1.16235852154134,1.16519181204816,1.16309025006101,1.16433554755863,1.16439785120052,1.17735353734038,1.17602297384273,1.17605406475312,1.17739032379944,1.17784858709661,1.18109800235122,1.18323698748301,1.17138853248479,1.16615162281395,1.16033483733155,1.15055817881595,1.14941144697678,1.14850968855195,1.15195499445623,1.15583601136624,1.15369306287515,1.14415892510562,1.15300033268863,1.1505698217614,1.15251320898395,1.15240830441246,1.15437190328506,1.15619984700863,1.16716409788299,1.16642282581919,1.1824157538599,1.21518409772905,1.20721965150272,1.2077585274686,1.18095658729378,1.1610398948447,1.17244249032693,1.17191123292035,1.17757940384048,1.1883381045906,1.18661469444114,1.18961526150113,1.18333576965916,1.18151116939557,1.18173001612384,1.16575701450393,1.17139041447301,1.13908000036048,1.16889990165601,1.17558935200724,1.15370302111308,1.13958109151911,1.14111679797235,1.14362110830245,1.14659272597074,1.14836374025614,1.15168057174114,1.15521407842429,1.15769395580061,1.16017447593528,1.16196737803576,1.16378409492002,1.17454271148622,1.21280999958731,1.17035850571216,1.14999996671007,1.16450760374005,1.16175801281352,1.16357090574842,1.1645050666452,1.1625330098256,1.15527014809193,1.15799150898847,1.15760754468172,1.15474235927377,1.15144405759227,1.1498884029478,1.13514015712846,1.13951847759286,1.14231264566805,1.13685998211003,1.12016218593523,1.12452137620589,1.12920683553049,1.12290132277491,1.10412026958707,1.10627187383834,1.10593472314306,1.10775947061679,1.10402749920422,1.11379958678948,1.12235272759959,1.11105362467418
0.629456602420043,0.633803432935908,0.676045767025403,0.695262229972955,0.709205600177605,0.720831104372489,0.74130425859737,0.760323774964789,0.775799266898137,0.82739481569097,0.834294281162463,0.84083147588942,0.85134928562607,0.86192729307738,0.87201248844911,0.881062517535908,0.888988329334693,0.898713708324753,0.907253003706614,0.916172497368266,0.924552352903353,0.931700731191016,0.937851830101542,0.951396592423974,0.952232927742415,0.953159480785616,0.969360583836135,0.974625271881638,0.982841797271264,0.992105717990397,0.993896205942397,1.03486374699108,1.04722865323857,1.04886320898258,1.05112347710487,1.05390965034772,1.06321228501835,1.06423017846858,1.0652662033743,1.06551004938031,1.07112808811297,1.08868905217559,1.10870286504888,1.11450143258665,1.11716059338037,1.12195338100385,1.12379514025605,1.12597616075366,1.12798416359959,1.13053200773424,1.13168019514691,1.13184361114608,1.13336555548601,1.13619188533538,1.13820518735589,1.13894599311914,1.13951463634575,1.13972726792295,1.151010047416,1.15671636168383,1.16034327522528,1.16599498206777,1.17322832312959,1.18910896137261,1.18874375741571,1.18815695469077,1.17642046354444,1.16907701962496,1.15950563797467,1.15826588268196,1.15917077120242,1.16097652184147,1.16149248399691,1.16239115863408,1.16236028446783,1.1630104668585,1.16308579253255,1.17674072856484,1.17664020388279,1.17728805238942,1.17800411429607,1.17947669040123,1.18258255461565,1.18288334976966,1.1640153535669,1.1605031597683,1.15743532312347,1.14984179473476,1.14878376217269,1.14965581837119,1.15115143409191,1.1513576093699,1.15130604271599,1.15283228491431,1.15424560313409,1.15668159259683,1.15885419536036,1.16110791313346,1.16390776927365,1.16748922975807,1.17207011357654,1.17765371886474,1.18045793678395,1.18112760612136,1.18125484512735,1.18130216995624,1.18095390252111,1.17158466120379,1.17254624421706,1.17389951885153,1.17607869699731,1.17837024424685,1.18237730373093,1.18537558056864,1.18225532259195,1.18031949133323,1.17993384379458,1.17883924887441,1.17611770677632,1.16698635094901,1.16137124661834,1.15564599320763,1.14894420272488,1.13978337291325,1.14013857733187,1.14186300290137,1.14415539546954,1.14676079854852,1.15040916436335,1.15271141444662,1.1550045521583,1.15742357999697,1.15983441025868,1.1619788766192,1.16370659413237,1.16499937127428,1.16586395542318,1.16577016678637,1.16543572453814,1.16447050021342,1.16352784346447,1.16183843024164,1.16033003820722,1.15806645465577,1.1571519239838,1.15621720349058,1.15352524072303,1.15097243679256,1.14968011082711,1.1386739443771,1.13977547132852,1.13928102546062,1.13714265738765,1.13306712441937,1.12760366044675,1.12554587077945,1.12332115041957,1.10521037722439,1.10832681626406,1.10925810146004,1.11140349162888,1.11341394054822,1.11331202959866,1.11151489089449,1.10975547034034
0.61750407019827,0.618021560908839,0.668233942105448,0.70486689737083,0.695801353428708,0.688299079017136,0.688624766677465,0.689547702678474,0.751582441233833,0.842943239194834,0.833717755288108,0.833085977361107,0.832436105225029,0.831710709631953,0.839947558653318,0.848734001665933,0.873744547383345,0.892645011692295,0.889994656834076,0.887394090687612,0.887360634541766,0.887366065334463,0.928000350312282,0.957200826092677,0.955196156037943,0.956974084039158,0.957732178086668,0.958901943900236,0.975785235444406,0.989447040552198,0.99210498117989,1.08065999999944,1.0592183758821,1.07417999947532,1.05426421465239,1.05642764722061,1.0601412176134,1.06330332931843,1.06432822952198,1.06387304224017,1.06800108910923,1.09868343020842,1.1045042847323,1.10917570452713,1.11448303758768,1.12218456801404,1.12178486083872,1.11998763941282,1.12731160085072,1.13230669124679,1.13177841512592,1.13148779514389,1.1323464396048,1.14033015044494,1.13921696028184,1.13918539110828,1.13938331172088,1.13968183179586,1.1571466249792,1.16254003174269,1.176282556136,1.20752961112426,1.20601506872562,1.20416999471936,1.19399192959061,1.20399008515331,1.18886903495422,1.21182999986951,1.16175283462961,1.15482924933193,1.15764628068814,1.15906484909726,1.16030528991162,1.16042938127888,1.1611393579345,1.16137983797679,1.16144601205013,1.17712070270918,1.17738962158549,1.17839649079309,1.178126764995,1.19153825487086,1.18705389916256,1.2015299993389,1.15586854343506,1.14984793199272,1.1494509866096,1.14954141850738,1.14562876132892,1.13891448183755,1.1391542075232,1.13861561749235,1.14713350728614,1.16129084889899,1.16583760985018,1.23454999999875,1.19520528261969,1.19746634966678,1.18425215491476,1.18182552561281,1.18174953738952,1.18038880818445,1.18100325677351,1.16442995066639,1.1811774521922,1.1812516727592,1.18021271479754,1.17015901657083,1.17245603291883,1.17427971919523,1.17520003740004,1.17651983547192,1.1794498788867,1.18823033955566,1.17961783170713,1.17672132947636,1.17882250993395,1.17952512658135,1.17881942577678,1.20895999999882,1.15289383524062,1.11810452925936,1.13234254243299,1.13630561184028,1.13792643441413,1.13915921356647,1.14144267814197,1.14371712238688,1.13880839929202,1.13621676516469,1.13527337922189,1.13365081903501,1.1349021249388,1.13366036209555,1.14440646755468,1.14628497742623,1.16640659988566,1.1810400506158,1.16713450846309,1.16682756989065,1.16553296627612,1.15725961968666,1.16017726254982,1.1584292050622,1.15697358381223,1.15595347695274,1.15361090540581,1.1480347489568,1.14892639274517,1.13987656561123,1.14131897375597,1.13828566241299,1.14261321005893,1.15038829702166,1.13032033220496,1.11909471787581,1.1215631791684,1.10325430719047,1.11323216718076,1.1182296445177,1.11546605974614,1.1154767035523,1.11393840843743,1.10285325023414,1.10653666003914
0.617243053158551,0.644697080210066,0.657660627065185,0.671050166494386,0.683753691106823,0.687118474503999,0.687761082514585,0.688732316918982,0.716175933240457,0.734388505574791,0.749716794415591,0.76661421040188,0.78130483246181,0.795922980462025,0.80883089896016,0.821670182756211,0.834310542453486,0.846937060213935,0.85960782141269,0.871520262597874,0.87818762695316,0.906897233697551,0.921176041509076,0.927608822167768,0.937171236499635,0.95182808443611,0.954537372330839,0.956840095728274,0.966306850263994,0.979612355161195,0.982103591390018,1.00258249790025,1.02464046908092,1.05288961171091,1.05493767788789,1.05729262047684,1.0601839670885,1.06245390301935,1.06421819766569,1.06539238313936,1.06688390287813,1.07346443046578,1.08230118384198,1.08859272159634,1.09558707616402,1.10374077070417,1.10521944503341,1.10785645306157,1.11106313717543,1.11486601099241,1.11904739349138,1.12330690193118,1.12740711310123,1.13123569695167,1.13473621983728,1.13760800855251,1.13897921292731,1.15016580591367,1.16249304785755,1.17113954135289,1.17882392218492,1.20696949323039,1.20617843231954,1.20529113729981,1.18836264929025,1.1826849627531,1.17574007365966,1.17054570693261,1.16318802756383,1.16369877152956,1.16333196540553,1.16235394469984,1.16126324056611,1.16056239298967,1.16048544213746,1.16030483501942,1.15954842085028,1.15830200292082,1.15762130245831,1.15726640626875,1.1570626295352,1.15686778444087,1.15553150928035,1.15401334101724,1.1521467417177,1.14982424923289,1.14690574725851,1.14316693113601,1.14173895655915,1.13940531322946,1.13886478670987,1.13856483087831,1.1432179302376,1.16948101610558,1.17376157318795,1.19752377689691,1.19393897915763,1.19161160946689,1.18653509507049,1.18383244839179,1.1828483138963,1.18240334550313,1.18160233365772,1.18114436468636,1.18064761474137,1.18012931934957,1.17851801079426,1.17175688722438,1.17187315172507,1.17239705860482,1.17286307435106,1.17418034499864,1.17593872669677,1.17715030646895,1.17766157070222,1.17776780552099,1.17859884411527,1.17911717434638,1.17896792325933,1.18672260639004,1.1480764312368,1.12445956542761,1.12822523257759,1.13220750510459,1.13628983897005,1.13898077322908,1.13820733429034,1.13743698035582,1.1363524946158,1.13574230030338,1.13572430505444,1.13598041650899,1.13669452516744,1.13803771923502,1.14284818929332,1.15507694630756,1.16637830928625,1.17022856969736,1.16920546845357,1.16887408078349,1.16722588459837,1.16614807830072,1.16305950247075,1.15908910274141,1.15587575383711,1.15461959432423,1.15230259453635,1.15030934956343,1.14849689989008,1.14675931710755,1.14617297605497,1.1470436075246,1.14723637464929,1.14899572584153,1.13208372598571,1.13070391967919,1.1293515912348,1.12735908353124,1.1247084827736,1.12031098386249,1.11686679046811,1.11505644838962,1.11325429620382,1.11077078062495,1.10756583961751
0.617206951135795,0.685162999999051,0.643988865915867,0.629351167064859,0.680405724439985,0.685025256364817,0.686438242829974,0.670196000418488,0.68657429615055,0.672945000282748,0.713532084650142,0.704636177789466,0.753971802210794,0.756146734917058,0.771064802441633,0.783984999445397,0.786061908776722,0.799617999834758,0.836658214582146,0.836917710172169,0.867048907257733,0.922955022925682,0.914810697088847,0.898584977282464,0.921140777579107,0.949015534958603,0.94742196655477,0.945978743567136,0.960956829954329,0.972476853418627,0.976907001879341,0.981454394567319,1.00651566092524,1.05051305354375,1.04289060438393,1.02901995033612,1.03866363732161,1.04381144759017,1.04830684603067,1.05311803888521,1.05335626637433,1.05476477615815,1.0708146210274,1.08372998872368,1.09309324278047,1.10240316558367,1.10436169238177,1.105595756305,1.10885605468886,1.11222365474733,1.11277058605402,1.11327181516045,1.10481151561815,1.0953927775107,1.09640542721569,1.09563842648867,1.12539821523043,1.18992999948478,1.17213208515999,1.37162,1.26698009317153,1.40719,1.242258334024,1.29137999999951,1.16840100827997,1.1588100248608,1.14823781998924,1.14189431557293,1.15137766663599,1.18802001151324,1.17649914690842,1.18554055181309,1.17554304829764,1.188200028338,1.17895479976312,1.19051000824793,1.15826440443826,1.15482593007121,1.15563954128395,1.15617674573216,1.15706689942432,1.15795108714561,1.14213923425377,1.13341731274907,1.13433484706742,1.13386796624643,1.13666492480961,1.14033591690808,1.13935753290807,1.13604501202823,1.13770485216617,1.13690239392797,1.14064347276116,1.19869003000885,1.18550849636596,1.20146476321106,1.19165685046521,1.189800163215,1.18819097817785,1.2031799988851,1.18352388653822,1.18444255520944,1.18198753968865,1.18086234616895,1.18041485968301,1.17994091625746,1.17870764740626,1.16810574771645,1.17085068654962,1.1691439968425,1.17042027108543,1.17067568301501,1.1672378655015,1.13856185947382,1.14241443540641,1.13527700757176,1.13509778997709,1.1295145583266,1.15534325097426,1.18913016133141,1.14297218192656,1.1228577133105,1.12462318256688,1.12345921552419,1.12826633474072,1.14239422879035,1.13463722785968,1.13048613492784,1.13349841807744,1.13419396294047,1.13607860701456,1.13734126231093,1.1386176155177,1.14121023917075,1.1416141770177,1.16454573711186,1.16571384446391,1.17144771986651,1.1709042937917,1.17222984220132,1.16972258827546,1.17001875766285,1.16746587290814,1.17183765346723,1.15355823565662,1.15388475160354,1.15199832651708,1.15108853152627,1.1489607135212,1.14955921028225,1.14953934758341,1.15245678604184,1.15008880234397,1.19452999999859,1.13509235180732,1.13827364787689,1.12990810639033,1.12708684308319,1.1291454277354,1.13044351971487,1.13089417710879,1.12931102488147,1.12653758124667,1.12844312090278,1.10862919274552
0.617611646659002,0.625889099890375,0.628416198695083,0.62946461292041,0.676609007233275,0.691260957458884,0.696275709740635,0.702823519898179,0.709436054961405,0.715351730137691,0.719584674780123,0.724230066118468,0.75172868362278,0.756733475511728,0.7637060672759,0.772033770271134,0.777049421714185,0.82288323808388,0.836482433244539,0.841499499131062,0.857610936755263,0.867022803880518,0.880506992036332,0.894608736831997,0.907598084022345,0.938398240860405,0.940353391131479,0.942924139793411,0.958463778005968,0.964207680907907,0.969177678837549,0.973822409931185,0.985723867403981,0.997477593882163,1.00805743627203,1.02465973288106,1.02962753106276,1.0339167271914,1.03842823728312,1.04279842536642,1.04665222524972,1.05016731355859,1.05656358424108,1.06115875300156,1.06523179856163,1.07503167990853,1.07613437679935,1.07775971495836,1.08170904929349,1.09122332743249,1.09318696161907,1.09626423218748,1.0966420555689,1.09661889709159,1.09820984555342,1.10286385410444,1.11121473190564,1.11311574309093,1.11788282704327,1.12016282557203,1.12143545582948,1.12232206311465,1.1217868508726,1.12153004618312,1.12267879018525,1.12570593167864,1.1306271581113,1.13613221628877,1.13631380465889,1.13715767486213,1.13759962589455,1.13720394648144,1.13676417205725,1.1361042399971,1.13609322136464,1.13526335976806,1.13520372672705,1.13550612879099,1.13593445997632,1.13642276689979,1.1368528877718,1.13697559017129,1.13649927270586,1.13529018577619,1.13540593208299,1.13632052878643,1.13662996074821,1.13718806620937,1.1380759915408,1.13765998543539,1.13805832113464,1.13838330443991,1.13939465508052,1.14449578463556,1.14847984715498,1.15425375327549,1.1627421336861,1.17192850566133,1.18102473105982,1.18735478228059,1.18329505551352,1.18181097045737,1.1807720942095,1.18035034778284,1.1796529468633,1.17967036675613,1.17771572093048,1.17539918309761,1.17220172285229,1.16905556410113,1.16810405147204,1.16532243054817,1.16391362254631,1.1506720732191,1.1462941459635,1.13500498612961,1.13489986295768,1.13370144586025,1.13603286321607,1.1381632782453,1.13623534200801,1.12155159897634,1.12295945914417,1.12468736477181,1.12639118001037,1.1274477817325,1.12805346511963,1.13022113827065,1.13252171158722,1.13567054566325,1.13634109872803,1.13755465892935,1.13860162635321,1.1394487685761,1.14068447544471,1.14352219961279,1.14654158943611,1.14992257841061,1.15364812422333,1.15756305183397,1.1603298349677,1.16290437640282,1.16638287878947,1.17000987568024,1.15108193257184,1.15148272287559,1.15035348600669,1.14946212145453,1.14663614200011,1.14577640062396,1.14487930647933,1.14343659258796,1.14122670501694,1.13827100427068,1.13480535125224,1.13455510183334,1.13323591827123,1.13332379396126,1.13315764648495,1.13219081334275,1.13258369536195,1.13120699159765,1.12163268504727,1.1197186355988,1.10923845662234
0.618569842405783,0.622996750491618,0.629468820332435,0.63035900452562,0.672394236505066,0.730023999779875,0.712588199210359,0.730209018987079,0.721752258062957,0.727645212646045,0.727803094874747,0.72849396628915,0.749385615280122,0.757344520849722,0.756980453362036,0.757075918862346,0.770753642073255,0.836542851392873,0.836452980116723,0.845942839616839,0.848095291459913,0.850193739248536,0.850853412586492,0.851497826043611,0.879002463070604,0.936910497998488,0.935846927262562,0.934914935462483,0.930918449087014,0.926988230525771,0.949217966193788,0.959993970877373,0.978645180826443,0.978003628822848,1.00268553307762,1.01799085865796,1.01733166096433,1.01640353104595,1.01728652528234,1.01849256760128,1.02724094926445,1.03570622921621,1.05137129352805,1.05625206178832,1.06400466179117,1.07384497194623,1.07423957057009,1.07457929788959,1.08128180787365,1.09147718699839,1.09279161007488,1.09998385485795,1.09737444108573,1.09635186120799,1.09687204424382,1.10740838702949,1.11085767999863,1.11020020243453,1.1189705982426,1.12202755948401,1.12202829181523,1.12405352141824,1.12217788123461,1.12114880897792,1.12244395792965,1.1227306885355,1.13099161681227,1.13653546010516,1.13612670743593,1.13762768793142,1.13822893664903,1.12933996772722,1.13722372829975,1.13622907522562,1.13755995115644,1.11286000056047,1.1275749148341,1.12060365280878,1.1246196455938,1.1197438881026,1.12324419469285,1.12299111004044,1.12455207635846,1.1235226847104,1.13458815405357,1.14329147585543,1.13113953954458,1.11524256561702,1.11273581895131,1.11221835535693,1.11165871011405,1.1124927756913,1.1142514529449,1.1179408421272,1.12916087080301,1.1373623454989,1.13914573613659,1.14073300444817,1.16390840952253,1.19163671301146,1.18089049189092,1.17884381216566,1.17958912858692,1.19528004775459,1.17907819397513,1.1807801002236,1.17868125238505,1.1773026221473,1.17500583407117,1.1658707016384,1.16849623601511,1.15825480203008,1.15995461416284,1.15951786035174,1.15020110018741,1.13486562956191,1.13572216595671,1.13427716214808,1.13596169433332,1.14176245645065,1.13357496183556,1.11841114360398,1.12075448641389,1.10534911452904,1.11959206815689,1.1191883218949,1.12661932450592,1.13043722640077,1.130791569294,1.13920826852257,1.13627899946492,1.15010399812442,1.13927788276255,1.13584400510912,1.13849061068451,1.13800684566454,1.1394908320585,1.14264283146436,1.15252423120897,1.15870670424016,1.15677956937816,1.15370291915547,1.16040087106774,1.17286297938,1.14933071666086,1.14724569382767,1.1493621662471,1.14979781560454,1.1417163493685,1.12652654781816,1.12900194751729,1.12447446992039,1.12633793134111,1.12775776507389,1.131005179831,1.13197779039288,1.13494565483354,1.13891728891227,1.13919868324178,1.14238663269334,1.13563816364248,1.13640458878529,1.11793783358026,1.11702558569353,1.10984504930591
0.615901310280267,0.62625110038925,0.629305638932952,0.629358539744206,0.66778906170748,0.67073466044143,0.687841432432627,0.696017171653462,0.715760858021059,0.726679124591078,0.726705193740442,0.734409873684729,0.746994820852651,0.748569944472519,0.750526331343983,0.753067043689789,0.765408047763331,0.772075561660843,0.779700011192835,0.790059634565883,0.801969803556725,0.814193523391238,0.826158606509743,0.837325199142121,0.847657709110964,0.857779056771808,0.868373702036891,0.879651635301152,0.903341587033564,0.923556549823326,0.936550244652246,0.97191723151369,0.978977424814781,0.978746078869359,0.989338041646862,0.992930078157642,0.996637907338514,1.00083747326224,1.00544394613325,1.01100621599456,1.01880206168162,1.04245336116735,1.04817514138927,1.05372571754247,1.05966394109609,1.06480136496464,1.06934647811234,1.07323306182083,1.07651312660192,1.08013032050951,1.08416022054845,1.09198825043952,1.09337042434748,1.09517823315441,1.09602098812443,1.10906814967253,1.1122617060084,1.11474849003256,1.11786986914516,1.12015719524351,1.12063308457672,1.12220272784004,1.12182053434132,1.1228540279101,1.12313009196533,1.12436617057487,1.12865712836326,1.13183951175083,1.1341359041819,1.13864919533634,1.13896143532524,1.13917857400064,1.13847560783167,1.13846031982101,1.14023648619206,1.13423187244735,1.134032715582,1.13257478468655,1.13002046056719,1.12876103666695,1.12644628156175,1.12593732390914,1.12714205331389,1.12913212363159,1.13331962984125,1.13511824238294,1.12636779472241,1.11291039957297,1.11092416497122,1.11095952104271,1.1102304320417,1.1106321855936,1.11242944083099,1.11498303331796,1.12613556551882,1.13159334164325,1.1390772753877,1.13986362744581,1.14631446892412,1.15083185197979,1.15595915724819,1.16154571074021,1.16741874159906,1.17511009941863,1.17710883517985,1.17919396485153,1.17840221343903,1.17700761819869,1.17511995696076,1.17328467486056,1.17109186935431,1.15751249338944,1.1571271143835,1.15690034096193,1.15384847349168,1.14264023172768,1.13874567845505,1.13274309683437,1.13177142111343,1.13042818373873,1.13033994773374,1.12256298861327,1.12060339045848,1.11845673694763,1.11891086390661,1.12161783284398,1.12539033147631,1.12788345705545,1.13003141931681,1.13168206642687,1.13329556343059,1.14726837319584,1.14188846745427,1.13946933281924,1.13874666135715,1.13868474078923,1.13850633959372,1.13796970241095,1.13821060478834,1.13797860371908,1.1378826371566,1.13783643226547,1.13775896381229,1.13763017651192,1.13749466435412,1.13738956860199,1.13730572328618,1.13726675986867,1.13722701891874,1.136521340778,1.1325355617381,1.12789160187959,1.12677695390544,1.12796859056227,1.12923077300633,1.13287412985454,1.13577692413083,1.13723889771148,1.13801625289396,1.13922270746355,1.13796198893513,1.1381080311624,1.11487027649475,1.11391902205805,1.11158207116699
0.614111520677191,0.638122688375875,0.632171724585243,0.628026598645916,0.662733293166104,0.649197082427804,0.674649659343693,0.673965556930506,0.709293223938265,0.725983925590663,0.726077107881261,0.740894132536467,0.743160527918691,0.742807886847674,0.73281226227048,0.723915152459414,0.720286755229085,0.708888365578399,0.729209020264768,0.731339995292921,0.751315603704963,0.767309693045456,0.766198643411049,0.764955680220114,0.793039837381697,0.809060999968907,0.839664889673537,0.869882999999304,0.831517385445192,0.809360047743351,0.888496705469369,0.979475563899763,0.979231840718208,0.979050937330777,0.986517564970182,0.991517350245129,0.991844226491737,0.991949557364253,1.00521917549608,1.00966012720359,1.01423762446186,1.11419999999964,1.04283193437034,1.03692153583284,1.04477019622645,1.05054960203017,1.05526209033159,1.06229859765369,1.06494683989408,1.06737871161622,1.07914077231153,1.09095066971535,1.08647757384341,1.08231963054931,1.08740562316958,1.18397999999951,1.15566522079336,1.18598999999909,1.16005523141448,1.17836999985006,1.11811480650993,1.11549530044195,1.11934091455746,1.12559028641834,1.12287375860965,1.1195440134508,1.11616583634293,1.11392631814793,1.124874898969,1.17973999999927,1.14856651344918,1.15939295810634,1.15030502009165,1.1607769477338,1.14428764523251,1.13575167834882,1.135984930716,1.13605411903575,1.13363963505044,1.13620729787076,1.1273819752674,1.12713022626314,1.12825923574156,1.13313425302781,1.13421708167022,1.13675069354549,1.12121381280926,1.10350732142718,1.10768396751432,1.1048925964487,1.10804094134208,1.10737613484142,1.1099874454515,1.10144928214298,1.10745822023845,1.10411379858912,1.13769693782625,1.13966736656801,1.14151446245123,1.14293450651274,1.14289252318588,1.13404894569482,1.16430325539703,1.17358659151488,1.17545393119127,1.18090266666825,1.17928963664921,1.19748024496531,1.18838341645955,1.20146004145793,1.1741482531774,1.15131394343035,1.15480000615513,1.15623802711394,1.15470415239965,1.18201999969983,1.14142365974621,1.12635463913625,1.1288971798628,1.12407143621527,1.12737361224837,1.12756270638664,1.12119995464943,1.11584584900961,1.11607679773419,1.11002548021513,1.11137773892603,1.11016924094722,1.11134424187002,1.11220429323309,1.13210270658445,1.14927802924004,1.14140922867291,1.14055342475505,1.13843356365531,1.13932862884912,1.13741103517077,1.13583144753551,1.13314733810492,1.13064812524608,1.12933263546422,1.12778643238592,1.12762152048595,1.12732183515513,1.12852041404864,1.1302752367081,1.12956960301434,1.12994954521778,1.13372690682295,1.14056769424204,1.13677708248409,1.14543092706038,1.12530164000624,1.10602907777882,1.12692293458906,1.14254251728516,1.13778512107737,1.13642183616548,1.13720691076995,1.13873450586691,1.13886856072988,1.1401201558452,1.11274359536766,1.11223324188045,1.11193172808037
0.613204471308626,0.645243763235427,0.652632022671086,0.658965918474853,0.668134549328851,0.67079130807355,0.675513502416465,0.682440345824975,0.697560653477148,0.698108312375219,0.699324114879926,0.700782827714774,0.702518927484941,0.704843141896615,0.70800147340879,0.712084151294721,0.716950688751162,0.718312788568631,0.726889146494671,0.729207517606716,0.742455306667746,0.745429642869405,0.750490604512399,0.756659986597766,0.783725351050888,0.785691778786746,0.788560202619049,0.792681956916421,0.798165927839725,0.813963249806641,0.84468312687489,0.865878299473155,0.885408960243844,0.903973649995945,0.922532981688155,0.942048499594707,0.963222220383268,0.993482546897488,1.00189142333986,1.00736519412922,1.01300365585374,1.01840943040673,1.0233892043643,1.02848834553297,1.03466384426379,1.04105614410266,1.04691526916207,1.05423299201081,1.06011200343784,1.06323847105141,1.06646324991181,1.07442530661913,1.07669588936702,1.07928002648973,1.08376975852784,1.09828886817603,1.09966334545229,1.1018970589883,1.10391825666902,1.10636293987965,1.10803760417143,1.10903417385101,1.10948452701999,1.10966215209275,1.11031793595639,1.1120801185992,1.11423485906017,1.11418460049144,1.12360179535457,1.12976886368072,1.13532468876484,1.14071274905542,1.14540627532644,1.15296961121431,1.14726419526255,1.14443576855217,1.14123900916176,1.13821721258256,1.13252238629924,1.13075392322811,1.12845535830033,1.12697659564997,1.12517775453659,1.12309159281465,1.12062858007954,1.11782153246285,1.11680492408981,1.11062299886391,1.11109537478323,1.11018398472969,1.10928125405763,1.10967455158687,1.11008228757019,1.11046548757331,1.1106696296262,1.11131654817884,1.13487088777935,1.14143678435222,1.14188659301426,1.1439772093318,1.14228561776859,1.13831149206227,1.1521616880659,1.15553261959248,1.15930095409022,1.16455309544307,1.17033124070399,1.17613751098185,1.18196745248422,1.18641284794741,1.17914066038977,1.166626407546,1.15374281303985,1.15372289914255,1.15359294671524,1.15322429178705,1.14425878231935,1.1398543975444,1.13560194620712,1.13043784057014,1.12609345613721,1.12502991950026,1.12222888712244,1.11984484852603,1.11794536388785,1.11600619239778,1.11336821440926,1.11199992724591,1.11179099480275,1.12084645850533,1.13075947702586,1.12988583316548,1.1312039772869,1.13284498220277,1.1350074934254,1.1365334254139,1.1358937622215,1.13461861073357,1.13292641100161,1.13105031975321,1.12957732620132,1.12838233766907,1.12785865541522,1.1277290190312,1.1282639852441,1.12899757323042,1.12909672417047,1.12960543255067,1.13056414155425,1.1289510819276,1.12685965300596,1.12534592938872,1.12414987978689,1.12182495335511,1.12388262421479,1.12620443325428,1.12916926049339,1.13366694635171,1.13605548498356,1.13749558216488,1.12831826047347,1.1251907140394,1.11148272389186,1.11085092113826,1.1087838885363
0.612848403057378,0.667844577539145,0.660072460940155,0.673120961871823,0.672918264673507,0.673865383590002,0.67651245915873,0.694166903064511,0.697947489565308,0.696565936212327,0.699361298210285,0.67260500000403,0.699486164823562,0.695401037713218,0.705236813192824,0.700135469067147,0.717422280143324,0.720151950236335,0.722105355672476,0.717229289179325,0.740242822003783,0.743426993277569,0.742695686067855,0.743876661216058,0.781373290025085,0.782787340716621,0.782505702257569,0.783364540210624,0.796006568623742,0.817935860731512,0.815440946475023,0.811930231568182,0.816595868462118,0.811745818313977,0.832148750984364,0.831142502675638,0.913498328194698,0.995202166195168,0.99524220835936,0.995259104177461,0.996225241155809,0.997074789465836,1.00016417703949,1.00320340408014,1.01518062442322,1.02356856360865,1.02584199987309,1.02811256380181,1.04988152926177,1.05785959802399,1.06404452575177,1.07219623661019,1.0708558729639,1.06946999766447,1.07910605274252,1.09680800662915,1.09830904051088,1.09845214404782,1.10257995092791,1.10733354571414,1.10429869198849,1.10203342521098,1.10331382503809,1.10580343169769,1.10641708494991,1.10659447363069,1.10357319013444,1.09894438946812,1.09904819717373,1.09921750675028,1.10127025916942,1.10167633385303,1.12430392070314,1.17241999971667,1.15215523653965,1.15620024573342,1.14513502318522,1.14966652062375,1.11577033010374,1.09722101895491,1.09865309744178,1.09769586914104,1.09865946859031,1.09405888142122,1.11368972211774,1.11533811305533,1.11581411698869,1.10781639184245,1.11538524378288,1.11965834578066,1.1200156248282,1.12194415928666,1.12049929056059,1.15072999972285,1.11329742873272,1.11187551695675,1.13202128467855,1.14273691686449,1.14063855064647,1.14882026060755,1.14355283948926,1.12665995401424,1.14728367017297,1.14785698010894,1.14823133645773,1.14810605025306,1.15815685127969,1.16666999161382,1.1733857489309,1.35424,1.20584363528834,1.23997999999944,1.15252538944317,1.1511552264206,1.15249703471578,1.15267100255016,1.14806109736902,1.16136002586242,1.14231727760325,1.15098951153105,1.12473267555271,1.12342320943385,1.1231510853254,1.1232367106653,1.1204271662524,1.12074832566507,1.11408538821468,1.11266805311229,1.11220192280285,1.13704109127119,1.12969775035403,1.12767266173606,1.1272180045281,1.12690093169667,1.13236999376377,1.13627444306462,1.13519220343201,1.13379307803478,1.12250235471064,1.11191999591594,1.10429904809322,1.093156802765,1.09345538422411,1.09272952646725,1.0937892353516,1.09399593556433,1.10466907619444,1.14511001749483,1.13001210650764,1.13000668679218,1.12407855713454,1.11345790542617,1.1153301550874,1.11719629013865,1.11996458139965,1.11876536454786,1.12394468242072,1.13381512424702,1.13588422800384,1.13795851468402,1.11304614377467,1.08270558806562,1.08355831299781,1.0845298038221,1.08662333400618
0.610440122038077,0.638224151636704,0.653632415966215,0.671875660767192,0.671807911488565,0.672809882069057,0.677527169721537,0.685513293694082,0.700025119458388,0.700307138666844,0.701763480542208,0.702833583492025,0.703562400782675,0.708098320098766,0.709639118449731,0.712539962280649,0.71561040817911,0.717940515665931,0.723840125577396,0.725639390145472,0.737620812468823,0.740307325429405,0.741431565625326,0.757395202142351,0.779993484978232,0.780737352962266,0.781270133925985,0.782431545479461,0.793979217380323,0.800936164488675,0.815517860755651,0.813995732203799,0.822353064625683,0.827604736357657,0.832783517884051,0.832666874130956,0.851893946579929,0.873901284937834,0.892710563663825,0.908616659285938,0.922443470920294,0.936329496619433,0.949865580586946,0.964790879866113,0.9812386337831,0.996873840461167,1.00293253094918,1.01111725984965,1.01892331762417,1.02950126318301,1.03871644312027,1.04591755212848,1.05552059198036,1.06576928315669,1.07048812066062,1.0748623841509,1.07882836793277,1.08243730947632,1.08588225010758,1.09087934357457,1.09416932738926,1.09820761643954,1.10223680880684,1.1052809637611,1.10656575080774,1.10687348369563,1.10300882691218,1.1003834565861,1.09974793867891,1.10139596858181,1.10286919961642,1.10386248241709,1.10399712771214,1.10313736707498,1.10214774005758,1.10142745842153,1.10140352377379,1.10147669767404,1.1010348489426,1.10025966474946,1.10083431835714,1.10109629481011,1.10317346470273,1.10504126748423,1.11174495898824,1.11722476978518,1.11654199630561,1.11580091640936,1.11614026393392,1.11789476632706,1.11893910997156,1.11974839467859,1.11864565650889,1.11814823519389,1.11720602229207,1.12165180360356,1.1294969666346,1.13248427802732,1.13519317941289,1.14674237157989,1.14449632220004,1.14414163924857,1.14599009851114,1.14827994746297,1.14873302567534,1.14865152401544,1.14770153110706,1.14680280343414,1.1458603105631,1.14470948049294,1.14322867794682,1.14144696888773,1.1395890105214,1.13800945484904,1.13698534138037,1.1365328038863,1.13325821646787,1.13038287708516,1.12790214389375,1.12575555508919,1.12383465296053,1.12300929572306,1.12358199311241,1.12447817860953,1.11971552538389,1.11811162932009,1.11541917431904,1.11294689569383,1.1103551145307,1.10770975652368,1.10546129431505,1.10400185123332,1.10350245844108,1.10385695358865,1.1022080036262,1.10101834005074,1.10015383640733,1.09943980051247,1.09869245914241,1.09774024157611,1.09644234345123,1.09472097605802,1.09417608990127,1.09389122199352,1.09430460847493,1.09471814751292,1.09537526960406,1.09548011182362,1.09518052319814,1.09480711775562,1.09482635783349,1.09571350904256,1.09769192650855,1.09882708291031,1.09904333065935,1.09918416020902,1.10022241031082,1.10137725788526,1.1025901351192,1.10396152536251,1.09661363886179,1.08345858839557,1.08337875515153,1.08313223686908,1.08057450477641
0.60840678421266,0.607478319344096,0.647159671557419,0.670595947768807,0.669471509496274,0.647025976104095,0.678528967976612,0.676779091419017,0.702168484838054,0.701815186760825,0.704258955845659,0.718944290767017,0.715917434548216,0.710594693271636,0.711117050576048,0.711652538392927,0.713933799474749,0.698640976283245,0.724761071399623,0.728932558010746,0.731585064923034,0.731541988042323,0.74017236474835,0.774759232650319,0.777868613686993,0.778837807643421,0.779243272557165,0.777925473302524,0.780800780187271,0.790725122787488,0.816902903697439,0.813707115179476,0.826956720252513,0.832596990978209,0.83307604694974,0.833780581409507,0.830856904155862,0.827998933974096,0.828881680776898,0.830568751240955,0.830254032491575,0.82935751567919,0.855009131850753,0.852058639783085,0.933687445839201,0.987850314370458,0.986038818001054,0.984281488095682,0.975621499012876,0.968874000026571,0.961525499428433,0.954123992442767,1.00061304976389,1.06121304180187,1.05465207638527,1.04651829963441,1.05483879902889,1.062140021935,1.079426144643,1.0892593477562,1.08895635903236,1.08892621244672,1.09499680993349,1.1067182281477,1.10776020251595,1.11023226690145,1.09606809144028,1.08847690293047,1.0938734708169,1.10492445990331,1.10486728809167,1.10672743172159,1.10463699002667,1.10294503945968,1.10181659257809,1.10049218391066,1.10099975446693,1.10166348321505,1.10099879920504,1.10167959461014,1.1018048462106,1.1109705976718,1.1066208931314,1.10650895504602,1.10939069916316,1.12277378455555,1.11864589332667,1.13568566259986,1.13491811846289,1.14459002778417,1.13616356321466,1.14578002639857,1.11631381888477,1.11333133074236,1.11550702241944,1.12631338703549,1.12808230262543,1.12879381939752,1.13241849567469,1.15914001356922,1.14322949507807,1.14177463875943,1.14388027135115,1.1505237474513,1.14978139705704,1.15009743760695,1.13850449433066,1.12871049187751,1.12828776452447,1.12762659356865,1.1269668235406,1.12611265918738,1.12538340265967,1.12568595368841,1.132367309824,1.13973445807856,1.13086954406308,1.12219830666301,1.12136122498722,1.12102082706984,1.12196792622453,1.1211205152831,1.12373478165647,1.12642791570706,1.10936040731209,1.10181297600611,1.09952159885249,1.09769056613971,1.10070457781273,1.10389991587258,1.09576106366101,1.08708048293733,1.09679901621751,1.10637387497227,1.09132123357957,1.08105001070303,1.07047941870016,1.06123819925506,1.06324613715067,1.06392211572033,1.06762219768326,1.06999174511563,1.07516925059471,1.08033046792262,1.07688697905598,1.07389133775768,1.08011543872353,1.08322711216094,1.08300118265124,1.08500637318061,1.08501232158585,1.08555998647865,1.09934887326027,1.10045986261698,1.09990532923939,1.08544998946166,1.1006687890264,1.10158493932716,1.10294360826231,1.10523498777061,1.09350429877252,1.0842809860973,1.08333347444519,1.07517188871436,1.07894816757527
0.608791335564776,0.623335815594953,0.641038231789289,0.650407389317567,0.665872742706781,0.670886386875809,0.681319787254904,0.687474756405505,0.703831753207145,0.705669701086226,0.707361502595448,0.719269229715594,0.718032217495375,0.71773257496401,0.718373834471623,0.72006622009347,0.722480464694116,0.724728476849367,0.726251680421793,0.728378356950919,0.730530325423015,0.7310849978592,0.739039932422724,0.746963957195564,0.757438210979079,0.7665034629791,0.76978534728638,0.77276536080365,0.772955275388507,0.792064097713776,0.82118115259699,0.821926962923559,0.830008857225959,0.832021796536138,0.832920393997942,0.833030329199234,0.830452978136214,0.828885417944133,0.828777285248899,0.829755623848406,0.830490346029957,0.831467837063458,0.857455166947985,0.856981478347463,0.870496336625927,0.886779145649683,0.896867803755867,0.908939221070374,0.919771757292412,0.931011645949174,0.940277376268697,0.946651938171897,0.96736068491302,0.978881718220568,0.994814785392901,1.01308142419196,1.03344685690292,1.04621743631521,1.048494107661,1.05138404113427,1.05463478340997,1.05866454678565,1.06323490003922,1.06787443850565,1.07235694978711,1.07599488264433,1.07980322176584,1.08343162007712,1.08689747911781,1.09015281830031,1.09309272344451,1.09572220880896,1.09672733673379,1.09790163075831,1.09911818530298,1.10003608405663,1.10033112845032,1.09990670597701,1.09993874370789,1.10014696667656,1.10250761769119,1.10499137318349,1.10665865991498,1.10772633469231,1.10916706540387,1.11418418222159,1.11629945549453,1.13475367489601,1.13415084806509,1.13331697191518,1.12931063745648,1.12587611413381,1.11522811488872,1.11439621021184,1.11540138679076,1.1169162126522,1.11806946627839,1.11934085536355,1.11923678840773,1.11874645672912,1.11817172624116,1.11783677896459,1.11798319845838,1.11869525487905,1.1198885433987,1.12137450109358,1.12294122965599,1.12442380131523,1.12574070255573,1.12684797311475,1.12692263622303,1.12666872566834,1.12499854473757,1.12488809812957,1.12488251371498,1.12535820756995,1.12252609790584,1.12131885535299,1.12099042654523,1.12037739718556,1.11914467298117,1.11739779722086,1.1147922327616,1.11117289620294,1.1066589740325,1.10155940573491,1.0992736458919,1.0963760727735,1.09287943808895,1.08904784365764,1.0852070579798,1.08162374298137,1.07847822190179,1.0770243454385,1.07689377880311,1.0679994837669,1.06472275961794,1.06305207485056,1.06416800912323,1.06548003837157,1.06780490707758,1.06987580509821,1.0716818931696,1.07336043932498,1.07492481313813,1.07636907854597,1.07853361349782,1.07979247076231,1.08189324218096,1.08423571894725,1.08439426212785,1.08503332956107,1.10007215506518,1.10058025756714,1.10055994737395,1.10101190490137,1.10052580351697,1.10041821932572,1.09828088027887,1.09409637857845,1.08984456099435,1.08302247121631,1.08249987213291,1.08155419798631,1.08083595427942
0.610286030903974,0.633016922671375,0.634106745623492,0.634364147795348,0.662189188732448,0.686371625671863,0.684199074025703,0.713848194385779,0.713442612250358,0.713789960363601,0.711414386459154,0.72159420911799,0.719876661026725,0.722469620248713,0.718248477871132,0.772305999998536,0.72759844906181,0.725461541202575,0.727126071437167,0.72789099112164,0.730204130521437,0.715124984556727,0.738145432832796,0.73901808006277,0.753034752671908,0.762244340873257,0.7641274739939,0.765417398776542,0.765651862277365,0.793186919794544,0.824100065825641,0.884137999999374,0.855484580165001,0.885438999998927,0.833003256746861,0.835499519695678,0.828506216720308,0.819599414174075,0.821790440452676,0.820544892266771,0.829773709509566,0.8344324809735,0.859701338160231,0.86100613322549,0.860336556126842,0.84202344956617,0.876610459058484,0.889890105800957,0.891956255669931,0.894106343819538,0.893130994342673,0.892637254952898,0.902569146931135,0.925504347826374,0.917861159131934,0.910676898617183,0.982754594058147,1.0443449339276,1.04420875348494,1.04410900024822,1.04592820005154,1.04712108065588,1.05188912051658,1.05661035862435,1.05496088976004,1.05390432782122,1.05066165753706,1.04741266381764,1.07032396625251,1.08167997796607,1.0915116849332,1.09726860720728,1.08967416466199,1.07400388759159,1.0729207209515,1.07177185475368,1.08321342877359,1.09279496334932,1.09578463102746,1.09772002715564,1.09116162520184,1.08507847500446,1.08504118787224,1.08405881817579,1.08681442441424,1.08898699629569,1.10145289446605,1.13446446902132,1.13445441378231,1.13485039854661,1.11204803574453,1.09476866144134,1.10500989691763,1.11309742331999,1.11467437754281,1.11579829112905,1.11635534283172,1.11335480676542,1.11427464694971,1.10268731012305,1.10481662388311,1.10540915514255,1.10606350965309,1.10748334114554,1.10910192931118,1.11225866101355,1.11554904327664,1.11912520021496,1.11253992646833,1.10626080866477,1.11803646879248,1.12925123423283,1.12039296421228,1.11385539501666,1.12360171412136,1.12908897079708,1.12107968262294,1.11971235977908,1.10129649796699,1.08098882650406,1.08151784039275,1.08078029807989,1.07785647051583,1.07492487008737,1.0829366362839,1.09846313554128,1.09129741003832,1.08317028363958,1.0817724201815,1.07579944308528,1.07666882043941,1.07554431071646,1.07702727656125,1.07567582426574,1.076485475912,1.05311114654852,1.05316906297153,1.05353150745744,1.05394339854191,1.05419181193292,1.05376480573334,1.05282882405407,1.0505664068172,1.04802288395936,1.06393197810785,1.07938937002076,1.07365170924138,1.06437205746899,1.07732240530205,1.0863611357451,1.08315270450195,1.07204461178603,1.10029731415637,1.16865999999908,1.10078760718451,1.1020246762222,1.10047609260428,1.11598005041094,1.09254258368971,1.07118245920163,1.08018129556563,1.08149147824758,1.08148109091555,1.0955814703307,1.08407076826117
0.612499433685993,0.631752851424833,0.635206461282283,0.635552636581442,0.658652651273715,0.685503314408066,0.684936324619946,0.711973074348802,0.71265936184264,0.7132173345944,0.712965453643473,0.714891194825685,0.717168251435455,0.716147560315299,0.715092202071428,0.729804615192883,0.729285167714771,0.72879212508612,0.729033254717686,0.729552466338772,0.732013900038081,0.735057911940171,0.736643312822605,0.737190302523057,0.745445365607458,0.751119112050928,0.756043298985197,0.760198378545277,0.760716080082235,0.809372283643989,0.826334663357068,0.834520558228037,0.833159734427878,0.831574699868176,0.831139089580542,0.829561837229661,0.825294897904088,0.823024134496463,0.8232099108257,0.824961323173404,0.828620065513198,0.840683503876658,0.860785053567843,0.860255534499693,0.860028539482147,0.848038567018869,0.872158551747114,0.875752089194156,0.879070132181371,0.881995733193763,0.884908573995293,0.888337291881977,0.898558608975644,0.899445400877076,0.902481372368975,0.909814970880389,0.923708107762369,0.938104037808062,0.95033389206808,0.963129233592784,0.975712261165458,0.9867403636908,0.998035555202503,1.00888795610697,1.01881525810977,1.03159697522545,1.03456420280709,1.03743286657302,1.04044651100464,1.04394523701844,1.04776359589991,1.05178994278284,1.05580097840957,1.05957261684175,1.06297997400478,1.06604651927651,1.06891734920296,1.07176392782038,1.07470181432999,1.07776950450941,1.07901016109932,1.08055251548663,1.08247587769494,1.08465787417078,1.08736181768914,1.09024633270712,1.09372149650018,1.09635708777403,1.09812233648462,1.09880797057112,1.09828518580622,1.09678134608102,1.10412570454009,1.10787394628426,1.11133221310043,1.11652485896729,1.11726911132633,1.11536822305406,1.11618216020425,1.10899442364502,1.10591234112755,1.10567748461744,1.10556608643396,1.10520715729309,1.10530943359205,1.10508555809692,1.1047859194443,1.10438938988461,1.10341624205946,1.1018379274011,1.09935203663834,1.09633028679612,1.09320654835453,1.09022876782278,1.0876483451442,1.08564484167364,1.08427861288394,1.08345444364647,1.08293145694209,1.08243969873304,1.0825935729906,1.08222511158341,1.077423432811,1.07616835193149,1.07585826143223,1.07587588881172,1.0770291762058,1.0799522769902,1.08046933432548,1.07935405068576,1.07873423964178,1.07834884335817,1.07847353366395,1.07698406531727,1.07656729893045,1.06582651389721,1.0531137392275,1.0535016879255,1.05397468321188,1.05417298330209,1.05377380776834,1.0525975364435,1.05053392274763,1.04806347948638,1.05570626589377,1.05720673592828,1.05956553133193,1.06380138291736,1.07428520830239,1.07726068939825,1.07852003000874,1.07620096334188,1.09965267331269,1.1145308081883,1.09990146950988,1.09992070864236,1.09905912581703,1.09783369422618,1.08752374867974,1.07532902683299,1.07874680830364,1.08054572850829,1.08090302888334,1.08104356398878,1.08140263396285
0.615203480386192,0.62930991078602,0.636276022542791,0.637418588335302,0.655569628895755,0.685177768276243,0.685080502244652,0.709413391970194,0.711017300724601,0.721462804220162,0.70733319800106,0.701266642730588,0.700556701060186,0.701784459798959,0.709099870381587,0.729796886348563,0.730267384690385,0.731354884577062,0.730063269078353,0.729393162222806,0.732131123151818,0.737233890162933,0.736112185741746,0.73628211911471,0.738328806409115,0.740370139798218,0.743869974072289,0.745551824988462,0.755038669159912,0.829217788761683,0.827968364578192,0.835806417597221,0.833295870841611,0.830294887348463,0.829995331368039,0.828458834042801,0.822105785013696,0.809342296120712,0.821260364293202,0.829988111950686,0.828380418393484,0.896294999998983,0.862654485482847,0.858001511432345,0.859717759347868,0.841611895645917,0.868587608363069,0.86480539534075,0.869738734539921,0.866578289341618,0.874109284617363,0.868923754687826,0.896801437725382,0.89681038184722,0.90028757078937,0.909409041982262,0.911328390875629,0.913221358381764,0.912859327782885,0.912542149186252,0.913356968534748,0.914085419849011,0.91554982121707,0.91744785319171,0.973289945163982,1.02749062894277,0.991919962239996,0.964499875319295,0.968358972552319,0.972216674596462,1.01156597478323,1.04960495988166,1.05014381446041,1.05064690734811,1.05195048659566,1.05265043677841,1.05693304163361,1.06111612145469,1.07372832880876,1.07975367557792,1.0762315530025,1.07268380806696,1.07239187829043,1.07201901201799,1.06466011401342,1.05436129275411,1.05543942152146,1.05731778830443,1.06424665442303,1.06797229076012,1.06857879664726,1.06925647361004,1.06783257504542,1.06686857576292,1.08630492422122,1.14762999999943,1.12068058371912,1.12449330602147,1.11973806640898,1.1368499994105,1.10582441883256,1.09501966590991,1.09900682111578,1.10216818305906,1.10422686503598,1.10450101753235,1.10471760558458,1.10507828456532,1.09931452627398,1.09346985553104,1.08981122797393,1.07798829156947,1.08036422660521,1.08002538487218,1.08001943621979,1.07773558792926,1.0749678111527,1.06683463573842,1.07490011111695,1.08312492887343,1.08327227654326,1.0915624910664,1.07144200844066,1.06605861278167,1.0671508717304,1.06857268236508,1.07321942069836,1.08138369576121,1.08095082723126,1.08253048603791,1.08062736184545,1.08065672787478,1.0814113793539,1.08512977776444,1.07574556863161,1.07442258681469,1.04931005883304,1.03384431089967,1.03789553784307,1.04155548942731,1.04009489760521,1.03865452282589,1.04226544514583,1.04513650720672,1.05453639078532,1.05544786389595,1.05849552840334,1.06571038671478,1.06967764547463,1.0775411440938,1.07795261498669,1.07781213661798,1.09823814119757,1.12390002829794,1.0992473070848,1.09888859126403,1.09818272016005,1.09673527885338,1.0839080227002,1.07611287306203,1.07897535976654,1.08123758106593,1.0810970078364,1.08119988997596,1.080102400369
0.617466193994348,0.6243224401248,0.636379399685014,0.644370293680441,0.653082621288676,0.661513795396922,0.666982395085984,0.6704117023109,0.682439805266322,0.686772651184738,0.689236680187514,0.692853812043184,0.69835478992822,0.699627403640079,0.703929293161694,0.730312019700043,0.73045524949245,0.730496950707594,0.730605487089787,0.73099955725037,0.732906007925278,0.734393856371118,0.73538951072873,0.73620823019969,0.738245739731073,0.741894113401265,0.743971400402644,0.745256558428619,0.749768634288874,0.782936836948305,0.801347566009347,0.834518793080094,0.833881256835671,0.832836179174827,0.830287969184211,0.828991362266754,0.817448833604008,0.814771821986197,0.81935793703569,0.821996404397412,0.824863883677916,0.867912662656763,0.866105005743151,0.866364654894773,0.867457072778067,0.868405801660861,0.868619163379956,0.869288273104015,0.873123575117203,0.876117141640884,0.879312833721736,0.883032165653344,0.895019347124242,0.895828551404808,0.899125276421268,0.902235168876253,0.905263423200045,0.908091604130147,0.910501489591034,0.912279318329669,0.913403172902533,0.914268841287255,0.915284034749741,0.916228451253045,0.921130867127375,0.925652136830717,0.935481455821308,0.946455997236138,0.957328789967023,0.965569523017222,0.975209193289922,0.982653926251733,0.989568722161334,0.996635071081565,1.00079516830427,1.00288019731153,1.00542400100114,1.0085490991179,1.012894391614,1.01811632682451,1.02326718832895,1.02951718921417,1.03599828037833,1.04164386542243,1.04720023166458,1.05207456986081,1.05408215581162,1.05906963433272,1.06177581828285,1.06321547084963,1.06503133851425,1.06638311607566,1.06723273643398,1.06715840716949,1.07039780811726,1.07511506547389,1.07984250010796,1.08783666004533,1.09036505839811,1.10626166115806,1.10504745704459,1.10023582287975,1.09911498260533,1.09664901870991,1.09416030840676,1.09185677719951,1.08979849588473,1.08792918097259,1.08708876527208,1.08642963178435,1.08548479775767,1.083153241126,1.08302469902928,1.08316982557643,1.08224095423254,1.08000897819341,1.07185202188001,1.06847223002422,1.06677446340616,1.06542110310278,1.06452317955915,1.0640820678389,1.06407444579673,1.06462187028367,1.06576360755051,1.06748449139666,1.06737285925355,1.0659156536549,1.06174428590763,1.0582536488141,1.05556766298942,1.05328761012126,1.05165829208931,1.05036486415013,1.04905759020512,1.04743794718184,1.04751232663982,1.0361726941715,1.03797328877288,1.03927787440833,1.04004657457295,1.04058509402579,1.04312681581643,1.04680210230399,1.05222546499198,1.05511938032576,1.05823740360621,1.0652905042251,1.06793597389457,1.06945050045956,1.07035413923001,1.08453089375261,1.09652517774741,1.09542949922981,1.0936917325698,1.09177562705844,1.08944074917954,1.08662456338925,1.0833667356396,1.07979973345036,1.07990358502325,1.08103377397834,1.08187160893632,1.08199719634676,1.08096800624167
0.619248636331867,0.621228679784804,0.636086471124574,0.653106497261151,0.651054555845967,0.648146293534977,0.666645968266482,0.661188111493714,0.680144297442124,0.684633051211169,0.684444612739715,0.686868296868884,0.696892372119733,0.700192467757917,0.69968326259393,0.75266699949236,0.730176002055722,0.729512953196786,0.730256034216065,0.759368999741242,0.732982670655096,0.732934041001049,0.73433534930668,0.735542977134889,0.736559643871887,0.744531525825749,0.744924864813193,0.745979426683547,0.742145935349855,0.739957315241284,0.780949012222049,0.833863000313034,0.834869721715762,0.836870560936286,0.82933395323118,0.828483418360579,0.815222876258753,0.813086683114122,0.812139841749884,0.811238729744513,0.812616828420994,0.86932671784606,0.868199739751042,0.869406045654205,0.86855897459276,0.869441984173597,0.86887437048039,0.883177988708244,0.878026761387182,0.886131212710508,0.883469301245432,0.887579981890126,0.891737254088854,0.893017657372631,0.878016903320804,0.867289574810043,0.873672490241508,0.881010475461211,0.880055262050215,0.880152166128642,0.880056009597991,0.880202031609951,0.889506318749937,0.897243517466594,0.897841920754888,0.898179164064467,0.899104657667676,0.901264598973316,0.910104704404878,0.903324064093314,0.949976491726583,0.960055999524833,0.978393709355357,0.993025549208399,0.997371342136388,1.0030979741159,1.00253227795838,1.00401513793494,1.00584510727963,1.00813870998783,1.01536016883067,1.02628711381304,1.0264724298129,1.02664596780411,1.02923798167493,1.0318163396636,1.04381459780831,1.07090105141677,1.05651049861405,1.05063401796397,1.05082165358903,1.05044541827664,1.0532472825015,1.05608623993197,1.06176700676688,1.06811031654286,1.07847890538436,1.08643275332754,1.08753903515178,1.10673944110513,1.10655745466754,1.10839259088165,1.09026854154687,1.08313933399863,1.08383190918777,1.08529966227221,1.08608168910024,1.08705593556207,1.08455224082655,1.08224845640807,1.08459438452266,1.08565496838323,1.08535847877764,1.08734692706365,1.08527461724927,1.0938982879446,1.06217681142842,1.05314106034917,1.05316571328511,1.05318307189128,1.05414432361164,1.05401364777848,1.06078626914964,1.06156250868108,1.06435580130061,1.0667701506799,1.06759643563467,1.06805893599922,1.06194106916594,1.05816989837623,1.05595889095883,1.04358467452321,1.0438754371421,1.04337868361787,1.04431763057694,1.04498989450176,1.04622196369561,1.02234947822687,1.02214202220922,1.02303923734884,1.02019399106468,1.00587182261861,1.00776597995383,1.00423245924251,1.0060465881282,1.00549775378017,1.01844272701874,1.01973223925774,1.03411592263463,1.04201661429917,1.05894016066084,1.10321001692972,1.09611645008549,1.09618866946906,1.07764765615604,1.05454077076771,1.05183897819777,1.04675835830734,1.04417050043098,1.04108219079851,1.04874347949638,1.05141506272244,1.05778739149055,1.0573457014755,1.05729239560706
0.627789121781812,0.631575599533086,0.63598273000453,0.643929718442314,0.650022775957406,0.655738062974819,0.67206523796264,0.67484770676999,0.677301667718008,0.679538512802667,0.681887915723361,0.690903317665132,0.694927052782614,0.696698456953258,0.696580394030408,0.722903201551064,0.725209924242322,0.728091126465218,0.730302331107916,0.731994504106159,0.733040329085355,0.733391770588854,0.733829525449076,0.734065582394259,0.7353717435758,0.736934943320655,0.738156406709497,0.739290431318971,0.74032461482327,0.740260889583848,0.747372189313394,0.753814211900782,0.759410853277813,0.764475601565561,0.771403353599685,0.779489871227754,0.787189425077247,0.793207771167449,0.799820880997657,0.805400334142094,0.809652912420804,0.843071662908213,0.844502135042338,0.84692082103415,0.8492677761196,0.85125893104772,0.852933267016985,0.854396246241064,0.855779811449871,0.857203074738061,0.858721154513732,0.860303346333966,0.861959659855475,0.863719290004997,0.866198912951838,0.868764258955094,0.872620155622901,0.875899056639159,0.878663923449589,0.87959337034207,0.879531737211103,0.88069298074325,0.884929232411048,0.888713258030435,0.891979539640649,0.895069169478584,0.897882128765644,0.908176035088267,0.916402796463348,0.918533411424869,0.94480217914119,0.949967670807811,0.975339506115364,0.980865509218115,0.996291450050385,1.00053747614618,1.00118621121214,1.00267661679751,1.00526145977334,1.00769060638636,1.00951188285738,1.01127710525856,1.01325830833156,1.0157504837732,1.01894932915749,1.0228522918278,1.02723200008385,1.03169837768066,1.03582244377576,1.03928377741597,1.04198905230719,1.04410491446879,1.04598041469775,1.04799230248473,1.05039162786825,1.05322855911537,1.05638399405397,1.05967524532408,1.0629690300789,1.06624540861595,1.06959776383148,1.07318955853257,1.07718206424837,1.08162362632492,1.08329466902995,1.08415628756856,1.08287682775189,1.08149319384869,1.0797340046073,1.0774129883157,1.07451155305058,1.07118415105036,1.06768323905374,1.06426170733632,1.06110507519804,1.05831261751208,1.0559160275192,1.0538708574947,1.05341542686291,1.05392485246063,1.05568966684695,1.05752817622744,1.06025888128627,1.06203266656527,1.06366810435733,1.0657987889322,1.06758108845356,1.06864449757198,1.05947186677473,1.05697069378509,1.05374006411821,1.04495588800562,1.04420719190836,1.04387629904951,1.04430453867475,1.04501061762778,1.04540911506668,1.02305511177275,1.0214209807952,1.02006862239823,1.01833903732493,1.0143119517181,1.01162647745336,1.00930139088452,1.00735188131279,1.00649255380212,1.01655970993865,1.01748036877172,1.02695878902304,1.0483020040338,1.04952919816961,1.04913593073227,1.04927611491133,1.05124927564212,1.05350020225833,1.05516542516269,1.04848880590497,1.04633121786829,1.04482410440835,1.04360347635854,1.04561272216853,1.05608769264463,1.05887763648116,1.05939957322103,1.05774039007409
0.638691478939012,0.639131693286129,0.639085585226288,0.624845973389133,0.64903481243141,0.683957006708544,0.674119098518597,0.675946746107108,0.673964755781495,0.668481456487503,0.676474495043363,0.705711009477027,0.680153149727374,0.663365278408584,0.691878935525909,0.720287571913101,0.724268514556875,0.727090089257689,0.717620745437947,0.707970840863425,0.708632694989366,0.710461638772017,0.721868794956696,0.726689879529609,0.721042361915677,0.714816740646203,0.725751750819024,0.729629458654543,0.739444708536699,0.740360556248814,0.742542010561661,0.745540443410998,0.748167992715051,0.751761199668712,0.761478878689948,0.773733305620973,0.77741500010114,0.780834353703314,0.780475612646755,0.780195552884589,0.804542423256237,0.841781393988912,0.84244206175817,0.841872709982313,0.841587510782327,0.841221950995294,0.832065770667378,0.825022722593934,0.82433859045541,0.824802696263682,0.843595098563803,0.848691822226049,0.860315764363374,0.863032547818673,0.859973635260778,0.857771376340318,0.856041992283304,0.853106868612864,0.872128000981222,0.927303999998902,0.877573805617728,0.876775197345731,0.876240199024675,0.875078488321084,0.875269092760215,0.874475082808158,0.89694351376257,0.925182942735196,0.921819109728053,0.925573424466411,0.932199876995049,0.929316538649637,0.962550205139887,0.958064281539991,0.992422044819446,0.998939208749066,0.999293318095916,0.997136265718879,0.998114771211734,0.998448855752262,0.999755374907316,1.00108552524524,0.988918137503263,0.978526882124541,0.980481954450879,0.981616889405569,0.999792486000876,1.01587571737016,1.01491150798723,1.01399147459605,1.01556118497291,1.01809919955565,1.01222055914658,1.00612326521994,1.01302707766398,1.01681115548633,1.04153463721287,1.04294374340154,1.04795097891417,1.06076005558955,1.05008214726267,1.02877999612167,1.07140670312494,1.08316252318294,1.08384126427506,1.08527536841558,1.06822298212235,1.0556778236005,1.05572965662146,1.05538958485322,1.05731697275679,1.0590848957054,1.06030868415288,1.06142203157536,1.05473954232808,1.04814187912997,1.05083251561706,1.05326921235598,1.05302709055333,1.07127002734723,1.05780112530623,1.06063215570346,1.06114778899499,1.06294323919786,1.06303763439499,1.08284002813906,1.06885101259111,1.07068215158751,1.04449425875593,1.03550339543878,1.03559306032141,1.02902046900896,1.04282959194974,1.04320890661183,1.04377475454825,1.04510262840579,1.04468690955593,1.02663668557984,1.02071476199614,1.01511741386616,1.01643565919074,1.01581004130061,1.01413170907732,1.01843766607206,1.00684941831062,0.997005124759826,1.01298887675498,1.01599371709611,1.02062228924518,1.05570648341413,1.05102228317142,1.04890340145942,1.04784181326505,1.04511031137751,1.05512276403368,1.05870674062781,1.04437688681619,1.02738996132558,1.04144501237629,1.04308610821237,1.04438466304454,1.06340473931882,1.06179778912321,1.06352740057438,1.05705110618334
0.638476077144749,0.641283342922904,0.642862293803985,0.646163067351058,0.648025870559779,0.64957024031398,0.652210681429637,0.654469465222841,0.65640653163916,0.658259192190471,0.660204553235125,0.662186614836182,0.664002249841114,0.664680669013951,0.688484330378265,0.701492504361942,0.701178546390262,0.701463737789559,0.702442355817565,0.705899033192538,0.707530828720933,0.709170594498587,0.711004688538638,0.713429234590041,0.716189919903013,0.716328736568716,0.722379139939417,0.733497699377735,0.737551474134527,0.739825173083835,0.74220318353534,0.744835311528182,0.747399291419382,0.74946722585692,0.75775617601783,0.764087447993275,0.768882964226561,0.780525672606339,0.780561463879477,0.780523622760053,0.792034623099592,0.799034339277358,0.804133387797006,0.815449361799772,0.815258011754393,0.816702128289698,0.818290531475118,0.820286513452079,0.822494882154834,0.823727539394296,0.839445923967707,0.852544800754735,0.856981686429925,0.858156228078661,0.859006496050646,0.859814698977684,0.857353726657288,0.853976617994387,0.871355122300432,0.873943563734358,0.876222466484562,0.877740655024779,0.876787304454145,0.875880593344719,0.876290793956209,0.876930395552674,0.89626271412991,0.904358704467275,0.920604481822362,0.922835631126682,0.935280180973302,0.947736173656293,0.967034978919351,0.974920059346704,0.986315974097916,0.988887171879994,0.991711675574397,0.995793600952282,0.993125210027394,0.990455890172918,0.987802503055189,0.985111431332652,0.983227318281981,0.981048983314144,0.981110938051194,0.981498923571016,0.988763871583906,0.998977954849605,0.999310325476524,0.999690865809417,1.00022819434427,1.00151745152007,1.00379452156571,1.00678034094299,1.00940773801166,1.0255242840788,1.03990287704532,1.04159927452874,1.04171746730761,1.04232077453095,1.0430553048634,1.04448680478365,1.04698723891596,1.04866581735922,1.04884178940264,1.04880879539711,1.04917204784097,1.04929121599264,1.04909866530011,1.04879964315904,1.04966486647006,1.05031033808532,1.05065317320732,1.05070162417133,1.05046774580715,1.04994899644412,1.05106795675077,1.05230308919892,1.05258898896368,1.05241305776596,1.05198873290457,1.05119190168302,1.05007648111667,1.0487680206414,1.04734719620088,1.04582227561473,1.04416115085397,1.04234055703874,1.04039339171759,1.03841927549519,1.03759786460021,1.03899892266396,1.0406139785353,1.04140120439695,1.04236855146632,1.04372857591802,1.043917359638,1.03624914819389,1.01872838545743,1.01728205596082,1.01651851884366,1.01558756484775,1.0110753878746,1.0089636421887,1.00593418774792,1.00544579650038,1.00861968326169,1.01166125822721,1.01524249103824,1.0299986384822,1.03795727194637,1.04827222187851,1.04859253566576,1.05058967387919,1.05323823720478,1.05363215288147,1.04046738910809,1.03901346322467,1.03884274745754,1.03738850948899,1.03586018376298,1.03441867088814,1.03323262401791,1.03256041447937,1.03259401212749
0.637106891467354,0.64527561944721,0.644379071770769,0.64757003158137,0.647261153661496,0.648260513573053,0.648367868666128,0.626723000888196,0.646821167122197,0.644145706167716,0.648835236782914,0.631291000498176,0.664846956117822,0.666478902422126,0.68613017740439,0.702101271337733,0.701958573096606,0.696295043155571,0.700327001045601,0.695241942179773,0.707039969982543,0.7053351286136,0.711340474588038,0.713667170067529,0.714978903435514,0.717122723079942,0.719819597290152,0.763254000699871,0.737510251967461,0.7402632198802,0.737238737069773,0.722103724488904,0.741271976273921,0.74540114919945,0.740030271709126,0.736963620668339,0.760680221760582,0.791487569923181,0.771919246541054,0.76650986759454,0.769691428545598,0.779336017938243,0.80005227196716,0.815298369049376,0.813434902407498,0.809597177430688,0.812146305257165,0.814702642331218,0.811379014576444,0.804912117270663,0.835814255090456,0.86426874848871,0.856439503101649,0.839802950204411,0.857962511489259,0.866357826670577,0.859235002495386,0.850864752797051,0.867500765253531,0.86114479063343,0.874259281989488,0.881790403568421,0.877270636582077,0.87554558536527,0.877034128655301,0.880023441327506,0.895665530300881,0.891563412905546,0.918087934042152,0.912857704277104,0.938640049814281,0.975503005348875,0.971380611726645,0.98060270223847,0.983261114217699,0.981843771720349,0.988006627511233,1.00125135205911,0.985331243878649,0.978479277500803,0.981351055650615,0.98416155387293,0.976931002761139,0.968977668888105,0.966434548381844,0.963719355056136,0.9846400427574,0.998509900407201,0.999218480560793,0.999771624964915,0.988243706205344,0.977214178757823,0.994320047011233,1.00222379305313,1.00566795971021,1.05760999955084,1.03748328658859,1.03040775634229,1.04103917597067,1.04212483293272,1.04227599468063,1.04411263496722,1.04688131707224,1.04968473882214,1.04862756051882,1.04652428732327,1.0448709380365,1.04266974518244,1.0451166643611,1.04753510274807,1.04122246712201,1.03420673390215,1.03567022491444,1.03721764755978,1.03722380932309,1.03731889594764,1.04424672252251,1.06467018032244,1.04461873641729,1.03480791192852,1.03435536039878,1.03388790634262,1.02399741310593,1.01611280377993,1.0136347112275,1.01180312923334,1.01078284593118,1.0097573755466,1.02920263306994,1.04025550627129,1.03967427169663,1.04128357429409,1.04043039766156,1.03934484549371,1.04073434099669,1.05502002458918,1.04347000840736,1.04313313603589,1.01757893473962,1.01815216977443,1.01738091710464,1.06132999999882,1.00906856976143,1.0017002051894,1.00359037157166,1.00372189830475,1.00595992236719,1.00643140175969,1.01214901188849,1.01563792131868,1.02830897815841,1.07495002487926,1.06423522033919,1.07765000681614,1.05352504225521,1.05367138319137,1.03841007383718,1.03969485212706,1.0364562333185,1.02750723299651,1.02711185926934,1.02477333605261,1.02642655462647,1.02778262450633,1.02371019987366
0.637478477604239,0.640133912494289,0.642329589314732,0.643946420152804,0.645111828300368,0.647268180679965,0.64836404953511,0.648931751070898,0.649276102392659,0.652488325514974,0.65347039035554,0.656205176940289,0.663746589593335,0.664406624933556,0.682541409157775,0.703017575547203,0.703272357757307,0.705032709680625,0.70594206670148,0.706987549953114,0.707690106532501,0.708224031751125,0.709754099308897,0.710879434712692,0.712973721707184,0.716212353282388,0.718146116904945,0.755315414636039,0.735456682053113,0.735693618769625,0.73394211102996,0.731137137768388,0.735686120286154,0.737025069102123,0.738398253311526,0.738463138630272,0.752619599765955,0.75521568964291,0.757334441336048,0.761939659722348,0.763483718395054,0.789808398053346,0.798101536326318,0.800287709361879,0.802199974570043,0.804022236738606,0.806115294765717,0.808626876285145,0.810742791042535,0.814564240183137,0.832715662514693,0.854242000830271,0.855317483457765,0.855575822305157,0.856879731773722,0.85784783260126,0.860182531756165,0.864236517773025,0.86780765944152,0.869210001077828,0.873245141600501,0.874024380291033,0.875729138754428,0.87630328777796,0.876422220588719,0.885289900105595,0.898925962018375,0.901439281442067,0.920572467444684,0.928501420653745,0.942164559886235,0.956811997741738,0.96123297303711,0.978225732122484,0.974530281829706,0.973628066728162,0.972502789348287,0.970615710020797,0.968490024495072,0.966772620468275,0.965816590090906,0.965598317481851,0.965845067137826,0.966620851984394,0.966596089204799,0.966756271000602,0.96879987238398,0.970224317792644,0.971108471153992,0.971816488358343,0.972845243436739,0.974652652380516,0.98924582247321,0.992704205289836,0.994271593976202,1.03922105602509,1.03766832231591,1.0364602449171,1.03908459720406,1.04015176400226,1.04009951976368,1.0401975203432,1.03929986090007,1.03785212354245,1.03644695972056,1.03523758549982,1.03421241254327,1.03332808686391,1.03285559267371,1.03262071126541,1.0325236640046,1.03279280459139,1.03181983582203,1.03073447268038,1.02923155262552,1.02715774049189,1.02459686217673,1.02183518461989,1.01925012562583,1.01714705171225,1.01563344744293,1.01461741410241,1.01392441719852,1.0134078518696,1.01296359648657,1.01185523900162,1.01084955835282,1.01062925573253,1.01053303594368,1.01054840767295,1.01048444099661,1.01041434850515,1.01049396741289,1.01090498922678,1.01180735404099,1.01327303305757,1.01517838536627,1.0171917428362,1.01579927338541,1.015032253139,1.01096401234806,1.00851968333759,1.00592063398299,1.00252439042051,1.00250683701974,1.00321972014386,1.00414910815919,1.00641405888534,1.00875161703475,1.01158892367327,1.01407707233841,1.01639062475736,1.01934183371985,1.02317677130382,1.02978525395671,1.03162386194074,1.03261273810478,1.03344230737722,1.03268204588818,1.02982814631196,1.02915233071096,1.02732869771101,1.02669746813787,1.02500373275096,1.0231552062731
0.636814005421286,0.638056053823378,0.640373308665421,0.640726671716177,0.642003378224445,0.669420999358026,0.648779909159733,0.649059988426676,0.648738276023356,0.656347472784561,0.656441424488969,0.659127119721048,0.661697035142799,0.662777380793197,0.67843059813726,0.730979999640875,0.712878435879764,0.721214239040633,0.714455050622426,0.722732882496925,0.708274739362215,0.709728183636308,0.708591241572524,0.707039176192187,0.70984155057875,0.706073087979269,0.718565870022408,0.763661999691456,0.732812436872542,0.730540072254586,0.731539446120458,0.730179579983855,0.734059715856074,0.737272904779374,0.738185949891591,0.740104399530449,0.749791015683073,0.747866149349691,0.748563939915876,0.749103608907368,0.758742015075944,0.814452999557075,0.795720326270903,0.793285925792466,0.792886377736079,0.792531006643232,0.79445784250659,0.797008501123974,0.802567899353472,0.821606837872985,0.830015491834061,0.852731693931569,0.854578606249528,0.854233917281354,0.856060100723951,0.85647298638858,0.858834584659724,0.870981354244583,0.870334780381953,0.87176927194454,0.871707535169853,0.873454241538234,0.874669004643749,0.877826584887268,0.875915345205303,0.910832409365987,0.906720175153453,0.903119013883027,0.922406827359779,0.948734844206693,0.94557716503007,0.950187975009659,0.957023025425101,0.979917381488738,0.969970508140698,0.964415470730602,0.964753380051625,0.963152807720285,0.963979053077721,0.964358777336772,0.964876988758909,0.964898496419634,0.965390490419116,0.965045597980913,0.966499348907936,0.967758931736404,0.96908027148517,0.970434089726082,0.970503765066094,0.970405425763258,0.969834619127861,0.969100589392777,0.967488741389203,0.966804024615079,0.98943588932182,1.04085823666642,1.03867919143956,1.0375758959484,1.03863029297799,1.03920015058603,1.03735706335456,1.0327520106619,1.0286272292241,1.02370484520488,1.02885468536225,1.03398715470047,1.03300027988469,1.03308453333071,1.03285104403866,1.03278983355233,1.01460393375197,0.995823288471571,0.995845231076823,0.995908085838272,0.998809018619963,1.00343788384801,1.00080007736705,1.00081429295796,1.00064494091662,1.00077381547118,1.00152314088209,1.00197060103473,1.00209390479362,0.984993000775804,0.999319334123632,0.987187984807226,1.01032351006742,1.01145465682166,1.01042167760331,1.00803605297857,1.0088746606959,1.00691868143385,1.00740991509117,1.0088632733413,1.00406967861349,1.00132842078917,1.01020902714613,1.02079852250594,1.01291148974348,1.00949853425153,1.00949296850964,1.00950585407748,1.00265529655274,0.999262903326271,1.00103818779733,1.00174456205806,1.00200372144581,0.999670797579558,1.00668007891268,1.00809293896502,1.00754133950045,1.0068014052812,1.01285280766849,1.01270740883,1.03066592630354,1.03319239984148,1.03201917921276,1.03064543659069,1.03018873441503,1.03003126422727,1.03112627886346,1.03551881020192,1.01798644921024,1.01348585509678,1.01492890903775
0.613663405199209,0.622096979066141,0.63160633558345,0.639348198792651,0.640231241362679,0.641361735326328,0.643873517196033,0.646914042284836,0.647831169634408,0.656480401578511,0.657401831062352,0.659166763201944,0.661067723695868,0.662319818055598,0.67402986667479,0.703999429808781,0.705124791333108,0.705820272896418,0.706247266658096,0.706747148825519,0.707555233459183,0.707839268228996,0.708154521333377,0.709195749490719,0.711393659428222,0.714755843718477,0.718674869097467,0.72325026731975,0.727108500155008,0.729861378286919,0.731407400943516,0.73207162495972,0.734240401394206,0.736194806906033,0.737225827132354,0.746002763524509,0.748442823400867,0.748689762050428,0.748738201111158,0.748763403586588,0.755029392272513,0.760630191757344,0.767108551593876,0.773579600330975,0.779746172917647,0.785082991480585,0.788235475582029,0.791602804093715,0.798133137286149,0.809081204157525,0.827647899157673,0.855052740942231,0.855857653696605,0.855980928820115,0.85657723596098,0.857636769711542,0.85975262115787,0.862568116069514,0.865018789600477,0.867189724670787,0.869290209066774,0.870370308671435,0.872046549517524,0.873650361507543,0.873720690394918,0.904455925953903,0.905534841144428,0.906915197550387,0.923558473411233,0.932755570210641,0.939992908414224,0.945978010587059,0.952468168714832,0.958173699974121,0.965202240655338,0.966006232774394,0.96584005512579,0.965764893704158,0.96471882024133,0.964693670621414,0.96510761493662,0.965343441865774,0.965561652757808,0.965469243887227,0.96539903496932,0.965001785786598,0.96450198170454,0.964099318467691,0.963892366766267,0.963936960554327,0.964343939265048,0.965229177581415,0.966487509113675,0.966747977615207,0.985813644025387,0.99995792107472,1.00459362116683,1.00944024167861,1.01493832660243,1.02423997142464,1.02025325982158,1.01628809903611,1.01287906676816,1.01040253599538,1.00690399882637,1.00422054548963,1.00210967684953,1.00035322843984,0.998880295913651,0.997697104931134,0.99679486275208,0.996104908293698,0.995994776906295,0.996249495073105,0.996967238589017,0.996489403571815,0.998182303701621,0.999143941574783,1.00026884731732,1.00155491546742,1.00153885242203,1.0019122749582,1.00175686723728,1.00393156376716,1.0055704280634,1.00710826548069,1.00912558072795,1.0106185177259,1.01173135293711,1.01196910573959,1.01159565361754,1.00933946300523,1.00688399720928,1.00515915085073,1.00325025507995,1.0017737361052,1.00156578728188,1.00325376207734,1.00394332632925,1.0047385664397,1.00359751249922,1.00210581326928,1.00090817848195,0.999541396189224,0.999631394266316,1.00008364257741,1.00051600649366,1.0013502704591,1.00374753402126,1.00568087546392,1.00731071857416,1.01078569160792,1.01280580751411,1.02719358582402,1.03065159928036,1.03147394564885,1.03122057108968,1.03073563063818,1.02749087627279,1.0249910260177,1.02273633551191,1.02062222000598,1.01836006001508,1.01589465598535,1.01534309579147
0.569521048654262,0.569219091924817,0.607672022378857,0.637152550625738,0.638736676170954,0.638505429266252,0.622623802625573,0.603810011794474,0.627505227855669,0.669013021399234,0.658027378543572,0.659330816181092,0.661134712920313,0.663101632355428,0.669274037237262,0.703633500321394,0.697197855986783,0.691224037112171,0.688203967419433,0.684252716905573,0.699560181981009,0.706230009557895,0.707098050061231,0.727934830653112,0.719534544161845,0.726284796353488,0.704802928711937,0.694906641270096,0.697324479430865,0.699685752999869,0.701230351403677,0.702918625254779,0.703655281724812,0.704458114858471,0.716265891391553,0.749446392823117,0.749201938617679,0.749687059729766,0.74896744235605,0.748493248178945,0.750653071189906,0.750056225033821,0.751582727659112,0.75131327393353,0.753743721583602,0.754058576363417,0.756734909546448,0.757337497574008,0.792277496249904,0.791452950109867,0.82522559222974,0.859365485252819,0.857219654254692,0.857248633045017,0.846206909443174,0.838554251696539,0.840809807859307,0.838198261481388,0.854886547476696,0.848718228699731,0.867765190798547,0.867035099964483,0.869604467774874,0.87023807552824,0.871932367961876,0.902711310255234,0.904531245161128,0.914382319841507,0.924558646909019,0.92676744072451,0.929665613457976,0.918652980198589,0.93432527684391,0.934617537379888,0.963895305136066,0.967509705513193,0.967455390206385,0.969702902805282,0.95901703942188,0.947189706210679,0.948000598929382,0.949108001396269,0.948262271372905,0.947787666897633,0.94749340159581,0.946747921268489,0.948211418633887,0.94987321341987,0.952563883330839,0.954950303047563,0.95111477088778,0.946947885442151,0.954545845770138,0.96061488188971,0.977300023454787,0.994025810214044,0.992608626949657,0.991344892284346,1.00764760958869,1.02800485203878,1.01112339720066,0.994206237935196,1.00140712146906,1.01259503892252,1.00656357670906,1.00043008323301,0.999916122321638,0.998950050787593,0.994216027629479,0.975044742132588,0.978731006193644,0.975391801954197,0.988241264870743,0.984001201318917,0.996265377078957,0.994127340157573,0.996398238437327,0.997280577420856,0.999613234212113,1.00415589764685,1.00008392766959,0.988344069412603,0.998543529781887,1.03200999959443,1.02058010303362,1.03313001160155,1.02739362001425,1.03292000710545,1.01409800318089,1.01652372849236,1.01492058493817,1.01776850146142,1.00408024808119,1.00088792013339,0.998657918926462,0.996728263698159,1.00007594815328,1.0047020810602,1.00394665861998,1.00395597870301,0.997909976812687,0.993392412875388,0.996890775074575,0.998047116670245,0.998180070343031,0.998123288601739,0.999343104162031,0.999929209806235,1.00227192459274,1.00315996205725,1.0052439545589,1.01612803859364,1.0145698400541,1.08904999999959,1.06823724575443,1.09288999999915,1.05283664395653,1.06711999957416,1.01846542637457,1.01226823029674,1.01039180308172,1.00902490847305,1.00399459094917,0.999127506258361,0.997665476696657
0.569581994262048,0.569377992857499,0.585336481851823,0.596549378607479,0.59829725268925,0.600216409193746,0.601751623516609,0.603668820899122,0.609576835793397,0.615323742740811,0.62151565133915,0.626845002271418,0.631334084604324,0.63518164090653,0.639060271095711,0.641911367457037,0.645957848211483,0.651056220963944,0.653708075366136,0.657264264670093,0.661261936497135,0.665601764796369,0.670174694504898,0.674829494748623,0.679377342067362,0.683654662621241,0.687593290914796,0.691224584329196,0.694598202042695,0.697682095240757,0.700210842571289,0.701848061589603,0.703300356390143,0.704010357719211,0.711063865693218,0.717407857517054,0.723890615872109,0.729697000274071,0.737735028619558,0.744993421139379,0.753143984688051,0.752211806816686,0.753234562100549,0.752351765376461,0.755369834938726,0.756737917815545,0.757295174534873,0.757503489485685,0.792799177553428,0.805520905458296,0.822501856220611,0.82461849356137,0.826782996757399,0.829152201768974,0.831496626393415,0.834588030099741,0.846026977112358,0.85283006641718,0.860369383321153,0.864787792035027,0.867015099067094,0.868218347531044,0.869186751789881,0.870038583749605,0.870456393169148,0.887111813748623,0.891029241031381,0.918692787326544,0.926131943327947,0.929620493766662,0.932354614874063,0.93369254003191,0.934320197552717,0.93370412931598,0.962025782261495,0.960871856325455,0.959289549216286,0.957476378088833,0.954735277745298,0.94741158735801,0.947820024875219,0.948252332263183,0.948051943914036,0.947851166686812,0.947700698843104,0.947408602485514,0.947107443582903,0.945371980896974,0.946645151238735,0.94758008096457,0.948313092296501,0.948318908501731,0.950786257648494,0.961775267472436,0.967879246334482,0.970136080330078,0.972582600521931,0.97556410446406,0.97919876237575,0.984413118787338,0.987305274943294,0.993283395051741,0.994888142888047,0.995300396888909,0.994082517353503,0.99290387492339,0.991728800888165,0.990556483833104,0.989274543622892,0.987560593890138,0.985798796211068,0.988939148207557,0.99216151549632,0.994935297575248,0.997518621035668,0.995901633141486,0.995948902897513,0.996841744705408,0.997339368981724,0.997390345208515,0.996741866510025,0.993024933219317,0.994896325787382,0.993769716817621,0.991956341669668,0.990255685353003,0.98931882272741,0.989272431731518,0.990679725525233,0.992661366196272,0.99236763724634,0.993165065071211,0.994831711651489,0.996428785938744,0.997585913947789,0.997069345735737,0.997521106014339,0.996686617187838,0.995102307254103,0.994631656732757,0.994720539619545,0.994305219116046,0.99608100514721,0.996563790983153,0.996852548031083,0.996270408090732,0.996406143169389,0.996288075027785,0.995737748344107,0.995076839638223,0.994288343397365,0.993426355613759,0.992615040523509,0.991993504033961,0.99166476820762,0.991668719765156,0.991974909138863,0.992494908976277,0.993121291559212,0.99378622657143,0.994507303059241,0.995381496920326,0.996513519545396,0.997935651289367,0.997809061437953
