0.172738, 0.172067, 0.171035, 0.171313, 0.171251, 0.167032, 0.16559, 0.166426, 0.00389701, 0.0031546, 0.00354207, 0.136352, 0.136843, 0.135367, 0.136391, 0.00352908, 0.00356787, 0.00357509, 0.003521, 0.00365814, 0.00345821, 0.0623772, 0.0614642, 0.061158, 0.0608675, 0.0609632, 0.0617063, 0.0039618, 0.0035579, 0.0511001, 0.00337192, 0.00372684, 0.00345225, 0.00353167, 0.00345417, 0.00327894, 0.00343357, 0.010112, 0.004264, 0.00333847, 0.00357216, 0.00350266, 0.00318085, 0.00354985, 0.00337322, 0.0380579, 0.039233, 0.0392975, 0.00334441, 0.0787612, 0.0785984, 0.0789759, 0.0844821, 0.0852808, 0.00360082, 0.00359593, 0.00340155, 0.00340576, 0.00337364, 0.00353879, 0.00346296, 0.529873, 0.529498, 0.00377735, 0.00322725, 0.00355395, 0.00351077, 0.00336837, 0.51928, 0.00337942, 0.00311717, 0.00360352, 0.00339741, 0.00344805, 0.00337914, 0.00343345, 0.00345075, 0.00333645, 0.00335747, 0.265523, 0.0033013, 0.00345225, 0.00359717, 0.348006, 0.348616, 0.348597, 0.348006, 0.348144, 0.348281, 0.41313, 0.373112, 0.393619, 0.370711, 0.377975, 0.355704, 0.378904, 0.382351, 0.330309, 0.329826, 0.407919, 0.39134, 0.388315, 0.389672, 0.364159, 0.364917, 0.392713, 0.393983, 0.393898, 0.457377, 0.462475, 0.462828, 0.49953, 0.556644, 0.520444, 0.522855, 0.646349, 0.643551, 0.652135, 0.74743, 0.748777, 0.783498, 0.885171, 0.8915, 0.991543, 0.982492, 0.999873, 0.998368, 1.089, 1.11019, 1.14528, 1.15488, 1.18034, 1.17705, 1.20262, 1.23774, 1.26427, 1.26414, 1.28961, 1.28027, 1.29955, 1.29574, 1.32044, 1.32357, 1.36295, 1.35637, 1.38577, 1.3891, 1.37924, 1.38043, 1.4306, 1.46982, 1.50718, 1.46339, 1.44127, 1.44521, 1.44655, 1.50156, 1.44099, 1.44169, 1.43956, 1.44724, 1.44817, 1.43401, 1.40012, 1.36045, 1.35803, 1.35727, 1.34873, 1.35142, 1.33189, 1.34135, 1.32165, 1.32922, 1.28578, 1.29439, 1.298, 1.30095, 1.29946, 1.2853, 1.29776, 1.29297, 1.31132, 1.28517, 1.28021, 1.28186, 1.28105, 1.26818, 1.27819, 1.32692, 1.27216, 1.25395, 1.2445, 1.24311, 1.21028, 1.21022, 1.20898, 1.2291, 1.23521, 1.20558, 1.19391, 1.18992, 1.16924, 1.16826, 1.15668, 1.16359, 1.1632, 1.16535, 1.16649, 1.14591, 1.13631, 1.14406, 1.13592, 1.14542, 1.18369, 1.13222, 1.14664, 1.11153, 1.12343, 1.1373, 1.15406, 1.15679, 1.12247, 1.1151, 1.13405, 1.14182, 1.16477, 1.17605, 1.21955, 1.20102, 1.20645, 1.2087, 0.00333112, 1.23127, 1.23123, 1.23241, 1.23329, 1.23729, 1.23933, 0.00333428, 1.29959, 0.00367252, 0.00337505, 1.2866, 1.28873, 1.29375, 1.29888, 1.30426, 1.30486, 1.30716, 1.30941, 0.00326473, 0.00397583, 0.0034455, 1.43757, 0.00327369, 1.35128, 1.35289, 1.3571, 1.3581, 1.47358, 1.38249, 1.38839, 1.39155, 1.39489, 1.39561, 1.40278, 1.40468, 1.40575, 0.00329644, 0.00363177, 1.42733, 1.43057, 1.43387, 1.438, 0.00366295, 0.00335585, 0.00348963, 0.00348128, 1.77041, 1.76801, 0.00318561, 1.4992, 1.49818, 1.50591, 1.50569, 1.5074, 1.51458, 1.52609, 1.53055, 1.52924, 0.00361111, 1.54036, 0.00340861, 1.5612, 0.00351609
0.00371029, 0.172101, 0.00359619, 0.166841, 0.166475, 0.166199, 0.165315, 0.00339415, 0.00375253, 0.137393, 0.136173, 0.135448, 0.134593, 0.133423, 0.133496, 0.133781, 0.00348516, 0.0039589, 0.00353152, 0.00351342, 0.07134, 0.0697526, 0.069415, 0.0680446, 0.0627837, 0.063169, 0.0633871, 0.0641338, 0.00388092, 0.00356357, 0.0475939, 0.0448145, 0.0423219, 0.00372707, 0.0417868, 0.0035536, 0.0316353, 0.00379776, 0.0106422, 0.00352888, 0.00390499, 0.00364047, 0.00382593, 0.00366063, 0.00378862, 0.00347677, 0.00338639, 0.00324477, 0.00358721, 0.0763655, 0.0767073, 0.0771157, 0.0851021, 0.00352255, 0.0860962, 0.00336867, 0.00341567, 0.00326368, 0.00351706, 0.00347653, 0.00346165, 0.00333239, 0.00352035, 0.00336109, 0.00324651, 0.00338809, 0.00348143, 0.00341017, 0.519132, 0.00347989, 0.00355637, 0.00352414, 0.00365051, 0.00361797, 0.00343626, 0.23342, 0.234239, 0.00345818, 0.00344102, 0.00343376, 0.00348963, 0.00347629, 0.00360205, 0.342346, 0.343065, 0.346196, 0.344765, 0.348079, 0.348037, 0.0032454, 0.376777, 0.355708, 0.383926, 0.384781, 0.376197, 0.334819, 0.328321, 0.317188, 0.362838, 0.367366, 0.376344, 0.37735, 0.418763, 0.41816, 0.413897, 0.365302, 0.365855, 0.394858, 0.414765, 0.400932, 0.520416, 0.501491, 0.520887, 0.526356, 0.550392, 0.540179, 0.553449, 0.636795, 0.72533, 0.764962, 0.7845, 0.804248, 0.877052, 0.884214, 0.888114, 0.946361, 0.991395, 0.993798, 1.02861, 1.14124, 1.13111, 1.14411, 1.15672, 1.18147, 1.21231, 1.28618, 1.25902, 1.30375, 1.29434, 1.30324, 1.30204, 1.31274, 1.32944, 1.35955, 1.3586, 1.38127, 1.4201, 1.43023, 1.42145, 1.4336, 1.48131, 1.45399, 1.46691, 1.45277, 1.47389, 1.44661, 1.44776, 1.46149, 1.46423, 1.43318, 1.44634, 1.44405, 1.36889, 1.37046, 1.37806, 1.38652, 1.44663, 1.362, 1.36554, 1.30309, 1.3021, 1.2843, 1.28476, 1.28809, 1.28867, 1.2967, 1.29627, 1.3086, 1.28711, 1.28787, 1.27263, 1.27673, 1.28186, 1.26695, 1.2716, 1.26075, 1.25755, 1.26448, 1.26256, 1.26716, 1.26614, 1.23037, 1.22996, 1.20314, 1.19907, 1.18993, 1.20333, 1.19921, 1.20249, 1.17118, 1.18003, 1.17128, 1.17746, 1.16436, 1.15209, 1.16222, 1.16172, 1.13433, 1.13621, 1.14101, 1.14433, 1.12658, 1.1289, 1.11773, 1.11846, 1.12175, 1.11909, 1.11313, 1.11228, 1.11534, 1.12568, 1.13346, 1.14467, 1.14371, 1.14192, 1.21201, 1.21217, 1.21658, 1.20176, 1.20238, 1.21043, 0.00332364, 1.22931, 1.23041, 1.23306, 1.23673, 1.2385, 1.24635, 1.25462, 0.00331219, 1.27513, 1.27494, 1.27983, 0.00332799, 0.00399549, 0.00345819, 1.30098, 1.29676, 1.29259, 1.30305, 1.30182, 1.46124, 0.00354228, 0.00343889, 1.3431, 1.34454, 1.34975, 1.34762, 1.4724, 1.46339, 0.00359852, 1.38844, 1.38993, 1.3966, 1.39903, 1.39973, 1.40819, 1.40832, 1.41455, 0.00341797, 1.42647, 1.43241, 1.43375, 1.44378, 1.45115, 1.45239, 1.7726, 1.46904, 1.46976, 1.57683, 1.48813, 1.48674, 1.49104, 0.00320182, 1.50672, 1.50953, 1.51543, 1.52616, 1.52928, 1.5365, 1.54114, 1.54018, 1.53998, 1.55079, 0.00355468
0.00345995, 0.00350502, 0.00387498, 0.00348755, 0.00389692, 0.16714, 0.00368586, 0.00351919, 0.00391183, 0.00363114, 0.00356369, 0.133771, 0.131477, 0.131064, 0.130207, 0.129463, 0.129165, 0.129463, 0.00341369, 0.00321483, 0.0711509, 0.0700466, 0.00334721, 0.0648238, 0.0660406, 0.0660073, 0.0654998, 0.0606691, 0.0587573, 0.0595663, 0.0591251, 0.0483522, 0.0506319, 0.0487043, 0.0477623, 0.0455887, 0.00370354, 0.00350141, 0.0038492, 0.00415969, 0.0044252, 0.0152838, 0.00396328, 0.00403348, 0.00381673, 0.00330866, 0.00348656, 0.00351754, 0.00339936, 0.00353527, 0.00338092, 0.00361979, 0.00367009, 0.00359066, 0.00364351, 0.00361181, 0.00346122, 0.110617, 0.00330867, 0.11157, 0.111434, 0.470357, 0.127997, 0.00368897, 0.00350861, 0.00348383, 0.00358966, 0.00376503, 0.00333137, 0.00350571, 0.0033208, 0.00366507, 0.00349071, 0.00341192, 0.00351577, 0.0034856, 0.00357193, 0.00387949, 0.00344412, 0.00348079, 0.00384104, 0.00353993, 0.00335718, 0.00365191, 0.00312553, 0.345796, 0.344385, 0.343172, 0.343724, 0.344221, 0.344264, 0.321113, 0.326133, 0.32473, 0.331875, 0.337598, 0.338672, 0.327939, 0.320642, 0.340876, 0.369052, 0.380901, 0.376718, 0.376271, 0.41063, 0.404643, 0.39309, 0.3855, 0.431348, 0.379941, 0.417497, 0.455905, 0.500293, 0.5145, 0.49012, 0.528904, 0.567044, 0.551939, 0.681293, 0.703642, 0.742735, 0.768077, 0.753118, 0.779975, 0.874054, 0.918997, 0.919526, 0.918326, 1.02159, 1.04038, 1.0795, 1.08002, 1.17244, 1.1911, 1.24627, 1.25478, 1.33873, 1.29249, 1.29526, 1.30593, 1.3027, 1.30821, 1.3508, 1.38368, 1.37585, 1.37316, 1.41923, 1.42702, 1.4493, 1.44706, 1.44854, 1.43331, 1.444, 1.43159, 1.44809, 1.4502, 1.43171, 1.44294, 1.45966, 1.46085, 1.38558, 1.37775, 1.37457, 1.41807, 1.41199, 1.38445, 1.38121, 1.37739, 1.36895, 1.37165, 1.30568, 1.30009, 1.28735, 1.28822, 1.29047, 1.28012, 1.28734, 1.34038, 1.26478, 1.24901, 1.29762, 1.25696, 1.26516, 1.2551, 1.24857, 1.24887, 1.2787, 1.24726, 1.26097, 1.28258, 1.28157, 1.27802, 1.2197, 1.21969, 1.20768, 1.20688, 1.19412, 1.19587, 1.19876, 1.1793, 1.16104, 1.16208, 1.16406, 1.13926, 1.14777, 1.15272, 1.16075, 1.14356, 1.1479, 1.15757, 1.10189, 1.09991, 1.08848, 1.10673, 1.09195, 1.09395, 1.13062, 1.14386, 1.14657, 1.21898, 1.13568, 1.13453, 1.13144, 1.15442, 1.15673, 1.17368, 1.17869, 1.20096, 1.19964, 1.19733, 1.20518, 1.22156, 1.22258, 1.23275, 1.23458, 1.23471, 1.2372, 1.24062, 1.25431, 1.27052, 1.27099, 1.27258, 1.27874, 1.28152, 1.29257, 1.29533, 1.29848, 1.29836, 1.29938, 1.30523, 1.30561, 1.42897, 1.4612, 1.44749, 1.45239, 1.46102, 1.44719, 1.45853, 1.36646, 1.36695, 1.46196, 1.40328, 1.39285, 1.39608, 1.4008, 1.40158, 1.40892, 1.40911, 1.41111, 1.42037, 1.42409, 1.4311, 0.00349984, 1.44521, 1.44796, 1.45193, 1.46324, 1.46371, 1.46829, 1.48069, 1.48142, 1.48338, 0.00351564, 0.00361209, 0.00327596, 1.51638, 1.51524, 1.51813, 1.52889, 0.00356934, 1.54159, 1.54187, 0.00331806, 0.00344547, 0.0034258
0.00350471, 0.00366774, 0.00360915, 0.00364575, 0.00370825, 0.0034096, 0.00357092, 0.166602, 0.165568, 0.164833, 0.164531, 0.00377724, 0.130928, 0.130269, 0.130298, 0.128625, 0.128414, 0.127723, 0.105553, 0.104605, 0.104305, 0.104561, 0.104796, 0.00381393, 0.0642912, 0.0637128, 0.0634131, 0.0629439, 0.0587014, 0.057848, 0.0573312, 0.0495892, 0.049139, 0.0505458, 0.0486964, 0.0482248, 0.00379563, 0.00359202, 0.0169913, 0.00369913, 0.00382356, 0.00436819, 0.00478257, 0.00416886, 0.00602742, 0.0155807, 0.00377703, 0.00354182, 0.00326947, 0.00330234, 0.00346958, 0.00328203, 0.00338529, 0.0033146, 0.00331624, 0.00337746, 0.0035171, 0.109368, 0.00364891, 0.0032177, 0.00364379, 0.00330828, 0.134861, 0.131117, 0.130721, 0.131246, 0.00379666, 0.00343884, 0.00336016, 0.0032286, 0.00382039, 0.00369264, 0.00341457, 0.00316245, 0.00392332, 0.00330906, 0.00328812, 0.00334886, 0.00373001, 0.00342774, 0.00360722, 0.00352609, 0.00331388, 0.00341049, 0.00364188, 0.332199, 0.329642, 0.329044, 0.328554, 0.338357, 0.337272, 0.330177, 0.331119, 0.331889, 0.404246, 0.34596, 0.40106, 0.400889, 0.409678, 0.390298, 0.344893, 0.345991, 0.346111, 0.385686, 0.378616, 0.386244, 0.383731, 0.415442, 0.413732, 0.406691, 0.451801, 0.459395, 0.460168, 0.480702, 0.467313, 0.542222, 0.528467, 0.548145, 0.54723, 0.719214, 0.711486, 0.710094, 0.711831, 0.731544, 0.77069, 0.850933, 0.927182, 0.922161, 0.967774, 0.956599, 1.09478, 1.07185, 1.07789, 1.15332, 1.23738, 1.26871, 1.26777, 1.28908, 1.31798, 1.31563, 1.31301, 1.31225, 1.33641, 1.38571, 1.38331, 1.38371, 1.38537, 1.39573, 1.42825, 1.42979, 1.44283, 1.44397, 1.44376, 1.43201, 1.42419, 1.42412, 1.42439, 1.41627, 1.41318, 1.37929, 1.39602, 1.35776, 1.3756, 1.38751, 1.36105, 1.37193, 1.37195, 1.31331, 1.36766, 1.46231, 1.46738, 1.31042, 1.3159, 1.30653, 1.27669, 1.2787, 1.2979, 1.29599, 1.29578, 1.23862, 1.257, 1.25936, 1.26119, 1.24491, 1.25393, 1.2655, 1.26501, 1.2669, 1.23855, 1.26669, 1.276, 1.21297, 1.21338, 1.2026, 1.21291, 1.20732, 1.18277, 1.18464, 1.17787, 1.18115, 1.16096, 1.17058, 1.14602, 1.1154, 1.12216, 1.12447, 1.1226, 1.1266, 1.12921, 1.15348, 1.12391, 1.1261, 1.105, 1.14052, 1.11248, 1.11869, 1.15035, 1.13393, 1.13539, 1.13903, 1.15482, 1.15368, 1.14651, 1.13021, 1.17013, 1.16811, 1.19235, 1.19682, 1.19277, 1.19301, 1.20487, 1.22024, 1.22497, 1.22689, 1.23223, 1.23461, 1.23655, 1.24294, 0.0035529, 1.2675, 1.26823, 0.00364657, 1.27776, 0.00332778, 0.00367428, 1.29562, 1.29327, 1.29551, 1.29854, 1.2994, 1.46546, 0.0033786, 1.4551, 1.45768, 1.46026, 1.45177, 1.35232, 1.45495, 1.36136, 1.36082, 1.38425, 0.00352799, 1.3889, 1.396, 0.00362124, 1.40029, 1.40207, 1.4055, 1.41644, 1.41956, 0.00355576, 0.00314878, 1.44136, 1.44764, 1.44805, 1.45831, 1.45792, 1.5645, 1.47775, 1.47628, 1.48309, 1.48496, 1.48636, 0.00363752, 0.00357212, 0.00325086, 0.00381008, 0.00360367, 1.53329, 0.00333631, 0.00364785, 1.55099, 1.55771, 0.00340963, 0.00369903
0.00351087, 0.0038906, 0.00375862, 0.00380641, 0.0034694, 0.003815, 0.00358641, 0.165772, 0.164744, 0.164009, 0.163891, 0.163516, 0.00368658, 0.131523, 0.00360497, 0.00354722, 0.00370641, 0.106059, 0.104649, 0.103767, 0.103056, 0.102915, 0.103555, 0.00334994, 0.00328029, 0.0642938, 0.0631335, 0.0612543, 0.0599066, 0.0585859, 0.0584988, 0.0586709, 0.0494555, 0.0493253, 0.0499174, 0.0495613, 0.00355344, 0.00338174, 0.00348746, 0.00369166, 0.00400018, 0.0167947, 0.00346362, 0.013739, 0.0160803, 0.0181191, 0.0164997, 0.00334294, 0.00360613, 0.00334362, 0.00339093, 0.0034299, 0.00343393, 0.00360478, 0.00346885, 0.00346477, 0.00317918, 0.00354131, 0.00344638, 0.0970813, 0.00355275, 0.00368049, 0.00328638, 0.00344908, 0.00341169, 0.130312, 0.00331424, 0.00352656, 0.00338815, 0.00351412, 0.00329233, 0.00358822, 0.00345697, 0.00385134, 0.00360325, 0.00368239, 0.00330539, 0.00374411, 0.00364914, 0.00363403, 0.0034858, 0.00358833, 0.00334798, 0.0034765, 0.0032931, 0.330915, 0.329274, 0.329301, 0.33061, 0.330401, 0.33092, 0.332978, 0.331559, 0.333201, 0.336669, 0.335304, 0.400823, 0.403442, 0.395117, 0.395754, 0.372417, 0.370646, 0.373924, 0.399135, 0.385509, 0.397625, 0.393169, 0.411755, 0.435139, 0.407949, 0.400211, 0.459031, 0.494675, 0.476493, 0.456179, 0.5048, 0.504977, 0.565693, 0.56757, 0.600978, 0.639623, 0.706711, 0.710787, 0.742529, 0.780607, 0.76872, 0.807251, 0.807961, 0.946643, 0.947113, 0.956961, 1.07196, 1.07823, 1.1895, 1.18712, 1.24763, 1.27718, 1.29772, 1.37004, 1.31776, 1.31837, 1.34057, 1.4193, 1.35166, 1.40858, 1.38945, 1.39288, 1.41066, 1.41496, 1.41383, 1.43762, 1.46557, 1.40596, 1.40655, 1.4056, 1.39121, 1.40272, 1.40585, 1.41341, 1.37344, 1.36506, 1.38501, 1.37728, 1.36383, 1.35826, 1.29513, 1.30808, 1.31358, 1.32663, 1.47169, 1.47157, 1.46412, 1.28748, 1.2929, 1.28862, 1.31009, 1.25941, 1.24396, 1.24167, 1.24675, 1.24802, 1.27518, 1.26722, 1.26867, 1.2535, 1.25223, 1.25488, 1.25705, 1.24998, 1.24494, 1.25491, 1.24695, 1.23856, 1.27085, 1.19581, 1.20572, 1.19114, 1.20276, 1.18097, 1.16508, 1.15787, 1.1645, 1.14017, 1.14278, 1.12371, 1.13966, 1.13969, 1.13638, 1.13986, 1.15046, 1.16698, 1.17057, 1.11946, 1.11021, 1.1413, 1.1464, 1.15692, 1.14208, 1.146, 1.10376, 1.10495, 1.11681, 1.13748, 1.15389, 1.15624, 1.17471, 1.18595, 1.18888, 1.19167, 1.19165, 1.19954, 0.00353089, 0.0033292, 1.22203, 1.22247, 0.00378183, 0.00337492, 0.00337223, 1.25075, 0.00346238, 1.26533, 1.27233, 1.27847, 1.43385, 1.29858, 1.29641, 1.29188, 1.29581, 1.29658, 1.29884, 1.45415, 1.4599, 1.45227, 1.44446, 1.44838, 1.34766, 1.34869, 1.34764, 1.35239, 0.00350099, 0.00335029, 1.38234, 1.39184, 1.39121, 1.39494, 1.39539, 1.40149, 0.00344348, 1.41713, 1.41866, 0.00354854, 1.43681, 1.44258, 1.44326, 1.75828, 0.0035086, 0.00373855, 1.47533, 1.47662, 1.48034, 1.48545, 1.49046, 1.49113, 1.49642, 0.00350084, 1.51632, 0.0034827, 1.52957, 0.00330235, 0.00302972, 0.00350748, 0.00352857, 1.56448, 1.88993, 1.56889
0.00403377, 0.00336478, 0.00341517, 0.00338033, 0.00335454, 0.00364278, 0.00365635, 0.00324499, 0.165892, 0.165005, 0.164783, 0.00380926, 0.00382902, 0.00380201, 0.00340434, 0.00350899, 0.130204, 0.00357987, 0.00399397, 0.00311556, 0.00369047, 0.00350897, 0.00354584, 0.00327713, 0.0640141, 0.064385, 0.0655054, 0.0791327, 0.0626489, 0.00351401, 0.0616636, 0.00357534, 0.00329804, 0.0532466, 0.0038193, 0.00382211, 0.00336399, 0.00343784, 0.00336474, 0.0038087, 0.00349393, 0.00346598, 0.00450003, 0.0100286, 0.0124228, 0.00380643, 0.0259193, 0.00387841, 0.00334408, 0.00338874, 0.00335742, 0.00364899, 0.00335743, 0.00338306, 0.529817, 0.00345708, 0.00329429, 0.00314318, 0.003307, 0.00354443, 0.0989513, 0.00345422, 0.00352077, 0.00361221, 0.00345754, 0.00351947, 0.51017, 0.00346826, 0.00341573, 0.00356465, 0.160588, 0.00335436, 0.0033597, 0.00350239, 0.00348996, 0.00328432, 0.00347398, 0.00325522, 0.00339324, 0.00350143, 0.00360375, 0.00356219, 0.00358056, 0.00358015, 0.325324, 0.328068, 0.329017, 0.33217, 0.331753, 0.331155, 0.325489, 0.332371, 0.331371, 0.346779, 0.335304, 0.368946, 0.411648, 0.37322, 0.373319, 0.372591, 0.422919, 0.423974, 0.381588, 0.382819, 0.427846, 0.414814, 0.372404, 0.375746, 0.375791, 0.375447, 0.463568, 0.479628, 0.471184, 0.522582, 0.487514, 0.507636, 0.49028, 0.566178, 0.586091, 0.583164, 0.607282, 0.607609, 0.725024, 0.728823, 0.749044, 0.780033, 0.763836, 0.812873, 0.839763, 0.91607, 1.00329, 1.02224, 1.10249, 1.10137, 1.18589, 1.22091, 1.25089, 1.25085, 1.3095, 1.31236, 1.3099, 1.32972, 1.32954, 1.36526, 1.35751, 1.38593, 1.36867, 1.39939, 1.39632, 1.39489, 1.39862, 1.39918, 1.37757, 1.3892, 1.40403, 1.40188, 1.38865, 1.34864, 1.35108, 1.33503, 1.33441, 1.32502, 1.28649, 1.28779, 1.27894, 1.28844, 1.28506, 1.26164, 1.27081, 1.26186, 1.27972, 1.29973, 1.29637, 1.24862, 1.26906, 1.27215, 1.24948, 1.24767, 1.24742, 1.22985, 1.22899, 1.24135, 1.23646, 1.24177, 1.24357, 1.23022, 1.23208, 1.22786, 1.24359, 1.23548, 1.22004, 1.19802, 1.19884, 1.19526, 1.19882, 1.18167, 1.16711, 1.16855, 1.16815, 1.14896, 1.16079, 1.14121, 1.14679, 1.17915, 1.12756, 1.13281, 1.12252, 1.12392, 1.12296, 1.11176, 1.09965, 1.10351, 1.12243, 1.10538, 1.10618, 1.13301, 1.1269, 1.12564, 1.12059, 1.12504, 1.08934, 1.10252, 1.12188, 1.16167, 1.16262, 1.17658, 1.18002, 1.18228, 1.18567, 1.18821, 0.00343535, 1.2103, 1.21639, 1.21468, 1.21516, 1.21597, 1.25434, 0.00339294, 0.00356752, 0.00344752, 0.0033565, 1.2736, 1.27424, 1.43751, 1.28723, 1.43686, 1.28646, 1.28814, 1.29109, 1.29471, 1.4517, 1.44974, 1.31903, 1.43156, 1.43702, 1.35013, 1.35029, 1.35598, 1.35744, 1.37736, 0.00365519, 1.38277, 1.38919, 1.39257, 1.3935, 1.39944, 1.3999, 1.40638, 1.41291, 0.00332508, 1.43363, 0.00343443, 1.42985, 1.45003, 1.45485, 0.00332015, 1.46704, 1.46873, 0.00322258, 1.48046, 1.48705, 1.4914, 1.49929, 1.50013, 1.51232, 0.00342891, 0.00359921, 0.00358533, 0.00370141, 0.00320293, 1.55388, 1.55213, 1.555, 1.5654, 1.57152
0.00355492, 0.0033453, 0.00329219, 0.00366122, 0.00351822, 0.0034765, 0.00290483, 0.0036076, 0.00363396, 0.187436, 0.00344299, 0.00347944, 0.00308587, 0.0037943, 0.00363065, 0.00375576, 0.00351585, 0.00348553, 0.00369429, 0.00343282, 0.0034668, 0.00387121, 0.00347774, 0.092524, 0.00357424, 0.00327166, 0.00369945, 0.00373852, 0.00327525, 0.0649099, 0.0034362, 0.065575, 0.00340886, 0.00363272, 0.00361197, 0.0378055, 0.00367788, 0.00362356, 0.00364456, 0.00341711, 0.00364408, 0.0039518, 0.00368571, 0.00362242, 0.00328602, 0.00382692, 0.00421603, 0.00382218, 0.00306826, 0.00378957, 0.0033843, 0.00344727, 0.00348387, 0.547274, 0.00366167, 0.00345054, 0.00340643, 0.00358425, 0.00349473, 0.00356313, 0.00358186, 0.44432, 0.00350821, 0.00333258, 0.00328938, 0.510154, 0.00344783, 0.512411, 0.00327858, 0.00352511, 0.00347104, 0.168308, 0.168404, 0.00361048, 0.00313486, 0.0038701, 0.00345277, 0.00357135, 0.00339433, 0.00374438, 0.0034372, 0.00345608, 0.00318328, 0.00362777, 0.0032013, 0.00361473, 0.330567, 0.330924, 0.00337849, 0.332496, 0.334355, 0.329274, 0.330717, 0.349093, 0.350019, 0.376921, 0.387289, 0.371096, 0.371649, 0.406728, 0.40714, 0.407817, 0.380595, 0.420447, 0.383059, 0.377925, 0.375955, 0.37834, 0.446717, 0.452391, 0.430174, 0.4483, 0.473178, 0.486573, 0.504403, 0.50725, 0.498737, 0.528846, 0.551468, 0.606864, 0.600781, 0.580118, 0.61175, 0.611117, 0.73236, 0.739802, 0.752682, 0.758363, 0.780798, 0.844111, 0.939445, 0.974711, 0.977573, 1.13342, 1.15957, 1.16569, 1.21888, 1.26813, 1.29659, 1.30915, 1.30332, 1.30897, 1.32295, 1.34097, 1.33373, 1.33751, 1.32709, 1.32369, 1.34746, 1.3842, 1.37846, 1.37837, 1.37585, 1.36059, 1.35388, 1.36204, 1.33638, 1.33331, 1.32219, 1.32941, 1.29316, 1.28506, 1.26812, 1.26674, 1.26817, 1.27574, 1.31361, 1.25852, 1.26855, 1.25957, 1.25607, 1.24516, 1.24586, 1.26211, 1.23723, 1.23444, 1.24573, 1.22569, 1.23197, 1.23953, 1.27866, 1.23065, 1.22014, 1.2466, 1.22954, 1.21788, 1.20888, 1.18821, 1.19182, 1.20978, 1.18848, 1.16979, 1.15016, 1.17216, 1.17496, 1.14994, 1.14674, 1.14967, 1.15652, 1.15662, 1.15756, 1.14262, 1.11312, 1.13773, 1.12462, 1.1398, 1.11897, 1.11821, 1.09986, 1.10919, 1.09912, 1.10126, 1.11262, 1.12539, 1.12035, 1.08518, 1.08903, 1.1009, 1.11462, 1.12392, 1.10997, 1.11344, 1.15824, 1.16046, 1.16529, 1.16637, 1.17465, 1.17519, 1.18173, 1.18594, 1.20146, 1.20836, 1.21079, 1.21054, 1.21407, 1.21927, 1.2222, 1.25695, 0.00353191, 1.25115, 1.26243, 1.27046, 1.4333, 1.4363, 0.00326551, 1.28206, 1.28211, 1.28418, 1.28607, 1.28873, 1.43981, 1.43776, 1.43757, 0.00355048, 0.00338117, 1.34341, 0.00328066, 1.35884, 0.00349574, 0.00340208, 1.37922, 1.38521, 1.38508, 1.3958, 1.396, 1.39615, 1.39644, 0.00360703, 1.40284, 1.43396, 1.44056, 1.45042, 0.0035266, 1.45524, 1.45542, 1.45966, 1.46563, 1.4685, 1.47022, 1.48296, 1.48956, 1.49926, 1.49876, 1.50182, 0.00325162, 0.00315849, 1.86624, 0.00383344, 0.00333857, 1.54355, 1.55434, 1.55207, 0.00335145, 1.56268, 0.0030386
0.00357418, 0.00337, 0.0035393, 0.00369435, 0.00332469, 0.00333049, 0.00346734, 0.00333551, 0.00334244, 0.00338286, 0.00361738, 0.00362003, 0.00342271, 0.00355636, 0.00352745, 0.00350658, 0.00353513, 0.00389728, 0.00352598, 0.00332802, 0.00368498, 0.00339579, 0.00368862, 0.00345744, 0.0909969, 0.0904641, 0.0911137, 0.0902399, 0.00332456, 0.00335651, 0.00356634, 0.00334229, 0.00340749, 0.00340979, 0.00364592, 0.00332504, 0.00357959, 0.00350338, 0.00343218, 0.00357366, 0.00358065, 0.0280997, 0.00353151, 0.0040215, 0.00377171, 0.0033501, 0.004391, 0.00401353, 0.00322082, 0.00379065, 0.538363, 0.53565, 0.041456, 0.527874, 0.00358508, 0.00353595, 0.0829062, 0.00329062, 0.445705, 0.444664, 0.444908, 0.445709, 0.445173, 0.00333911, 0.0037548, 0.120783, 0.121259, 0.00347053, 0.0037396, 0.00339674, 0.167972, 0.00345468, 0.00342656, 0.00347571, 0.00364912, 0.00312541, 0.0033049, 0.0033234, 0.00361856, 0.00353763, 0.00373443, 0.00326407, 0.00368388, 0.00329204, 0.00368562, 0.00344824, 0.0033734, 0.00366253, 0.314677, 0.315337, 0.313953, 0.330411, 0.345856, 0.346624, 0.347796, 0.378752, 0.380635, 0.392609, 0.407279, 0.408621, 0.410164, 0.41008, 0.420544, 0.424819, 0.418503, 0.42791, 0.376498, 0.377485, 0.377645, 0.404528, 0.488323, 0.456109, 0.482897, 0.491857, 0.477691, 0.520662, 0.519818, 0.519257, 0.545114, 0.59036, 0.594733, 0.615246, 0.59774, 0.584429, 0.614485, 0.664396, 0.669825, 0.737732, 0.74967, 0.749911, 0.824874, 0.949963, 0.950105, 1.10434, 1.10522, 1.13605, 1.17203, 1.17448, 1.2224, 1.25493, 1.24859, 1.27022, 1.27115, 1.27878, 1.28089, 1.28049, 1.28969, 1.3098, 1.35301, 1.36125, 1.33082, 1.33158, 1.32564, 1.33723, 1.34412, 1.3261, 1.30287, 1.30844, 1.3208, 1.32344, 1.28266, 1.27366, 1.27238, 1.25706, 1.26587, 1.26711, 1.24372, 1.24123, 1.23709, 1.24456, 1.2609, 1.23796, 1.23951, 1.23237, 1.23751, 1.20281, 1.20606, 1.22892, 1.22276, 1.22367, 1.21298, 1.22019, 1.17776, 1.19699, 1.18796, 1.1581, 1.15722, 1.17031, 1.16729, 1.16287, 1.1474, 1.13722, 1.15458, 1.15836, 1.15538, 1.15723, 1.14996, 1.14713, 1.14712, 1.15559, 1.15789, 1.11412, 1.11534, 1.12322, 1.14093, 1.12523, 1.13652, 1.12438, 1.11998, 1.09133, 1.1234, 1.11843, 1.15933, 1.09878, 1.13271, 1.11981, 1.09183, 1.09117, 1.12792, 1.10146, 1.08322, 1.14652, 1.14673, 1.17091, 1.16383, 1.16433, 1.16777, 1.17465, 1.17827, 1.1888, 1.18897, 0.00333422, 1.2065, 1.20866, 1.21313, 1.21854, 1.22114, 1.22242, 1.22909, 0.00340631, 1.2725, 1.26372, 1.26963, 1.26944, 1.27137, 1.27502, 1.2777, 1.28264, 1.28423, 1.46374, 1.46187, 1.43988, 1.44088, 1.44184, 1.4439, 1.44984, 1.3508, 0.00392708, 0.00349158, 1.37981, 1.38216, 1.38143, 1.39173, 1.39263, 1.39715, 0.00349108, 1.42495, 1.40956, 1.44078, 1.45115, 1.41926, 1.41756, 1.43537, 1.45701, 1.45895, 1.45962, 1.46837, 1.47783, 1.47745, 1.48247, 1.48744, 1.49258, 1.4922, 1.50064, 1.50882, 0.00327707, 0.0035763, 0.00359141, 1.54161, 1.542, 1.5442, 0.00337956, 1.55419, 1.55717, 1.5638
0.00334398, 0.00330899, 0.0034932, 0.00352869, 0.00347972, 0.00368717, 0.00363384, 0.010593, 0.00392578, 0.00374394, 0.00354959, 0.0036985, 0.00365219, 0.00395101, 0.00322867, 0.00320949, 0.00339151, 0.00365475, 0.00346681, 0.00359685, 0.00360084, 0.00364486, 0.00369455, 0.0035206, 0.00332869, 0.0954236, 0.0927117, 0.0925794, 0.00344633, 0.00358043, 0.00343515, 0.0796454, 0.0802834, 0.00345148, 0.00356083, 0.00362885, 0.00352708, 0.00358196, 0.00358691, 0.00361851, 0.00379803, 0.0130015, 0.00332107, 0.00381066, 0.00916495, 0.0092661, 0.00557187, 0.00455346, 0.00371591, 0.00355104, 0.00345043, 0.532089, 0.0036762, 0.537344, 0.00352053, 0.00358979, 0.00327399, 0.00349611, 0.0871304, 0.0874212, 0.445964, 0.101145, 0.00324785, 0.101115, 0.00350909, 0.122012, 0.00341552, 0.00340797, 0.00330879, 0.0036871, 0.00317534, 0.00351661, 0.00341882, 0.00336375, 0.00332912, 0.00353385, 0.00334729, 0.00335362, 0.00350154, 0.00357507, 0.00356294, 0.00341726, 0.00342626, 0.00378437, 0.0034975, 0.00342137, 0.00353272, 0.00352771, 0.00356207, 0.317104, 0.325492, 0.316884, 0.347114, 0.348087, 0.34937, 0.348861, 0.380535, 0.400236, 0.401612, 0.401567, 0.410372, 0.394257, 0.410753, 0.407891, 0.446983, 0.393665, 0.370688, 0.372157, 0.375372, 0.410886, 0.445478, 0.446971, 0.447937, 0.474215, 0.47529, 0.493851, 0.547924, 0.543346, 0.546373, 0.535112, 0.546299, 0.559434, 0.558156, 0.59098, 0.618001, 0.604719, 0.650126, 0.65591, 0.728348, 0.731437, 0.732112, 0.880483, 0.880989, 0.926239, 0.926873, 1.00608, 0.998449, 1.01944, 1.01988, 1.18094, 1.1837, 1.17619, 1.17754, 1.20588, 1.20842, 1.20528, 1.29281, 1.25764, 1.25955, 1.2485, 1.26778, 1.27767, 1.28402, 1.2907, 1.29549, 1.28622, 1.28965, 1.27637, 1.28905, 1.28993, 1.29155, 1.30347, 1.28071, 1.26438, 1.27144, 1.24559, 1.2609, 1.21786, 1.2199, 1.21884, 1.23053, 1.2128, 1.20948, 1.15852, 1.15975, 1.16196, 1.16594, 1.19904, 1.1602, 1.16106, 1.18264, 1.15609, 1.15908, 1.1589, 1.16162, 1.16126, 1.13985, 1.15057, 1.14678, 1.14062, 1.13281, 1.1407, 1.14219, 1.14574, 1.13006, 1.13398, 1.13338, 1.16644, 1.16737, 1.10371, 1.0856, 1.06236, 1.12974, 1.13206, 1.12841, 1.12863, 1.12914, 1.10858, 1.10408, 1.10281, 1.12213, 1.11704, 1.1209, 1.10779, 1.11076, 1.1205, 1.12208, 1.11271, 1.1223, 1.12308, 1.12592, 1.12791, 1.15764, 1.15831, 1.16161, 1.16425, 1.16435, 1.16926, 1.18038, 1.18479, 1.20522, 1.20418, 1.20351, 1.20649, 1.21158, 1.22336, 1.22183, 1.22091, 1.22566, 0.0034143, 0.00331671, 1.44444, 1.2678, 1.2675, 1.26869, 1.27337, 1.27742, 1.27881, 1.28401, 1.45442, 1.46018, 1.45135, 0.00342576, 0.00336731, 0.00321112, 0.00387451, 0.00358363, 0.0036603, 0.00358519, 1.38211, 1.38241, 1.38285, 1.38336, 1.38848, 1.38858, 1.38093, 1.38244, 1.41412, 0.00334736, 0.00336588, 0.00333131, 1.44383, 1.44485, 0.00375419, 1.46039, 1.45881, 0.0035038, 1.47737, 1.47878, 1.48316, 1.48888, 0.0035425, 0.00357338, 1.509, 1.51326, 1.86509, 0.00349639, 1.53829, 1.53825, 1.54123, 1.54317, 1.55075, 1.88923, 1.55493, 0.00349988
0.00374537, 0.00353729, 0.00365923, 0.00344568, 0.00340728, 0.00336684, 0.00386171, 0.00354376, 0.0035179, 0.00326877, 0.00378036, 0.0031677, 0.00346786, 0.00349578, 0.00394124, 0.0033726, 0.00361882, 0.00325723, 0.00379869, 0.00341678, 0.0031752, 0.00361893, 0.00340355, 0.00318616, 0.00375078, 0.00358198, 0.113254, 0.113043, 0.104104, 0.00338448, 0.00344227, 0.0814506, 0.0818861, 0.0814662, 0.079204, 0.00316363, 0.00337821, 0.00331986, 0.00361825, 0.00345781, 0.00365005, 0.00356132, 0.0171837, 0.0143588, 0.00688055, 0.00653436, 0.00544248, 0.00628741, 0.00468489, 0.0194965, 0.534458, 0.0339132, 0.00342503, 0.530042, 0.528171, 0.00333233, 0.00372465, 0.00332064, 0.087449, 0.088714, 0.00352402, 0.0885977, 0.00334733, 0.00351007, 0.00339901, 0.00334684, 0.00361665, 0.00343799, 0.00373649, 0.00360169, 0.00347785, 0.00352439, 0.00347154, 0.00341079, 0.00351146, 0.00340435, 0.00357658, 0.00337868, 0.00353228, 0.00326859, 0.00368094, 0.00351094, 0.00346985, 0.00354636, 0.0035569, 0.00330517, 0.0035972, 0.00325743, 0.0034231, 0.00333342, 0.00338158, 0.336213, 0.336381, 0.347498, 0.347611, 0.347224, 0.347247, 0.395494, 0.395721, 0.400246, 0.401041, 0.401284, 0.403827, 0.388401, 0.410611, 0.409974, 0.376623, 0.375942, 0.375725, 0.375688, 0.399911, 0.453842, 0.468054, 0.469684, 0.459849, 0.459479, 0.486596, 0.506744, 0.508681, 0.521838, 0.536345, 0.567892, 0.625225, 0.626694, 0.592736, 0.614991, 0.641075, 0.616888, 0.632166, 0.732547, 0.742886, 0.76009, 0.805118, 0.87369, 0.877643, 0.876722, 0.999205, 1.00368, 0.981001, 1.00767, 1.00565, 1.02341, 1.17353, 1.08866, 1.19444, 1.1923, 1.20144, 1.21333, 1.22793, 1.24621, 1.24755, 1.25211, 1.2363, 1.26185, 1.26752, 1.28288, 1.265, 1.25779, 1.25434, 1.25442, 1.23592, 1.25048, 1.23603, 1.24425, 1.24419, 1.24492, 1.22685, 1.2195, 1.20203, 1.20203, 1.23105, 1.2269, 1.17867, 1.18127, 1.16174, 1.16464, 1.23474, 1.23715, 1.16421, 1.16318, 1.1588, 1.13634, 1.12752, 1.12805, 1.12833, 1.12736, 1.11307, 1.13267, 1.11571, 1.11199, 1.12044, 1.10666, 1.10331, 1.08914, 1.08258, 1.10278, 1.10229, 1.08834, 1.08952, 1.1082, 1.10783, 1.08563, 1.0889, 1.12986, 1.13761, 1.13881, 1.12534, 1.13044, 1.08945, 1.09896, 1.083, 1.08741, 1.0862, 1.0882, 1.09063, 1.129, 1.08819, 1.10809, 1.10873, 1.18763, 1.18704, 1.17444, 1.1529, 1.15213, 1.15641, 1.15979, 1.15861, 1.17158, 1.17381, 1.18151, 1.19594, 1.20256, 1.20794, 1.20797, 0.00354469, 0.00343275, 1.22559, 1.22613, 1.22755, 1.22886, 1.43055, 1.44076, 1.43684, 0.00330526, 1.26909, 1.26776, 1.27727, 1.27998, 1.28273, 1.45036, 1.45322, 0.00348256, 0.00341876, 0.00330573, 1.33513, 0.0034123, 0.00320519, 0.00335542, 1.38704, 1.38942, 1.39342, 1.39481, 1.3889, 1.38919, 1.38821, 1.38728, 1.39045, 0.00323562, 1.42629, 1.43072, 0.00355243, 1.44373, 1.44542, 1.45253, 1.46134, 0.00335837, 1.47407, 1.47249, 1.47966, 1.48562, 1.49273, 1.49403, 1.84853, 0.00335562, 1.86201, 1.86244, 1.53322, 1.53367, 1.54098, 1.54249, 1.54117, 1.54795, 1.54706, 1.54815, 0.0034125
0.00333758, 0.00346958, 0.00376916, 0.00369021, 0.00354834, 0.00352291, 0.00363397, 0.00338001, 0.00373597, 0.00338105, 0.00358706, 0.00344841, 0.00361074, 0.00344171, 0.00336296, 0.00309533, 0.00347377, 0.00355898, 0.00319998, 0.00372098, 0.00346556, 0.134014, 0.134247, 0.134463, 0.00364567, 0.116739, 0.11188, 0.113313, 0.112857, 0.00343998, 0.00351491, 0.00419411, 0.00340902, 0.0817199, 0.0820915, 0.0793623, 0.00391291, 0.00381875, 0.00341327, 0.00354678, 0.00353178, 0.0115833, 0.0110585, 0.00953435, 0.00919736, 0.00901794, 0.00694119, 0.0211739, 0.0220868, 0.0235992, 0.0259106, 0.0250128, 0.00335392, 0.531274, 0.537837, 0.00342661, 0.00315662, 0.00361709, 0.0870486, 0.0876449, 0.00352901, 0.00374114, 0.00353407, 0.00351629, 0.00373022, 0.00371233, 0.00330565, 0.00356384, 0.00326955, 0.00338874, 0.00320572, 0.00342252, 0.00361949, 0.00358843, 0.00324612, 0.0038021, 0.00337896, 0.00364727, 0.00342114, 0.00375706, 0.00332919, 0.00336661, 0.266439, 0.0033749, 0.00350738, 0.00355981, 0.00355236, 0.00350469, 0.00341358, 0.00373383, 0.00342112, 0.342948, 0.344866, 0.349351, 0.348958, 0.350887, 0.351121, 0.35153, 0.00353509, 0.408873, 0.410119, 0.410058, 0.409632, 0.4072, 0.460588, 0.399749, 0.3995, 0.382847, 0.370119, 0.381286, 0.372461, 0.376085, 0.476642, 0.456336, 0.463346, 0.465854, 0.460195, 0.469595, 0.488485, 0.504766, 0.500487, 0.529214, 0.514116, 0.589457, 0.605164, 0.60468, 0.628638, 0.626902, 0.638911, 0.647887, 0.666073, 0.710778, 0.722794, 0.787276, 0.832043, 0.814567, 0.880638, 0.879435, 0.888696, 0.891848, 0.962227, 0.950328, 0.985451, 1.02561, 1.02432, 1.08642, 1.07931, 1.11482, 1.12894, 1.14984, 1.14529, 1.18478, 1.19227, 1.18582, 1.24587, 1.22167, 1.22161, 1.2329, 1.21381, 1.21015, 1.20688, 1.19241, 1.20123, 1.20241, 1.20322, 1.202, 1.18987, 1.17463, 1.1642, 1.17069, 1.15065, 1.1605, 1.14714, 1.1696, 1.13737, 1.14228, 1.12683, 1.11018, 1.11138, 1.13172, 1.14469, 1.1223, 1.10218, 1.10859, 1.12646, 1.12896, 1.07473, 1.10129, 1.10945, 1.10983, 1.0677, 1.08622, 1.07521, 1.05354, 1.06489, 1.07045, 1.07152, 1.05706, 1.04696, 1.02199, 1.02001, 1.02297, 1.06017, 1.14135, 1.13669, 1.12515, 1.13697, 1.12884, 1.11477, 1.09998, 1.1151, 1.11449, 1.10361, 1.10958, 1.09772, 1.07303, 1.09562, 1.09673, 1.11773, 1.18301, 1.16741, 1.16833, 1.21882, 1.15075, 1.15016, 1.1504, 0.00333056, 0.00356098, 1.18994, 1.19778, 1.19822, 1.20158, 0.00332761, 0.00365503, 0.0035495, 1.22709, 1.22976, 1.22949, 1.22606, 1.22965, 1.42658, 1.42593, 0.00364112, 1.26132, 1.26379, 1.26797, 1.27412, 1.2752, 1.28486, 1.45785, 1.45608, 1.45151, 0.00359503, 0.00350019, 0.00350983, 0.00374028, 0.00346045, 1.38581, 1.38514, 1.38315, 1.38364, 1.39587, 1.3867, 1.3851, 0.00343548, 1.4229, 1.4269, 1.42298, 1.42498, 0.00334254, 0.00349528, 1.44628, 1.45355, 1.45455, 1.45999, 1.46811, 1.47199, 1.47086, 1.48356, 1.49049, 1.48942, 0.00374059, 0.00323884, 0.00336392, 0.00329538, 1.52371, 1.52796, 1.52874, 1.53012, 1.53676, 1.53611, 1.55017, 1.54835, 1.5572, 1.55715
0.00365104, 0.00352634, 0.0036512, 0.00359226, 0.00352441, 0.00401517, 0.00353516, 0.00326941, 0.00349101, 0.00364435, 0.00367454, 0.00357514, 0.00350887, 0.00309529, 0.0033876, 0.0034011, 0.00335893, 0.00362371, 0.00365168, 0.00362052, 0.00366201, 0.00332933, 0.00329027, 0.13276, 0.00341648, 0.00363533, 0.111691, 0.00358023, 0.00332359, 0.00365958, 0.00342866, 0.0919992, 0.0894922, 0.0902498, 0.090119, 0.00384171, 0.00407607, 0.00358323, 0.00338212, 0.00342507, 0.00336339, 0.00367032, 0.0102635, 0.0101019, 0.0095295, 0.00941431, 0.00443076, 0.0231036, 0.0236889, 0.0244866, 0.0248066, 0.0241216, 0.00360741, 0.00346233, 0.0036077, 0.0034986, 0.00350705, 0.00352144, 0.542528, 0.543118, 0.00358445, 0.00331109, 0.00359507, 0.00346464, 0.00349662, 0.00342768, 0.00352373, 0.0033857, 0.0036934, 0.00353247, 0.00371525, 0.00350464, 0.00334617, 0.00340376, 0.00339009, 0.0035548, 0.00346761, 0.00358636, 0.00348999, 0.00339323, 0.00352979, 0.00332509, 0.00379521, 0.00333214, 0.00341805, 0.00313766, 0.00336321, 0.00353316, 0.0035047, 0.00347064, 0.0035732, 0.00347003, 0.00340989, 0.00350309, 0.00358815, 0.351745, 0.353123, 0.353146, 0.00344061, 0.00337465, 0.414704, 0.421232, 0.416515, 0.415045, 0.414116, 0.423914, 0.439788, 0.38307, 0.374202, 0.400431, 0.375373, 0.378895, 0.406871, 0.465472, 0.438219, 0.473154, 0.481729, 0.480089, 0.491306, 0.487726, 0.489295, 0.515381, 0.525223, 0.552287, 0.529899, 0.600806, 0.615474, 0.64593, 0.653323, 0.636372, 0.658739, 0.670748, 0.67323, 0.73288, 0.784188, 0.782015, 0.815744, 0.872337, 0.898286, 0.893403, 0.890293, 0.943713, 0.920322, 0.970228, 1.0032, 1.00564, 0.998232, 1.06942, 1.09832, 1.10234, 1.09301, 1.09232, 1.15231, 1.15234, 1.16025, 1.1602, 1.16375, 1.17713, 1.16254, 1.16488, 1.16093, 1.16726, 1.15951, 1.19266, 1.19906, 1.20223, 1.12211, 1.12387, 1.14775, 1.13697, 1.13753, 1.13315, 1.1086, 1.13355, 1.12883, 1.11975, 1.12554, 1.10858, 1.12224, 1.1151, 1.0863, 1.0831, 1.092, 1.09619, 1.09538, 1.07322, 1.06875, 1.09819, 1.09118, 1.08438, 1.05694, 1.05337, 1.06636, 1.06543, 1.05378, 1.04608, 1.05999, 1.01283, 1.00829, 1.02876, 1.01358, 1.0221, 1.04325, 1.13246, 1.10891, 1.11154, 1.12564, 1.08043, 1.08161, 1.10287, 1.10275, 1.13717, 1.13753, 1.12777, 1.15233, 1.08139, 1.08279, 1.1034, 1.10843, 1.12897, 1.12663, 1.1846, 1.18276, 1.14462, 1.14759, 1.14933, 0.00345561, 0.00333635, 1.17972, 1.18352, 1.18833, 0.00345792, 0.0033297, 0.00364478, 1.22488, 1.2261, 1.22787, 1.22884, 1.23362, 1.23465, 1.2372, 0.0032398, 0.00362865, 1.43004, 1.2616, 1.26387, 1.44977, 0.00326567, 1.28078, 1.45393, 1.2943, 1.30248, 0.00344066, 1.42084, 0.00344257, 0.00315432, 1.38629, 1.3856, 1.38719, 1.38506, 1.38779, 0.00340003, 0.00332907, 0.00343927, 1.42122, 1.42362, 1.42408, 1.42596, 0.00345885, 1.4466, 0.00351699, 1.45111, 1.45581, 1.45861, 1.45937, 0.0033651, 1.47552, 1.4823, 1.49218, 1.48982, 1.49689, 0.00342689, 0.00329259, 1.52388, 1.52261, 1.52603, 1.52815, 1.52838, 1.53696, 1.53659, 1.5366, 1.5432, 1.54595, 1.55411, 1.56129
0.0034484, 0.00388149, 0.00352295, 0.00383418, 0.00358474, 0.00391634, 0.00355645, 0.00394036, 0.00336245, 0.0037355, 0.00327735, 0.00388903, 0.00341782, 0.00356922, 0.00347359, 0.00384802, 0.00337171, 0.00360497, 0.00327405, 0.00376891, 0.00320508, 0.00385059, 0.00329165, 0.131278, 0.00336922, 0.118039, 0.119449, 0.118272, 0.00353278, 0.0929885, 0.091384, 0.0896757, 0.0903113, 0.0892695, 0.00358865, 0.00375539, 0.0033743, 0.0033016, 0.00348541, 0.00413129, 0.00346038, 0.00379225, 0.00347434, 0.00438485, 0.00391137, 0.0138235, 0.00394326, 0.0216893, 0.0230813, 0.0239245, 0.0243595, 0.0235398, 0.00335806, 0.00385313, 0.00341769, 0.0547148, 0.0547291, 0.00360303, 0.00337814, 0.00351675, 0.00362487, 0.0037741, 0.00348056, 0.00347994, 0.00354268, 0.00368019, 0.00329126, 0.00323188, 0.00330435, 0.00345595, 0.00333259, 0.00355734, 0.00330662, 0.00356819, 0.00320232, 0.00347945, 0.00354333, 0.00355998, 0.00344406, 0.00361207, 0.00340656, 0.00327675, 0.00331251, 0.00359652, 0.00338874, 0.00346065, 0.00319048, 0.00356485, 0.00348525, 0.00328338, 0.0032882, 0.00350171, 0.00344718, 0.00359246, 0.00341367, 0.358592, 0.00348916, 0.359475, 0.360789, 0.00332321, 0.00352981, 0.414935, 0.416238, 0.415702, 0.417711, 0.416608, 0.420247, 0.439807, 0.441306, 0.396615, 0.386763, 0.413199, 0.388169, 0.404909, 0.404228, 0.403541, 0.496504, 0.503781, 0.481258, 0.480456, 0.515447, 0.51067, 0.549085, 0.543147, 0.586995, 0.583644, 0.570007, 0.60122, 0.61465, 0.641844, 0.677454, 0.639501, 0.650909, 0.666056, 0.668871, 0.699034, 0.721996, 0.735975, 0.74885, 0.750437, 0.895194, 0.929135, 0.907599, 0.913666, 0.974262, 0.959881, 0.970337, 0.992307, 0.989498, 1.04398, 1.03664, 1.03468, 1.07806, 1.10613, 1.11923, 1.13412, 1.13543, 1.10425, 1.14394, 1.11642, 1.13006, 1.11725, 1.11919, 1.11598, 1.11623, 1.13931, 1.14678, 1.12258, 1.09264, 1.10366, 1.09217, 1.0918, 1.08499, 1.08408, 1.10219, 1.09532, 1.09581, 1.09855, 1.09009, 1.08149, 1.08165, 1.07443, 1.0718, 1.07089, 1.08605, 1.06726, 1.04618, 1.04853, 1.05132, 1.0495, 1.04898, 1.04905, 1.05097, 1.12159, 1.04945, 1.04861, 1.03143, 1.00797, 1.00163, 1.00585, 1.06518, 1.0643, 1.07246, 1.06494, 1.05227, 1.05114, 1.0582, 1.04802, 1.05053, 1.05272, 1.07735, 1.04661, 1.04769, 1.05346, 1.05564, 1.05452, 1.09774, 1.12329, 1.12543, 1.18624, 1.19041, 1.1371, 1.14052, 1.13847, 1.14287, 1.15345, 1.16624, 1.17432, 1.17656, 1.18075, 0.00329137, 0.00343078, 0.00326361, 0.00351086, 1.21579, 1.22084, 1.22428, 1.22732, 1.2305, 1.23406, 0.00348576, 1.24522, 1.24606, 1.24751, 0.00343577, 0.00334066, 1.27138, 0.00358469, 0.00325336, 1.28661, 0.00333465, 1.36843, 0.00315698, 0.00340871, 0.0033565, 0.00363848, 0.00386112, 1.40469, 0.00350502, 1.40678, 1.41116, 1.41284, 1.41715, 1.41967, 1.42503, 1.431, 0.00333083, 0.00374502, 1.44992, 1.45146, 1.45078, 1.45311, 1.45415, 1.45843, 1.46389, 0.00347706, 1.47675, 1.48718, 0.00335761, 1.49605, 0.00316227, 1.51446, 1.51928, 1.52394, 1.52441, 1.52448, 1.5273, 1.52888, 1.52989, 1.53428, 1.54077, 1.54809, 1.55039, 1.55771, 1.56082
0.00356101, 0.00347829, 0.00386036, 0.00336801, 0.00391946, 0.00357121, 0.00360858, 0.00367353, 0.00372775, 0.245394, 0.245104, 0.00371801, 0.00344772, 0.00350205, 0.00357968, 0.00347311, 0.00340868, 0.00332983, 0.00358971, 0.00361012, 0.00347115, 0.00341279, 0.00353642, 0.00335295, 0.117806, 0.116358, 0.115186, 0.115133, 0.116536, 0.00361295, 0.00339334, 0.00354123, 0.00361969, 0.00348098, 0.00343224, 0.00342541, 0.00375885, 0.0033915, 0.00347928, 0.00341926, 0.00344073, 0.00343007, 0.00385639, 0.0120038, 0.0107197, 0.00424321, 0.0192425, 0.00403144, 0.00345469, 0.00379842, 0.00357079, 0.00348476, 0.00340515, 0.00356222, 0.0032806, 0.0482811, 0.0550796, 0.00351642, 0.0034985, 0.00338945, 0.00371926, 0.00348572, 0.00363396, 0.00354893, 0.00366543, 0.00353904, 0.00341842, 0.00325077, 0.00349701, 0.00332828, 0.00323513, 0.0033773, 0.00330835, 0.00327149, 0.00346204, 0.00349599, 0.00378836, 0.00312391, 0.00347963, 0.00359765, 0.00358474, 0.00322275, 0.0034589, 0.00365999, 0.00332142, 0.00346821, 0.00380094, 0.00359764, 0.00350762, 0.00325829, 0.00340805, 0.0035343, 0.00339942, 0.00325846, 0.00355114, 0.00362175, 0.00361396, 0.35985, 0.364166, 0.367235, 0.383348, 0.00329487, 0.430844, 0.387305, 0.434322, 0.434512, 0.446493, 0.447357, 0.445339, 0.450717, 0.446086, 0.419751, 0.417571, 0.393589, 0.393689, 0.448004, 0.445225, 0.477626, 0.476788, 0.512358, 0.513504, 0.515932, 0.534037, 0.568965, 0.573276, 0.591373, 0.557224, 0.549408, 0.552603, 0.620991, 0.588162, 0.643858, 0.670616, 0.642279, 0.675838, 0.692646, 0.676466, 0.677256, 0.714578, 0.705654, 0.71692, 0.752122, 0.793977, 0.796701, 0.884862, 0.922157, 0.949695, 0.925093, 0.969989, 0.959405, 0.967031, 0.968278, 1.03391, 1.03565, 1.06045, 1.0627, 1.06704, 1.04422, 1.05175, 1.06151, 1.07205, 1.11459, 1.07056, 1.0758, 1.09522, 1.08127, 1.09832, 1.07452, 1.08184, 1.1592, 1.08104, 1.06764, 1.0923, 1.0778, 1.07464, 1.06725, 1.05334, 1.04445, 1.06392, 1.05453, 1.05969, 1.0396, 1.04396, 1.0505, 1.04317, 1.0471, 1.05189, 1.05906, 1.06844, 1.06726, 1.05865, 1.05813, 1.01618, 1.03632, 0.994969, 0.994597, 1.00584, 1.00608, 0.995276, 0.999488, 1.00406, 1.00684, 1.02949, 1.0244, 1.025, 1.04116, 1.08785, 1.04099, 1.04236, 1.04541, 1.05631, 1.0581, 1.02666, 1.02276, 1.02754, 1.13017, 1.14353, 1.14561, 1.14319, 1.13739, 1.12228, 1.12482, 1.13586, 1.13618, 1.14222, 0.00346205, 0.003615, 1.17131, 1.17027, 1.17303, 0.00362139, 0.00323687, 0.00348192, 0.00362963, 1.21228, 0.00348221, 1.22038, 1.22185, 0.00358673, 1.23359, 1.23777, 1.23841, 1.24285, 0.0033923, 0.00374212, 1.44141, 0.00350801, 0.00324772, 0.00365314, 1.28756, 1.28786, 0.00337693, 1.39275, 0.00334848, 0.00339459, 0.0033688, 1.40229, 1.40297, 1.40247, 1.40934, 1.41328, 1.41649, 1.41688, 1.42161, 1.4325, 0.00371533, 0.00324664, 1.44691, 1.44788, 1.44902, 1.44778, 1.45395, 1.45588, 1.46386, 1.46374, 0.0031283, 1.47802, 0.0033999, 0.00358912, 1.50437, 1.50457, 1.51558, 1.51474, 1.51549, 1.52152, 1.52409, 1.52669, 1.52654, 1.5315, 1.53307, 1.52993, 1.5471, 1.55371, 1.55479, 0.00364996
0.30613, 0.305648, 0.305974, 0.00395669, 0.00387037, 0.00350364, 0.00356891, 0.00372406, 0.245138, 0.243363, 0.00362381, 0.244638, 0.244888, 0.0036133, 0.00354243, 0.0035274, 0.00369404, 0.00389364, 0.00324655, 0.00340207, 0.00333445, 0.00346558, 0.00351555, 0.00354321, 0.00331683, 0.12365, 0.12323, 0.123021, 0.123323, 0.00347738, 0.00333564, 0.00381743, 0.0036504, 0.00346576, 0.0035502, 0.00335916, 0.00370413, 0.00330806, 0.00360809, 0.00337212, 0.00338627, 0.00374768, 0.00341406, 0.00322303, 0.00346615, 0.00461592, 0.00435644, 0.0092268, 0.0040557, 0.00368492, 0.00373267, 0.00363761, 0.00336609, 0.00370259, 0.00331704, 0.0374427, 0.00326689, 0.00352193, 0.0033402, 0.00353831, 0.00350779, 0.00357739, 0.00357902, 0.00361081, 0.00327225, 0.00346727, 0.00344938, 0.00358574, 0.00345788, 0.00345129, 0.00358237, 0.00360001, 0.00343607, 0.00328138, 0.00346145, 0.00343129, 0.00348477, 0.00373595, 0.216898, 0.217074, 0.00350582, 0.00347074, 0.00335147, 0.00331001, 0.0034777, 0.00366505, 0.00342433, 0.00317611, 0.00345983, 0.00359414, 0.00337677, 0.00328843, 0.0033819, 0.00332846, 0.00349797, 0.00372365, 0.00345965, 0.00345126, 0.00339196, 0.00332115, 0.0036643, 0.383428, 0.431388, 0.432945, 0.437131, 0.436741, 0.447799, 0.448038, 0.462446, 0.480876, 0.482659, 0.483849, 0.414685, 0.412257, 0.410143, 0.450227, 0.463183, 0.43171, 0.432966, 0.464438, 0.494464, 0.546659, 0.510769, 0.509261, 0.509662, 0.562518, 0.563809, 0.570046, 0.591522, 0.556475, 0.608243, 0.583368, 0.621705, 0.621888, 0.646686, 0.677024, 0.680962, 0.66704, 0.706966, 0.709316, 0.721559, 0.721907, 0.746499, 0.747196, 0.798528, 0.798164, 0.805057, 0.915174, 0.903521, 0.897981, 0.952883, 0.951506, 0.907646, 0.97098, 0.988409, 1.00036, 1.03258, 1.03353, 1.0448, 1.01517, 1.04324, 1.01259, 1.0294, 1.02553, 1.02265, 1.06707, 1.04833, 1.04741, 1.02075, 1.04046, 1.04062, 1.01424, 1.01529, 1.02846, 1.02996, 1.04119, 1.09208, 1.11301, 1.03707, 1.04277, 1.04055, 1.03983, 1.05681, 1.04428, 1.04591, 1.04524, 1.03281, 1.03153, 1.04235, 1.05193, 1.05021, 1.02622, 0.993013, 0.994899, 1.01242, 0.978047, 0.977273, 0.97254, 1.00298, 0.998345, 1.01136, 1.01167, 1.01859, 1.01548, 1.00867, 1.01253, 1.03904, 1.04771, 1.0273, 1.05728, 1.00704, 1.00857, 1.0122, 1.03179, 1.04891, 1.09912, 1.10507, 1.1315, 1.13325, 1.11295, 1.11129, 1.12825, 1.12948, 1.13339, 0.00338933, 0.00366035, 0.00326268, 1.16702, 1.16543, 1.16674, 0.00336057, 0.00340943, 0.00347547, 0.00348141, 0.00333635, 0.00377137, 0.00338023, 1.21273, 1.21485, 1.2245, 1.22985, 1.23078, 0.00342252, 0.00358151, 0.00320518, 1.43008, 1.26677, 1.27432, 1.28201, 1.28364, 0.00340229, 0.00361249, 0.00346513, 0.00334576, 0.0033266, 0.00343381, 0.00361203, 1.40798, 1.40829, 1.41221, 1.41396, 1.41838, 1.41927, 1.42195, 1.42578, 0.0034417, 1.44008, 1.44299, 1.44806, 1.44663, 1.44793, 1.45801, 1.4576, 1.46121, 1.46864, 1.47885, 1.48276, 1.48711, 0.0033967, 1.50399, 1.50377, 1.51518, 1.51564, 1.51506, 1.51985, 1.52377, 1.52683, 1.52758, 1.53107, 1.52608, 1.53913, 1.54409, 0.00344465, 0.00362381, 0.00336916
0.3045, 0.30435, 0.304747, 0.297409, 0.297366, 0.00325719, 0.00374154, 0.246165, 0.244386, 0.00324475, 0.243697, 0.243348, 0.243266, 0.00365801, 0.00351872, 0.00392102, 0.00344311, 0.00343235, 0.00359813, 0.00363322, 0.00360825, 0.00349236, 0.00378951, 0.0035289, 0.125047, 0.123119, 0.122405, 0.122258, 0.121602, 0.109945, 0.109204, 0.00302285, 0.00376631, 0.00329465, 0.0838906, 0.00321028, 0.00349995, 0.00351842, 0.00352682, 0.003426, 0.00381937, 0.00357486, 0.00378528, 0.00376711, 0.00366857, 0.00365133, 0.00908289, 0.516827, 0.527208, 0.00358813, 0.00354446, 0.00324747, 0.003678, 0.00338236, 0.0320068, 0.0366929, 0.00344228, 0.00343252, 0.0033856, 0.00346983, 0.0733212, 0.0031433, 0.00351249, 0.00327756, 0.00348298, 0.00320364, 0.00344883, 0.00332856, 0.00345897, 0.00356127, 0.00339588, 0.00338894, 0.00369594, 0.00335318, 0.00352106, 0.00332866, 0.00352905, 0.00351842, 0.217253, 0.00322242, 0.00340857, 0.00323174, 0.00347908, 0.0035039, 0.0037416, 0.00353265, 0.00340919, 0.00318972, 0.00340948, 0.00347432, 0.00332216, 0.00342605, 0.323877, 0.324633, 0.324788, 0.00325698, 0.00353939, 0.00347389, 0.0035679, 0.37584, 0.376417, 0.378388, 0.00356821, 0.00328818, 0.424775, 0.425923, 0.424334, 0.445427, 0.459342, 0.458168, 0.458681, 0.485099, 0.483314, 0.482596, 0.430492, 0.44915, 0.438869, 0.437993, 0.449465, 0.479347, 0.496496, 0.474803, 0.534978, 0.535581, 0.518142, 0.54284, 0.542486, 0.61522, 0.628927, 0.566259, 0.581084, 0.566012, 0.609023, 0.586087, 0.586626, 0.625521, 0.670323, 0.666376, 0.6739, 0.663224, 0.71387, 0.711451, 0.704099, 0.743998, 0.733762, 0.734763, 0.768999, 0.777482, 0.854142, 0.862759, 0.835321, 0.850528, 0.848671, 0.888318, 0.898521, 0.918077, 0.90853, 0.914015, 0.915597, 0.95191, 0.952659, 0.93827, 0.97369, 0.981549, 0.980403, 0.985704, 0.976915, 0.979918, 0.994362, 0.995679, 0.973843, 1.00535, 1.01612, 1.02362, 1.01565, 1.02599, 1.03388, 1.01457, 1.01226, 1.01891, 1.02661, 1.00561, 1.01613, 1.01898, 0.967381, 0.999431, 1.00949, 1.01302, 1.01161, 1.00073, 1.0009, 1.00104, 1.00842, 0.98804, 1.0062, 1.00152, 0.980246, 0.978748, 0.980507, 0.994147, 0.991115, 1.00162, 1.00943, 1.02182, 1.02619, 1.03398, 1.05385, 1.00012, 0.994729, 1.01551, 1.03171, 1.03999, 1.04286, 1.0455, 1.06052, 1.07035, 1.10102, 1.10213, 1.08997, 0.00325241, 1.11919, 1.12521, 1.12387, 1.12848, 0.00345135, 0.00334379, 1.16162, 1.16443, 1.16248, 1.16394, 0.00343427, 0.00334725, 1.18904, 1.19209, 1.19502, 1.19632, 0.00350954, 1.19821, 1.19969, 0.00335481, 1.21761, 1.22597, 0.00350256, 0.00328542, 1.24396, 0.0033882, 0.00347713, 1.41597, 1.2786, 0.00349155, 0.00375159, 0.00331097, 1.38186, 0.00334778, 1.38609, 0.00331253, 0.00350448, 1.40975, 1.41418, 1.41679, 1.41233, 1.41994, 1.42275, 1.42714, 1.42724, 1.43649, 1.44379, 1.44014, 1.43809, 1.44442, 1.45115, 0.00328508, 1.45816, 1.46818, 1.47181, 1.47345, 1.47919, 0.00334504, 1.49905, 1.49952, 1.50536, 1.50938, 1.51007, 1.51873, 1.5175, 1.52072, 1.52628, 1.52711, 1.52719, 1.53259, 1.53437, 0.00346591, 1.55539, 1.55583, 0.00367997
0.00335967, 0.00367843, 0.00348489, 0.298298, 0.00364983, 0.00353657, 0.00365671, 0.00378305, 0.00351997, 0.00367995, 0.242612, 0.242045, 0.00344974, 0.00353941, 0.00344074, 0.00329556, 0.00362119, 0.00338062, 0.00317287, 0.00383505, 0.0034323, 0.00349352, 0.00363581, 0.00365218, 0.0033061, 0.00369905, 0.0034951, 0.00361736, 0.00344405, 0.00352854, 0.00348344, 0.109957, 0.00330086, 0.00356934, 0.00311671, 0.00322905, 0.00339066, 0.00385465, 0.00311442, 0.00366826, 0.00365685, 0.0034529, 0.00336108, 0.00348366, 0.00347466, 0.0164777, 0.00406053, 0.00398458, 0.527259, 0.00428722, 0.003325, 0.00348803, 0.0317734, 0.0315524, 0.0310421, 0.0279616, 0.0279211, 0.00368126, 0.00324701, 0.00336432, 0.00336612, 0.00359853, 0.0036426, 0.0035121, 0.00329614, 0.00340228, 0.00319369, 0.00362545, 0.0033128, 0.661618, 0.00346743, 0.0035062, 0.00349945, 0.00349733, 0.0033833, 0.00359273, 0.0033181, 0.00382086, 0.00342035, 0.0034966, 0.00335691, 0.00357631, 0.00326595, 0.00360681, 0.00346625, 0.00383855, 0.00324653, 0.00363703, 0.00352628, 0.0033055, 0.00319063, 0.0035506, 0.326019, 0.326651, 0.327327, 0.00352063, 0.00349322, 0.00330462, 0.00351418, 0.00358753, 0.00335332, 0.373476, 0.00330333, 0.390642, 0.00341148, 0.00354866, 0.421839, 0.422288, 0.430648, 0.430781, 0.431601, 0.449619, 0.457268, 0.461746, 0.462734, 0.485534, 0.456992, 0.442222, 0.453088, 0.46646, 0.432742, 0.505439, 0.502079, 0.481106, 0.480597, 0.487192, 0.534487, 0.516898, 0.621428, 0.563098, 0.584247, 0.597446, 0.605812, 0.609944, 0.621075, 0.596573, 0.595656, 0.616982, 0.670562, 0.676795, 0.660689, 0.694203, 0.672702, 0.719036, 0.720752, 0.736608, 0.738965, 0.777311, 0.773996, 0.794246, 0.849409, 0.849512, 0.822036, 0.846142, 0.839259, 0.840407, 0.838198, 0.859208, 0.917937, 0.889037, 0.890016, 0.923291, 0.927315, 0.93771, 0.952806, 0.964909, 0.936142, 0.949819, 0.958338, 0.977166, 0.954741, 0.987854, 0.973924, 0.975333, 1.00253, 0.960854, 0.96202, 0.994074, 0.984551, 0.973754, 0.998651, 0.995125, 0.967401, 0.959748, 1.00312, 0.922867, 0.925612, 0.925471, 1.00532, 0.981366, 1.00301, 0.978685, 0.980792, 0.971247, 0.995581, 1.01198, 0.98093, 1.00674, 0.982678, 0.99428, 0.987545, 1.00622, 1.00775, 0.988447, 0.969717, 0.978196, 0.995827, 0.970936, 1.00752, 1.0191, 1.01219, 1.01941, 1.02154, 1.08712, 1.0704, 1.0634, 1.065, 1.10053, 0.00340216, 1.10585, 1.10995, 1.11064, 1.1232, 1.1327, 0.00324538, 0.00362121, 1.15548, 1.15987, 1.1579, 1.16034, 1.40856, 1.41072, 1.18524, 1.18921, 1.18984, 1.19265, 1.19047, 1.19215, 1.19376, 1.22287, 1.39872, 1.41259, 1.2239, 0.00356389, 0.00344272, 1.76063, 0.00333653, 0.00363309, 0.00334057, 0.00341884, 0.00321168, 1.41122, 0.00337704, 0.00346235, 0.00325566, 0.00352957, 0.00346991, 1.40534, 1.40922, 1.41564, 1.41435, 1.42408, 1.42615, 1.42964, 1.42971, 1.42769, 1.43484, 1.4348, 1.44108, 1.44376, 1.44765, 1.45509, 1.45683, 0.00375835, 0.00306664, 1.47418, 0.00347325, 0.00350059, 1.49795, 1.50199, 1.84146, 1.51008, 1.50903, 1.51407, 1.51926, 1.52088, 1.5269, 1.52942, 1.53675, 1.5301, 1.53265, 0.00346505, 0.00337036, 0.00329156, 0.00344342
0.00339307, 0.00305832, 0.00365445, 0.00366615, 0.00343163, 0.00343278, 0.266872, 0.00372682, 0.255911, 0.0034036, 0.00335743, 0.00372743, 0.00338794, 0.00390942, 0.00328798, 0.19698, 0.196353, 0.197414, 0.196871, 0.00342891, 0.00324002, 0.00360802, 0.00324299, 0.0035389, 0.00380442, 0.00345497, 0.00363197, 0.0031406, 0.00347755, 0.00352043, 0.00324004, 0.00350551, 0.00369309, 0.00361268, 0.00348494, 0.00335968, 0.0925715, 0.00359569, 0.00344492, 0.00356375, 0.00393994, 0.00331831, 0.00385124, 0.00337924, 0.00375531, 0.00311285, 0.0265465, 0.00362025, 0.00361881, 0.00424261, 0.0151875, 0.0263343, 0.0159224, 0.003675, 0.0296492, 0.0275802, 0.0303222, 0.0308411, 0.00378815, 0.0034708, 0.00370569, 0.00328194, 0.00353473, 0.00336763, 0.00323688, 0.00338634, 0.00348426, 0.0034072, 0.00354707, 0.00332114, 0.00357433, 0.00340831, 0.00338845, 0.00344132, 0.00336264, 0.0035806, 0.00360562, 0.00325524, 0.00378826, 0.00332557, 0.00349223, 0.00340568, 0.00342829, 0.0033527, 0.00339977, 0.00355842, 0.00394549, 0.00333502, 0.00380754, 0.00364768, 0.00329888, 0.00337766, 0.00352998, 0.00348606, 0.00369098, 0.00357224, 0.00341545, 0.00340001, 0.003237, 0.00337311, 0.003353, 0.00352055, 0.00344851, 0.00312279, 0.00352748, 0.00337099, 0.414586, 0.41938, 0.431377, 0.431994, 0.432268, 0.4782, 0.47452, 0.476959, 0.48772, 0.473724, 0.49493, 0.471035, 0.456084, 0.456646, 0.49321, 0.491514, 0.48113, 0.4787, 0.476146, 0.503983, 0.496735, 0.505729, 0.579212, 0.58057, 0.566033, 0.61014, 0.562896, 0.603743, 0.58395, 0.60774, 0.590451, 0.631537, 0.639963, 0.630976, 0.632904, 0.661933, 0.6572, 0.69559, 0.707132, 0.690536, 0.690128, 0.727234, 0.728605, 0.759244, 0.769198, 0.811298, 0.818064, 0.845186, 0.821558, 0.840848, 0.838437, 0.838726, 0.861882, 0.87729, 0.912907, 0.915122, 0.939588, 0.94247, 0.926214, 0.926964, 0.92533, 0.923975, 0.928841, 0.925241, 0.92599, 0.936116, 0.936618, 0.941933, 0.950489, 0.948975, 0.957626, 0.975361, 0.929133, 0.949859, 0.958257, 0.94074, 0.940703, 0.946176, 0.94967, 0.933776, 0.900728, 0.972347, 0.975121, 0.970041, 0.999704, 1.0034, 1.01733, 1.01731, 0.983711, 0.985196, 0.979252, 0.982484, 0.986618, 0.986633, 0.970558, 0.968159, 0.980791, 0.978252, 0.956898, 0.959704, 0.992192, 0.957088, 0.974899, 1.0132, 1.0257, 1.03626, 1.02652, 1.07548, 1.06702, 1.06983, 1.07126, 0.0033969, 1.10559, 1.10694, 1.1099, 1.11558, 0.00353821, 0.00349498, 0.00359317, 1.1491, 1.15255, 1.15389, 1.15761, 0.00348992, 1.41621, 1.4127, 0.00346554, 1.18378, 1.19158, 1.19215, 1.42389, 0.00346464, 1.20985, 1.20543, 0.00348559, 0.00341658, 1.22671, 1.4123, 1.73447, 0.00339592, 1.26291, 0.00345739, 1.28886, 0.00330935, 0.0034374, 0.0035012, 0.00329202, 0.00346872, 0.00322904, 0.00357944, 0.00356822, 0.00351168, 0.00349142, 1.41481, 1.41631, 1.41911, 1.42632, 1.42295, 1.42395, 1.43056, 1.43945, 1.43956, 1.44261, 1.44182, 0.00307369, 0.00344396, 1.46415, 1.46415, 0.00337235, 0.00316682, 0.00354691, 1.82716, 1.49813, 1.5013, 1.5059, 1.50736, 1.51238, 1.5171, 1.52049, 1.52432, 1.52379, 1.52753, 1.52766, 1.53371, 0.00358002, 0.0034555, 0.00332782, 0.0035219, 0.00378335
0.0036928, 0.00364229, 0.00338881, 0.269515, 0.268463, 0.00339587, 0.00334535, 0.00335724, 0.00349906, 0.0035816, 0.00341503, 0.00357842, 0.00368438, 0.00339405, 0.00354416, 0.00351578, 0.00336817, 0.19374, 0.194679, 0.187413, 0.187794, 0.00360549, 0.00335053, 0.00339061, 0.00335063, 0.00362656, 0.00345404, 0.00370219, 0.00377426, 0.130099, 0.129836, 0.129016, 0.00388757, 0.00345069, 0.00388377, 0.00381868, 0.00353047, 0.00342276, 0.00348313, 0.00333696, 0.00336934, 0.00398147, 0.00353016, 0.00341483, 0.003161, 0.0037312, 0.030114, 0.0285883, 0.0121617, 0.0127104, 0.0148249, 0.0160354, 0.0167129, 0.0158906, 0.0170548, 0.0177041, 0.00323547, 0.00341824, 0.00330184, 0.0036253, 0.00342302, 0.00378523, 0.00356608, 0.0032562, 0.00328875, 0.00350365, 0.00336035, 0.00357733, 0.00340563, 0.00375273, 0.00340216, 0.00364025, 0.00349511, 0.00373437, 0.00336024, 0.00347191, 0.00329605, 0.00397024, 0.00307497, 0.00352704, 0.003351, 0.00345782, 0.00340017, 0.00381834, 0.00348888, 0.00375498, 0.0032263, 0.0034221, 0.00341889, 0.0033559, 0.00357619, 0.00358793, 0.00341541, 0.328531, 0.330441, 0.00325825, 0.00343165, 0.00339537, 0.00349267, 0.00363166, 0.00344561, 0.00344695, 0.0033217, 0.00329226, 0.0032505, 0.405581, 0.416902, 0.418964, 0.420173, 0.43137, 0.466529, 0.441724, 0.478716, 0.477009, 0.453354, 0.461264, 0.461964, 0.472301, 0.504259, 0.505625, 0.48974, 0.487472, 0.445639, 0.444765, 0.442775, 0.445685, 0.472661, 0.472628, 0.511096, 0.466007, 0.466621, 0.595272, 0.607725, 0.560346, 0.541928, 0.532104, 0.600466, 0.570402, 0.619869, 0.626167, 0.619753, 0.628986, 0.63974, 0.639077, 0.658167, 0.671494, 0.701901, 0.700476, 0.717628, 0.743933, 0.749573, 0.746974, 0.751391, 0.751445, 0.772239, 0.831268, 0.871609, 0.860045, 0.861463, 0.863736, 0.871198, 0.872104, 0.948621, 0.891072, 0.893333, 0.898591, 0.915828, 0.923394, 0.883345, 0.913885, 0.908114, 0.912577, 0.908936, 0.908847, 0.902958, 0.914856, 0.923107, 0.925075, 0.941867, 0.943093, 0.944634, 0.912115, 0.896554, 0.878937, 0.879313, 0.921003, 0.921202, 0.948502, 0.994571, 1.03283, 1.01543, 1.02636, 1.03678, 1.07506, 1.04373, 0.935547, 0.941042, 0.940903, 0.944662, 0.955985, 0.970208, 0.950451, 0.911626, 0.929657, 0.940648, 0.946935, 0.939879, 0.946874, 0.945897, 1.02151, 1.02469, 1.02437, 1.06682, 1.06607, 1.06834, 1.06986, 0.00331886, 0.00361056, 0.00322142, 0.00349194, 0.00328344, 1.11591, 0.00343662, 0.00375194, 0.00313438, 1.14853, 1.15113, 1.15064, 1.4065, 0.00361385, 0.00312077, 1.17155, 0.00354723, 1.18238, 1.18445, 0.00341006, 0.00334458, 0.00354628, 0.00338136, 1.21404, 1.21922, 1.21751, 1.21938, 1.22268, 0.00323454, 1.38447, 1.38027, 0.00347959, 0.00332161, 0.00346481, 1.28351, 1.28582, 1.28964, 0.00332729, 0.003095, 0.00350698, 0.00339729, 1.40158, 1.40678, 1.41061, 1.41288, 1.4145, 1.42568, 1.42624, 1.42818, 1.42789, 1.42927, 1.43204, 1.43676, 1.44546, 1.44971, 1.45157, 0.00346831, 1.46852, 0.00310003, 1.4799, 0.00355148, 1.84756, 0.0033071, 1.50185, 1.5029, 1.51028, 1.5094, 1.51645, 1.52114, 1.52712, 1.53033, 1.52885, 1.53347, 0.00359088, 1.55151, 0.00362431, 0.0033924, 0.00344031, 0.00316299
0.00338462, 0.00352289, 0.268485, 0.267332, 0.266799, 0.265904, 0.266497, 0.26624, 0.259933, 0.261101, 0.26129, 0.00344099, 0.00406436, 0.00337404, 0.194351, 0.193691, 0.192754, 0.192973, 0.193362, 0.193903, 0.00355997, 0.00330274, 0.00351154, 0.00354472, 0.00368767, 0.00362191, 0.00335782, 0.00349581, 0.00355787, 0.0035926, 0.128367, 0.128903, 0.00375447, 0.00327476, 0.00372968, 0.00322571, 0.00383965, 0.00353304, 0.00347925, 0.0036406, 0.00348986, 0.00335961, 0.00370214, 0.0325494, 0.0324477, 0.0309774, 0.00356407, 0.00342147, 0.0118003, 0.013993, 0.0142143, 0.0110744, 0.0138537, 0.0163044, 0.0135039, 0.011511, 0.00371694, 0.00349633, 0.00353714, 0.00335728, 0.0519465, 0.00339927, 0.00355335, 0.0508558, 0.0507362, 0.00325651, 0.00360724, 0.00326482, 0.00341422, 0.00347903, 0.00344497, 0.00359123, 0.00374033, 0.00330922, 0.00375599, 0.00334056, 0.00353095, 0.00315241, 0.00368165, 0.00341737, 0.00356655, 0.00335364, 0.0033334, 0.00343645, 0.00347331, 0.00352354, 0.00360583, 0.00322326, 0.00342902, 0.00311633, 0.00340311, 0.00345556, 0.00335461, 0.00333555, 0.00368653, 0.00329099, 0.00369293, 0.00346561, 0.00338815, 0.00336284, 0.00350159, 0.00336909, 0.00342549, 0.0034697, 0.00336978, 0.00331, 0.00345292, 0.428601, 0.430703, 0.431587, 0.431963, 0.43242, 0.433768, 0.456356, 0.453558, 0.458872, 0.457319, 0.458314, 0.462815, 0.505281, 0.476695, 0.477747, 0.470066, 0.472091, 0.44232, 0.451774, 0.426559, 0.446092, 0.452196, 0.47637, 0.509403, 0.512443, 0.521046, 0.516256, 0.52009, 0.542971, 0.521186, 0.569367, 0.596996, 0.591003, 0.604395, 0.602228, 0.601103, 0.624915, 0.681602, 0.676308, 0.677369, 0.695767, 0.680014, 0.719349, 0.707363, 0.7386, 0.71923, 0.724904, 0.76562, 0.770009, 0.799245, 0.828671, 0.835592, 0.849529, 0.855902, 0.86691, 0.867356, 0.874465, 0.897911, 0.87632, 0.88081, 0.888573, 0.889401, 0.879845, 0.914984, 0.918597, 0.939835, 0.90122, 0.912412, 0.916291, 0.912867, 0.901421, 0.913998, 0.877847, 0.891102, 0.886146, 0.867852, 0.868087, 0.910735, 0.89106, 0.913024, 0.920939, 0.94003, 0.916091, 0.939446, 0.923275, 0.932608, 0.972062, 0.913583, 0.924992, 0.90183, 0.915239, 0.917797, 0.897838, 0.894919, 0.898322, 0.907827, 0.898517, 0.898111, 0.914476, 0.956071, 0.959341, 0.961504, 1.02221, 1.08288, 1.0842, 1.06803, 1.07006, 1.0715, 1.07339, 0.00324464, 1.09512, 1.10156, 0.00323834, 0.00318239, 1.1167, 0.00321146, 0.00343758, 1.13715, 1.14243, 1.1434, 1.14467, 1.15109, 0.00351622, 0.00347442, 0.00353846, 1.17362, 1.17578, 1.17822, 0.00328662, 0.00328505, 0.00360512, 1.21363, 1.21587, 1.22009, 1.22295, 1.22479, 0.00350524, 0.00355426, 1.24181, 1.24242, 1.37899, 0.00332423, 1.27735, 1.27804, 0.00317494, 0.00346351, 1.35746, 1.37586, 0.00333556, 1.38952, 1.39889, 1.39927, 1.40817, 1.41606, 1.41438, 1.41994, 1.42278, 1.42863, 1.42686, 1.4271, 0.00321012, 1.43875, 1.44089, 1.44895, 1.45317, 0.00360708, 0.00318713, 0.00371065, 0.00335403, 1.82011, 0.00345767, 1.82472, 0.0034739, 1.50836, 1.50982, 1.519, 1.51968, 1.52784, 1.52711, 1.53378, 1.53691, 1.54076, 1.54364, 0.00356973, 0.00341383, 0.00364805, 0.00349844, 0.00338565
0.003852, 0.00334633, 0.268323, 0.268559, 0.00328101, 0.00347202, 0.26373, 0.261783, 0.258623, 0.256571, 0.2587, 0.259558, 0.26009, 0.00362009, 0.202893, 0.193886, 0.204132, 0.00364999, 0.193374, 0.00357371, 0.00335829, 0.00333733, 0.0034136, 0.00365962, 0.00331366, 0.0036769, 0.00325339, 0.00356078, 0.00339964, 0.0033733, 0.132624, 0.00352529, 0.00379972, 0.117049, 0.00360867, 0.0032917, 0.00337962, 0.00358166, 0.00336824, 0.00420753, 0.00357855, 0.00336653, 0.0031043, 0.00351393, 0.0318896, 0.0305207, 0.00321544, 0.00322758, 0.00357558, 0.00432666, 0.00351603, 0.00843618, 0.011608, 0.0108431, 0.0101743, 0.0115991, 0.00334462, 0.00360044, 0.0031922, 0.00371255, 0.00333679, 0.00347143, 0.0567764, 0.0562864, 0.0572243, 0.0567157, 0.00338848, 0.00343272, 0.00332652, 0.00356377, 0.00333275, 0.00346322, 0.00350902, 0.00334546, 0.00354818, 0.00378454, 0.00341265, 0.00348763, 0.00338561, 0.00367737, 0.00339919, 0.00327992, 0.00331727, 0.00321605, 0.00345052, 0.00347814, 0.00337012, 0.00331388, 0.00356502, 0.003491, 0.00352797, 0.00366553, 0.00327282, 0.00343607, 0.00371053, 0.00333202, 0.00360656, 0.00325262, 0.00341436, 0.00350368, 0.00332, 0.0035234, 0.00334306, 0.00340365, 0.00326933, 0.0034095, 0.00337903, 0.427944, 0.429827, 0.431588, 0.432722, 0.437383, 0.429545, 0.451889, 0.457854, 0.455981, 0.488088, 0.489527, 0.490583, 0.4757, 0.476897, 0.502511, 0.504197, 0.428942, 0.429763, 0.463141, 0.463198, 0.448439, 0.476606, 0.4923, 0.519001, 0.524898, 0.518788, 0.517896, 0.518763, 0.525743, 0.549556, 0.538033, 0.57028, 0.573161, 0.574776, 0.575832, 0.622124, 0.699917, 0.682711, 0.698724, 0.678143, 0.696636, 0.698369, 0.724567, 0.706081, 0.746356, 0.703589, 0.704557, 0.749655, 0.750718, 0.770438, 0.771888, 0.78883, 0.794186, 0.860189, 0.870894, 0.878835, 0.869908, 0.854296, 0.885851, 0.885273, 0.885444, 0.889998, 0.892053, 0.929162, 0.8877, 0.921039, 0.918883, 0.928188, 0.908999, 0.901436, 0.879979, 0.852331, 0.89084, 0.847334, 0.891855, 0.908792, 0.908468, 0.884553, 0.888495, 0.895644, 0.88891, 0.891515, 0.908091, 0.878727, 0.878168, 0.928775, 0.919089, 0.901594, 0.915668, 0.884219, 0.904962, 0.911912, 0.918471, 0.91006, 0.893076, 0.879973, 0.872367, 0.904733, 0.924972, 1.06782, 0.963847, 0.968678, 1.07327, 1.07485, 1.06233, 1.06404, 1.07102, 1.07378, 0.00346845, 0.00316434, 0.00348751, 0.00350144, 1.10226, 0.00350644, 0.0034053, 0.00347482, 1.13505, 1.13908, 1.14003, 1.13686, 1.14264, 0.00340247, 0.00361027, 1.16057, 1.16539, 1.16835, 1.17062, 1.37792, 0.00341636, 1.36588, 1.20997, 1.21197, 1.21336, 0.00349876, 0.00363111, 0.00343664, 1.23739, 0.00340081, 1.24731, 1.24627, 0.00339836, 0.00342758, 0.00322925, 1.30121, 0.00344854, 0.00332351, 0.00326429, 0.00352875, 0.00356661, 0.00347973, 0.00366808, 0.00336133, 0.00343927, 1.40872, 1.41685, 1.42038, 1.42331, 1.42725, 1.42935, 1.42725, 1.42972, 1.43616, 1.44007, 0.00334508, 0.00324883, 1.4638, 1.46392, 0.00359603, 0.00376443, 0.00353919, 0.00352505, 1.50395, 1.50259, 1.50564, 0.00343299, 1.52235, 1.52398, 1.52519, 1.53377, 1.53792, 1.53645, 1.53596, 1.56174, 0.00320259, 0.00347658, 0.00329094, 0.0035454, 0.00341774
0.00367732, 0.0034507, 0.00351949, 0.00356223, 0.00336871, 0.267244, 0.267354, 0.265339, 0.25938, 0.258355, 0.257329, 0.258747, 0.259384, 0.00325746, 0.00359229, 0.00351268, 0.199991, 0.00325745, 0.00345682, 0.00368318, 0.00378916, 0.00374462, 0.00381893, 0.003565, 0.00342081, 0.00351207, 0.00379462, 0.00325784, 0.00357376, 0.00316766, 0.0032781, 0.126888, 0.125333, 0.125075, 0.12411, 0.00378153, 0.00344506, 0.00346126, 0.00405008, 0.00330182, 0.00375273, 0.00342899, 0.00355187, 0.00342921, 0.00358046, 0.00350543, 0.00360803, 0.00357919, 0.00342604, 0.00379037, 0.00555717, 0.0102878, 0.00989182, 0.0101413, 0.00973692, 0.00331289, 0.0036697, 0.00340964, 0.00363694, 0.00364059, 0.00340649, 0.00340773, 0.00366608, 0.00337069, 0.0576792, 0.00332842, 0.00358661, 0.00348025, 0.00360138, 0.00353531, 0.00345091, 0.00360541, 0.00360198, 0.00355648, 0.00345042, 0.00344261, 0.00344597, 0.00312986, 0.00335052, 0.00334599, 0.00333798, 0.00329771, 0.00368319, 0.00331949, 0.00368724, 0.00327267, 0.00357164, 0.00337716, 0.00342761, 0.00332711, 0.00369369, 0.00346397, 0.00345493, 0.00340692, 0.323508, 0.324683, 0.00338724, 0.00326307, 0.00348654, 0.00332337, 0.00352059, 0.00329128, 0.00342338, 0.00334326, 0.00357926, 0.00336978, 0.0036331, 0.00338911, 0.00352248, 0.00323962, 0.00341457, 0.00340156, 0.452926, 0.45862, 0.458506, 0.450464, 0.450596, 0.490971, 0.496234, 0.481049, 0.497589, 0.498006, 0.489278, 0.490527, 0.454048, 0.459034, 0.442366, 0.442232, 0.48332, 0.518113, 0.518122, 0.527801, 0.521754, 0.525052, 0.55579, 0.544292, 0.513849, 0.626534, 0.626147, 0.602128, 0.607894, 0.648744, 0.635256, 0.620921, 0.680949, 0.66765, 0.669387, 0.704995, 0.730976, 0.733039, 0.739982, 0.734923, 0.710041, 0.753308, 0.732967, 0.744382, 0.749547, 0.754722, 0.757627, 0.774501, 0.822943, 0.823963, 0.822105, 0.822179, 0.871792, 0.827239, 0.852642, 0.851971, 0.845994, 0.872991, 0.853034, 0.890539, 0.864085, 0.866328, 0.870622, 0.869092, 0.859409, 0.860202, 0.872555, 0.900059, 0.867535, 0.883762, 0.888145, 0.887642, 0.888797, 0.893619, 0.88136, 0.894265, 0.883161, 0.885343, 0.852659, 0.896883, 0.909756, 0.922648, 0.898637, 0.8722, 0.896029, 0.865347, 0.864795, 0.879853, 0.873973, 0.873759, 0.880393, 0.874076, 0.909114, 0.00322488, 0.96786, 0.976841, 1.05827, 1.05964, 1.05952, 1.05656, 1.06007, 1.0633, 1.0688, 0.00301937, 0.00361946, 1.08471, 1.09488, 0.00328021, 1.10093, 0.00319091, 0.00365272, 0.00324784, 1.12683, 1.1327, 1.13295, 0.00326739, 0.00355807, 0.00340408, 1.15711, 1.16021, 1.16194, 1.16651, 1.174, 1.17585, 0.00351158, 1.20534, 1.20892, 1.21211, 1.21682, 1.22265, 1.22603, 0.00329063, 0.00372943, 0.00322561, 0.00347477, 0.00321229, 0.00339072, 0.00334809, 0.00349458, 0.00348655, 0.00358491, 0.00332047, 0.00349593, 0.00335246, 0.00355584, 0.00338881, 1.4066, 1.40794, 1.41196, 1.41837, 1.41977, 1.42006, 1.42416, 1.4258, 1.42584, 1.4285, 0.00372129, 0.00341267, 1.47751, 1.45608, 1.45836, 1.4671, 1.47037, 1.47314, 0.00336797, 1.49579, 1.50885, 1.50677, 1.50612, 0.00358577, 1.52241, 1.52698, 1.52954, 1.54051, 1.54074, 0.00313237, 1.55387, 1.5549, 1.56062, 0.00334318, 0.00349629, 0.00299795, 0.0035821
0.00342612, 0.0037453, 0.00336679, 0.0034687, 0.00355972, 0.0038011, 0.00333754, 0.258951, 0.258453, 0.258573, 0.00323379, 0.0031986, 0.00341831, 0.00357946, 0.00337351, 0.00340826, 0.199408, 0.199618, 0.00320336, 0.00352281, 0.00344304, 0.00349202, 0.00347247, 0.00337414, 0.00324581, 0.00375475, 0.00341487, 0.00359204, 0.00337857, 0.00379094, 0.00345225, 0.12323, 0.122531, 0.122267, 0.122139, 0.12206, 0.121833, 0.00351989, 0.00332811, 0.00342214, 0.00342666, 0.00336733, 0.00314238, 0.00339318, 0.00362715, 0.00334995, 0.003205, 0.00360362, 0.00355005, 0.00343572, 0.0180001, 0.00900785, 0.00464227, 0.00442133, 0.0041281, 0.00404023, 0.00354488, 0.00352038, 0.00341408, 0.00332399, 0.00357037, 0.00357734, 0.00357272, 0.00368352, 0.00329235, 0.00330218, 0.00336956, 0.00339469, 0.00356535, 0.00376067, 0.0034058, 0.00360275, 0.00320066, 0.151785, 0.00337842, 0.00354017, 0.00315141, 0.00326259, 0.00314282, 0.00355035, 0.00337576, 0.0035024, 0.00318789, 0.00335591, 0.00331294, 0.00337695, 0.00334754, 0.00353379, 0.00338399, 0.00367573, 0.00348628, 0.00344546, 0.00344324, 0.00373503, 0.0033465, 0.00350322, 0.00340115, 0.00344118, 0.00347828, 0.0036395, 0.00361362, 0.00363665, 0.397264, 0.398187, 0.398995, 0.00366577, 0.00352477, 0.00356668, 0.00341768, 0.00374338, 0.00349052, 0.0034529, 0.00332479, 0.45982, 0.460067, 0.469877, 0.471669, 0.471475, 0.493461, 0.49066, 0.490778, 0.49132, 0.494285, 0.493458, 0.532899, 0.533524, 0.53462, 0.443824, 0.51122, 0.512154, 0.520974, 0.511908, 0.544772, 0.545485, 0.550038, 0.547698, 0.517595, 0.583511, 0.574028, 0.636371, 0.636437, 0.62555, 0.642885, 0.636295, 0.642867, 0.641946, 0.643357, 0.645992, 0.648071, 0.705934, 0.708331, 0.711486, 0.711506, 0.712708, 0.738851, 0.732894, 0.733879, 0.747034, 0.759963, 0.750642, 0.741947, 0.785083, 0.780721, 0.776892, 0.799067, 0.839388, 0.836431, 0.853504, 0.83613, 0.832727, 0.793601, 0.819821, 0.84602, 0.864543, 0.871927, 0.877054, 0.85943, 0.860957, 0.84392, 0.821308, 0.828011, 0.876966, 0.884337, 0.901114, 0.874792, 0.87873, 0.912487, 0.861198, 0.873682, 0.850765, 0.884891, 0.847442, 0.86848, 0.89857, 0.902499, 0.904717, 0.857458, 0.893962, 0.874198, 0.877203, 0.893777, 0.92807, 0.911926, 0.913831, 0.91466, 0.00344415, 1.05016, 1.05001, 1.05171, 1.0472, 0.00352437, 1.05185, 1.0543, 1.05538, 1.05798, 1.06026, 0.00361628, 0.00331004, 0.00329365, 0.00367247, 0.00319014, 0.00348192, 0.00332485, 0.00356505, 0.00333812, 0.00370851, 0.00359212, 0.00372395, 0.00330563, 1.14752, 1.15061, 1.15255, 1.15544, 0.00371616, 0.00354594, 1.35413, 0.00345532, 1.20539, 1.20903, 1.21282, 1.21803, 0.00337618, 0.00338878, 1.23534, 0.00337202, 0.00357815, 0.00318276, 0.00356448, 0.00343372, 0.0036256, 0.00374856, 1.35854, 0.00352622, 0.00357719, 0.00342212, 0.00370474, 0.00365555, 1.3938, 1.39916, 1.40207, 1.41081, 1.41791, 1.41863, 1.414, 1.41509, 1.42242, 0.00327278, 1.43439, 1.43511, 1.44105, 0.00347907, 1.45741, 1.45851, 0.00364691, 1.476, 1.84776, 0.00331867, 0.00364189, 0.00324278, 0.00343953, 0.0033862, 0.00362531, 1.52253, 1.53069, 0.00340903, 0.00345175, 0.00333449, 0.00343976, 1.56394, 1.56395, 1.55862, 0.00338265, 1.59546, 1.59437, 0.00344506
0.0032996, 0.00332933, 0.00353727, 0.00359239, 0.00353765, 0.00350079, 0.00389156, 0.00335125, 0.00345725, 0.00352183, 0.0033637, 0.00343992, 0.212141, 0.211376, 0.213759, 0.21046, 0.209887, 0.00334726, 0.00375446, 0.00354176, 0.00358452, 0.0033386, 0.00353546, 0.0034478, 0.00367168, 0.00355465, 0.00362299, 0.00358151, 0.0035043, 0.00350593, 0.00327015, 0.123635, 0.122825, 0.121387, 0.121087, 0.119916, 0.120325, 0.117451, 0.00332176, 0.00356556, 0.452486, 0.00323679, 0.00363818, 0.00323559, 0.00339581, 0.00359746, 0.00347576, 0.00390003, 0.00370832, 0.00357919, 0.00383205, 0.00350322, 0.00415708, 0.00452865, 0.0039253, 0.00344812, 0.00368831, 0.00328056, 0.0036903, 0.00342989, 0.00331145, 0.00336783, 0.00357536, 0.714496, 0.714014, 0.00340831, 0.00349692, 0.00350202, 0.00341249, 0.00330844, 0.0033831, 0.00328568, 0.00342292, 0.0033118, 0.00361753, 0.0034908, 0.00348412, 0.00346931, 0.00362029, 0.00360116, 0.00347583, 0.0033172, 0.00390632, 0.00332867, 0.00344491, 0.00328269, 0.00342971, 0.00339969, 0.00336406, 0.00343332, 0.00357397, 0.00350675, 0.00369176, 0.00335947, 0.0032632, 0.00330197, 0.00342011, 0.00342065, 0.0034426, 0.00331367, 0.00326664, 0.00333557, 0.396583, 0.00335667, 0.397816, 0.00346993, 0.00343329, 0.00337706, 0.00361523, 0.0034556, 0.00347395, 0.00353825, 0.00331301, 0.459312, 0.460779, 0.46107, 0.460838, 0.00348485, 0.483845, 0.490479, 0.492648, 0.493562, 0.497677, 0.503686, 0.510711, 0.514321, 0.513038, 0.51505, 0.514348, 0.520686, 0.538796, 0.49479, 0.542305, 0.545875, 0.545257, 0.533851, 0.56453, 0.575296, 0.560078, 0.577683, 0.579714, 0.580763, 0.613657, 0.598215, 0.607529, 0.646643, 0.617939, 0.631321, 0.631893, 0.654169, 0.627789, 0.636195, 0.687476, 0.631957, 0.629174, 0.621458, 0.718946, 0.722591, 0.76753, 0.712453, 0.692064, 0.749282, 0.732248, 0.719623, 0.716065, 0.716041, 0.743874, 0.784961, 0.770061, 0.812261, 0.745803, 0.754238, 0.801979, 0.817817, 0.777285, 0.821546, 0.819422, 0.80273, 0.812809, 0.774913, 0.77618, 0.803773, 0.8258, 0.822066, 0.85016, 0.929127, 0.912059, 0.894965, 0.904179, 0.84548, 0.856313, 0.842025, 0.842424, 0.846043, 0.856084, 0.849969, 0.844712, 0.866909, 0.867263, 0.873331, 0.921253, 0.910658, 0.910139, 0.909368, 0.00344487, 1.03624, 1.04315, 1.04083, 1.04288, 1.04243, 1.04624, 1.04577, 1.04562, 1.05443, 0.00319804, 0.00340293, 0.00367808, 1.07726, 1.07938, 1.08849, 0.00330561, 0.00338669, 1.1086, 1.11096, 1.11646, 0.00339557, 1.1272, 1.13392, 1.14058, 1.14329, 1.14572, 0.0035386, 0.0034028, 0.00336584, 0.00359359, 0.00341366, 0.00331122, 0.00310714, 0.00363352, 1.21224, 1.2171, 0.00338037, 0.00342659, 1.23789, 1.23973, 0.00334612, 0.00334595, 0.00328794, 0.00352339, 0.00331592, 0.00347985, 0.00330169, 0.00347253, 0.00352218, 0.00347654, 0.00319453, 0.00369843, 0.00327964, 0.00334913, 0.00331152, 0.00360059, 0.00344675, 1.40785, 1.41291, 1.41562, 1.42391, 1.4251, 0.00363876, 0.00316941, 0.00332724, 1.45256, 0.00349923, 1.46178, 0.00332534, 0.00307701, 0.00319164, 0.00341422, 0.0032293, 1.50085, 0.00333094, 0.00335294, 0.00363245, 0.00369045, 0.00337737, 0.00366332, 1.54652, 1.54553, 1.5557, 1.56109, 1.56143, 0.0033468, 0.0034333, 0.0037987, 0.00344161, 0.00333527
0.00355736, 0.301387, 0.301492, 0.301418, 0.00372951, 0.00335816, 0.0032149, 0.00349257, 0.00332986, 0.00349499, 0.00338334, 0.211947, 0.211051, 0.211432, 0.211297, 0.211557, 0.00343038, 0.00364814, 0.00379328, 0.00372299, 0.00348676, 0.00342507, 0.00324694, 0.00347151, 0.00361202, 0.00343731, 0.00340639, 0.00325531, 0.00307848, 0.0110388, 0.0033316, 0.00400618, 0.121733, 0.121819, 0.00339657, 0.0034669, 0.0032733, 0.127932, 0.127245, 0.00360721, 0.00371221, 0.0034734, 0.00329722, 0.00361832, 0.00337693, 0.00352341, 0.00360692, 0.00350549, 0.00333408, 0.00389182, 0.00377259, 0.00370531, 0.00315786, 0.00422805, 0.00389309, 0.00369707, 0.00337492, 0.0115661, 0.0034162, 0.00371465, 0.00338481, 0.00354541, 0.00342173, 0.00320666, 0.00325734, 0.00357904, 0.00342608, 0.00361522, 0.00325347, 0.00341313, 0.0032885, 0.00357077, 0.00347498, 0.00338731, 0.00331741, 0.00349999, 0.0032418, 0.00339797, 0.00313253, 0.00338442, 0.00332544, 0.00378379, 0.00345521, 0.00344877, 0.0035126, 0.253481, 0.00344616, 0.00371814, 0.0032935, 0.00340195, 0.00335138, 0.00364172, 0.00331927, 0.00358741, 0.00320006, 0.00358743, 0.00337744, 0.00354656, 0.00324899, 0.00363048, 0.00334374, 0.00350245, 0.00338666, 0.00338849, 0.0033027, 0.00356507, 0.00332226, 0.00367778, 0.00345678, 0.00332862, 0.0034962, 0.00339247, 0.00324696, 0.453653, 0.455054, 0.460719, 0.00346214, 0.00346847, 0.00315931, 0.491455, 0.503845, 0.504581, 0.505266, 0.505045, 0.504767, 0.507171, 0.507575, 0.508592, 0.535213, 0.518577, 0.545205, 0.581754, 0.526753, 0.539376, 0.539829, 0.500778, 0.541932, 0.534519, 0.533845, 0.572713, 0.574062, 0.588558, 0.547796, 0.531661, 0.590283, 0.575778, 0.63517, 0.595416, 0.663706, 0.628621, 0.602023, 0.651991, 0.653383, 0.628747, 0.665693, 0.658725, 0.622788, 0.609996, 0.6048, 0.713669, 0.711189, 0.709074, 0.625984, 0.628349, 0.64768, 0.72206, 0.71348, 0.707813, 0.69401, 0.726392, 0.74526, 0.688055, 0.681162, 0.785613, 0.780609, 0.783735, 0.800538, 0.748612, 0.785014, 0.781934, 0.798101, 0.805134, 0.7944, 0.817457, 0.82616, 0.823488, 0.822675, 0.809216, 0.806529, 0.826952, 0.85221, 0.845619, 0.822078, 0.857643, 0.872141, 0.887816, 0.908704, 0.872927, 0.888134, 0.905911, 0.925328, 0.00376191, 0.00320166, 0.00358092, 1.03344, 1.03745, 1.03865, 1.03402, 1.03585, 1.03033, 1.03383, 1.0404, 1.04242, 0.00354875, 0.00332233, 1.05985, 0.0035118, 0.00354516, 0.00331998, 0.00361104, 0.00335893, 0.00338205, 0.00363857, 1.11216, 1.1152, 1.1189, 0.00336364, 0.00367792, 1.13625, 1.14106, 0.00344994, 1.14754, 0.00325605, 1.16026, 0.00327028, 0.00335823, 0.00340058, 1.20102, 1.20109, 1.20724, 1.20828, 0.00338623, 0.00344426, 0.00358061, 1.23425, 1.23699, 0.00343926, 0.00333852, 0.0033215, 0.00347377, 0.00347996, 0.00349867, 0.00345526, 0.00364562, 0.0032223, 1.37601, 0.00331409, 0.00362793, 0.00330612, 0.0036773, 0.00324475, 0.00309899, 0.00363223, 0.00340596, 0.00331891, 0.00343069, 0.00337862, 1.43277, 1.43867, 0.00340183, 0.00323661, 0.00351831, 1.46652, 1.8135, 0.00338531, 0.00364201, 0.0029741, 0.00337524, 0.00304126, 0.00360523, 0.00327365, 2.045, 0.00343295, 0.00370584, 0.00342441, 0.00357058, 1.56233, 1.56014, 1.56544, 0.00351727, 0.00334233, 0.00362617, 0.00343193, 0.00374696, 0.00330261
0.29969, 0.299781, 0.300176, 0.299193, 0.299159, 0.299146, 0.299949, 0.00355414, 0.00344055, 0.00331189, 0.00327704, 0.00358605, 0.211851, 0.211889, 0.211686, 0.00344595, 0.00371492, 0.00340654, 0.00385168, 0.00328612, 0.00346086, 0.00338972, 0.00367047, 0.00319445, 0.00353409, 0.00349554, 0.00371287, 0.174002, 0.174382, 0.17546, 0.176036, 0.00331968, 0.00360208, 0.00319863, 0.00345714, 0.128317, 0.129598, 0.125817, 0.125434, 0.00313981, 0.00364276, 0.00353454, 0.00353258, 0.00340258, 0.00357719, 0.00340959, 0.00348315, 0.00329368, 0.0374585, 0.00336417, 0.0034399, 0.00357859, 0.00319151, 0.00400434, 0.592172, 0.593848, 0.593204, 0.00353599, 0.00320554, 0.00352348, 0.00325035, 0.00321191, 0.00354257, 0.00333058, 0.00356644, 0.00347897, 0.00324439, 0.00345042, 0.00360646, 0.00354958, 0.00349182, 0.00356524, 0.00351905, 0.00354603, 0.0036523, 0.00342405, 0.00367654, 0.00347729, 0.00326658, 0.0033598, 0.00385024, 0.00364372, 0.00343133, 0.0033507, 0.25452, 0.255411, 0.247234, 0.00326624, 0.0032482, 0.00334379, 0.00366445, 0.00356672, 0.00351714, 0.00315475, 0.00331036, 0.00323567, 0.00345348, 0.00328396, 0.00364086, 0.00340352, 0.00329991, 0.00340621, 0.00370786, 0.00345175, 0.00342196, 0.00331688, 0.00351475, 0.00343496, 0.00364359, 0.00314551, 0.00349929, 0.00367329, 0.00334217, 0.00331293, 0.455408, 0.00318191, 0.00356274, 0.0033507, 0.0032551, 0.00336853, 0.00338332, 0.505301, 0.505184, 0.520413, 0.519796, 0.525701, 0.526295, 0.524265, 0.526489, 0.527825, 0.529348, 0.580774, 0.583824, 0.549919, 0.572493, 0.55316, 0.58146, 0.540381, 0.540956, 0.597079, 0.525584, 0.5699, 0.528498, 0.528878, 0.528184, 0.527248, 0.525812, 0.541601, 0.571706, 0.574827, 0.576888, 0.56771, 0.607282, 0.570536, 0.570346, 0.638799, 0.560483, 0.551833, 0.570385, 0.605118, 0.614278, 0.583491, 0.590727, 0.667814, 0.678419, 0.680156, 0.694127, 0.647477, 0.645876, 0.675733, 0.707429, 0.646699, 0.647641, 0.670308, 0.670854, 0.684384, 0.700691, 0.683319, 0.72425, 0.742365, 0.75622, 0.740595, 0.766949, 0.749955, 0.794253, 0.794783, 0.793505, 0.797828, 0.811451, 0.824519, 0.804952, 0.819814, 0.817022, 0.886194, 0.894127, 0.888703, 0.918653, 0.919426, 0.921759, 0.00329285, 0.00349588, 0.00329987, 0.00348459, 0.00334205, 1.03335, 1.0297, 1.02742, 0.00346056, 0.00357944, 1.02423, 0.0034108, 1.03186, 1.03588, 0.00345566, 1.04678, 1.05146, 1.05391, 0.00314118, 0.00367691, 0.0033145, 0.00333257, 1.1013, 1.10482, 1.10864, 0.00355255, 1.35449, 1.35637, 0.00328756, 1.13403, 1.13487, 0.00345857, 0.0034346, 0.00344712, 0.0035064, 1.33727, 0.00346601, 1.20282, 1.20741, 1.20785, 1.20736, 1.20932, 0.00355234, 0.0035156, 0.00348847, 0.00378186, 0.0033995, 0.00355425, 0.00332536, 0.00337299, 0.0036187, 0.00337911, 0.00341603, 0.00356977, 0.00340842, 0.00350035, 0.00340131, 1.37422, 0.00320687, 0.00353691, 1.37769, 1.37865, 0.00324055, 0.00364639, 1.39683, 0.00339724, 0.00324387, 0.00361216, 0.00338068, 0.00324295, 1.44597, 1.45373, 0.00345939, 1.45597, 1.47514, 1.4751, 1.47618, 1.47616, 0.00330105, 1.49312, 0.0032258, 1.50711, 0.00338299, 0.00321556, 0.00351838, 0.0036496, 0.00348044, 1.56508, 1.56372, 0.00370333, 0.00342418, 0.00361038, 0.00342878, 0.00341392, 0.00345869, 0.00360449
0.00371669, 0.298735, 0.298281, 0.298901, 0.306907, 0.300022, 0.00338838, 0.0035289, 0.00340859, 0.00352504, 0.226902, 0.227027, 0.22759, 0.22746, 0.00351482, 0.248627, 0.248407, 0.00345257, 0.246428, 0.0033683, 0.00313068, 0.00354244, 0.00353668, 0.00332406, 0.00324367, 0.191005, 0.00322069, 0.0035671, 0.1749, 0.175231, 0.174976, 0.0035601, 0.00310018, 0.00371789, 0.00356123, 0.00349333, 0.0030279, 0.13461, 0.135312, 0.0036157, 0.00340549, 0.00335621, 0.00363504, 0.0033041, 0.00360976, 0.00380052, 0.00352277, 0.00329179, 0.00349454, 0.00354022, 0.00333746, 0.00328925, 0.00356451, 0.00413961, 0.00395002, 0.00386573, 0.00356679, 0.00359957, 0.00331274, 0.00341578, 0.00340802, 0.00350749, 0.00352619, 0.00340254, 0.00338152, 0.00325111, 0.00350184, 0.00351565, 0.00352766, 0.00347008, 0.00323029, 0.00342192, 0.00342694, 0.00362218, 0.00345805, 0.003385, 0.00342029, 0.00355913, 0.00328097, 0.00358206, 0.00336971, 0.00352888, 0.00361836, 0.00333804, 0.00340364, 0.00358349, 0.00329295, 0.00329848, 0.00333205, 0.00369168, 0.0035672, 0.00347392, 0.00340497, 0.00349155, 0.00333491, 0.323861, 0.323731, 0.00329832, 0.00348234, 0.00337075, 0.00377187, 0.0035689, 0.00323205, 0.0033994, 0.00349146, 0.00350201, 0.00319478, 0.00366866, 0.00353125, 0.00356926, 0.00370228, 0.00354103, 0.00344322, 0.00330255, 0.00329115, 0.00343854, 0.00349362, 0.00358258, 0.00328701, 0.00332726, 0.00334797, 0.501675, 0.514317, 0.515969, 0.51618, 0.51706, 0.518467, 0.528293, 0.528021, 0.528293, 0.527961, 0.571435, 0.558572, 0.568893, 0.549365, 0.575681, 0.544311, 0.544272, 0.541801, 0.586446, 0.586393, 0.586183, 0.530765, 0.561502, 0.555613, 0.543158, 0.542494, 0.539459, 0.60333, 0.604606, 0.55484, 0.576261, 0.574508, 0.600081, 0.579936, 0.595019, 0.614201, 0.553532, 0.58114, 0.581468, 0.624416, 0.624706, 0.591094, 0.589652, 0.597271, 0.647023, 0.658658, 0.694946, 0.691061, 0.691801, 0.689889, 0.657177, 0.65507, 0.653391, 0.694194, 0.684493, 0.708542, 0.711092, 0.710763, 0.72288, 0.72826, 0.731835, 0.765701, 0.771436, 0.773429, 0.794398, 0.780605, 0.777739, 0.883422, 0.884754, 0.882738, 0.886326, 0.88695, 0.891287, 0.904235, 0.905921, 0.915091, 0.00382565, 0.00346357, 0.0032318, 0.00324229, 0.00355398, 0.00341335, 0.00349615, 0.00349233, 1.02309, 1.0199, 1.02024, 1.01692, 0.00353459, 1.02036, 1.02305, 0.00355355, 1.03286, 1.0372, 0.00338565, 1.04966, 1.06226, 1.06583, 0.00361208, 0.00351577, 1.09547, 1.09292, 1.09519, 0.00338014, 0.00360425, 0.00354139, 0.00351442, 1.1314, 1.13214, 0.00321612, 1.34416, 0.00310063, 0.00330354, 0.00340138, 0.00359314, 0.00339526, 1.20364, 1.20561, 1.20595, 0.00340231, 0.00357828, 0.00344204, 1.22913, 0.00332362, 0.00342221, 0.0033661, 0.00348354, 0.00335947, 0.00350656, 0.00336681, 0.0033521, 0.0036832, 0.00345464, 0.00342902, 0.00347627, 0.00342642, 1.3671, 1.36686, 1.36712, 0.00360878, 0.00346369, 0.00325429, 1.39481, 0.00344094, 0.00361385, 0.00344744, 0.00356073, 0.00335904, 1.44801, 1.44813, 1.46298, 1.46431, 1.46639, 1.46735, 1.46866, 0.00339641, 0.00322627, 0.00324312, 1.50389, 1.5063, 1.51743, 0.00348208, 0.0034713, 0.00326662, 1.56215, 1.56164, 1.56476, 0.00315462, 0.00341897, 0.00347073, 0.00329513, 0.00331465, 0.00356253, 0.00350679
0.323764, 0.325108, 0.307321, 0.306815, 0.30671, 0.307085, 0.3078, 0.00343141, 0.00350992, 0.00329773, 0.00360817, 0.00340414, 0.227083, 0.248886, 0.248875, 0.249298, 0.249006, 0.24857, 0.248667, 0.0034718, 0.00345235, 0.0035396, 0.00365038, 0.00355864, 0.190035, 0.191971, 0.00364172, 0.00321561, 0.00360664, 0.00334184, 0.003659, 0.0035717, 0.151729, 0.15226, 0.15275, 0.00362086, 0.135076, 0.135657, 0.135935, 0.00331847, 0.00350724, 0.00338108, 0.00336229, 0.00338595, 0.00345015, 0.00347617, 0.0445357, 0.00364147, 0.0477889, 0.00317899, 0.00353909, 0.00350526, 0.0110251, 0.0176166, 0.593914, 0.00396323, 0.0034439, 0.00386555, 0.00368123, 0.00352247, 0.00325795, 0.00342043, 0.00332426, 0.00326153, 0.00354573, 0.00332612, 0.00344171, 0.00336914, 0.00346099, 0.00333041, 0.00359757, 0.00335022, 0.00365099, 0.00344268, 0.00348936, 0.00366911, 0.00351635, 0.00307184, 0.00358136, 0.00339535, 0.0034149, 0.0033139, 0.00360626, 0.0033728, 0.00357961, 0.00341515, 0.00358079, 0.00324167, 0.00335852, 0.00328091, 0.00348869, 0.00384411, 0.00329523, 0.00333245, 0.00343733, 0.00337265, 0.00356852, 0.00316581, 0.00351431, 0.003352, 0.00345374, 0.00343024, 0.00342313, 0.00341811, 0.00354756, 0.00329581, 0.00367459, 0.00339581, 0.00353993, 0.00315685, 0.00346229, 0.00332141, 0.00340387, 0.00333441, 0.00334921, 0.00347072, 0.00353259, 0.00344939, 0.00342879, 0.00332939, 0.00355251, 0.00341563, 0.00376653, 0.515439, 0.516167, 0.517785, 0.519043, 0.527921, 0.529059, 0.530046, 0.530766, 0.54587, 0.546593, 0.548483, 0.54917, 0.551487, 0.549872, 0.00322785, 0.581954, 0.567641, 0.562622, 0.561993, 0.563662, 0.562652, 0.59494, 0.557303, 0.554638, 0.558245, 0.577447, 0.577846, 0.636214, 0.543012, 0.54382, 0.629967, 0.630765, 0.626006, 0.627489, 0.598552, 0.60464, 0.587705, 0.65221, 0.61163, 0.608134, 0.608982, 0.610389, 0.626806, 0.628356, 0.649735, 0.638823, 0.713229, 0.718805, 0.718381, 0.734446, 0.679245, 0.66731, 0.733393, 0.708789, 0.715171, 0.715628, 0.756788, 0.804039, 0.821699, 0.77006, 0.771439, 0.795076, 0.790957, 0.779432, 0.879713, 0.881126, 0.882399, 0.886289, 0.887432, 0.886641, 0.886861, 0.888364, 0.889155, 0.00348035, 0.00356665, 0.00373231, 0.00332304, 0.00358313, 0.00327895, 0.00359878, 0.00340375, 1.00982, 1.00813, 1.00929, 1.00736, 1.00728, 0.00330346, 1.01581, 0.00360988, 1.03029, 1.02866, 0.00338526, 0.00341629, 0.00366894, 0.00358597, 0.00339434, 0.00338458, 1.08478, 1.08548, 0.00358471, 0.00338496, 1.11218, 0.00322346, 0.00323713, 1.12173, 0.00353673, 1.13417, 0.00376941, 0.00337952, 1.15811, 1.16277, 1.16413, 0.00336039, 0.00365123, 1.30567, 1.2002, 1.20262, 0.00336548, 0.00332691, 0.00351202, 0.00324895, 0.00349681, 0.00334222, 0.0033738, 0.0032277, 0.00372286, 0.00317355, 0.00364357, 0.00324242, 0.00344972, 0.00327751, 1.33863, 1.33972, 0.00354025, 1.35119, 0.00351898, 0.00354412, 0.00338574, 0.00320909, 1.38841, 1.38856, 0.00358098, 0.00316134, 0.00328102, 0.00359256, 0.00366373, 1.45188, 1.73153, 0.00329572, 1.46523, 1.46621, 1.48162, 1.47992, 1.47857, 0.00343275, 0.00352815, 1.5083, 1.51638, 1.51981, 0.00355426, 0.00351802, 0.00352896, 0.00322371, 0.00360944, 0.00344444, 0.00335341, 0.00339348, 0.00336094, 0.00329261, 0.00313227, 0.00326828, 0.00363289
0.324698, 0.323485, 0.323841, 0.306956, 0.307338, 0.307584, 0.0033448, 0.00364621, 0.00345877, 0.00366847, 0.00369219, 0.00351771, 0.00372478, 0.00388405, 0.249261, 0.248976, 0.249413, 0.247688, 0.00352525, 0.00344979, 0.00339441, 0.00336509, 0.00344413, 0.192046, 0.00352935, 0.00355893, 0.00294913, 0.190488, 0.19116, 0.00366559, 0.15857, 0.159019, 0.00357728, 0.00356268, 0.00331097, 0.00344944, 0.00342469, 0.00345473, 0.00337879, 0.00350274, 0.00330377, 0.00330512, 0.0032385, 0.00364034, 0.00332675, 0.00324088, 0.00337449, 0.00357295, 0.00372294, 0.00339438, 0.00316276, 0.00343105, 0.00361606, 0.00412446, 0.00423256, 0.00375298, 0.0037609, 0.00363453, 0.0031567, 0.003496, 0.636901, 0.636824, 0.00335716, 0.003404, 0.00337544, 0.00327409, 0.00356133, 0.00380769, 0.00347173, 0.00357457, 0.0033471, 0.00342716, 0.00362311, 0.151289, 0.151144, 0.00354562, 0.00323891, 0.00348334, 0.00346386, 0.00346928, 0.0033192, 0.00345241, 0.00354917, 0.00355317, 0.0031983, 0.00345633, 0.00351641, 0.26951, 0.270179, 0.271291, 0.271313, 0.00347227, 0.00332551, 0.00337768, 0.00338065, 0.003488, 0.00304486, 0.339386, 0.340851, 0.341987, 0.00330606, 0.00363035, 0.00324196, 0.00358997, 0.00338392, 0.003612, 0.00350036, 0.0038975, 0.0032641, 0.00381744, 0.00334447, 0.00350447, 0.00341719, 0.0035726, 0.00334474, 0.00345104, 0.00340451, 0.00361023, 0.00339888, 0.00348197, 0.00320701, 0.00356786, 0.00322813, 0.00337995, 0.00307304, 0.510968, 0.00347362, 0.00360732, 0.00327484, 0.548248, 0.548684, 0.550703, 0.551582, 0.53602, 0.00339322, 0.552401, 0.555836, 0.555903, 0.560905, 0.565601, 0.565186, 0.566379, 0.566371, 0.565723, 0.585264, 0.586456, 0.576699, 0.580258, 0.582619, 0.554799, 0.552094, 0.638693, 0.638289, 0.567516, 0.576219, 0.578697, 0.579856, 0.558222, 0.55883, 0.658899, 0.649937, 0.574128, 0.580063, 0.667424, 0.666907, 0.70117, 0.640417, 0.625818, 0.710268, 0.6189, 0.629078, 0.645832, 0.647553, 0.648463, 0.00346524, 0.769586, 0.787057, 0.788296, 0.78594, 0.784274, 0.8059, 0.8078, 0.779807, 0.773159, 0.00306066, 0.864146, 0.866896, 0.868062, 0.877441, 0.880657, 0.8811, 0.879014, 0.895032, 0.896415, 0.00344528, 0.00352923, 0.00351834, 0.00339647, 0.00346231, 0.00349181, 0.00326548, 0.00325004, 0.00334193, 0.00361973, 0.00320389, 1.00128, 0.988792, 0.991266, 0.00342015, 0.00350028, 0.00341144, 0.00357545, 0.00339399, 0.00353828, 0.00345115, 0.00357069, 0.00336548, 0.00333687, 1.06563, 1.06549, 1.06301, 1.0651, 0.00349507, 0.00367069, 0.00313043, 0.00357038, 0.00327065, 0.00366456, 0.00333771, 0.0034721, 0.00324516, 0.00327292, 0.00337991, 0.00358942, 0.00333111, 0.0033613, 0.00346151, 1.19179, 1.19915, 1.20126, 1.2074, 0.00353305, 0.00311658, 0.0033816, 0.00323548, 0.00341112, 1.33637, 1.28492, 0.00328406, 0.00340448, 0.00347049, 0.00384607, 0.00312959, 0.003487, 1.32878, 1.33008, 1.33014, 1.34312, 0.0034245, 0.00330601, 0.00355237, 0.00336053, 1.38072, 1.71529, 0.00344142, 1.40831, 0.00363832, 1.43189, 1.43673, 0.00347187, 1.45602, 1.4572, 1.45759, 1.46841, 1.46933, 0.0036654, 0.00340056, 0.00344172, 0.00358446, 0.00355372, 0.00315426, 0.00360775, 0.00332916, 0.00345731, 0.00346226, 0.00363186, 0.00328782, 1.58279, 1.58105, 0.00355612, 0.00340725, 0.00356899, 0.0034647, 0.00340905, 0.00328808
0.32744, 0.32546, 0.32836, 0.325149, 0.323204, 0.00344302, 0.00355851, 0.00334263, 0.00339146, 0.0038198, 0.00343125, 0.00364755, 0.00325545, 0.00323305, 0.00351451, 0.00364717, 0.25554, 0.254219, 0.00385349, 0.00318582, 0.00356539, 0.00355239, 0.00386212, 0.20977, 0.203794, 0.202913, 0.202788, 0.191438, 0.192163, 0.00337779, 0.00320187, 0.00358274, 0.00330064, 0.00316138, 0.00331832, 0.00323199, 0.00351868, 0.0035164, 0.00362002, 0.00345351, 0.00366962, 0.00334141, 0.00358327, 0.0034686, 0.0765786, 0.0761625, 0.00367237, 0.00363131, 0.0035868, 0.00359861, 0.00330712, 0.00332657, 0.00401344, 0.00424491, 0.00372901, 0.00415633, 0.00351748, 0.00369077, 0.0035186, 0.00355787, 0.00318482, 0.00376783, 0.00343143, 0.00333696, 0.00353006, 0.00331991, 0.00326246, 0.00358403, 0.0032612, 0.0034116, 0.00341336, 0.00337221, 0.00317067, 0.153205, 0.153413, 0.00343189, 0.00356557, 0.00320105, 0.00338289, 0.00326166, 0.00364422, 0.00358706, 0.0033955, 0.00335956, 0.00334997, 0.00346322, 0.254743, 0.255675, 0.256468, 0.261351, 0.00342704, 0.00331298, 0.00331374, 0.00320423, 0.00330194, 0.00333756, 0.340432, 0.341171, 0.342873, 0.346339, 0.00315981, 0.368833, 0.369851, 0.370804, 0.371214, 0.00334489, 0.00340443, 0.00351121, 0.00344936, 0.0035109, 0.00350186, 0.00362841, 0.00336554, 0.00332152, 0.00354247, 0.00354039, 0.00342444, 0.0034904, 0.00335232, 0.00336537, 0.00357333, 0.00316001, 0.00321661, 0.00347043, 0.00329099, 0.00346484, 0.00344128, 0.00343296, 0.00351527, 0.00350794, 0.550512, 0.534611, 0.535993, 0.537772, 0.537987, 0.540336, 0.554912, 0.556782, 0.563101, 0.565625, 0.565786, 0.582448, 0.584108, 0.587378, 0.587425, 0.58822, 0.588216, 0.589421, 0.590456, 0.589716, 0.00343172, 0.6037, 0.60477, 0.607072, 0.604738, 0.602279, 0.579265, 0.607195, 0.60735, 0.00334946, 0.00370638, 0.580418, 0.00321669, 0.581037, 0.670916, 0.674239, 0.609444, 0.641973, 0.642732, 0.632122, 0.619526, 0.00339798, 0.635966, 0.00336886, 0.76222, 0.00329811, 0.777744, 0.780762, 0.782626, 0.783777, 0.785833, 0.787219, 0.00351082, 0.00353443, 0.850373, 0.858647, 0.859613, 0.86839, 0.869761, 0.873132, 0.87526, 0.883946, 0.885934, 0.00329361, 0.00341132, 0.00336401, 0.00372702, 0.00342856, 0.00321821, 0.00330718, 0.00343279, 0.0033488, 0.993308, 0.993832, 0.996652, 0.00324682, 0.981751, 0.00331417, 0.00349716, 0.00357302, 0.00345627, 0.00321356, 0.00364167, 0.00365338, 0.00340566, 0.00331005, 0.00347116, 1.06051, 1.0628, 1.06013, 1.06276, 1.06435, 1.06846, 1.07117, 0.00345181, 0.00327749, 0.00332888, 0.00352427, 0.00345292, 0.00351882, 1.31618, 0.00351134, 0.00320357, 1.15461, 0.00353965, 0.00331879, 0.0033144, 0.00322669, 1.19438, 1.19781, 0.00354837, 0.00342367, 0.00350009, 0.00344167, 0.00341922, 0.00370132, 1.26179, 0.00318125, 0.00330931, 0.00341098, 0.00356978, 0.00342829, 0.0035574, 0.00346895, 1.31928, 1.3194, 1.32889, 0.00351821, 0.00341463, 1.35254, 1.35623, 1.36909, 0.00342361, 0.0034438, 0.00354966, 0.00318101, 0.00341847, 0.00339502, 0.00373018, 0.00344438, 1.4551, 1.45773, 0.00338933, 0.00353882, 1.47512, 0.00348674, 0.00356106, 0.00321451, 0.00317269, 0.00358851, 0.00331236, 0.00313138, 0.00363276, 0.00318829, 0.00353034, 0.00334453, 1.57961, 1.58118, 0.003593, 0.0034559, 0.0036681, 0.00345514, 0.00346564, 0.00358011, 0.00335617
0.3269, 0.328139, 0.00362634, 0.0038681, 0.00319062, 0.00342995, 0.00324693, 0.00375124, 0.00316449, 0.00368984, 0.00328326, 0.00357573, 0.00400326, 0.00356812, 0.00405311, 0.00355169, 0.00364591, 0.00347874, 0.00342352, 0.00380732, 0.210546, 0.00346508, 0.20759, 0.204098, 0.202346, 0.201655, 0.201084, 0.201382, 0.200289, 0.200053, 0.00322284, 0.00341161, 0.00331993, 0.00373588, 0.00322605, 0.0034985, 0.00338684, 0.00371498, 0.00350204, 0.00404241, 0.00350601, 0.00360647, 0.00358279, 0.0753634, 0.0738528, 0.0734052, 0.0738639, 0.00330392, 0.00322759, 0.00347216, 0.00308601, 0.00361123, 0.00334173, 0.00399677, 0.00331412, 0.00400247, 0.0031612, 0.00346464, 0.00303791, 0.00361336, 0.00330771, 0.00363681, 0.00347524, 0.00332827, 0.00331431, 0.00348974, 0.003307, 0.00347812, 0.0034216, 0.00375617, 0.00329306, 0.00371032, 0.00317348, 0.00363142, 0.00302985, 0.00359352, 0.00334152, 0.00352543, 0.0031316, 0.00343421, 0.00322124, 0.00360941, 0.00335471, 0.00337524, 0.00320849, 0.00357359, 0.00335993, 0.258019, 0.25763, 0.258447, 0.00351704, 0.00352433, 0.00334923, 0.00369851, 0.00330472, 0.0034765, 0.00329172, 0.00353161, 0.00332911, 0.347896, 0.348464, 0.348736, 0.370806, 0.371819, 0.00333157, 0.00329355, 0.00341268, 0.00333267, 0.00332158, 0.422665, 0.00326493, 0.428461, 0.00329756, 0.0034874, 0.00313986, 0.00354768, 0.00341556, 0.00357643, 0.00331072, 0.00342184, 0.00345208, 0.00367752, 0.0034399, 0.00339573, 0.00338863, 0.00343981, 0.00339801, 0.00343089, 0.00333447, 0.00366739, 0.531453, 0.533095, 0.534284, 0.535592, 0.535356, 0.00330729, 0.00312619, 0.00365959, 0.0031922, 0.00351422, 0.00346987, 0.583033, 0.584521, 0.586828, 0.586024, 0.588805, 0.589068, 0.589555, 0.592514, 0.593274, 0.593731, 0.597367, 0.60396, 0.603899, 0.604305, 0.605059, 0.612151, 0.613595, 0.619198, 0.00353674, 0.00319553, 0.00345, 0.634366, 0.638936, 0.638921, 0.635188, 0.00318492, 0.629627, 0.631713, 0.00358358, 0.00341175, 0.00354747, 0.00345818, 0.00362619, 0.00337801, 0.00349789, 0.776728, 0.781224, 0.782221, 0.00347, 0.0033687, 0.00366006, 0.00337015, 0.00356871, 0.00330832, 0.850921, 0.852417, 0.00346217, 0.00327781, 0.00326398, 0.00318271, 0.881731, 0.00351476, 0.00354231, 0.00328579, 0.00360708, 0.00335482, 0.00350148, 0.00334478, 0.00346087, 0.00346678, 0.982234, 0.984904, 0.00356449, 0.00330361, 0.00353974, 0.00324042, 0.00349702, 0.00354362, 0.00376528, 0.00317997, 0.00360424, 1.00827, 1.01033, 0.00333789, 0.00356119, 0.00338544, 0.00323121, 1.06394, 1.0615, 1.06247, 1.06123, 1.06383, 1.06175, 1.06448, 0.00368603, 0.00314308, 0.00346192, 0.00347507, 0.00340266, 0.00325434, 1.14212, 0.00320514, 0.00352163, 0.00322869, 0.00374597, 0.00345365, 0.00353285, 1.19014, 1.19333, 1.19769, 0.00358294, 0.00344478, 1.22033, 0.00337726, 0.00350146, 0.0034142, 0.00349119, 0.00347894, 0.00341031, 1.29206, 1.29447, 1.2958, 0.00349978, 0.00322418, 0.00348374, 0.00306993, 0.0033961, 0.00325537, 0.00347665, 1.34916, 0.00346453, 0.003243, 0.00368772, 0.0033979, 0.00371487, 0.0034821, 0.00351531, 0.00359157, 0.00349466, 0.00332547, 1.45717, 0.00345898, 0.00362435, 1.48541, 1.48509, 0.00341075, 1.5055, 0.00312456, 0.0035513, 0.00341962, 0.00340935, 0.00355126, 0.00372278, 1.57625, 1.57566, 0.00321416, 0.00367293, 0.00349307, 0.00355076, 0.00349705, 0.00353963, 0.00344103, 0.00356617, 0.00345559
