1.19404, 1.1948, 1.20051, 1.19814, 1.19727, 1.19757, 1.20189, 1.20141, 1.20274, 1.20998, 1.21094, 1.2113, 1.20963, 1.20726, 1.20122, 1.20116, 1.20221, 1.20387, 1.20496, 1.20876, 1.21214, 1.20835, 1.20942, 1.21329, 1.21654, 1.21621, 1.20454, 1.20353, 1.20397, 1.31198, 1.31172, 1.21489, 1.48177, 1.49177, 1.34287, 1.23514, 1.24371, 1.48532, 1.56988, 1.43368, 1.53227, 1.24075, 1.27306, 1.19621, 1.19354, 1.19455, 1.21329, 1.22638, 1.21816, 1.23888, 1.23361, 1.24029, 1.24202, 1.27698, 1.29469, 1.29453, 1.33004, 1.33376, 1.34574, 1.34704, 1.39143, 1.43029, 1.38535, 1.41925, 1.46986, 1.54036, 1.49732, 1.49852, 1.50704, 1.52355, 1.54239, 1.53707, 1.56555, 1.58308, 1.62314, 1.62341, 1.6627, 1.67582, 1.67625, 1.72764, 1.72824, 1.75837, 1.97163, 1.8759, 1.83718, 1.82909, 1.78246, 1.76161, 1.74222, 1.75888, 1.75773, 1.75432, 1.75792, 1.75267, 1.75174, 1.76182, 1.78036, 1.79297, 0.00439272, 1.84009, 1.83941, 1.90284, 1.80601, 1.80602, 1.80585, 1.81823, 1.8378, 1.82757, 1.85598, 1.84112, 1.8391, 1.83725, 1.83118, 1.83797, 1.8373, 1.86214, 1.85976, 1.85957, 1.85317, 1.84384, 1.84445, 1.82867, 1.82611, 1.82697, 1.80306, 1.80048, 1.80278, 1.7825, 1.78243, 1.75296, 1.75183, 1.74058, 1.73461, 1.74275, 1.74044, 1.73462, 1.79466, 1.73324, 1.77871, 1.77668, 1.70146, 1.68947, 1.69865, 1.71778, 1.69589, 1.66842, 1.6858, 1.73222, 1.6372, 1.71908, 1.62948, 1.63143, 1.60955, 1.59822, 1.59706, 1.60577, 1.70193, 1.57969, 1.5776, 1.59531, 1.58144, 1.58843, 1.53487, 1.50744, 1.50703, 1.47059, 1.45986, 1.43024, 1.40703, 1.27048, 1.26946, 1.23651, 1.20263, 1.23631, 1.24908, 1.24769, 1.29003, 1.29061, 1.29146, 1.46167, 1.47934, 1.43639, 1.4953, 1.49158, 1.62383, 1.51425, 1.48831, 1.41217, 1.43099, 1.42645, 1.41595, 1.26788, 1.27118, 1.41531, 1.40404, 1.41265, 1.41202, 1.39913, 1.27145, 1.39206, 1.36763, 1.35755, 1.35065, 1.35165, 1.34941, 1.34481, 1.35043, 1.32758, 1.31327, 1.25335, 1.38538, 1.33656, 1.26829, 1.26027, 1.25858, 1.25231, 1.2537, 1.2497, 1.24985, 1.24627, 1.24448, 1.24228, 1.23219, 1.235, 1.2337, 1.2317, 1.22592, 1.21947, 1.21774, 1.21526, 1.21154, 1.20563, 1.20499, 1.18877, 1.19217, 1.19224, 1.18236, 1.17503, 1.17078, 1.16875
1.1994, 1.20316, 1.20323, 1.20344, 1.19995, 1.20025, 1.20312, 1.20178, 1.20977, 1.21204, 1.21287, 1.2141, 1.20896, 1.20801, 1.19986, 1.19902, 1.20167, 1.20321, 1.20465, 1.21285, 1.22251, 1.20887, 1.20941, 1.22054, 1.21977, 1.22007, 1.23355, 1.21133, 1.21169, 1.23278, 1.22636, 1.24034, 1.30162, 1.33488, 1.24148, 1.24027, 1.24214, 1.51131, 1.46124, 1.46174, 1.23283, 1.23838, 1.2393, 1.19785, 1.20324, 1.20148, 1.1936, 1.19901, 1.23058, 1.23356, 1.23437, 1.23585, 1.25989, 1.27902, 1.28681, 1.32678, 1.32229, 1.33648, 1.35059, 1.37847, 1.38514, 1.40512, 1.42053, 1.42677, 1.43803, 1.46598, 1.48801, 1.48833, 1.49637, 1.51107, 1.51694, 1.54285, 1.53777, 1.55431, 1.62041, 1.60362, 1.60909, 1.66918, 1.66879, 1.69668, 1.72742, 1.75107, 1.79566, 1.79574, 1.77928, 1.85368, 1.78607, 1.76854, 1.73598, 1.77576, 1.78596, 1.7661, 1.75623, 1.78966, 1.78585, 1.78824, 1.76803, 1.79393, 1.93911, 1.814, 1.89673, 1.82786, 1.80625, 1.80526, 1.81057, 1.81432, 1.88821, 1.86675, 1.84195, 1.8414, 1.84127, 1.84791, 1.8376, 1.8381, 1.83725, 1.86267, 1.86196, 1.85891, 1.85248, 1.85213, 1.85258, 1.85786, 1.82784, 1.82672, 1.82621, 1.79663, 1.79208, 1.78277, 1.78218, 1.75232, 1.75224, 1.74128, 1.76788, 1.74709, 1.74087, 1.73809, 1.73683, 1.84425, 1.7946, 1.74819, 1.70257, 1.69404, 1.66862, 1.6668, 1.67312, 1.66885, 1.64678, 1.65862, 1.62378, 1.72001, 1.6105, 1.58333, 1.59516, 1.60929, 1.59772, 1.5968, 1.70339, 1.58142, 1.5818, 1.58034, 1.61294, 1.58178, 1.57716, 1.54414, 1.54445, 1.5467, 1.46603, 1.40915, 1.35783, 1.29098, 1.28017, 1.22027, 1.20473, 1.2304, 1.26406, 1.25728, 1.3944, 1.28985, 1.45243, 1.45741, 1.44585, 1.29522, 1.44736, 1.68587, 1.42315, 1.4786, 1.39225, 1.40864, 1.55102, 1.31654, 1.4136, 1.41217, 1.42128, 1.39291, 1.28581, 1.28577, 1.38658, 1.47861, 1.35485, 1.47906, 1.3474, 1.26045, 1.34857, 1.29498, 1.31285, 1.32615, 1.36168, 1.28355, 1.28123, 1.28031, 1.27324, 1.26753, 1.267, 1.26054, 1.25929, 1.25519, 1.25039, 1.24925, 1.24676, 1.24296, 1.24295, 1.24209, 1.23555, 1.23156, 1.23206, 1.22925, 1.22839, 1.22542, 1.21958, 1.21521, 1.21173, 1.20017, 1.1979, 1.18401, 1.19105, 1.19079, 1.17921, 1.17285, 1.16479, 1.16409
1.20411, 1.20449, 1.20447, 1.2021, 1.19895, 1.19946, 1.20317, 1.20173, 1.202, 1.20533, 1.21174, 1.21516, 1.21027, 1.20888, 1.20439, 1.20285, 1.20234, 1.20543, 1.20742, 1.22543, 1.22341, 1.22288, 1.2219, 1.22138, 1.22011, 1.2193, 1.22081, 1.21741, 1.22619, 1.22463, 1.22774, 1.23082, 1.29614, 1.28943, 1.42951, 1.23654, 1.24071, 1.23997, 1.23841, 1.49998, 1.43365, 1.23584, 1.23459, 1.23037, 1.22001, 1.21918, 1.20189, 1.20345, 1.20803, 1.24367, 1.24776, 1.26375, 1.27018, 1.28254, 1.29204, 1.31508, 1.33209, 1.34995, 1.35378, 1.39434, 1.37813, 1.41687, 1.44455, 1.50316, 1.50221, 1.46504, 1.46046, 1.46088, 1.49514, 1.4936, 1.51246, 1.53926, 1.51828, 1.56067, 1.60418, 1.64596, 1.60916, 1.61712, 1.66926, 1.67328, 1.77297, 1.74406, 1.84819, 1.8505, 1.77951, 1.7795, 1.77123, 1.75733, 1.73732, 1.73764, 1.73718, 1.78859, 1.90146, 1.88308, 1.88265, 1.76893, 1.76877, 1.76852, 1.77959, 1.90728, 1.9151, 1.89435, 1.8165, 1.81652, 1.81635, 1.81526, 1.90323, 1.84488, 1.84777, 1.84149, 1.84138, 1.88263, 1.83747, 1.83781, 1.86633, 1.86379, 1.85953, 1.8603, 1.88074, 1.85291, 1.85228, 1.89766, 1.83108, 1.8109, 1.81563, 1.80126, 1.79933, 2.06288, 1.73363, 1.73263, 1.7306, 1.82484, 1.75102, 1.7656, 1.75467, 1.75317, 1.75453, 1.83696, 1.84147, 1.7543, 1.7027, 1.68707, 1.68644, 1.67561, 1.6593, 1.65127, 1.64928, 1.62464, 1.61471, 1.60445, 1.59925, 1.58209, 1.58595, 1.58568, 1.61377, 1.59837, 1.57805, 1.58237, 1.58366, 1.58294, 1.6533, 1.62012, 1.57442, 1.54818, 1.54492, 1.54662, 1.42336, 1.42305, 1.30624, 1.28809, 1.26785, 1.2434, 1.23786, 1.39416, 1.45152, 1.45927, 1.49353, 1.40909, 1.50202, 1.46353, 1.30353, 1.303, 1.61709, 1.52225, 1.49994, 1.46737, 1.47181, 1.38832, 1.49405, 1.32752, 1.43396, 1.46979, 1.47148, 1.38046, 1.36948, 1.41772, 1.44822, 1.29846, 1.35026, 1.37752, 1.33365, 1.27759, 1.28036, 1.26794, 1.26745, 1.29103, 1.28399, 1.28366, 1.28094, 1.27572, 1.27031, 1.26656, 1.26087, 1.25701, 1.2564, 1.25631, 1.243, 1.24884, 1.24657, 1.24392, 1.24276, 1.24264, 1.2358, 1.23759, 1.23563, 1.23227, 1.23057, 1.22548, 1.22292, 1.21272, 1.20619, 1.20269, 1.19757, 1.1818, 1.1823, 1.18039, 1.17848, 1.1767, 1.16388, 1.16053
1.20228, 1.20277, 1.19967, 1.20128, 1.19777, 1.19779, 1.19956, 1.202, 1.20175, 1.2029, 1.21623, 1.21564, 1.21247, 1.21235, 1.20825, 1.20853, 1.21021, 1.21296, 1.21241, 1.22578, 1.22595, 1.22297, 1.22916, 1.23188, 1.22967, 1.22876, 1.22941, 1.22774, 1.23025, 1.23308, 1.23569, 1.23611, 1.23989, 1.24899, 1.2487, 1.23772, 1.23854, 1.37757, 1.42662, 1.37521, 1.52173, 1.51149, 1.43422, 1.23777, 1.23082, 1.22754, 1.21093, 1.1996, 1.20839, 1.23035, 1.25306, 1.30089, 1.32609, 1.3028, 1.29546, 1.34506, 1.34517, 1.34475, 1.36019, 1.37092, 1.3787, 1.39551, 1.42996, 1.51168, 1.51241, 1.4943, 1.4607, 1.4613, 1.47491, 1.48038, 1.52099, 1.51295, 1.52471, 1.55812, 1.60195, 1.61563, 1.64394, 1.65425, 1.65371, 1.7457, 1.73013, 1.74127, 1.75486, 1.85859, 1.85271, 1.78909, 1.78075, 1.75521, 1.73821, 1.73762, 1.7374, 1.78266, 1.90146, 1.88247, 1.8834, 1.76911, 1.76852, 1.76831, 1.76884, 1.82496, 1.81904, 1.9178, 1.81624, 1.81693, 1.81641, 1.81433, 1.82127, 1.85048, 1.848, 1.85778, 1.84856, 1.88241, 1.95818, 1.9531, 2.07437, 1.89882, 1.89059, 1.89192, 1.88661, 2.05666, 1.87187, 1.88164, 1.81122, 1.8103, 1.81136, 1.96796, 1.9991, 1.97589, 1.83044, 1.7159, 1.72471, 1.74096, 1.79511, 1.76689, 1.75497, 1.75554, 1.75516, 1.79969, 1.78139, 1.79576, 1.71302, 1.68992, 1.68541, 1.65294, 1.65208, 1.65917, 1.62471, 1.62343, 1.63031, 1.62387, 1.61031, 1.58855, 1.58944, 1.58067, 1.61703, 1.61375, 1.5792, 1.57789, 1.59989, 1.58246, 1.58048, 1.68095, 1.54415, 1.48474, 1.5469, 1.48886, 1.44065, 1.41845, 1.34036, 1.27403, 1.26699, 1.24583, 1.44241, 1.39533, 1.39526, 1.55033, 1.65773, 1.76473, 1.41576, 1.41934, 1.5091, 1.50787, 1.45684, 1.45203, 1.44525, 1.41509, 1.49172, 1.43681, 1.31375, 1.3644, 1.38052, 1.46204, 1.33005, 1.30472, 1.3037, 1.30971, 1.30617, 1.2993, 1.29833, 1.30159, 1.31318, 1.27807, 1.28358, 1.27421, 1.27067, 1.35438, 1.28278, 1.2806, 1.27922, 1.27407, 1.26822, 1.26091, 1.26032, 1.2577, 1.25842, 1.26379, 1.23725, 1.2409, 1.24595, 1.24466, 1.24161, 1.23821, 1.23579, 1.23602, 1.23565, 1.23071, 1.22891, 1.22494, 1.21583, 1.20985, 1.20255, 1.20127, 1.18902, 1.19058, 1.18294, 1.18442, 1.1809, 1.17681, 1.17093, 1.16312
1.20361, 1.2029, 1.20027, 1.19811, 1.19876, 1.19798, 1.19764, 1.19843, 1.20178, 1.20516, 1.21541, 1.21545, 1.21214, 1.20846, 1.20602, 1.21181, 1.21372, 1.21592, 1.21459, 1.33327, 1.22158, 1.2228, 1.23929, 1.23095, 1.22902, 1.22865, 1.22958, 1.23026, 1.23146, 1.23413, 1.2357, 1.2376, 1.24082, 1.24771, 1.24781, 1.23772, 1.48511, 1.36743, 1.26704, 1.26666, 1.26571, 1.26425, 1.26646, 1.2326, 1.23413, 1.22367, 1.20538, 1.21191, 1.21889, 1.2259, 1.31423, 1.27044, 1.33638, 1.29134, 1.30265, 1.3377, 1.3377, 1.37198, 1.35972, 1.36414, 1.40461, 1.42325, 1.40663, 1.46963, 1.47494, 1.48209, 1.48242, 1.50907, 1.50275, 1.49873, 1.50165, 1.51253, 1.52031, 1.56432, 1.59287, 1.63296, 1.64652, 1.6408, 1.65697, 1.69529, 1.69624, 1.74582, 1.73986, 1.81017, 1.78615, 1.8481, 1.90711, 1.77137, 1.73656, 1.76588, 1.73889, 1.78393, 1.85882, 1.80952, 1.80953, 1.9885, 1.7686, 1.76881, 1.76827, 1.7931, 1.91372, 1.81383, 1.88038, 1.82685, 1.7853, 1.82781, 1.82799, 1.85293, 1.85392, 1.8493, 1.84868, 1.87286, 1.95347, 1.87886, 1.87769, 2.09391, 1.89074, 1.8898, 1.89244, 1.87204, 1.87144, 1.97059, 1.82687, 1.84589, 1.78743, 1.83124, 1.83005, 1.78999, 1.76256, 1.81054, 1.72284, 1.72216, 1.72277, 1.7795, 1.75965, 1.76228, 1.80644, 1.76924, 1.74134, 1.72679, 1.70363, 1.68903, 1.7169, 1.65252, 1.65129, 1.65455, 1.62364, 1.62316, 1.6384, 1.61635, 1.62584, 1.57858, 1.57825, 1.58075, 1.58203, 1.57755, 1.57631, 1.57533, 1.57595, 1.57818, 1.63825, 1.61427, 1.56183, 1.47322, 1.45961, 1.48769, 1.47228, 1.40577, 1.32593, 1.32563, 1.3033, 1.39362, 1.42759, 1.39633, 1.37406, 1.41892, 1.39677, 1.43164, 1.39527, 1.31981, 1.31913, 1.32007, 1.32045, 1.67926, 1.33966, 1.33996, 1.34083, 1.33627, 1.31815, 1.39501, 1.33639, 1.32643, 1.32615, 1.32344, 1.32382, 1.32084, 1.31632, 1.30807, 1.30564, 1.29463, 1.27805, 1.27899, 1.28083, 1.27138, 1.2717, 1.27237, 1.27915, 1.28032, 1.2729, 1.26961, 1.26266, 1.2618, 1.25664, 1.25666, 1.25428, 1.24694, 1.23707, 1.24033, 1.24095, 1.24195, 1.23587, 1.23484, 1.23235, 1.23266, 1.23199, 1.22923, 1.2254, 1.21825, 1.21004, 1.20593, 1.20145, 1.19507, 1.18756, 1.18696, 1.18285, 1.17978, 1.17957, 1.28148, 1.16183, 1.15675
1.20444, 1.20449, 1.1989, 1.19721, 1.19691, 1.19459, 1.19528, 1.20082, 1.20246, 1.20371, 1.21143, 1.21225, 1.20893, 1.20848, 1.20697, 1.21097, 1.21174, 1.20542, 1.20332, 1.20271, 1.19953, 1.34721, 1.2211, 1.22168, 1.22503, 1.22616, 1.22664, 1.22793, 1.22824, 1.23513, 1.23675, 1.24038, 1.25042, 1.24919, 1.24775, 1.24624, 1.29492, 1.26828, 1.26743, 1.26669, 1.26494, 1.26351, 1.26126, 1.25712, 1.2283, 1.20884, 1.21493, 1.20153, 1.22272, 1.23953, 1.3334, 1.33786, 1.34675, 1.28434, 1.29908, 1.30728, 1.30791, 1.3417, 1.37427, 1.35239, 1.37108, 1.37051, 1.40021, 1.49386, 1.49363, 1.48206, 1.48122, 1.50791, 1.50945, 1.51545, 1.51548, 1.53373, 1.54076, 1.56486, 1.62802, 1.69557, 1.69506, 1.64728, 1.6579, 1.66504, 1.712, 1.73002, 1.72694, 1.73878, 1.82134, 1.84162, 1.75514, 1.75373, 1.73547, 1.76466, 1.76398, 1.75632, 1.84918, 1.80942, 1.80913, 1.78864, 1.76891, 1.76857, 1.79623, 1.79047, 1.79424, 1.79423, 1.79709, 1.82037, 1.78534, 1.78517, 1.82116, 1.8314, 1.84917, 1.85832, 1.84748, 1.87347, 1.9547, 1.92539, 2.06488, 1.91109, 1.88991, 1.8899, 1.88933, 1.8724, 1.87207, 1.84457, 1.84526, 1.78785, 1.7888, 1.85211, 1.82958, 1.78797, 1.75481, 1.75431, 1.78642, 1.72293, 1.72216, 1.71174, 1.73379, 1.75802, 1.7412, 1.8073, 1.72001, 1.72146, 1.71562, 1.70278, 1.7646, 1.74253, 1.69944, 1.66399, 1.70197, 1.69328, 1.69008, 1.68846, 1.60418, 1.58146, 1.57568, 1.57592, 1.57685, 1.57738, 1.5792, 1.57551, 1.58642, 1.55614, 1.61073, 1.55364, 1.47653, 1.45455, 1.48761, 1.4424, 1.46111, 1.42321, 1.42338, 1.37118, 1.31447, 1.39543, 1.31812, 1.36733, 1.3665, 1.37093, 1.38364, 1.46092, 1.38448, 1.51712, 1.31274, 1.65196, 1.64105, 1.33645, 1.33712, 1.33699, 1.33269, 1.33246, 1.32672, 1.32581, 1.32602, 1.32471, 1.32204, 1.31924, 1.32111, 1.31561, 1.31015, 1.30701, 1.30396, 1.3017, 1.2936, 1.28866, 1.28351, 1.2705, 1.26908, 1.2821, 1.2814, 1.28061, 1.27395, 1.26672, 1.2577, 1.25558, 1.25419, 1.25229, 1.24176, 1.244, 1.24947, 1.23851, 1.23941, 1.23902, 1.23233, 1.23122, 1.22907, 1.22939, 1.22864, 1.22749, 1.22092, 1.21843, 1.21195, 1.20353, 1.19701, 1.19558, 1.19122, 1.18706, 1.18491, 1.18, 1.17998, 1.16506, 1.16452, 1.15895
1.20649, 1.20687, 1.2045, 1.19871, 1.19481, 1.19726, 1.19672, 1.20674, 1.20568, 1.20484, 1.2123, 1.21141, 1.2111, 1.20774, 1.2073, 1.20893, 1.20517, 1.20449, 1.20176, 1.20118, 1.19825, 1.20269, 1.22035, 1.22239, 1.22518, 1.22538, 1.22548, 1.22807, 1.23092, 1.2343, 1.23777, 1.24316, 1.24651, 1.24981, 1.25156, 1.24661, 1.39934, 1.2733, 1.39141, 1.41083, 1.55789, 1.26583, 1.26093, 1.25675, 1.21541, 1.19363, 1.21707, 1.20843, 1.27099, 1.27071, 1.26941, 1.27249, 1.27402, 1.27398, 1.2946, 1.29497, 1.30511, 1.32365, 1.33668, 1.3383, 1.40585, 1.40276, 1.41384, 1.42626, 1.47452, 1.5616, 1.51802, 1.53385, 1.52936, 1.52987, 1.52041, 1.54103, 1.59783, 1.66487, 1.61821, 1.67489, 1.66994, 1.66362, 1.66546, 1.72998, 1.70018, 1.76609, 1.82034, 1.81464, 1.81491, 1.74802, 1.74966, 1.75318, 1.7544, 1.77244, 1.81013, 1.85178, 1.80264, 1.80132, 1.803, 1.79637, 1.77745, 1.76507, 1.74841, 1.77563, 1.77311, 1.77373, 1.79223, 1.78985, 1.7881, 1.78906, 1.78921, 1.82785, 1.82884, 1.84774, 1.84725, 1.83463, 1.80987, 1.83699, 1.93167, 1.93348, 1.94101, 1.8974, 1.89649, 1.87344, 1.8482, 1.8443, 1.8177, 1.78659, 1.78616, 1.78546, 1.78322, 1.76102, 1.75509, 1.75398, 1.781, 1.78962, 1.72347, 1.71072, 1.71378, 1.71337, 1.80857, 1.71691, 1.70976, 1.70944, 1.71051, 1.71236, 1.70284, 1.69125, 1.68885, 1.6821, 1.61825, 1.61079, 1.61064, 1.59153, 1.59072, 1.59245, 1.57529, 1.57543, 1.58629, 1.57803, 1.5787, 1.57483, 1.57206, 1.58132, 1.55522, 1.58556, 1.47697, 1.47826, 1.50955, 1.50207, 1.40917, 1.38213, 1.37878, 1.33604, 1.3173, 1.31173, 1.31261, 1.36727, 1.37035, 1.36549, 1.36477, 1.36711, 1.36349, 1.55856, 1.31172, 1.47966, 1.48958, 1.3375, 1.33656, 1.33044, 1.3299, 1.33043, 1.33016, 1.32489, 1.32312, 1.3233, 1.31685, 1.31702, 1.31621, 1.31317, 1.31227, 1.30196, 1.30042, 1.2988, 1.29189, 1.28759, 1.28585, 1.28307, 1.28173, 1.28128, 1.27796, 1.27451, 1.27401, 1.26567, 1.25923, 1.248, 1.25101, 1.25068, 1.24142, 1.24091, 1.24295, 1.24019, 1.24023, 1.23408, 1.22279, 1.2316, 1.22945, 1.22885, 1.22792, 1.22584, 1.22041, 1.21441, 1.21152, 1.20891, 1.19877, 1.19458, 1.19239, 1.1903, 1.18455, 1.1833, 1.18054, 1.17363, 1.15737, 1.15507
1.20781, 1.20864, 1.20519, 1.20558, 1.2065, 1.20049, 1.20056, 1.20754, 1.20741, 1.20484, 1.20801, 1.21168, 1.20858, 1.20784, 1.20821, 1.20309, 1.20216, 1.20306, 1.20842, 1.20919, 1.20258, 1.20356, 1.21538, 1.22657, 1.22584, 1.22605, 1.22674, 1.23244, 1.23364, 1.23667, 1.24083, 1.34089, 1.25067, 1.25467, 1.25695, 1.25588, 1.27482, 1.4297, 1.42623, 1.47508, 1.54454, 1.41973, 1.46781, 1.41439, 1.21212, 1.19601, 1.19817, 1.22333, 1.23244, 1.30242, 1.30265, 1.29911, 1.29812, 1.31737, 1.29296, 1.29435, 1.31239, 1.30578, 1.32136, 1.34001, 1.37412, 1.38506, 1.41435, 1.50814, 1.50556, 1.52774, 1.69712, 1.70076, 1.55151, 1.59496, 1.57842, 1.61349, 1.61245, 1.63725, 1.67687, 1.67646, 1.70669, 1.68391, 1.67482, 1.67396, 1.6968, 1.81695, 1.72417, 1.74021, 1.74089, 1.75617, 1.7869, 1.85649, 1.77333, 1.81808, 1.80761, 1.79813, 1.8036, 1.80358, 1.80982, 1.77248, 1.77696, 1.74297, 1.74231, 1.78282, 1.78926, 1.77643, 1.77717, 1.77683, 1.80984, 1.83879, 1.79613, 1.81731, 1.81037, 1.80991, 1.80723, 1.80725, 1.81004, 1.8375, 1.83582, 1.88476, 1.81316, 1.82647, 1.85372, 1.87376, 2.0196, 1.79708, 1.81812, 2.01007, 1.7663, 1.76409, 1.77233, 1.77071, 1.76164, 1.761, 1.76082, 1.74172, 1.73437, 1.70929, 1.71377, 1.71368, 1.7129, 1.69484, 1.71693, 1.70949, 1.71489, 1.71404, 1.72482, 1.69229, 1.69369, 1.67105, 1.63047, 1.63737, 1.68069, 1.60127, 1.60113, 1.57159, 1.57524, 1.56985, 1.57146, 1.57156, 1.58723, 1.57185, 1.57309, 1.56813, 1.58627, 1.56935, 1.50243, 1.46819, 1.48426, 1.39287, 1.38847, 1.38742, 1.39069, 1.35794, 1.33617, 1.30924, 1.33709, 1.33707, 1.37037, 1.36936, 1.36773, 1.36703, 1.4371, 1.54782, 1.57809, 1.58975, 1.46564, 1.3429, 1.34208, 1.33721, 1.3369, 1.3326, 1.33144, 1.32836, 1.32594, 1.32036, 1.31718, 1.31569, 1.31304, 1.31221, 1.30851, 1.3029, 1.29872, 1.29497, 1.29378, 1.28583, 1.28447, 1.28151, 1.28017, 1.2781, 1.27628, 1.27201, 1.269, 1.26664, 1.26044, 1.25074, 1.25035, 1.24203, 1.23973, 1.23787, 1.23838, 1.23912, 1.23863, 1.22964, 1.22539, 1.23003, 1.22934, 1.22897, 1.2276, 1.22709, 1.22458, 1.22243, 1.21231, 1.2056, 1.20199, 1.19777, 1.19401, 1.19141, 1.1869, 1.18748, 1.18212, 1.1811, 1.23164, 1.2342
1.20937, 1.21146, 1.21142, 1.21091, 1.20322, 1.20319, 1.20396, 1.20479, 1.20698, 1.20663, 1.20365, 1.20498, 1.21184, 1.21109, 1.2139, 1.20891, 1.20333, 1.206, 1.20854, 1.21236, 1.2054, 1.20548, 1.21573, 1.23478, 1.29197, 1.36558, 1.23376, 1.23351, 1.23752, 1.29557, 1.24634, 1.24963, 1.25211, 1.31544, 1.25828, 1.25839, 1.28065, 1.45674, 1.29564, 1.29278, 1.29157, 1.29098, 1.291, 1.26971, 1.22757, 1.21054, 1.20786, 1.21206, 1.23314, 1.25123, 1.29977, 1.29839, 1.29699, 1.28693, 1.29051, 1.30845, 1.31019, 1.30707, 1.31134, 1.33949, 1.34161, 1.38541, 1.43742, 1.46747, 1.54235, 1.59615, 1.6342, 1.62048, 1.61976, 1.63462, 1.61454, 1.61426, 1.61331, 1.64676, 1.67768, 1.6265, 1.65507, 1.65867, 1.67179, 1.67561, 1.69997, 1.72099, 1.73883, 1.74791, 1.79667, 1.77139, 1.78556, 1.82578, 1.73889, 1.80359, 1.80623, 1.78635, 1.80391, 1.80372, 1.78925, 1.7815, 1.76613, 1.74366, 1.74307, 1.78537, 1.78368, 1.77947, 1.78734, 1.78785, 1.80515, 1.80456, 1.80741, 1.80642, 1.811, 1.80918, 1.80723, 1.8159, 1.81394, 1.81304, 1.78889, 1.78851, 1.79554, 1.80265, 1.83392, 1.77926, 1.76985, 1.76989, 1.76819, 1.76758, 1.76518, 1.76541, 1.76181, 1.76981, 1.76787, 1.76817, 1.89712, 1.73536, 1.75135, 1.72441, 1.71064, 1.71667, 1.71559, 1.70381, 1.72135, 1.71347, 1.71534, 1.7143, 1.74006, 1.67799, 1.69023, 1.69521, 1.67188, 1.66942, 1.74529, 1.64018, 1.62466, 1.57034, 1.56993, 1.56894, 1.57436, 1.57298, 1.57619, 1.56942, 1.54162, 1.54306, 1.54064, 1.50982, 1.48512, 1.47266, 1.4522, 1.39577, 1.39704, 1.43387, 1.38233, 1.32256, 1.35449, 1.35925, 1.3057, 1.31523, 1.47558, 1.36243, 1.36329, 1.35901, 1.51672, 1.34692, 1.5821, 1.46863, 1.34071, 1.34176, 1.34104, 1.33724, 1.33593, 1.32943, 1.3261, 1.32923, 1.3227, 1.31747, 1.31838, 1.31247, 1.3101, 1.31173, 1.30483, 1.29168, 1.29483, 1.28849, 1.28729, 1.28509, 1.28442, 1.28481, 1.27684, 1.27394, 1.27163, 1.26697, 1.2616, 1.2631, 1.25305, 1.24984, 1.24068, 1.23922, 1.23945, 1.23786, 1.23574, 1.23331, 1.23917, 1.2262, 1.22264, 1.22557, 1.22915, 1.22879, 1.22872, 1.22709, 1.22659, 1.22525, 1.2128, 1.21158, 1.20639, 1.33649, 1.19599, 1.19639, 1.19244, 1.1917, 1.18951, 1.1866, 1.18771, 1.1889
1.21056, 1.21207, 1.20843, 1.20579, 1.20493, 1.20467, 1.20423, 1.2044, 1.20397, 1.20319, 1.2027, 1.20326, 1.20709, 1.20679, 1.20979, 1.20859, 1.21007, 1.20726, 1.21, 1.21564, 1.21565, 1.21162, 1.25711, 1.23701, 1.2395, 1.23651, 1.23902, 1.24008, 1.24588, 1.24943, 1.27804, 1.26109, 1.30234, 1.36758, 1.26844, 1.36096, 1.28579, 1.45918, 1.29425, 1.29113, 1.29159, 1.28926, 1.28943, 1.28792, 1.23646, 1.21373, 1.20166, 1.21836, 1.22198, 1.24931, 1.23561, 1.28139, 1.28321, 1.28425, 1.33626, 1.31939, 1.31978, 1.31845, 1.31861, 1.34097, 1.36123, 1.36974, 1.40627, 1.46761, 1.56409, 1.54139, 1.60956, 1.59188, 1.59104, 1.58866, 1.62974, 1.62398, 1.64285, 1.64693, 1.64545, 1.6368, 1.67187, 1.65939, 1.67338, 1.67881, 1.69389, 1.71201, 1.76648, 1.77868, 1.79786, 1.7961, 1.72331, 1.70827, 1.73901, 1.74434, 1.80214, 1.79912, 1.84234, 1.87329, 1.76745, 1.76963, 1.75644, 1.73485, 1.76802, 1.7581, 1.78152, 1.80928, 1.78772, 1.78779, 1.80719, 1.80863, 1.8074, 1.80706, 1.80824, 1.80661, 1.80804, 1.81102, 1.81409, 1.81601, 1.78948, 1.78863, 1.78812, 1.78653, 1.79764, 1.78748, 1.76942, 1.76788, 1.77042, 1.7707, 1.75868, 1.76136, 1.76159, 1.76269, 1.76824, 1.768, 1.73678, 1.73594, 1.73481, 1.73374, 1.71404, 1.71418, 1.73117, 1.71371, 1.7138, 1.70524, 1.69927, 1.77875, 1.6934, 1.71393, 1.6584, 1.63145, 1.68954, 1.68392, 1.80103, 1.6518, 1.65116, 1.5699, 1.56886, 1.57263, 1.57175, 1.65068, 1.57461, 1.54472, 1.54429, 1.53217, 1.49326, 1.48813, 1.4676, 1.58476, 1.43528, 1.41946, 1.41566, 1.41546, 1.33315, 1.32205, 1.35019, 1.29347, 1.39802, 1.31865, 1.32393, 1.36074, 1.35754, 1.35706, 1.34456, 1.34334, 1.32578, 1.32632, 1.34447, 1.34277, 1.34081, 1.33901, 1.32605, 1.32394, 1.32216, 1.32238, 1.31715, 1.317, 1.3094, 1.30615, 1.30489, 1.30343, 1.2981, 1.29837, 1.28875, 1.28475, 1.28302, 1.27942, 1.27837, 1.27133, 1.27064, 1.26984, 1.26895, 1.26686, 1.25763, 1.25648, 1.24742, 1.24223, 1.24131, 1.23661, 1.23608, 1.23601, 1.23573, 1.23466, 1.23481, 1.22649, 1.2248, 1.22386, 1.23285, 1.23102, 1.23199, 1.229, 1.22847, 1.22547, 1.22497, 1.21324, 1.21288, 1.20285, 1.20181, 1.20079, 1.19597, 1.20029, 1.20241, 1.20029, 1.19359, 1.19113
1.20793, 1.2099, 1.20738, 1.20596, 1.2053, 1.20463, 1.20539, 1.20162, 1.20402, 1.20789, 1.20503, 1.20782, 1.20458, 1.20323, 1.20212, 1.21225, 1.20722, 1.20757, 1.21635, 1.21593, 1.21535, 1.21262, 1.23535, 1.23577, 1.2394, 1.23984, 1.24149, 1.24348, 1.2468, 1.24966, 1.2584, 1.26647, 1.26664, 1.2736, 1.27313, 1.39982, 1.28793, 1.28824, 1.293, 1.29261, 1.29095, 1.28868, 1.2879, 1.28558, 1.28361, 1.22037, 1.22261, 1.22312, 1.22202, 1.23537, 1.25345, 1.25337, 1.25035, 1.28555, 1.28547, 1.30259, 1.32028, 1.32996, 1.33225, 1.33052, 1.36405, 1.36645, 1.47215, 1.46509, 1.54912, 1.53997, 1.61043, 1.60562, 1.58868, 1.58843, 1.58911, 1.60589, 1.65394, 1.61303, 1.62727, 1.62683, 1.69645, 1.64724, 1.66345, 1.67204, 1.69943, 1.69004, 1.70209, 1.69056, 1.80655, 1.79784, 1.71816, 1.70947, 1.75174, 1.74582, 1.77927, 1.85811, 1.78672, 1.87382, 1.75067, 1.75432, 1.71075, 1.72071, 1.76124, 1.7614, 1.78881, 1.81977, 1.80582, 1.79382, 1.8638, 1.80284, 1.80612, 1.79814, 1.78551, 1.82097, 1.87853, 1.85673, 1.8405, 1.86598, 1.78888, 1.80307, 1.78168, 1.79475, 1.76684, 1.76841, 1.77856, 1.77028, 1.77064, 1.77679, 1.77587, 1.86153, 1.76182, 1.76101, 1.76137, 1.78577, 1.73788, 1.73649, 1.73432, 1.73325, 1.72077, 1.72058, 1.69702, 1.69392, 1.68568, 1.68802, 1.72324, 1.75244, 1.71305, 1.63419, 1.63478, 1.6332, 1.63466, 1.64455, 1.76915, 1.65403, 1.65402, 1.61684, 1.57085, 1.57, 1.56841, 1.57613, 1.5615, 1.54315, 1.53501, 1.51978, 1.48656, 1.46536, 1.48155, 1.44281, 1.41913, 1.40676, 1.3919, 1.39852, 1.34169, 1.31018, 1.29515, 1.2915, 1.40127, 1.31595, 1.31627, 1.39937, 1.357, 1.34368, 1.34144, 1.49001, 1.32382, 1.32298, 1.55716, 1.33495, 1.3338, 1.42687, 1.41145, 1.4092, 1.32248, 1.3163, 1.31539, 1.31289, 1.30327, 1.30327, 1.30117, 1.29901, 1.29171, 1.29112, 1.28407, 1.27799, 1.27574, 1.27518, 1.27518, 1.26828, 1.26693, 1.26615, 1.26508, 1.26398, 1.2575, 1.25101, 1.24994, 1.24306, 1.23972, 1.23819, 1.23571, 1.2364, 1.23593, 1.23449, 1.23653, 1.22659, 1.22996, 1.22944, 1.23173, 1.23288, 1.23214, 1.23211, 1.23241, 1.2261, 1.22493, 1.21677, 1.2133, 1.20934, 1.2028, 1.20121, 1.20118, 1.20099, 1.20118, 1.19996, 1.19906, 1.19689
1.20599, 1.21004, 1.21037, 1.20797, 1.20757, 1.20646, 1.20367, 1.20378, 1.21166, 1.21312, 1.2121, 1.20587, 1.20632, 1.20364, 1.20606, 1.20866, 1.21181, 1.21184, 1.36606, 1.21926, 1.2165, 1.25411, 1.23679, 1.24317, 1.2442, 1.24595, 1.24604, 1.25047, 1.25011, 1.25684, 1.26192, 1.26755, 1.2738, 1.27493, 1.28182, 1.28222, 1.29063, 1.39236, 1.29411, 1.29572, 1.29974, 1.29732, 1.29805, 1.47842, 1.46933, 1.27153, 1.21412, 1.21882, 1.24039, 1.24716, 1.24612, 1.24626, 1.27407, 1.26274, 1.2668, 1.2776, 1.30783, 1.32517, 1.32613, 1.3391, 1.36473, 1.46536, 1.49073, 1.49002, 1.54443, 1.6201, 1.58894, 1.61157, 1.5858, 1.64021, 1.59004, 1.60338, 1.61391, 1.61377, 1.63638, 1.62829, 1.62706, 1.62713, 1.6719, 1.66559, 1.67918, 1.68283, 1.68224, 1.68583, 1.71369, 1.70945, 1.7069, 1.70614, 1.71013, 1.786, 1.78572, 1.7766, 1.79972, 1.80615, 1.76474, 1.71366, 1.71298, 1.71398, 1.75812, 1.77143, 1.78452, 1.7814, 1.79013, 1.79077, 1.80489, 1.80229, 1.82417, 1.82085, 1.78832, 1.78421, 1.85505, 1.85419, 1.85877, 1.85849, 1.77849, 1.77489, 1.86922, 1.74804, 1.74134, 1.74536, 1.78355, 1.75056, 1.82226, 1.77614, 1.77565, 1.79442, 1.86141, 1.84466, 1.85516, 1.76229, 1.73609, 1.7343, 1.73323, 1.73191, 1.71226, 1.72164, 1.71948, 1.66764, 1.63901, 1.66108, 1.68379, 1.69706, 1.69423, 1.65084, 1.63632, 1.62326, 1.61662, 1.61404, 1.62628, 1.73283, 1.67495, 1.57542, 1.57594, 1.56981, 1.58639, 1.58246, 1.61411, 1.54432, 1.54576, 1.52125, 1.49128, 1.48254, 1.44035, 1.43007, 1.4385, 1.37218, 1.39347, 1.35274, 1.32671, 1.30129, 1.30258, 1.40503, 1.30622, 1.30588, 1.31252, 1.47049, 1.54318, 1.34272, 1.34419, 1.49669, 1.3235, 1.32224, 1.33132, 1.33093, 1.3301, 1.42354, 1.29679, 1.30681, 1.41825, 1.30632, 1.30293, 1.30164, 1.30124, 1.29901, 1.29657, 1.29152, 1.28643, 1.28407, 1.2823, 1.27523, 1.27058, 1.27688, 1.27047, 1.26957, 1.26777, 1.26713, 1.26594, 1.26639, 1.26161, 1.25707, 1.24973, 1.24198, 1.23932, 1.2374, 1.23446, 1.2358, 1.23637, 1.23595, 1.23937, 1.22551, 1.23343, 1.23579, 1.23707, 1.23578, 1.23183, 1.23062, 1.22886, 1.22763, 1.22349, 1.22023, 1.2185, 1.21142, 1.20766, 1.20752, 1.20458, 1.20508, 1.20687, 1.20704, 1.20548, 1.19949
1.20914, 1.21634, 1.21596, 1.21215, 1.21167, 1.2115, 1.20477, 1.20564, 1.21467, 1.21312, 1.21208, 1.21032, 1.2097, 1.30236, 1.21612, 1.21621, 1.22898, 1.22537, 1.22999, 1.22986, 1.22469, 1.23154, 1.24172, 1.24526, 1.25045, 1.25038, 1.24977, 1.25296, 1.25496, 1.26112, 1.26765, 1.26728, 1.27379, 1.27793, 1.3538, 1.28753, 1.44406, 1.298, 1.29844, 1.29958, 1.29983, 1.43172, 1.48297, 1.30469, 1.30511, 1.44848, 1.29919, 1.25072, 1.25026, 1.27076, 1.25482, 1.28785, 1.24978, 1.25415, 1.24728, 1.28785, 1.3209, 1.32701, 1.34527, 1.36599, 1.36902, 1.42562, 1.42634, 1.44782, 1.48603, 1.51499, 1.61804, 1.56819, 1.59659, 1.59366, 1.6058, 1.61351, 1.61344, 1.62416, 1.61769, 1.67042, 1.62988, 1.63039, 1.6514, 1.65861, 1.66778, 1.66769, 1.66361, 1.6734, 1.67362, 1.7, 1.68563, 1.71342, 1.74416, 1.74454, 1.80604, 1.77288, 1.73663, 1.73696, 1.73369, 1.72084, 1.71848, 1.7596, 1.76182, 1.75789, 1.77332, 1.79025, 1.79017, 1.78928, 1.86316, 1.86299, 1.91696, 1.82134, 1.78863, 1.78637, 1.78981, 1.85186, 1.862, 1.81076, 1.77519, 1.77339, 1.78269, 1.7635, 1.74181, 1.75876, 1.75914, 1.75147, 1.82304, 1.77516, 1.81473, 1.79559, 1.79474, 1.80558, 1.76866, 1.80741, 1.80443, 1.73487, 1.73303, 1.72599, 1.69706, 1.66811, 1.67826, 1.64437, 1.64814, 1.63848, 1.64225, 1.64232, 1.64342, 1.65316, 1.65038, 1.61274, 1.61301, 1.60742, 1.61534, 1.58602, 1.58601, 1.6503, 1.57675, 1.58058, 1.58126, 1.62242, 1.5633, 1.5621, 1.54561, 1.53869, 1.53741, 1.49593, 1.45123, 1.44784, 1.4364, 1.3823, 1.36213, 1.32324, 1.29562, 1.31916, 1.31521, 1.30589, 1.30651, 1.31323, 1.31307, 1.47953, 1.33612, 1.34188, 1.34055, 1.34091, 1.32923, 1.55808, 1.33002, 1.32925, 1.32349, 1.29538, 1.40581, 1.33511, 1.47167, 1.29835, 1.30206, 1.29625, 1.29484, 1.29465, 1.29183, 1.28997, 1.28095, 1.27829, 1.27267, 1.27009, 1.26965, 1.26896, 1.26871, 1.26927, 1.26789, 1.27038, 1.26559, 1.26243, 1.264, 1.26054, 1.24773, 1.24397, 1.23987, 1.23773, 1.2352, 1.23618, 1.23761, 1.23887, 1.24009, 1.24323, 1.23977, 1.23927, 1.23922, 1.2372, 1.23371, 1.23181, 1.22949, 1.22737, 1.226, 1.22505, 1.21822, 1.21361, 1.21245, 1.21251, 1.21309, 1.21115, 1.21122, 1.20709, 1.20539, 1.20456
1.21121, 1.21639, 1.21688, 1.2153, 1.21577, 1.21339, 1.21614, 1.21684, 1.21711, 1.21773, 1.21773, 1.22043, 1.22134, 1.22305, 1.22514, 1.22493, 1.22607, 1.23319, 1.23615, 1.23728, 1.23669, 1.22989, 1.24295, 1.24328, 1.24865, 1.24932, 1.25067, 1.25886, 1.26051, 1.26597, 1.26787, 1.26823, 1.27446, 1.27861, 1.28105, 1.28422, 1.2849, 1.28678, 1.29259, 1.4227, 1.29252, 1.29202, 1.29541, 1.29659, 1.40494, 1.31304, 1.31882, 1.25382, 1.24623, 1.23228, 1.24832, 1.24705, 1.25657, 1.25392, 1.2769, 1.30637, 1.30241, 1.31003, 1.33426, 1.36359, 1.40165, 1.40126, 1.41706, 1.44536, 1.49027, 1.49626, 1.51594, 1.58634, 1.57121, 1.57217, 1.69384, 1.61105, 1.61003, 1.60918, 1.61642, 1.67113, 1.62725, 1.62336, 1.64542, 1.64453, 1.67265, 1.66527, 1.66375, 1.66971, 1.66959, 1.66433, 1.66478, 1.67911, 1.74423, 1.73797, 1.81234, 1.7367, 1.73667, 1.73648, 1.73569, 1.73339, 1.73564, 1.75933, 1.75487, 1.77063, 1.79331, 1.79059, 1.79032, 1.78972, 1.77608, 1.77748, 1.82079, 1.82076, 1.79988, 1.78498, 1.80703, 1.80754, 1.84839, 1.77926, 1.78061, 1.77222, 1.73655, 1.7359, 1.74576, 1.75556, 1.76237, 1.74405, 1.76467, 1.84789, 1.84878, 1.79546, 1.93158, 1.77903, 1.77559, 1.7762, 1.7736, 1.7527, 1.73059, 1.7134, 1.70483, 1.65432, 1.65362, 1.64664, 1.64469, 1.68995, 1.6519, 1.63954, 1.63169, 1.64173, 1.68872, 1.6142, 1.59213, 1.621, 1.60453, 1.58197, 1.58599, 1.5845, 1.57803, 1.58218, 1.58142, 1.62702, 1.56456, 1.56404, 1.56425, 1.51539, 1.58597, 1.5233, 1.52586, 1.4194, 1.43713, 1.3741, 1.3476, 1.2966, 1.2848, 1.29632, 1.29485, 1.29468, 1.30339, 1.31769, 1.31616, 1.49915, 1.33573, 1.33454, 1.33808, 1.33406, 1.3333, 1.33056, 1.33098, 1.33147, 1.31431, 1.46457, 1.26448, 1.26423, 1.47441, 1.28899, 1.28625, 1.28547, 1.29386, 1.29278, 1.29062, 1.28875, 1.28163, 1.2739, 1.27141, 1.26952, 1.26834, 1.26916, 1.27047, 1.27001, 1.27368, 1.27422, 1.27241, 1.27078, 1.26224, 1.26093, 1.2586, 1.24564, 1.24186, 1.23705, 1.23516, 1.23606, 1.24021, 1.24024, 1.24196, 1.24231, 1.24263, 1.24365, 1.24149, 1.24004, 1.2369, 1.2335, 1.23177, 1.22901, 1.22719, 1.22567, 1.21999, 1.21662, 1.22233, 1.21629, 1.21643, 1.21285, 1.21237, 1.21537, 1.20503, 1.20433
1.22268, 1.22255, 1.22263, 1.2212, 1.22175, 1.22178, 1.21685, 1.2171, 1.21657, 1.22166, 1.2252, 1.22559, 1.22304, 1.22337, 1.22554, 1.22824, 1.23055, 1.23317, 1.23777, 1.23744, 1.23969, 1.37115, 1.24343, 1.2461, 1.25381, 1.25489, 1.25991, 1.26273, 1.26414, 1.26772, 1.35822, 1.27453, 1.2758, 1.27989, 1.28277, 1.28493, 1.28619, 1.28937, 1.28933, 1.28983, 1.2911, 1.29087, 1.29088, 1.2901, 1.39828, 1.27339, 1.27925, 1.27005, 1.25639, 1.22528, 1.24841, 1.25411, 1.25477, 1.275, 1.27507, 1.2958, 1.3157, 1.31876, 1.33184, 1.372, 1.40366, 1.4165, 1.40421, 1.43107, 1.49246, 1.48849, 1.52953, 1.5478, 1.58968, 1.57844, 1.58633, 1.61026, 1.61017, 1.60908, 1.67387, 1.6729, 1.72822, 1.62286, 1.68217, 1.64432, 1.6665, 1.66612, 1.66326, 1.71308, 1.71284, 1.66539, 1.66487, 1.6894, 1.69073, 1.74588, 1.72353, 1.70334, 1.73588, 1.73739, 1.73453, 1.74823, 1.72439, 1.76451, 1.76287, 1.76916, 1.79105, 1.79015, 1.78939, 1.80421, 1.77504, 1.74826, 1.7675, 1.77007, 1.74952, 1.75405, 1.77189, 1.77302, 1.83013, 1.77272, 1.78067, 1.76292, 1.78398, 1.7347, 1.73432, 1.74841, 1.74636, 1.73696, 1.73737, 1.77292, 1.80494, 1.80022, 1.92857, 1.75963, 1.75403, 1.74909, 1.862, 1.78429, 1.71026, 1.78602, 1.71083, 1.65396, 1.65847, 1.64449, 1.65076, 1.64547, 1.65035, 1.63125, 1.62693, 1.61738, 1.6135, 1.60799, 1.58014, 1.58042, 1.58232, 1.58158, 1.58271, 1.58212, 1.57845, 1.58493, 1.58469, 1.61301, 1.55818, 1.55777, 1.56694, 1.52409, 1.53172, 1.5247, 1.42369, 1.43074, 1.38765, 1.35722, 1.32027, 1.29248, 1.2982, 1.29977, 1.30963, 1.32363, 1.31885, 1.31849, 1.31611, 1.45918, 1.33752, 1.33211, 1.33367, 1.32951, 1.3227, 1.32276, 1.31865, 1.3247, 1.41739, 1.3331, 1.2615, 1.26408, 1.34079, 1.29054, 1.28431, 1.28101, 1.27949, 1.29159, 1.28926, 1.28639, 1.28121, 1.27273, 1.27237, 1.26965, 1.27026, 1.27057, 1.27215, 1.2745, 1.27722, 1.27694, 1.2743, 1.27434, 1.27004, 1.26782, 1.25791, 1.24421, 1.24299, 1.23976, 1.23708, 1.23873, 1.23839, 1.2435, 1.39827, 1.25053, 1.32161, 1.4611, 1.24597, 1.24415, 1.2431, 1.34354, 1.46426, 1.29519, 1.30775, 1.2265, 1.23267, 1.23752, 1.22238, 1.22207, 1.22149, 1.21712, 1.2155, 1.2155, 1.2093, 1.20512
1.22065, 1.2215, 1.22073, 1.21984, 1.22034, 1.22163, 1.22273, 1.21763, 1.22088, 1.22191, 1.22947, 1.22674, 1.22697, 1.22803, 1.23239, 1.23583, 1.23592, 1.24072, 1.24234, 1.36926, 1.36815, 1.35606, 1.35712, 1.36338, 1.36049, 1.35689, 1.353, 1.35081, 1.35132, 1.35136, 1.34992, 1.29136, 1.41606, 1.36786, 1.36147, 1.28611, 1.41834, 1.28887, 1.28953, 1.28999, 1.28993, 1.28956, 1.28972, 1.28798, 1.47279, 1.49316, 1.27458, 1.26683, 1.25392, 1.26127, 1.25437, 1.24931, 1.27685, 1.2712, 1.27833, 1.28765, 1.30657, 1.31413, 1.37424, 1.37395, 1.41257, 1.40252, 1.40217, 1.40289, 1.45992, 1.43517, 1.49797, 1.54857, 1.58835, 1.58982, 1.60057, 1.69604, 1.60815, 1.60757, 1.69072, 1.67521, 1.7889, 1.6642, 1.66496, 1.73711, 1.73658, 1.74095, 1.66755, 1.71258, 1.67156, 1.67156, 1.67515, 1.67522, 1.68893, 1.69101, 1.71418, 1.70214, 1.79106, 1.77608, 1.83407, 1.7876, 1.78726, 1.73489, 1.74243, 1.77649, 1.78178, 1.78926, 1.79045, 1.75467, 1.75367, 1.74797, 1.7475, 1.77947, 1.74739, 1.76293, 1.76185, 1.75078, 1.79554, 1.77906, 1.77226, 1.77241, 1.77342, 1.73345, 1.80053, 1.74456, 1.76811, 1.715, 1.79346, 1.78573, 1.7753, 1.78586, 1.86493, 1.75107, 1.75058, 1.74954, 1.74864, 1.86999, 1.72262, 1.70647, 1.67816, 1.67763, 1.64357, 1.64359, 1.64337, 1.64472, 1.61784, 1.63047, 1.61498, 1.61501, 1.5878, 1.57801, 1.58208, 1.57963, 1.59563, 1.58136, 1.58168, 1.58162, 1.57852, 1.57753, 1.58461, 1.55252, 1.55799, 1.57949, 1.58536, 1.48269, 1.44107, 1.43052, 1.42273, 1.42384, 1.38094, 1.36408, 1.32391, 1.32173, 1.3336, 1.33371, 1.3156, 1.32362, 1.32127, 1.31639, 1.31811, 1.36417, 1.33065, 1.32922, 1.49545, 1.32802, 1.32722, 1.32565, 1.31855, 1.31404, 1.29715, 1.29225, 1.26262, 1.26327, 1.33169, 1.29535, 1.29256, 1.29125, 1.28854, 1.28801, 1.29062, 1.29107, 1.27984, 1.27755, 1.27186, 1.27169, 1.34722, 1.27296, 1.27197, 1.34448, 1.28088, 1.27889, 1.27807, 1.44107, 1.42497, 1.42968, 1.31612, 1.24875, 1.24538, 1.24641, 1.24864, 1.25034, 1.25128, 1.25451, 1.26166, 1.26123, 1.26457, 1.26205, 1.25448, 1.25336, 1.25293, 1.2543, 1.2513, 1.24356, 1.24672, 1.2414, 1.23447, 1.23293, 1.22318, 1.21976, 1.22177, 1.21561, 1.21512, 1.21614, 1.24364, 1.24864
1.22144, 1.22307, 1.22373, 1.22297, 1.22239, 1.22326, 1.2241, 1.21847, 1.22008, 1.22344, 1.23042, 1.2337, 1.23259, 1.23405, 1.23373, 1.23568, 1.24205, 1.25042, 1.25294, 1.25686, 1.25832, 1.261, 1.27995, 1.26835, 1.27467, 1.2795, 1.27816, 1.27762, 1.28795, 1.34884, 1.29008, 1.29135, 1.29306, 1.29524, 1.29777, 1.29916, 1.3008, 1.30407, 1.30363, 1.53739, 1.48795, 1.46718, 1.4707, 1.50189, 1.49672, 1.5006, 1.47396, 1.45432, 1.27527, 1.26187, 1.25453, 1.25554, 1.25095, 1.24461, 1.27406, 1.3201, 1.34845, 1.3239, 1.32568, 1.38981, 1.39926, 1.39557, 1.39651, 1.41933, 1.41569, 1.46136, 1.46325, 1.50969, 1.58923, 1.59399, 1.6492, 1.69638, 1.68495, 1.68487, 1.70938, 1.64009, 1.65073, 1.65142, 1.77987, 1.77511, 1.77497, 1.68101, 1.6616, 1.66152, 1.67157, 1.67936, 1.6765, 1.67477, 1.69293, 1.69354, 1.69302, 1.69485, 1.6948, 1.69575, 1.70331, 1.70987, 1.78574, 1.79349, 1.73318, 1.78039, 1.78682, 1.75336, 1.75425, 1.7541, 1.75519, 1.76155, 1.74544, 1.72694, 1.72621, 1.75254, 1.72261, 1.75005, 1.75397, 1.75557, 1.75223, 1.74947, 1.78281, 1.75778, 1.74365, 1.74004, 1.73823, 1.71516, 1.71438, 1.73826, 1.75806, 1.86473, 1.86496, 1.86267, 1.75066, 1.74913, 1.74815, 1.85535, 1.71935, 1.72571, 1.66959, 1.66908, 1.67546, 1.65545, 1.64203, 1.64426, 1.59986, 1.59903, 1.5959, 1.58101, 1.58044, 1.5784, 1.58152, 1.58218, 1.58459, 1.58311, 1.58057, 1.5774, 1.57726, 1.57652, 1.66127, 1.59211, 1.56136, 1.57761, 1.51642, 1.45951, 1.4822, 1.43392, 1.43213, 1.43083, 1.42573, 1.32642, 1.31637, 1.33858, 1.34388, 1.34655, 1.33039, 1.32255, 1.32244, 1.32226, 1.31734, 1.31655, 1.50488, 1.34125, 1.34093, 1.32843, 1.32863, 1.32519, 1.50264, 1.48978, 1.27492, 1.27425, 1.26303, 1.27065, 1.29571, 1.29412, 1.29079, 1.28888, 1.2886, 1.28747, 1.28735, 1.28699, 1.28575, 1.28132, 1.28456, 1.28377, 1.27792, 1.27721, 1.34097, 1.39233, 1.33604, 1.2957, 1.29431, 1.30011, 1.2988, 1.29789, 1.28664, 1.25087, 1.25498, 1.25281, 1.25093, 1.24987, 1.25042, 1.25933, 1.26339, 1.26855, 1.26767, 1.2655, 1.26294, 1.26143, 1.25837, 1.25476, 1.25317, 1.2513, 1.24316, 1.24286, 1.23541, 1.23528, 1.22693, 1.22133, 1.21691, 1.21722, 1.21606, 1.21921, 1.30525, 1.30252
1.2245, 1.22425, 1.2291, 1.22908, 1.23046, 1.22867, 1.21946, 1.21827, 1.22579, 1.23091, 1.2309, 1.23581, 1.23457, 1.23341, 1.23368, 1.23968, 1.24538, 1.2498, 1.25382, 1.26295, 1.27845, 1.27395, 1.27652, 1.83943, 1.39457, 1.2807, 1.2806, 1.28117, 1.29538, 1.2982, 1.2991, 1.76279, 1.29619, 1.29881, 1.29842, 1.29862, 1.8, 1.30304, 1.30302, 1.93349, 1.30575, 1.44079, 1.46114, 1.44905, 1.62326, 1.54025, 1.29819, 1.47251, 1.49937, 1.28608, 1.28422, 1.26196, 1.25711, 1.24828, 1.25902, 1.2822, 1.29212, 1.31549, 1.33579, 1.40602, 1.40499, 1.40568, 1.51383, 1.39665, 1.41233, 1.41174, 1.4614, 1.49911, 1.55282, 1.57537, 1.65551, 1.59791, 1.59699, 1.63009, 1.6296, 1.68656, 1.68701, 1.67491, 1.6985, 1.69899, 1.69926, 1.74607, 1.68543, 1.66196, 1.68971, 1.67978, 1.67582, 1.67484, 1.72027, 1.68474, 1.68576, 1.69296, 1.69567, 1.6968, 1.69634, 1.7755, 1.70906, 1.69613, 1.69593, 1.73448, 1.75408, 1.75424, 1.75453, 1.75466, 1.75387, 1.72979, 1.72822, 1.72317, 1.71777, 1.73198, 1.72292, 1.72206, 1.75617, 1.77123, 1.75291, 1.80296, 1.83565, 1.84563, 1.79063, 1.74009, 1.73151, 1.71348, 1.71346, 1.73274, 1.73965, 1.73484, 1.8645, 1.77789, 1.76635, 1.78719, 1.80981, 1.80826, 1.71723, 1.85506, 1.71691, 1.66868, 1.6486, 1.67066, 1.6257, 1.62415, 1.68738, 1.61656, 1.58969, 1.58897, 1.57985, 1.57787, 1.5798, 1.59298, 1.59272, 1.59919, 1.58221, 1.58049, 1.59087, 1.58974, 1.67187, 1.59205, 1.58665, 1.56178, 1.51242, 1.45951, 1.44456, 1.41633, 1.43166, 1.39524, 1.39494, 1.34748, 1.3135, 1.33346, 1.33005, 1.33548, 1.33714, 1.32001, 1.31934, 1.32627, 1.44046, 1.51342, 1.5088, 1.34384, 1.34289, 1.4446, 1.3169, 1.49921, 1.50311, 1.28608, 1.27493, 1.27448, 1.32717, 1.30086, 1.29695, 1.29399, 1.29134, 1.28978, 1.28982, 1.28923, 1.28808, 1.28628, 1.28751, 1.28413, 1.28209, 1.28968, 1.29434, 1.48215, 1.3103, 1.30418, 1.30399, 1.29641, 1.2928, 1.29195, 1.2985, 1.29901, 1.28026, 1.28213, 1.41402, 1.26047, 1.25709, 1.25677, 1.25689, 1.25998, 1.26379, 1.26718, 1.26723, 1.26581, 1.26694, 1.26129, 1.26132, 1.2562, 1.24992, 1.24824, 1.2476, 1.24017, 1.23587, 1.23402, 1.22422, 1.22312, 1.21978, 1.21864, 1.21513, 1.25015, 1.20282, 1.16015
1.23314, 1.23614, 1.23588, 1.23687, 1.23598, 1.23637, 1.23033, 1.22519, 1.22539, 1.2354, 1.23594, 1.23611, 1.23599, 1.23677, 1.2428, 1.24759, 1.25282, 1.25537, 1.26006, 1.26332, 1.40531, 1.2756, 1.2778, 1.45187, 1.28424, 1.35364, 1.3049, 1.39683, 1.45771, 1.30913, 1.31456, 1.30645, 1.3054, 1.30916, 1.30516, 1.30554, 1.43372, 1.35365, 1.30854, 1.31379, 1.47888, 1.51333, 1.4792, 1.47676, 1.48523, 1.60619, 1.53337, 1.47194, 1.49039, 1.50233, 1.50874, 1.30898, 1.26787, 1.25717, 1.25136, 1.27115, 1.28389, 1.29861, 1.32024, 1.31997, 1.32696, 1.35419, 1.37548, 1.38871, 1.39225, 1.41002, 1.47265, 1.5124, 1.56792, 1.57198, 1.57086, 1.59852, 1.59745, 1.62994, 1.62969, 1.68695, 1.7824, 1.69013, 1.68753, 1.68798, 1.69284, 1.79485, 1.78435, 1.65361, 1.65765, 1.66591, 1.68702, 1.77194, 1.77077, 1.70288, 1.69409, 1.69538, 1.6988, 1.69846, 1.69764, 1.70587, 1.752, 1.69608, 1.69657, 1.72817, 1.75587, 1.75441, 1.75446, 1.75478, 1.73268, 1.73366, 1.72807, 1.72483, 1.7026, 1.72615, 1.74381, 1.75418, 1.76051, 1.75492, 1.81321, 1.78805, 1.77554, 1.77514, 1.80776, 1.80666, 1.71614, 1.71015, 1.69945, 1.73031, 1.71939, 1.71747, 1.71653, 1.73386, 1.75775, 1.7579, 1.79773, 1.81044, 1.72175, 1.73917, 1.71454, 1.63723, 1.63629, 1.63451, 1.62588, 1.62476, 1.66524, 1.65332, 1.59014, 1.58924, 1.5965, 1.63063, 1.6016, 1.59948, 1.59629, 1.59283, 1.57684, 1.58149, 1.62597, 1.58997, 1.5984, 1.59769, 1.59831, 1.50372, 1.53861, 1.4787, 1.43255, 1.41293, 1.38173, 1.36866, 1.3451, 1.31623, 1.32789, 1.3297, 1.33939, 1.33454, 1.33972, 1.48825, 1.32264, 1.47579, 1.44107, 1.43361, 1.51091, 1.34375, 1.34408, 1.38821, 1.53384, 1.49698, 1.29079, 1.29191, 1.27759, 1.28054, 1.30595, 1.30368, 1.30175, 1.29647, 1.29124, 1.29159, 1.29158, 1.2906, 1.28784, 1.28481, 1.29609, 1.2861, 1.2887, 1.28902, 1.29584, 1.29931, 1.31103, 1.30196, 1.30129, 1.29322, 1.29199, 1.29104, 1.29107, 1.2839, 1.28422, 1.28208, 1.28192, 1.36611, 1.26221, 1.25329, 1.26742, 1.26631, 1.26368, 1.26461, 1.26665, 1.39592, 1.25633, 1.25594, 1.25127, 1.24829, 1.24851, 1.24902, 1.2484, 1.24092, 1.23813, 1.23589, 1.22757, 1.3162, 1.31936, 1.32116, 1.32322, 1.31657, 1.15896, 1.15877
1.23633, 1.23677, 1.2371, 1.23734, 1.23765, 1.23542, 1.23575, 1.23627, 1.2362, 1.23795, 1.23899, 1.23968, 1.23948, 1.24425, 1.24442, 1.24821, 1.25377, 1.25998, 1.26293, 1.27182, 1.29103, 1.40132, 1.40432, 1.30326, 1.30211, 1.30303, 1.30505, 1.30533, 1.31083, 1.30954, 1.31023, 1.31187, 1.31375, 1.31288, 1.31516, 1.31541, 1.31568, 1.31621, 1.31592, 1.31881, 1.31714, 1.31725, 1.31735, 1.31917, 1.31978, 1.49808, 1.44484, 1.44853, 1.46605, 1.51693, 1.49935, 1.28924, 1.26003, 1.2603, 1.31093, 1.26881, 1.32712, 1.32712, 1.31254, 1.32147, 1.36414, 1.32852, 1.3548, 1.37861, 1.40082, 1.41006, 1.48082, 1.55768, 1.56384, 1.56839, 1.64998, 1.65198, 1.61046, 1.66263, 1.66156, 1.66837, 1.68283, 1.68288, 1.68272, 1.74442, 1.74216, 1.67885, 1.67892, 1.67925, 1.68285, 1.66561, 1.69105, 1.69588, 1.70305, 1.69831, 1.6927, 1.69231, 1.68961, 1.69919, 1.69361, 1.71801, 1.70235, 1.69752, 1.69827, 1.73094, 1.73051, 1.73089, 1.75399, 1.80251, 1.74235, 1.73134, 1.73785, 1.72304, 1.74338, 1.74506, 1.75061, 1.7523, 1.79445, 1.78693, 1.80721, 1.78399, 1.77528, 1.77523, 1.77475, 1.81078, 1.81558, 1.71353, 1.71269, 1.72879, 1.72149, 1.7204, 1.7164, 1.7108, 1.71022, 1.72797, 1.80738, 1.8288, 1.83791, 1.73835, 1.70865, 1.63516, 1.63995, 1.63898, 1.63882, 1.66224, 1.65481, 1.60976, 1.61431, 1.61722, 1.61664, 1.60283, 1.62107, 1.62293, 1.63698, 1.58896, 1.56515, 1.57401, 1.56928, 1.551, 1.56493, 1.54311, 1.54114, 1.51498, 1.5123, 1.43788, 1.50837, 1.38361, 1.33829, 1.34725, 1.33543, 1.30812, 1.34012, 1.3548, 1.3389, 1.33974, 1.35423, 1.58674, 1.4741, 1.36161, 1.34044, 1.34283, 1.34267, 1.34446, 1.35075, 1.3913, 1.31108, 1.3038, 1.28868, 1.28765, 1.30126, 1.29725, 1.3067, 1.30539, 1.30299, 1.29898, 1.2993, 1.29789, 1.302, 1.28921, 1.28275, 1.28234, 1.29417, 1.29586, 1.29517, 1.30053, 1.29828, 1.30699, 1.30586, 1.30024, 1.2985, 1.29275, 1.29321, 1.29204, 1.28629, 1.26909, 1.27977, 1.28321, 1.28385, 1.27318, 1.26886, 1.27059, 1.26627, 1.26649, 1.34615, 1.25672, 1.25475, 1.25639, 1.26029, 1.24751, 1.24669, 1.24661, 1.24661, 1.25252, 1.25099, 1.24382, 1.24441, 1.24286, 1.22945, 1.23593, 1.32137, 1.23686, 1.22756, 1.22712, 1.23524, 1.23643
1.23887, 1.24054, 1.23911, 1.24011, 1.24042, 1.24067, 1.3495, 1.23923, 1.23972, 1.24062, 1.23848, 1.23762, 1.24398, 1.24545, 1.24712, 1.25495, 1.25908, 1.26359, 1.42825, 1.47491, 1.29252, 1.3007, 1.30067, 1.30126, 1.30147, 1.30148, 1.30432, 1.30416, 1.30423, 1.30935, 1.30672, 1.31018, 1.31158, 1.31183, 1.31292, 1.31258, 1.31293, 1.31359, 1.31495, 1.31568, 1.31561, 1.3155, 1.31581, 1.31756, 1.31834, 1.49593, 1.32331, 1.32892, 1.33109, 1.33339, 1.33391, 1.30722, 1.26551, 1.26234, 1.27817, 1.27198, 1.29304, 1.29889, 1.30654, 1.3095, 1.32361, 1.3342, 1.36887, 1.37703, 1.40058, 1.40024, 1.60397, 1.51684, 1.55433, 1.56987, 1.64783, 1.65543, 1.62458, 1.69604, 1.78959, 1.68979, 1.68964, 1.68225, 1.69005, 1.66948, 1.69455, 1.67901, 1.67908, 1.67787, 1.69802, 1.69886, 1.6957, 1.70658, 1.69882, 1.72072, 1.69197, 1.70997, 1.72503, 1.69912, 1.69309, 1.69909, 1.67528, 1.77238, 1.7641, 1.77358, 1.7137, 1.72874, 1.80519, 1.78314, 1.80221, 1.73978, 1.7144, 1.71228, 1.71935, 1.73587, 1.74096, 1.73587, 1.81979, 1.77122, 1.78529, 1.78416, 1.78325, 1.84052, 1.77025, 1.81119, 1.81034, 1.71256, 1.7119, 1.71121, 1.71229, 1.71738, 1.71692, 1.70992, 1.7092, 1.7079, 1.80524, 1.68359, 1.68237, 1.74058, 1.67333, 1.68443, 1.63809, 1.63928, 1.63796, 1.67168, 1.62488, 1.62926, 1.63919, 1.62392, 1.63544, 1.7175, 1.71506, 1.65878, 1.57816, 1.56104, 1.56142, 1.57777, 1.56528, 1.50669, 1.49612, 1.48069, 1.53303, 1.51374, 1.47503, 1.43391, 1.43264, 1.35783, 1.31232, 1.312, 1.34376, 1.33268, 1.34248, 1.34122, 1.34585, 1.35199, 1.35003, 1.48826, 1.34482, 1.34377, 1.33765, 1.33697, 1.34034, 1.33838, 1.32784, 1.32437, 1.31782, 1.31139, 1.28925, 1.28827, 1.30173, 1.30104, 1.30089, 1.30585, 1.30341, 1.30053, 1.30061, 1.29913, 1.29895, 1.29151, 1.28785, 1.28827, 1.29095, 1.30133, 1.29543, 1.29829, 1.29762, 1.29704, 1.29832, 1.29638, 1.29371, 1.28724, 1.28855, 1.38094, 1.31436, 1.26931, 1.27066, 1.27494, 1.2734, 1.27074, 1.26927, 1.27101, 1.26128, 1.34477, 1.24995, 1.24954, 1.2498, 1.25061, 1.24727, 1.2496, 1.24647, 1.24669, 1.24726, 1.24957, 1.2497, 1.24965, 1.24529, 1.24538, 1.2402, 1.2505, 1.24958, 1.25116, 1.25174, 1.25093, 1.22179, 1.16966
1.36507, 1.36384, 1.36261, 1.24741, 1.36363, 1.37742, 1.24962, 1.34334, 1.40294, 1.36989, 1.25417, 1.24424, 1.24528, 1.2528, 1.26031, 1.26368, 1.26662, 1.26767, 1.27813, 1.27811, 1.27918, 1.27959, 1.44472, 1.40711, 1.39447, 1.39582, 1.3016, 1.30213, 1.30345, 1.30488, 1.30594, 1.30988, 1.3113, 1.31169, 1.31424, 1.31373, 1.31361, 1.31411, 1.31643, 1.31846, 1.31898, 1.31799, 1.31748, 1.31776, 1.3191, 1.32014, 1.46558, 1.48632, 1.33145, 1.33323, 1.3347, 1.30805, 1.28494, 1.28187, 1.30766, 1.29727, 1.27839, 1.30293, 1.31261, 1.31196, 1.30976, 1.34167, 1.34829, 1.36721, 1.41306, 1.41735, 1.45178, 1.50618, 1.55855, 1.56444, 1.63354, 1.62001, 1.66124, 1.63437, 1.78875, 1.78872, 1.87619, 1.68645, 1.65031, 1.65003, 1.66873, 1.68002, 1.68009, 1.68869, 1.70295, 1.69574, 1.70244, 1.78097, 1.73298, 1.73236, 1.77589, 1.72727, 1.72817, 1.72971, 1.70669, 1.66494, 1.6627, 1.6788, 1.67319, 1.81328, 1.70641, 1.71894, 1.83772, 1.77609, 1.74068, 1.71099, 1.71222, 1.70996, 1.70986, 1.75089, 1.74856, 1.74029, 1.7411, 1.84228, 1.78523, 1.78507, 1.79052, 1.83947, 1.81125, 1.76215, 1.80406, 1.76208, 1.71204, 1.71497, 1.71323, 1.71235, 1.73009, 1.70691, 1.70617, 1.77648, 1.68844, 1.68302, 1.6828, 1.68775, 1.67157, 1.68285, 1.65782, 1.6393, 1.63687, 1.65262, 1.6162, 1.61511, 1.64218, 1.64637, 1.69245, 1.64852, 1.64806, 1.67747, 1.58988, 1.58714, 1.57542, 1.54226, 1.51484, 1.5132, 1.47209, 1.46937, 1.48831, 1.45948, 1.42339, 1.38956, 1.37832, 1.35337, 1.31996, 1.31369, 1.3576, 1.33727, 1.34643, 1.34466, 1.35324, 1.35187, 1.3496, 1.34684, 1.34582, 1.34258, 1.33949, 1.33727, 1.33763, 1.33035, 1.32962, 1.32597, 1.32143, 1.29538, 1.29314, 1.30233, 1.30145, 1.30018, 1.3007, 1.30158, 1.29913, 1.29907, 1.29956, 1.29767, 1.29379, 1.28913, 1.28781, 1.28583, 1.28623, 1.28455, 1.28763, 1.28645, 1.2847, 1.28632, 1.28345, 1.39536, 1.28262, 1.39595, 1.27539, 1.27034, 1.26759, 1.3755, 1.26165, 1.43786, 1.26269, 1.26265, 1.26646, 1.26354, 1.41653, 1.24973, 1.24643, 1.24785, 1.24718, 1.2471, 1.24802, 1.24702, 1.24855, 1.24739, 1.24859, 1.2484, 1.24977, 1.24583, 1.24596, 1.25801, 1.25972, 1.24992, 1.24926, 1.25347, 1.25185, 1.25313, 1.25408, 1.26066
1.27394, 1.26264, 1.26106, 1.26124, 1.26169, 1.26023, 1.26055, 1.26189, 1.26799, 1.36127, 1.25879, 1.26028, 1.25841, 1.26152, 1.26269, 1.26328, 1.26378, 1.2697, 1.27746, 1.27743, 1.27858, 1.27882, 1.27881, 1.27784, 1.27899, 1.27948, 1.28292, 1.28486, 1.36577, 1.61609, 1.6119, 1.61618, 1.31314, 1.31942, 1.31739, 1.31929, 1.32078, 1.32063, 1.32, 1.3196, 1.31899, 1.31775, 1.31751, 1.31749, 1.3183, 1.32074, 1.32194, 1.32352, 1.32459, 1.32563, 1.5759, 1.35239, 1.30935, 1.27982, 1.27896, 1.27192, 1.28845, 1.30784, 1.30264, 1.30295, 1.31582, 1.34367, 1.3426, 1.37439, 1.38799, 1.42521, 1.48798, 1.49743, 1.51286, 1.59671, 1.60024, 1.62644, 1.70069, 1.63536, 1.63668, 1.63597, 1.64066, 1.66785, 1.65055, 1.6506, 1.72371, 1.67998, 1.71832, 1.6942, 1.70375, 1.70556, 1.73784, 1.79675, 1.73303, 1.73295, 1.79449, 1.71396, 1.72354, 1.73297, 1.71074, 1.66279, 1.66295, 1.66345, 1.66507, 1.75156, 1.70314, 1.71847, 1.72475, 1.78031, 1.71936, 1.71011, 1.71009, 1.70925, 1.7419, 1.74492, 1.74152, 1.74076, 1.7406, 1.77524, 1.83299, 1.7897, 1.78952, 1.81275, 1.783, 1.74903, 1.74829, 1.72575, 1.72626, 1.71651, 1.71397, 1.71781, 1.70896, 1.73486, 1.70842, 1.80771, 1.68414, 1.67612, 1.67565, 1.67299, 1.67264, 1.70406, 1.64911, 1.65143, 1.65242, 1.61883, 1.61484, 1.61699, 1.62955, 1.63201, 1.64384, 1.64251, 1.6482, 1.68844, 1.63288, 1.57942, 1.56401, 1.53078, 1.53204, 1.4735, 1.47718, 1.46494, 1.46081, 1.41451, 1.40266, 1.40494, 1.40423, 1.35464, 1.40139, 1.36238, 1.36371, 1.33684, 1.34772, 1.35436, 1.35357, 1.3533, 1.35196, 1.34908, 1.34709, 1.34341, 1.34091, 1.33947, 1.3392, 1.33154, 1.32795, 1.32614, 1.31629, 1.31528, 1.29284, 1.30209, 1.30142, 1.30015, 1.30027, 1.30017, 1.29225, 1.29671, 1.29892, 1.2982, 1.29463, 1.28996, 1.28726, 1.28107, 1.28113, 1.28331, 1.28647, 1.28437, 1.28406, 1.28089, 1.27906, 1.27719, 1.27582, 1.27378, 1.27217, 1.26645, 1.26428, 1.25964, 1.25817, 1.25649, 1.25553, 1.25793, 1.25934, 1.32679, 1.24323, 1.24199, 1.24318, 1.24307, 1.24607, 1.24616, 1.24745, 1.24559, 1.24785, 1.25313, 1.25319, 1.25485, 1.25447, 1.2462, 1.25305, 1.25849, 1.25858, 1.24753, 1.25321, 1.25235, 1.2453, 1.25043, 1.25031, 1.30882
1.27067, 1.27373, 1.26209, 1.26289, 1.26223, 1.2628, 1.26396, 1.26156, 1.26612, 1.26964, 1.2609, 1.26052, 1.26076, 1.26362, 1.26325, 1.26367, 1.26595, 1.26858, 1.27285, 1.28074, 1.28091, 1.27929, 1.27994, 1.27954, 1.27922, 1.27761, 1.28465, 1.28571, 1.42819, 1.3012, 1.30239, 1.30348, 1.42616, 1.32099, 1.32061, 1.32101, 1.32209, 1.32265, 1.32329, 1.32341, 1.32377, 1.31688, 1.31972, 1.3206, 1.32269, 1.5119, 1.32281, 1.32392, 1.32528, 1.32536, 1.43055, 1.36345, 1.28839, 1.28884, 1.30022, 1.30018, 1.27776, 1.29494, 1.32642, 1.32921, 1.32366, 1.34333, 1.37407, 1.37497, 1.38789, 1.42229, 1.43691, 1.47724, 1.49738, 1.59942, 1.60152, 1.58326, 1.62468, 1.62396, 1.63721, 1.63634, 1.63383, 1.66661, 1.65828, 1.64842, 1.65861, 1.66263, 1.68353, 1.71843, 1.70699, 1.70914, 1.75341, 1.76193, 1.81383, 1.73169, 1.76162, 1.76553, 1.72458, 1.72691, 1.69863, 1.69477, 1.66637, 1.66563, 1.66603, 1.66537, 1.73417, 1.71026, 1.71348, 1.71282, 1.72057, 1.74115, 1.74472, 1.75919, 1.74547, 1.74277, 1.76182, 1.74184, 1.74506, 1.7667, 1.80986, 1.8316, 1.77906, 1.77882, 1.76131, 1.7622, 1.73927, 1.72655, 1.72569, 1.7592, 1.70913, 1.70918, 1.71303, 1.71048, 1.69973, 1.69968, 1.68441, 1.78288, 1.67446, 1.67302, 1.67236, 1.66526, 1.6684, 1.62076, 1.62764, 1.65247, 1.61223, 1.60981, 1.65349, 1.63289, 1.63175, 1.65048, 1.65024, 1.67772, 1.62963, 1.56655, 1.54164, 1.52435, 1.47743, 1.47456, 1.4663, 1.46236, 1.46805, 1.49412, 1.40544, 1.40619, 1.34622, 1.34017, 1.34065, 1.35312, 1.3644, 1.37136, 1.35352, 1.35282, 1.35406, 1.35426, 1.35326, 1.3501, 1.3489, 1.34736, 1.33745, 1.33569, 1.33441, 1.33067, 1.3259, 1.32559, 1.31676, 1.3133, 1.3062, 1.30498, 1.3024, 1.30111, 1.29947, 1.30008, 1.29117, 1.28987, 1.29704, 1.29686, 1.29565, 1.2948, 1.28913, 1.28022, 1.27999, 1.28488, 1.28306, 1.28164, 1.2824, 1.28138, 1.27806, 1.27812, 1.27622, 1.27427, 1.26899, 1.26568, 1.26469, 1.26153, 1.25955, 1.2555, 1.26058, 1.25687, 1.25642, 1.25677, 1.24019, 1.24323, 1.24614, 1.31243, 1.24643, 1.2494, 1.25438, 1.25339, 1.25385, 1.25371, 1.25271, 1.25377, 1.25412, 1.25141, 1.25112, 1.25545, 1.2562, 1.24825, 1.24844, 1.25042, 1.24259, 1.24307, 1.25138, 1.25292
1.27952, 1.26851, 1.26764, 1.26052, 1.25958, 1.26007, 1.26523, 1.26662, 1.26695, 1.26407, 1.26342, 1.26314, 1.2636, 1.26349, 1.26993, 1.27018, 1.27161, 1.27386, 1.27522, 1.28215, 1.2841, 1.63686, 1.29304, 1.28637, 1.28264, 1.38426, 1.39537, 1.28907, 1.30003, 1.30071, 1.3025, 1.30519, 1.30826, 1.31915, 1.32019, 1.32197, 1.32213, 1.32138, 1.32653, 1.32831, 1.33319, 1.33016, 1.62998, 1.50223, 1.5249, 1.5334, 1.32742, 1.32758, 1.58135, 1.33184, 1.31545, 1.31315, 1.34272, 1.31057, 1.28271, 1.28313, 1.30263, 1.30615, 1.29736, 1.32313, 1.3227, 1.32407, 1.34276, 1.36056, 1.38784, 1.41732, 1.41727, 1.47173, 1.48904, 1.53563, 1.55344, 1.5723, 1.64795, 1.63098, 1.63646, 1.64009, 1.63572, 1.63869, 1.63865, 1.65077, 1.62357, 1.65464, 1.66144, 1.68398, 1.7, 1.69796, 1.76511, 1.76005, 1.75156, 1.72613, 1.71373, 1.71461, 1.69623, 1.7197, 1.70683, 1.66885, 1.66514, 1.66505, 1.66471, 1.66775, 1.7057, 1.71295, 1.7893, 1.71256, 1.71755, 1.73381, 1.74059, 1.73987, 1.76075, 1.76674, 1.76481, 1.76273, 1.74512, 1.74428, 1.76785, 1.77235, 1.77233, 1.77959, 0.00416488, 1.9831, 1.73891, 1.74917, 1.73511, 1.71445, 1.71213, 1.69512, 1.67836, 1.69419, 1.69918, 1.69961, 1.69957, 1.78351, 1.78384, 1.72519, 1.67473, 1.65246, 1.63712, 1.63423, 1.62245, 1.62345, 1.61031, 1.60971, 1.65861, 1.62657, 1.6263, 1.68232, 1.65111, 1.64442, 1.62756, 1.56068, 1.52397, 1.55496, 1.47755, 1.4774, 1.46378, 1.41309, 1.51062, 1.39159, 1.39245, 1.35733, 1.35427, 1.34019, 1.33963, 1.37736, 1.35481, 1.35148, 1.36134, 1.36055, 1.35879, 1.35758, 1.35363, 1.35284, 1.34732, 1.34645, 1.34076, 1.33622, 1.4166, 1.32944, 1.3263, 1.3253, 1.31974, 1.31495, 1.31244, 1.31097, 1.30844, 1.30403, 1.30509, 1.30559, 1.28695, 1.28645, 1.29837, 1.29874, 1.29776, 1.29722, 1.40191, 1.51062, 1.39502, 1.28942, 1.28178, 1.28121, 1.2825, 1.28045, 1.27808, 1.27714, 1.27637, 1.2738, 1.26785, 1.26612, 1.26336, 1.26089, 1.25995, 1.25782, 1.25672, 1.25734, 1.25469, 1.25318, 1.24915, 1.24832, 1.25302, 1.25434, 1.25706, 1.25554, 1.25505, 1.25528, 1.25588, 1.25393, 1.26261, 1.26212, 1.25602, 1.25176, 1.25556, 1.25502, 1.25294, 1.24725, 1.24751, 1.24807, 1.24527, 1.24748, 1.2505, 1.25214
1.26736, 1.26532, 1.26477, 1.25523, 1.25589, 1.2568, 1.25979, 1.26014, 1.26042, 1.26061, 1.26143, 1.26089, 1.26153, 1.26347, 1.26516, 1.26719, 1.27046, 1.2729, 1.27536, 1.27924, 1.29551, 1.2952, 1.29503, 1.29151, 1.29121, 1.29571, 1.29676, 1.29995, 1.29881, 1.29883, 1.30113, 1.30759, 1.30807, 1.30873, 1.31432, 1.31543, 1.31629, 1.32024, 1.32146, 1.32857, 1.33242, 1.34736, 1.33639, 1.33413, 1.33503, 1.33359, 1.33376, 1.51271, 1.34364, 1.34383, 1.48931, 1.31765, 1.29324, 1.29304, 1.28255, 1.28703, 1.29845, 1.32297, 1.4711, 1.33045, 1.33978, 1.32212, 1.33717, 1.372, 1.37422, 1.41714, 1.42053, 1.43516, 1.434, 1.49531, 1.54292, 1.56823, 1.62368, 1.66143, 1.64063, 1.64057, 1.68504, 1.63668, 1.6495, 1.66028, 1.62488, 1.62453, 1.64431, 1.64358, 1.67226, 1.77258, 1.7721, 1.76012, 1.80938, 1.72633, 1.72532, 1.69404, 1.69615, 1.69581, 1.71651, 1.66961, 1.66692, 1.68883, 1.69047, 1.68127, 1.70093, 1.7352, 1.73379, 1.73497, 1.73021, 1.74124, 1.74068, 1.74015, 1.74787, 1.76457, 1.76481, 1.76304, 1.75903, 1.75431, 1.76678, 1.80696, 1.78643, 1.78652, 1.78316, 2.03882, 1.75039, 1.74501, 1.72808, 1.71796, 1.7468, 1.69589, 1.67432, 1.689, 1.70051, 1.69916, 1.69904, 1.80275, 1.73746, 1.73625, 1.7327, 1.73243, 1.63738, 1.67103, 1.67104, 1.62129, 1.61745, 1.63734, 1.64492, 1.65175, 1.63972, 1.69612, 1.65217, 1.63106, 1.62962, 1.55177, 1.50207, 1.56114, 1.46353, 1.43762, 1.4203, 1.4552, 1.46251, 1.38257, 1.37891, 1.35722, 1.34988, 1.35195, 1.35435, 1.37626, 1.36189, 1.36279, 1.35417, 1.35769, 1.35744, 1.35501, 1.35168, 1.35006, 1.34584, 1.34184, 1.34002, 1.33941, 1.33595, 1.33428, 1.32581, 1.32045, 1.31927, 1.31579, 1.3146, 1.31072, 1.30823, 1.30365, 1.30196, 1.29435, 1.29183, 1.2882, 1.28987, 1.29841, 1.29947, 1.29872, 1.30469, 1.30685, 1.29837, 1.75195, 1.87637, 1.29186, 1.28409, 1.28192, 1.27998, 1.27917, 1.27835, 1.27473, 1.27186, 1.27021, 1.26588, 1.26433, 1.26482, 1.2617, 1.31472, 1.25781, 1.25828, 1.25602, 1.4059, 1.36879, 1.26322, 1.261, 1.26319, 1.26511, 1.26403, 1.26414, 1.26338, 1.2637, 1.26425, 1.2612, 1.25705, 1.25424, 1.25046, 1.25034, 1.24937, 1.24718, 1.24697, 1.24957, 1.24621, 1.24599, 1.24114, 1.23949
1.26406, 1.26536, 1.26462, 1.25656, 1.25552, 1.25691, 1.26014, 1.26084, 1.26704, 1.26523, 1.32772, 1.44749, 1.37313, 1.27062, 1.26747, 1.26922, 1.27342, 1.27423, 1.28408, 1.28828, 1.29558, 1.29568, 1.29298, 1.29187, 1.29307, 1.29503, 1.29788, 1.29902, 1.30595, 1.30632, 1.31174, 1.31088, 1.31058, 1.31006, 1.31283, 1.31361, 1.31557, 1.31798, 1.31904, 1.32202, 1.32241, 1.32468, 1.5799, 1.3306, 1.33328, 1.33363, 1.33521, 1.34135, 1.34211, 1.34292, 1.34203, 1.33967, 1.36052, 1.30112, 1.28095, 1.288, 1.2947, 1.40941, 1.34756, 1.34668, 1.32008, 1.32961, 1.34111, 1.37091, 1.36797, 1.39823, 1.3971, 1.42376, 1.43601, 1.49226, 1.53041, 1.56573, 1.70799, 1.58731, 1.70349, 1.6412, 1.61903, 1.61925, 1.62965, 1.66656, 1.62665, 1.6751, 1.66859, 1.66111, 1.66913, 1.67177, 1.67286, 1.68576, 1.78063, 1.68577, 1.69216, 1.71926, 1.69802, 1.69652, 1.68908, 1.68887, 1.68867, 1.79249, 1.69429, 1.80909, 1.77544, 1.76435, 1.73355, 1.73302, 1.72985, 1.74147, 1.74114, 1.74149, 1.75282, 1.75185, 1.76183, 1.76158, 1.76317, 1.75238, 1.77161, 1.77921, 1.78575, 1.78576, 1.78081, 1.77272, 1.84247, 1.73299, 1.69623, 1.6958, 1.69717, 1.69572, 1.67122, 1.67978, 1.68392, 1.79149, 1.72071, 1.74899, 1.6827, 1.73484, 1.66554, 1.73345, 1.63706, 1.58313, 1.58247, 1.6244, 1.60585, 1.57562, 1.58456, 1.58512, 1.7196, 1.59203, 1.61783, 1.61594, 1.58542, 1.54119, 1.48144, 1.46079, 1.44451, 1.42048, 1.39847, 1.39727, 1.43162, 1.38828, 1.38757, 1.37535, 1.36545, 1.36851, 1.37011, 1.3641, 1.3664, 1.36389, 1.3594, 1.35778, 1.35762, 1.35553, 1.35209, 1.35028, 1.34164, 1.34133, 1.33988, 1.33689, 1.33528, 1.331, 1.32717, 1.32551, 1.32192, 1.32166, 1.31663, 1.31332, 1.30993, 1.30909, 1.30578, 1.42386, 1.29477, 1.28435, 1.28653, 1.30219, 1.30193, 1.30184, 1.30749, 1.30657, 1.30724, 1.30322, 1.30092, 1.29823, 1.29776, 1.30683, 1.29042, 1.2877, 1.28758, 1.28611, 1.28114, 1.28036, 1.27466, 1.27368, 1.27331, 1.27231, 1.27218, 1.27104, 1.26766, 1.26487, 1.26474, 1.27116, 1.27048, 1.26847, 1.26713, 1.26497, 1.26108, 1.25826, 1.25914, 1.25623, 1.25521, 1.25299, 1.25088, 1.24934, 1.24782, 1.24888, 1.2478, 1.24716, 1.24755, 1.24952, 1.2477, 1.2431, 1.24009, 1.2405
1.26785, 1.26805, 1.26738, 1.26258, 1.25928, 1.25958, 1.26157, 1.2676, 1.26815, 1.2727, 1.27585, 1.27751, 1.27847, 1.27867, 1.27535, 1.276, 1.27779, 1.2842, 1.28409, 1.28758, 1.29613, 1.29606, 1.29766, 1.29837, 1.30534, 1.44052, 1.31314, 1.43818, 1.40711, 1.48056, 1.32228, 1.32125, 1.32056, 1.31984, 1.31337, 1.31489, 1.31751, 1.3199, 1.31983, 1.32001, 1.32174, 1.32294, 1.32491, 1.32828, 1.33021, 1.33385, 1.33855, 1.33986, 1.33955, 1.33818, 1.33809, 1.34024, 1.34199, 1.34033, 1.27664, 1.2763, 1.3265, 1.32411, 1.34657, 1.285, 1.3433, 1.33153, 1.3319, 1.34826, 1.37325, 1.37315, 1.41004, 1.40953, 1.43811, 1.489, 1.51447, 1.55168, 1.56418, 1.70318, 1.62675, 1.67272, 1.61368, 1.65698, 1.66456, 1.66461, 1.62593, 1.63451, 1.63196, 1.70641, 1.62786, 1.62761, 1.62728, 1.66236, 1.78198, 1.77167, 1.68641, 1.69345, 1.69342, 1.77434, 1.68952, 1.68933, 1.68858, 1.69572, 1.78246, 1.78753, 1.76496, 1.76386, 1.73292, 1.72217, 1.76848, 1.71584, 1.74921, 1.74836, 1.74841, 1.75111, 1.76027, 1.75863, 1.75441, 1.76248, 1.7724, 1.77916, 1.78562, 1.78339, 2.04181, 1.9764, 1.84319, 1.69681, 1.70985, 1.71028, 1.70203, 1.67301, 1.67117, 1.66488, 1.66541, 1.67006, 1.72069, 1.75261, 1.68336, 1.68199, 1.64809, 1.63438, 1.70359, 1.70337, 1.58506, 1.59941, 1.58357, 1.58097, 1.58805, 1.58532, 1.55936, 1.55814, 1.56056, 1.56425, 1.54226, 1.54112, 1.47164, 1.45507, 1.43072, 1.41019, 1.40843, 1.40327, 1.38515, 1.38434, 1.36459, 1.36394, 1.38385, 1.36765, 1.36442, 1.3706, 1.36797, 1.36685, 1.36001, 1.35953, 1.359, 1.35223, 1.35068, 1.34424, 1.34268, 1.34174, 1.34002, 1.33767, 1.33573, 1.33097, 1.32886, 1.3279, 1.32541, 1.32444, 1.32515, 1.31831, 1.38956, 1.3168, 1.31587, 1.38597, 1.38752, 1.39536, 1.40218, 1.30338, 1.30615, 1.30896, 1.3071, 1.30448, 1.30297, 1.29968, 1.30036, 1.29578, 1.29401, 1.29114, 1.28858, 1.28562, 1.28377, 1.28155, 1.27794, 1.27484, 1.27451, 1.27359, 1.27423, 1.27184, 1.27285, 1.27135, 1.26894, 1.26654, 1.26429, 1.26551, 1.26712, 1.26419, 1.26096, 1.25837, 1.25682, 1.25457, 1.25499, 1.25505, 1.25456, 1.25312, 1.25333, 1.25375, 1.2532, 1.25018, 1.2567, 1.25178, 1.25159, 1.24578, 1.24412, 1.24279, 1.2422, 1.25043
1.26893, 1.26703, 1.26708, 1.26344, 1.26224, 1.25984, 1.26025, 1.26266, 1.26559, 1.27203, 1.27305, 1.27475, 1.27615, 1.27786, 1.27845, 1.27883, 1.27965, 1.28379, 1.28471, 1.2874, 1.2953, 1.30009, 1.30193, 1.30312, 1.3083, 1.31141, 1.31227, 1.31414, 1.31636, 1.32011, 1.32168, 1.32113, 1.31964, 1.32016, 1.32002, 1.32247, 1.32425, 1.32649, 1.32584, 1.32111, 1.32636, 1.32514, 1.32518, 1.32591, 1.32869, 1.33311, 1.33697, 1.3397, 1.33935, 1.33878, 1.34019, 1.34253, 1.34177, 1.34842, 1.28248, 1.27926, 1.28085, 1.27595, 1.2777, 1.27963, 1.32335, 1.3124, 1.33738, 1.37773, 1.38091, 1.388, 1.38455, 1.43528, 1.44207, 1.45919, 1.49327, 1.5317, 1.55821, 1.65104, 1.63458, 1.62691, 1.65826, 1.65652, 1.60025, 1.60033, 1.5999, 1.61777, 1.61998, 1.61636, 1.6485, 1.62821, 1.629, 1.65446, 1.65221, 1.67689, 1.69519, 1.69532, 1.70303, 1.70264, 1.69715, 1.69627, 1.68819, 1.68425, 1.68542, 1.80296, 1.76824, 1.80189, 1.80214, 1.72404, 1.71028, 1.73114, 1.70958, 1.74128, 1.74891, 1.73913, 1.76109, 1.76242, 1.77217, 1.75272, 1.75805, 1.97712, 1.9028, 1.91297, 1.73466, 1.76181, 1.9522, 1.9329, 1.91044, 1.70673, 1.67896, 1.67288, 1.67107, 1.65775, 1.65134, 1.6522, 0.00427092, 1.82006, 1.84894, 1.62437, 1.62514, 1.60974, 1.60928, 1.5823, 1.58775, 1.57548, 1.56349, 1.56084, 1.52807, 1.52359, 1.53169, 1.54801, 1.5579, 1.66913, 1.53187, 1.53124, 1.53454, 1.46873, 1.41219, 1.40691, 1.40451, 1.38424, 1.35772, 1.36765, 1.37855, 1.36258, 1.37501, 1.36535, 1.37282, 1.37088, 1.37002, 1.6069, 1.36093, 1.35815, 1.35812, 1.35018, 1.34862, 1.3495, 1.3432, 1.3474, 1.33991, 1.33788, 1.33492, 1.33166, 1.33134, 1.33218, 1.32943, 1.32821, 1.32645, 1.33037, 1.32912, 1.32455, 1.32094, 1.31938, 1.31727, 1.3177, 1.31539, 1.30746, 1.30832, 1.30743, 1.30379, 1.30272, 1.30373, 1.3003, 1.2998, 1.29463, 1.29341, 1.2907, 1.28768, 1.28563, 1.28329, 1.28099, 1.2788, 1.27627, 1.27454, 1.27368, 1.27504, 1.27378, 1.27232, 1.27339, 1.26966, 1.26385, 1.26294, 1.26409, 1.26704, 1.26473, 1.26055, 1.25801, 1.25659, 1.25703, 1.25712, 1.33711, 1.32987, 1.2628, 1.26213, 1.26226, 1.25786, 1.25636, 1.25389, 1.25297, 1.24668, 1.24575, 1.24534, 1.24669, 1.32035, 1.2598
1.27443, 1.26839, 1.26763, 1.26686, 1.26617, 1.26537, 1.2619, 1.26274, 1.26838, 1.27072, 1.2721, 1.2753, 1.27598, 1.27776, 1.2786, 1.27972, 1.28453, 1.37784, 1.29529, 1.29636, 1.30005, 1.42324, 1.42328, 1.42296, 1.30918, 1.31065, 1.43483, 1.41444, 1.42386, 1.42262, 1.32958, 1.33043, 1.33279, 1.33036, 1.32945, 1.32518, 1.32481, 1.32585, 1.32889, 1.32615, 1.32551, 1.3289, 1.32941, 1.32988, 1.32969, 1.334, 1.53262, 1.33949, 1.34051, 1.34052, 1.3402, 1.34062, 1.3397, 1.33835, 1.38167, 1.26937, 1.28608, 1.29504, 1.30202, 1.29993, 1.36442, 1.31513, 1.46411, 1.3597, 1.37856, 1.39151, 1.399, 1.42643, 1.45227, 1.46883, 1.48132, 1.53005, 1.55666, 1.65031, 1.60289, 1.61582, 1.64804, 1.61755, 1.61669, 1.59857, 1.59595, 1.59348, 1.59719, 1.60835, 1.6094, 1.64901, 1.65054, 1.68708, 1.6517, 1.65108, 1.76054, 1.75756, 1.71678, 1.68603, 1.69345, 1.69972, 1.68189, 1.68179, 1.68251, 1.74863, 1.70743, 1.79903, 1.68394, 1.68333, 1.69813, 1.67922, 1.71408, 1.74546, 1.74432, 1.74901, 1.74538, 1.76667, 1.73816, 1.71425, 1.67439, 1.76026, 1.75967, 1.73095, 1.70688, 1.70627, 1.70669, 1.72532, 1.71821, 1.6495, 1.67635, 1.67102, 1.66755, 1.65783, 1.65411, 1.64701, 1.69694, 1.76151, 1.65534, 1.60088, 1.57927, 1.62389, 1.56995, 1.57787, 1.56864, 1.54821, 1.54827, 1.54507, 1.53716, 1.51166, 1.49826, 1.49706, 1.50055, 1.47701, 1.52073, 1.53414, 1.4649, 1.45026, 1.40382, 1.39178, 1.36596, 1.36451, 1.35247, 1.36758, 1.36215, 1.36941, 1.36478, 1.3642, 1.37302, 1.37377, 1.37238, 1.59724, 1.36053, 1.35993, 1.35787, 1.35779, 1.49195, 1.34742, 1.34684, 1.34616, 1.34622, 1.34211, 1.33586, 1.33533, 1.33633, 1.33609, 1.3333, 1.33147, 1.33247, 1.33329, 1.33329, 1.33179, 1.33434, 1.33121, 1.32725, 1.36127, 1.31435, 1.31115, 1.31174, 1.30784, 1.30242, 1.30259, 1.30373, 1.305, 1.29937, 1.29435, 1.29217, 1.29003, 1.28768, 1.28615, 1.28291, 1.28176, 1.28035, 1.27835, 1.27752, 1.27661, 1.27553, 1.27504, 1.27184, 1.26867, 1.26565, 1.26521, 1.26344, 1.26422, 1.4644, 1.52596, 1.26406, 1.293, 1.34454, 1.27738, 1.27419, 1.27434, 1.36394, 1.25902, 1.25782, 1.25648, 1.25386, 1.25381, 1.25316, 1.25326, 1.25219, 1.25074, 1.24909, 1.26004, 1.25817, 1.25813
1.27863, 1.27842, 1.2747, 1.27447, 1.27077, 1.27012, 1.2715, 1.26886, 1.27161, 1.2705, 1.27268, 1.34907, 1.28419, 1.34115, 1.39274, 1.34889, 1.61518, 1.434, 1.42066, 1.31257, 1.31568, 1.31628, 1.32242, 1.32194, 1.32276, 1.32411, 1.32372, 1.32562, 1.32793, 1.3287, 1.32917, 1.32907, 1.32902, 1.32921, 1.32935, 1.33255, 1.33266, 1.33295, 1.33629, 1.33625, 1.33627, 1.33851, 1.6074, 1.60479, 1.33437, 1.33681, 1.5987, 1.59297, 1.35082, 1.35536, 1.61227, 1.67151, 1.66997, 1.59919, 1.50361, 1.32933, 1.37266, 1.31641, 1.31602, 1.29923, 1.36405, 1.36401, 1.36662, 1.35473, 1.38755, 1.39519, 1.41313, 1.43004, 1.45853, 1.55246, 1.48202, 1.52651, 1.54825, 1.59292, 1.62932, 1.61842, 1.61817, 1.61643, 1.6164, 1.61354, 1.59541, 1.59452, 1.59966, 1.60461, 1.61906, 1.68351, 1.64147, 1.64111, 1.68269, 1.71148, 1.74052, 1.68276, 1.68302, 1.66161, 1.66178, 1.67626, 1.68811, 1.68196, 1.68225, 1.74884, 1.76865, 1.783, 1.6887, 1.68947, 1.6655, 1.67982, 1.698, 1.72462, 1.8654, 1.88256, 1.73987, 1.87621, 1.65981, 1.66362, 1.6715, 1.66977, 1.66867, 1.67657, 1.71807, 1.71025, 1.71621, 1.70407, 1.70488, 1.6477, 1.65713, 1.66195, 1.6584, 1.65831, 1.63059, 1.62714, 1.67641, 1.65581, 1.58569, 1.56784, 1.57958, 1.57023, 1.57629, 1.57693, 1.59897, 1.63439, 1.54767, 1.51709, 1.55102, 1.50922, 1.50198, 1.47963, 1.49923, 1.48603, 1.48853, 1.45448, 1.40266, 1.44884, 1.39971, 1.40271, 1.39168, 1.35091, 1.35026, 1.35862, 1.36263, 1.3672, 1.3747, 1.37394, 1.37472, 1.3743, 1.56742, 1.56909, 1.35158, 1.35819, 1.35695, 1.3569, 1.3576, 1.35258, 1.34952, 1.3471, 1.34621, 1.34462, 1.34117, 1.33866, 1.33941, 1.34158, 1.34356, 1.34614, 1.35018, 1.34087, 1.33776, 1.3362, 1.33353, 1.33164, 1.32965, 1.32505, 1.32359, 1.32295, 1.32208, 1.6382, 1.63111, 1.31301, 1.31369, 1.70225, 1.57847, 1.71979, 1.63092, 1.29294, 1.29224, 1.64677, 1.57232, 1.28428, 1.62106, 1.2805, 1.62996, 1.40957, 1.43322, 1.44799, 1.5243, 1.52216, 1.50329, 1.48573, 1.46113, 1.44351, 1.46416, 1.28413, 1.28337, 1.28339, 1.27792, 1.27447, 1.2685, 1.26503, 1.2628, 1.25709, 1.25632, 1.25856, 1.25885, 1.26336, 1.25677, 1.27076, 1.2638, 1.26058, 1.2594, 1.25889, 1.25863, 1.25852
1.27758, 1.27718, 1.27378, 1.27565, 1.27545, 1.27412, 1.27411, 1.27347, 1.2747, 1.28031, 1.3482, 1.28623, 1.34111, 1.30391, 1.30223, 1.30139, 1.3042, 1.30822, 1.31438, 1.31471, 1.31477, 1.31539, 1.32176, 1.3191, 1.32057, 1.32075, 1.32208, 1.32272, 1.32623, 1.32662, 1.3289, 1.32855, 1.32804, 1.32773, 1.33028, 1.33088, 1.3324, 1.33279, 1.334, 1.33584, 1.33735, 1.33762, 1.3387, 1.33755, 1.60428, 1.34558, 1.45918, 1.5838, 1.60284, 1.35632, 1.60657, 1.65016, 1.66246, 1.61254, 1.49222, 1.32892, 1.32904, 1.38468, 1.34399, 1.33876, 1.36576, 1.3752, 1.40848, 1.38138, 1.38175, 1.38775, 1.40089, 1.42665, 1.42891, 1.44743, 1.4885, 1.51314, 1.51452, 1.54592, 1.55591, 1.62503, 1.64767, 1.59148, 1.59482, 1.61294, 1.61734, 1.6061, 1.61746, 1.61029, 1.63457, 1.77575, 1.64187, 1.64406, 1.71552, 1.73673, 1.73703, 1.72715, 1.65831, 1.62345, 1.62324, 1.67178, 1.7133, 1.73889, 1.73946, 1.74715, 1.7137, 1.67937, 1.77608, 1.66521, 1.66432, 1.66254, 1.69015, 1.71389, 1.79435, 1.70357, 1.6899, 1.68041, 1.65995, 1.65866, 1.67295, 1.67179, 1.68203, 1.68245, 1.68239, 1.69643, 1.70556, 1.70882, 1.68053, 1.6585, 1.65049, 1.65087, 1.63441, 1.61756, 1.62019, 1.61533, 1.61446, 1.6373, 1.58687, 1.5402, 1.59092, 1.59322, 1.54753, 1.65083, 1.64096, 1.60411, 1.51881, 1.51762, 1.51606, 1.49033, 1.4773, 1.47118, 1.42956, 1.42934, 1.53081, 1.48471, 1.44595, 1.44552, 1.3953, 1.36852, 1.35407, 1.35223, 1.36, 1.35869, 1.39492, 1.38073, 1.37887, 1.37716, 1.36903, 1.58723, 1.45731, 1.35212, 1.35088, 1.35722, 1.36109, 1.36038, 1.36152, 1.35591, 1.35987, 1.34599, 1.34863, 1.34752, 1.346, 1.34397, 1.34325, 1.34475, 1.34719, 1.34698, 1.34687, 1.34238, 1.34066, 1.33607, 1.33482, 1.33494, 1.32977, 1.32932, 1.32768, 1.32768, 1.61326, 1.53303, 1.3221, 1.32753, 1.32615, 1.3259, 1.31643, 1.30665, 1.3049, 1.30573, 1.54563, 1.31475, 1.31289, 1.31188, 1.43871, 1.58896, 1.46498, 1.3197, 1.31921, 1.44931, 1.45051, 1.30262, 1.30259, 1.30029, 1.29483, 1.29354, 1.2948, 1.28431, 1.28244, 1.27951, 1.27268, 1.26891, 1.26689, 1.26744, 1.26372, 1.25855, 1.25851, 1.2645, 1.26482, 1.265, 1.26779, 1.26744, 1.2632, 1.26009, 1.26029, 1.25869, 1.26094, 1.26206
1.27832, 1.27588, 1.27465, 1.27661, 1.278, 1.2769, 1.27629, 1.27534, 1.28053, 1.28516, 1.28688, 1.29305, 1.30601, 1.30521, 1.30253, 1.30159, 1.30431, 1.30556, 1.31439, 1.31485, 1.3133, 1.31717, 1.31738, 1.31843, 1.31932, 1.32117, 1.32163, 1.32298, 1.32719, 1.32835, 1.33103, 1.58209, 1.32746, 1.33025, 1.33034, 1.33178, 1.3322, 1.33378, 1.33409, 1.33578, 1.33685, 1.33772, 1.33942, 1.34019, 1.34812, 1.45996, 1.4581, 1.61102, 1.64099, 1.60318, 1.59612, 1.57523, 1.4813, 1.48232, 1.52441, 1.52097, 1.51995, 1.50744, 1.38539, 1.3934, 1.36766, 1.35484, 1.3786, 1.36654, 1.39716, 1.39436, 1.40715, 1.40269, 1.42346, 1.44538, 1.48916, 1.53017, 1.53611, 1.52186, 1.54254, 1.68022, 1.66844, 1.62858, 1.5981, 1.6069, 1.63522, 1.61016, 1.61617, 1.63341, 1.74535, 1.74809, 1.63499, 1.70969, 1.66083, 1.65774, 1.70966, 1.65604, 1.64163, 1.62352, 1.62312, 1.6753, 1.6738, 1.69862, 1.74129, 1.7441, 1.71588, 1.67962, 1.67818, 1.66467, 1.66394, 1.66084, 1.66089, 1.73405, 1.76003, 1.70355, 1.66442, 1.65896, 1.65874, 1.65871, 1.66456, 1.66419, 1.6828, 1.6758, 1.6755, 1.69684, 1.69407, 1.70644, 1.68996, 1.678, 1.65064, 1.65124, 1.60386, 1.61046, 1.61092, 1.59282, 1.58506, 1.61713, 1.58315, 1.54901, 1.54814, 1.53708, 1.54529, 1.53948, 1.55476, 1.55673, 1.5153, 1.50309, 1.50594, 1.48612, 1.48112, 1.47547, 1.42684, 1.42089, 1.53196, 1.53352, 1.45341, 1.44724, 1.44654, 1.35148, 1.35167, 1.36348, 1.36742, 1.3671, 1.36701, 1.37758, 1.37486, 1.37498, 1.37723, 1.60285, 1.60345, 1.53764, 1.53875, 1.54607, 1.36414, 1.36501, 1.36392, 1.36169, 1.36007, 1.35688, 1.35397, 1.34981, 1.34766, 1.34433, 1.34628, 1.34971, 1.34831, 1.35303, 1.35042, 1.35096, 1.34985, 1.34271, 1.34165, 1.33908, 1.33643, 1.33682, 1.33266, 1.33247, 1.33505, 1.33472, 1.33123, 1.32999, 1.32797, 1.3333, 1.47085, 1.46834, 1.46821, 1.46423, 1.32007, 1.31551, 1.30937, 1.309, 1.32472, 1.32224, 1.32279, 1.32206, 1.32209, 1.31986, 1.31249, 1.304, 1.3036, 1.29944, 1.29186, 1.28809, 1.28469, 1.2801, 1.27737, 1.27659, 1.27318, 1.26767, 1.267, 1.26605, 1.2649, 1.26389, 1.26266, 1.26393, 1.26495, 1.26503, 1.26616, 1.26373, 1.26136, 1.26088, 1.26118, 1.26049, 1.26256, 1.26348
1.27897, 1.27745, 1.27761, 1.27767, 1.28061, 1.28161, 1.28126, 1.28087, 1.28408, 1.28534, 1.58859, 1.44097, 1.31227, 1.31189, 1.3017, 1.30291, 1.30775, 1.30898, 1.31262, 1.31651, 1.31547, 1.31963, 1.31949, 1.32273, 1.32187, 1.32594, 1.32582, 1.57524, 1.57304, 1.57925, 1.5849, 1.34698, 1.44753, 1.4356, 1.43274, 1.43416, 1.44302, 1.445, 1.44174, 1.42465, 1.4413, 1.34455, 1.34264, 1.34309, 1.34988, 1.49356, 1.37188, 1.56571, 1.55928, 1.39848, 1.39903, 1.58305, 1.52598, 1.672, 1.60375, 1.6277, 1.65241, 1.61581, 1.41551, 1.41613, 1.40245, 1.39727, 1.40031, 1.3684, 1.43373, 1.41896, 1.40608, 1.42718, 1.42592, 1.44693, 1.43604, 1.45089, 1.51692, 1.49854, 1.52392, 1.57113, 1.60344, 1.68612, 1.68128, 1.58901, 1.58594, 1.59857, 1.5968, 1.62316, 1.70998, 1.65283, 1.71418, 1.65864, 1.65995, 1.65929, 1.6357, 1.66115, 1.63379, 1.63399, 1.63725, 1.68289, 1.7585, 1.66411, 1.68605, 1.69401, 1.69162, 1.67829, 1.67823, 1.66851, 1.65924, 1.66075, 1.6715, 1.68094, 1.78618, 1.6682, 1.63957, 1.63787, 1.63703, 1.66748, 1.66695, 1.6918, 1.6886, 1.67482, 1.67521, 1.68285, 1.67568, 1.69114, 1.68996, 1.6897, 1.68909, 1.64125, 1.58932, 1.58963, 1.57157, 1.57137, 1.57278, 1.58532, 1.58276, 1.58341, 1.49064, 1.52675, 1.51458, 1.51332, 1.51146, 1.55365, 1.50937, 1.48806, 1.49907, 1.49957, 1.45051, 1.44484, 1.42652, 1.42741, 1.53143, 1.48604, 1.42727, 1.40523, 1.42113, 1.35387, 1.38428, 1.36037, 1.36957, 1.36738, 1.37813, 1.3781, 1.3748, 1.37456, 1.3739, 1.37058, 1.36973, 1.36658, 1.3654, 1.36643, 1.36525, 1.36449, 1.36294, 1.36302, 1.35904, 1.35798, 1.35519, 1.34951, 1.34655, 1.34725, 1.34998, 1.35165, 1.3526, 1.35162, 1.35301, 1.35208, 1.34769, 1.34355, 1.34218, 1.47925, 1.55342, 1.49505, 1.45133, 1.44846, 1.44722, 1.4396, 1.45849, 1.33466, 1.33367, 1.33315, 1.33181, 1.43315, 1.32362, 1.32282, 1.32543, 1.32085, 1.31142, 1.30938, 1.3246, 1.32306, 1.321, 1.32372, 1.31756, 1.38171, 1.30189, 1.30191, 1.29425, 1.29294, 1.28826, 1.28645, 1.28417, 1.27855, 1.27426, 1.27654, 1.2745, 1.26998, 1.26643, 1.26532, 1.26466, 1.2627, 1.26111, 1.26717, 1.26386, 1.26718, 1.26486, 1.26366, 1.26095, 1.25874, 1.26062, 1.26305, 1.26706, 1.26591
1.42616, 1.39631, 1.39535, 1.28487, 1.2875, 1.2887, 1.29495, 1.33582, 1.34369, 1.34795, 1.34769, 1.31245, 1.31076, 1.31164, 1.41291, 1.33058, 1.31631, 1.31541, 1.31776, 1.31973, 1.32251, 1.32285, 1.32261, 1.32316, 1.32822, 1.34088, 1.34036, 1.56206, 1.55156, 1.35251, 1.54132, 1.37125, 1.36856, 1.39903, 1.37685, 1.60073, 1.4158, 1.39679, 1.61739, 1.4022, 1.39342, 1.45718, 1.41695, 1.41105, 1.45442, 1.4093, 1.56582, 1.38602, 1.38601, 1.39765, 1.39523, 1.3965, 1.39375, 1.39248, 1.39394, 1.39358, 1.39344, 1.58706, 1.39577, 1.39818, 1.35019, 1.35, 1.36685, 1.36639, 1.39173, 1.43982, 1.43976, 1.45709, 1.40617, 1.41318, 1.40498, 1.43522, 1.44738, 1.48351, 1.51468, 1.54522, 1.60745, 1.58322, 1.68232, 1.56436, 1.63349, 1.62758, 1.62876, 1.72732, 1.64478, 1.66123, 1.64846, 1.62064, 1.64369, 1.65477, 1.62778, 1.69939, 1.63222, 1.63228, 1.65417, 1.6761, 1.69636, 1.69564, 1.68281, 1.68451, 1.68214, 1.68181, 1.73045, 1.73057, 1.68941, 1.68297, 1.66477, 1.66403, 1.6763, 1.66075, 1.65155, 1.65099, 1.635, 1.6683, 1.65934, 1.66585, 1.66563, 1.66259, 1.6785, 1.67262, 1.66162, 1.65259, 1.67411, 1.67283, 1.67568, 1.68165, 1.68582, 1.57918, 1.57037, 1.56422, 1.56267, 1.55829, 1.58929, 1.49947, 1.48989, 1.49189, 1.51219, 1.51247, 1.51144, 1.51827, 1.4863, 1.48637, 1.48739, 1.4777, 1.47842, 1.44727, 1.41865, 1.41525, 1.53246, 1.39375, 1.38934, 1.38818, 1.36177, 1.36144, 1.43656, 1.37384, 1.36914, 1.37793, 1.37567, 1.37611, 1.37429, 1.37338, 1.37251, 1.37109, 1.36835, 1.36623, 1.36528, 1.36453, 1.36444, 1.36408, 1.36272, 1.36437, 1.36437, 1.36112, 1.35838, 1.35454, 1.35095, 1.35171, 1.35352, 1.35955, 1.35134, 1.35376, 1.35306, 1.35135, 1.34992, 1.34548, 1.35661, 1.35741, 1.46514, 1.35007, 1.34756, 1.35218, 1.35094, 1.35192, 1.34913, 1.34419, 1.34277, 1.33265, 1.33182, 1.33242, 1.32185, 1.32215, 1.32478, 1.32231, 1.30867, 1.30854, 1.31195, 1.39568, 1.31049, 1.30948, 1.37523, 1.29952, 1.29555, 1.29446, 1.29209, 1.28671, 1.28755, 1.28528, 1.28312, 1.28105, 1.27781, 1.27719, 1.27606, 1.27115, 1.2682, 1.26682, 1.26659, 1.26596, 1.26696, 1.26704, 1.26814, 1.26728, 1.26587, 1.26587, 1.26414, 1.2634, 1.26341, 1.2634, 1.26616, 1.26527
1.3368, 1.31242, 1.30839, 1.36494, 1.29694, 1.38115, 1.30199, 1.30285, 1.30265, 1.30381, 1.30411, 1.31304, 1.31471, 1.31623, 1.31819, 1.31582, 1.31417, 1.31529, 1.31638, 1.31262, 1.31199, 1.31575, 1.31714, 1.32127, 1.3247, 1.56099, 1.33963, 1.35151, 1.35633, 1.55329, 1.37719, 1.37669, 1.37751, 1.37816, 1.39574, 1.38321, 1.39193, 1.38647, 1.38797, 1.38838, 1.3801, 1.38034, 1.38197, 1.38268, 1.38145, 1.38291, 1.38341, 1.38476, 1.38555, 1.54729, 1.39475, 1.54748, 1.40874, 1.39019, 1.38964, 1.39068, 1.39184, 1.38467, 1.38518, 1.4011, 1.35773, 1.35794, 1.38835, 1.36094, 1.36724, 1.36467, 1.36777, 1.48179, 1.39812, 1.44313, 1.39924, 1.41638, 1.4261, 1.46372, 1.49236, 1.49552, 1.54473, 1.55297, 1.55485, 1.63984, 1.63096, 1.66549, 1.58149, 1.72745, 1.69597, 1.69087, 1.6042, 1.58541, 1.58558, 1.6233, 1.63372, 1.64152, 1.6303, 1.63014, 1.6522, 1.6474, 1.65023, 1.69436, 1.73421, 1.68367, 1.68509, 1.68553, 1.6861, 1.73402, 1.68922, 1.69736, 1.66303, 1.66314, 1.67933, 1.66131, 1.6415, 1.63316, 1.63305, 1.65912, 1.6587, 1.66586, 1.66492, 1.66205, 1.67232, 1.66083, 1.63797, 1.62693, 1.63933, 1.64168, 1.68358, 1.75507, 1.62378, 1.62509, 1.57075, 1.56674, 1.56261, 1.58257, 1.54105, 1.49835, 1.49739, 1.53058, 1.51096, 1.50944, 1.5047, 1.53069, 1.48158, 1.48242, 1.48572, 1.47106, 1.45801, 1.41949, 1.46006, 1.40456, 1.37568, 1.56753, 1.38813, 1.40519, 1.40485, 1.36122, 1.41501, 1.36532, 1.36533, 1.37892, 1.37951, 1.37451, 1.37449, 1.3724, 1.37244, 1.37089, 1.36997, 1.36759, 1.3657, 1.36576, 1.36821, 1.36762, 1.36275, 1.36371, 1.36918, 1.3705, 1.36556, 1.36123, 1.35868, 1.36028, 1.35773, 1.36459, 1.36363, 1.35939, 1.35484, 1.35388, 1.35212, 1.3532, 1.36088, 1.36061, 1.36025, 1.35315, 1.34722, 1.35058, 1.34949, 1.35021, 1.34787, 1.34426, 1.34329, 1.32862, 1.32696, 1.32932, 1.43368, 1.31393, 1.30846, 1.30877, 1.30358, 1.29786, 1.29525, 1.32694, 1.44317, 1.76431, 1.30065, 1.29799, 1.29358, 1.29323, 1.29082, 1.28964, 1.28635, 1.28597, 1.28941, 1.2825, 1.27893, 1.27881, 1.28056, 1.2766, 1.27295, 1.2702, 1.26339, 1.26199, 1.26523, 1.26499, 1.27796, 1.96316, 1.2822, 1.26946, 1.26404, 1.26389, 1.2649, 1.264, 1.27309, 1.27076
1.31218, 1.31218, 1.31264, 1.31302, 1.3125, 1.3116, 1.30233, 1.30467, 1.30365, 1.30215, 1.30754, 1.30804, 1.30927, 1.30915, 1.31809, 1.31103, 1.31002, 1.30919, 1.31027, 1.31121, 1.31187, 1.31273, 1.31078, 1.32308, 1.32424, 1.32598, 1.34533, 1.35045, 1.54745, 1.36353, 1.37599, 1.37648, 1.37715, 1.37797, 1.53775, 1.53768, 1.50923, 1.54372, 1.39598, 1.39571, 1.38198, 1.3808, 1.38276, 1.38222, 1.38098, 1.5672, 1.37717, 1.37592, 1.37521, 1.52825, 1.55514, 1.40855, 1.40768, 1.38907, 1.38975, 1.39091, 1.38944, 1.38687, 1.38487, 1.36133, 1.36103, 1.32723, 1.33143, 1.34359, 1.37062, 1.36493, 1.42753, 1.36603, 1.36773, 1.38262, 1.38595, 1.40971, 1.41245, 1.4167, 1.45552, 1.45981, 1.50539, 1.49951, 1.51548, 1.55579, 1.57137, 1.55387, 1.56367, 1.62366, 1.70434, 1.60322, 1.61642, 1.56877, 1.59394, 1.58554, 1.59465, 1.64756, 1.65378, 1.64278, 1.80767, 1.66251, 1.66562, 1.6683, 1.686, 1.68377, 1.68637, 1.68631, 1.68288, 1.68331, 1.68391, 1.70074, 1.6826, 1.67061, 1.68029, 1.66368, 1.63376, 1.63336, 1.63306, 1.65987, 1.65822, 1.67114, 1.6707, 1.67844, 1.67135, 1.64793, 1.61663, 1.61707, 1.61262, 1.61626, 1.69156, 1.62651, 1.61776, 1.61493, 1.57025, 1.56814, 1.56683, 1.54824, 1.5402, 1.53106, 1.50172, 1.58229, 1.51283, 1.512, 1.5068, 1.49621, 1.49364, 1.46793, 1.46722, 1.47119, 1.45456, 1.41182, 1.39859, 1.38312, 1.37549, 1.41251, 1.44838, 1.36021, 1.40013, 1.36704, 1.37536, 1.37396, 1.61751, 1.38524, 1.38422, 1.38338, 1.67549, 1.62708, 1.37481, 1.3729, 1.37146, 1.37066, 1.37052, 1.36899, 1.36978, 1.36823, 1.36708, 1.3662, 1.36828, 1.36915, 1.36899, 1.36497, 1.36046, 1.35965, 1.36013, 1.36805, 1.36821, 1.37105, 1.36731, 1.3645, 1.36293, 1.36077, 1.36044, 1.35962, 1.35305, 1.3585, 1.34679, 1.34824, 1.34331, 1.34327, 1.34233, 1.34096, 1.33118, 1.3317, 1.32932, 1.36407, 1.31303, 1.30327, 1.30231, 1.29954, 1.29559, 1.29585, 1.29296, 1.29057, 1.29116, 1.29165, 1.29473, 1.29472, 1.29632, 1.29618, 1.29426, 1.29246, 1.29249, 1.28839, 1.28748, 1.28488, 1.28278, 1.28097, 1.28136, 1.27722, 1.27544, 1.44043, 1.44081, 1.25356, 1.2532, 1.26058, 1.27576, 1.27763, 1.81775, 1.27281, 1.26631, 1.26561, 1.26558, 1.27386, 1.27774, 1.27094
1.30992, 1.31262, 1.31125, 1.31156, 1.31218, 1.31129, 1.30413, 1.30363, 1.29998, 1.3026, 1.30643, 1.30677, 1.30908, 1.30917, 1.31159, 1.31163, 1.31156, 1.31003, 1.31162, 1.31238, 1.31374, 1.31194, 1.31711, 1.32288, 1.32384, 1.53999, 1.47686, 1.34936, 1.53309, 1.53224, 1.51318, 1.48617, 1.36045, 1.3606, 1.36203, 1.54073, 1.36685, 1.36714, 1.36747, 1.36814, 1.3682, 1.36834, 1.36933, 1.37177, 1.37222, 1.37454, 1.37676, 1.37419, 1.37546, 1.38006, 1.51656, 1.47319, 1.46738, 1.55137, 1.54927, 1.38911, 1.56816, 1.38813, 1.46741, 1.49965, 1.36069, 1.32711, 1.32563, 1.32742, 1.35016, 1.35385, 1.35787, 1.36449, 1.35674, 1.37083, 1.36916, 1.39576, 1.38786, 1.4153, 1.52694, 1.47439, 1.49041, 1.51199, 1.50386, 1.53296, 1.52787, 1.53623, 1.54777, 1.57263, 1.68385, 1.64066, 1.60689, 1.60996, 1.55129, 1.55841, 1.64433, 1.61342, 1.62127, 1.64329, 1.70828, 1.71415, 1.62348, 1.64445, 1.72388, 1.7135, 1.73426, 1.68206, 1.68325, 1.68289, 1.6837, 1.7653, 1.68824, 1.66831, 1.66666, 1.66513, 1.63189, 1.63025, 1.62636, 1.65595, 1.73367, 1.67096, 1.66941, 1.71021, 1.64738, 1.66116, 1.62791, 1.62452, 1.63018, 1.6309, 1.62861, 1.6273, 1.62641, 1.59726, 1.59863, 1.60602, 1.56467, 1.58837, 1.58069, 1.49342, 1.49748, 1.49656, 1.51679, 1.51064, 1.50712, 1.524, 1.50037, 1.46742, 1.46688, 1.50973, 1.51673, 1.45305, 1.36243, 1.36045, 1.39721, 1.36053, 1.35506, 1.35861, 1.36552, 1.39162, 1.37509, 1.37412, 1.60387, 1.49933, 1.53095, 1.57037, 1.56909, 1.62722, 1.56613, 1.5577, 1.3711, 1.37064, 1.37048, 1.62448, 1.37709, 1.37041, 1.37228, 1.37582, 1.37134, 1.37087, 1.3829, 1.38002, 1.362, 1.36064, 1.3602, 1.36641, 1.43577, 1.3709, 1.37056, 1.36497, 1.36238, 1.35813, 1.35764, 1.36386, 1.34834, 1.34452, 1.34339, 1.34354, 1.3418, 1.33978, 1.33972, 1.32958, 1.32674, 1.32279, 1.32233, 1.3138, 1.30915, 1.29957, 1.30054, 1.2982, 1.29487, 1.29405, 1.2915, 1.28993, 1.2911, 1.28983, 1.29033, 1.29492, 1.29822, 1.29795, 1.29219, 1.29305, 1.29195, 1.28883, 1.2875, 1.28441, 1.28247, 1.28063, 1.28176, 1.27796, 1.27577, 1.45782, 1.45682, 1.25334, 1.25322, 1.26421, 1.26988, 1.29123, 1.29097, 1.28125, 1.27158, 1.26936, 1.26935, 1.27586, 1.2758, 1.28952
1.30386, 1.30482, 1.30625, 1.30497, 1.30482, 1.30236, 1.30102, 1.29886, 1.29709, 1.29804, 1.29954, 1.30195, 1.30484, 1.31001, 1.31, 1.31206, 1.31253, 1.3181, 1.38554, 1.31897, 1.31214, 1.31519, 1.31524, 1.31662, 1.3265, 1.34104, 1.34363, 1.34713, 1.34765, 1.35289, 1.35674, 1.35762, 1.35944, 1.36022, 1.36124, 1.36346, 1.36579, 1.36612, 1.36707, 1.36696, 1.36747, 1.37489, 1.3745, 1.37547, 1.37459, 1.37436, 1.49329, 1.35827, 1.35933, 1.48151, 1.52659, 1.52796, 1.54138, 1.54911, 1.37992, 1.38147, 1.38081, 1.37848, 1.49961, 1.55803, 1.34675, 1.34566, 1.32972, 1.32774, 1.33261, 1.3359, 1.33603, 1.33649, 1.33632, 1.35793, 1.3592, 1.37483, 1.39637, 1.39468, 1.42441, 1.44089, 1.44012, 1.46104, 1.47925, 1.48803, 1.509, 1.54103, 1.54128, 1.57151, 1.68342, 1.56872, 1.55859, 1.51581, 1.54116, 1.53589, 1.55853, 1.56642, 1.59351, 1.61689, 1.71109, 1.62287, 1.61677, 1.62351, 1.65202, 1.72418, 1.68977, 1.65287, 1.72522, 1.72786, 1.72522, 1.71442, 1.8879, 1.65747, 1.66664, 1.65116, 1.65852, 1.63339, 1.62536, 1.63333, 1.62553, 1.69828, 1.63711, 1.6355, 1.64543, 1.64767, 1.61566, 1.64465, 1.60657, 1.61775, 1.69549, 1.68177, 1.61307, 1.59669, 1.57999, 1.56551, 1.57109, 1.57154, 1.51774, 1.49282, 1.492, 1.49702, 1.49669, 1.50991, 1.58166, 1.54425, 1.48859, 1.47226, 1.46998, 1.46215, 1.41774, 1.36066, 1.35952, 1.35871, 1.35384, 1.35874, 1.36941, 1.40624, 1.36273, 1.38002, 1.49031, 1.52454, 1.60755, 1.39832, 1.39775, 1.39685, 1.39391, 1.39216, 1.38984, 1.39112, 1.38951, 1.38653, 1.38414, 1.38167, 1.37606, 1.3813, 1.3776, 1.37903, 1.3809, 1.37946, 1.38055, 1.38146, 1.36996, 1.44767, 1.35467, 1.94722, 1.94489, 1.42695, 1.48191, 1.35864, 1.41193, 1.39703, 1.4049, 1.41583, 1.34316, 1.34569, 1.34503, 1.34341, 1.34037, 1.33519, 1.33399, 1.3292, 1.32792, 1.32723, 1.31667, 1.31544, 1.3035, 1.30119, 1.30178, 1.3007, 1.2985, 1.29414, 1.29252, 1.2926, 1.2912, 1.28921, 1.29593, 1.2955, 1.29792, 1.29751, 1.29421, 1.29241, 1.29132, 1.28828, 1.28499, 1.28449, 1.28147, 1.28131, 1.28462, 1.28364, 1.26959, 1.26701, 1.26304, 1.26137, 1.25641, 1.25695, 1.26732, 1.27469, 1.29124, 1.29099, 1.27731, 1.37568, 1.46998, 1.3669, 1.43872, 1.28822
1.30264, 1.3082, 1.3055, 1.30514, 1.30513, 1.30233, 1.30265, 1.29626, 1.29578, 1.2964, 1.29861, 1.2998, 1.3032, 1.30559, 1.30894, 1.31387, 1.315, 1.31902, 1.31954, 1.36746, 1.3332, 1.31453, 1.39336, 1.34041, 1.54043, 1.56936, 1.3536, 1.35077, 1.35169, 1.35712, 1.36259, 1.54681, 1.36008, 1.37224, 1.37237, 1.37198, 1.37409, 1.3741, 1.36711, 1.36745, 1.38523, 1.37389, 1.37346, 1.37354, 1.43159, 1.498, 1.5905, 1.44321, 1.35615, 1.35837, 1.36107, 1.36489, 1.52153, 1.37234, 1.37542, 1.37739, 1.37832, 1.37364, 1.37201, 1.61323, 1.59024, 1.46888, 1.33008, 1.32983, 1.3271, 1.3261, 1.4186, 1.32709, 1.33676, 1.33715, 1.33975, 1.39801, 1.37845, 1.37876, 1.40129, 1.40865, 1.42904, 1.44741, 1.46375, 1.45796, 1.46729, 1.49365, 1.55184, 1.60389, 1.53019, 1.59332, 1.57692, 1.57377, 1.5752, 1.52282, 1.5323, 1.53254, 1.60965, 1.62341, 1.63126, 1.60943, 1.60897, 1.60839, 1.61127, 1.69234, 1.62763, 1.64443, 1.72382, 1.77165, 1.72721, 0.00452754, 1.69543, 1.64515, 1.64708, 1.63443, 1.64981, 1.62515, 1.62034, 1.60164, 1.59975, 1.69029, 1.68913, 1.63516, 1.64136, 1.62351, 1.6313, 1.59224, 1.60312, 1.60276, 1.70969, 1.85947, 1.65549, 1.61086, 1.58297, 1.56141, 1.55038, 1.57538, 1.54911, 1.54875, 1.49084, 1.54973, 1.51208, 1.5442, 1.57168, 1.56918, 1.51208, 1.50146, 1.42306, 1.41341, 1.42768, 1.35728, 1.3552, 1.35469, 1.35855, 1.35811, 1.33597, 1.34781, 1.38581, 1.38274, 1.50977, 1.50959, 1.6033, 1.39919, 1.39847, 1.39661, 1.39508, 1.39216, 1.39425, 1.39443, 1.38778, 1.38775, 1.38229, 1.3809, 1.37866, 1.37929, 1.37734, 1.37667, 1.37597, 1.37574, 1.37081, 1.37068, 1.36081, 1.36065, 1.42218, 1.34429, 1.34262, 1.42978, 1.3457, 1.33994, 1.33879, 1.33597, 1.33643, 1.33716, 1.33974, 1.3401, 1.34498, 1.3422, 1.33808, 1.33442, 1.32737, 1.32588, 1.32688, 1.32587, 1.32928, 1.32912, 1.45691, 1.3016, 1.29888, 1.2957, 1.29568, 1.30162, 1.3009, 1.30034, 1.29406, 1.29526, 1.29519, 1.29357, 1.29534, 1.29645, 1.292, 1.29067, 1.29038, 1.28617, 1.28479, 1.2825, 1.28146, 1.28113, 1.28156, 1.28348, 1.26568, 1.26452, 1.26364, 1.25646, 1.25458, 1.25434, 1.25765, 1.37855, 1.28065, 1.28109, 1.42041, 1.25365, 1.2527, 1.25773, 1.25766, 1.28442
1.30958, 1.30951, 1.30928, 1.30581, 1.30539, 1.30701, 1.30715, 1.30375, 1.30207, 1.29999, 1.29902, 1.30057, 1.30193, 1.30602, 1.30698, 1.31336, 1.31695, 1.31974, 1.54697, 1.54046, 1.53837, 1.54269, 1.37477, 1.53669, 1.36603, 1.5463, 1.35467, 1.35646, 1.35705, 1.36114, 1.36706, 1.36644, 1.36955, 1.37054, 1.37185, 1.54121, 1.54184, 1.40684, 1.49392, 1.35052, 1.34821, 1.4945, 1.34012, 1.34022, 1.34397, 1.33849, 1.33987, 1.34368, 1.35412, 1.35485, 1.35587, 1.36181, 1.36748, 1.36815, 1.3737, 1.37514, 1.37621, 1.37059, 1.37246, 1.61478, 1.43733, 1.71525, 1.35647, 1.35349, 1.32669, 1.32381, 1.32322, 1.31852, 1.34264, 1.32893, 1.36363, 1.37507, 1.36926, 1.38607, 1.38863, 1.39533, 1.39866, 1.43431, 1.45769, 1.43041, 1.4655, 1.47473, 1.51798, 1.52715, 1.52059, 1.53604, 1.57808, 1.57697, 1.5784, 1.50966, 1.53127, 1.54975, 1.57161, 1.59368, 1.61973, 1.65111, 1.60859, 1.60821, 1.69619, 1.69403, 1.62681, 1.62464, 1.72359, 1.72483, 1.72557, 1.63875, 1.69978, 1.6506, 1.62361, 1.62617, 1.63395, 1.62321, 1.59632, 1.5905, 1.59498, 1.59372, 1.69211, 1.6025, 1.64364, 1.63482, 1.62006, 1.59666, 1.58919, 1.58112, 1.91131, 1.94721, 1.90824, 1.61718, 1.58206, 1.59588, 1.54303, 1.52579, 1.53371, 1.49944, 1.482, 1.48095, 1.4925, 1.4895, 1.51367, 1.50671, 1.42457, 1.40143, 1.40193, 1.40053, 1.42772, 1.35796, 1.35136, 1.35441, 1.36639, 1.3537, 1.37427, 1.35073, 1.41405, 1.40977, 1.51312, 1.40114, 1.40232, 1.40172, 1.39912, 1.39805, 1.39744, 1.39613, 1.39544, 1.39544, 1.38687, 1.47831, 1.37457, 1.37761, 1.37788, 1.37804, 1.37511, 1.37421, 1.37422, 1.37422, 1.37044, 1.3651, 1.44666, 1.44787, 1.34394, 1.34038, 1.33263, 1.3322, 1.33136, 1.33743, 1.33077, 1.33151, 1.33367, 1.33354, 1.34054, 1.33994, 1.34456, 1.34011, 1.33936, 1.33343, 1.32736, 1.32603, 1.3255, 1.32924, 1.3271, 1.32602, 1.31427, 1.31353, 1.30293, 1.29973, 1.30069, 1.29977, 1.29884, 1.29805, 1.2954, 1.29486, 1.29297, 1.29417, 1.29588, 1.29592, 1.29436, 1.28986, 1.28859, 1.28524, 1.28446, 1.28094, 1.28211, 1.28106, 1.28115, 1.26445, 1.26253, 1.26181, 1.25989, 1.25448, 1.25146, 1.25386, 1.25428, 1.25679, 1.27201, 1.27119, 1.26505, 1.25809, 1.25094, 1.25671, 1.25849, 1.2841
1.31196, 1.30849, 1.30477, 1.30171, 1.30489, 1.3081, 1.31174, 1.30823, 1.30684, 1.3059, 1.30488, 1.30525, 1.30534, 1.30722, 1.30775, 1.31116, 1.5501, 1.32455, 1.54146, 1.53488, 1.34581, 1.34668, 1.35064, 1.35005, 1.35005, 1.36051, 1.36063, 1.35657, 1.35618, 1.35547, 1.35708, 1.35712, 1.55038, 1.579, 1.5033, 1.54167, 1.58608, 1.48349, 1.496, 1.35488, 1.35744, 1.33616, 1.3393, 1.33846, 1.3404, 1.33969, 1.33938, 1.34262, 1.34828, 1.35544, 1.35662, 1.3607, 1.36784, 1.36751, 1.37078, 1.37567, 1.37747, 1.52565, 1.37722, 1.37731, 1.37071, 1.36984, 1.61, 1.5333, 1.47275, 1.33576, 1.33353, 1.31591, 1.31387, 1.32783, 1.3589, 1.36153, 1.35987, 1.37397, 1.44116, 1.39795, 1.39849, 1.41623, 1.40853, 1.42781, 1.48975, 1.46513, 1.55649, 1.50457, 1.50424, 1.52238, 1.51662, 1.58273, 1.58175, 1.51785, 1.53308, 1.55807, 1.57665, 1.5791, 1.60574, 1.61649, 1.60663, 1.62413, 1.61634, 1.62738, 1.62678, 1.64371, 1.64451, 1.63027, 1.67215, 0.00445707, 1.61306, 1.61693, 1.65161, 1.64507, 1.63408, 1.61896, 1.59569, 1.58871, 1.59278, 1.59226, 1.61002, 1.64877, 1.57293, 1.58115, 1.60211, 1.59754, 1.57013, 1.55417, 1.57594, 1.58194, 1.57872, 1.58609, 1.5867, 1.57838, 1.56494, 1.56474, 1.52321, 1.49583, 1.48434, 1.49268, 1.49176, 1.49294, 1.50953, 1.51324, 1.39573, 1.44793, 1.38112, 1.39228, 1.39208, 1.35944, 1.35355, 1.36004, 1.35665, 1.35282, 1.36408, 1.54392, 1.5827, 1.39811, 1.40373, 1.40805, 1.40666, 1.40595, 1.52217, 1.51782, 1.39918, 1.58918, 1.39526, 1.39482, 1.39476, 1.37487, 1.37293, 1.37747, 1.37674, 1.38225, 1.3746, 1.37437, 1.37542, 1.37294, 1.37104, 1.36451, 1.35991, 1.44468, 1.34083, 1.33079, 1.33152, 1.33071, 1.32972, 1.3332, 1.32665, 1.33374, 1.33404, 1.33388, 1.33669, 1.34257, 1.34455, 1.34368, 1.33893, 1.32776, 1.55425, 1.31417, 1.32997, 1.32979, 1.32966, 1.3198, 1.31583, 1.3116, 1.30724, 1.30178, 1.30034, 1.29878, 1.29849, 1.2981, 1.29698, 1.29662, 1.29481, 1.29459, 1.2976, 1.29765, 1.2978, 1.29308, 1.29215, 1.28934, 1.2874, 1.28579, 1.28471, 1.28267, 1.38933, 1.26686, 1.26372, 1.26345, 1.26434, 1.25345, 1.24692, 1.25243, 1.25636, 1.2696, 1.27087, 1.27025, 1.27093, 1.26338, 1.25554, 1.25731, 1.26545, 1.28454
1.30497, 1.30386, 1.30298, 1.30328, 1.30458, 1.31176, 1.30868, 1.30556, 1.30286, 1.30159, 1.30309, 1.30333, 1.30686, 1.309, 1.30967, 1.31346, 1.56904, 1.5099, 1.33438, 1.33679, 1.34625, 1.34751, 1.34858, 1.34842, 1.34902, 1.48054, 1.35302, 1.35026, 1.34802, 1.34624, 1.34644, 1.42494, 1.59322, 1.59509, 1.44748, 1.33939, 1.33654, 1.33589, 1.50029, 1.43107, 1.33637, 1.33631, 1.33352, 1.33655, 1.33814, 1.33932, 1.33942, 1.33988, 1.34997, 1.34963, 1.34864, 1.52934, 1.36596, 1.36719, 1.37126, 1.37383, 1.37618, 1.37856, 1.38064, 1.51867, 1.37665, 1.59176, 1.48131, 1.56077, 1.37233, 1.38547, 1.33052, 1.31526, 1.31469, 1.32398, 1.36408, 1.36542, 1.37481, 1.37564, 1.38972, 1.45711, 1.413, 1.3964, 1.40168, 1.39725, 1.4173, 1.5624, 1.54116, 1.55435, 1.50524, 1.50415, 1.5197, 1.48104, 1.47847, 1.50319, 1.53521, 1.52635, 1.57245, 1.56933, 1.59737, 1.61909, 1.61419, 1.63497, 1.64865, 1.63261, 1.64032, 1.6202, 1.60297, 1.66424, 1.66415, 1.59578, 1.61614, 1.59547, 1.5986, 1.60613, 1.60559, 1.61317, 1.65142, 1.59028, 1.58967, 1.60929, 1.58776, 1.58215, 1.57497, 1.57535, 1.5764, 1.5749, 1.5546, 1.57125, 1.56038, 1.58118, 1.57832, 1.53427, 1.52943, 1.56676, 1.56268, 1.56295, 1.52007, 1.48977, 1.46112, 1.48245, 1.48189, 1.45847, 1.44721, 1.43941, 1.42303, 1.40877, 1.42718, 1.38078, 1.40264, 1.43635, 1.36032, 1.37293, 1.43742, 1.42677, 1.41322, 1.4124, 1.59903, 1.40442, 1.4094, 1.40853, 1.40981, 1.40837, 1.4077, 1.40302, 1.3965, 1.40683, 1.38844, 1.39382, 1.39248, 1.39417, 1.37182, 1.36634, 1.38206, 1.38233, 1.37496, 1.37417, 1.37601, 1.37592, 1.3741, 1.36548, 1.35875, 1.37227, 1.44454, 1.32898, 1.32939, 1.32909, 1.32988, 1.33078, 1.32679, 1.3349, 1.33521, 1.33484, 1.33821, 1.33841, 1.34364, 1.34337, 1.34453, 1.32236, 1.31635, 1.31086, 1.31128, 1.32901, 1.33002, 1.3186, 1.31517, 1.31491, 1.30683, 1.30208, 1.29973, 1.29869, 1.29984, 1.29986, 1.29758, 1.29775, 1.29632, 1.29504, 1.29545, 1.30173, 1.30112, 1.2987, 1.29799, 1.34506, 1.28955, 1.28708, 1.28745, 1.29216, 1.27127, 1.26769, 1.2667, 1.26461, 1.26719, 1.25715, 1.24311, 1.26856, 1.26555, 1.2673, 1.26901, 1.26333, 1.26371, 1.2597, 1.25863, 1.26119, 1.27759, 1.28051
1.30181, 1.30264, 1.30265, 1.30328, 1.31026, 1.31119, 1.31272, 1.56381, 1.30406, 1.30134, 1.30131, 1.30246, 1.30299, 1.30641, 1.30888, 1.31037, 1.56556, 1.33101, 1.33126, 1.33069, 1.55776, 1.3442, 1.34154, 1.34239, 1.4517, 1.41933, 1.34839, 1.3454, 1.34543, 1.41217, 1.45391, 1.50171, 1.56249, 1.50572, 1.33547, 1.43238, 1.33265, 1.32276, 1.32287, 1.32339, 1.33356, 1.33325, 1.33319, 1.33533, 1.33701, 1.33687, 1.33959, 1.34079, 1.35073, 1.3498, 1.35013, 1.61228, 1.3635, 1.36343, 1.36746, 1.53609, 1.37715, 1.37894, 1.55859, 1.50706, 1.67468, 1.65122, 1.6599, 1.66359, 1.37123, 1.37178, 1.37034, 1.3917, 1.38858, 1.31803, 1.31209, 1.4191, 1.35873, 1.38447, 1.39633, 1.38976, 1.39941, 1.38797, 1.3854, 1.40943, 1.41426, 1.544, 1.53961, 1.53084, 1.5381, 1.52704, 1.51961, 1.48077, 1.48037, 1.51728, 1.52652, 1.5851, 1.58991, 1.55636, 1.58883, 1.59533, 1.66803, 1.62129, 1.61426, 1.63425, 1.66295, 1.62171, 1.60331, 1.59803, 1.65519, 1.59291, 1.59218, 1.59369, 1.59522, 1.59379, 1.5906, 1.58929, 1.58738, 1.7889, 1.59238, 1.58254, 1.57218, 1.57043, 1.57463, 1.57685, 1.57824, 1.56421, 1.56063, 1.55765, 1.53408, 1.58191, 1.57513, 1.53164, 1.53148, 1.58556, 1.54151, 1.55281, 1.53526, 1.53683, 1.48225, 1.48016, 1.48759, 1.45125, 1.4089, 1.38838, 1.37864, 1.39252, 1.42265, 1.38931, 1.41145, 1.41903, 1.3948, 1.43058, 1.42613, 1.42236, 1.41347, 1.4123, 1.41129, 1.41308, 1.41112, 1.41064, 1.41171, 1.41017, 1.40798, 1.40544, 1.40811, 1.40739, 1.39113, 1.39004, 1.39349, 1.39691, 1.36744, 1.36591, 1.36489, 1.36382, 1.37228, 1.37124, 1.37623, 1.37578, 1.37379, 1.36603, 1.3632, 1.34779, 1.44066, 1.33036, 1.33211, 1.32934, 1.32977, 1.33211, 1.3302, 1.33402, 1.33349, 1.33606, 1.33798, 1.34249, 1.34257, 1.3443, 1.34484, 1.49926, 1.31858, 1.31407, 1.31152, 1.31296, 1.31948, 1.31812, 1.31578, 1.31204, 1.31024, 1.30323, 1.30012, 1.29961, 1.2996, 1.2998, 1.29717, 1.29667, 1.29725, 1.29613, 1.30572, 1.30494, 1.31741, 1.31528, 1.30623, 1.30238, 1.30098, 1.29446, 1.29105, 1.29125, 1.2859, 1.37318, 1.28396, 1.28295, 1.28288, 1.26626, 1.26694, 1.2694, 1.26752, 1.26527, 1.26357, 1.263, 1.26331, 1.26038, 1.2599, 1.26907, 1.2723, 1.28007
