1.14509113735851,1.15096379967106,1.21024438183938,1.17558454356176,1.17026876583834,1.17278172006849,1.17600762434621,1.18688999142821,1.18664928672856,1.21117728476162,1.22003949696086,1.22207488884639,1.21984379777428,1.24094996435271,1.2393478908977,1.29135382067523,1.28269724526619,1.31495534469359,1.41064113455218,1.39643607708105,1.39745670854806,1.40892993289043,1.41572375607999,1.41298649331172,1.40937355349012,1.41542186244703,1.45031746509282,1.44723367106966,1.44575089205401,1.45069664984186,1.45618900213573,1.46399652255771,1.46663290062609,1.47213863988058,1.48473548369573,1.495673416797,1.51751952714158,1.50697934783161,1.49828181583455,1.50055766778501,1.50403274011311,1.51593151271591,1.53647444460139,1.53531626101311,1.53452943428213,1.54230527450926,1.54799717794144,1.58059509896151,1.58867104631651,1.59593186725351,1.6071746142731,1.60810126122203,1.69133627250627,1.69193815208449,1.68989417312027,1.69391405919209,1.6946719119405,1.63143423085905,1.63040301049597,1.6143750085051,1.61202180475907,1.62887275824645,1.66435158154187,1.65598952553373,1.66698674807319,1.62757815268508,1.62513830961001,1.62510022517721,1.58988276709524,1.59253397846934,1.58971101910207,1.60744844051093,1.60685527339049,1.60755585223136,1.60842536918918,1.6093866154988,1.6094377840793,1.6370026378424,1.64276966309936,1.64128266134404,1.63552074384291,1.63330324866846,1.62304251585135,1.62304209537681,1.62877113405735,1.62765950567702,1.62583945726513,1.61272269684841,1.59244564073044,1.5950123198616,1.57690953664268,1.57887177812208,1.58095529763833,1.58146274090248,1.57201854703215,1.57113506777575,1.57216935954678,1.57268013451412,1.55018352550009,1.55033223609862,1.54868234320531,1.5336726231921,1.52275124860806,1.52266098740199,1.5218386108035,1.5205278401239,1.51819160418136,1.51745951512916,1.51539237173041,1.5146552931923,1.51674134196959,1.48848231599036,1.47931418240024,1.47027121527294,1.45764256780304,1.46257009666698,1.54029525815765,1.44462757205871,1.42865246468656,1.4166136902206,1.38649353505609,1.37771344108761,1.36673329395377,1.3654264189631,1.36433417224226,1.34407298725989,1.30854971583877,1.30567297022646,1.28812068958877,1.28100161646951,1.28432478113071,1.23102301692811,1.19892597657746,1.19536762137131,1.14895577524092,1.14097879204415,1.12885047119117,1.1233670987557,1.08995433001438,1.08988636215566,1.08465994013658,1.07597201950555,1.07528859736768,1.06609398835625,1.06716964148507,1.06552693289199,1.0649349020835,1.06656759108452,1.06803352522743,1.06537948216316,1.06387905082935,1.06290670027285,1.06332799277501,1.0652042153372,1.24863842737284,1.05533338577394,1.05268582226538,1.05043471249686,1.04841497038972,1.04742429768996,1.04672524197195,1.04688556478322,1.04664382962628,1.03923610024129,1.03312687494814,1.03163369225278,1.02727951600299,1.02684262377245,1.02720013509687,1.02713769660747,1.02150870525631,1.02142252033418,1.02094313583679,1.02034063241876,1.021350283539,1.02184793306343
1.15979363549862,1.1559553303512,1.15871771792006,1.17783094758054,1.17808301045299,1.17942473011653,1.19273292891134,1.18934614398562,1.18506758275225,1.20950469263505,1.20510248388275,1.22268587887535,1.22205468843643,1.25400213823834,1.27041391076415,1.29578986759712,1.30474319372452,1.31593243916237,1.39862983758015,1.39637476394322,1.39594778602731,1.41319018637187,1.4264966955419,1.4235759057206,1.42403963187564,1.42593264645458,1.42785054866926,1.44772513152706,1.46404542804978,1.46413978307,1.4792956661442,1.48201711296604,1.50460349378246,1.51035214085489,1.73530858347337,1.66443011001305,1.71267641984748,1.63125632184653,1.61420080815972,1.5507470550698,1.50133396340229,1.52497161823777,1.54215784254016,1.54532363839251,1.55900550062627,1.58899418745425,1.6162377059565,1.6105724069785,1.60627655671755,1.60599761489763,1.60443908499495,1.60511575079697,1.60284180256595,1.64801409816826,1.69589461649998,1.69512612336102,1.69483204926116,1.63000356854803,1.60270244003189,1.60364832455191,1.60291895114052,1.60391631465081,1.6047943704716,1.60871133761038,1.60972527608229,1.62672279321893,1.61863946805265,1.62175221296211,1.62019161932136,1.59848597103623,1.58998587780186,1.6067665625743,1.60624649171324,1.60711271948461,1.60791601330382,1.62748133875365,1.65849175152982,1.65140960512396,1.64459836023155,1.64232543820493,1.63588565341868,1.63337890066706,1.62371349746091,1.63105413599521,1.63854995198369,1.64631260956888,1.68541758279703,1.62914765183748,1.62652048627469,1.60725057149757,1.60354438125623,1.59128370479415,1.58177186636765,1.58155128127046,1.58091939025533,1.58177329641324,1.57976480863683,1.57517317761424,1.55310324016662,1.55129685507581,1.54648128380701,1.53983305169398,1.52294079651285,1.52284680720598,1.52146799957199,1.51903687862053,1.51950974920781,1.51553940149056,1.51328846503654,1.51188188236157,1.50887158900814,1.49936117893297,1.48004910791177,1.47545597482963,1.46373723493755,1.4643207456639,1.45051774006133,1.44613647392427,1.41808552311232,1.41790998041206,1.39667257775132,1.40753968151981,1.52092395216004,1.4160643232125,1.39636516696095,1.37356426832995,1.36353732933033,1.32092388607504,1.27729248829083,1.28005172428655,1.28228215558362,1.23234226409424,1.21674868037477,1.2053102604716,1.16931109501761,1.16807258283546,1.16687259205853,1.14363796024233,1.13448960818451,1.12901848872728,1.11897974629751,1.11038152442657,1.10000926819758,1.06705482284512,1.06644114423851,1.06764761217076,1.07140330949878,1.06836363652547,1.06841519529329,1.06653735612745,1.06344419726986,1.06476603448455,1.06324442484559,1.0648344615962,1.06358812992272,1.05863725891835,1.05357805972832,1.0506655676071,1.04862895623129,1.04719880311373,1.04750809633681,1.04669649080772,1.04517051155589,1.0436674503551,1.03891210510583,1.04061561874511,1.03964893584674,1.03325879743914,1.03309557303203,1.02709186621882,1.02385180133566,1.02328390893233,1.01990888120416,1.02208781754315,1.01963195059208,1.0226847478948
1.17147083208805,1.17201664925936,1.17066821548629,1.18033332365847,1.18296799209527,1.17994658123357,1.18021631387102,1.19746175235192,1.2039266335433,1.20943736693147,1.21364857676507,1.22374841776823,1.22426683558017,1.25699758512351,1.26182679995741,1.29845622691844,1.3216330654369,1.32023975884537,1.32531653050754,1.39570672861938,1.44618428003349,1.42976653568826,1.4391641301035,1.42146376430257,1.42139165916217,1.42744631489142,1.43891531236798,1.44932291568885,1.4634800943629,1.46386869352433,1.46366896192996,1.48877890674814,1.50498931997783,1.51989412866187,1.55156135729975,1.63965855384602,1.69491205336632,1.63744390299353,1.62760592711949,1.63050361111638,1.63318719807194,1.63317634229008,1.632979804144,1.63165981775097,1.64182406516524,1.64167450851052,1.63980753145577,1.63737843823908,1.6612575006639,1.60446117233868,1.60356437780523,1.603959417108,1.60316217785165,1.62454303729895,1.62229213770008,1.62379815131768,1.60742811768148,1.61299009428452,1.60427699806956,1.60421317830983,1.60344550105192,1.60359544084885,1.6054394127332,1.60688960665626,1.6070302584722,1.630618788167,1.63692286185211,1.62739136545257,1.61026473069633,1.60389989546637,1.60007830762768,1.61021104832323,1.63303280239607,1.63463614009319,1.6344428712699,1.63655915821028,1.6608857244113,1.65444026255518,1.65497064251801,1.65399252664413,1.73074410000883,1.64758775790947,1.62470879055122,1.63402721901308,1.6438484189246,1.66003331115005,1.68664008733729,1.64441431156701,1.61101577016717,1.61262643294674,1.6137091576015,1.5952375458856,1.58368522340444,1.5821421424872,1.58190249749861,1.59257132962724,1.61742731042983,1.5861572300226,1.55022511433011,1.54930395026101,1.54679987480193,1.5665531783392,1.5988013780529,1.53698528723666,1.51266893334814,1.51374145091064,1.51222015946373,1.51296246562747,1.51222628129927,1.51029542415539,1.50034472530349,1.49917065958341,1.52758760535693,1.48043351086025,1.46455797219997,1.46572519382464,1.44970336591213,1.44814944739314,1.44362184089068,1.41952836142531,1.40230845138634,1.4105125583735,1.47460089371946,1.43935657962454,1.40205014986789,1.38475173526107,1.3543166498901,1.33563036824208,1.31318217678691,1.2992163554791,1.24458810860778,1.24047166474713,1.23955798067558,1.21511881270606,1.19680925941502,1.18179094583107,1.16303815931918,1.15138759335237,1.14410071179359,1.13184890667435,1.11674950843336,1.11158720234711,1.11262967562097,1.06809772267859,1.06462488893325,1.07050312774756,1.07216501461748,1.06848201281759,1.06726292445003,1.06621826167631,1.06688160104347,1.06525449727853,1.06617029510022,1.06486484059841,1.06356372295294,1.0657618687171,1.06486330946256,1.06083598564546,1.05613909637291,1.05328531113106,1.05031807517781,1.04703726044593,1.04615927941972,1.05222143316931,1.21397853289241,1.04110936134582,1.04108405867716,1.03387982307716,1.03278360365875,1.0302114444725,1.02510708589864,1.02351596040536,1.02539084198321,1.02227636636677,1.0247433658724,1.02263638539427
1.15961707873735,1.17610883813229,1.18107621306105,1.18430233360031,1.19118380801378,1.19288771936312,1.19130782432078,1.20060635419196,1.21280421503531,1.21295407857106,1.21290093106906,1.2372431571508,1.2581570603882,1.25951982153791,1.2636973930993,1.29980137431996,1.31991931638784,1.33373614474887,1.38001685530817,1.39665620965605,1.4542344117861,1.42443848888921,1.42036669409767,1.42019850108779,1.41984653236585,1.42667887378473,1.42785427316673,1.45064955700891,1.46471170394309,1.46367455939755,1.49529108466207,1.49529253609513,1.49517994367791,1.53382030645694,1.54978922417736,1.61394322283485,1.68081804144172,1.65722328666818,1.68396452131647,1.63498520121881,1.63393425885282,1.63353706414065,1.63278063404899,1.6318644581503,1.64218540240741,1.64157044901769,1.64022155004822,1.63828693449671,1.60149857897399,1.60265520388407,1.60223699119127,1.60327156044615,1.60317711020862,1.62558402655766,1.6228019099007,1.62546283212107,1.64074190333548,1.62383097707938,1.62024137035036,1.62014634883354,1.61923972099836,1.61035654902833,1.60553299619998,1.63477316923703,1.92604804779167,1.82466966778162,1.8552298445706,1.79147856795676,1.84502417671304,1.68716651990957,1.60101841933519,1.61727350555863,1.63303283074596,1.6345166886158,1.6357545357212,1.63914955792409,1.65037160269243,1.65323697567993,1.65503396975881,1.65418148498263,1.66578190236605,1.66466617339415,1.65966774862025,1.66265651082225,1.67291481485415,1.67651637120721,1.68999212845244,1.64823084262968,1.61672629623469,1.62754417400346,1.70332096330916,1.68093700032588,1.6945701298968,1.69250701468407,1.74138251765299,1.61687898218026,1.61458086307297,1.59554759389897,1.58883884280019,1.59089471833545,1.59314639299767,1.5891588280178,1.59224454234578,1.55406977834386,1.51252271918966,1.51164336520132,1.51200588888129,1.51106986416187,1.51135293682821,1.50650199374228,1.50183060418379,1.50124972553754,1.5198321018833,1.48589213052058,1.46985356721978,1.4675856674091,1.452978502483,1.45127095417496,1.4252084381652,1.42023969870637,1.41908112450463,1.42325907976937,1.47773516455329,1.47642169987227,1.6156042394322,1.39374588566618,1.38511903330789,1.34751521862116,1.34096082263406,1.30876148101823,1.28217998817827,1.26606220412254,1.22854656130435,1.22655170771934,1.22542112531861,1.19423361984506,1.16500464616006,1.15645151624297,1.14988142298579,1.14515499279622,1.1422366075,1.11243922840392,1.11478896353793,1.06932010544523,1.07178190465988,1.07238224687594,1.09049223092657,1.06853918920398,1.06606633239423,1.06806244220474,1.06708564911359,1.06829485550445,1.0664170684074,1.06770421693644,1.06689406148692,1.06762139961234,1.06764015193586,1.0673993658846,1.06583908411748,1.05980718276696,1.05876447685499,1.05966581613279,1.05818783131137,1.05653321198509,1.0573026016569,1.04234996217416,1.03874709294361,1.03790899784532,1.03872262166746,1.03238326730809,1.02439265047132,1.02491798252965,1.02213120326134,1.02497425680149,1.02136382365008,1.02538109513052
1.1763762172732,1.18054729969,1.19484213771559,1.1931706791488,1.191415106919,1.20614769157082,1.22420319212642,1.22473110399077,1.22605826948401,1.23214479290151,1.23757482169913,1.23938094239997,1.24857933555065,1.26903901149345,1.27620030552815,1.30073913044252,1.33109941178959,1.3387667486655,1.39385302256017,1.39630852204481,1.40588646571025,1.42080167480568,1.47549005089425,1.46823316828784,1.53893827431411,1.44979672577262,1.44908352286628,1.45061534105606,1.45295968428276,1.46180995342986,1.45842659755419,1.50426610594193,1.51016780171307,1.54317641184846,1.55979764579977,1.57515606365575,1.5761891827127,1.62356324787989,1.63462288917337,1.63549244624447,1.70392959086247,1.63339381686599,1.63248129105268,1.63143949863271,1.66804786392159,1.64064228686154,1.63997864270472,1.639433614605,1.60164534406902,1.60204215239436,1.60193186676148,1.60259984616245,1.60239791402705,1.6281951846193,1.62925280393779,1.62812382968285,1.62863725741691,1.6231503605194,1.62123998548387,1.6206089272656,1.61981141775121,1.63553487520476,1.65007028597258,1.65443971894061,1.81403863280148,1.81612052717544,1.81733948178056,1.76820298484873,1.70539063167373,1.70610899621168,1.89362637264934,1.66722894454696,1.63421345741587,1.63486794601499,1.63762112903977,1.64421899159372,1.6511296524218,1.65277586772338,1.65371742777652,1.65378384707037,1.64904991932712,1.66709400997261,1.66796029942744,1.6681372832908,1.66840039234228,1.67976841259762,1.73649685137884,1.65649908240137,1.62889421748725,1.63223576381566,1.63825863937428,1.66589707096158,1.69278264793648,1.69237389940318,1.74139490045033,1.61627351854113,1.61507918210632,1.60486551297433,1.5880471975593,1.58930883968522,1.57323381772929,1.58339473145611,1.57048025107656,1.56877579199884,1.52142389984297,1.5213220712117,1.52015403635909,1.52148125531156,1.51942525681832,1.50234930416572,1.50379234423059,1.50261657440782,1.53125122402543,1.49273122289696,1.47923716963017,1.47020309196964,1.45988326304275,1.45730641311485,1.42445729405074,1.42218976904765,1.41848220745679,1.42320551094402,1.42799919498567,1.47541201046897,1.51476434433547,1.39941338934875,1.3626169538422,1.35731135190531,1.33999475143152,1.3238444829816,1.29691367568978,1.27965801458173,1.2416961663703,1.24605410274816,1.25074079877389,1.20202448507065,1.20225804748321,1.16893212547232,1.15803356295021,1.1479020435854,1.12370207792401,1.11226114703392,1.06907179442356,1.06925965533699,1.07211820863125,1.07425921406635,1.09024811212026,1.07005580699781,1.07034360474046,1.06929216200759,1.07073648209481,1.06918722842975,1.07123366352786,1.06927614992988,1.06989375223581,1.06930935969559,1.07006599948259,1.06751105341424,1.0625012411124,1.06089253442297,1.05948682507068,1.05880005688596,1.05871868771504,1.05419459467608,1.05120940631255,1.04524547214439,1.04009690378985,1.03931420491905,1.03943594777704,1.03450601448481,1.02407644340095,1.02500488865148,1.02695255900178,1.02541954477084,1.02848690099131,1.02601829582713
1.17374140662786,1.18822790944003,1.19250973975736,1.19850019039672,1.20522906719326,1.21558838293342,1.2283015416681,1.23837109705648,1.24930941977639,1.25906403725353,1.26588344282174,1.26439174927574,1.26282756415689,1.27877751575012,1.29625339622408,1.30198806592211,1.30668877784762,1.34418554840318,1.39682440883544,1.3965897659352,1.39637517954554,1.41893090598216,1.47753350836019,1.45979651719328,1.44939000505272,1.44938788795507,1.44908532760912,1.44958412378072,1.44879479618455,1.4779628547671,1.48711310112295,1.5154607055234,1.52573919206251,1.54440028649265,1.59227799375182,1.57579195147525,1.57516736395466,1.61655555105405,1.63537918324817,1.63706876188123,1.63892734040698,1.63338257260598,1.63232945866624,1.63118876550688,1.63997930904584,1.64110621623264,1.63987897178012,1.64176460806835,1.67605087634565,1.61825451056172,1.60134659863027,1.60203162661916,1.60175120687847,1.62935346577917,1.62862775197589,1.62811042304646,1.62822894423737,1.6256022692951,1.61205489478653,1.62734268000396,1.63665996126462,1.6404714504511,1.64881035210347,1.65735363891192,1.65798872996516,1.7623461601247,1.81624183368532,1.74470987430562,1.70551626377845,1.70570065596935,1.70487524313042,1.69362434261238,1.63495605569498,1.6545806449185,1.67652837050964,1.66202455222725,1.66333399033957,1.65987019110994,1.65566712782378,1.66761224279967,1.72644255686572,1.67350611319249,1.66789811218683,1.66743393555134,1.66792910243501,1.68054280661247,1.68147685999066,1.66504233860017,1.65324604905107,1.65339486591602,1.65320002294485,1.65728183261646,1.63946012726309,1.64293088015944,1.61345858210009,1.61514283377285,1.61514761600324,1.61446204342218,1.64653680586991,1.62125948055543,1.64189670951513,1.59709065441785,1.60283539396464,1.57853027472439,1.53550815806389,1.55412202937626,1.57412244050862,1.52879008030764,1.52774902132889,1.49717330512256,1.49203749012566,1.50220530092739,1.50065979493194,1.50297773511447,1.50311672936557,1.4872478271764,1.47564701934454,1.46124471406594,1.42512356617724,1.42399156929686,1.42338777345255,1.42406235451908,1.42761107125215,1.47357655044421,1.47663304194674,1.4077097962391,1.40246298569372,1.37322727660652,1.36681286594276,1.33791753538964,1.31512750107274,1.31002032714339,1.305281837042,1.26161582399796,1.21602084381115,1.20368424829952,1.1954154299948,1.17890010290922,1.17344927104617,1.15030045624015,1.12626126342999,1.11306168459875,1.11285639042504,1.07758900637376,1.07765098463513,1.07693529740684,1.06498236731842,1.07167354476889,1.07305015650171,1.07174549104241,1.06916774749165,1.07109134147382,1.07023725340111,1.07142227545364,1.07034642885674,1.07121641773648,1.07149437435395,1.07122854336619,1.08265672462978,1.06102661337962,1.05818187319677,1.05822495341282,1.0551315221909,1.05345939268917,1.05129442649396,1.04808578814328,1.03971664519928,1.04010859490562,1.03932162204999,1.03811694516454,1.02945707781068,1.02885528366016,1.02607649020304,1.02909551352216,1.02717439827182,1.02964330241795
1.19727430199798,1.19953717661659,1.21345074816868,1.21230314739602,1.2092522930575,1.22311474085224,1.24171285139259,1.24598706880684,1.26618226547882,1.27076135486916,1.27598061338236,1.27300907770864,1.27083325324113,1.28642048356716,1.29642470008808,1.31551422437563,1.32521868952486,1.34735099536386,1.38854442385505,1.38578963752462,1.38311410564705,1.41804120416637,1.45315873260929,1.45185489997024,1.44974580666288,1.44921721920649,1.44926855697447,1.45475946116839,1.4685580275667,1.48346549617007,1.49773131716269,1.52578278811365,1.59165354593302,1.54563693247009,1.5364330905149,1.56597270208169,1.56893777759234,1.61370799611075,1.61719977498864,1.60693375115024,1.60115718518014,1.60164667556719,1.60282780983071,1.62355580443046,1.62407987208893,1.64414748589729,1.67628842331974,1.64619602624078,1.64793893141225,1.62978927591833,1.60203095092189,1.60185479059761,1.60155691320394,1.62832770453278,1.62753331834963,1.62697544197794,1.62694487794939,1.62760303286366,1.62984305401988,1.63556982270484,1.65041013836092,1.65552706524333,1.65926649122948,1.65990575237383,1.65868036448155,1.69946345575044,1.71953793023459,1.71308997385366,1.70531773519967,1.70565557969713,1.81315266129214,1.74771996323279,1.81240050704262,1.69953242238144,1.73256498624899,1.66204805572812,1.66360693894005,1.66321975108015,1.6859112216653,1.68602277160457,1.68583351670097,1.68490777127815,1.68421671699407,1.6811676189613,1.68146528207945,1.68133051922377,1.68166615114787,1.67278255025345,1.6630465345573,1.66513697074732,1.66563559891484,1.66104487315578,1.66525222189504,1.64703229188243,1.64808391693706,1.64050505994045,1.66192357245636,1.61486386001453,1.60294146171558,1.60637569264976,1.57772090146378,1.59203908153109,1.59859339531996,1.59748681309577,1.60080406740765,1.59583710258589,1.5917974523841,1.53035738417158,1.51962700558582,1.49399871870851,1.49128546814834,1.50145720863271,1.50939416753953,1.5082717691129,1.50972195963216,1.49842338438006,1.46581479822631,1.46242864644469,1.43374257336648,1.43360641882695,1.43334609821431,1.45971683202503,1.48343095866862,1.47010401198583,1.42114263263004,1.41784331137145,1.3998984693415,1.38525426419217,1.35088348728761,1.35075289208708,1.35047241622619,1.32560277152349,1.30521231855762,1.28322510352021,1.28356107937931,1.20525948672549,1.20295552705366,1.18217709510184,1.19099038750354,1.1522979884831,1.12724330844655,1.10529979985289,1.09607293911911,1.07777892045136,1.07954110591431,1.07974987736227,1.0830925435457,1.07894348920962,1.07797121188045,1.07220370292509,1.07146642755937,1.07147296920016,1.07366001041701,1.07253357937892,1.07336395246994,1.0722920083305,1.07281316181426,1.07079717469994,1.06975310955379,1.0618422842173,1.06160903330262,1.05814723693141,1.05190177617503,1.05307523172739,1.05149755602465,1.05034002562351,1.04102701929854,1.04050725003108,1.04165074178918,1.04130266486061,1.03190615237414,1.03021785561689,1.03087675388444,1.02957468784161,1.03169006776665,1.0304836574678
1.19618300231459,1.20270524290186,1.20358620232399,1.21453476845101,1.22012591301729,1.2291512259966,1.2513237792037,1.25243172580742,1.27410490844974,1.27595137690478,1.31430778587586,1.31404506342249,1.31421490661955,1.32487701042021,1.33147685257766,1.33265494979613,1.33393281401384,1.35038189018082,1.35734843460226,1.38492902833469,1.38597641613295,1.41742663292836,1.42877637354073,1.45386593290635,1.51084123271877,1.52269667042353,1.60035494757865,1.59846914795451,1.59851352162705,1.54677584510014,1.52307053559709,1.52969558742939,1.59099156713121,1.55467324389794,1.55290592162183,1.56212513325598,1.56104402101635,1.59767945974565,1.60003798605975,1.60010436229663,1.60118490105213,1.60201229752313,1.60197456522675,1.62316271666603,1.62381080675825,1.64633423032315,1.64770964887115,1.64749261750456,1.64627664214422,1.64128999153763,1.6557328189343,1.62329156412603,1.60840973753199,1.62565318947997,1.62358351257478,1.62638539989296,1.62650378743118,1.65347611099384,1.73622912371671,1.67375631441705,1.64802728551625,1.66116231272985,1.67398691195512,1.66799955017717,1.65976515304463,1.68599680064779,1.66056637003881,1.7036830626007,1.71914742958162,1.69943406608939,0.00392453332225484,1.6778005638355,1.67810658494168,1.68112398800934,1.68357310610128,1.66266121306092,1.66348260249859,1.66409155220196,1.68662101714471,1.68674069295444,1.68745128761941,1.68682958077617,1.67615135523216,1.67979855805601,1.68076502352672,1.68103797122982,1.68104699696105,1.6808770467071,1.68780398510188,1.66789182882988,1.65530110306448,1.65710652025903,1.65067335560975,1.64961154488759,1.64778048914674,1.63219608140181,1.6177961470902,1.61767131598687,1.6491832044221,1.61031873978741,1.57927480511365,1.58305152058594,1.57675266958417,1.59608298811185,1.61594288639193,1.59668859102477,1.55200634063477,1.53129325682226,1.48546323172086,1.49236066327107,1.4924257696365,1.50200887975858,1.5004695599356,1.50634677140702,1.5317980973207,1.53300995072897,1.53367225968983,1.53575617284814,1.53596567441543,1.51808351419944,1.51258855619089,1.51392769193572,1.51508824757721,1.46606611202485,1.43846403094386,1.42712738900449,1.42823351551122,1.38738754619234,1.38376166972482,1.38731243493544,1.38701447440396,1.36796406677611,1.36339302690041,1.28199124009004,1.25897151210366,1.20587240854187,1.16988168335483,1.17873529631881,1.15908980297589,1.15330064366611,1.09311570665577,1.10161589633838,1.09365937784267,1.07702071964319,1.06678700068746,1.08048307485866,1.08285090902317,1.07797010969742,1.07517796159227,1.07346623609047,1.07039224212727,1.0726211145368,1.07377039985217,1.07277070157735,1.07299710559746,1.07144288022266,1.07383379368655,1.06878028184669,1.06672554575869,1.06374266760239,1.05329299675816,1.05485090092934,1.05273933269469,1.05603178281814,1.0589185930683,1.05083773798337,1.04807570459666,1.0446873074611,1.04247389813204,1.04211634519114,1.03199668568222,1.03169556489359,1.02995975383902,1.03107284628066,1.03019103133391,1.03210739584484
1.18558581601791,1.20388659959396,1.20503997571316,1.2166217724439,1.24233109904881,1.24156119687231,1.24060917570503,1.25594200212983,1.2747123549555,1.28046231405854,1.32257793359485,1.32306837187311,1.32338239554597,1.32816465521364,1.3323956163066,1.34711846043597,1.38668515179435,1.35358712784469,1.35572994898936,1.38238494246925,1.37927718483812,1.41606546672392,1.41546014433429,1.45675424917177,1.54587843713054,1.53043614200365,1.60755084469009,1.59779040022594,1.59867570921,1.55281911523079,1.53705691651896,1.53808440173221,1.53655800625765,1.55640637857176,1.55804240993292,1.57798877314099,1.59445796126387,1.59542880439316,1.59689523343425,1.60141253136427,1.60194464264176,1.60275793044073,1.6020039161714,1.62280167771309,1.66442155410997,1.64739447135691,1.64801811005636,1.64826118996599,1.64714457905009,1.63777038859411,1.61452596643469,1.62886524466454,1.66163864233027,1.64227676627731,1.62390847138866,1.62918736406773,1.64009271510636,1.66157147355362,1.72971862243759,1.69052251269823,1.68419967586956,1.68099995012995,1.67923589804232,1.68584164740183,1.72377104776798,1.70899314504927,1.72495424746521,1.69481584790915,1.67002581350243,1.67228378045556,1.67608429592363,1.67509964484005,1.67256770168231,1.67460419660396,1.6762401495033,1.66385217540967,1.66254426778839,1.66476774053556,1.67185234784947,1.68697026852361,1.68631360395206,1.68724156408118,1.67691083248377,1.6785455267354,1.67784150860094,1.68022941055733,1.68094368031338,1.68040653892576,1.67842096469145,1.67005048626737,1.65544462492413,1.6558091339783,1.6514558647822,1.6536163159485,1.62018737027066,1.62077955032061,1.61967632086605,1.61935341504933,1.62898075442751,1.61456559099005,1.60944839083686,1.58560365722066,1.58296210583965,1.59507794797384,1.5941851025017,1.59520185166686,1.5442557128527,1.53365452005544,1.54157327036292,1.50951106426546,1.5014655287288,1.5021268793068,1.50073297733151,1.50547203063133,1.53255527290227,1.53258621438289,1.53309385525743,1.536317788044,1.53712840323475,1.52268283087391,1.51233038555612,1.51407983119119,1.51636777096862,1.46188560648463,1.42798981247651,1.4272839431553,1.44302278124739,1.39594417549527,1.39574340460945,1.38986587527417,1.37109776906767,1.37060884215981,1.28724615638215,1.2799082558747,1.26079964407254,1.20617440237656,1.19806620215443,1.18394029339909,1.15576365801963,1.15563477121791,1.14342813001988,1.10587271998316,1.10095006413881,1.07724232681628,1.06570963059771,1.07975018193453,1.0794415137442,1.07674996571474,1.07467821894343,1.07387127134084,1.07502902496265,1.07388544656982,1.074919827346,1.07250068422662,1.07106119086505,1.06891163177265,1.06610048399952,1.06577717608619,1.06436975550376,1.06328010627633,1.06311928024678,1.06268594326032,1.05906716270208,1.05810912218457,1.0572134213733,1.05454259129031,1.05413819513684,1.05373084957296,1.05089305350684,1.04228079349514,1.03650703971938,1.03276758397191,1.03138976318945,1.03094272314192,1.03215665939537,1.04471729391814
1.1885940020713,1.20550129374447,1.20765319706798,1.21733358237946,1.24295969422525,1.24232152447063,1.2458293146801,1.26332522570411,1.27396170133879,1.28775044885852,1.31536128129653,1.32921626330632,1.33368618283456,1.34329192253968,1.35024332674981,1.34980426662082,1.35330388227275,1.35398459535539,1.35505560637809,1.38319184382188,1.38186392104188,1.41362849443253,1.41540211474212,1.45834803150019,1.50779569808214,1.52051129561696,1.57202062810843,1.57704756938921,1.58690843772487,1.58037795841209,1.57287460528612,1.58090737427736,1.58607133896016,1.58506074960779,1.58564601646429,1.58925436036565,1.59283141196875,1.59360373136546,1.59395209479673,1.60357404843799,1.60916006079306,1.61504769879928,1.62056013590148,1.62390274691799,1.62396605015553,1.62477994342823,1.62521417560006,1.62738140238984,1.62919446241854,1.63008754373678,1.63180903300323,1.63133140467719,1.66120925434514,1.66168678859398,1.6627412870667,1.66562333240137,1.66731691996896,1.66947666237016,1.71307832275926,1.69254729346478,1.69306756968658,1.69352555623171,1.69378865361947,1.69457546077382,1.69532351382001,1.69507593989627,1.68985123006656,1.68453817344139,1.67156419196727,1.67171721896575,1.67268833718411,1.67316715913735,1.67269611952427,1.67190500525265,1.66987543802813,1.66557520300439,1.66486012555744,1.66617830459746,1.66846253285116,1.68636606228172,1.68636018438911,1.68491164186418,1.68044869203752,1.67927913820705,1.68005271765002,1.6807444732696,1.68113963974929,1.68064936687555,1.67831489851907,1.67087223701499,1.66797508508707,1.66333490836967,1.66013172939254,1.65975764808363,1.62113859657231,1.62059050490288,1.62026956538633,1.6205712683574,1.61963751342068,1.61714525995245,1.61670965841641,1.58967822250619,1.59049131223734,1.59262173913966,1.59314568994076,1.59395698580097,1.56072781513904,1.52857287613938,1.52914082052735,1.51656084073377,1.51143192861421,1.50973672875213,1.50711366375494,1.50591858976701,1.51740583945107,1.531285484298,1.53265643127561,1.53819115723102,1.53698430247146,1.52744015559673,1.51456269162497,1.50477333269626,1.48793563900581,1.45777956411801,1.42636015338213,1.42707764175739,1.42317767753249,1.39644172571158,1.39539046704094,1.39214889402252,1.37136521434295,1.37225168811953,1.27942974212189,1.27719684203856,1.24205432498229,1.20767413047987,1.19532648043685,1.18792244512418,1.1739204394465,1.15922476069924,1.13699641084249,1.11395027722198,1.09052044678337,1.07903028582304,1.07812104334478,1.07945239458473,1.07948433321114,1.07619047209583,1.07303661965745,1.07311825398906,1.07472150189765,1.07444524393203,1.07441765642127,1.07302548221388,1.07176186245173,1.06863428728171,1.06603490267305,1.06334537525122,1.06068509626779,1.05872968983486,1.06326688282096,1.06319715466891,1.05951536337664,1.05877420143541,1.05730138884491,1.05552088208986,1.05466335699576,1.05344848875667,1.05164644744433,1.05016291974465,1.04845471770673,1.04747709330648,1.04806808113568,1.05003392539628,1.0520194764382,1.05372898120708
1.18974587568735,1.20714682861653,1.20988570587603,1.22089573635938,1.24213043086999,1.24231534273159,1.25087009716267,1.27080735338322,1.27353339521046,1.29207724769748,1.30911531285217,1.3344063116535,1.39873976203863,1.38347136311421,1.38513752135661,1.37305392502255,1.35648192465547,1.3553899102044,1.35665755590849,1.3851445640559,1.38459335729446,1.40896495686889,1.40344329543713,1.4578505159253,1.49312945391365,1.51324869056375,1.56090568124407,1.57030705064461,1.60126352909884,1.58668342063208,1.56247226299635,1.5904343987576,1.61670022772901,1.62370302794289,1.62690734668697,1.65516436725804,1.7522236041716,1.63662918258489,1.5942788345847,1.60679609876183,1.6406380974718,1.62492121713511,1.6287939515199,1.62516977841344,1.6243128717548,1.62547843772992,1.62647067366806,1.63079071737333,1.63234466914547,1.63333501533375,1.63336477616578,1.63278733671949,1.66216697807918,1.66152745171936,1.66025036718583,1.66646196939242,1.67242725738625,1.6709247060992,1.7303910272785,1.69844685668556,1.69074194635402,1.69263884919314,1.694023287037,1.69572092075448,1.69633650420363,1.69383470164029,1.67031855657993,1.67569303672966,1.67094090026215,1.67058966998495,1.66995294724398,1.67183891610885,1.64603502548104,1.64747075095982,1.64574063342279,1.66453142645043,1.66642610963105,1.66605512338345,1.66650477556348,1.6924345975748,1.71380750748367,1.69242953067497,1.69218946430022,1.68422766258832,1.68184916267148,1.68198660204763,1.68240537647097,1.68275376421554,1.67462745471111,1.67314469796351,1.67357132350035,1.66772922018503,1.66306678216483,1.66421569838587,1.62241523436849,1.62027948740106,1.62029535584326,1.62134494975172,1.62007602617979,1.61839176493427,1.62926521297344,1.59230196137761,1.58851881366577,1.59060007529467,1.59135993960675,1.5935676824061,1.58454087110686,1.52582528308656,1.52247885524001,1.52276925659021,1.53104724602344,1.51298881397732,1.50693921906834,1.50584125276009,1.50317859573964,1.52861386657217,1.52292556383935,1.53912001101319,1.53936900228085,1.53048756180662,1.52155279863584,1.49237986898282,1.46937846197322,1.4545224928254,1.42378086857965,1.42726499762019,1.41824057434501,1.3974727267533,1.39377552654021,1.39308646403677,1.37027761755533,1.37205951493721,1.27361707756406,1.27389711465787,1.21682954082674,1.21156950995625,1.19382910122611,1.19241544059421,1.1934154346574,1.16247548485062,1.13207875418477,1.12120251238731,1.08423564908665,1.08243434563959,1.07537980611437,1.08131003255579,1.0833466832472,1.07760226040316,1.10986964729786,1.08874919834647,1.0771972846684,1.09458581040837,1.28672904971536,1.13761457066326,1.07412548590159,1.13766699526975,1.28397631848377,1.22268732013931,1.3233540895098,1.10038378002651,1.07220375351356,1.06359698568669,1.05860836504243,1.05797087278665,1.05694553044286,1.05502276980662,1.05527367330398,1.05298318728311,1.05164607706254,1.06739072149974,1.0874233723305,1.0791748921962,1.15338872799968,1.06507928121642,1.07752087482591,1.05402136871926
1.19444610920658,1.20811877060905,1.23484721607758,1.22787764922817,1.20962404559665,1.24115876795471,1.25055124059962,1.27698689181563,1.29041337877278,1.2950702351403,1.30095348720466,1.34318339207783,1.35935499375923,1.38094202635189,1.3994952672014,1.39031540654001,1.39856487950872,1.37888172284748,1.36389064042002,1.38476963376922,1.38264643443848,1.41014260164015,1.40939534621197,1.45596996607078,1.49405090983343,1.51108029557767,1.55305387291144,1.55322931443873,1.55253992115321,1.59124443139303,1.60915498663336,1.60719976051606,1.70290807607091,1.66391130840526,1.7739517704407,1.66279014832635,1.68545229856769,1.65280101332195,1.68372322334005,1.61980512337539,1.61794656244487,1.62195472638389,1.61974949252253,1.62375415805903,1.62458166024253,1.62463772875836,1.63228698406368,1.63173831835367,1.66282814617142,1.63555014299668,1.63415568283357,1.63237080233467,1.63012506341454,1.66968504214145,1.67380555777013,1.67220757559353,1.67287537427696,1.66986857649662,1.73105238606565,1.70478905842646,1.69477530112707,1.69698512431038,1.69883996537333,1.69700895140367,1.69413137219781,1.69195194853117,1.67954452828043,1.68289528869515,1.68893875870924,1.67719556632129,1.67441640935571,1.67292183692125,1.64651913389001,1.64895279196935,1.65149427912031,1.67407748639258,1.6938205241757,1.66917777246283,1.66554887771613,1.69548736375214,1.69640237304119,1.69353363552154,1.69414096356773,1.68840518750004,1.68336682510313,1.68325282075349,1.68372006420961,1.68424803099078,1.67496292904906,1.6737596950847,1.67529218645863,1.6721343279685,1.66938584764855,1.6667278820178,1.63111410943349,1.62869588306441,1.62687242670394,1.6245167194426,1.62148640848418,1.61943280132008,1.60023224444452,1.59916404828992,1.59924465513306,1.59348038778911,1.58974169670964,1.59331789917625,1.52370826799642,1.52480143755102,1.52273033197252,1.52228193610453,1.51692104765747,1.51501887180092,1.50634746648728,1.50779395872113,1.51224452913985,1.5310615329275,1.57492877684875,1.56249039419709,1.56991210052764,1.56285659651578,1.5677357333521,1.48997705541296,1.48701898607851,1.45282875597682,1.43392003463497,1.43036865508778,1.39950837379285,1.39842066116834,1.39513799366977,1.39187233604251,1.42885933113712,1.36893686885644,1.27086871710976,1.27117026262942,1.27084314479207,1.23285455532465,1.18541405321829,1.18846176999554,1.20837230761667,1.1656876200174,1.13618581177534,1.12258703347493,1.10317861197605,1.09291797819985,1.09126333283147,1.08079176285914,1.07606592767791,1.07508688827847,1.10986439334183,1.09626482236493,1.08404867581387,1.09751922615702,1.27304395340842,1.16872857287252,1.08142962595349,1.16872360435588,1.36429051351117,1.19128376439,1.14327144150861,1.11345269390472,1.11404153474161,1.11458200952136,1.25840857983625,1.07580626407223,1.06295992000564,1.06366990978715,1.06213982557836,1.07178979688476,1.12407619226748,1.07589649655853,1.07306626968985,1.07365900793149,1.05100165300128,1.05938817810134,1.05219036545022,1.05335976680071
1.19933389422431,1.20921263519851,1.22274082170676,1.23276189631024,1.24387191483504,1.24117735059339,1.23969331144911,1.28229348013682,1.2818872846501,1.31428802188562,1.32889027164659,1.35176949220217,1.38230155779704,1.37942380313673,1.37518735773741,1.37747033945962,1.36754532985515,1.38570671707526,1.39780213449051,1.39437352098346,1.39113466156388,1.41286276034657,1.42911691007665,1.4544585226714,1.45518467500757,1.5044059117971,1.5083893307177,1.54018699108953,1.60975984229964,1.59666623075731,1.60649206876063,1.6066450772738,1.61409718801607,1.6486364818158,1.68493713567416,1.65392984977775,1.61813770743002,1.62006723959827,1.60751450773451,1.61820114679464,1.62234867939576,1.62310306069566,1.62117997026835,1.62376381515482,1.62356972342177,1.62409543464619,1.62350469426639,1.62307462269367,1.62153517026521,1.6254411787973,1.67423526825126,1.67696463781825,1.68637909282363,1.67251996194199,1.65627793916227,1.66908801677288,1.66700886779102,1.6676401929988,1.6802208386655,1.71230413556365,1.71627237343228,1.71988556833139,1.72291045558702,1.70504109357549,1.70519917239111,1.70384413062825,1.70111735183323,1.71109123418473,1.72468763081699,1.70880903410507,1.69769174124161,1.69638247025164,1.69460479420611,1.69186785161665,1.68944052782066,1.67817546396526,1.66384606512985,1.67324371608239,1.68022154009302,1.70211547307077,1.70770537478019,1.70847661965458,1.7072124152144,1.70694026833054,1.71896893088196,1.68512274238021,1.68458837000838,1.68588933783309,1.68456887228351,1.68093692119452,1.6769821734008,1.67382878159753,1.67044963703192,1.66689070510625,1.638828376906,1.63271602840773,1.62899465920463,1.62814274995556,1.62947235968843,1.61933410853696,1.60050412304911,1.60250786018394,1.60471073599261,1.6019663474066,1.63060322068693,1.59647217196048,1.55934442833074,1.54721027313496,1.52316783084656,1.52219013388193,1.51692647101071,1.53530946726801,1.55663263570023,1.55500471540833,1.5892847801029,1.53114563027148,1.52109338025732,1.55013766060987,1.5748122972288,1.55949699260596,1.55884804298066,1.47952316474236,1.45179807749206,1.45222297831547,1.45042988920773,1.43982538855004,1.40804204439287,1.40089241424649,1.38663430241976,1.38813902695251,1.35868293427305,1.36366933066444,1.2679111555924,1.26932472894148,1.25535349773921,1.23847933875227,1.19125257631775,1.18822702112431,1.18125615791531,1.16873977605199,1.12586267696617,1.12624504914298,1.1281699571687,1.10966836008103,1.10593791779194,1.08175806613458,1.07840907159409,1.07408855367878,1.10780556227482,1.09829130564219,1.09457285116015,1.10327181233764,1.2927224427979,1.20000414627273,1.32592664866604,1.20003490104214,1.32506459653257,1.15955640016105,1.11233862527567,1.11272589198698,1.11295601395061,1.11435045233294,1.10113088226174,1.08786128420801,1.0832053696515,1.08145276653301,1.17694111081631,1.08013149194183,1.07751681993849,1.07729131956052,1.07325736948781,1.07526278036728,1.0651304028893,1.06494538439511,1.06534895369245,1.06792733064598
1.20556306250338,1.21058259092992,1.21227338901349,1.23758038348796,1.24443040124584,1.25781095104738,1.26937455968294,1.28649553224315,1.29241953202334,1.32352007711155,1.36104224486128,1.36069789260805,1.36056095706628,1.37067477534064,1.36071412395833,1.37903761797626,1.44432477906668,1.41700202043203,1.44307039376712,1.40517054520487,1.4018700989727,1.41356038540703,1.43019299285559,1.46809439916534,1.46926356120371,1.49755584393087,1.51043883807922,1.51594902426147,1.52470184433101,1.5650671585194,1.60659800662347,1.60679816765521,1.60716297484798,1.62204484564506,1.62112813567525,1.62019524816815,1.61997654519469,1.62005590844869,1.61922517679301,1.61695668765273,1.61417324575278,1.62568528237937,1.63028824525497,1.62630162904432,1.62388154327784,1.62359376793897,1.62352063611723,1.62308346169501,1.60941703173932,1.62103460611326,1.69386480288655,1.6782294424917,1.68354801458916,1.67591329451861,1.66597607892279,1.66793461456568,1.66668079918694,1.66718143088656,1.66675084584039,1.71815335063701,1.95420689025274,1.72145909006268,1.70632850078406,1.70579890828107,1.70562403598276,1.70492985327748,0.00398065562271314,1.72155604830698,1.74188181709737,1.7297288972286,1.73040133391563,1.72943368430136,1.72944355103871,1.70478126533796,1.68732381083841,1.68188108403019,1.66442013867895,1.68999877196117,1.70940179504497,1.70783575117301,1.7077375056483,1.70789569812448,1.70697389318211,1.70598366690766,1.7040474366482,1.68751525120868,1.69016338093027,1.68943326877579,1.69026878193611,1.68929969203594,1.71647175697094,1.67828884084122,1.67073317608186,1.66524428856392,1.65952335677308,1.6374821587766,1.62948234325148,1.62946142754741,1.62991149357319,1.61854226150838,1.61651745779161,1.61851531183704,1.63141375971405,1.59984438959772,1.59981348539513,1.59768847967343,1.56162364382764,1.5534931540807,1.54751026696462,1.54980454814485,1.55152950845617,1.55045595965995,1.54782812215,1.55180294138892,1.53255631334238,1.53112107533355,1.53056659577826,1.54201223106479,1.58184157112922,1.53061457441852,1.48589353566551,1.4703914595206,1.4556824533809,1.45408369290301,1.47263662456428,1.45411602035331,1.455955558385,1.45551844381743,1.45513072493411,1.39944513185345,1.36755195048491,1.36290768603841,1.31825108409622,1.28878956634872,1.25490152957328,1.2468560084364,1.20979475126061,1.19982400290077,1.17861534401334,1.17092727581787,1.16372192002696,1.13878646346991,1.13655443180185,1.11273098725693,1.11453572362018,1.08376859622029,1.07101949493803,1.07076591023637,1.11928330522882,1.11645058166705,1.11396232861605,1.11623095184084,1.11539567049204,1.11354264072731,1.11213440234452,1.11118166253886,1.11056307221409,1.11018741428615,1.11116833820539,1.11087565832824,1.11249140403546,1.11374726468061,1.11282525044887,1.09111254082871,1.08288935130774,1.081833172506,1.08128140005631,1.08185376129967,1.08356946276944,1.08212766450232,1.08054169159325,1.07799566599833,1.07059503364573,1.07143800960773,1.0714314467684,1.06991828653627
1.21159399104544,1.2164260684085,1.27624934171855,1.27508885884959,1.28451770693603,1.27895466750088,1.26945975373571,1.2970210582426,1.32532380341257,1.32622990609912,1.35999712495396,1.36022011708545,1.35985316097224,1.37306358396523,1.4378022730125,1.38055637280035,1.38362189103792,1.40321128536796,1.40590970819227,1.40803870818731,1.40973473955647,1.41622382915589,1.42060831365156,1.47152972028369,1.47670791728035,1.48081651715117,1.48157000455344,1.50175173798795,1.50179267482908,1.54738328556923,1.55673119569782,1.59200959758554,1.60520979670112,1.62275996638577,1.62157766406811,1.62102221256326,1.62018282611915,1.62036501381171,1.61913993513704,1.61591881274298,1.61473646032623,1.62726568789983,1.64782262726141,1.63323750974127,1.63272669558391,1.6232085412453,1.62334688878059,1.62189870763953,1.60974356360658,1.61183027076796,1.61097653526495,1.67094151593742,1.70350017800841,1.69077994122697,1.69162537524406,1.68663325953278,1.68066619972419,1.68120121265286,1.68000129856293,1.72245503798132,1.73327631074085,1.73347325367659,1.73532344425942,1.7274754213163,1.72447100854807,1.72437801270279,1.72357053632139,1.7251623139367,1.7333541589686,1.73206504570832,1.73185046429427,1.73512540159913,1.74217489876492,1.71581902169608,1.71592500836585,1.70968422517181,1.70411361933985,1.70537235096805,1.70775883991315,1.70747441817156,1.70733382435541,1.7070915991119,1.70637449440634,1.69617769031455,1.67070052186712,1.66770593577469,1.66868358319233,1.67926870665332,1.68991880703095,1.68888521133948,1.68760238259856,1.68248770545947,1.68025020039504,1.67167952586632,1.6512234108631,1.64146816003646,1.62140430952844,1.62137765699398,1.61756855596065,1.61751620649254,1.61632895660865,1.61716773983143,1.6017781831514,1.59939835915166,1.59403344289892,1.59622297272364,1.60398897486793,1.56897982246088,1.56417356576249,1.55160459288269,1.55182907189389,1.55183632531513,1.57902318323711,1.55299078250488,1.55082823430479,1.54005016656089,1.54878830534365,1.53733235741714,1.53325562146486,1.52274321361844,1.44379647597272,1.44578204605473,1.44335920398304,1.44182151201941,1.43826292790702,1.45254211638739,1.45577272705385,1.45512206742767,1.45323555713029,1.40411846072995,1.36916062597639,1.36200903533775,1.34639479259144,1.30520639879168,1.25164770147443,1.25309966100301,1.25483778992737,1.22034698516979,1.20638317267188,1.17403766472508,1.16192333469545,1.13933254332398,1.1417852915776,1.1121880276041,1.09764474414527,1.08623004938769,1.07132681500724,1.07000838601173,1.06763955754281,1.1170474406165,1.13231448622607,1.11691433651469,1.11401498000901,1.113741589899,1.1115572468972,1.11144162419217,1.11000340716509,1.1103014505834,1.10823428371413,1.10825008355744,1.10445980790452,1.10413549080646,1.10272923289361,1.09813502122988,1.0935862981501,1.09456987783543,1.09376881904513,1.08166851506974,1.08435266573663,1.08217199300971,1.07954572540476,1.07910077611229,1.07058500317322,1.07059528847625,1.07145113677891,1.07154568753546
1.20725026283112,1.22375618768089,1.2888004409535,1.27568314350369,1.2631699386989,1.28208523900195,1.28670266221243,1.31096298577928,1.32445229428348,1.3261563574631,1.3799617377441,1.3809010803754,1.40516656440605,1.37988660734147,1.37698290710392,1.37951992044803,1.38388910995388,1.40090598634241,1.40447411828367,1.41063912569047,1.41129906480314,1.44110593695301,1.46423755676728,1.47304530600318,1.48731724675203,1.48266185932811,1.48198278460775,1.50117299826387,1.50142114922469,1.52831639298021,1.53297545533246,1.58439226554239,1.62122829079215,1.62305429272455,1.62270523589747,1.62188597106639,1.62140785184203,1.62084886639931,1.62041757715676,1.61168660456868,1.6092528804032,1.62905446683488,1.63236314138748,1.63369834760177,1.63296362031312,1.62395063441462,1.61563490613055,1.61821543520524,1.61564772856143,1.61372556462663,1.61314506284482,1.66926466658661,1.70427272888409,1.69182302542578,1.6931280646611,1.69122589681637,1.69218957269027,1.69315704004232,1.73339403807731,1.72425379375607,1.7326651357408,1.73295477902819,1.7326202234409,1.72861756086142,1.72619558283564,1.72401857387369,1.72567914396545,1.72729919253685,1.73393240103081,1.73333888697962,1.74676969208573,1.73726348277155,1.72295084381401,1.71671201918734,1.71720839598574,1.71198317411784,1.7058556166327,1.70624398148248,1.70946725126628,1.70824982420268,1.7085483221766,1.70686970627416,1.70637718218487,1.68682166042781,1.68180010082649,1.66590308465425,1.66868216089011,1.67331369691419,1.68820685790283,1.68833618930889,1.68633262459678,1.68520836519777,1.6851649632048,1.67757899509845,1.6855732040647,1.64493595797963,1.6214136460747,1.62185512679161,1.61824540476952,1.61702298816524,1.61684087660865,1.61471864346968,1.59531653992663,1.59599873030617,1.59510526087436,1.59505591126314,1.58326702784059,1.57074579393906,1.55304104003268,1.5517064891105,1.55261966754435,1.55244960801242,1.55279118889568,1.54062695242749,1.51673169869602,1.53136853960665,1.54770796119447,1.53395514190868,1.52729653803258,1.52026583393005,1.45229079353493,1.44957158514258,1.44272930550792,1.4414324602547,1.44045023876214,1.45219176142566,1.45624019625815,1.45583625352974,1.45617584771351,1.40964686301418,1.36879392496288,1.36217473402219,1.35377004797798,1.3222005031912,1.27616363954823,1.26223580590138,1.25162824732458,1.23776582629579,1.20748126776124,1.1787024112142,1.18361122267829,1.13734047055771,1.1330963492676,1.11263348157406,1.0897044339675,1.08927940868381,1.0908645691489,1.09294549393878,1.11107332144624,1.11693970593301,1.12054144954008,1.11802898196034,1.12060199720589,1.11398976867596,1.11297713738701,1.11157820500026,1.11106712844389,1.10948220269558,1.10904365917671,1.10656493559365,1.10507182916465,1.10468995792627,1.10433444318198,1.10544882736083,1.10513357429358,1.10388874012814,1.10599638659714,1.08279317343929,1.08406827396176,1.08408210989131,1.08574807296249,1.0827402681182,1.08261993135602,1.08201958266954,1.08148352831888,1.07381392946987
1.21709249475689,1.22926758433424,1.23582314604991,1.27548075403257,1.28326014316443,1.28690676901634,1.36334319273398,1.32840974787962,1.32601894783186,1.32854389692985,1.38220691427577,1.38369263066825,1.38826701285745,1.38292587342661,1.37614670126533,1.37744291031743,1.37905423010469,1.39766824381227,1.4012816494439,1.41891951672941,1.4665086476749,1.46812608604391,1.46953661175265,1.47706553137985,1.49701259818186,1.49801327404622,1.49849457728266,1.49989477419452,1.49866504596732,1.5245715631915,1.52417845119271,1.57712642797916,1.58417431697389,1.58674090997584,1.59064773110864,1.59706607773721,1.60482203589339,1.60234019455617,1.59900786599718,1.61269386269871,1.60905139831711,1.63059896967799,1.63210576228731,1.63486261410557,1.62326857136504,1.62469626738225,1.61620029276061,1.62081478932316,1.63516913347701,1.63178974648976,1.62871467806941,1.65827727341638,1.65855448699398,1.65781510141032,1.65809642306404,1.68475813779108,1.69921102399741,1.69668316101604,1.70045063359509,1.71872481685929,1.73391436584631,1.73331832522002,1.73265607063611,1.73221380304745,1.71743317448928,1.71923578655149,1.71826935377008,1.73034118020044,1.73206298059878,1.73578125672034,1.74928902066811,1.73896475758878,1.71871586067921,1.71876785758805,1.71948069109867,1.72321175014797,1.72626465445647,1.71434102123845,1.70998974614909,1.70899338201808,1.70959152271715,1.69477220479487,1.68187108583649,1.68175611692484,1.68198516958238,1.66390906353335,1.66388882574283,1.6702679996014,1.71026870174307,1.70247941126186,1.70685493387573,1.69711718254615,1.69194570719559,1.67247397085403,1.65174577378406,1.65155897323375,1.65362595483447,1.62583086100506,1.61470187474621,1.61541266473525,1.61050467334056,1.61318102085237,1.59507397029421,1.59440381302572,1.5942169075942,1.59358632061413,1.60396620191536,1.5689217918769,1.5751513512345,1.55132277333183,1.55295115349917,1.55241094696082,1.55321350218103,1.53805945509175,1.53334453959931,1.52651175979751,1.50705666055002,1.51754875305406,1.52087155598283,1.51523417012389,1.47316654998275,1.46499871839876,1.4599363019842,1.45394461609624,1.44408504282642,1.4494967101972,1.41938662894552,1.42188386269582,1.42030384223582,1.42013065399273,1.41910735291066,1.38564900850215,1.36436238397732,1.33748084025985,1.33869196420114,1.29026669392405,1.28652018030593,1.25278486204232,1.26765636561081,1.1733915627013,1.15183335138419,1.13472379913767,1.13501111360955,1.11357453092316,1.08751368056129,1.09183507763527,1.0992649113433,1.09614743215129,1.10358162905503,1.11613444107088,1.14110571071997,1.11717827341484,1.11679360677335,1.11522821718929,1.11248768649613,1.11264757886148,1.11045206528197,1.11063968371403,1.10786478203474,1.10702548042571,1.10446150698837,1.10497994668315,1.10449462058879,1.10417246135914,1.10295490981433,1.10200863481277,1.10019607051372,1.08247737492827,1.08421354914271,1.08207723703137,1.08213044216696,1.08089059314209,1.08106673299102,1.07984890315776,1.07873820536717,1.07516784950655
1.24109809904751,1.24721515903737,1.2601922584548,1.27505200722538,1.2711184261658,1.28951823058079,1.29907390032823,1.33049735125273,1.3376642998583,1.33845177706263,1.3998695886508,1.38614262777918,1.38824373995784,1.38703971496636,1.38945913002672,1.37585984719356,1.37260455298731,1.39363246406332,1.4082431631239,1.42655015480402,1.44670006983662,1.46761317728461,1.47983321833479,1.48339240314616,1.49517810395466,1.49701609927745,1.49914061668381,1.49978831881261,1.49856044732325,1.54128394545114,1.54665658118011,1.5683663442989,1.58278330123695,1.58468215511399,1.60226281554137,1.58887890282996,1.58163710850307,1.5828255890464,1.58258226414446,1.61492351476729,1.67460033257081,1.63112646359486,1.63611863503994,1.63590717789634,1.62396772046807,1.63114902061467,1.6441659306579,1.65565215866508,1.66400172172941,1.66362232611921,1.66253725254984,1.66113304232136,1.62956276928583,1.6580883150475,1.65792146375939,1.67879726424618,1.6940259774842,1.69688210943389,1.70394496547718,1.7132662461887,1.81143244922273,1.76155163768027,1.73274791054806,1.73390053764413,1.71720119727051,1.71856729431336,1.72079312432757,1.73147473767989,1.7322936433054,1.73888064064135,1.73980796000994,1.73965848755998,1.73980820979559,1.72788366150596,1.72607392592323,1.72580032655825,1.72715367143991,1.717412807991,1.71126750898343,1.70934990519313,1.70954322270241,1.68833183361142,1.65490198228267,1.6549179540369,1.6546156508597,1.65348299659054,1.65086981808687,1.65304995687489,1.66227543918237,1.67668459589275,1.7713014421803,1.70966771056649,1.73364473061368,1.66715814677223,1.65150923598823,1.64954218206874,1.65102394134874,1.63049366521489,1.62889018626907,1.62047062573482,1.61116627561887,1.61452655835579,1.60324958299714,1.60323647362815,1.60195964349612,1.59165174989462,1.55668799059541,1.55890631610158,1.55979041712041,1.54987079722241,1.53737713391194,1.5376888763219,1.53541108642616,1.53487970805089,1.51736394741284,1.52261570123821,1.51714502015842,1.51604898627078,1.51507406577317,1.5082701519816,1.47291603546641,1.47305568211526,1.47220471195164,1.45988225488281,1.46151592747476,1.45202483771686,1.43394570246483,1.42477613817838,1.42024897903084,1.42107679774452,1.41925682294528,1.40088480155621,1.45627952428873,1.33684654740945,1.33839280346164,1.29368978854352,1.29232877575871,1.24113330873755,1.23290048322252,1.17020879925175,1.17035492687373,1.13277872589018,1.11888317330829,1.11534656051475,1.11816403240121,1.09644898967315,1.09860959153614,1.09756313049229,1.10084883737793,1.11604090532231,1.14025887158338,1.11699505627425,1.11719637244723,1.11591207092713,1.11597104829511,1.1139053387865,1.11144630070387,1.11181060236721,1.11052450320732,1.10658325772221,1.10532307737075,1.10455509059258,1.10648373432903,1.10238349742079,1.10045227465444,1.10104352929904,1.1005450468848,1.08288547311576,1.08238985683328,1.08115684755739,1.07811286605328,1.07906327472914,1.0776613527519,1.07789208157405,1.07766904314099,1.07478924747319
1.24945600391579,1.25241068757829,1.25870836621485,1.28078149524319,1.28382966638454,1.29470969219666,1.29821524703289,1.33092137472424,1.32729094396082,1.33928006286306,1.35020231925058,1.38002292763935,1.37917613668402,1.37712585863459,1.37566934138045,1.37490942994174,1.37391236733006,1.38905766474682,1.38191683273109,1.43323715804759,1.46178722664318,1.46872350657226,1.48487025605587,1.48431178556171,1.49238974949736,1.49372185126644,1.49208088265435,1.50029437992639,1.49887189462499,1.54414881929286,1.54763970051476,1.55579080798379,1.54705342557749,1.56801003076187,1.56842675849834,1.57731258705654,1.57948611798496,1.58277990401171,1.58424997510117,1.61333846562377,1.60853988633175,1.62628838034423,1.67046995877443,1.6702227599525,1.68521843314812,1.67899411160705,1.68687148862288,1.66214721174528,1.66021764208915,1.66350542725693,1.66423401153443,1.66495336787383,1.74049721480253,1.66870857891803,1.66546350857256,1.66927854021552,1.67124364841906,1.6850742105946,1.68736447453741,1.70884531167349,1.71012906401916,1.77827978199352,1.86704879558078,1.78868066455087,1.78582069385107,1.78892352436655,1.79304312262992,1.76042417076118,1.74248529045139,1.74097984939548,1.74043569805677,1.74011081458906,1.73988408197596,1.72998509918855,1.72774616693215,1.72737890659286,1.72760383264753,1.72262843610021,1.7279384802501,1.72393021980802,1.72940773174551,1.68285247824628,1.65576614467191,1.65587023992718,1.65535971862996,1.65342466137986,1.65156884224228,1.65077866432738,1.64231637763203,1.66146185725947,1.66190579744972,1.66248072320697,1.6623508407651,1.66322086410062,1.66467774274645,1.64563401678403,1.6428845942854,1.64095471171541,1.6379502701211,1.62423542383564,1.6223161464107,1.61639858823949,1.60312115078331,1.60996220327862,1.62816802582095,1.58738984834808,1.54093706875028,1.54950908885636,1.5494939546339,1.54970361566716,1.53686639765058,1.53712812618984,1.53554906540229,1.53545367580699,1.52881672273626,1.52628356112745,1.50801388013052,1.51196055185143,1.53450663589798,1.50266382996798,1.4977306426132,1.47454862948114,1.47563369724453,1.45977039717043,1.45918441750336,1.45598682409221,1.4311380483585,1.42829760171427,1.4209304178928,1.42374949238029,1.39870625594041,1.39542659082758,1.35090305607394,1.33520474510368,1.3172180077183,1.2973043742635,1.27796652763496,1.23281000892605,1.18689847234206,1.16810294998176,1.14478081940385,1.13288447070586,1.11785819035202,1.11376861889963,1.10719882649859,1.08760999744774,1.07162102993439,1.08947972269692,1.15222332536943,1.11696848858598,1.11840596046175,1.11727921607753,1.11807745985791,1.11665928633194,1.11616514002874,1.11594090773307,1.11714665099679,1.11535120932729,1.11790569429685,1.10605644833121,1.10465933818881,1.10286704091904,1.10039609784479,1.10016446980798,1.09969162564653,1.09945674408236,1.08566614721223,1.08352493731594,1.08090711855058,1.0796059666703,1.07851899005156,1.07772469510487,1.07749944717236,1.07550002230494,1.07214320987467,1.07247175758251
1.2489251456962,1.25355546864453,1.2583239094622,1.28459653815499,1.28925382231931,1.30149142969184,1.30877695593669,1.33529388646731,1.33810528308971,1.34140356930902,1.35057516241896,1.37893245844012,1.37904370819669,1.37825920913522,1.37882276839524,1.38349535561884,1.38492637087478,1.39035496625839,1.4198600662083,1.43948815148343,1.47074337052528,1.47162271012975,1.48456420566596,1.48554148179703,1.49025951773551,1.49250730198492,1.492108321148,1.51806816094919,1.53342730795682,1.54568439440808,1.55544140273052,1.55996479490457,1.56439360310812,1.56881978105281,1.57152412458558,1.57608017999168,1.58059999242821,1.58338294646533,1.58438703510136,1.61327909496131,1.6109877790114,1.62231971725167,1.66939310970651,1.66887968167419,1.66604071405715,1.66651091032556,1.66780761133255,1.66661325712449,1.66750341499666,1.66600588378261,1.66601300071935,1.66769265864402,1.67007394421857,1.6704076419121,1.67110804595298,1.67067975798622,1.67158339234437,1.68408576338336,1.69442228337543,1.70942664340913,1.76508438125589,1.7952951162044,1.81066062289694,1.79691647603724,1.79520563135282,1.79327640511967,1.79241812758421,1.7738892208784,1.76335676989842,1.74602695490071,1.74059653397189,1.73973604493812,1.73808130145555,1.73326816694288,1.72978040441872,1.7280976411888,1.72794097034106,1.71199954925608,1.70440620716204,1.69451405609214,1.68280258844932,1.67336416707405,1.65744443093175,1.65762641988477,1.65491957007912,1.652505649424,1.6508652974144,1.65059504343625,1.65049853480271,1.66194717486886,1.66238703182066,1.6631157776497,1.66336471530525,1.66432861824997,1.66523437122579,1.64354638047332,1.64311762865319,1.64151064142875,1.63934174633222,1.62687212236431,1.62110663611203,1.61548744655266,1.61475750301828,1.61538064915507,1.62171341552308,1.58430278809463,1.54318627132725,1.54700217684762,1.54880203944034,1.5496493534567,1.53680665833022,1.53630962955826,1.5344996808586,1.5339815143022,1.53178521480414,1.53013344682367,1.50438043078133,1.50145368723907,1.49826294293748,1.49651754584099,1.48583237647814,1.4735974401296,1.46775763528622,1.46079282076818,1.46082592449312,1.45792692310992,1.44428567560191,1.43800525705345,1.43419853648512,1.42724376484318,1.40005475031332,1.38432506597781,1.35257453973351,1.33418323156686,1.32755587010309,1.29983875153097,1.27205318935734,1.22696049890799,1.18798818553146,1.16598840795367,1.15502168550801,1.13359134562098,1.10790747521784,1.10147381609872,1.09591862390392,1.08635626692628,1.07987351843925,1.08449749459541,1.10226216685163,1.11527405718827,1.11641299503348,1.11633438279002,1.11667739799268,1.11637992057063,1.11639201531998,1.11627659984427,1.11586459312802,1.11483218012029,1.11405297041771,1.10677705320493,1.10320892346379,1.10154598291242,1.09961981202618,1.09841189398267,1.09731525811458,1.09758390631559,1.08333505305724,1.08234518624102,1.0810240074718,1.07947549737155,1.07790949881037,1.0773338295403,1.07629052215102,1.07502157471295,1.07318419839359,1.07184812715889
1.2468566206075,1.25458083798485,1.25809705571619,1.28651703543243,1.29352371738356,1.30822794834214,1.31895345635811,1.33707582555436,1.33812809035021,1.34402237965834,1.35052971124027,1.37686599977486,1.37919473694874,1.37795257802107,1.37892004611366,1.38585825439137,1.38787602133147,1.39781306131567,1.44392015286054,1.44509785186228,1.4781087985078,1.47466857202017,1.49951178108208,1.48970924776834,1.55161507092388,1.52142935058236,1.48470485967512,1.52369749588449,1.55695126915039,1.56425142770761,1.56985267972315,1.57160190004979,1.57221726593617,1.57972417812718,1.68763618606709,1.58774152688449,1.58323927420312,1.58451352151713,1.58497275472477,1.61379899876692,1.61186343405987,1.6197521817154,1.75952535513237,1.66236617457759,1.655486246633,1.66771173685922,1.67005738463066,1.66928558271049,1.66981011982423,1.66732493175413,1.66639185092408,1.66959533791614,1.67181146876111,1.67166531591179,1.67096996184491,1.67085775876795,1.67131208769957,1.6839689704122,1.70855311564223,1.70881294224614,1.93206616451818,1.81388311405958,1.83526201524944,1.7966995281428,1.79593304394666,1.79578880702337,1.80571192361094,1.78830625160536,1.78432913982836,1.74951697427943,1.74001119417543,1.73922414472369,1.73849671288215,1.73726765796272,1.738775752546,1.72799259622772,1.72746136839563,1.70103128093851,1.66150184505989,1.67363799898508,1.67525709462458,1.66653009263432,1.65862201361911,1.65971428972112,1.66517402776139,1.64989763836162,1.64807603340213,1.65108766538233,1.65294313252745,1.66186020801235,1.66217123146027,1.6631357017374,1.66237231895832,1.66440346559552,1.70671717962162,1.64353151955894,1.64351168815795,1.64288316871927,1.64203474845915,1.62904941843728,1.61737549523883,1.61618189329484,1.61533927952674,1.61530819925403,1.64205825300361,1.58045075256857,1.54250943939029,1.54575618036826,1.54798034925779,1.54938893498171,1.53710501345501,1.53640550914934,1.53130510994075,1.53282934517759,1.53175042549503,1.53329301595899,1.50198030851318,1.50111735543704,1.48886520992437,1.49002242446992,1.47354435903918,1.47014298475634,1.46463845401653,1.46156917418083,1.46275241704985,1.46246881592006,1.5554147343779,1.45419997996082,1.4484548964294,1.42912588506693,1.40076261121137,1.37276923662868,1.35420699613195,1.334271445275,1.33547026670492,1.30016488842692,1.26223650550078,1.21438945375767,1.19013343734802,1.16507573114031,1.16532292054794,1.1338310736893,1.08509029982203,1.09002829508591,1.08733972145942,1.08411731898155,1.07399915652965,1.07405874868293,1.07388378721189,1.11199781874317,1.13759811879034,1.11637499988415,1.11701240735548,1.11662717772943,1.11697562658237,1.11633087115707,1.11577199338249,1.11349268483682,1.11112811361461,1.10964068569783,1.10191448535463,1.10075996858144,1.09845217855901,1.09812189452691,1.09299321532537,1.09413305556335,1.08457894632302,1.08287346925359,1.08129818449586,1.07940144500821,1.07725294010353,1.07670751446273,1.07603256115208,1.0747963792389,1.07501966400379,1.07250289342808
1.25048272369031,1.26333042247816,1.26712101245429,1.28652748977681,1.29419294175754,1.31316542002848,1.31811805497328,1.33865523974026,1.339380359615,1.34686761112202,1.34930925686666,1.37346572410629,1.37142652323376,1.37604739413986,1.39105640061499,1.39130019663357,1.39082799682819,1.40520136467615,1.41793995843175,1.44978295925195,1.53701874807983,1.47225144989754,1.46964007292752,1.48407030315759,1.55171574015449,1.54248021680179,1.53760430804902,1.52748216253641,1.52082647093612,1.56505074523462,1.58238674829526,1.5806923072692,1.58093275742788,1.58539238544772,1.59747993091814,1.6037189065876,1.60719726157663,1.60577659744691,1.61996857164141,1.62074501794812,1.61864514210336,1.61889822278865,1.65416414220748,1.65442196043838,1.65677720058919,1.66783676091689,1.67006962493665,1.67044409889995,1.67045680520365,1.66693985994521,1.66368055235865,1.67132836945803,1.67187433932271,1.67287489204053,1.67171716554658,1.67031632509661,1.67134220981441,1.68392477129876,1.70176726106812,1.70523621832493,1.86419521121296,1.8050858587871,1.79709464758676,1.79689773329671,1.79646703807444,1.79588517684994,1.80416825824289,1.79296002160679,1.78458602923628,1.75590551538278,1.74038327614199,1.73859352708859,1.73551718107196,1.73847691022184,1.77876184066227,1.72770686002929,1.72743203574586,1.68894653082039,1.68109058203638,1.67205875099578,1.66875220986851,1.66018755540754,1.645957785535,1.65451552117938,1.65426845883297,1.65153987176928,1.6514086590221,1.65126552805258,1.65243134020449,1.66066840980547,1.66266142839659,1.66362807273106,1.66078481677838,1.65200000246299,1.64267205103061,1.64425050265798,1.6462208874836,1.64528572931843,1.65663645115888,1.63226082422238,1.61650803548073,1.61645278277886,1.61584979898806,1.61093017044441,1.57220058787638,1.57598692724408,1.57341598143469,1.56918394544502,1.56295755052094,1.56322004474673,1.56465117966952,1.56224585003437,1.56010818813176,1.54358594130648,1.53434982718998,1.53503703747927,1.52391140878941,1.51621910768329,1.49089661080563,1.49145489897128,1.48005844738952,1.46670752616051,1.45812572888078,1.45857104898436,1.45589123812233,1.46009102431222,1.46154402805462,1.46310305403611,1.4884724526419,1.42982214162987,1.42904449213618,1.36169973132002,1.34791817268066,1.33396098058274,1.33416026964068,1.29878362802836,1.18549585190082,1.19517834047336,1.17582154232133,1.16562674355976,1.16325833522863,1.13336800992538,1.11807501405899,1.09301133749394,1.07884040514146,1.07725692213466,1.05902012672333,1.07410614856106,1.07336730295684,1.10670235139889,1.13517978457976,1.11619146926997,1.11654783437761,1.11713101251456,1.11606036682381,1.11673696257862,1.1150461157057,1.11326636089013,1.1104240177241,1.10971633878909,1.10115481300647,1.10081956812662,1.09840366387692,1.09858749895249,1.09159053758971,1.09105469760547,1.08487565366985,1.08285514044305,1.08181818705496,1.0794475611307,1.07708161532805,1.07672294682566,1.0760268961878,1.07474526032508,1.07182808383722,1.07252642871884
1.2413638040457,1.26827580460107,1.28405313526809,1.29048398650318,1.29423325154908,1.32912272369358,1.35300440119006,1.34873756873158,1.34714659870107,1.35335343934291,1.35999717384448,1.372319499028,1.37774848467841,1.37624502852211,1.3697347924203,1.39112642851348,1.39090745651714,1.40873600493871,1.41866270459473,1.45470744407846,1.46897332355532,1.47063941623546,1.46955032279582,1.48126918144657,1.55297259517834,1.54420410172162,1.542709239511,1.54535732353218,1.58576670564266,1.58870767411957,1.58887039483262,1.59316689006714,1.67224901627618,1.63599793295596,1.63622672215793,1.61537711842126,1.61009625426621,1.6066101559811,1.60640735213884,1.61989269052737,1.61993349968056,1.61954095530474,1.65443845923597,1.65483923751537,1.69711017177568,1.66549472984863,1.66100152350918,1.66193075781049,1.66407963690952,1.66512746998536,1.66354121154699,1.67063123083522,1.67103787774429,1.67528233422585,1.68250532099923,1.68298535600392,1.68136020826781,1.68327693041195,1.68382686124046,1.69624407886305,1.71239873547098,1.74499420295937,1.75174464947848,1.79094541978895,1.79658831794427,1.79691492657757,1.80415587183576,1.79684810444377,1.78490645698945,1.76330476044741,1.73982142250024,1.73996110029698,1.74300261599371,1.74237648883913,1.91244227463684,1.71463474594831,1.68115889440887,1.6786362800807,1.63886574029306,1.64708717142993,1.63730476237568,1.64655910841162,1.65070445060131,1.65294638650722,1.65233232029644,1.65218205421081,1.65225905280208,1.66285361872963,1.67191588122537,1.67257973718249,1.67064003090463,1.66737858780426,1.69416554996014,1.64744482724547,1.64264718488487,1.64390918585956,1.64708499893085,1.64647089074734,1.6851689080566,1.6353839276075,1.63607057368782,1.61657421236966,1.61590049876645,1.60668864685748,1.58523242257016,1.58788325192404,1.58879492711401,1.5889585930601,1.62233126213217,1.60077770527371,1.62813261461712,1.6003025377442,1.63157003952328,1.56663079710302,1.57160310531239,1.54901328368251,1.55160629939719,1.54931328224705,1.54952928375765,1.49699689082361,1.48079182915015,1.46533312060287,1.45553684178501,1.45806903986298,1.45683091633235,1.45927252663201,1.46169771624709,1.4635062381347,1.50552954842104,1.40686631536219,1.37372052711792,1.35372674740662,1.33664622165284,1.33320901100417,1.29995756612199,1.2980042023043,1.24152847875415,1.20305581895037,1.16263435291694,1.16519413962257,1.13591664953699,1.13208037686622,1.11974828795453,1.09628189733392,1.07805750310694,1.07792320200929,1.04550874652766,1.07449925970561,1.0725269160775,1.09898730324909,1.10088616523619,1.11701510995446,1.26751005266337,1.11844376343463,1.117754801781,1.11809819520215,1.11696522389742,1.121686269872,1.31706429535805,1.1081688681551,1.10606035670707,1.10295749674934,1.09977396260824,1.09851774257894,1.09045169490476,1.08843472555429,1.08614224143634,1.08333913320315,1.08347933327911,1.07955166040324,1.07749803991253,1.0764206577858,1.07698107230347,1.07452333567174,1.0730940769733,1.07189216992436
1.2630700337665,1.27411719589369,1.29271986289761,1.29308391058693,1.35742747992465,1.34205413190501,1.3440145450224,1.34621226524677,1.34671061977053,1.35872468951708,1.36473257418528,1.37089356148839,1.36679939108934,1.38834047692024,1.39249657715352,1.39530900360484,1.40497767925844,1.4149029134694,1.41916062066483,1.4575268169136,1.52420031738349,1.481884092658,1.48136711508659,1.48058563902995,1.47867392760694,1.54621575748907,1.54880801588655,1.55239980106628,1.55633473469918,1.59028577980074,1.59427388603483,1.59458594884566,1.67276844176431,1.63579759490138,1.61957308211592,1.61722997646825,1.61318801192228,1.61355192774968,1.62981017184803,1.61730660697913,1.61771488911984,1.62053009046554,1.6372990577919,1.6395772265329,1.64124548212724,1.64557675090239,1.64923598590255,1.65542147199869,1.66454223147981,1.66516663630641,1.66431845828337,1.67625945275387,1.69293642394852,1.68352220332341,1.68089834675001,1.68291339006357,1.68204520825255,1.68340278042343,1.68483741361781,1.69436789054371,1.71431327849846,1.73571844257948,1.87011129406874,1.78607633320718,1.77129446507482,1.78327172937398,1.83676040233791,1.83514797010204,1.83375284850404,1.76976298084467,1.77822399236766,1.73827984188629,1.73588669859269,1.72006842423902,1.70670206448008,1.70229059861533,1.68399847605196,1.67671185648542,1.67482636587075,1.65737050412044,1.63949658963984,1.64364919763838,1.63637349781958,1.65436624849619,1.65742408140143,1.65860854256583,1.67485276877505,1.67464224664199,1.67407883165758,1.67198315820206,1.67048860339663,1.65931637588361,1.64519922639469,1.64413919118309,1.63968541479467,1.64132843298581,1.63995473824661,1.63963234451759,1.63929810923708,1.63850868614073,1.68512497856758,1.61650341507281,1.60264872882748,1.60119428927049,1.58737593452745,1.58846831129819,1.58803686416335,1.58948627332591,1.58979110103105,1.59283000121877,1.58163314440062,1.58290426803279,1.55771824565224,1.56076993614974,1.54513015106548,1.54617393969804,1.54438537486161,1.54611262377145,1.55806088705698,1.50338567635185,1.46538414809005,1.46616190078626,1.46625756840566,1.46123112568953,1.45696893669823,1.45814890354987,1.52064561887438,1.44936972070584,1.40834579396295,1.39680210453517,1.34684666011657,1.33699769184458,1.33444306271724,1.33253975947604,1.33064928373515,1.30962375618435,1.26367505287057,1.21037139313702,1.17298585915741,1.16560925331956,1.13872012262974,1.1307169236779,1.117345720738,1.09965262953903,1.0961435286267,1.07793161239846,1.0804548260677,1.07756686174806,1.08094339311457,1.09651162411846,1.11925286174498,1.11970458198008,1.12129202304545,1.12093320794342,1.12118475705766,1.12152336574936,1.12273428348081,1.1236370339777,1.31898453156026,1.10787142000533,1.10610043507025,1.10581661330761,1.10716712749466,1.10627013939633,1.10349472217059,1.08875034084168,1.09322258590868,1.08204598510765,1.07685840042669,1.07790224758508,1.07692771157843,1.07535776314161,1.07488960796284,1.07443441926947,1.07228408721393,1.07390126478638
1.26733057483757,1.28316257420033,1.28863521910701,1.29516722857564,1.36660379944162,1.34111786560523,1.34129299286051,1.3578018804053,1.36619874534639,1.37009887454716,1.3729784999754,1.37739641706296,1.38334954623255,1.39143774066877,1.40893054825765,1.41103817182269,1.43058530229223,1.43409588704759,1.45026152247725,1.46075950204582,1.48156096195441,1.48358311992486,1.51975422470209,1.52306475844802,1.523386641015,1.56092385240745,1.57546337913101,1.57795095741296,1.58091305270759,1.5906902653954,1.59078860919297,1.59317606736249,1.59170980058414,1.63378811427836,1.63093108760087,1.62254963015637,1.61420799038609,1.61442937375823,1.61679648734154,1.6161547089376,1.61666878483901,1.61594660583555,1.61613105293593,1.61622416912778,1.61750837131227,1.64232730405536,1.64888376568565,1.64894157285603,1.64782846775243,1.66629600358942,1.66461949519434,1.68327863835799,1.69676944073053,1.68560812525992,1.68814410623401,1.68791685260152,1.68869582874595,1.68185153415242,1.67991914173067,1.68022517367386,1.68079036663407,1.7198998179779,1.79373976184716,1.77945789405643,1.77339833866441,1.77727521091052,1.83692368680263,1.83513345438943,1.8346151974076,1.75211309884872,1.72811167148862,1.7200003764469,1.7160667234548,1.70751116613618,1.70118564415023,1.69922703815068,1.68408988321664,1.67650627074642,1.66583697608334,1.66718728822798,1.66741730983548,1.65059079679973,1.62958951664514,1.65505050625893,1.66467062333455,1.65984383776513,1.67775743412666,1.674251526516,1.67299762229921,1.66385927568262,1.64016021440221,1.64380851552781,1.64551150147082,1.64236312038684,1.64294855947381,1.64111047296264,1.64151492147305,1.6406909702881,1.64045968804589,1.64115865605836,1.61330613938204,1.61466661363446,1.59364847632785,1.59428279389251,1.58763688898191,1.58811164423329,1.58788684889331,1.58965778293081,1.5930788301083,1.59257262476826,1.59196812612754,1.58676819949071,1.60345150731493,1.56250618546911,1.54829955253538,1.54696958123963,1.54787872951943,1.54560381272119,1.52634435840167,1.51206413022201,1.49476557483963,1.46818098014663,1.46563285294235,1.4636827641661,1.43531187306274,1.43409219161582,1.43434398583755,1.43474875070631,1.43000984097308,1.38935527619789,1.32424500709507,1.32588133579439,1.31610580919126,1.31649905296933,1.31113539199278,1.31018391253657,1.23306652703742,1.21485503824794,1.18761809164237,1.16626215323806,1.14728557955835,1.13003882717947,1.10658403085679,1.10412649258629,1.10881247786776,1.07501071218874,1.06781971991268,1.07624652753289,1.07802056990563,1.09048704182652,1.14655333773042,1.13194355809068,1.38438968075456,1.12139415532069,1.12256846536046,1.12193191905135,1.12292484132063,1.12370393555727,1.34835397221036,1.10755590538188,1.10462110061532,1.10684271472733,1.10991310018573,1.1054889048709,1.10329774660411,1.0846515610787,1.07937224827705,1.0803797668773,1.07812392337528,1.07925063506284,1.09178306244919,1.0823141382417,1.08483017106782,1.07740917593681,1.07960453835738,1.07574166926593
1.30209524248937,1.29090138542959,1.28903653330493,1.30073675544821,1.34488141789864,1.34165096225848,1.37971331938862,1.38183034379369,1.37688664444855,1.37538806121831,1.37403418307626,1.38709921475376,1.39790388528266,1.39777746023627,1.39799140649005,1.41496898877513,1.43795727718091,1.43891973614995,1.45649482868412,1.46433447816107,1.48140477979428,1.48563107298858,1.50139122165028,1.52525369791153,1.53041436629663,1.56549191816458,1.62026113979127,1.61170921816587,1.63453884258004,1.62708682506272,1.63659573937279,1.60118868195649,1.59360994477368,1.63306826826601,1.63205261359297,1.63376802473967,1.70168192777831,1.62030633550059,1.61677562013251,1.6159845440498,1.61709258022576,1.61584572214972,1.61625266867714,1.61660170098969,1.61657992852302,1.62876904736534,1.63000453196504,1.65077702002081,1.65083482260532,1.66896663493713,1.69706516618608,1.69017028155891,1.69695381704972,1.68748706005551,1.68950909628519,1.6877911095945,1.6899031460198,1.68049898825339,1.67971816601116,1.68026898000912,1.680431011745,1.68538882851599,1.68719312860797,1.70200686621996,1.71112428543671,1.77241062035392,1.8374151828231,1.78920720060136,1.71692024071209,1.71139875979558,1.7042504992753,1.71069252235722,1.71588104932801,1.7050874702646,1.68506149506716,1.6939993931854,1.70416868982639,1.67544382758246,1.66862408692128,1.66801934990705,1.66625144564062,1.65981903809118,1.65849531686627,1.6565988255541,1.65637090980638,1.65657052041128,1.65627879866778,1.65667648625384,1.65707457469588,1.65737963383468,1.65567865784735,1.64471838633038,1.63880879551782,1.63908629889809,1.6365543713605,1.64069281100676,1.64206810995996,1.64191716077009,1.64146716718813,1.64338283416153,1.6208621604167,1.61318670545409,1.59484169288078,1.59603213021071,1.59489230610727,1.58883148574569,1.58728876294224,1.58981398268813,1.59224326521127,1.59228252786683,1.59313689919949,1.58347904088762,1.57302136022014,1.5633851114532,1.54837902777904,1.54732354812797,1.54665464290604,1.54502391764892,1.52542463791894,1.51913392327006,1.50724980842872,1.47152868141501,1.47033501244871,1.46685551659598,1.46265028497697,1.43607862878802,1.43572272883899,1.43580876423611,1.38591157463926,1.38478958468108,1.32590971274795,1.32588186813921,1.32446556683564,1.32045908505857,1.35668371615576,1.31884180628197,1.34772737019116,1.21850749378058,1.17131229984345,1.16760978628411,1.14402878849384,1.12952202019164,1.1158332954634,1.10306575392494,1.10196818033175,1.07228640251374,1.07109280854285,1.07280288916441,1.07124709964086,1.08451430358391,1.07881373818532,1.12288319398671,1.12196307239171,1.12215826340145,1.12075496011513,1.12228101614182,1.1217332282383,1.12349590457,1.31858876914447,1.10748770559779,1.10480664685386,1.10666221874953,1.1084805360138,1.10739607235778,1.08391020085568,1.08250266077544,1.0804800119017,1.08214385675427,1.08566065624427,1.08404061744806,1.09069097415396,1.0800492128946,1.07923996834644,1.07900622206542,1.07754382477625,1.07804539341388
1.28728304976116,1.29421176364934,1.307526249308,1.30900369773346,1.32244848998916,1.33824065029552,1.35686064860854,1.38688010150279,1.40468913142914,1.39834112093727,1.39568410778341,1.3955642382119,1.39683737138186,1.4043170635775,1.41560214110426,1.41830047488284,1.43838346359669,1.43852882133351,1.46697669483481,1.46809434787866,1.49092992448077,1.48863152579423,1.49154557792795,1.52719697326576,1.52787723230936,1.57955921153374,1.59681939055,1.60573058056958,1.63372741542891,1.61425164487813,1.59479486660831,1.60267262821211,1.65594345681044,1.63772097676443,1.63720908119374,1.63593585571022,1.63527768724776,1.63752309237207,1.641463993603,1.62278848056176,1.61732874491515,1.61545182110805,1.61632046576436,1.61719151057295,1.61663973123013,1.62809154336787,1.63013539252833,1.6524940965977,1.65199885053301,1.67174895866,1.68214479757242,1.68086090216022,1.68165873236258,1.68188905524474,1.68347780958313,1.68506604972428,1.68317443592458,1.68121118007466,1.67885143567461,1.68080180376816,1.68155857566339,1.68321107059256,1.69088315591618,1.69461051515108,1.71584789304555,1.75477136622623,2.02955408315729,1.76452749711111,1.69948763943267,1.70283582087888,1.7056409787414,1.6999988833773,1.68990895792307,1.70170418564705,1.71183862905927,1.68615665272319,1.6755549786291,1.67448228090972,1.67123572955722,1.66935575315099,1.6400343977446,1.65741597900189,1.65664127266675,1.65641275460654,1.65609740746831,1.65577165510268,1.65617012474406,1.65666955398043,1.64618136857045,1.64523193418099,1.64733917645091,1.64639543012451,1.63730758203006,1.63747727060373,1.63860614576265,1.64064180822126,1.64297699945295,1.64246868149849,1.64326082312289,1.6451647502922,1.64617806076239,1.61125042623224,1.60909572309662,1.60967268141341,1.65042948062679,1.5897367869186,1.58859855579543,1.58903291929264,1.59052148479434,1.5908221503026,1.67442953265268,1.57762031992048,1.57499929096281,1.56368523312376,1.56226971128428,1.5609766327963,1.55859443718343,1.55463755197945,1.52736878231396,1.52236424618983,1.47800720765347,1.47730176260766,1.47794890123777,1.47447255269498,1.43968048523728,1.4384880435235,1.43877594193906,1.4364277606593,1.36876295611879,1.36735887320071,1.31567565087401,1.3260222067963,1.32382804695766,1.32212412182008,1.30831003718769,1.30921673490879,1.23886930557934,1.22243982088308,1.1829620786983,1.16784891608438,1.14898926229518,1.12839968044133,1.10210657714549,1.10309608815457,1.07015688693394,1.07086524163088,1.06336292876115,1.07136446682128,1.09656832264184,1.10256139292733,1.11574512175891,1.12336320112385,1.12236236847714,1.12171040926555,1.12170430193114,1.12112216463626,1.12091813474778,1.12067937563715,1.10750984645695,1.10789383823355,1.10629205700943,1.10686062765391,1.10580177532738,1.12161425001723,1.16575774770607,1.08141896042329,1.08012709969129,1.0825284290218,1.08461163964604,1.08376412004072,1.08170542147406,1.07992951059786,1.0794619930345,1.07848875377371,1.07915318058148,1.07706522871647
1.28639537641134,1.29398494451085,1.30464224593766,1.31608703849873,1.32212527806443,1.33041182184001,1.32111614052667,1.38977124941591,1.40204788776634,1.40057076471629,1.39991323938013,1.40500340305246,1.45329835279106,1.41957934399088,1.42734243372904,1.41870544381668,1.42949995834717,1.44090423519588,1.46582191608928,1.47233808705118,1.48927514678764,1.50115512359208,1.52742900720424,1.52903010480621,1.62345852830171,1.61488884767805,1.59674644395425,1.59943874623625,1.59537586428045,1.60529007303138,1.59496313314008,1.60479706528504,1.64878377970915,1.63903801991658,1.63727587553956,1.63766630557794,1.6367678831813,1.63762468835862,1.63532933553071,1.63074342121925,1.62878119332797,1.62891652627571,1.62663760673378,1.6276428431014,1.63905725046936,1.63923763314049,1.6444239730118,1.65343287195742,1.67422841910404,1.67366025874946,1.68148395655551,1.68133629177834,1.68122192443441,1.68191814491801,1.68250966074732,1.68288593706207,1.68175050601068,1.68088873932526,1.67926072111699,1.68135167074852,1.67880881860535,1.66930658421048,1.6665252953284,1.66575826493601,1.66547364061976,1.72889557909785,1.85216826497711,1.7364782744351,1.67513738576293,1.67383267253276,1.67146899365591,1.67015084314415,1.66912097407888,1.68689953509416,1.69983511909369,1.68013560695424,1.67432781117763,1.67407644426636,1.66922257402193,1.66809991880665,1.66812304577238,1.65863908573844,1.64337164680802,1.65628028188873,1.65619537806615,1.65576350668049,1.65593922660582,1.65527715503776,1.64538541186173,1.64521640538031,1.64677905562435,1.6479227579114,1.64995766316684,1.63668455613449,1.63719724253985,1.64048048202874,1.64276025307642,1.64201722828896,1.64325361542515,1.64534661033212,1.6221166183692,1.61060084972358,1.61012832866614,1.60985513443026,1.60759577208464,1.59025561486066,1.58806710678564,1.57745913618846,1.56191592316825,1.57129519598545,1.58825031050391,1.56893588734027,1.5651939887947,1.56436417005096,1.56270587283962,1.56160522875929,1.56091076726254,1.55740227051226,1.57511436054952,1.53735308175548,1.51137925675778,1.4999805428566,1.49475376627388,1.4814745337316,1.45733393709452,1.45649654179588,1.45600136748708,1.43661769244635,1.37478001341755,1.36984886973405,1.35920198772336,1.34366105564083,1.33373161891783,1.33566593019769,1.34117470248048,1.31121198343398,1.26775498601674,1.22645785053355,1.22813086333027,1.16655698382003,1.12299618293721,1.12690872354569,1.11746359071417,1.10367572140348,1.06792601402079,1.06952160578011,1.06767650682986,1.06901083535444,1.04668340191103,1.10476705097669,1.12384882515844,1.12477634432887,1.12265332736378,1.12331081626152,1.12082460521531,1.1216098019698,1.12038559567249,1.12115322882123,1.11111360925577,1.10955445621773,1.10883834674772,1.10843373702934,1.10630421040082,1.13452937817632,1.16804199624107,1.08346403966148,1.0777519650047,1.08340531258442,1.08426999656838,1.08358091692954,1.08188739386574,1.0809928475038,1.07915718869343,1.07986630316573,1.07805811828917,1.07896896618125
1.27559372028722,1.29245250469405,1.29356123842591,1.31994531808715,1.32281149640712,1.33518879754218,1.34199743244029,1.39142347673471,1.39974095637158,1.40091476298922,1.49588040231136,1.4081740735737,1.4105632490087,1.40984789076765,1.41323810766318,1.413137861595,1.44647562999492,1.44495388037014,1.44684997880656,1.47632760183883,1.48084187318905,1.50574657269593,1.51610289698111,1.52924748979934,1.64169765714558,1.62161421324426,1.64026104022497,1.63116173055924,1.6389273663817,1.6164524367136,1.61412388907642,1.61236221309534,1.64792865375781,1.64183599593266,1.64359041374563,1.64054439062842,1.63820407886669,1.63917008817964,1.63862436672221,1.63169745894292,1.62684439835856,1.62868246498297,1.62649910673814,1.63018501274809,1.63862759388525,1.64010577594077,1.64252290706584,1.65343282885672,1.67668748157587,1.67447880517906,1.68074404549491,1.68118660798218,1.68123821167758,1.6819026358212,1.68155073758684,1.68155972439575,1.68104415228136,1.6812192096867,1.66659957885913,1.6643717599549,1.66623426260364,1.66610388733511,1.66727773280127,1.6669037059958,1.66671421586503,1.66673406530873,1.6664359992097,1.66634872648031,1.65107274371574,1.65487384161693,1.65191640689987,1.6574141747251,1.658389073004,1.67924914602961,1.69948435148975,1.67535716471095,1.65803088514955,1.65841995781173,1.66092839791968,1.6644182380621,1.72658471989748,1.67824621552961,1.66398566179046,1.66040775863004,1.65666056733264,1.6550716004009,1.65606307601883,1.65047230152845,1.64537440405536,1.64523475477317,1.64580129730689,1.6476380215051,1.65165331559449,1.63733707992437,1.63767336401711,1.63978338149034,1.63968450719106,1.639856571002,1.65461053534481,1.64917192486582,1.69418711253396,1.61010584559634,1.57134813871419,1.5789776480867,1.57633943946954,1.57788380114604,1.57001291842271,1.57274970952858,1.55743828716844,1.55578768478099,1.54904650955219,1.5635810839301,1.56560991986903,1.56507400815263,1.56396592729636,1.56078614163265,1.5532093054368,1.55494303761216,1.55190256691482,1.54795243523398,1.61377601033509,1.54446908854392,1.55259978191526,1.48921495712043,1.45813677958267,1.45817053777687,1.47962732746729,1.43773692976726,1.40838777369707,1.38357359339953,1.36016699528273,1.35317460931998,1.33524700132893,1.33606530261142,1.31541221352359,1.31394656795743,1.24758521625439,1.2263322666355,1.20313051225085,1.16472249018797,1.13028386598519,1.12974251271959,1.10866296266738,1.10409479453546,1.07439099159429,1.0713824512646,1.06829232377947,1.07069864293404,1.07817294251993,1.11334387805458,1.12927981074008,1.12780916360632,1.12859816179476,1.12577586852843,1.12313506853431,1.12154037616111,1.1199994895716,1.12001062001601,1.11008315573505,1.11063127781578,1.10960069941096,1.11127130465298,1.31883121474775,1.13997044576749,1.155068901684,1.08686247406918,1.08647422973007,1.08546430992417,1.08558839239339,1.08467051086932,1.0832587071474,1.08192749041296,1.08101855617339,1.08009234975183,1.08015249571266,1.07893575191469
1.2842209992958,1.30434134657342,1.30623179254377,1.32688480367351,1.3295069444785,1.3478828848666,1.35451967672884,1.3911173996803,1.40263938151722,1.4025340621012,1.40458812407558,1.40646236186198,1.40819214727935,1.40933817561957,1.41104429237886,1.41089627751015,1.43453391253495,1.45946804321413,1.46115308636882,1.47910850627042,1.48277116952578,1.50772075290627,1.52512549249666,1.5303096480955,1.5991252630035,1.60936715505462,1.63091912906583,1.63026367580183,1.62603186420036,1.61612925848912,1.61517653778338,1.61385448177175,1.62676659425403,1.63899732485567,1.64392832955361,1.64192010156774,1.64078305823183,1.64050896491706,1.63970962626947,1.63165907067657,1.63228448006516,1.63183569417008,1.63383863072393,1.63390836835261,1.63724883708677,1.63974553451365,1.64090139807861,1.65349629784688,1.67018353703608,1.67263287395848,1.67837145196254,1.68069356320511,1.68206660621455,1.68201939977336,1.68126484272364,1.68073650811553,1.68154198897172,1.68258655249303,1.66546834699169,1.66376779168896,1.66475370957437,1.6656368812302,1.66900412517614,1.6683447341628,1.66763853414652,1.66716195659543,1.66685092054789,1.66683139025969,1.66264660501067,1.65980774262462,1.65520841573913,1.65683847195168,1.65732399392608,1.65740108385956,1.65875223859273,1.65896661447964,1.65930074263375,1.659535648602,1.66025934926655,1.66425717313571,1.70725205925259,1.69588970631106,1.68998824208364,1.68000645886257,1.67226853590126,1.65254295025012,1.65433710327181,1.64700905844111,1.64497387455504,1.64447729195004,1.64444369712196,1.6451858798034,1.64323119700856,1.64108892554577,1.64017913674359,1.64056977779209,1.63878761915903,1.6390048417753,1.63872111815541,1.63635367835977,1.63511828875361,1.61098716362314,1.59393143815129,1.58883827663195,1.5772905157336,1.57830055111875,1.57081847535956,1.57262279654007,1.55709182106804,1.55455293822882,1.55137363719777,1.56085564929262,1.56559809994976,1.56563206202249,1.56576289650366,1.55927871042386,1.55679641170028,1.55628264379484,1.55507202262293,1.54360240750701,1.54248514225966,1.53681403721461,1.532535762331,1.49675429860301,1.48233298568583,1.45949227455487,1.45573762301492,1.43795854293605,1.4124299865165,1.39572405470578,1.37791256600033,1.36585859421045,1.35246609427351,1.3404677638555,1.33323692950752,1.3148910530428,1.27679915846998,1.22887148172592,1.18866917987964,1.16373390363834,1.14014513480814,1.13118723227104,1.10615788395778,1.10266481521941,1.08796128130495,1.07414155702097,1.07087518818492,1.07875161490414,1.10062621342447,1.1203630245867,1.12903957078245,1.12905406661001,1.12912198103561,1.12743158341973,1.12492606511837,1.12162340669078,1.1192232162142,1.11748591415486,1.11374243801069,1.11337485432469,1.11320968976462,1.11393961370821,1.15273364714361,1.1324433090372,1.12444730864501,1.09001334001776,1.08678296840467,1.08689098629016,1.08651263215815,1.08582574465527,1.08473591315549,1.08320942980612,1.08176135699591,1.08163219027982,1.08122335118765,1.08090661998825
1.28349468263962,1.30794637979208,1.31531014034992,1.33039449643852,1.33616399397044,1.35515998550926,1.36467747883451,1.39614460094949,1.40403380926248,1.40382623986917,1.40445972199057,1.40413322175909,1.49048650159126,1.42334179325361,1.40943205532325,1.40910405990716,1.40965414828498,1.46589343658796,1.46937111120242,1.48205005226006,1.48454231449003,1.50993733671306,1.53543222621924,1.53140654893242,1.58523611482471,1.59682842012901,1.64266448125436,1.60467588543984,1.58749919273288,1.61706066722937,1.61490371238301,1.61519050005089,1.6144939907644,1.63252887305981,1.64503351611497,1.64271622772857,1.64274868269925,1.64241212378574,1.64359710112135,1.63133049427466,1.63202529659793,1.63345554000946,1.63474548807445,1.63536301273563,1.63702851790415,1.63962693408444,1.63842619057944,1.65289501363375,1.66546225548049,1.66260319196479,1.66200088176306,1.67850558857331,1.68387303452598,1.68259676533577,1.68162083882168,1.68709435851424,1.69746785298177,1.68489028840219,1.66703116732703,1.66271916765075,1.66112782726719,1.66224603948553,1.67472208609536,1.66789501456598,1.66764617527142,1.66690838364264,1.66779222452026,1.66671892126599,1.66594898019288,1.66355365480877,1.65149981899302,1.65784718068475,1.65683753388488,1.65722484358033,1.66053479585622,1.65937486594485,1.66051384072848,1.66079954524301,1.66197699628264,1.66764320902519,1.72312861530142,1.70787634336329,1.69751801215973,1.69817596739639,1.69830720485197,1.65187621082122,1.65541875397776,1.65100298017588,1.64733339356031,1.64402220185899,1.64215828417028,1.64313263369438,1.64265023872792,1.64148211878132,1.64050589045144,1.64337426862596,1.64794810971307,1.63987647058959,1.63965998030681,1.63477834169973,1.62938430393605,1.61328470780311,1.60480313906883,1.59777509772425,1.5770231279538,1.57831539103954,1.5698020413316,1.57235396803736,1.55721487604076,1.55394408901027,1.55000837084594,1.55898749466606,1.6300111633298,1.59789563262853,1.63036656670963,1.55885947584621,1.55801195760548,1.55702513005961,1.55583025138957,1.54139920555563,1.53726556089449,1.53230781145478,1.52516462867024,1.51216989572454,1.51450762778674,1.46177954247535,1.43238450001011,1.43589621701832,1.4157895654788,1.40671502847156,1.38887506273736,1.3777824637572,1.36632455621388,1.34922271465527,1.34851586617955,1.31455033729601,1.31589661485387,1.23266649471437,1.17652830267924,1.16404965112801,1.15257372232275,1.13159495472318,1.1050940877665,1.09920744476318,1.09828348540118,1.07872316499778,1.06879158855235,1.07981724535534,1.12785520667541,1.12842544774976,1.12989607637143,1.12955358154909,1.13048884875483,1.13037718538963,1.3612399930374,1.12076094278665,1.11771112185249,1.11638480987893,1.1151043602743,1.11442748327831,1.11551136914604,1.11500446642081,1.18495586062756,1.12387672167181,1.10046903791636,1.09290531600725,1.08780343059035,1.08752216456464,1.08705789562212,1.08741464733436,1.08659023622092,1.08420766068839,1.08070008913651,1.08262565675614,1.08377901244385,1.08200995117721
