1.02769383394971,1.03040481092295,1.03098871365564,1.14731882094412,1.10670421515124,1.07133639248501,1.1420219890118,1.13076100773836,1.13086110534968,1.11878266025046,1.13539886372949,1.13168691064306,1.1282001771821,1.14759408937525,1.12613983468244,1.12698232291104,1.12619822495571,1.07760083466009,1.07549878482238,1.1419385743357,1.13598276646219,1.07277112491392,1.07227897832494,1.07441439403309,1.07533195547018,1.07554883362804,1.07578239472112,1.0754320530815,1.07554883362804,1.07443107696831,1.07426424761611,1.24455530887341,1.06292819313417,1.0559964335503,1.04632867259036,1.04548618436175,1.05216769991733,1.03374139796693,1.04950677174975,1.06122653374174,1.06605624348791,1.07388054010605,1.09057181679358,1.09580191698502,1.11601329300395,1.14593413732087,1.3776434245903,1.16809741676053,1.16936531983724,1.16944039304573,1.18850064653449,1.21679490466747,1.24816716434852,1.26861210146053,1.32489198342492,1.3248753004897,1.33512696418234,1.41234392984772,1.34233399219734,1.34042379611466,1.35959248868235,1.39727923934414,1.4723858137042,1.38768655159269,1.38062132852705,1.45472692677392,1.44745316701804,1.44881282623846,1.39108987037755,1.42816769390381,1.39410114018474,1.39413450605518,1.39729592227936,1.39700397091301,1.40814817163991,1.41057553871441,1.42922706029028,1.41891700632437,1.49319777539105,1.48130284257925,1.52949984242959,1.42598222939001,1.49067031070523,1.44823726497337,1.45331721874784,1.47251927718596,1.48508152740656,1.49210504313415,1.49306431190929,1.49816929008659,1.46317683346281,1.45798844060942,1.45779658685439,1.47585586422995,1.44029618780869,1.45840551398991,1.46954137324921,1.45927302662135,1.49769382643282,1.49756870441867,1.47901728045412,1.46085790546724,1.47850845092991,1.44711116684603,1.50165602354755,1.50143080392208,1.47466303436172,1.43042823162611,1.46577937135712,1.48944411496657,1.48788426052351,1.48932733442003,1.55543346522895,1.46061600290655,1.45992366109493,1.45940649010311,1.4584805871984,1.55184663415667,1.43690121049144,1.42366330139444,1.39994850897932,1.3980049470262,1.37078673821491,1.37036966483441,1.37056151858944,1.37132059214195,1.37439025222241,1.35876668338896,1.3465714577432,1.34680501883628,1.34903219068814,1.31632529618949,1.3180936873228,1.32013734688724,1.33131491348459,1.31844402896242,1.31891115114858,1.31940329773757,1.31663393049106,1.31606671069358,1.31485719789014,1.29515465139542,1.29422874849071,1.29903343383405,1.32182232334445,1.22744695880538,1.23663925611156,1.20160509214973,1.18663215778986,1.18723274345777,1.15183989638872,1.12153534456174,1.12634837137269,1.10283377418021,1.11263499862192,1.11221792524142,1.09740347876613,1.10375967708492,1.10203299328966,1.0984628451526,1.09768708866487,1.09941377246013,1.20582587476037,1.10888133819743,1.25377263058241,1.29935875107084,1.1070962641289,1.10590343426068,1.10560314142672,1.09847952808782,1.10128226120476,1.0787853230607,1.05351067620253
1.02926202986038,1.03091364044715,1.03354120274429,1.04272515858285,1.04446852531334,1.04788852703342,1.0495484790878,1.15918872935309,1.16379321947379,1.0575896538638,1.06246107094802,1.06478834041119,1.06695712198978,1.06585604826527,1.07398897918498,1.26844527210833,1.07728385889091,1.07714205394154,1.07881868893114,1.0796194698217,1.08110425105627,1.08374015482102,1.08554191182477,1.08734366882852,1.08689322957758,1.28160810799684,1.25705082735313,1.2135584152348,1.22435227432209,1.19661689451898,1.27958947283523,1.25194584917583,1.22791408099154,1.22992437468554,1.21470953776498,1.05291009053461,1.05205091937079,1.03775364388732,1.04791355143625,1.03853774184266,1.06324516890335,1.07043551398314,1.12505544389314,1.10355948186228,1.09887991853309,1.15905526587133,1.16724658706431,1.16489429319831,1.16428536606278,1.16642078177093,1.173519370707,1.19002713510711,1.21994797942403,1.25932804801065,1.3248753004897,1.32022076156334,1.37522439898341,1.33775452647947,1.40589597538522,1.40542051173146,1.42559018041234,1.40918251362355,1.36813415151494,1.3776434245903,1.45800512354464,1.48086074479592,1.48110264735661,1.5370488706166,1.40390236462645,1.38600991660308,1.38579303844523,1.40071592399944,1.40009031392869,1.39715411732999,1.39662026340295,1.41135129520214,1.4119018320644,1.41396217456405,1.41335324742853,1.41437924794455,1.41436256500933,1.5299252572777,1.42537330225448,1.48981948100902,1.44637711769635,1.4446587753687,1.50046319367932,1.46348546776438,1.46280146742036,1.46345210189394,1.46367732151941,1.46290156503168,1.44096350521749,1.43962052893229,1.44052140743416,1.44651892264572,1.4375351620298,1.43650082004616,1.46145014966755,1.46426956571971,1.46240941844269,1.45893102644934,1.47486322958436,1.51314222444646,1.45296687710822,1.45107336396076,1.45209936447678,1.43242184238489,1.43038652428806,1.45089819314095,1.45703751330188,1.4662715179461,1.55541678229373,1.55444083058336,1.45928970955657,1.45959834385814,1.45876419709714,1.54780936383345,1.54640799727497,1.43949540691814,1.41176836858264,1.3929750420574,1.38641030704836,1.40321836428243,1.38095498723145,1.37138732388283,1.35488790095033,1.33428447595373,1.33085613276604,1.34280945585111,1.31820212640173,1.31753480899294,1.31908632196839,1.31941998067279,1.32178895747401,1.32072959108755,1.31911134637122,1.31693422332502,1.31601666188792,1.31504905164517,1.38582640431566,1.32768637507425,1.32477520287838,1.31677573544043,1.26580936834358,1.24013433104013,1.21585231882754,1.21022182819082,1.19574104041993,1.18483874225372,1.17033293008,1.13765105998418,1.10601187333961,1.11564626842911,1.11322724282222,1.12286997937934,1.10993236311629,1.10893138700309,1.1030756767409,1.10283377418021,1.09935538218686,1.09831269873562,1.25583297308207,1.21998134529447,1.1191580262929,1.10951528973579,1.10833080133518,1.10646231259055,1.25481531403366,1.08349825226033,1.25168726367992,1.06269463204109,1.05444492057485
1.02947056655063,1.03535964268326,1.03770359508166,1.04275018298568,1.04786350263059,1.05134189462394,1.06734917096745,1.06598117027942,1.06585604826527,1.06408765713196,1.15532662984968,1.06820834213128,1.06817497626084,1.06824170800172,1.08172986112702,1.21643622156024,1.08448254543831,1.08298942273612,1.08361503280687,1.08313122768549,1.08404044765498,1.08345654492228,1.18328722927826,1.08803601064015,1.08709342480022,1.59307850855269,1.08929557224925,1.09020479221874,1.5141765664301,1.1757799084293,1.20264777560098,1.37945352306166,1.0826307396289,1.08288098365719,1.2511617512205,1.46963312939292,1.07051892865924,1.0710778069891,1.0575062391877,1.04291701233788,1.04114862120457,1.06895073274856,1.08212191010469,1.0963691367825,1.0968779663067,1.14169667177501,1.17172595517086,1.17172595517086,1.14648467418313,1.14848662640952,1.17815722669814,1.16937366130485,1.1911949405725,1.25901107224147,1.2955633833083,1.2943038216992,1.31077822022887,1.33210735290753,1.33200725529621,1.36030151342919,1.35931722025122,1.3778185954101,1.4069636832393,1.40630470729811,1.39442645742153,1.41668983447251,1.41687334675993,1.49653436243503,1.40851519621475,1.39812172757274,1.3789029861994,1.399848411368,1.40335182776419,1.39706236118628,1.41724871280238,1.44028784634108,1.40813148870469,1.40924090389682,1.41694007850081,1.41560544368322,1.41434588207411,1.47475479050543,1.42644101010855,1.4145043699587,1.41443763821782,1.44119706631057,1.46426956571971,1.46321854080086,1.46318517493042,1.46342707749111,1.46296829677256,1.44289038423539,1.44175594464044,1.43464901423675,1.43420691645342,1.48537347877291,1.4372015033254,1.43625891748547,1.46587946896844,1.47470474169977,1.46756444542565,1.48644952809459,1.50608534284844,1.53871716413859,1.49353143409545,1.49275567760772,1.4323467691764,1.4522828767642,1.44164750556151,1.44525101956901,1.45224951089376,1.45164058375824,1.50745334353647,1.44819555763532,1.49043674961215,1.49010309090776,1.50457553721103,1.50828749029746,1.43181291524937,1.43258033026948,1.43107886609969,1.42983598742581,1.36448058870178,1.39385089615645,1.35580546238742,1.35507975470536,1.40667173187295,1.34870687345135,1.33885560020399,1.32532573974064,1.32498373956863,1.34924072737839,1.31740134551118,1.3276446677362,1.32828696074217,1.32756125306011,1.33114808413239,1.31989544432655,1.41738217628414,1.32585125220006,1.32515891038844,1.33566081810937,1.33054749846447,1.31227134293105,1.26213078112759,1.24768335922714,1.21819627122594,1.18121020384338,1.18075142312484,1.16426034165995,1.13270456969148,1.11797353789229,1.10649567846099,1.10969880202321,1.10858938683109,1.11490387781182,1.11401134077756,1.11444509709328,1.10023957775352,1.1044937262346,1.18753303629173,1.21361680550807,1.25664209544024,1.12061778312465,1.12017568534132,1.1244298338224,1.30127728862113,1.25027755565384,1.25372258177675,1.07445610137114,1.07139478275828,1.062953217537,1.063787364298
1.03576003312854,1.03920505925145,1.04441013504007,1.04584486746898,1.05007399154723,1.0580067272443,1.17800708028116,1.13116973965124,1.17015775926019,1.17017444219541,1.21078070652069,1.12732432308305,1.15849638754147,1.15372506806857,1.21315802478953,1.09194815894922,1.09289908625675,1.09519298984949,1.08887849886875,1.09017976781591,1.17940010537202,1.09506786783534,1.2305583262239,1.1036595794736,1.23657252437068,1.09600211220766,1.2391834037326,1.09862133303719,1.09983918730824,1.23161769261036,1.17572151815603,1.33953960054801,1.27699527640854,1.27948937522391,1.24763331042148,1.25178736129124,1.25813521814242,1.08706840039739,1.07639132185665,1.04683750211456,1.05469516460314,1.06006706974396,1.05553765283175,1.08300610567134,1.08818615705713,1.09872977211612,1.10565319023238,1.10579499518175,1.14247242826274,1.13820993831405,1.15805428975814,1.16989083229667,1.20152167747363,1.25272160566356,1.27737064245099,1.30833417021915,1.30952700008738,1.37588337492459,1.37636718004597,1.36219502657665,1.37776854660445,1.38584308725088,1.40087441188403,1.4033601692318,1.40300148612457,1.40610451207547,1.45229955969942,1.49765211909477,1.39968158201581,1.39960650880732,1.37758503431703,1.38862913743261,1.38836221046909,1.47830825570727,1.47635635228654,1.41633949283289,1.41124285612321,1.41080909980749,1.4153385167197,1.41532183378448,1.41501319948291,1.44873775302997,1.46047419795718,1.41407061364298,1.41446266262065,1.43995418763669,1.43610877106849,1.46648839610396,1.46295995530495,1.46310176025432,1.49937046142242,1.44438350693757,1.44667741053031,1.43725989359867,1.41939246997814,1.41892534779198,1.46171707663107,1.44907975320198,1.4686988850206,1.45903946552827,1.47470474169977,1.48773411410653,1.48766738236565,1.48024347619278,1.53408764961507,1.51009758876883,1.5115823700034,1.43253862293143,1.42318783774067,1.44148901767692,1.4416391640939,1.43428198966191,1.43157101268868,1.44362443338507,1.44141394446843,1.46605463978825,1.44696936189666,1.50816236828332,1.43541642925687,1.50867119780752,1.45853063600406,1.40049070437397,1.36390502743669,1.36377156395493,1.36687458990584,1.38958840620776,1.36961893274952,1.37799376622991,1.34659648214603,1.32376588529757,1.34295960226809,1.33641155019427,1.33460145172291,1.34265096796652,1.34482809101272,1.32805339964909,1.32785320442645,1.31094504958107,1.32528403240259,1.35452087637549,1.3454787254863,1.35739034123332,1.27939761908021,1.25789331558173,1.24696599301269,1.23530462129397,1.19618313820326,1.17878283676889,1.15472604418177,1.15222360389878,1.11582978071653,1.09062186559924,1.12390432136297,1.12965993401384,1.12860890909499,1.11569631723477,1.118065294036,1.23873296448166,1.24240321023004,1.36161112384396,1.13458974137133,1.18830879277946,1.20974636453705,1.12063446605987,1.11964183141428,1.11906627014919,1.30409670467329,1.12433807767869,1.07614107782835,1.0740890767963,1.07299634453939,1.22447739633624,1.08882010859548
1.04027276710553,1.04156569458507,1.04602003828879,1.04971530844,1.05238457807519,1.10152416376545,1.09284069598348,1.08955415774516,1.08462435038768,1.08515820431471,1.08569205824175,1.08552522888955,1.08837801081216,1.08758557138921,1.08831962053889,1.09138093915174,1.09162284171243,1.09339123284574,1.09434216015328,1.0943588430885,1.09414196493064,1.09602713661049,1.09625235623596,1.09705313712651,1.09697806391802,1.09797069856361,1.09782889361424,1.09733674702525,1.09742850316896,1.09890494293592,1.09891328440353,1.09997265079,1.10335094517203,1.23361964483675,1.23364466923958,1.11222626670903,1.1137944626197,1.08444917956787,1.06553073102848,1.05306023695159,1.05166721186073,1.06081780182885,1.05964999636346,1.08574210704741,1.10348440865379,1.10465221411919,1.10270865216607,1.11867422117153,1.14161325709891,1.14924569996202,1.16733834320802,1.16709644064733,1.18711596291123,1.32154705491333,1.27898888716732,1.29096723465522,1.37821898585538,1.32904603429468,1.34678833590106,1.36598205287157,1.46917434867437,1.39216591969923,1.39719582466804,1.40341855950507,1.40165850983937,1.40635475610377,1.41145973428107,1.39968992348342,1.39989011870606,1.39978167962713,1.41461280903763,1.4067968538871,1.40708880525345,1.41696510290364,1.42017656793347,1.41539690699297,1.41128456346126,1.4112345146556,1.4092242209616,1.41245236892665,1.4124106615886,1.43216325688898,1.42050188517026,1.40265114448495,1.47863357294406,1.42398027716361,1.42856808434909,1.44544287332404,1.43554155127102,1.50626885513585,1.47902562192173,1.44965531446707,1.44919653374852,1.43558325860907,1.44093848081466,1.44665238612748,1.45216609621766,1.45294185270539,1.49494948358914,1.54283784913791,1.55886180841664,1.49127089637315,1.48807611427854,1.48039362260976,1.47915074393588,1.5096554909855,1.51566134766467,1.51326734646061,1.4277339375881,1.42674130294251,1.42645769304377,1.43465735570436,1.4320965251481,1.43192969579591,1.42543169252775,1.42496457034159,1.50902988091475,1.41715695665867,1.41018348973674,1.45062292470982,1.40630470729811,1.39149026082283,1.36648254092817,1.36577351618132,1.36608215048289,1.36564005269957,1.3786527421711,1.35473775453335,1.35429565675002,1.33994833246089,1.3438104319643,1.35767395113206,1.35985107417825,1.39188230980049,1.33625306230968,1.36535644280083,1.30465558300316,1.31085329343736,1.30771690161601,1.29433718756964,1.26469161168385,1.27426761650008,1.2852533293424,1.25776819356758,1.26397424546939,1.19831855391141,1.1951237718168,1.15319955560914,1.12136017374193,1.12357900412618,1.10765514245877,1.12162710070545,1.10883128939177,1.11814036724449,1.11939158738598,1.12099314916709,1.12336212596832,1.13479827806158,1.22690476341074,1.24163579520992,1.11760651331745,1.11749807423852,1.11838226980518,1.11829885512908,1.23235174176004,1.26184717122885,1.09904674788529,1.09338289137813,1.08677644903104,1.07413078413435,1.08586722906156,1.08602571694615,1.08323132529681
1.04396803725674,1.04672072156802,1.05670545829714,1.05751458065531,1.06572258478351,1.06699048786022,1.066973804925,1.10421845780347,1.20540880137987,1.19985338395164,1.09164786611526,1.08396537444649,1.08543347274584,1.08530835073169,1.08572542411219,1.08712679067066,1.08930391371686,1.0894206942634,1.0936915256797,1.09413362346303,1.09456737977875,1.09592703899917,1.09542655094257,1.09524303865515,1.09651928319948,1.09716991767305,1.09743684463657,1.09772045453531,1.1002228948183,1.10003104106327,1.09993094345195,1.10113211478778,1.10582001958458,1.10748831310657,1.45199926686547,1.11141714435086,1.11311046227568,1.09249035434387,1.05748121478487,1.0717451243979,1.06674858529953,1.06006706974396,1.06391248631215,1.09284069598348,1.0864844976647,1.09081371935426,1.08971264562975,1.1035761647975,1.11894948960265,1.14114613491275,1.16094043755119,1.16378487800618,1.20116299436641,1.25599146096666,1.28587059794553,1.29965904390479,1.37418171553216,1.34011516181309,1.34813965365387,1.37729308295068,1.39618650708723,1.49192987231434,1.56501781151279,1.41150978308673,1.3761419604205,1.39981504549757,1.3958194825124,1.41548032166907,1.40114968031516,1.42166134916805,1.41292783258042,1.41509661415901,1.41677324914861,1.42704993724408,1.44570145881995,1.44484228765612,1.41070066072856,1.42633257102962,1.44232316443791,1.44146399327409,1.42594052205195,1.42297930105042,1.38842894220997,1.39526894565014,1.39539406766429,1.4571376109132,1.4729697164369,1.43407345297166,1.50545973277769,1.50726148978144,1.49775221670609,1.45128190065101,1.42896847479437,1.42850969407582,1.42665788826641,1.44118872484296,1.45237463290791,1.4490964361372,1.44818721616771,1.53077608697391,1.53035901359341,1.48845148032098,1.48814284601942,1.5342795033701,1.53362052742891,1.51059807682542,1.51164076027667,1.51055636948737,1.42793413281074,1.42793413281074,1.42848466967299,1.42823442564469,1.43786047926659,1.42355486231551,1.4237133502001,1.47227737462527,1.40837339126538,1.40886553785437,1.40301816905979,1.40650490252075,1.40703041498018,1.40388568169122,1.38253152460973,1.36783385868098,1.3669246387115,1.37730142441829,1.38698586831345,1.34681336030389,1.37008605493567,1.37209634862967,1.35450419344027,1.46700556709578,1.41623105375396,1.37166259231396,1.33230754813017,1.32903769282707,1.30072675175887,1.30076011762931,1.30801719444997,1.32624330117773,1.24679916366049,1.23598862163798,1.23414515729618,1.27691186173244,1.23084193612264,1.18783332912569,1.19525723529855,1.15708667951538,1.10003104106327,1.10045645591138,1.10704621532324,1.13179534972199,1.12974334868994,1.11953339233535,1.12365407733467,1.12633168843747,1.12598968826546,1.12618154202049,1.1230951990048,1.1203258317583,1.11796519642468,1.11560456109106,1.11581309778131,1.11638031757879,1.10934846038359,1.10512767777295,1.10380972589058,1.16139921826973,1.0792858111173,1.07865185957895,1.08518322871754,1.08479952120748,1.08368176454775
1.05381096903649,1.0540695545324,1.05407789600001,1.05740614157638,1.12239451572557,1.06578097505678,1.06613965816401,1.06752434178726,1.06734917096745,1.06626478017816,1.066631804753,1.06743258564355,1.0700684894083,1.07209546603752,1.14421579499322,1.08791923009361,1.09125581713759,1.09398347704605,1.09451733097309,1.09598542927244,1.09711986886739,1.09782889361424,1.10054821205509,1.10263357895758,1.10096528543558,1.1014824564274,1.10014782160981,1.09967235795604,1.09913016256139,1.09892996733875,1.0992219187051,1.1007233828749,1.10208304209532,1.10408499432171,1.1045771409107,1.10599519040439,1.31370607535996,1.21247402444551,1.09861299156958,1.08873669391939,1.06701551226305,1.06699882932783,1.07421419881045,1.06932609879101,1.09097220723885,1.08684318077192,1.09305757414134,1.12636505430791,1.11912466042246,1.13634979103703,1.14530852725012,1.16359302425115,1.21901373505172,1.24138555118162,1.26166365894143,1.33999003979894,1.29610557870295,1.33343364625752,1.35709004839936,1.3691017617577,1.36452229603983,1.36486429621184,1.36865132250676,1.39159869990176,1.37668415581515,1.37671752168559,1.37642557031924,1.43811906476249,1.40131650966736,1.41236895425055,1.42475603365134,1.42164466623283,1.42958574339751,1.49865309520796,1.44556799533819,1.44544287332404,1.44521765369857,1.4615752716817,1.4403045292763,1.4375351620298,1.41286944230715,1.38696084391062,1.38681069749364,1.38648538025685,1.3969122147693,1.4145877846348,1.42031003141523,1.42100237322686,1.43726823506628,1.48448928320625,1.4506062417746,1.42610735140415,1.4284930111406,1.42549008280102,1.42574032682932,1.45320877966891,1.45023921719976,1.45178238870761,1.45204931567113,1.47937596356135,1.54736726605012,1.49317275098822,1.49245538477376,1.49165460388321,1.48727533338798,1.48668308918767,1.45834712371664,1.43893652858827,1.43853613814299,1.43179623231415,1.43741004001565,1.44611019073283,1.43248857412577,1.42342974030136,1.42310442306457,1.50702792868836,1.40896563546569,1.40670509774339,1.39675372688471,1.39642006818031,1.39489357960769,1.39362567653098,1.42463091163719,1.39244118813036,1.37541625273844,1.35079224035384,1.34708862873502,1.34835653181173,1.37859435189783,1.36026814755875,1.37120381159541,1.37009439640328,1.37542459420605,1.40078265574032,1.34699687259131,1.31534934447913,1.31743471138162,1.28661298856282,1.27768761822016,1.27318322571079,1.22833949583965,1.22677964139659,1.21864671047688,1.24107691688006,1.20271450734186,1.17022449100107,1.14464120984133,1.17187610158784,1.16861458775235,1.13631642516659,1.1364081813103,1.11453685323699,1.12417124832649,1.12362071146423,1.12884247018807,1.12844207974279,1.12882578725285,1.12528900498622,1.12352061385291,1.12025910001742,1.11847402594889,1.11733958635393,1.11694753737626,1.10947358239774,1.10874787471568,1.10617870269181,1.09882986972744,1.09766206426204,1.07825981060128,1.08483288707792,1.08575878998263,1.08400708178454,1.08374849628863
1.05327711510945,1.05381096903649,1.05506218917798,1.05702243406632,1.06110141172759,1.06820834213128,1.06845024469197,1.06679863410519,1.06688204878129,1.0670572196011,1.06732414656462,1.06590609707093,1.06602287761747,1.07202873429664,1.19146186753602,1.08382356949712,1.08588391199678,1.08689322957758,1.09392508677278,1.10140738321891,1.10147411495979,1.10166596871482,1.10271699363368,1.1029088473887,1.10319245728744,1.10351777452423,1.10335928663964,1.10447704329938,1.09903840641768,1.10053152911987,1.10108206598212,1.10234996905884,1.26234765928545,1.10338431104247,1.10433523835001,1.10494416548553,1.10560314142672,1.13496510741377,1.1376677429194,1.07470634539943,1.08460766745246,1.0839737159141,1.06552238956087,1.07966117715975,1.09189811014356,1.10515270217578,1.107179678805,1.11909963601963,1.12121002732495,1.14539194192622,1.15780404572984,1.18146044787168,1.18287849736538,1.21332485414172,1.23135076564684,1.3342594515509,1.33250774335281,1.3144067586392,1.34881531253028,1.35422892500914,1.36512288170775,1.36457234484549,1.36350463699142,1.36239522179929,1.38976357702757,1.37424010580543,1.38274840276759,1.38840391780714,1.42171973944132,1.43411516030971,1.43285559870061,1.42223691043313,1.4617421010339,1.46913264133632,1.51282524867728,1.45242468171357,1.45339229195633,1.47241917957464,1.44707780097559,1.43967891920556,1.41691505409798,1.41402056483732,1.40023211887806,1.38915464989204,1.3889544546694,1.38859577156217,1.42298764251803,1.42035173875328,1.43394833095752,1.42783403519942,1.42785071813464,1.45830541637859,1.45343399929438,1.44889624091456,1.45597814691542,1.46098302748139,1.46931615362374,1.45216609621766,1.45221614502332,1.47297805790451,1.50986402767575,1.52736442672144,1.49801914366961,1.48351333149589,1.48416396596946,1.46934951949418,1.49102899381246,1.43884477244456,1.43908667500525,1.43878638217129,1.42384681368186,1.42552344867146,1.42895179185915,1.42638261983528,1.41775754232659,1.41723202986716,1.40460304790568,1.40346026684312,1.39722084907087,1.39470172585266,1.39477679906115,1.38826211285777,1.38974689409235,1.37248839760734,1.35579712091981,1.37766844899313,1.34666321388691,1.34293457786526,1.37872781537959,1.36184468493703,1.36099385524082,1.37638386298119,1.3758917163922,1.37574156997523,1.36101053817604,1.30649070587735,1.28578718326943,1.27027205351491,1.27259932297809,1.22984930147705,1.22368495691329,1.2203400284017,1.24460535767907,1.24787521298217,1.1669796601008,1.16769702631525,1.12372080907555,1.11758148891462,1.11762319625267,1.12366241880228,1.13760101117852,1.1436152093253,1.12533905379188,1.12813344544122,1.12844207974279,1.12905934834592,1.12872568964153,1.12647349338684,1.12523895618056,1.12396271163624,1.12298675992587,1.11366934060555,1.11275177916846,1.11066641226597,1.10868948444241,1.10568655610282,1.09858796716675,1.09744518610418,1.09091381696558,1.08861991337285,1.08609244868703,1.08535005806974,1.08329805703769
1.05522901853018,1.05914950830686,1.05992526479459,1.06239433920714,1.06264458323544,1.0645380963829,1.06952629401365,1.36462239365115,1.13868540196782,1.07873527425505,1.07202873429664,1.06885063513724,1.19725918752494,1.07486483328402,1.14420745352561,1.08457430158202,1.0848996188188,1.08730196149047,1.09073030467817,1.09130586594325,1.10132396854281,1.1008151390186,1.10303396940285,1.10129894413998,1.10596182453395,1.10691275184148,1.11184255919897,1.10983226550497,1.10931509451315,1.30454714392423,1.27196537143973,1.25743453486318,1.1134608039153,1.10676260542451,1.27846337470789,1.28817284300588,1.11140046141564,1.09535981920169,1.09555167295672,1.11792348908663,1.06954297694887,1.06970146483346,1.08666800995212,1.08886181593353,1.08095410463929,1.09830435726801,1.10350109158901,1.1033259207692,1.12636505430791,1.12084300275012,1.15703663070972,1.17647225024093,1.18175239923803,1.19609138205955,1.22743027587016,1.24148564879294,1.29483767562624,1.33390076844367,1.31089500077541,1.35987609858108,1.36339619791249,1.3680173709684,1.36371317368167,1.36370483221406,1.36695800458194,1.37595010666547,1.35392029070757,1.35371175401732,1.38281513450847,1.44366614072312,1.40329343749092,1.41704851757974,1.47223566728722,1.4676895674398,1.46795649440332,1.42739193741609,1.42871823076607,1.42947730431858,1.41447934555587,1.41452939436153,1.42311276453218,1.42630754662679,1.38868752770588,1.38832884459865,1.38826211285777,1.3921408952964,1.42298764251803,1.42071876332812,1.49215509193981,1.48475621016977,1.43194637873113,1.44584326376932,1.45774653804873,1.4508564858029,1.45590307370693,1.46644668876591,1.47216059407873,1.47060073963567,1.45465185356543,1.45482702438524,1.47402074135576,1.47786615792395,1.47794957260005,1.47770767003936,1.51131544303988,1.50212314573371,1.45038102214913,1.45837214811947,1.44761999637024,1.45807185528552,1.42901852360003,1.41306129606218,1.40879046464588,1.40132485113497,1.41824968891557,1.41749895683068,1.41708188345018,1.48667474772006,1.48730035779081,1.40999163598171,1.40007363099347,1.37777688807206,1.36420532027065,1.3631542953518,1.35541341340976,1.35306111954375,1.34350179766274,1.34241740687344,1.38448342803046,1.35649780419905,1.3556136086324,1.37529113072429,1.40310158373589,1.37122883599824,1.36606546754767,1.35672302382452,1.29970075124284,1.29675621317653,1.29483767562624,1.2323183758896,1.22049851628629,1.22125758983879,1.25105331214157,1.26074609750434,1.16097380342163,1.13284637464085,1.12766632325506,1.11832387953191,1.11715607406651,1.1478860407416,1.13479827806158,1.12655690806294,1.12817515277927,1.13484832686724,1.13256276474211,1.13222910603771,1.13177866678677,1.1278665184777,1.12347056504725,1.12319529661612,1.11874929438002,1.11719778140456,1.11704763498758,1.1092733871751,1.10725475201349,1.10580333664936,1.10158255403872,1.10029796802679,1.09448396510265,1.09422537960674,1.09130586594325,1.08747713231028,1.08763562019487
1.05428643269026,1.05748121478487,1.05988355745654,1.06225253425777,1.064621511059,1.06679863410519,1.14510833202748,1.08036186043899,1.07999483586415,1.07735059063179,1.07695854165412,1.08026176282767,1.08081229968992,1.08338147171379,1.08972098709736,1.08354830106599,1.08421561847479,1.08706840039739,1.09161450024482,1.09070528027534,1.09525972159037,1.09604381954571,1.09747855197462,1.09918855283466,1.10154084670067,1.10285045711543,1.11040782677006,1.12388763842775,1.1145451947046,1.11407807251844,1.11306875493763,1.11264334008953,1.112034412954,1.32178895747401,1.1204926611105,1.12051768551333,1.31187095248577,1.24216130766935,1.07871024985222,1.07877698159309,1.06457146225334,1.06972648923629,1.073838832768,1.13714223045997,1.10344270131574,1.2267879828642,1.11626353703225,1.101982944484,1.1149706095527,1.11431997507913,1.14498321001334,1.33762106299771,1.32457500765574,1.18578132809364,1.19645840663439,1.24758326161582,1.29750694526142,1.28842308703418,1.3541121444626,1.39210752942596,1.36842610288129,1.36813415151494,1.36971903036084,1.36417195440021,1.36548990628259,1.39572772636869,1.355279949928,1.35455424224593,1.38134703620912,1.3708618114234,1.39409279871713,1.38063801146227,1.47776606031263,1.46882400703475,1.50981397887009,1.4555443905997,1.42055193397592,1.41281939350149,1.41429583326845,1.41447100408826,1.42025998260957,1.39209084649074,1.3928916273813,1.4090573916094,1.41520505323794,1.4229626181152,1.41818295717469,1.49229689688917,1.44642716650201,1.44575150762561,1.44302384771715,1.44325740881023,1.45199092539786,1.45168229109629,1.45815526996161,1.50870456367796,1.47184361830956,1.47015864185234,1.46824010430205,1.46136673499145,1.47378718026268,1.48200352585849,1.48975274926814,1.48961094431877,1.48985284687946,0.00350821274005827,1.45885595324085,1.45570287848429,1.42093564148598,1.41496315067725,1.41412066244864,1.41789934727596,1.4094744649899,1.40647153665031,1.40934934297575,1.41719866399672,1.41702349317691,1.50364129283872,1.44963863153185,1.44731970353628,1.413920467226,1.44470882417436,1.36528136959234,1.3493324835221,1.39340045690551,1.39250791987124,1.36629068717314,1.34876526372462,1.37176268992527,1.37147908002654,1.3666743946832,1.39604470213786,1.41222714930118,1.50626885513585,1.40949114792512,1.36002624499806,1.2530886302384,1.25021916538057,1.22158290707558,1.21972275979856,1.19918606654284,1.17581327429974,1.17280200449255,1.15849638754147,1.152240286834,1.13200388641224,1.13256276474211,1.1266903715447,1.12932627530944,1.13137827634149,1.13610788847634,1.13646657158357,1.1291260800868,1.13309661866914,1.13182871559243,1.13011871473239,1.12791656728336,1.12641510311357,1.12313690634285,1.11910797748724,1.1179818793599,1.11728953754827,1.1143783653524,1.11391124316624,1.10925670423988,1.10566153169999,1.10028962655918,1.09772045453531,1.0970447956589,1.09323274496115,1.0915144026335,1.08887849886875,1.08587557052917
1.060942923843,1.05997531360025,1.06151848510809,1.06421277914611,1.0719119537501,1.0729212713309,1.2011546528988,1.08113761692671,1.08050366538836,1.07858512783807,1.07796785923493,1.08082064115753,1.08193005634966,1.08491630175402,1.08897859648007,1.08990449938478,1.09406689172215,1.09328279376681,1.09436718455611,1.09349967192467,1.09437552602372,1.09518464838188,1.09699474685324,1.09882152825983,1.10012279720698,1.10109040744973,1.10244172520255,1.10358450626511,1.10496084842075,1.1096070458795,1.11003246072761,1.11265168155714,1.1141281213241,1.11829051366147,1.11910797748724,1.12000051452151,1.11956675820579,1.11855744062499,1.11801524523034,1.13437286321347,1.06191053408576,1.06962639162497,1.08039522630943,1.12750783537047,1.12664866420665,1.12353729678813,1.12232778398469,1.10326753049593,1.10921499690183,1.1376677429194,1.1410210128986,1.15320789707675,1.17212634561614,1.17398649289316,1.20733568039777,1.27064741955736,1.27651981275477,1.28801435512129,1.30339602139406,1.32406617813153,1.42060198278158,1.41813290836903,1.4104837825707,1.41124285612321,1.38738625875873,1.38858743009456,1.3899637722502,1.38639362411314,1.39164040723981,1.38647703878924,1.38052123091573,1.3576239023264,1.37273030016803,1.38993874784737,1.4825206968503,1.40582090217674,1.40658831719685,1.41228553957445,1.41543027286341,1.41467954077851,1.40871539143739,1.40876544024305,1.40871539143739,1.40939939178141,1.41436256500933,1.48383030726507,1.43848608933733,1.47186864271239,1.44589331257498,1.44592667844542,1.44299048184671,1.47528864443247,1.45857234334211,1.45168229109629,1.46144180819994,1.46097468601378,1.4681149822879,1.47074254458504,1.47216893554634,1.46189224745088,1.46178380837195,1.48535679583769,1.48987787128229,1.48986952981468,1.48896030984519,1.47870864615255,1.5829519668742,1.44580989789888,1.41509661415901,1.41553871194234,1.42390520395513,1.41553037047473,1.393475530114,1.39162372430459,1.40205055881703,1.40542885319907,1.42195330053439,1.45819697729966,1.40387734022361,1.40301816905979,1.44696936189666,1.3688515177294,1.35839131734651,1.42535661931926,1.32038759091554,1.36385497863103,1.36258707555432,1.31916139517688,1.31157065965181,1.32254803102652,1.32196412829382,1.30287050893463,1.33364218294776,1.34837321474695,1.29331118705362,1.28587059794553,1.23561325559553,1.23054164328868,1.21559373333163,1.18517240095811,1.16638741590049,1.16567839115364,1.16582853757062,1.15242379912142,1.15229867710727,1.13343027737354,1.14819467504317,1.13441457055152,1.14308969686587,1.1377511575955,1.13896067039894,1.13815154804078,1.13543222959993,1.13397247276819,1.13262949648299,1.13096120296099,1.12851715295128,1.12764964031984,1.1189077822646,1.11893280666743,1.11814036724449,1.11593821979546,1.11425324333825,1.11260997421909,1.10794709382512,1.10640392231728,1.10398489671039,1.10346772571857,1.0977121130677,1.09747855197462,1.09580191698502,1.09681957603343,1.09144767089262
1.06623975577533,1.06614799963162,1.06712395134198,1.06988497712088,1.07121961193847,1.07240410033909,1.07451449164441,1.08270581283739,1.08333976437574,1.08500805789773,1.08887015740114,1.2012464090425,1.09494274582119,1.0950345019649,1.09847952808782,1.09865469890763,1.10275035950412,1.1026502618928,1.10071504140729,1.10109874891734,1.10160757844155,1.09686962483909,1.09977245556736,1.10048148031421,1.10057323645792,1.10102367570885,1.10182445659941,1.10383475029341,1.10454377504026,1.10597016600156,1.10807221583927,1.11104177830841,1.11389456023102,1.11738963515959,1.11745636690047,1.11638031757879,1.11678904949168,1.12009227066522,1.12040090496679,1.12447154116045,1.06271131497631,1.06337863238511,1.06357048614014,1.06811658598757,1.06418775474328,1.07147819743438,1.07851005462958,1.09364147687404,1.10923167983705,1.12473012665636,1.13876881664392,1.14485808799919,1.16126575478797,1.17849088540254,1.19866889555103,1.21290778076123,1.26407434308071,1.26257287891092,1.29592206641553,1.36266214876281,1.35656453593993,1.39544411646995,1.34587911593157,1.38215615856728,1.38847064954802,1.38865416183544,1.35663126768081,1.35627258457358,1.34909058096141,1.34960775195323,1.35849975642544,1.35696492638521,1.35698160932043,1.38638528264553,1.3780688394384,1.47783279205351,1.46924942188286,1.41405393070776,1.41198524674049,1.47992650042361,1.47923415861198,1.41767412765049,1.40825661071884,1.40768939092137,1.40610451207547,1.48954421257789,1.49546665458096,1.47315322872432,1.47334508247935,1.43615881987415,1.43710974718169,1.43039486575567,1.45813858702639,1.45798844060942,1.45212438887961,1.45154882761453,1.47525527856203,1.47882542669909,1.46349380923199,1.46151688140843,1.4791674268711,1.48100254974529,1.59173553226749,1.59007558021311,1.58426991875658,1.60108631745825,1.54145316551466,1.53685701686157,1.4237967648762,1.46014888072039,1.42694983963276,1.3949853357514,1.39463499411178,1.39131509000302,1.38965513794864,1.38430825721065,1.42617408314503,1.43600033198956,1.46259293073011,1.54690014386396,1.35734863389527,1.35815775625343,1.34193360175206,1.42001808004888,1.33385906110562,1.34005677153982,1.31353090454016,1.31384788030933,1.31171246460118,1.29674787170892,1.28159976652923,1.27766259381733,1.29999270260919,1.30030967837837,1.28654625682194,1.27280785966834,1.22756373935192,1.22320949325953,1.19316352692845,1.17656400638464,1.17356941951266,1.18196093592828,1.14822804091361,1.12997690978302,1.14947091958749,1.13570749803106,1.13562408335496,1.14035369548981,1.13989491477126,1.14262257467972,1.14082915914358,1.14023691494327,1.13222910603771,1.13199554494463,1.13167856917545,1.12655690806294,1.1251889073749,1.12492198041138,1.12035919762874,1.11897451400548,1.11773997679921,1.11668061041275,1.11435334094957,1.11205109588922,1.10823070372386,1.10835582573801,1.10769684979682,1.10873953324807,1.10976553376409,1.10408499432171,1.55042858466297,1.17819059256858,1.10463553118397
1.06574760918634,1.06625643871055,1.06804151277908,1.07138644129067,1.07429761348655,1.1901856229917,1.18510566921724,1.08398205738171,1.08639274152099,1.08771069340336,1.0918480613379,1.0925987934228,1.09374991595297,1.09438386749133,1.09797069856361,1.09994762638717,1.10177440779375,1.10204133475727,1.10069835847207,1.10149913936262,1.10316743288461,1.10270031069846,1.1046605555868,1.10539460473647,1.10574494637609,1.10599519040439,1.10543631207452,1.10749665457418,1.10863943563675,1.10507762896729,1.10813060611254,1.26806990606588,1.26281478147161,1.11704763498758,1.11746470836808,1.11846568448128,1.117231147275,1.11841563567562,1.11825714779103,1.12096812476426,1.05961663049302,1.05841545915719,1.05826531274021,1.07125297780891,1.062611217365,1.08632600978011,1.07464795512617,1.09561006322999,1.18915962247567,1.13536549785905,1.14044545163352,1.15387521448555,1.1548344832607,1.18839220745556,1.1966335774542,1.23679774399615,1.24430506484511,1.27633630046735,1.29819094560544,1.29801577478563,1.35573873064654,1.35849141495783,1.37407327645323,1.35413716886543,1.34845662942305,1.3334169633223,1.33081442542799,1.33058920580252,1.36011800114177,1.34224223605363,1.34183350414074,1.38408303758518,1.35604736494811,1.40673012214622,1.37780191247489,1.37716796093653,1.4696164464577,1.41301124725652,1.41165992950371,1.40592934125566,1.41552202900712,1.39939797211707,1.40688861003081,1.40347694977834,1.40466977964656,1.48658299157635,1.47518020535354,1.47293635056646,1.50146416979252,1.40402748664059,1.48433913678927,1.41603919999893,1.43721818626062,1.43846940640211,1.45802180647986,1.46338537015306,1.45803014794747,1.4715433254756,1.46421951691405,1.46177546690434,1.46631322528415,1.47031712973693,1.46881566556714,1.58228464946541,1.4401376999241,1.42994442650473,1.42303769132369,1.44203955453917,1.43332272088677,1.43696794223232,1.42386349661708,1.40020709447523,1.38212279269684,1.3799957184563,1.3775600099142,1.37730142441829,1.42360491112117,1.59319528909923,1.5927531913159,1.35124267960478,1.3540287297865,1.33118979147044,1.34170838212659,1.35741536563615,1.31504071017756,1.33704550173263,1.30593182754748,1.28954084369391,1.28280927933268,1.27283288407117,1.27027205351491,1.24962692118026,1.29435387050486,1.29178469848099,1.28506981705498,1.26946293115674,1.27974796071982,1.22750534907865,1.17309395585889,1.17186776012023,1.15996448584082,1.13841013353669,1.14101267143099,1.13601613233263,1.1371672548628,1.1642186343219,1.13885223132002,1.13765940145179,1.1450416002866,1.14416574618756,1.14376535574228,1.14047047603635,1.13584096151282,1.13391408249492,1.1326378379506,1.13286305757607,1.12482188280007,1.12347056504725,1.12115163705168,1.12332876009788,1.1236791017375,1.23718979297382,1.11472870699202,1.11345246244769,1.11096670509992,1.10948192386535,1.11049124144616,1.10974050936126,1.11206777882444,1.11160065663828,1.11147553462413,1.10481904347138,1.10447704329938
1.07101941671583,1.21908880826021,1.2000702621095,1.08031181163333,1.18488879105938,1.1880084999455,1.18445503474366,1.18583971836691,1.18357918064461,1.10476899466573,1.15531828838207,1.15027170047805,1.10481904347138,1.10496918988836,1.10811392317732,1.10940685065686,1.10904816754963,1.10879792352134,1.10883128939177,1.108847972327,1.10890636260026,1.11054963171943,1.11164236397633,1.11196768121312,1.10781363034336,1.1092733871751,1.20915412033675,1.10771353273204,1.10888967966504,1.10853933802543,1.10988231431063,1.1133773892392,1.11754812304418,1.27244917656111,1.12896759220221,1.12362071146423,1.28191674229841,1.36797566363035,1.11759817184984,1.1154710976093,1.37222147064382,1.08249727614714,1.14497486854573,1.15194833546765,1.09788728388751,1.0831395691531,1.08298108126851,1.13790964548009,1.1403453540222,1.1806346425783,1.15007984672302,1.14828643118688,1.18010078865126,1.17621366474502,1.19207913613916,1.21277431727947,1.23108383868333,1.27155663952684,1.28769737935211,1.30741660878206,1.32549256909284,1.33455974438486,1.35033345963529,1.34855672703437,1.3487485807894,1.34812297071865,1.33052247406164,1.3295632052865,1.32983013225001,1.33782959968796,1.35061706953403,1.40290138851325,1.37478230120008,1.36890156653506,1.40617124381635,1.37651732646295,1.40399412077015,1.46487015138763,1.44334082348633,1.40642148784465,1.38555947735215,1.39781309327118,1.40689695149842,1.40281797383715,1.40135821700541,1.45813024555878,1.50500929352675,1.5388089202823,1.4114847586839,1.40361875472771,1.48181167210346,1.40111631444472,1.39999855778498,1.44376623833444,1.43937028490399,1.66031073748896,1.45167394962868,1.4733033751413,1.59029245837097,1.42457252136392,1.3927247980291,1.39292499325174,1.39140684614673,1.397838117674,1.4238801795523,1.42161964183,1.42273739848973,1.44898799705827,1.43273881815407,1.37690103397301,1.37754332697898,1.38565123349586,1.38391620823298,1.38339069577356,1.38034606009592,1.35936726905688,1.42890174305349,1.38145547528805,1.32331544604664,1.3189278340838,1.31639202793037,1.32565939844503,1.32494203223058,1.33047242525598,1.36211995336816,1.36509785730492,1.29116742987786,1.26821171101525,1.2879392819128,1.26141341491313,1.25222945907457,1.24628199266867,1.23359462043392,1.24746648106928,1.24123540476465,1.25306360583557,1.22280076134664,1.21010504764428,1.17042468622371,1.16819751437185,1.15410043411102,1.18491381546221,1.13424774119932,1.13248769153362,1.13542388813232,1.14027862228132,1.13956125606686,1.29678123757936,1.14660145472967,1.14591745438565,1.14490813680485,1.3198537369885,1.31131207415591,1.13410593624995,1.13221242310249,1.13185373999526,1.13633310810181,1.23772364690085,1.12342051624159,1.12299510139348,1.12291168671738,1.12268646709192,1.11947500206208,1.11610504914766,1.11466197525114,1.12055105138377,1.23803228120242,1.25894434050059,1.12905100687831,1.2078611928572,1.11336070630398,1.11159231517067,1.11217621790337
1.08678479049865,1.08562532650087,1.08632600978011,1.09006298726937,1.09650260026426,1.09566845350326,1.09720328354349,1.09636079531489,1.10129894413998,1.10145743202457,1.10179109072897,1.10143240762174,1.10288382298587,1.10266694482802,1.10579499518175,1.10632050764118,1.10836416720562,1.10819733785342,1.10740489843047,1.10722972761066,1.10782197181097,1.1096904605556,1.11091665629426,1.11156729076784,1.11194265681029,1.11414480425932,1.11462026791309,1.11535431706276,1.11602997593917,1.11597992713351,1.11541270733603,1.12623993229376,1.21798773453569,1.31979534671523,1.3367702333015,1.12919281182768,1.33852194149959,1.37512430137209,1.38696918537823,1.33768779473859,1.23865789127317,1.10914826516095,1.1077635815377,1.11498729248792,1.13550730280842,1.12065114899509,1.13916086562158,1.13747588916437,1.17491239579787,1.12463837051265,1.15259062847362,1.15890511945436,1.16655424525269,1.18988533015774,1.18812528049204,1.19964484726139,1.22291754189318,1.2272050562447,1.26181380535841,1.26480839223039,1.32678549657238,1.35438741289373,1.375382886868,1.32689393565131,1.32880413173399,1.32901266842424,1.3371038920059,1.33759603859489,1.34806458044538,1.34229228485929,1.34863180024286,1.3636547834084,1.3686846883772,1.36920185936902,1.43029476814435,1.44799536241269,1.44796199654225,1.38779499067162,1.43931189463072,1.36972737182845,1.38979694289801,1.38978025996279,1.4200347629841,1.44997229023625,1.45040604655196,1.42671627853968,1.42933549936921,1.41492978480681,1.48039362260976,1.40971636755059,1.38758645398137,1.38760313691659,1.41063392898768,1.42970252394405,1.49557509365989,1.57079844856649,1.41052548990875,1.40130816819975,1.38407469611757,1.3835908909962,1.3867773316232,1.39342548130834,1.40303485199501,1.40301816905979,1.40286802264281,1.42654944918748,1.42249549592904,1.41778256672942,1.43279720842734,1.37387308123059,1.37670918021798,1.3758083017161,1.38885435705808,1.34767253146771,1.35742370710376,1.34676331149823,1.35170146032332,1.3648309303414,1.32320700696771,1.31456524652379,1.27749576446513,1.32829530220978,1.29699811573722,1.31439007570398,1.3057816811305,1.28218366926193,1.27102278559981,1.26591780742251,1.26408268454832,1.26548405110679,1.24440516245643,1.24130213650553,1.19200406293067,1.19202074586589,1.24970199438875,1.23860784246751,1.26299829375903,1.20485826451762,1.16362639012159,1.20992153535686,1.16874805123411,1.12817515277927,1.13302988692826,1.13286305757607,1.14086252501402,1.16351795104266,1.15017160286673,1.14825306531644,1.14209706222029,1.14096262262533,1.30196128896514,1.12774139646355,1.12666534714187,1.12505544389314,1.13301320399304,1.13498179034899,1.13559071748452,1.13078603214119,1.12957651933774,1.12300344286109,1.12293671112021,1.12363739439945,1.1230117843287,1.12132680787149,1.12027578295264,1.12026744148503,1.12132680787149,1.12265310122148,1.12329539422744,1.12296173552304,1.11819041605015,1.11496226808509,1.11352753565618
1.0869933271889,1.08459098451724,1.08625927803923,1.08868664511373,1.09255708608475,1.09627738063879,1.09531811186364,1.09876313798656,1.09832104020323,1.09911347962617,1.09986421171107,1.10143240762174,1.10176606632614,1.10264192042519,1.10346772571857,1.10667919074841,1.10920665543422,1.31705100387156,1.10652070286382,1.11200938855117,1.109189972499,1.10959036294428,1.11047455851094,1.11174246158765,1.112034412954,1.11357758446184,1.11445343856089,1.11485382900616,1.11624685409703,1.11740631809481,1.12427968740542,1.21116441403075,1.21701178282533,1.25934473094587,1.34850667822871,1.36869302984481,1.23129237537357,1.3426342850313,1.23506271873328,1.23557154825748,1.24853418892336,1.27141483457748,1.2675861009445,1.25959497497416,1.15501799554812,1.16177458431218,1.14097096409295,1.13846018234235,1.13031056848742,1.13902740213982,1.20453294728083,1.18833381718229,1.1725100531262,1.17013273485736,1.18228625316507,1.20439948379907,1.20552558192641,1.26796146698695,1.24760828601865,1.26639327107628,1.28685489112351,1.40056577758246,1.40650490252075,1.35956746427952,1.33311667048834,1.33935608826059,1.34589579886679,1.3425508703552,1.34838989768217,1.34797282430167,1.34935750792493,1.45567785408146,1.45868078242104,1.36292907572633,1.38490884287857,1.38334898843551,1.42565691215322,1.38087157255535,1.38515908690687,1.37472391092681,1.35353658319752,1.39759621511332,1.39568601903064,1.41680661501905,1.45009741225039,1.45287512096451,1.42910193827613,1.40657997572924,1.39966489908059,1.38808694203796,1.38805357616752,1.38600157513547,1.38487547700813,1.40917417215594,1.46703893296622,1.42071042186051,1.4026094371469,1.38319884201853,1.38308206147199,1.38269835396193,1.38892943026657,1.3879534785562,1.40290972998086,1.39758787364571,1.39757119071049,1.41706520051496,1.45802180647986,1.42267066674885,1.41520505323794,1.4119935882081,1.37648396059251,1.37667581434754,1.35656453593993,1.34265096796652,1.34248413861432,1.32858725357613,1.32256471396174,1.36518127198102,1.32704408206829,1.32042095678598,1.29095055172,1.27664493476892,1.28825625768198,1.28635440306691,1.29668113996804,1.29729840857118,1.26518375827284,1.2634820988804,1.26475834342473,1.25293848382142,1.23430364518077,1.23042486274214,1.19051094022849,1.19616645526804,1.27705366668181,1.27869693580097,1.20900397391977,1.20687689967923,1.15012155406107,1.15590219111477,1.12664032273904,1.1376677429194,1.1362413519581,1.14040374429547,1.13987823183604,1.14905384620699,1.14701852811016,1.1462928204281,1.14886199245197,1.32926291245254,1.28412723121505,1.28209191311822,1.34617940876553,1.29301923568727,1.13523203437729,1.13814320657317,1.13788462107726,1.13605783967068,1.13424774119932,1.13282969170563,1.13043569050157,1.12626495669659,1.12397939457146,1.12095144182904,1.12261139388343,1.12608978587678,1.12418793126171,1.12810007957078,1.12825022598776,1.12628998109942,1.1261898834881,1.11899953840831,1.11988373397497
1.08610079015464,1.08635937565055,1.08692659544802,1.09129752447564,1.09409191612498,1.09819591818908,1.09772879600292,1.0986296745048,1.10082348048622,1.10390148203429,1.10342601838052,1.10607860508049,1.10569489757043,1.3133974410584,1.17746488488651,1.31656719875018,1.31798524824387,1.32283998239287,1.2023307998318,1.20814480275594,1.19544074758597,1.19579108922559,1.19659187011615,1.20361538584373,1.20298143430538,1.18922635421655,1.20212226314155,1.20157172627929,1.1196585143495,1.12008392919761,1.12569773689911,1.12565602956106,1.31308046528922,1.30609031543207,1.30589012020943,1.16637073296527,1.16686287955426,1.32042095678598,1.31105348866,1.27118961495201,1.39485187226964,1.33654501367603,1.38357420806098,1.3477476046762,1.31199607449992,1.18098498421792,1.16351795104266,1.13851023114801,1.16766366044481,1.1410210128986,1.16083199847226,1.18355415624178,1.17268522394601,1.17289376063626,1.18686571888294,1.18978523254642,1.19650845544005,1.19821011483248,1.22518642108309,1.28867333106248,1.27098107826176,1.3108032446317,1.33081442542799,1.40706378085062,1.40230914431294,1.32528403240259,1.32901266842424,1.32064617641145,1.33121481587327,1.35443746169939,1.4318379396522,1.37781025394249,1.35548848661825,1.42935218230443,1.38399128144147,1.38420815959933,1.36307922214331,1.38586811165371,1.36367980781123,1.36259541702193,1.36564839416718,1.40426938920128,1.46688044508163,1.40633807316855,1.4154219313958,1.4153385167197,1.41050046550592,1.39988177723844,1.39982338696518,1.39216591969923,1.39002216252347,1.38435830601631,1.38480874526725,1.39148191935522,1.48910211479456,1.39172382191591,1.38500894048989,1.36672444348886,1.36488097914706,1.36664937028037,1.39137348027629,1.38907123521594,1.39836363013343,1.39689553183408,1.39727923934414,1.41127622199365,1.39731260521458,1.40124977792648,1.40999163598171,1.40919919655877,1.40919085509116,1.38128030446824,1.32515891038844,1.32541749588435,1.31106183012761,1.31031943951032,1.31175417193923,1.36758361465269,1.32501710543907,1.32033754210988,1.24341252781084,1.24330408873191,1.2803985951934,1.26228926901218,1.26093795125937,1.29613060310578,1.29482933415863,1.24050969708258,1.24045130680931,1.25096989746547,1.21041368194585,1.20499172799938,1.18977689107881,1.19020230592692,1.27726220337206,1.24005925783164,1.19084459893289,1.17235990670922,1.18562284020905,1.12973500722233,1.12762461591701,1.13499847328421,1.13463979017699,1.14069569566182,1.14927906583246,1.14944589518466,1.14809457743185,1.14675160114665,1.14615101547873,1.14339833116744,1.14245574532752,1.14033701255459,1.13866037756499,1.13976979275711,1.13903574360743,1.13834340179581,1.13728403540934,1.13654164479206,1.13388071662448,1.13311330160436,1.13084442241446,1.12623993229376,1.12378754081643,1.12313690634285,1.12520559031012,1.12879242138241,1.1284504212104,1.12775807939877,1.12813344544122,1.12779978673682,1.12730764014783,1.12167714951111,1.12007558773
1.09502616049729,1.09677786869539,1.09638581971772,1.09757864958594,1.09807913764254,1.0993887480573,1.10195792008117,1.10347606718618,1.10366792094121,1.10350943305662,1.10429353101196,1.11004080219522,1.11789012321619,1.1425224770684,1.29306094302532,1.12832529919625,1.15838794846254,1.15036345662176,1.14172169617784,1.142188818364,1.14883696804914,1.1642186343219,1.34199199202533,1.22155788267275,1.36931863991556,1.16984078349101,1.15133940833212,1.17590503044345,1.1927798194184,1.17651395757898,1.13486500980246,1.21420070824077,1.30484743675819,1.15596892285565,1.15631926449527,1.16570341555647,1.16380990240901,1.16408517084014,1.16268380428167,1.16179960871501,1.16161609642759,1.16242521878576,1.16230009677161,1.33742086777508,1.16403512203448,1.16612883040458,1.18805854875116,1.12603973707112,1.13854359701845,1.14003671972063,1.13973642688667,1.20168850682583,1.20088772593528,1.2050084109346,1.15690316722797,1.17600512805477,1.16722990412909,1.1679055630055,1.21348334202631,1.22209173659979,1.28580386620465,1.28918216058669,1.28839806263135,1.40984983103235,1.40385231582078,1.30362958248713,1.36218668510904,1.36046834278139,1.35789917075752,1.44024613900303,1.44079667586529,1.36582356498698,1.34803955604255,1.35113424052585,1.37101195784038,1.37942849865883,1.37994566965064,1.35849141495783,1.36119405046346,1.36132751394522,1.36095214790277,1.39697894651018,1.41507158975618,1.41336993036375,1.38915464989204,1.40328509602331,1.40297646172174,1.40303485199501,1.40147499755195,1.44310726239325,1.40876544024305,1.39662026340295,1.397496117502,1.38766152718986,1.38704425858672,1.38364093980186,1.38667723401188,1.37717630240414,1.36368814927884,1.39217426116684,1.38890440586374,1.38887938146091,1.38923806456814,1.38607664834396,1.39578611664196,1.40085772894881,1.38620177035811,1.37826903466104,1.39696226357496,1.37494913055228,1.39581114104479,1.38931313777663,1.40540382879624,1.34597921354289,1.30983563438894,1.30948529274933,1.30362124101952,1.31393963645304,1.30211143538212,1.25004399456076,1.25982853606724,1.24307052763884,1.27519351940479,1.2615552198625,1.26093795125937,1.26741093012469,1.24743311519884,1.23897486704235,1.23987574554422,1.23602198750842,1.23252691257985,1.19189562385174,1.22842291051575,1.18169400896476,1.27893049689405,1.16235014557727,1.15913033907982,1.15766224078047,1.14470794158221,1.13525705878012,1.15397531209687,1.19393928341618,1.14212208662312,1.14917896822114,1.14848662640952,1.14885365098436,1.14651804005357,1.14558379568125,1.1449498441429,1.14379038014511,1.141354671603,1.14017852467,1.13916920708919,1.13819325537883,1.13815988950839,1.1375009135672,1.13756764530808,1.13616627874961,1.13832671886059,1.13820159684644,1.13476491219114,1.13041066609874,1.13209564255595,1.12721588400412,1.12909271421636,1.13237925245469,1.14067067125899,1.13046905637201,1.12895090926699,1.12882578725285,1.12598968826546,1.125272322051,1.12955983640252
1.09934704071925,1.09875479651895,1.09711152739978,1.09587699019351,1.09332450110486,1.09351635485989,1.09410025759259,1.09668611255168,1.09790396682273,1.09993094345195,1.10490245814748,1.10511933630534,1.12349558945008,1.12555593194974,1.12893422633177,1.29613894457339,1.15231536004249,1.14862008989128,1.14859506548845,1.14912891941548,1.16416024404863,1.16780546539418,1.1617912672474,1.15633594743049,1.15876331450499,1.15797087508204,1.15183989638872,1.15114755457709,1.15193165253243,1.15296599451607,1.15296599451607,1.15187326225916,1.15381682421228,1.15467599537611,1.14645130831269,1.14607594227024,1.26740258865709,1.27468468988058,1.17413663931014,1.17439522480605,1.15866321689367,1.16030648601283,1.16095712048641,1.15744536262261,1.15499297114529,1.1693319539668,1.14741057708783,1.16758858723632,1.1564277035742,1.13279632583519,1.13513193676597,1.13848520674518,1.14000335385019,1.14081247620836,1.21053880396,1.22367661544568,1.20360704437612,1.17387805381423,1.17566312788276,1.17937508096919,1.21989793061837,1.24712448089728,1.25960331644177,1.29590538348031,1.28265079144809,1.28321801124557,1.3664241506549,1.36232849005841,1.38981362583322,1.33992330805806,1.34599589647811,1.41035866055655,1.33814657545714,1.34173340652942,1.32143027436679,1.35699829225565,1.36131083101,1.36926024964229,1.38056293825378,1.36086873322667,1.48104425708334,1.4804269884802,1.39541909206712,1.41734046894609,1.41221880783357,1.4058709509824,1.40612119501069,1.40614621941352,1.40577085337108,1.40438616974782,1.40413592571952,1.40817319604274,1.40935768444336,1.38714435619804,1.38598489220025,1.39173216338352,1.36261209995715,1.36205322162728,1.36220336804426,1.38927143043858,1.38359923246381,1.38943825979078,1.39207416355552,1.38542601387039,1.39509377483033,1.39174050485113,1.38985533317127,1.35499634002926,1.35421224207392,1.35668965795408,1.36643249212251,1.37072834794164,1.365331418398,1.35341980265098,1.30952700008738,1.30746665758772,1.30629051065471,1.31948671241367,1.28536176842133,1.24966862851831,1.25127853176704,1.2570258029503,1.26143009784835,1.25961165790938,1.25372258177675,1.2770453252142,1.24599838276993,1.22295090776362,1.23236008322765,1.2293905207585,1.215735538281,1.1836542538531,1.17186776012023,1.17316068759977,1.14671823527621,1.30724143796225,1.16753019696305,1.19564094280861,1.17012439338975,1.14104603730143,1.17886625144499,1.15920541228831,1.13906076801026,1.14841155320103,1.15057199331201,1.1516563841013,1.14712696718909,1.14576730796867,1.14439930728064,1.14329823355612,1.14364023372813,1.14253916000362,1.13931935350617,1.1391775485568,1.14141306187627,1.14050384190679,1.1398448659656,1.1397614512895,1.14154652535803,1.14174672058067,1.14140472040866,1.14000335385019,1.13384735075404,1.13358876525813,1.13322174068329,1.14414906325234,1.13786793814204,1.13594940059175,1.13142832514715,1.13001861712107,1.12789154288053,1.12810007957078,1.13518198557163
1.09317435468788,1.09404186731932,1.09269889103412,1.09177298812941,1.09211498830142,1.09390006236995,1.09475089206617,1.09460074564919,1.09216503710708,1.10389314056668,1.1034093354453,1.30407168027046,1.12029246588786,1.12352895532052,1.29114240547503,1.22240037090136,1.27963118017328,1.27732059364533,1.28495303650844,1.28574547593138,1.28086571737956,1.27890547249122,1.28148298598269,1.2882729406172,1.21395880568008,1.16209990154897,1.28923220939235,1.14422413646083,1.14462452690611,1.14392384362687,1.14417408765517,1.14459116103567,1.14691008903124,1.14674325967904,1.14692677196646,1.1501465784639,1.15108082283621,1.244713796758,1.17279366302494,1.15803760682292,1.15908029027416,1.15918038788548,1.15829619231883,1.1578540945355,1.15565194708647,1.17914151987611,1.13498179034899,1.10609528801571,1.10587006839024,1.12060110018943,1.1208263198149,1.1288674945909,1.12949310466164,1.15083892027553,1.21086412119679,1.15261565287645,1.14072072006465,1.17588834750823,1.16713814798538,1.19287991702972,1.2128827563584,1.21434251319014,1.21630275807848,1.25964502377982,1.25073633637239,1.2636489282326,1.31732627230269,1.3108032446317,1.30515607105976,1.36802571243601,1.40363543766293,1.33194886502294,1.33445964677354,1.30240338674847,1.34207540670143,1.30218650859061,1.31717612588571,1.38656045346534,1.35781575608142,1.37134561654478,1.42402198450166,1.42937720670726,1.35276082670979,1.36133585541283,1.40400246223776,1.42762549850917,1.40617958528396,1.40522031650882,1.40331846189375,1.40336851069941,1.40381060848274,1.41829973772123,1.43610042960088,1.39154030962849,1.38997211371781,1.38680235602603,1.36301249040243,1.36266214876281,1.36230346565558,1.38559284322259,1.38068806026793,1.3932252860857,1.39328367635897,1.42458920429914,1.37229654385231,1.37313069061331,1.37187947047181,1.33864706351374,1.35429565675002,1.34708862873502,1.43811072329488,1.35719014601068,1.35652282860188,1.3378629655584,1.38369933007513,1.30931846339713,1.31353924600777,1.29382001657782,1.31680910131087,1.27678673971829,1.25220443467174,1.25921126746411,1.26179712242319,1.26077112190717,1.25675887598678,1.25635014407389,1.38385781795971,1.22378505452461,1.22381842039505,1.23618881686062,1.20922919354523,1.17774015331764,1.17550463999817,1.15867155836128,1.18659045045181,1.17851590980537,1.13272959409431,1.13282135023802,1.16694629423036,1.13751759650242,1.14704355251299,1.14602589346458,1.35120931373434,1.15546009333144,1.15432565373649,1.15356658018398,1.30734987704118,1.29690635959351,1.34944926406864,1.33669516009301,1.14359018492247,1.14324818475046,1.14267262348538,1.14223886716966,1.14303964806021,1.14184681819199,1.14501657588377,1.14193023286809,1.14354013611681,1.14120452518602,1.14148813508476,1.1425224770684,1.14072072006465,1.1345647169685,1.13450632669523,1.14111276904231,1.14062062245333,1.14317311154197,1.14303964806021,1.14007008559107,1.13605783967068,1.13511525383075,1.13448964376001
1.09275728130739,1.09440055042655,1.09440055042655,1.09412528199542,1.0937749403558,1.09699474685324,1.09421703813913,1.09449230657026,1.09752860078028,1.09855460129631,1.10405996991888,1.26845361357594,1.12043427083723,1.12096812476426,1.12466339491548,1.12765798178745,1.13170359357828,1.13200388641224,1.13438120468108,1.13458974137133,1.13497344888138,1.13647491305118,1.13800974309141,1.13948618285837,1.14043711016591,1.14057891511528,1.14042042723069,1.14155486682564,1.14008676852629,1.14372364840423,1.1456255030193,1.14550872247276,1.14719369892997,1.14701852811016,1.19096137947943,1.16813078263097,1.29010806349139,1.2891070873782,1.26530053881938,1.29200991810646,1.15113087164187,1.15295765304846,1.19607469912433,1.15092233495163,1.22636256801609,1.31431500249549,1.13880218251436,1.1230951990048,1.10932343598076,1.10683767863299,1.10795543529273,1.11450348736655,1.11460358497787,1.13885223132002,1.12600637120068,1.14293120898129,1.13354705792008,1.14711028425387,1.15761219197481,1.17562142054471,1.17714790911733,1.23127569243835,1.25140365378118,1.2226839808001,1.23363632777197,1.25155380019816,1.27832156975852,1.28719689129552,1.29662274969477,1.28767235494928,1.40405251104342,1.30790875537104,1.3079588041767,1.27730391071011,1.27945600935347,1.28864830665965,1.30015953196139,1.30531455894435,1.32884583907204,1.35201009462489,1.35261902176042,1.35232707039407,1.35306111954375,1.3664241506549,1.36947712780015,1.36573180884328,1.4165980783288,1.40045733850353,1.42461422870197,1.40886553785437,1.43986243149298,1.48386367313551,1.5562259046519,1.39332538369702,1.39038918709831,1.38145547528805,1.37741820496483,1.36184468493703,1.35583048679025,1.35507975470536,1.38606830687635,1.37846922988368,1.42334632562526,1.36463907658637,1.36239522179929,1.36651590679861,1.38296528092545,1.348414922085,1.34806458044538,1.34874023932179,1.35130941134566,1.3570399995937,1.58807362798672,1.33430115888895,1.3312398402761,1.31735129670552,1.30399660706197,1.31166241579552,1.3254592032224,1.2453060409583,1.2444635527297,1.24779179830607,1.25056116555258,1.2594615114924,1.25880253555122,1.27961449723806,1.26092126832415,1.23998418462315,1.22753037348148,1.21988958915076,1.20721889985123,1.16210824301658,1.21318304919235,1.13307159426631,1.13286305757607,1.13091949562295,1.1310529591047,1.17276863862211,1.13805145042946,1.13759266971091,1.19175381890237,1.26030399972101,1.35704834106131,1.33722067255244,1.31047792739491,1.51664564084264,1.37444864249568,1.33787964849362,1.37475727679725,1.20436611792863,1.20447455700756,1.22227524888721,1.2001536767856,1.15143116447583,1.14790272367682,1.14691843049885,1.14846160200669,1.14630950336332,1.15208179894941,1.15195667693526,1.15203175014375,1.15179818905067,1.13467315604743,1.13459808283894,1.13519032703924,1.62418384127023,1.62361662147275,1.23907496465367,1.18785001206091,1.13927764616812,1.14092091528729,1.13847686527757,1.16182463311784
1.09275728130739,1.09413362346303,1.09671947842212,1.09976411409975,1.10176606632614,1.10269196923085,1.29079206383541,1.09691967364475,1.09658601494036,1.12342051624159,1.10610362948332,1.31739300404357,1.1205760757866,1.12470510225353,1.12400441897429,1.13003530005629,1.13098622736382,1.13199554494463,1.13363881406379,1.13649993745401,1.28912377031342,1.14487477093441,1.1459591617237,1.14669321087338,1.14672657674382,1.14079579327314,1.14134633013539,1.14635955216898,1.14617603988156,1.14633452776615,1.14666818647055,1.25031926299189,1.27656152009282,1.2652338070785,1.13197886200941,1.13212066695878,1.13637481543986,1.13969471954862,1.27005517535705,1.29147606417943,1.14840321173342,1.15015491993151,1.15108916430382,1.35175150912898,1.14517506376836,1.32240622607715,1.30306236268966,1.22520310401831,1.10961538734711,1.10957368000906,1.10715465440217,1.10748831310657,1.10948192386535,1.18368761972354,1.1130437305348,1.11668061041275,1.11737295222437,1.146209405752,1.14795277248248,1.15002979791736,1.16942371011051,1.18432991272951,1.1880919146216,1.20665168005376,1.27011356563032,1.21779588078066,1.24031784332755,1.25956995057133,1.27651147128716,1.28668806177131,1.27646976394911,1.29985923912743,1.36861795663632,1.25981185313202,1.3144901733153,1.27010522416271,1.27132307843377,1.27911400918147,1.34299296813853,1.34802287310733,1.3535199002623,1.3571234142698,1.34231730926212,1.34209208963665,1.35383687603147,1.35733195096005,1.37179605579571,1.39254128574168,1.37599181400352,1.43748511322414,1.43844438199928,1.38938821098512,1.41833310359167,1.42144447101019,1.42819271830664,1.37382303242493,1.37214639743533,1.36545654041215,1.36036824517007,1.36130248954239,1.35468770572769,1.41047544110309,1.40949948939273,1.36402180798323,1.36317097828702,1.37116210425736,1.36017639141504,1.34910726389663,1.33838847801783,1.33774618501186,1.33184042594401,1.42569027802366,1.38195596334464,1.34923238591078,1.33386740257323,1.30256187463306,1.294136992347,1.29327782118318,1.31472373440838,1.30097699578717,1.24467208941995,1.24788355444978,1.24811711554286,1.28722191569835,1.26455814820209,1.26530888028699,1.26000370688705,1.25290511795098,1.25137028791074,1.1934554782948,1.16702136743885,1.15001311498214,1.13182037412482,1.12952647053208,1.14025359787849,1.1408458420788,1.14050384190679,1.11438670682001,1.12452158996611,1.15153960355476,1.16802234355204,1.25710087615879,1.33669516009301,1.16655424525269,1.16652087938225,1.16584522050584,1.16350126810744,1.16290068243953,1.1629590727128,1.1636347315892,1.15897185119524,1.15821277764273,1.15494292233963,1.15247384792708,1.15160633529564,1.15080555440509,1.14968779774535,1.14915394381831,1.15062204211767,1.14974618801862,1.15192331106482,1.21744553914104,1.13594105912414,1.13550730280842,1.20958787665246,1.12441315088718,1.58876596979834,1.12063446605987,1.19264635593664,1.12292002818499,1.18413805897448,1.118065294036,1.11527924385427
1.09068859734012,1.09322440349354,1.09795401562839,1.10011445573937,1.10179109072897,1.29058352714516,1.28426069469681,1.14383208748316,1.18598986478389,1.28179162028426,1.28646284214584,1.28979942918982,1.1303773002283,1.1297099828195,1.13243764272796,1.13493174154334,1.1411878422508,1.14045379310113,1.1419385743357,1.14340667263505,1.14480803919353,1.14445769755391,1.33373393909147,1.1461259910759,1.14644296684508,1.22227524888721,1.15552682507232,1.23402003528203,1.12462168757743,1.2243606157897,1.24417994283096,1.2437962353209,1.31425661222222,1.12062612459226,1.20464138635976,1.13219574016727,1.13407257037951,1.13626637636093,1.13998667091497,1.14169667177501,1.14514169789792,1.1465430644564,1.14885365098436,1.14312306273631,1.14477467332309,1.22957403304592,1.22577032381578,1.42961910926795,1.13152842275847,1.12989349510692,1.17656400638464,1.10438528715567,1.10443533596133,1.10070669993968,1.10048148031421,1.10768850832921,1.13753427943764,1.14684335729036,1.14638457657181,1.1490621876746,1.15608570340219,1.16031482748044,1.18699084089709,1.20524197202767,1.2147262207002,1.20013699385038,1.21400051301813,1.23103378987767,1.27045556580233,1.29626406658754,1.27705366668181,1.28063215628648,1.31704266240395,1.31693422332502,1.31644207673603,1.26807824753349,1.27038049259384,1.27823815508242,1.32050437146208,1.32987183958806,1.34411072479826,1.36379658835776,1.34193360175206,1.34161662598289,1.34228394339168,1.41239397865338,1.35698995078804,1.3559556088044,1.37199625101835,1.43768530844678,1.43914506527852,1.43673438113924,1.41523007764077,1.37387308123059,1.38023762101699,1.35638936512012,1.36275390490652,1.35316121715507,1.33150676723962,1.32726096022615,1.33061423020535,1.33075603515472,1.4110676853034,1.36247029500778,1.33711223347351,1.36302083187004,1.35058370366359,1.3247084711375,1.32608481329314,1.33288310939526,1.33567750104459,1.5909097269741,1.6230744260781,1.58884104300683,1.31941998067279,1.30753338932859,1.29459577306555,1.29971743417806,1.27949771669152,1.26236434222067,1.23652247556502,1.23557154825748,1.23623886566628,1.24257003958224,1.25534082649308,1.25613326591603,1.1938725516753,1.18940152503636,1.16992419816711,1.16181629165023,1.20094611620855,1.22539495777333,1.12772471352833,1.12933461677705,1.12364573586706,1.11849070888411,1.14645130831269,1.1465430644564,1.13011037326478,1.14862008989128,1.23890813530147,1.26782800350519,1.17047473502937,1.16822253877468,1.16621224508068,1.16621224508068,1.16431039046561,1.16515287869421,1.16441882954454,1.1623751699801,1.15672799640816,1.15649443531508,1.41226051517162,1.15097238375729,1.14892038272524,1.14978789535667,1.14740223562022,1.14655974739162,1.14650135711835,1.14638457657181,1.14355681905203,1.14006174412346,1.13541554666471,1.13584096151282,1.20386562987203,1.12139353961237,1.13487335127007,1.11135041260998,1.11115021738734,1.11595490273068,1.11548778054452,1.11418651159737,1.11225963257947
1.09073030467817,1.09086376815992,1.29345299200299,1.29067528328887,1.10613699535376,1.1122012423062,1.12269480855953,1.12286997937934,1.12533071232427,1.12646515191923,1.12589793212175,1.13121144698929,1.13485666833485,1.13146169101759,1.13141998367954,1.13057749545094,1.1318036911896,1.28191674229841,1.13217905723205,1.3154077347524,1.31788515063255,1.28566206125528,1.32237286020671,1.1557603861654,1.24740809079601,1.18489713252699,1.12550588314408,1.11443675562567,1.11660553720426,1.11668895188036,1.18746630455085,1.11783173294292,1.11696422031148,1.11836558686996,1.12067617339792,1.1301270562,1.13066091012704,1.13177866678677,1.14125457399168,1.14046213456874,1.14139637894105,1.14540862486144,1.14897877299851,1.27194868850451,1.14791940661204,1.14821135797839,1.31384788030933,1.14191354993287,1.33369223175342,1.27455956786643,1.26643497841433,1.18828376837663,1.11273509623324,1.09785391801707,1.09626903917118,1.10655406873426,1.13713388899236,1.19103645268792,1.13463144870938,1.14597584465892,1.14588408851521,1.20147162866797,1.16538643978729,1.18155220401539,1.17522103009943,1.19065274517786,1.18947659824485,1.22139105332055,1.2701802973712,1.29703148160766,1.25421472836574,1.2602956582534,1.26517541680523,1.32000388340548,1.31749310165489,1.26463322141058,1.2674192715923,1.29843284816613,1.29883323861141,1.33775452647947,1.32592632540855,1.33993999099328,1.33993164952567,1.3528525828535,1.34746399477747,1.3566229262132,1.35676473116257,1.35613912109182,1.37104532371082,1.36028483049397,1.39403440844386,1.39472675025549,1.4090573916094,1.35141785042459,1.34826477566802,1.35859985403676,1.37150410442937,1.34896545894726,1.35238546066734,1.32522564212932,1.32544252028718,1.32773642387991,1.32778647268557,1.37484903294096,1.31172080606879,1.3171677844181,1.34925741031361,1.33242432867671,1.30920168285059,1.31148724497572,1.31410646580524,1.31940329773757,1.31807700438758,1.31442344157442,1.32327373870859,1.31684246718131,1.31620851564295,1.30489748556385,1.26901249190581,1.24682418806332,1.23631393887477,1.21863836900927,1.24426335750706,1.24445521126209,1.25851892565248,1.19925279828372,1.17799039734594,1.16342619489895,1.20600938704779,1.15185657932394,1.16081531553704,1.13332183829461,1.13184539852765,1.12923451916573,1.13158681303174,1.12734100601827,1.13662505946816,1.26275639119834,1.2649835630502,1.16587858637628,1.16397673176121,1.1746871761724,1.17296883384475,1.17243497991771,1.26872054053946,1.26658512483131,1.16711312358255,1.32562603257459,1.16271717015211,1.16325936554675,1.1626254140084,1.32498373956863,1.1448664294668,1.14691843049885,1.14800282128814,1.1525739455384,1.14648467418313,1.14615101547873,1.14675160114665,1.14652638152118,1.14367359959857,1.13823496271688,1.13411427771756,1.2102885599317,1.11821544045298,1.10974885082887,1.10980724110214,1.11049958291377,1.10866446003958,1.11246816926972,1.11573802457282,1.11175914452287,1.11169241278199
1.09174796372658,1.09347464752184,1.30758343813425,1.29938377547367,1.11187592506941,1.11431163361152,1.12284495497651,1.12212758876205,1.12473012665636,1.12437144354913,1.12344554064442,1.24617355358974,1.12863393349782,1.12662363980382,1.12481354133246,1.1228366135089,1.12240285719318,1.18836718305273,1.32667705749345,1.33003032747265,1.20456631315127,1.11589651245741,1.11596324419829,1.1135442185914,1.25152877579533,1.19328030747499,1.11472870699202,1.11437002388479,1.11172577865243,1.11291860852065,1.11502899982597,1.11596324419829,1.11668061041275,1.11648875665772,1.1256893954315,1.12566437102867,1.12416290685888,1.27286624994161,1.1382516456521,1.13996164651214,1.14068735419421,1.14404896564102,1.1469601378369,1.14779428459789,1.15021331020478,1.14887033391958,1.25785160824368,1.32585125220006,1.23547979211377,1.23331101053518,1.36502278409643,1.14373198987184,1.10891470406787,1.10941519212447,1.15252389673274,1.09552664855389,1.10686270303582,1.13787627960965,1.13235422805186,1.14678496701709,1.20378221519593,1.16688790395709,1.16353463397788,1.16491097613353,1.16774707512091,1.16415190258102,1.18090156954182,1.20185533617803,1.29721499389508,1.28509484145781,1.28072391243019,1.25404789901354,1.2682534183533,1.23463730388517,1.23296066889557,1.23250188817702,1.27983971686353,1.27264937178375,1.30548972976416,1.30834251168676,1.33146505990157,1.4836885023157,1.35391194923996,1.34617940876553,1.37509927696926,1.36087707469428,1.37191283634225,1.35332804650727,1.34892375160921,1.36582356498698,1.38598489220025,1.33755433125684,1.33068096194623,1.32976340050913,1.33257447509369,1.33228252372734,1.33838013655022,1.34386048076996,1.35127604547522,1.32518393479127,1.32515891038844,1.32604310595509,1.32337383631991,1.3195951514926,1.31348919720211,1.313063782354,1.31439841717159,1.31342246546123,1.29602216402685,1.31041953712164,1.30129397155635,1.31846905336525,1.31696758919546,1.3063655838632,1.27559390985006,1.32143027436679,1.3031791432362,1.30273704545287,1.26793644258412,1.26570092926465,1.21853827139795,1.21868841781493,1.23555486532226,1.24694096860986,1.20687689967923,1.19891913957933,1.14719369892997,1.18714932878167,1.1896851349351,1.15103077403055,1.16109892543577,1.19760118769695,1.13359710672574,1.14414906325234,1.19941128616831,1.19828518804097,1.35482951067706,1.1778736167994,1.1766140551903,1.17037463741805,1.17551298146578,1.17487068845982,1.17550463999817,1.17424507838907,1.31539105181718,1.17055814970547,1.16444385394737,1.17341927309568,1.15786243600311,1.1638015609414,1.16116565717665,1.15973092474774,1.14398223390014,1.13893564599612,1.19697557762621,1.15267404314972,1.14661813766489,1.14556711274603,1.14692677196646,1.14686004022558,1.1464596497803,1.13881052398197,1.1333969115031,1.13245432566318,1.20281460495318,1.10827241106191,1.10763011805594,1.10748831310657,1.10788870355185,1.10919831396661,1.10808055730688,1.10511099483773,1.11306041347002
1.08996288965805,1.0925153787467,1.30518109546259,1.26911258951713,1.11002411926,1.10990733871346,1.11030772915874,1.24606511451081,1.11904124574636,1.11944163619164,1.20771104644022,1.18416308337731,1.12504710242553,1.12292002818499,1.12196910087746,1.20158840921451,1.23371140098046,1.2524213128296,1.3030957285601,1.15519316636792,1.11294363292348,1.10976553376409,1.10638723938206,1.10353445745945,1.10320079875505,1.10380138442297,1.11176748599048,1.11224294964425,1.11174246158765,1.1142949506763,1.11522919504861,1.11489553634422,1.11567129283194,1.11882436758851,1.12854217735411,1.12606476147395,1.1259396394598,1.27255761564004,1.13762603558135,1.13687530349646,1.13866037756499,1.38802021029708,1.1477192113894,1.14977121242145,1.29985923912743,1.25690902240376,1.39601967773503,1.15814604590185,1.37586669198937,1.38440001335436,1.14385711188599,1.14355681905203,1.14565052742213,1.14087086648163,1.15250721379752,1.15385853155033,1.09446728216743,1.18332893661631,1.13291310638173,1.14146311068193,1.21137295072099,1.15878833890782,1.15915536348265,1.15384184861511,1.16788053860267,1.16754687989827,1.19901089572304,1.19949470084441,1.28575381739899,1.25911116985279,1.28250064503111,1.24611516331647,1.26693546647093,1.23940028189045,1.23465398682039,1.23386988886505,1.2647333190219,1.30303733828683,1.30245343555413,1.28960757543479,1.32524232506454,1.33092286450692,1.39172382191591,1.35236043626451,1.36242858766973,1.36272053903608,1.38625181916377,1.34469462753096,1.33765442886815,1.33345032919274,1.33566915957698,1.32928793685537,1.32775310681513,1.32675213070194,1.32850383890003,1.32921286364688,1.32798666790821,1.32623495971012,1.32358237301016,1.49102065234485,1.32873739999311,1.31954510268694,1.32126344501459,1.31129539122069,1.3086261215855,1.31270509924677,1.31603334482314,1.30283714306419,1.30440533897486,1.2991585558482,1.27400903100417,1.2825757182396,1.36679117522974,1.36619058956182,1.27769595968777,1.32231446993344,1.3000844587529,1.28622928105276,1.26880395521556,1.28077396123585,1.23732325645557,1.2356716458688,1.24015101397535,1.27711205695508,1.20117133583402,1.15877999744021,1.14973784655101,1.16176624284457,1.17711454324689,1.15822111911034,1.1739364440875,1.17403654169882,1.16330941435241,1.19331367334543,1.19019396445931,1.18631518202068,1.18581469396408,1.17885790997738,1.17799039734594,1.17784025092896,1.17889127584782,1.17814888523053,1.17728137259909,1.17618864034219,1.17457039562586,1.17326078521109,1.17486234699221,1.17389473674945,1.16067351058767,1.15897185119524,1.16217497475746,1.16274219455494,1.24334579606996,1.13971140248384,1.13851857261562,1.13764271851657,1.13746754769676,1.14424081939605,1.14826140678405,1.14911223648026,1.14592579585326,1.14073740299987,1.13730905981217,1.12465505344787,1.12504710242553,1.11460358497787,1.11106680271124,1.11013255833893,1.10856436242826,1.11165070544394,1.11002411926,1.11275177916846,1.11316051108134
1.31584983253572,1.29342796760016,1.31084495196975,1.10628714177074,1.10788870355185,1.10973216789365,1.11071646107163,1.11810700137405,1.12050100257811,1.12003388039195,1.11458690204265,1.1139612919719,1.16993253963472,1.22015651611428,1.11288524265021,1.11238475459362,1.34390218810801,1.29999270260919,1.20250597065161,1.10465221411919,1.10951528973579,1.10967377762038,1.10642894672011,1.1034927501214,1.10318411581983,1.10308401820851,1.1041600675302,1.11334402336876,1.11432831654674,1.11467031671875,1.1146286093807,1.11649709812533,1.11724783021022,1.1199921730539,1.12930959237422,1.12824188452015,1.12893422633177,1.12989349510692,1.2279641297972,1.13785959667443,1.42603227819566,1.14751901616676,1.1469684793045,1.15250721379752,1.1577706798594,1.15804594829053,1.15892180238958,1.15886341211631,1.16609546453414,1.166312342692,1.16100716929207,1.16119068157948,1.33933940532537,1.1636347315892,1.15134774979973,1.10777192300531,1.09844616221738,1.09535147773408,1.09975577263214,1.21968939392812,1.14058725658289,1.14642628390986,1.1375009135672,1.14409067297907,1.15738697234934,1.16845609986776,1.16878141710455,1.1864986943081,1.18966845199988,1.18950162264768,1.20772772937544,1.26156356133011,1.29368655309606,1.28523664640718,1.23340276667889,1.24172755135363,1.29680626198219,1.25657536369936,1.26340702567191,1.28611250050622,1.29636416419886,1.35406209565694,1.33933106385776,1.36142761155654,1.385434355338,1.37163756791113,1.33173198686508,1.34580404272308,1.34331828537532,1.432013110472,1.32631837438622,1.33486837868643,1.33763774593293,1.608576955372,1.33852194149959,1.32863730238179,1.32916281484122,1.3318320844764,1.40890724519242,1.33075603515472,1.3254592032224,1.27687015439439,1.3659236625983,1.31051963473296,1.31014426869051,1.31328066051186,1.31095339104868,1.29482933415863,1.28905703857254,1.26334863539865,1.26494185571215,1.26529219735177,1.37036966483441,1.27653649568999,1.27585249534597,1.2737838113787,1.25098658040069,1.24988550667617,1.27390893339285,1.2186633934121,1.21886358863474,1.22701320248967,1.20846177852512,1.21312465891909,1.20213060460916,1.1555101421371,1.15881336331065,1.16277556042538,1.16741341641651,1.18704923117036,1.1681558070338,1.20816148569116,1.19431464945863,1.1899353789634,1.18933479329548,1.18866747588669,1.18115181357011,1.18144376493646,1.18316210726411,1.18427152245624,1.18168566749715,1.18157722841822,1.17606351832804,1.17514595689094,1.17532946917836,1.15502633701572,1.15302438478933,1.17555468880383,1.15934721723768,1.16101551075968,1.16057341297635,1.15872994863455,1.15830453378644,1.13947784139076,1.13779286493355,1.13784291373921,1.14057057364767,1.13951954872881,1.1394277925851,1.14725208920324,1.14841155320103,1.14032867108698,1.13898569480177,1.19648343103722,1.1233454430331,1.12186066179853,1.14104603730143,1.14033701255459,1.12089305155578,1.12064280752748,1.1204092464344,1.1203258317583,1.12062612459226
1.10379304295536,1.10384309176102,1.10620372709464,1.1066708492808,1.11022431448264,1.11188426653702,1.11598826860112,1.1156379269615,1.12157705189979,1.25428146010662,1.26500858745303,1.26428287977096,1.23279383954337,1.19624152847653,1.10040640710572,1.09998933372522,1.0973784543633,1.09791230829034,1.09894665027397,1.10176606632614,1.10745494723613,1.10868948444241,1.1091065578229,1.10699616651758,1.10668753221602,1.10102367570885,1.10147411495979,1.10344270131574,1.10655406873426,1.10786367914902,1.11227631551469,1.11600495153634,1.11736461075676,1.11892446519982,1.1235122723853,1.12540578553276,1.13455637550089,1.13287139904368,1.13403920450907,1.13617462021722,1.14362355079291,1.14359852639008,1.14761077231047,1.15036345662176,1.1523237015101,1.15815438736946,1.15754546023393,1.16369312186247,1.16531970804641,1.16441882954454,1.1606985349905,1.34305969987941,1.32548422762523,1.16109892543577,1.16029814454522,1.11009085100088,1.09933869925164,1.09869640624568,1.08963757242126,1.18878425643323,1.20207221433589,1.15178150611545,1.14982126122711,1.23679774399615,1.15024667607522,1.15420887318995,1.18141039906602,1.2189136374404,1.1927798194184,1.21386704953637,1.20185533617803,1.20701036316099,1.20368211758461,1.22508632347177,1.28168318120533,1.2096212425229,1.20982143774554,1.26486678250366,1.24993555548183,1.28789757457475,1.27601098323056,1.2935530896143,1.27734561804816,1.27902225303776,1.29985923912743,1.31808534585519,1.33675355036628,1.30742495024967,1.31087831784019,1.30899314616034,1.30449709511857,1.32863730238179,1.35859985403676,1.43051998776982,1.33800477050777,1.33739584337225,1.33798808757255,1.39497699428379,1.29673953024131,1.3458207256583,1.32444154417398,1.34516174971712,1.28732201330967,1.33538554967825,1.32575949605635,1.30649904734496,1.32595134981138,1.29588870054509,1.26878727228034,1.25987024340529,1.24577316314446,1.24564804113031,1.24687423686898,1.27848839911072,1.27837996003179,1.27794620371607,1.26824507688569,1.27626122725886,1.23043320420975,1.20211392167394,1.21287441489079,1.21152309713797,1.19476508870957,1.22689642194313,1.18424649805341,1.1559272155176,1.15490955646919,1.15515980049748,1.14077911033792,1.18631518202068,1.19029406207063,1.19535733290987,1.19371406379071,1.19254625832532,1.19078620865962,1.18994372043101,1.18668220659552,1.18654040164615,1.18808357315399,1.1849054739946,1.18437162006756,1.17756498249783,1.17562142054471,1.17613025006892,1.1758633231054,1.1808014719305,1.17099190602119,1.17238493111205,1.17004097871365,1.16089038874553,1.15970590034491,1.15799589948487,1.15756214316915,1.1567613622786,1.15490121500158,1.20433275205819,1.14017018320239,1.13597442499458,1.13623301049049,1.13849354821279,1.13815154804078,1.14323150181524,1.14115447638036,1.22248378557746,1.12172719831677,1.12079295394446,1.12855886028933,1.12558929782018,1.12436310208152,1.1236791017375,1.1233454430331,1.1231786136809,1.1247634925268
1.21610256285584,1.28318464537513,1.11036611943201,1.11212616909771,1.11164236397633,1.11185924213419,1.1132939745631,1.11375275528165,1.10607026361288,1.10617870269181,1.1006399681988,1.10097362690319,1.09988089464629,1.09797069856361,1.09556001442433,1.09550996561867,1.09716157620544,1.09748689344223,1.09916352843183,1.09987255317868,1.10175772485853,1.10612865388615,1.10783031327858,1.1005565535227,1.09976411409975,1.09962230915038,1.09710318593217,1.0950345019649,1.10371796974687,1.10345104278335,1.10962372881472,1.11046621704333,1.11638031757879,1.11676402508885,1.12142690548281,1.12618154202049,1.13111969084558,1.13166188624023,1.13438120468108,1.13604115673546,1.14310637980109,1.14370696546901,1.14616769841395,1.14865345576172,1.14943755371705,1.15452584895913,1.15455087336196,1.29017479523227,1.16611214746936,1.16611214746936,1.162291755304,1.15993946143799,1.15881336331065,1.3428011143835,1.14977121242145,1.13392242396253,1.14341501410266,1.17250171165859,1.08756054698638,1.08951245040711,1.10615367828898,1.15309945799782,1.10269196923085,1.12352061385291,1.15881336331065,1.15719511859431,1.17549629853056,1.18738288987475,1.19376411259637,1.2024142145079,1.20307319044909,1.2861792322471,1.20192206791891,1.20147997013558,1.20189704351608,1.2072772901245,1.20716050957796,1.24812545701047,1.23594691429993,1.24266179572595,1.276044349101,1.2569423882742,1.26756941800928,1.26779463763475,1.27649478835194,1.27363366496172,1.2832430356484,1.2878558672367,1.30006777581768,1.29465416333882,1.30849265810374,1.29096723465522,1.32251466515608,1.31620017417534,1.34351013913035,1.43878638217129,1.40543719466668,1.30801719444997,1.28487796329995,1.25047775087648,1.25011906776925,1.27086429771522,1.31168744019835,1.39260801748256,1.31738466257596,1.31439007570398,1.29567182238723,1.27832156975852,1.28382693838109,1.26452478233165,1.24956018943938,1.24646550495609,1.29775718928972,1.28818118447349,1.41467954077851,1.25489872870976,1.23891647676908,1.24036789213321,1.23339442521128,1.19319689279889,1.21470119629737,1.20552558192641,1.17789864120223,1.17557971320666,1.17521268863182,1.17294380944192,1.15901355853328,1.15846302167103,1.20188870204847,1.16896492939197,1.20957953518485,1.1968838214825,1.19556586960012,1.19804328548028,1.19492357659416,1.1919456726574,1.19086128186811,1.18929308595743,1.18878425643323,1.18996040336623,1.27983137539592,1.24113530715333,1.18317044873172,1.18181913097891,1.18397957108989,1.1844884006141,1.17668078693118,1.16964892973598,1.16954049065705,1.16477751265177,1.16345956076939,1.1599478029056,1.15807931416097,1.15463428803806,1.15325794588241,1.15020496873717,1.14345672144071,1.13554901014647,1.13805145042946,1.13690032789929,1.13604949820307,1.14419077059039,1.13924428029768,1.13239593538991,1.13165354477262,1.12706573758714,1.1277831038016,1.12312856487524,1.12255300361016,1.12141022254759,1.12145192988564,1.12218597903532,1.12449656556328
1.09636079531489,1.22491115265196,1.11291860852065,1.11038280236723,1.10924002130466,1.10875621618329,1.11251821807538,1.11266836449236,1.1058367025198,1.10310904261134,1.10038138270289,1.10003104106327,1.10028962655918,1.09702811272368,1.09555167295672,1.0955349900215,1.09559338029477,1.09848786955543,1.10069001700446,1.09852123542587,1.09867972331046,1.10016450454503,1.10310070114373,1.1002228948183,1.09989757758151,1.09864635744002,1.09759533252116,1.09446728216743,1.10236665199406,1.10295055472675,1.10370962827926,1.10890636260026,1.11558787815584,1.11914968482529,1.12583954184848,1.12809173810317,1.12865895790065,1.13173695944872,1.13478993659397,1.1407624274027,1.14265594055016,1.14289784311085,1.14488311240202,1.14668486940577,1.14807789449663,1.14828643118688,1.23963384298353,1.29138430803572,1.16320931674109,1.16118234011187,1.16114063277382,1.1606151203144,1.1606985349905,1.1544174098802,1.15080555440509,1.15071379826138,1.3567063408893,1.16304248738889,1.10066499260163,1.1005565535227,1.08939566986057,1.09140596355457,1.10663748341036,1.10691275184148,1.14221384276683,1.20080431125918,1.16739673348129,1.1937057223231,1.19287157556211,1.19438138119951,1.19408942983316,1.19919440801045,1.19006050097755,1.21093919440528,1.23328598613235,1.23171779022168,1.2097880718751,1.22963242331919,1.22684637313747,1.24233647848916,1.24332911313475,1.24284530801337,1.24157740493665,1.24026779452189,1.24787521298217,1.26863712586336,1.2716901030086,1.28310957216664,1.28095747352327,1.30227826473432,1.28765567201406,1.29044172219579,1.27564395865572,1.28209191311822,1.37539122833561,1.42055193397592,1.39903094754223,1.29089216144673,1.27445947025511,1.2485675547938,1.25616663178647,1.26282312293922,1.28144962011225,1.29663109116238,1.30201967923841,1.3019279230947,1.50038812047083,1.27312483543752,1.26547570963918,1.25239628842677,1.25108667801201,1.25966170671504,1.26719405196684,1.28795596484802,1.43064510978397,1.25289677648337,1.236672621982,1.23283554688142,1.23387823033266,1.28286766960595,1.2129661710345,1.2107890479883,1.18694913355904,1.25970341405309,1.23437871838926,1.23309413237733,1.16662097699357,1.17255176046425,1.17456205415825,1.17244332138532,1.1805512279022,1.2871802083603,1.19725084605733,1.19685879707967,1.19968655459944,1.19798489520701,1.19685045561206,1.19300503904387,1.19410611276838,1.19317186839606,1.19230435576463,1.18722440199016,1.1867489383364,1.18722440199016,1.1843215712619,1.18363757091788,1.17671415280162,1.17347766336895,1.17173429663847,1.23100042400723,1.16404346350209,1.16200814540526,1.1581877532399,1.15574370323018,1.15302438478933,1.14475799038787,1.1429395504489,1.14346506290832,1.14484140506397,1.14993804177365,1.14652638152118,1.13946949992315,1.13886891425524,1.13745920622915,1.13038564169591,1.12517222443968,1.12424632153498,1.12407115071517,1.12199412528029,1.12121836879256,1.12265310122148,1.1242630044702,1.12564768809345
1.09928030897837,1.09834606460606,1.21319139065997,1.11150890049457,1.11086660748861,1.11144216875369,1.11348582831813,1.1141281213241,1.10541128767169,1.1055030438154,1.10371796974687,1.10015616307742,1.09968904089126,1.099138504029,1.09767874719726,1.0972116250111,1.0965359661347,1.0995555774095,1.10008943133654,1.09887157706548,1.09915518696422,1.0998058214378,1.10338431104247,1.10251679841104,1.10092357809753,1.09893830880636,1.09876313798656,1.09556001442433,1.10107372451451,1.10320914022266,1.11155060783262,1.11209280322727,1.12033417322591,1.1259396394598,1.12609812734439,1.13307993573392,1.13334686269744,1.13780120640116,1.13687530349646,1.14022857347566,1.14259755027689,1.14327320915329,1.14404896564102,1.34219218724797,1.1492290170268,1.14929574876768,1.15083057880792,1.328311985145,1.16055673004113,1.16068185205528,1.16077360819899,1.16089038874553,1.15851307047669,1.38892108879896,1.38419147666411,1.39154030962849,1.35895019567638,1.22707159276294,1.12518056590729,1.12447154116045,1.10546133647735,1.10511099483773,1.09783723508185,1.09773713747053,1.13762603558135,1.2103719746078,1.20430772765536,1.13443125348674,1.13273793556192,1.21352504936436,1.21375861045744,1.19804328548028,1.18126025264904,1.18830879277946,1.19340542948914,1.19316352692845,1.2074441194767,1.22084885792591,1.23009120403774,1.23882472062537,1.24230311261872,1.24677413925766,1.23292730302513,1.23319422998865,1.24445521126209,1.26271468386029,1.26847029651116,1.27104781000264,1.27717878869596,1.26917932125801,1.25383936232329,1.2529218008862,1.26792810111651,1.2854201586946,1.28305118189337,1.38379108621883,1.28124942488962,1.27988976566919,1.26375736731153,1.26755273507406,1.26283146440683,1.25896102343581,1.28562869538484,1.30131899595918,1.30849265810374,1.3861100142144,1.30522280280064,1.25936141388109,1.25957829203894,1.24525599215265,1.24336247900518,1.24759160308343,1.25872746234273,1.25443994799121,1.25328048399343,1.25436487478272,1.24180262456212,1.24751652987494,1.22011480877623,1.22387681066832,1.22467759155888,1.22563686033402,1.23873296448166,1.21858832020361,1.21925563761241,1.21199856079174,1.21199856079174,1.22216680980828,1.20132148225099,1.21947251577026,1.18017586185975,1.17950020298334,1.28738040358294,1.1999034327573,1.20018704265604,1.19894416398216,1.19662523598659,1.19659187011615,1.19582445509603,1.19541572318314,1.1940393810275,1.19340542948914,1.19315518546084,1.19246284364922,1.18764147537066,1.18437996153517,1.18171069189998,1.20337348328304,1.17607185979565,1.17029956420956,1.16724658706431,1.16406014643731,1.16235014557727,1.16079029113421,1.15053028597396,1.14517506376836,1.1437820386775,1.14974618801862,1.14754404056959,1.15088896908119,1.15188994519438,1.14253081853601,1.13827667005493,1.13536549785905,1.13467315604743,1.12624827376137,1.12606476147395,1.12578949304282,1.12340383330637,1.12354563825574,1.12659861540099,1.12726593280978,1.12809173810317
1.09045503624704,1.08977937737063,1.09015474341308,1.35879170779179,1.11049124144616,1.1127851450389,1.10959036294428,1.10712962999934,1.10624543443269,1.103993238178,1.10129060267237,1.10083182195382,1.1000560654661,1.09934704071925,1.10003104106327,1.10008943133654,1.09602713661049,1.10075674874534,1.10211640796576,1.10283377418021,1.10321748169027,1.10360118920033,1.10531953152798,1.10961538734711,1.11068309520119,1.09847118662021,1.10039806563811,1.10037304123528,1.10702953238802,1.10903148461441,1.11191763240746,1.16442717101215,1.12035919762874,1.12437144354913,1.13287974051129,1.13323842361851,1.13570749803106,1.13584930298043,1.26812829633915,1.14950428545793,1.14935413904095,1.14973784655101,1.15498462967768,1.15547677626666,1.15572702029496,1.15211516481985,1.15314950680348,1.1549178979368,1.16092375461597,1.16032316894805,1.16190804779394,1.16337614609329,1.1653113665788,1.16311756059738,1.16274219455494,1.16209156008136,1.36855956636305,1.22300095656928,1.14890369979002,1.22581203115383,1.15058033477962,1.14661813766489,1.10731314228676,1.13821827978166,1.14243072092469,1.21052212102478,1.13019378794088,1.13081939801163,1.13379730194838,1.13260447208016,1.1372506695389,1.19664191892181,1.19731757779821,1.18201932620155,1.18098498421792,1.18805854875116,1.20076260392113,1.21399217155052,1.21880519836147,1.22055690655956,1.22535325043528,1.22697149515162,1.23116725335943,1.22544500657899,1.22497788439284,1.23585515815622,1.26279809853639,1.25982853606724,1.2577014618267,1.26215580553042,1.23574671907729,1.24026779452189,1.26291487908293,1.31444846597725,1.31372275829518,1.31459027092662,1.27350020147996,1.27393395779568,1.24749150547211,1.24393804027027,1.22990769175032,1.25241297136199,1.26214746406281,1.30729148676791,1.43799394274835,1.37600849693874,1.27238244482023,1.26278141560117,1.25595809509622,1.23963384298353,1.23408676702291,1.23874964741688,1.25691736387137,1.24744979813406,1.25102828773874,1.23215988800501,1.23484584057542,1.2342452549075,1.23820745202223,1.23428696224555,1.22351812756109,1.22223354154916,1.22748866614343,1.39293333471935,1.2268713975403,1.21352504936436,1.21069729184459,1.2081948515616,1.21331651267411,1.2136418299109,1.2786385455277,1.29175967407816,1.19334703921587,1.19907762746392,1.20064582337459,1.19950304231202,1.20045396961956,1.19826850510575,1.1967169921303,1.19619147967087,1.19366401498505,1.19265469740425,1.19270474620991,1.19245450218161,1.19147020900363,1.19041084261717,1.18372098559398,1.18126859411665,1.17573820109125,1.17491239579787,1.16931527103158,1.16366809745964,1.16340117049612,1.16150765734866,1.14970448068057,1.14844491907147,1.15234872591293,1.15507638582138,1.15302438478933,1.15168974997174,1.15105579843338,1.14909555354504,1.14008676852629,1.13777618199833,1.1335637408553,1.12734934748588,1.12643178604879,1.13274627702953,1.13051076371006,1.12780812820443,1.13765940145179,1.14108774463948,1.14125457399168
