1.16681, 1.16146, 1.17322, 1.17112, 1.17004, 1.18264, 1.1718, 1.16836, 1.16687, 1.167, 1.16788, 1.17244, 1.1757, 1.17055, 1.1701, 1.18622, 1.18282, 1.18261, 1.1819, 1.18204, 1.18259, 1.18567, 1.19312, 1.19677, 1.20258, 1.19422, 1.19413, 1.19609, 1.2019, 1.36937, 1.13002, 1.10591, 1.12669, 1.11959, 1.15126, 1.18948, 1.20217, 1.24202, 1.26139, 1.28439, 1.31364, 1.31706, 1.33399, 1.38289, 1.37925, 1.42748, 1.46522, 1.47119, 1.47096, 1.5548, 1.50882, 1.53727, 1.56501, 1.64803, 1.64151, 1.75743, 1.74053, 1.78569, 1.74406, 1.72845, 1.77153, 1.74579, 1.74604, 1.74722, 1.74753, 1.75756, 1.82401, 1.79228, 1.79341, 1.80797, 1.86337, 1.83435, 1.83423, 1.99638, 1.82733, 1.81674, 1.80786, 1.79021, 1.79033, 1.84042, 1.83715, 1.8367, 1.82789, 1.81283, 1.80596, 1.79677, 1.79954, 1.75437, 1.75403, 1.75388, 1.76757, 1.71874, 1.75218, 1.66678, 1.66512, 1.65167, 1.65422, 1.65492, 1.64665, 1.69448, 1.5895, 1.56265, 1.53787, 1.57026, 1.48578, 1.45941, 1.3512, 1.34988, 1.29032, 1.27264, 1.21477, 1.19204, 1.17113, 1.16345, 1.1774, 1.3686, 1.41656, 1.34719, 1.19606, 1.19627, 1.18845, 1.20513, 1.165, 1.16036, 1.15764, 1.15291, 1.14357, 1.15288, 1.14536, 1.14294, 1.12525, 1.12576, 1.13763, 1.13485, 1.13428, 1.1318, 1.13006, 1.12864, 1.12912, 1.13175, 1.1344, 1.12438, 1.12442, 1.12732, 1.10044, 1.09557, 1.09329, 1.10795, 1.10735, 1.11128
1.16577, 1.16776, 1.17001, 1.17035, 1.17203, 1.17811, 1.17063, 1.17009, 1.16844, 1.16616, 1.16769, 1.1733, 1.17107, 1.17304, 1.17387, 1.18153, 1.18071, 1.17872, 1.179, 1.18049, 1.1818, 1.18607, 1.1958, 1.19622, 1.1951, 1.19504, 1.35412, 1.20184, 1.20626, 1.44787, 1.13967, 1.11074, 1.10486, 1.13379, 1.17577, 1.20186, 1.20226, 1.25323, 1.25381, 1.28756, 1.30109, 1.32661, 1.36613, 1.36581, 1.42616, 1.46411, 1.46432, 1.47926, 1.555, 1.51253, 1.52468, 1.55029, 1.59615, 1.61732, 1.62812, 1.75614, 1.74449, 1.74412, 1.74349, 1.73762, 1.73701, 1.7857, 1.75793, 1.73083, 1.73208, 1.82361, 1.8219, 1.79254, 1.79239, 1.88034, 1.86573, 1.83622, 1.85466, 1.98211, 1.86612, 1.86241, 1.84445, 1.81679, 1.84196, 1.83848, 1.83667, 1.83321, 1.82078, 1.82068, 1.81885, 1.81743, 1.80921, 1.76061, 1.74426, 1.73954, 1.73822, 1.71578, 1.71435, 1.66559, 1.66557, 1.67112, 1.66249, 1.66738, 1.66658, 1.62741, 1.57339, 1.55576, 1.56471, 1.56204, 1.49306, 1.47485, 1.35392, 1.35098, 1.30257, 1.27071, 1.23291, 1.19804, 1.17047, 1.15277, 1.20393, 1.19991, 1.19955, 1.19469, 1.1946, 1.19448, 1.1873, 1.1947, 1.16654, 1.16366, 1.16619, 1.15437, 1.15181, 1.15198, 1.1384, 1.12897, 1.12349, 1.13016, 1.13525, 1.13918, 1.13681, 1.13659, 1.13135, 1.1302, 1.12964, 1.1321, 1.12233, 1.12042, 1.12866, 1.19198, 1.09798, 1.09918, 1.10837, 1.10805, 1.1089, 1.11321
1.16049, 1.16706, 1.16743, 1.17055, 1.1765, 1.17102, 1.16974, 1.16872, 1.16771, 1.16659, 1.16861, 1.17352, 1.17263, 1.17791, 1.18087, 1.17828, 1.17769, 1.17858, 1.17744, 1.17854, 1.1804, 1.18055, 1.30497, 1.19427, 1.19444, 1.19592, 1.20191, 1.20139, 1.19972, 1.1845, 1.15011, 1.12058, 1.12405, 1.1399, 1.17857, 1.17728, 1.24277, 1.25067, 1.26888, 1.30045, 1.29788, 1.35925, 1.35844, 1.38411, 1.46046, 1.47898, 1.4817, 1.4896, 1.48978, 1.51292, 1.53357, 1.57495, 1.5964, 1.59525, 1.64, 1.7297, 1.742, 1.74441, 1.74356, 1.73818, 1.7326, 1.75664, 1.7561, 1.7449, 1.73678, 1.78978, 1.83418, 1.82231, 1.8101, 1.86628, 1.8655, 1.86378, 1.85656, 1.86771, 1.86724, 1.87982, 1.87624, 1.84757, 1.83516, 1.84206, 1.8379, 1.83541, 1.79729, 1.79628, 1.81634, 1.811, 1.81494, 1.74549, 1.74449, 1.74047, 1.73977, 1.71723, 1.71511, 1.70434, 1.67273, 1.67187, 1.69823, 1.66931, 1.66721, 1.63309, 1.55347, 1.5608, 1.5724, 1.56795, 1.49222, 1.47454, 1.44715, 1.36792, 1.29922, 1.29876, 1.27555, 1.21823, 1.16639, 1.18408, 1.1845, 1.20631, 1.20016, 1.19524, 1.19463, 1.19084, 1.18714, 1.18843, 1.17692, 1.1682, 1.17021, 1.17109, 1.16765, 1.1581, 1.13234, 1.13244, 1.12929, 1.14236, 1.14108, 1.13744, 1.13622, 1.13587, 1.13435, 1.13096, 1.1335, 1.12867, 1.12376, 1.11748, 1.13639, 1.11239, 1.10317, 1.10901, 1.10867, 1.11012, 1.11634, 1.12304
1.16113, 1.1611, 1.17643, 1.17703, 1.17556, 1.17089, 1.16846, 1.16739, 1.16785, 1.16597, 1.16818, 1.16921, 1.1702, 1.17444, 1.1741, 1.17242, 1.17159, 1.17085, 1.17366, 1.17545, 1.17717, 1.17323, 1.17459, 1.19775, 1.19758, 1.20213, 1.20381, 1.2026, 1.1952, 1.18934, 1.19888, 1.15692, 1.15771, 1.1627, 1.18257, 1.21267, 1.2292, 1.24743, 1.28263, 1.29234, 1.30981, 1.32788, 1.37408, 1.46536, 1.47882, 1.49548, 1.4946, 1.48061, 1.5089, 1.52642, 1.55451, 1.61181, 1.60269, 1.61295, 1.62297, 1.66167, 1.76107, 1.72134, 1.70875, 1.73669, 1.73101, 1.75438, 1.74906, 1.73912, 1.76174, 1.75075, 1.78564, 1.82889, 1.82714, 1.86679, 1.86537, 1.86193, 1.84864, 1.84924, 1.86395, 1.87645, 1.84872, 1.85479, 1.83174, 1.84113, 1.84079, 1.81092, 1.80985, 1.79321, 1.84041, 1.81376, 1.82285, 1.77745, 1.78322, 1.73487, 1.73199, 1.71653, 1.71631, 1.71463, 1.67306, 1.67217, 1.69867, 1.63458, 1.62217, 1.61465, 1.56813, 1.57063, 1.55433, 1.52709, 1.53354, 1.46585, 1.44716, 1.38136, 1.32307, 1.27524, 1.23958, 1.19938, 1.1676, 1.17049, 1.22011, 1.20337, 1.20253, 1.19565, 1.19456, 1.19173, 1.18855, 1.18878, 1.18901, 1.18524, 1.16768, 1.17075, 1.16332, 1.1609, 1.13467, 1.13509, 1.13344, 1.1417, 1.14351, 1.14241, 1.14207, 1.14258, 1.14041, 1.13376, 1.13171, 1.13061, 1.12456, 1.10661, 1.12328, 1.12116, 1.11238, 1.11151, 1.11444, 1.11591, 1.12935, 1.12678
1.16338, 1.17051, 1.17425, 1.18193, 1.18051, 1.17041, 1.16758, 1.16831, 1.16766, 1.16495, 1.16785, 1.16717, 1.16834, 1.17024, 1.17051, 1.16824, 1.16953, 1.16818, 1.16808, 1.33366, 1.17109, 1.17361, 1.30549, 1.19561, 1.19838, 1.20503, 1.20503, 1.18659, 1.19322, 1.17249, 1.19455, 1.16674, 1.16137, 1.1953, 1.18899, 1.22049, 1.23834, 1.27418, 1.28232, 1.30266, 1.33626, 1.3507, 1.36784, 1.41908, 1.43942, 1.49114, 1.49598, 1.47805, 1.49868, 1.51638, 1.59196, 1.59366, 1.61594, 1.61375, 1.61229, 1.66444, 1.70597, 1.72472, 1.70259, 1.70339, 1.76175, 1.7479, 1.74786, 1.80062, 1.76927, 1.75708, 1.78144, 1.78489, 1.832, 1.83513, 1.9517, 1.8651, 1.84826, 1.8699, 1.865, 1.87211, 1.87324, 1.85922, 1.85976, 1.84453, 1.84134, 1.78139, 1.79343, 1.79636, 1.7966, 1.8655, 1.86669, 1.77833, 1.80551, 1.73379, 1.73336, 1.71802, 1.7176, 1.74212, 1.68544, 1.65377, 1.65907, 1.64181, 1.62475, 1.63179, 1.58393, 1.56684, 1.55261, 1.54345, 1.5283, 1.50663, 1.44467, 1.4409, 1.32622, 1.25561, 1.22789, 1.20483, 1.16772, 1.19177, 1.22683, 1.20314, 1.20226, 1.19617, 1.19605, 1.1945, 1.1879, 1.18962, 1.18422, 1.1846, 1.16577, 1.16008, 1.16002, 1.16012, 1.15526, 1.14601, 1.1425, 1.14151, 1.1411, 1.141, 1.14184, 1.14234, 1.13613, 1.1367, 1.13148, 1.13017, 1.13218, 1.11189, 1.11145, 1.1212, 1.11295, 1.11559, 1.11806, 1.12207, 1.12322, 1.12635
1.16751, 1.16966, 1.17024, 1.17572, 1.17591, 1.16868, 1.16675, 1.16696, 1.17022, 1.16264, 1.16401, 1.16649, 1.1717, 1.17112, 1.16705, 1.16696, 1.16804, 1.1565, 1.29615, 1.15117, 1.29684, 1.17674, 1.1884, 1.19513, 1.19936, 1.20949, 1.40521, 1.18481, 1.18156, 1.18786, 1.16965, 1.16275, 1.18253, 1.17935, 1.19161, 1.21493, 1.25079, 1.24034, 1.28622, 1.30048, 1.34368, 1.35473, 1.38238, 1.43851, 1.4278, 1.45336, 1.48418, 1.47809, 1.488, 1.51729, 1.57383, 1.61287, 1.60463, 1.59879, 1.637, 1.66512, 1.68861, 1.68771, 1.70249, 1.71756, 1.80304, 1.79635, 1.76656, 1.81076, 1.79279, 1.79151, 1.89418, 1.79932, 1.80778, 1.84125, 1.95838, 0.00461683, 1.87931, 1.93065, 1.87356, 1.87322, 1.87192, 1.85944, 1.85914, 1.8714, 1.81072, 1.78227, 1.78111, 1.77597, 1.78163, 1.78873, 1.80107, 1.78843, 1.76871, 1.76171, 1.72611, 1.72448, 1.77549, 1.65833, 1.66783, 1.65382, 1.75204, 1.64372, 1.62, 1.65161, 1.6127, 1.58947, 1.56972, 1.55048, 1.52839, 1.50427, 1.51791, 1.41855, 1.30233, 1.27162, 1.23267, 1.20183, 1.16436, 1.15324, 1.23976, 1.20895, 1.20577, 1.20156, 1.20338, 1.19127, 1.18915, 1.18392, 1.1837, 1.16989, 1.16347, 1.15932, 1.15869, 1.15288, 1.14656, 1.14483, 1.14058, 1.14005, 1.1393, 1.13753, 1.13904, 1.13867, 1.13533, 1.13002, 1.12973, 1.12925, 1.13015, 1.11605, 1.11555, 1.11163, 1.11226, 1.11927, 1.12052, 1.12726, 1.12455, 1.12831
1.17012, 1.16892, 1.1658, 1.17431, 1.16217, 1.16012, 1.16083, 1.16474, 1.1575, 1.15685, 1.157, 1.16105, 1.16284, 1.16706, 1.17361, 1.1737, 1.17414, 1.27773, 1.18023, 1.14759, 1.27923, 1.17929, 1.25266, 1.19624, 1.20954, 1.21169, 1.21292, 1.18648, 1.17855, 1.1879, 1.15744, 1.15765, 1.19491, 1.19604, 1.19881, 1.22137, 1.25734, 1.27778, 1.28928, 1.32419, 1.34035, 1.35663, 1.39195, 1.42175, 1.44085, 1.45667, 1.48431, 1.49567, 1.55456, 1.59382, 1.6037, 1.65889, 1.66873, 1.59782, 1.67585, 1.72017, 1.71017, 1.71329, 1.70376, 1.70652, 1.74182, 1.81472, 1.80397, 1.79849, 1.79897, 1.79932, 1.80056, 1.7987, 1.79899, 1.83826, 2.02137, 1.93348, 1.93343, 1.94063, 1.87991, 1.87268, 1.87249, 1.8589, 1.8584, 1.78733, 1.80526, 1.7829, 1.79206, 1.77133, 1.78108, 1.78897, 1.78531, 1.8371, 1.76807, 1.76989, 1.73847, 1.76777, 1.7712, 1.65851, 1.66579, 1.65448, 1.64756, 1.65726, 1.60288, 1.60035, 1.58625, 1.57617, 1.57501, 1.56515, 1.56722, 1.49643, 1.4688, 1.44012, 1.28128, 1.25403, 1.23665, 1.1682, 1.1645, 1.15466, 1.22659, 1.66779, 1.20283, 1.20141, 1.20116, 1.41732, 1.18509, 1.17948, 1.17167, 1.16694, 1.16221, 1.15716, 1.15804, 1.15076, 1.14574, 1.14293, 1.13908, 1.13959, 1.13808, 1.13789, 1.13769, 1.13687, 1.13714, 1.12938, 1.12937, 1.13375, 1.13365, 1.13044, 1.12862, 1.10433, 1.10717, 1.11553, 1.11905, 1.12417, 1.12029, 1.12209
1.17065, 1.16983, 1.16702, 1.16558, 1.16146, 1.15901, 1.15967, 1.16431, 1.15297, 1.15483, 1.15509, 1.15737, 1.16062, 1.16365, 1.16835, 1.1701, 1.24708, 1.13209, 1.13315, 1.14483, 1.26674, 1.22625, 1.20083, 1.20264, 1.31781, 1.21174, 1.21376, 1.3203, 1.19341, 1.17037, 1.15747, 1.16375, 1.19215, 1.19892, 1.22196, 1.22164, 1.26719, 1.28223, 1.29534, 1.32918, 1.34628, 1.39531, 1.40723, 1.43607, 1.4411, 1.45054, 1.47818, 1.49714, 1.49568, 1.5962, 1.58137, 1.58198, 1.65582, 1.65434, 1.70549, 1.70308, 1.76509, 1.71928, 1.73178, 1.73429, 1.7415, 1.78185, 1.79048, 1.79121, 1.79077, 1.79783, 1.80584, 1.79901, 1.83175, 1.82344, 0.00455445, 1.93399, 1.93395, 1.92062, 1.92032, 1.86652, 1.86557, 1.85915, 1.86487, 1.793, 1.79351, 1.76973, 1.77726, 1.78652, 1.79763, 1.89585, 1.76814, 1.76798, 1.77102, 1.78258, 1.73852, 1.7401, 1.69141, 1.75409, 1.74394, 1.64588, 1.67818, 1.69961, 1.6282, 1.5998, 1.59303, 1.56744, 1.57372, 1.57147, 1.52565, 1.54426, 1.43847, 1.43596, 1.27532, 1.25064, 1.2361, 1.2126, 1.16282, 1.15016, 1.15547, 1.18159, 1.20219, 1.20013, 1.19909, 1.19484, 1.18299, 1.17736, 1.16884, 1.16748, 1.16207, 1.15918, 1.15688, 1.15342, 1.14639, 1.14587, 1.14688, 1.14678, 1.1429, 1.14237, 1.1384, 1.13775, 1.13753, 1.13054, 1.1297, 1.13036, 1.13336, 1.12711, 1.12487, 1.10446, 1.10016, 1.11677, 1.11854, 1.11948, 1.12172, 1.11502
1.17491, 1.16684, 1.16577, 1.16487, 1.16136, 1.16703, 1.16702, 1.15706, 1.15623, 1.15394, 1.15533, 1.15812, 1.15731, 1.16278, 1.16988, 1.17038, 1.13451, 1.13215, 1.13258, 1.2548, 1.22703, 1.18909, 1.19091, 1.19601, 1.20464, 1.20897, 1.46854, 1.43749, 1.18056, 1.17911, 1.15479, 1.17118, 1.1878, 1.18606, 1.2139, 1.24658, 1.26608, 1.28555, 1.28652, 1.33502, 1.35024, 1.40274, 1.45747, 1.44871, 1.44902, 1.46507, 1.47258, 1.49739, 1.49719, 1.57662, 1.57731, 1.59069, 1.74691, 1.6657, 1.66557, 1.70934, 1.7993, 1.72073, 1.73531, 1.73031, 1.74499, 1.77995, 1.82648, 1.79134, 1.79131, 1.80034, 1.80701, 1.80897, 1.81606, 1.84237, 1.91574, 1.9335, 1.9333, 1.91983, 1.92123, 1.8862, 1.86031, 1.83098, 1.80662, 1.763, 1.76231, 1.78215, 1.7815, 1.84073, 1.79792, 1.79686, 1.82354, 1.77485, 1.77402, 1.76243, 1.79683, 1.76872, 1.70382, 1.70972, 1.74544, 1.75313, 1.67597, 1.66144, 1.67241, 1.61715, 1.5935, 1.56491, 1.56692, 1.62287, 1.52256, 1.43559, 1.47198, 1.3994, 1.27273, 1.2514, 1.22209, 1.19526, 1.1574, 1.13954, 1.15399, 1.18491, 1.20891, 1.20516, 1.42578, 1.1911, 1.19052, 1.19504, 1.30905, 1.169, 1.25116, 1.15995, 1.15345, 1.15847, 1.16014, 1.15194, 1.14671, 1.14124, 1.13989, 1.13836, 1.13805, 1.13906, 1.14937, 1.13194, 1.12922, 1.12965, 1.12848, 1.12434, 1.12282, 1.10569, 1.10117, 1.11818, 1.11668, 1.11961, 1.12192, 1.24329
1.17209, 1.16092, 1.16048, 1.16363, 1.16657, 1.16806, 1.1672, 1.1694, 1.16441, 1.15798, 1.15686, 1.1586, 1.16153, 1.16501, 1.16534, 1.14559, 1.14024, 1.13911, 1.14121, 1.14697, 1.17492, 1.17697, 1.19101, 1.19911, 1.20349, 1.2045, 1.39596, 1.40345, 1.18424, 1.17555, 1.1532, 1.16473, 1.18127, 1.20018, 1.20649, 1.2376, 1.26003, 1.30427, 1.30892, 1.36314, 1.36446, 1.38594, 1.46448, 1.44936, 1.45002, 1.4724, 1.48611, 1.51412, 1.53853, 1.57861, 1.64746, 1.59426, 1.66872, 1.69594, 1.71765, 1.70992, 1.71243, 1.74489, 1.73856, 1.74169, 1.7418, 1.74166, 1.77592, 1.77151, 1.79142, 1.79083, 1.82262, 1.81004, 1.81443, 1.80858, 1.80744, 0.00429235, 1.97944, 1.97887, 1.97317, 1.86642, 1.85326, 1.80728, 1.79722, 1.80286, 1.76511, 1.75491, 1.78659, 1.80267, 1.80282, 1.77275, 1.77178, 1.76532, 1.76585, 1.76422, 1.75059, 1.71297, 1.70623, 1.70937, 1.70485, 1.70256, 1.676, 1.66224, 1.66052, 1.63798, 1.57766, 1.56968, 1.5533, 1.54326, 1.50019, 1.44801, 1.41963, 1.40908, 1.28101, 1.26485, 1.23704, 1.19178, 1.18044, 1.14626, 1.14738, 1.23616, 1.20686, 1.208, 1.20821, 1.37843, 1.19081, 1.19177, 1.18628, 1.16051, 1.15859, 1.15991, 1.15195, 1.15376, 1.15452, 1.15402, 1.14729, 1.14258, 1.13935, 1.138, 1.13936, 1.13892, 1.14997, 1.13209, 1.13064, 1.13012, 1.12643, 1.12537, 1.12634, 1.19146, 1.1037, 1.12011, 1.12143, 1.12302, 1.1193, 1.09584
1.1719, 1.16757, 1.16403, 1.16533, 1.16459, 1.16225, 1.16683, 1.16812, 1.16775, 1.1667, 1.16809, 1.23106, 1.17002, 1.15964, 1.14629, 1.14625, 1.14424, 1.14266, 1.14555, 1.24606, 1.35785, 1.18677, 1.19259, 1.34338, 1.2079, 1.44719, 1.31333, 1.20501, 1.19113, 1.13717, 1.13502, 1.15996, 1.17525, 1.18061, 1.23642, 1.23027, 1.25787, 1.29148, 1.33367, 1.40157, 1.37272, 1.39234, 1.47992, 1.48123, 1.48071, 1.47822, 1.5087, 1.53758, 1.54756, 1.57611, 1.59575, 1.62348, 1.7016, 1.70318, 1.72729, 1.71247, 1.71442, 1.75852, 1.83365, 1.7407, 1.74073, 1.74036, 1.75793, 1.77516, 1.84414, 1.82669, 1.82621, 1.81841, 1.81758, 1.80701, 1.80782, 1.84456, 1.97663, 1.97633, 1.84719, 1.85797, 1.84717, 1.82027, 1.83408, 1.79387, 1.76664, 1.75516, 1.78371, 1.79046, 1.78406, 1.7637, 1.76909, 1.75916, 1.76675, 1.76573, 1.73645, 1.71634, 1.70927, 1.7082, 1.71599, 1.69339, 1.69267, 1.66628, 1.66512, 1.62444, 1.61647, 1.56882, 1.55071, 1.54327, 1.46641, 1.4279, 1.41693, 1.40053, 1.34827, 1.26016, 1.2366, 1.18547, 1.1467, 1.14834, 1.15017, 1.23222, 1.47358, 1.20688, 1.20747, 1.18715, 1.18762, 1.19513, 1.26493, 1.16036, 1.17253, 1.17351, 1.16178, 1.16145, 1.15907, 1.15475, 1.1477, 1.14354, 1.1439, 1.13402, 1.12328, 1.13943, 1.14939, 1.1318, 1.13241, 1.13825, 1.13165, 1.12647, 1.12433, 1.12262, 1.11569, 1.1198, 1.11955, 1.11865, 1.11789, 1.11838
1.17471, 1.17185, 1.16454, 1.16078, 1.16318, 1.16401, 1.16515, 1.16716, 1.16802, 1.16537, 1.16827, 1.17183, 1.17602, 1.15417, 1.15096, 1.15204, 1.34027, 1.33016, 1.15144, 1.16701, 1.1813, 1.18589, 1.19374, 1.19797, 1.19708, 1.19767, 1.18918, 1.15346, 1.17036, 1.14646, 1.14368, 1.15422, 1.18924, 1.20195, 1.21786, 1.23414, 1.2788, 1.28159, 1.33082, 1.3415, 1.38502, 1.41049, 1.42888, 1.51118, 1.46744, 1.4943, 1.50348, 1.5398, 1.56126, 1.57935, 1.60656, 1.62969, 1.75836, 1.71728, 1.71428, 1.71701, 1.76142, 1.76696, 1.75933, 1.76753, 1.74278, 1.73913, 1.73914, 1.77873, 1.77743, 1.80985, 1.81285, 1.81967, 1.81331, 1.80498, 1.80825, 1.81956, 1.83763, 1.83344, 1.83012, 1.8164, 1.83789, 1.80656, 1.88007, 1.79248, 1.76543, 1.77803, 1.78269, 1.78216, 1.7747, 1.77374, 1.76072, 1.76554, 1.76845, 1.77041, 1.74516, 1.72437, 1.77579, 1.71065, 1.70988, 1.7042, 1.6816, 1.67719, 1.71438, 1.63686, 1.59192, 1.57914, 1.54891, 1.54749, 1.47112, 1.41646, 1.42426, 1.40038, 1.33309, 1.25365, 1.21474, 1.18631, 1.15059, 1.14324, 1.17562, 1.20134, 1.20542, 1.20548, 1.20323, 1.18849, 1.18937, 1.19174, 1.16187, 1.17038, 1.16709, 1.16438, 1.15939, 1.15942, 1.15886, 1.15358, 1.15305, 1.14975, 1.12433, 1.11986, 1.12078, 1.15345, 1.13509, 1.13577, 1.13742, 1.13841, 1.13283, 1.12784, 1.1246, 1.1221, 1.11906, 1.11904, 1.11665, 1.11409, 1.10973, 1.1108
1.17385, 1.17048, 1.16211, 1.15849, 1.16171, 1.16383, 1.16136, 1.16415, 1.27938, 1.16022, 1.16417, 1.17342, 1.17509, 1.15355, 1.15613, 1.15711, 1.1678, 1.16707, 1.16744, 1.17418, 1.18323, 1.18722, 1.19468, 1.20526, 1.20421, 1.3378, 1.33499, 1.38859, 1.12018, 1.11865, 1.13719, 1.18749, 1.18568, 1.2228, 1.23642, 1.24689, 1.25481, 1.27738, 1.33564, 1.33279, 1.38542, 1.40353, 1.42273, 1.47423, 1.50926, 1.55763, 1.53411, 1.53837, 1.56197, 1.58574, 1.60334, 1.65101, 1.74818, 1.71802, 1.71444, 1.71968, 1.7756, 1.76145, 1.7588, 1.75857, 1.75184, 1.749, 1.76388, 1.76863, 1.77679, 1.80994, 1.80944, 1.81293, 1.80754, 1.80636, 1.80777, 1.79314, 1.79315, 1.80238, 1.81392, 1.79742, 1.79756, 1.82933, 1.7864, 1.79489, 1.79651, 1.76875, 1.7819, 1.77026, 1.77016, 1.77517, 1.76198, 1.76102, 1.76915, 1.76688, 1.74511, 1.73394, 1.70839, 1.68186, 1.71077, 1.69969, 1.6833, 1.68081, 1.69335, 1.65903, 1.59151, 1.56837, 1.56839, 1.56715, 1.48881, 1.43482, 1.4333, 1.44342, 1.3642, 1.32265, 1.20185, 1.19394, 1.14705, 1.12624, 1.12679, 1.20252, 1.2087, 1.20582, 1.20596, 1.19203, 1.19428, 1.25872, 1.15997, 1.16691, 1.16498, 1.16196, 1.16103, 1.16028, 1.16055, 1.15668, 1.15598, 1.15379, 1.12328, 1.12069, 1.12302, 1.1589, 1.15342, 1.13768, 1.13688, 1.13659, 1.13892, 1.13322, 1.12979, 1.12808, 1.12086, 1.11985, 1.11301, 1.1107, 1.10553, 1.10519
1.16667, 1.16739, 1.16052, 1.15668, 1.15731, 1.16134, 1.15949, 1.15734, 1.15244, 1.15451, 1.16815, 1.1694, 1.17654, 1.1598, 1.16107, 1.16499, 1.16559, 1.16659, 1.16617, 1.17378, 1.17922, 1.18551, 1.19079, 1.20772, 1.20534, 1.20563, 1.32188, 1.27467, 1.23102, 1.14097, 1.17295, 1.17589, 1.21669, 1.21401, 1.23296, 1.28235, 1.36854, 1.28201, 1.33316, 1.33468, 1.37083, 1.3921, 1.42342, 1.46486, 1.50417, 1.61027, 1.52105, 1.53999, 1.55723, 1.59253, 1.64079, 1.68551, 1.766, 1.76476, 1.76392, 1.73664, 1.7714, 1.76889, 1.76227, 1.76247, 1.75109, 1.74877, 1.76048, 1.76852, 1.8069, 1.8055, 1.80952, 1.80996, 1.80774, 1.79392, 1.79417, 1.79312, 1.79407, 1.79323, 1.77549, 1.77524, 1.82983, 1.82803, 1.78925, 1.78819, 1.82151, 1.79099, 1.78265, 1.78209, 1.77155, 1.77751, 1.77688, 1.76161, 1.77221, 1.78055, 1.82338, 1.69614, 1.68918, 1.69176, 1.67736, 1.66575, 1.68567, 1.68183, 1.66987, 1.73644, 1.73804, 1.67055, 1.57534, 1.59283, 1.46393, 1.47413, 1.49763, 1.4168, 1.34294, 1.25799, 1.23077, 1.15532, 1.14599, 1.16065, 1.16458, 1.21521, 1.20901, 1.20702, 1.20385, 1.19267, 1.19222, 1.24731, 1.24304, 1.16973, 1.16804, 1.16421, 1.16214, 1.16144, 1.15951, 1.15522, 1.1544, 1.13458, 1.1307, 1.12929, 1.14951, 1.16158, 1.28532, 1.13588, 1.13447, 1.13617, 1.13954, 1.12987, 1.12669, 1.12654, 1.11774, 1.1125, 1.11027, 1.10745, 1.10472, 1.10143
1.16347, 1.16065, 1.15811, 1.15739, 1.15661, 1.15698, 1.15664, 1.15125, 1.14913, 1.14786, 1.1668, 1.16879, 1.16763, 1.16199, 1.16291, 1.16316, 1.16562, 1.16686, 1.16755, 1.17622, 1.1855, 1.19053, 1.2002, 1.20779, 1.20808, 1.40608, 1.3919, 1.20974, 1.20816, 1.16347, 1.18146, 1.1723, 1.22219, 1.24631, 1.26493, 1.25019, 1.28506, 1.2844, 1.33975, 1.35358, 1.41641, 1.43743, 1.43844, 1.53426, 1.51177, 1.61266, 1.51954, 1.51679, 1.54851, 1.58157, 1.61432, 1.65508, 1.73167, 1.70579, 1.71884, 1.73729, 1.77263, 1.75885, 1.76867, 1.75716, 1.75581, 1.75908, 1.76278, 1.78412, 1.79056, 1.78679, 1.82418, 1.80962, 1.82726, 1.78764, 1.78641, 1.79473, 1.79717, 1.79356, 1.7766, 1.7765, 1.78065, 1.78985, 1.78976, 1.78906, 1.8536, 1.82697, 1.78221, 1.77232, 1.76898, 1.76672, 1.76703, 1.76513, 1.75669, 1.79283, 1.75772, 1.69778, 1.69703, 1.68923, 1.6674, 1.66694, 1.75477, 1.75442, 1.67503, 1.70076, 1.65261, 1.62814, 1.63033, 1.54159, 1.53405, 1.49911, 1.47033, 1.45033, 1.4242, 1.28553, 1.21712, 1.18244, 1.15863, 1.15091, 1.21246, 1.21656, 1.2167, 1.47159, 1.2008, 1.19805, 1.2013, 1.27635, 1.22316, 1.17046, 1.16934, 1.17057, 1.16255, 1.16731, 1.1626, 1.16042, 1.1392, 1.14115, 1.14115, 1.14155, 1.15029, 1.16233, 1.31944, 1.1326, 1.13317, 1.13083, 1.13058, 1.12883, 1.13014, 1.12842, 1.11065, 1.10984, 1.10811, 1.10768, 1.10458, 1.10087
1.15923, 1.15955, 1.157, 1.15361, 1.1531, 1.158, 1.15341, 1.15153, 1.15229, 1.15282, 1.16494, 1.16736, 1.16837, 1.17226, 1.16482, 1.16443, 1.16742, 1.16703, 1.16449, 1.16949, 1.18862, 1.19086, 1.19958, 1.20883, 1.41716, 1.21716, 1.22385, 1.22382, 1.20137, 1.17934, 1.17799, 1.18479, 1.21985, 1.24092, 1.25221, 1.26534, 1.28474, 1.29472, 1.33934, 1.386, 1.42481, 1.45159, 1.45822, 1.52388, 1.50943, 1.51422, 1.54315, 1.55125, 1.62309, 1.62247, 1.70928, 1.64438, 1.69406, 1.7072, 1.7132, 1.73787, 1.77919, 1.78189, 1.76873, 1.77404, 1.75792, 1.75941, 1.75912, 1.78264, 1.80006, 1.78906, 1.82017, 1.91282, 1.91195, 1.78791, 1.78233, 1.78514, 1.78617, 1.79339, 1.79405, 1.76311, 1.76284, 1.76297, 1.77616, 1.78905, 1.91277, 1.92824, 0.00446246, 0.00443262, 1.81251, 1.84773, 1.76449, 1.74869, 1.74706, 1.7354, 1.75172, 1.79282, 1.78986, 1.6987, 1.66827, 1.66705, 1.65603, 1.67591, 1.65189, 1.66096, 1.65291, 1.71845, 1.58147, 1.56235, 1.56192, 1.52734, 1.49644, 1.41603, 1.41531, 1.25496, 1.24059, 1.19576, 1.17157, 1.17055, 1.20311, 1.21335, 1.21301, 1.20569, 1.20141, 1.19844, 1.19867, 1.18689, 1.17823, 1.1787, 1.17628, 1.16814, 1.16635, 1.16737, 1.16141, 1.16033, 1.14938, 1.14955, 1.14527, 1.1431, 1.16445, 1.16411, 1.25681, 1.13153, 1.13267, 1.1321, 1.13119, 1.13162, 1.13163, 1.12868, 1.11212, 1.10939, 1.10812, 1.10732, 1.10629, 1.10497
1.16064, 1.1603, 1.16411, 1.1539, 1.15534, 1.1664, 1.16706, 1.15224, 1.15737, 1.15712, 1.16754, 1.1703, 1.17049, 1.17423, 1.17222, 1.16986, 1.17017, 1.16917, 1.16629, 1.16806, 1.17384, 1.35402, 1.21277, 1.21413, 1.21731, 1.21857, 1.21378, 1.21275, 1.19788, 1.19193, 1.17504, 1.19412, 1.21252, 1.2494, 1.25429, 1.28099, 1.29927, 1.3311, 1.37095, 1.38823, 1.42055, 1.48265, 1.50626, 1.50044, 1.50018, 1.49809, 1.5479, 1.55457, 1.62004, 1.61568, 1.62314, 1.63709, 1.69421, 1.70329, 1.72607, 1.75103, 1.75176, 1.7474, 1.73514, 1.7618, 1.76925, 1.75964, 1.77697, 1.85531, 1.80219, 1.80369, 1.82077, 1.8208, 1.82414, 1.82032, 1.78911, 1.78429, 1.78497, 1.79972, 1.7972, 1.76506, 1.76451, 1.76373, 1.77975, 1.80918, 1.90058, 1.93115, 0.00434239, 2.06604, 1.8384, 1.74918, 1.74834, 1.73097, 1.73086, 1.73174, 1.74139, 1.69624, 1.69522, 1.69948, 1.69866, 1.66851, 1.64594, 1.66237, 1.65274, 1.68372, 1.61051, 1.58208, 1.57613, 1.58114, 1.5921, 1.54663, 1.46271, 1.40386, 1.36735, 1.27856, 1.22223, 1.18104, 1.15731, 1.18472, 1.20733, 1.33348, 1.21236, 1.20634, 1.2019, 1.19894, 1.19233, 1.1878, 1.17942, 1.17982, 1.17454, 1.16718, 1.16438, 1.16346, 1.16304, 1.15857, 1.15657, 1.15131, 1.15186, 1.15047, 1.16577, 1.2522, 1.13766, 1.13362, 1.13787, 1.13903, 1.13587, 1.13584, 1.1263, 1.12525, 1.11585, 1.11312, 1.11124, 1.10965, 1.11014, 1.1091
1.16101, 1.16556, 1.16627, 1.15518, 1.15669, 1.16632, 1.16768, 1.16693, 1.168, 1.18135, 1.16869, 1.17196, 1.17455, 1.17422, 1.1731, 1.17126, 1.17186, 1.17132, 1.34457, 1.17262, 1.17356, 1.18119, 1.20956, 1.2132, 1.2184, 1.21058, 1.223, 1.21909, 1.1852, 1.17896, 1.18146, 1.1796, 1.21559, 1.24485, 1.26188, 1.27264, 1.31966, 1.33078, 1.36774, 1.39636, 1.41592, 1.46073, 1.47957, 1.54394, 1.50304, 1.49759, 1.57138, 1.56362, 1.65636, 1.66252, 1.63346, 1.6411, 1.70678, 1.71209, 1.72744, 1.77568, 1.7492, 1.74474, 1.73736, 1.76127, 1.766, 1.76839, 1.8182, 1.79901, 1.8095, 1.80466, 1.81387, 1.82131, 1.82016, 1.81893, 1.78061, 1.7852, 1.78786, 1.78583, 1.76505, 1.76521, 1.79264, 1.79281, 1.80907, 1.8141, 2.10382, 1.92049, 2.00467, 2.01366, 1.82461, 1.75596, 1.74876, 1.72345, 1.72175, 1.72281, 1.73906, 1.70075, 1.77321, 1.69976, 1.77958, 1.70304, 1.67088, 1.68013, 1.67201, 1.64452, 1.59622, 1.57558, 1.53695, 1.617, 1.58308, 1.47849, 1.47608, 1.4485, 1.30778, 1.28463, 1.21981, 1.23983, 1.1573, 1.16757, 1.1962, 1.21819, 1.21612, 1.21121, 1.20345, 1.19954, 1.1979, 1.19144, 1.18446, 1.18096, 1.17441, 1.16887, 1.16463, 1.16342, 1.16372, 1.16149, 1.15868, 1.15981, 1.15891, 1.15634, 1.168, 1.16312, 1.14457, 1.14839, 1.14621, 1.14402, 1.13975, 1.13862, 1.12497, 1.12114, 1.11616, 1.11525, 1.11441, 1.11496, 1.33252, 1.12256
1.15957, 1.16138, 1.16004, 1.16067, 1.16682, 1.1677, 1.16993, 1.16882, 1.1747, 1.18193, 1.16924, 1.17879, 1.17644, 1.17268, 1.17955, 1.17411, 1.174, 1.17486, 1.18077, 1.18127, 1.17724, 1.18092, 1.36766, 1.21686, 1.22046, 1.21535, 1.20944, 1.23039, 1.17369, 1.17399, 1.19228, 1.21228, 1.217, 1.2537, 1.25407, 1.29454, 1.30177, 1.3417, 1.37238, 1.40235, 1.42875, 1.44457, 1.48216, 1.49162, 1.50267, 1.50482, 1.51462, 1.53912, 1.65835, 1.64014, 1.65772, 1.66925, 1.74413, 1.74416, 1.73749, 1.76196, 1.75633, 1.77559, 1.76335, 1.76454, 1.81369, 1.77135, 1.82478, 1.8131, 1.80746, 1.80348, 1.80375, 1.82349, 1.82258, 1.82467, 1.81287, 1.82965, 1.788, 1.78984, 1.78916, 1.88996, 1.8892, 1.78324, 1.82476, 1.81074, 2.09826, 1.91416, 1.94216, 1.94154, 1.95834, 1.75586, 1.75335, 1.84837, 1.71609, 1.71927, 1.7415, 1.82202, 1.77467, 1.72386, 1.89666, 1.69501, 1.67581, 1.67696, 1.72709, 1.6158, 1.58021, 1.56992, 1.53731, 1.52663, 1.48333, 1.46784, 1.43388, 1.36446, 1.33561, 1.29231, 1.23779, 1.23865, 1.1513, 1.16031, 1.19834, 1.2186, 1.21653, 1.21386, 1.20657, 1.20526, 1.20541, 1.20933, 1.20399, 1.20189, 1.33362, 1.17047, 1.21016, 1.16758, 1.16683, 1.16605, 1.16279, 1.16637, 1.16647, 1.16084, 1.16462, 1.15298, 1.14556, 1.14392, 1.14735, 1.14385, 1.13982, 1.13357, 1.12343, 1.12027, 1.11854, 1.11817, 1.11812, 1.33052, 1.12631, 1.12413
1.16031, 1.1585, 1.15868, 1.16126, 1.16469, 1.17244, 1.17185, 1.17478, 1.17709, 1.18118, 1.18554, 1.19122, 1.17624, 1.17438, 1.18173, 1.17983, 1.18171, 1.18361, 1.18605, 1.18745, 1.18732, 1.1864, 1.37244, 1.352, 1.2218, 1.21534, 1.20733, 1.22137, 1.19025, 1.16609, 1.19477, 1.23131, 1.21691, 1.2499, 1.27189, 1.29341, 1.30973, 1.34751, 1.35496, 1.39526, 1.43363, 1.49939, 1.47621, 1.50265, 1.50293, 1.51376, 1.52967, 1.56553, 1.61295, 1.65096, 1.71844, 1.75423, 1.7336, 1.7689, 1.78173, 1.77912, 1.7566, 1.75631, 1.78275, 1.78224, 1.77326, 1.77234, 1.82845, 1.93136, 1.80804, 1.80252, 1.80712, 1.82364, 1.8243, 1.82531, 1.8108, 1.82673, 1.81905, 1.89733, 1.87225, 1.87214, 1.8374, 1.78572, 1.79266, 1.80355, 2.07457, 2.00492, 1.95553, 1.9585, 1.75535, 1.75796, 1.75593, 1.71608, 1.71626, 1.71911, 1.71763, 1.7304, 1.73036, 1.79637, 1.78523, 1.68284, 1.6757, 1.68638, 1.66732, 1.6585, 1.58674, 1.56853, 1.56041, 1.51566, 1.48201, 1.45713, 1.46041, 1.37202, 1.32924, 1.27482, 1.26368, 1.18827, 1.15329, 1.17498, 1.21209, 1.51342, 1.2154, 1.21338, 1.20841, 1.20934, 1.20918, 1.20514, 1.20394, 1.18892, 1.18553, 1.18252, 1.18158, 1.17767, 1.17837, 1.17513, 1.17305, 1.16473, 1.16516, 1.17397, 1.16477, 1.15201, 1.15356, 1.14689, 1.14819, 1.14414, 1.13908, 1.13599, 1.12692, 1.12454, 1.28622, 1.13235, 1.33312, 1.13343, 1.12638, 1.12694
1.16267, 1.15972, 1.15392, 1.1619, 1.16297, 1.16914, 1.16559, 1.17975, 1.18056, 1.18217, 1.17882, 1.19064, 1.18794, 1.18337, 1.18307, 1.18236, 1.18801, 1.19232, 1.19157, 1.19216, 1.1924, 1.1948, 1.1955, 1.4478, 1.22193, 1.21964, 1.20402, 1.23853, 1.17434, 1.18518, 1.19451, 1.20218, 1.21663, 1.25835, 1.26428, 1.2888, 1.31824, 1.34365, 1.35623, 1.42053, 1.42556, 1.46492, 1.47844, 1.47842, 1.4999, 1.5475, 1.53678, 1.55957, 1.62975, 1.6667, 1.67265, 1.76359, 1.74079, 1.80689, 1.82724, 1.8282, 1.79017, 1.80859, 1.7756, 1.77525, 1.77376, 1.77306, 1.82862, 1.828, 1.80333, 1.8062, 1.80634, 1.80651, 1.83254, 1.83424, 1.8031, 1.80151, 1.81887, 1.9066, 1.89556, 1.90361, 1.84949, 1.77122, 1.78646, 1.80986, 1.80971, 1.75748, 2.04173, 1.96622, 1.75113, 1.75844, 1.75763, 1.71852, 1.71597, 1.71604, 1.72098, 1.71956, 1.73032, 1.73632, 1.70595, 1.66298, 1.67245, 1.67189, 1.66512, 1.62799, 1.64088, 1.57125, 1.5444, 1.49991, 1.47558, 1.45733, 1.46083, 1.36838, 1.37013, 1.27767, 1.24464, 1.1632, 1.16767, 1.16917, 1.20451, 1.20915, 1.48591, 1.4337, 1.44413, 1.20705, 1.21051, 1.20282, 1.2563, 1.18567, 1.1876, 1.18078, 1.18028, 1.1777, 1.18054, 1.181, 1.17164, 1.16685, 1.16818, 1.17626, 1.17802, 1.15076, 1.15337, 1.15363, 1.15345, 1.15236, 1.29648, 1.22403, 1.13662, 1.13443, 1.13379, 1.14118, 1.14034, 1.13391, 1.13014, 1.13057
1.17092, 1.153, 1.15317, 1.17217, 1.17031, 1.1707, 1.16574, 1.17069, 1.18209, 1.18193, 1.17709, 1.19104, 1.18891, 1.18937, 1.18729, 1.18211, 1.18164, 1.19307, 1.19457, 1.19655, 1.19442, 1.19858, 1.19898, 1.2154, 1.22091, 1.21893, 1.21201, 1.20168, 1.20803, 1.17918, 1.1917, 1.19442, 1.2012, 1.23539, 1.25654, 1.28202, 1.33001, 1.32518, 1.34443, 1.39968, 1.41653, 1.44915, 1.45801, 1.47429, 1.4848, 1.5201, 1.55824, 1.59249, 1.65092, 1.67108, 1.66943, 1.71465, 1.86901, 1.75601, 1.82663, 1.81997, 1.83555, 1.84139, 1.78054, 1.78655, 1.86792, 1.86331, 1.82143, 1.82054, 1.81352, 1.80788, 1.80666, 1.81274, 1.83227, 1.78959, 1.78952, 1.80154, 1.79996, 1.80549, 1.99056, 1.8109, 1.85074, 1.80096, 1.7829, 1.77948, 1.80019, 1.75791, 1.75503, 1.77889, 1.74802, 1.75548, 1.75842, 1.84848, 1.71643, 1.71643, 1.71385, 1.71974, 1.71368, 1.72703, 1.69673, 1.68913, 1.66393, 1.66554, 1.66413, 1.65336, 1.61425, 1.58962, 1.55834, 1.47518, 1.47319, 1.53131, 1.45179, 1.36126, 1.29331, 1.26893, 1.17202, 1.17739, 1.15795, 1.19183, 1.19556, 1.19984, 1.20453, 1.20235, 1.1994, 1.20467, 1.21179, 1.19981, 1.18588, 1.1789, 1.17856, 1.17774, 1.17884, 1.17956, 1.18486, 1.18376, 1.18124, 1.17365, 1.18085, 1.18339, 1.34719, 1.15566, 1.15984, 1.2494, 1.171, 1.16704, 1.15987, 1.29187, 1.1429, 1.14097, 1.14618, 1.14543, 1.13694, 1.13612, 1.13246, 1.30778
1.17089, 1.17047, 1.16375, 1.16468, 1.17798, 1.18066, 1.17617, 1.17882, 1.18046, 1.17697, 1.18063, 1.18149, 1.18454, 1.1874, 1.18744, 1.18797, 1.18147, 1.19409, 1.19655, 1.19884, 1.20044, 1.20184, 1.20464, 1.42828, 1.42903, 1.39992, 1.21483, 1.20161, 1.18186, 1.18551, 1.18408, 1.20321, 1.21875, 1.23574, 1.28181, 1.29587, 1.33022, 1.32283, 1.34738, 1.39475, 1.44005, 1.45167, 1.45784, 1.47597, 1.49696, 1.54315, 1.57795, 1.65171, 1.65064, 1.67582, 1.7499, 1.75107, 1.7284, 1.72898, 1.82227, 1.79257, 1.8601, 1.8014, 1.79257, 1.78018, 1.87646, 1.80971, 1.8233, 1.82154, 1.81711, 1.81646, 1.82573, 1.81492, 1.81393, 1.78463, 1.80964, 1.79997, 1.79946, 1.80286, 2.00725, 1.9932, 1.88093, 1.81375, 1.80223, 1.79901, 1.81763, 1.77352, 1.76903, 1.76528, 1.76448, 1.75489, 1.77575, 1.7758, 1.72524, 1.72825, 1.71368, 1.70176, 1.71441, 1.7132, 1.69802, 1.66058, 1.65537, 1.66731, 1.66782, 1.67924, 1.68554, 1.57697, 1.51205, 1.49023, 1.47431, 1.47309, 1.49947, 1.3904, 1.39555, 1.25941, 1.16741, 1.1855, 1.18521, 1.18585, 1.19937, 1.19887, 1.20349, 1.19967, 1.19774, 1.20234, 1.20571, 1.20106, 1.18868, 1.17791, 1.17772, 1.17758, 1.1805, 1.18284, 1.18767, 1.2646, 1.26212, 1.27339, 1.18247, 1.18375, 1.29182, 1.18904, 1.17741, 1.17547, 1.18066, 1.31835, 1.16136, 1.15992, 1.1458, 1.14559, 1.14424, 1.14523, 1.14306, 1.25139, 1.19074, 1.24853
1.17119, 1.16101, 1.1636, 1.17305, 1.17923, 1.17973, 1.18236, 1.1843, 1.18414, 1.18056, 1.17873, 1.17972, 1.18514, 1.1867, 1.18872, 1.19241, 1.1864, 1.19528, 1.19771, 1.19876, 1.20379, 1.20477, 1.20846, 1.41316, 1.23434, 1.40039, 1.40663, 1.20044, 1.17426, 1.16009, 1.20495, 1.20834, 1.20512, 1.26744, 1.26143, 1.28386, 1.31569, 1.35016, 1.36072, 1.38547, 1.42756, 1.44288, 1.45515, 1.47638, 1.5143, 1.56617, 1.7121, 1.65133, 1.64562, 1.6687, 1.67603, 1.68741, 1.75092, 1.7311, 1.73037, 1.82761, 1.85762, 1.85474, 1.82997, 1.82845, 1.85088, 1.80929, 1.82606, 1.8248, 1.8206, 1.82929, 1.82815, 1.81622, 1.78921, 1.78583, 1.84012, 1.79291, 1.8003, 1.8006, 1.97909, 1.85556, 1.81018, 1.82772, 1.82719, 1.79976, 1.79956, 1.79178, 1.74197, 1.74094, 1.76564, 1.76692, 1.77677, 1.77657, 1.77508, 1.74938, 1.70239, 1.70191, 1.72837, 1.72668, 1.65269, 1.66081, 1.66087, 1.6585, 1.66539, 1.67874, 1.66706, 1.68236, 1.51758, 1.4696, 1.46514, 1.48193, 1.5006, 1.40602, 1.31666, 1.25526, 1.21662, 1.19749, 1.21861, 1.19196, 1.3838, 1.50236, 1.20497, 1.20152, 1.19906, 1.2009, 1.20497, 1.19896, 1.18466, 1.17864, 1.18031, 1.17961, 1.1809, 1.18999, 1.19596, 1.20104, 1.20487, 1.19196, 1.19437, 1.19207, 1.18371, 1.18119, 1.17728, 1.17782, 1.17967, 1.27547, 1.1666, 1.15418, 1.15076, 1.14939, 1.14941, 1.2104, 1.20951, 1.22868, 1.20795, 1.20826
1.17748, 1.16652, 1.17427, 1.17441, 1.17684, 1.1841, 1.18588, 1.18967, 1.18918, 1.1874, 1.17925, 1.17889, 1.18465, 1.18913, 1.19273, 1.20376, 1.19973, 1.20401, 1.19952, 1.20388, 1.20504, 1.20801, 1.20882, 1.2412, 1.23879, 1.23802, 1.23972, 1.18172, 1.183, 1.17538, 1.19155, 1.19745, 1.21712, 1.2572, 1.27757, 1.28721, 1.3191, 1.34021, 1.36751, 1.37317, 1.43359, 1.45408, 1.47457, 1.47717, 1.55807, 1.67094, 1.6489, 1.65112, 1.64891, 1.64863, 1.67361, 1.67457, 1.75078, 1.73667, 1.72942, 1.75807, 1.8455, 1.74782, 1.74757, 1.81373, 1.81199, 1.77686, 1.83778, 1.84113, 1.82036, 1.83019, 1.82008, 1.817, 1.78419, 1.7833, 1.7749, 1.79556, 1.80686, 1.82002, 1.81994, 1.8561, 1.88544, 1.84098, 1.82962, 1.80126, 1.79377, 1.81395, 1.78923, 1.76557, 1.76336, 1.76664, 1.78604, 1.77714, 1.92125, 1.69654, 1.69622, 1.69892, 1.7038, 1.68232, 1.65455, 1.66148, 1.66124, 1.65269, 1.66625, 1.6317, 1.68064, 1.68181, 1.56754, 1.53065, 1.47069, 1.44706, 1.46682, 1.43398, 1.27011, 1.24983, 1.21229, 1.20638, 1.22533, 1.3831, 1.37579, 1.54116, 1.53019, 1.54888, 1.41675, 1.45967, 1.20569, 1.20157, 1.19592, 1.18485, 1.18496, 1.18583, 1.20195, 1.199, 1.19782, 1.19888, 1.19986, 1.19899, 1.18771, 1.18266, 1.18192, 1.17917, 1.17847, 1.17785, 1.17437, 1.17019, 1.16612, 1.15973, 1.21828, 1.21526, 1.27596, 1.20912, 1.22406, 1.22512, 1.22257, 1.20503
1.18401, 1.17147, 1.17738, 1.17701, 1.18763, 1.19219, 1.19273, 1.18875, 1.18724, 1.18857, 1.19164, 1.17829, 1.18373, 1.19383, 1.19762, 1.20184, 1.19971, 1.19837, 1.20261, 1.20361, 1.20918, 1.20688, 1.36666, 1.22922, 1.2332, 1.48197, 1.47159, 1.16709, 1.16727, 1.21934, 1.20436, 1.21964, 1.22667, 1.25075, 1.27071, 1.30807, 1.30965, 1.35253, 1.36896, 1.37899, 1.41014, 1.44423, 1.48076, 1.52217, 1.54548, 1.6334, 1.64677, 1.66023, 1.66462, 1.86973, 1.67115, 1.67218, 1.70554, 1.73516, 1.72828, 1.75761, 1.75989, 1.74783, 1.74765, 1.77521, 1.78177, 1.77665, 1.8144, 1.81129, 1.81129, 1.82753, 1.81756, 1.81931, 1.77547, 1.7739, 1.83579, 1.79545, 1.80621, 1.82125, 1.82043, 1.85526, 1.83377, 1.83221, 1.8546, 1.80428, 1.80356, 1.81658, 1.81495, 1.77587, 1.79263, 1.81299, 1.80605, 1.94199, 1.89624, 1.69621, 1.69679, 1.69687, 1.7614, 1.69217, 1.69084, 1.65537, 1.64887, 1.64729, 1.68875, 1.66507, 1.5834, 1.63526, 1.55912, 1.52593, 1.44839, 1.44764, 1.46337, 1.29155, 1.29142, 1.22914, 1.2019, 1.22946, 1.22939, 1.22981, 1.37482, 1.46828, 1.5429, 1.589, 1.42107, 1.43743, 1.426, 1.27427, 1.26647, 1.19181, 1.40593, 1.20108, 1.19832, 1.19918, 1.19981, 1.19676, 1.19758, 1.19799, 1.18742, 1.18387, 1.17987, 1.17864, 1.17865, 1.17723, 1.17636, 1.17216, 1.28442, 1.18198, 1.1806, 1.17567, 1.17813, 1.19055, 1.20671, 1.22133, 1.21931, 1.21241
1.18082, 1.17469, 1.17781, 1.17974, 1.19509, 1.19366, 1.19119, 1.19221, 1.18512, 1.18554, 1.18092, 1.17807, 1.18553, 1.20084, 1.19913, 1.20262, 1.2025, 1.20252, 1.20457, 1.20662, 1.20951, 1.20273, 1.22863, 1.2319, 1.23227, 1.23119, 1.22146, 1.17705, 1.15566, 1.19432, 1.20612, 1.23418, 1.24984, 1.25741, 1.26064, 1.30678, 1.3376, 1.3885, 1.38197, 1.3975, 1.4141, 1.43478, 1.49601, 1.51294, 1.5593, 1.63681, 1.67528, 1.65941, 1.66479, 1.66611, 1.78913, 1.74918, 1.70383, 1.7758, 1.74891, 1.74073, 1.74049, 1.74064, 1.73903, 1.73929, 1.77583, 1.7791, 1.81864, 1.81847, 1.81044, 1.81014, 1.81014, 1.78024, 1.77374, 1.77316, 1.83167, 1.84069, 1.80636, 1.80611, 1.83086, 1.83042, 1.83192, 1.83655, 1.8072, 1.80665, 1.80667, 1.79928, 1.78602, 1.77573, 1.78594, 1.78521, 1.80644, 1.80423, 1.80698, 1.72549, 1.69938, 1.69694, 1.69912, 1.69433, 1.69357, 1.72744, 1.64038, 1.70348, 1.5823, 1.59765, 1.54059, 1.51924, 1.49631, 1.49586, 1.55302, 1.45334, 1.45756, 1.34955, 1.25672, 1.25256, 1.21225, 1.23944, 1.23, 1.42968, 1.45744, 1.43858, 1.52335, 1.57958, 1.52957, 1.24223, 1.23305, 1.2376, 1.28403, 1.21375, 1.21228, 1.20407, 1.20376, 1.20145, 1.20032, 1.19559, 1.19959, 1.19257, 1.18782, 1.18637, 1.18306, 1.36128, 1.36744, 1.23375, 1.23219, 1.18826, 1.1868, 1.18547, 1.18356, 1.18095, 1.26084, 1.24306, 1.21936, 1.22087, 1.21544, 1.30999
1.17552, 1.17716, 1.18093, 1.18858, 1.19795, 1.19583, 1.1918, 1.19469, 1.20762, 1.18628, 1.18567, 1.18375, 1.20092, 1.20133, 1.20126, 1.20194, 1.20195, 1.19996, 1.20303, 1.20582, 1.20169, 1.2015, 1.23567, 1.23269, 1.23307, 1.23105, 1.40284, 1.19187, 1.15483, 1.19571, 1.20912, 1.22711, 1.24271, 1.25774, 1.30581, 1.33281, 1.32691, 1.43635, 1.38797, 1.38623, 1.40124, 1.44686, 1.45435, 1.52435, 1.5469, 1.71359, 1.75865, 1.73497, 1.72311, 1.66589, 1.70323, 1.70256, 1.7027, 1.7727, 1.75444, 1.74094, 1.74023, 1.73909, 1.74007, 1.73998, 1.74647, 1.75403, 1.81271, 1.80268, 1.81044, 1.81044, 1.78549, 1.78025, 1.80703, 1.82358, 1.82996, 1.83045, 1.81765, 1.82226, 1.83106, 1.83043, 1.83277, 1.83602, 1.82495, 1.80353, 1.80527, 1.80748, 1.79313, 1.77418, 1.78545, 1.78527, 1.81249, 1.7964, 1.80301, 1.6937, 1.69983, 1.70341, 1.70067, 1.69919, 1.81963, 1.71668, 1.64372, 1.64513, 1.58574, 1.56136, 1.55393, 1.51504, 1.50011, 1.48539, 1.45364, 1.45358, 1.44105, 1.32408, 1.28241, 1.20895, 1.22654, 1.26316, 1.27736, 1.2521, 1.25666, 1.4964, 1.25343, 1.25002, 1.24997, 1.24282, 1.39916, 1.23224, 1.78284, 1.2198, 1.21502, 1.20765, 1.20484, 1.19953, 1.19495, 1.19597, 1.20171, 1.19204, 1.19066, 1.19081, 1.75337, 1.20125, 1.19538, 1.19458, 1.19763, 1.19091, 1.27167, 1.19883, 1.25527, 1.34362, 1.2007, 1.21572, 1.21881, 1.21908, 1.21126, 1.20627
1.17792, 1.18054, 1.18726, 1.18946, 1.19245, 1.19472, 1.19588, 1.2061, 1.20368, 1.19784, 1.19443, 1.191, 1.18866, 1.19904, 1.20293, 1.20442, 1.20335, 1.20333, 1.20304, 1.20298, 1.20199, 1.20008, 1.316, 1.23282, 1.23253, 1.32703, 1.32609, 1.19221, 1.15843, 1.17874, 1.21495, 1.23316, 1.24261, 1.27693, 1.2855, 1.3308, 1.32653, 1.37676, 1.37826, 1.38011, 1.40866, 1.43513, 1.48192, 1.51996, 1.57626, 1.61312, 1.6384, 1.65753, 1.72034, 1.69908, 1.70282, 1.70205, 1.78487, 1.74814, 1.82617, 1.74216, 1.74415, 1.77449, 1.73969, 1.7398, 1.74704, 1.76856, 1.8379, 1.80649, 1.8099, 1.83751, 1.78648, 1.82314, 1.83125, 1.82485, 1.83143, 1.82538, 1.84275, 1.85677, 1.83436, 1.83417, 1.82074, 1.83486, 1.84538, 1.80845, 1.81289, 1.8177, 1.81066, 1.78587, 1.78517, 1.84104, 1.80942, 1.75834, 1.73804, 1.69474, 1.69376, 1.7034, 1.70007, 1.76243, 1.74574, 1.72059, 1.65369, 1.6447, 1.58822, 1.55392, 1.5417, 1.52668, 1.48448, 1.44875, 1.45556, 1.4745, 1.44141, 1.32221, 1.29051, 1.20246, 1.19414, 1.26008, 1.24568, 1.48468, 1.25514, 1.25357, 1.25348, 1.25195, 1.24596, 1.2393, 1.23391, 1.22812, 1.22547, 1.21638, 1.21299, 1.21234, 1.20227, 1.19943, 1.19452, 1.19499, 1.19534, 1.18863, 1.19186, 1.35745, 1.20871, 1.2033, 1.32321, 1.26795, 1.38275, 1.20976, 1.21006, 1.21048, 1.2134, 1.21547, 1.21562, 1.21683, 1.22091, 1.21259, 1.20867, 1.1966
1.18188, 1.18741, 1.19079, 1.19126, 1.18813, 1.19121, 1.21158, 1.20573, 1.20044, 1.19563, 1.19444, 1.19803, 1.19087, 1.19936, 1.20655, 1.20922, 1.2058, 1.20769, 1.19836, 1.20117, 1.20318, 1.19987, 1.30516, 1.2374, 1.42949, 1.3937, 1.32641, 1.19798, 1.17205, 1.18281, 1.20357, 1.21928, 1.24154, 1.26361, 1.27455, 1.2985, 1.32524, 1.38972, 1.37126, 1.36814, 1.39532, 1.42367, 1.46557, 1.53039, 1.56481, 1.58123, 1.59926, 1.64278, 1.65753, 1.67697, 1.69549, 1.70151, 1.70268, 1.86561, 1.84955, 1.75143, 1.75166, 1.7575, 1.75414, 1.75849, 1.75811, 1.78284, 1.87621, 1.8726, 1.82438, 1.82416, 1.81765, 1.80962, 1.87596, 1.94783, 1.85098, 1.84185, 1.84255, 1.86548, 1.83583, 1.82803, 1.82369, 1.82067, 1.80941, 1.80749, 1.81432, 1.81433, 1.80202, 1.78091, 1.7934, 1.7364, 1.71118, 1.72015, 1.70248, 1.72346, 1.70016, 1.68968, 1.76452, 1.70575, 1.65045, 1.64393, 1.64211, 1.59265, 1.60606, 1.56821, 1.55133, 1.6083, 1.48115, 1.45128, 1.45033, 1.45012, 1.44667, 1.33024, 1.28084, 1.19285, 1.23985, 1.27087, 1.24773, 1.48554, 1.49187, 1.48088, 1.50702, 1.24594, 1.24651, 1.23894, 1.40644, 1.2301, 1.22486, 1.29876, 1.21753, 1.21542, 1.4092, 1.27294, 1.29516, 1.39451, 1.19705, 1.3581, 1.34794, 1.30537, 1.29929, 1.23716, 1.31266, 1.22257, 1.23247, 1.84906, 1.22522, 1.22968, 1.22916, 1.21617, 1.21399, 1.21511, 1.21659, 1.20659, 1.20555, 1.25137
1.18768, 1.19032, 1.19436, 1.1928, 1.18775, 1.19536, 1.20144, 1.20277, 1.2026, 1.19814, 1.1967, 1.19924, 1.1976, 1.19695, 1.19784, 1.20577, 1.20795, 1.20638, 1.1979, 1.19948, 1.35404, 1.21336, 1.30257, 1.2347, 1.46072, 1.41894, 1.2086, 1.2097, 1.19927, 1.17133, 1.20187, 1.22268, 1.23604, 1.25162, 1.26214, 1.29986, 1.31361, 1.34963, 1.36253, 1.36401, 1.39559, 1.43649, 1.47322, 1.50954, 1.5241, 1.57191, 1.57263, 1.63647, 1.66836, 1.79661, 1.69361, 1.71976, 1.80678, 1.87326, 1.77594, 1.76945, 1.73955, 1.75502, 1.7546, 1.75925, 1.75783, 1.77706, 1.80596, 1.83755, 1.89304, 1.80278, 1.80269, 1.81697, 1.8367, 1.83852, 1.85154, 1.84034, 1.87269, 1.85967, 1.85898, 1.82596, 1.82297, 1.81155, 1.82068, 1.79808, 1.79904, 1.80676, 1.81726, 1.80308, 1.87104, 1.73044, 1.71035, 1.71739, 1.73281, 1.72, 1.66978, 1.66662, 1.76578, 1.70664, 1.71464, 1.65173, 1.62985, 1.61782, 1.60064, 1.57931, 1.56778, 1.54681, 1.52381, 1.48201, 1.48924, 1.44441, 1.43799, 1.26411, 1.26532, 1.21007, 1.22251, 1.23237, 1.44207, 1.39486, 1.47095, 1.51127, 1.4786, 1.24464, 1.44101, 1.432, 1.34105, 1.42797, 1.40389, 1.31244, 1.23795, 1.40313, 1.23008, 1.22655, 1.22587, 1.3707, 1.36118, 1.35042, 1.32429, 1.32561, 1.30658, 1.29921, 1.34765, 1.35801, 1.23088, 1.23748, 1.22807, 1.22759, 1.22606, 1.2199, 1.21281, 1.21238, 1.2053, 1.19872, 1.19967, 1.18889
1.19514, 1.19107, 1.19797, 1.19671, 1.19401, 1.19972, 1.20168, 1.20499, 1.20931, 1.20878, 1.19877, 1.20042, 1.20182, 1.20318, 1.20055, 1.21145, 1.21157, 1.20972, 1.19964, 1.201, 1.21161, 1.21296, 1.29426, 1.2347, 1.23446, 1.57438, 1.5264, 1.23918, 1.19063, 1.1914, 1.18538, 1.21538, 1.22686, 1.2393, 1.25177, 1.29249, 1.3416, 1.34215, 1.34387, 1.35904, 1.4097, 1.4674, 1.49467, 1.49543, 1.53042, 1.53521, 1.56325, 1.61896, 1.64171, 1.67023, 1.67974, 1.81156, 1.74712, 1.83395, 1.82523, 1.76433, 1.74001, 1.75423, 1.75315, 1.75051, 1.74918, 1.8, 1.95091, 1.83756, 1.83713, 1.80288, 1.80279, 1.83027, 1.8275, 1.83872, 1.83402, 1.82801, 1.83984, 1.85421, 1.85817, 1.84048, 1.8411, 1.82365, 1.82141, 1.79927, 1.79914, 1.79442, 1.74889, 1.74846, 1.75598, 1.73203, 1.73086, 1.77508, 1.77317, 1.71355, 1.68691, 1.66757, 1.67573, 1.65488, 1.722, 1.70727, 1.62862, 1.59506, 1.60243, 1.57587, 1.59334, 1.56548, 1.51783, 1.50306, 1.48264, 1.45416, 1.46166, 1.26675, 1.2338, 1.21926, 1.24022, 1.24666, 1.28867, 1.41648, 1.28322, 1.46172, 1.41414, 1.27374, 1.47453, 1.43134, 1.42979, 1.41602, 1.41327, 1.41024, 1.40669, 1.3897, 1.3827, 1.36022, 1.23416, 1.23437, 1.33825, 1.33102, 1.74465, 1.3556, 1.27506, 1.25812, 1.25038, 1.24805, 1.23719, 1.2369, 1.23221, 1.23378, 1.22771, 1.21954, 1.21415, 1.20649, 1.20677, 1.19404, 1.19153, 1.17901
1.19794, 1.1968, 1.20049, 1.20137, 1.19833, 1.20011, 1.20998, 1.2106, 1.21237, 1.20567, 1.20159, 1.19994, 1.20269, 1.20779, 1.20751, 1.20789, 1.21854, 1.21698, 1.22355, 1.30524, 1.22352, 1.31689, 1.33153, 1.23952, 1.2408, 1.41979, 1.23099, 1.23606, 1.19288, 1.20897, 1.19722, 1.23448, 1.23204, 1.23042, 1.27459, 1.28115, 1.31923, 1.34311, 1.3898, 1.38171, 1.41658, 1.44132, 1.52856, 1.49269, 1.51977, 1.53993, 1.53706, 1.61506, 1.60049, 1.65294, 1.72204, 1.75087, 1.74795, 1.79139, 1.8502, 1.76561, 1.85544, 1.76893, 1.75427, 1.88932, 1.77919, 1.77974, 1.83163, 1.81027, 1.82554, 1.80252, 1.8019, 1.88494, 1.83755, 1.83857, 1.8369, 1.83502, 1.83475, 1.85932, 1.85575, 1.84933, 1.88234, 1.82403, 1.82306, 1.79297, 1.78775, 1.77934, 1.75042, 1.73191, 1.74759, 1.737, 1.73354, 1.77198, 1.7103, 1.70882, 1.66401, 1.67594, 1.64492, 1.63487, 1.61946, 1.58173, 1.58911, 1.59549, 1.59478, 1.58349, 1.59908, 1.58824, 1.52426, 1.52029, 1.54181, 1.4647, 1.3608, 1.27773, 1.2001, 1.23642, 1.24601, 1.25129, 1.28766, 1.45482, 1.29206, 1.2926, 1.43336, 1.43686, 1.48523, 1.31413, 1.41284, 1.40806, 1.28197, 1.39286, 1.38264, 1.32446, 1.40927, 1.25931, 1.34902, 1.28184, 1.31792, 1.28194, 1.27214, 1.26541, 1.25925, 1.2599, 1.2514, 1.24885, 1.24166, 1.24051, 1.23016, 1.22975, 1.22804, 1.22255, 1.2151, 1.20923, 1.19608, 1.18241, 1.18844, 1.17111
1.20027, 1.20169, 1.20231, 1.20111, 1.19833, 1.20119, 1.19995, 1.20504, 1.21312, 1.20731, 1.20148, 1.20024, 1.20511, 1.21903, 1.22037, 1.21934, 1.21854, 1.21835, 1.21459, 1.22293, 1.22534, 1.23078, 1.42129, 1.23647, 1.23789, 1.23587, 1.43119, 1.23194, 1.22687, 1.21194, 1.19181, 1.26079, 1.24789, 1.26689, 1.26399, 1.31552, 1.32828, 1.3485, 1.36972, 1.4061, 1.44734, 1.49863, 1.45737, 1.48585, 1.49002, 1.5087, 1.52445, 1.55751, 1.60563, 1.60545, 1.66714, 1.76878, 1.79254, 1.84813, 1.77612, 1.76226, 1.73406, 1.73452, 1.7821, 1.81985, 1.78352, 1.76483, 1.7644, 1.90362, 1.90029, 1.81277, 1.812, 1.82961, 1.8424, 1.83795, 1.83761, 1.83403, 1.83567, 1.85893, 1.85625, 1.84888, 1.88388, 1.82483, 1.80704, 1.79672, 1.78833, 1.72996, 1.72779, 1.82102, 1.82684, 1.74984, 1.75186, 1.83721, 1.7508, 1.68249, 1.68233, 1.65643, 1.65866, 1.64197, 1.60105, 1.59952, 1.57971, 1.61122, 1.57461, 1.57842, 1.58078, 1.58468, 1.57329, 1.52327, 1.54282, 1.41998, 1.28584, 1.28474, 1.21564, 1.23441, 1.26518, 1.49142, 1.35241, 1.45573, 1.30057, 1.68182, 1.50575, 1.46412, 1.49903, 1.46492, 1.32212, 1.46772, 1.37617, 1.28331, 1.46074, 1.34814, 1.33087, 1.32983, 1.26509, 1.28847, 1.28083, 1.28015, 1.27213, 1.26387, 1.25672, 1.25387, 1.24049, 1.24547, 1.24182, 1.24028, 1.23316, 1.23531, 1.22972, 1.22382, 1.21225, 1.20263, 1.19616, 1.18089, 1.17829, 1.17526
1.20283, 1.20109, 1.20001, 1.19772, 1.19488, 1.19841, 1.19985, 1.202, 1.21327, 1.20892, 1.20534, 1.20624, 1.21005, 1.22325, 1.22284, 1.22674, 1.22803, 1.22611, 1.2254, 1.22905, 1.23242, 1.23663, 1.24606, 1.23483, 1.37433, 1.39219, 1.51726, 1.23258, 1.22925, 1.22512, 1.19405, 1.19554, 1.24936, 1.32192, 1.33242, 1.30063, 1.34012, 1.34168, 1.36739, 1.41452, 1.42553, 1.50822, 1.457, 1.45734, 1.4754, 1.50255, 1.52091, 1.55355, 1.6239, 1.64941, 1.64873, 1.72512, 1.74931, 1.85023, 1.78402, 1.77818, 1.73369, 1.73353, 1.82676, 1.80602, 1.86977, 1.7646, 1.76436, 1.90649, 1.81108, 1.81301, 1.81242, 1.83185, 1.85945, 1.83849, 1.8355, 1.95349, 1.87903, 1.89557, 1.88761, 2.05275, 1.98805, 1.88027, 1.80645, 1.81031, 1.9412, 1.82701, 1.71245, 1.73734, 1.76996, 1.75036, 1.75116, 1.83216, 1.74367, 1.68512, 1.64927, 1.64814, 1.65373, 1.61933, 1.61138, 1.58497, 1.57683, 1.57708, 1.57584, 1.57457, 1.59653, 1.57597, 1.54079, 1.48419, 1.47146, 1.44968, 1.33695, 1.27947, 1.24139, 1.39022, 1.40127, 1.54498, 1.4127, 1.41573, 1.50545, 1.45305, 1.4472, 1.4267, 1.52396, 1.3111, 1.46192, 1.32837, 1.30122, 1.3049, 1.30175, 1.29877, 1.29915, 1.28086, 1.26566, 1.27863, 1.27889, 1.2772, 1.27151, 1.2581, 1.25581, 1.25529, 1.23485, 1.24085, 1.24279, 1.23895, 1.23273, 1.23316, 1.22806, 1.22306, 1.21072, 1.19996, 1.18626, 1.18778, 1.18182, 1.17415
1.2059, 1.20114, 1.19969, 1.1957, 1.196, 1.19484, 1.19898, 1.20224, 1.21332, 1.2063, 1.20402, 1.2109, 1.21299, 1.32999, 1.21934, 1.22903, 1.2261, 1.22557, 1.22761, 1.22997, 1.23324, 1.23914, 1.24534, 1.23495, 1.4868, 1.26341, 1.26186, 1.26183, 1.22993, 1.22062, 1.20805, 1.21683, 1.30987, 1.26682, 1.29724, 1.2993, 1.33745, 1.36796, 1.35972, 1.39948, 1.40286, 1.48613, 1.47734, 1.50484, 1.49626, 1.50922, 1.51597, 1.56087, 1.62945, 1.63821, 1.65244, 1.69187, 1.74152, 1.78361, 1.84216, 1.89827, 1.73223, 1.73495, 1.85624, 1.80635, 1.80542, 1.76495, 1.76475, 1.90965, 1.81059, 1.82374, 1.78156, 1.80744, 1.84833, 1.84543, 1.84472, 1.95058, 1.87385, 1.88686, 1.88673, 1.88972, 1.86813, 1.82417, 1.78351, 1.82723, 2.01794, 1.75859, 1.7373, 1.71821, 1.77516, 1.75795, 1.80298, 1.76617, 1.7233, 1.69913, 1.66733, 1.64827, 1.64805, 1.61982, 1.61415, 1.6204, 1.57582, 1.57764, 1.57373, 1.57269, 1.58216, 1.57519, 1.55779, 1.4564, 1.48415, 1.48186, 1.32254, 1.29963, 1.39041, 1.39262, 1.37069, 1.4132, 1.40949, 1.31605, 1.31657, 1.33056, 1.33611, 1.33757, 1.34147, 1.31553, 1.32417, 1.32368, 1.32143, 1.31821, 1.3055, 1.30322, 1.37884, 1.27757, 1.26877, 1.26958, 1.27688, 1.27119, 1.26675, 1.25994, 1.25426, 1.24539, 1.23617, 1.23916, 1.23922, 1.23309, 1.23016, 1.22964, 1.2269, 1.21648, 1.20562, 1.19449, 1.18468, 1.18445, 1.17845, 1.17735
1.1898, 1.20283, 1.1986, 1.19539, 1.19274, 1.19432, 1.20138, 1.20658, 1.2091, 1.20702, 1.20594, 1.20906, 1.20142, 1.20122, 1.34478, 1.21883, 1.22183, 1.22446, 1.22553, 1.23268, 1.23659, 1.24664, 1.24709, 1.24394, 1.45604, 1.26425, 1.26307, 1.25931, 1.22536, 1.20569, 1.19852, 1.2398, 1.31973, 1.27193, 1.28278, 1.31231, 1.30447, 1.37095, 1.34977, 1.36711, 1.42765, 1.49016, 1.47832, 1.50592, 1.50837, 1.51647, 1.55654, 1.62461, 1.66819, 1.64335, 1.6625, 1.70019, 1.723, 1.81703, 1.83866, 1.75074, 1.75853, 1.76271, 1.79805, 1.80071, 1.80008, 1.77978, 1.7924, 1.79424, 1.79021, 1.7935, 1.78226, 1.82518, 1.82736, 1.83519, 1.84396, 1.94853, 1.91838, 1.90667, 1.88727, 1.869, 1.86877, 1.84136, 1.78573, 1.7827, 1.76594, 1.75227, 1.75095, 1.7277, 1.70933, 1.71114, 1.80663, 1.70717, 1.73034, 1.6975, 1.76159, 1.68932, 1.68762, 1.69034, 1.68544, 1.60217, 1.57293, 1.57265, 1.57539, 1.57775, 1.57258, 1.60796, 1.47375, 1.48496, 1.48589, 1.45912, 1.42055, 1.37487, 1.39226, 1.36516, 1.36447, 1.38185, 1.36096, 1.57204, 1.3103, 1.33482, 1.33491, 1.33576, 1.33001, 1.3244, 1.32281, 1.31971, 1.31697, 1.31334, 1.30686, 1.30174, 1.29186, 1.2866, 1.28273, 1.28079, 1.27875, 1.27233, 1.26405, 1.25257, 1.25036, 1.2398, 1.24368, 1.23952, 1.23777, 1.22997, 1.22808, 1.2275, 1.22542, 1.21341, 1.20338, 1.1946, 1.19416, 1.18485, 1.17864, 1.17892
1.19311, 1.20548, 1.20531, 1.20423, 1.198, 1.20486, 1.20458, 1.20498, 1.21036, 1.20875, 1.20693, 1.20296, 1.20465, 1.1994, 1.20069, 1.22161, 1.22351, 1.22323, 1.22709, 1.23567, 1.23966, 1.2456, 1.24974, 1.44465, 1.27115, 1.27301, 1.554, 1.26359, 1.2547, 1.19126, 1.2192, 1.26773, 1.26724, 1.2682, 1.28457, 1.2916, 1.30152, 1.32015, 1.339, 1.40179, 1.42202, 1.55738, 1.5163, 1.59961, 1.52722, 1.53944, 1.55949, 1.61606, 1.66967, 1.66106, 1.67094, 1.69323, 1.81432, 1.81165, 1.74571, 1.74803, 1.75073, 1.8074, 1.80082, 1.80032, 1.79124, 1.77498, 1.74518, 1.77481, 1.77179, 1.7963, 1.78715, 1.78633, 1.84101, 1.84463, 1.80453, 1.80636, 1.83379, 1.93084, 1.89349, 1.89309, 1.84426, 1.97292, 1.7841, 1.78158, 1.76922, 1.75163, 1.75072, 1.7869, 1.70934, 1.71098, 1.71029, 1.70797, 1.70669, 1.71042, 1.68974, 1.6892, 1.63849, 1.60859, 1.61743, 1.58867, 1.57349, 1.56725, 1.57143, 1.57279, 1.56159, 1.55379, 1.51985, 1.46195, 1.49965, 1.38609, 1.39945, 1.33451, 1.30874, 1.30192, 1.36703, 1.36337, 1.35806, 1.5555, 1.30914, 1.50198, 1.33993, 1.33549, 1.32976, 1.32496, 1.32211, 1.31566, 1.31505, 1.31147, 1.31172, 1.2985, 1.28975, 1.28644, 1.28164, 1.27857, 1.2747, 1.27055, 1.25969, 1.24975, 1.24714, 1.23964, 1.24024, 1.23728, 1.23332, 1.23001, 1.22922, 1.22707, 1.22417, 1.21402, 1.21039, 1.19866, 1.19295, 1.18917, 1.18153, 1.18062
1.20206, 1.20589, 1.20948, 1.20569, 1.20139, 1.20279, 1.20516, 1.20391, 1.20724, 1.20944, 1.21176, 1.201, 1.20677, 1.20817, 1.203, 1.2135, 1.22553, 1.22546, 1.22999, 1.23461, 1.24318, 1.24807, 1.25361, 1.25513, 1.34831, 1.44328, 1.42015, 1.46489, 1.26437, 1.19391, 1.21816, 1.23095, 1.29716, 1.29566, 1.28431, 1.29856, 1.30405, 1.31632, 1.34366, 1.37638, 1.50235, 1.54062, 1.67005, 1.62051, 1.57134, 1.61046, 1.60998, 1.67277, 1.67288, 1.66218, 1.68568, 1.69417, 1.81298, 1.73658, 1.78186, 1.82389, 1.80307, 1.79653, 1.80243, 1.80102, 1.8067, 1.77335, 1.73965, 1.78224, 1.77369, 1.77414, 1.80287, 1.81752, 1.80732, 1.80674, 1.80354, 1.80671, 1.83326, 1.8167, 1.79681, 1.78378, 2.01705, 1.76434, 1.76264, 1.76125, 1.76911, 1.75853, 1.75785, 1.73662, 1.73059, 1.70888, 1.7106, 1.6915, 1.7111, 1.71233, 1.70313, 1.68877, 1.62769, 1.7437, 1.67552, 1.56752, 1.56668, 1.57083, 1.56947, 1.56753, 1.55685, 1.58362, 1.49925, 1.46824, 1.3904, 1.38541, 1.38821, 1.34476, 1.35688, 1.33561, 1.36809, 1.36731, 1.35671, 1.49906, 1.48279, 1.34008, 1.33952, 1.3342, 1.32967, 1.32578, 1.32353, 1.31317, 1.3153, 1.30973, 1.30586, 1.29892, 1.28797, 1.28374, 1.28085, 1.27717, 1.27357, 1.267, 1.25982, 1.24648, 1.2405, 1.23595, 1.23541, 1.23671, 1.22744, 1.22278, 1.2273, 1.22688, 1.22534, 1.2198, 1.21018, 1.20204, 1.19285, 1.19154, 1.19067, 1.18791
1.206, 1.20758, 1.20936, 1.20896, 1.2032, 1.20142, 1.20111, 1.20111, 1.20202, 1.20603, 1.20669, 1.20606, 1.20491, 1.21023, 1.20936, 1.25457, 1.23709, 1.23465, 1.23761, 1.24744, 1.24923, 1.37057, 1.35721, 1.35234, 1.39402, 1.29235, 1.28791, 1.28664, 1.22818, 1.21171, 1.20913, 1.21249, 1.23296, 1.26468, 1.28521, 1.29934, 1.31532, 1.31995, 1.32026, 1.35196, 1.46317, 1.51385, 1.65891, 1.58811, 1.63042, 1.62089, 1.62088, 1.67383, 1.6422, 1.65698, 1.67164, 1.67164, 1.70716, 1.79341, 1.7917, 1.72312, 1.7346, 1.79256, 1.79894, 1.90072, 1.76445, 1.75423, 1.73847, 1.78564, 1.80067, 1.78368, 1.80647, 1.80413, 1.80312, 1.80496, 1.81077, 1.81005, 1.78534, 1.78402, 1.81755, 1.78575, 1.76666, 1.76554, 1.76268, 1.75753, 1.75815, 1.76437, 1.83527, 1.73232, 1.72745, 1.71109, 1.71252, 1.69993, 1.71005, 1.77117, 1.71039, 1.66103, 1.6575, 1.6481, 1.65755, 1.56711, 1.56638, 1.56955, 1.57083, 1.54062, 1.53109, 1.53042, 1.4756, 1.58221, 1.42079, 1.4709, 1.35028, 1.31875, 1.39566, 1.32265, 1.36174, 1.35729, 1.35103, 1.34153, 1.32366, 1.34175, 1.33771, 1.33322, 1.32066, 1.31965, 1.31371, 1.31373, 1.30497, 1.30597, 1.29524, 1.28557, 1.28059, 1.27758, 1.27516, 1.26888, 1.26486, 1.26132, 1.25363, 1.23974, 1.23642, 1.23422, 1.2334, 1.23184, 1.22262, 1.22186, 1.22497, 1.22545, 1.22522, 1.22395, 1.22158, 1.21108, 1.19946, 1.1942, 1.19172, 1.20075
1.2061, 1.20612, 1.20547, 1.20355, 1.20252, 1.20234, 1.20188, 1.2034, 1.20383, 1.20156, 1.20179, 1.20695, 1.20483, 1.2133, 1.2126, 1.23279, 1.23402, 1.23649, 1.23979, 1.24674, 1.25565, 1.26299, 1.27043, 1.33077, 1.28621, 1.28915, 1.28771, 1.28535, 1.28324, 1.21617, 1.21966, 1.23723, 1.23452, 1.28067, 1.28095, 1.28234, 1.3165, 1.32745, 1.32278, 1.36268, 1.46844, 1.53598, 1.60342, 1.58821, 1.58478, 1.58615, 1.64953, 1.63113, 1.69317, 1.66072, 1.66989, 1.67005, 1.68863, 1.80263, 1.79409, 1.70417, 1.7484, 1.77681, 1.79062, 1.86968, 1.75028, 1.72097, 1.7598, 1.78909, 1.80975, 1.7836, 1.85939, 1.803, 1.79392, 1.804, 1.85901, 1.80934, 1.78534, 1.78312, 1.77539, 1.76435, 1.77334, 1.76561, 1.77324, 1.78299, 1.75783, 1.7576, 1.73374, 1.73244, 1.72951, 1.71011, 1.70949, 1.66944, 1.72018, 1.76944, 1.70509, 1.62896, 1.63266, 1.62686, 1.65038, 1.6079, 1.56734, 1.56817, 1.55947, 1.55456, 1.53328, 1.49967, 1.47861, 1.43861, 1.41616, 1.40944, 1.3188, 1.29267, 1.28917, 1.3156, 1.34993, 1.35393, 1.33856, 1.34067, 1.32236, 1.33393, 1.33975, 1.42245, 1.32203, 1.31846, 1.31259, 1.30692, 1.30038, 1.29724, 1.28956, 1.28404, 1.27401, 1.27356, 1.26581, 1.26415, 1.26323, 1.26116, 1.24986, 1.23993, 1.23616, 1.23413, 1.234, 1.23299, 1.2242, 1.22571, 1.22973, 1.2295, 1.23057, 1.22422, 1.22247, 1.21177, 1.20112, 1.19979, 1.1988, 1.19803
1.2075, 1.2047, 1.20819, 1.2049, 1.20401, 1.20151, 1.20302, 1.21157, 1.20448, 1.20189, 1.20214, 1.2101, 1.21048, 1.2168, 1.21433, 1.23794, 1.24114, 1.24339, 1.2465, 1.25079, 1.25977, 1.26856, 1.27547, 1.27878, 1.28646, 1.29155, 1.5207, 1.50653, 1.28589, 1.26944, 1.21496, 1.22874, 1.24703, 1.24282, 1.26198, 1.27459, 1.31396, 1.32285, 1.33456, 1.46202, 1.48665, 1.48954, 1.58587, 1.6042, 1.58556, 1.5991, 1.6095, 1.70584, 1.62326, 1.63509, 1.65987, 1.67772, 1.67326, 1.70791, 1.70627, 1.70447, 1.75843, 1.78204, 1.85513, 1.76643, 1.73071, 1.70974, 1.78286, 1.75533, 1.77722, 1.78918, 1.79931, 1.79761, 1.81735, 1.78238, 1.85031, 1.84916, 1.86155, 1.86649, 1.73882, 1.75204, 1.74809, 1.765, 1.77284, 1.77148, 1.84139, 1.85175, 1.73321, 1.73032, 1.72976, 1.70988, 1.71633, 1.6359, 1.65835, 1.6931, 1.64696, 1.63273, 1.61353, 1.61423, 1.71408, 1.67186, 1.57441, 1.56765, 1.61213, 1.54046, 1.51896, 1.49679, 1.44911, 1.4374, 1.36584, 1.39625, 1.30386, 1.29849, 1.40166, 1.30385, 1.36335, 1.52938, 1.33995, 1.34271, 1.32062, 1.32902, 1.32878, 1.40966, 1.40655, 1.30374, 1.30292, 1.30046, 1.29795, 1.29496, 1.28584, 1.28465, 1.2734, 1.27358, 1.26729, 1.2663, 1.26403, 1.26099, 1.24843, 1.23946, 1.23648, 1.23367, 1.23449, 1.23575, 1.22374, 1.23141, 1.23473, 1.23276, 1.22877, 1.22581, 1.22134, 1.20857, 1.2055, 1.20545, 1.20175, 1.20535
1.20873, 1.20735, 1.21472, 1.21023, 1.20961, 1.20308, 1.21207, 1.21131, 1.20914, 1.20711, 1.21452, 1.28618, 1.22354, 1.22859, 1.22265, 1.23924, 1.24821, 1.24755, 1.25112, 1.25965, 1.26245, 1.2657, 1.28068, 1.35695, 1.29577, 1.29662, 1.29736, 1.42815, 1.30192, 1.47167, 1.24798, 1.24726, 1.26747, 1.24594, 1.24768, 1.26577, 1.31453, 1.34173, 1.36322, 1.38855, 1.44302, 1.49457, 1.51125, 1.60687, 1.63685, 1.61032, 1.61065, 1.61983, 1.62535, 1.62668, 1.65439, 1.66459, 1.66349, 1.67091, 1.69732, 1.68189, 1.74074, 1.80336, 1.73262, 1.73348, 1.72953, 1.71624, 1.75797, 1.75489, 1.78628, 1.78591, 1.86037, 1.85652, 1.81906, 1.78637, 1.78632, 1.82077, 1.77732, 1.77248, 1.76097, 1.73804, 1.75476, 1.81944, 1.77243, 1.79273, 1.79215, 1.85502, 1.80325, 1.73078, 1.72907, 1.69225, 1.66442, 1.64252, 1.6367, 1.63888, 1.65067, 1.64711, 1.6097, 1.60642, 1.58311, 1.58344, 1.57493, 1.57787, 1.56133, 1.55955, 1.58597, 1.50326, 1.49253, 1.44553, 1.37884, 1.35829, 1.29283, 1.3162, 1.30313, 1.31033, 1.31039, 1.33309, 1.33814, 1.33828, 1.32531, 1.32694, 1.32845, 1.34016, 1.33243, 1.29519, 1.29992, 1.2927, 1.29142, 1.28813, 1.27755, 1.26976, 1.26705, 1.26674, 1.26695, 1.26729, 1.26104, 1.26111, 1.25745, 1.24184, 1.23683, 1.23305, 1.23582, 1.23373, 1.23975, 1.23683, 1.23629, 1.23222, 1.22721, 1.22669, 1.22337, 1.21415, 1.21065, 1.2106, 1.2087, 1.20738
1.21214, 1.20907, 1.21502, 1.213, 1.21519, 1.21429, 1.21538, 1.21606, 1.21842, 1.21938, 1.2231, 1.22355, 1.22908, 1.23463, 1.22965, 1.24085, 1.24585, 1.24681, 1.25773, 1.26336, 1.26592, 1.27249, 1.27777, 1.2816, 1.2842, 1.2901, 1.28964, 1.28989, 1.40316, 1.30963, 1.28042, 1.22803, 1.24459, 1.26216, 1.25056, 1.28205, 1.29846, 1.33173, 1.36072, 1.3974, 1.44163, 1.4859, 1.5126, 1.5821, 1.56844, 1.60841, 1.60624, 1.61262, 1.61401, 1.61999, 1.64116, 1.6649, 1.66103, 1.66738, 1.6606, 1.66138, 1.74041, 1.80861, 1.7319, 1.73303, 1.73098, 1.75643, 1.75244, 1.76455, 1.78712, 1.78682, 1.77246, 1.77824, 1.78043, 1.77958, 1.77922, 1.84554, 1.77629, 1.79563, 1.73283, 1.75316, 1.75161, 1.75977, 1.84688, 1.79261, 1.92789, 1.77245, 1.77133, 1.72782, 1.70109, 1.65137, 1.65125, 1.64916, 1.64833, 1.63661, 1.6381, 1.61936, 1.609, 1.61915, 1.61219, 1.58267, 1.58184, 1.57861, 1.62328, 1.56083, 1.55431, 1.58271, 1.52015, 1.41646, 1.3888, 1.30339, 1.29424, 1.3041, 1.29142, 1.31529, 1.31327, 1.33266, 1.33356, 1.33118, 1.32925, 1.32862, 1.31111, 1.26305, 1.26177, 1.47211, 1.28342, 1.29109, 1.29022, 1.28594, 1.27832, 1.26774, 1.26655, 1.26736, 1.26745, 1.27242, 1.26948, 1.26772, 1.2572, 1.24285, 1.23582, 1.23297, 1.23779, 1.23842, 1.24258, 1.24125, 1.23978, 1.23527, 1.23093, 1.22929, 1.22587, 1.21726, 1.21977, 1.21522, 1.21149, 1.21052
1.22069, 1.2204, 1.22037, 1.21962, 1.21872, 1.21535, 1.21541, 1.22232, 1.22335, 1.22116, 1.22592, 1.22861, 1.23368, 1.23627, 1.23836, 1.24127, 1.2485, 1.25392, 1.26059, 1.26588, 1.35491, 1.27399, 1.27983, 1.28287, 1.28528, 1.28731, 1.28765, 1.28776, 1.28685, 1.45884, 1.26676, 1.25207, 1.24506, 1.25142, 1.25714, 1.26442, 1.31274, 1.32846, 1.37026, 1.41322, 1.4289, 1.48916, 1.47554, 1.58676, 1.5871, 1.59147, 1.60631, 1.60564, 1.66905, 1.61917, 1.64116, 1.73254, 1.66255, 1.70951, 1.66255, 1.66131, 1.68597, 1.71964, 1.69996, 1.7328, 1.73081, 1.74609, 1.76129, 1.76579, 1.78651, 1.78595, 1.77174, 1.745, 1.766, 1.75119, 1.76916, 1.77018, 1.77691, 1.75958, 1.73733, 1.74463, 1.74262, 1.73366, 0.00480232, 1.81027, 1.7644, 1.74638, 1.74599, 1.78231, 1.70692, 1.65136, 1.65116, 1.64061, 1.6454, 1.6272, 1.62423, 1.59629, 1.60537, 1.57681, 1.57884, 1.57966, 1.57632, 1.58197, 1.55742, 1.55488, 1.56468, 1.46589, 1.42664, 1.42136, 1.3843, 1.29951, 1.29514, 1.3056, 1.30836, 1.31589, 1.31351, 1.32776, 1.33053, 1.32716, 1.31995, 1.31572, 1.41409, 1.26183, 1.26082, 1.28634, 1.28217, 1.27779, 1.28758, 1.28713, 1.27106, 1.27054, 1.26822, 1.27007, 1.27253, 1.27744, 1.27271, 1.27008, 1.44073, 1.24167, 1.24078, 1.2413, 1.24734, 1.2535, 1.25469, 1.3059, 1.30186, 1.32022, 1.34259, 1.24394, 1.24242, 1.23443, 1.22618, 1.21974, 1.21598, 1.21336
1.21702, 1.2185, 1.21921, 1.21891, 1.21995, 1.21714, 1.21917, 1.22746, 1.22625, 1.22702, 1.23098, 1.23413, 1.373, 1.25127, 1.35382, 1.37206, 1.26913, 1.35119, 1.3554, 1.34811, 1.28974, 1.28731, 1.35907, 1.35236, 1.28651, 1.2883, 1.28759, 1.28671, 1.2856, 1.49748, 1.61015, 1.25675, 1.25888, 1.2362, 1.24244, 1.28386, 1.30837, 1.32678, 1.37109, 1.39786, 1.39935, 1.45669, 1.46887, 1.58736, 1.58555, 1.69068, 1.68216, 1.62691, 1.6375, 1.65128, 1.77063, 1.73271, 1.66334, 1.66821, 1.66876, 1.67197, 1.68611, 1.68933, 1.68866, 1.69934, 1.70661, 1.78388, 1.75134, 1.81258, 1.787, 1.78615, 1.74796, 1.74461, 1.72384, 1.74379, 1.74442, 1.75348, 1.77235, 1.76678, 1.7312, 1.73796, 1.73646, 1.71216, 1.78243, 1.74819, 1.74809, 1.74645, 1.7462, 1.71972, 1.79233, 1.6737, 1.64079, 1.6475, 1.64831, 1.59606, 1.59621, 1.57669, 1.57632, 1.57993, 1.57995, 1.57852, 1.57539, 1.5747, 1.54958, 1.57309, 1.48904, 1.42994, 1.4202, 1.42331, 1.34298, 1.322, 1.33022, 1.33058, 1.32025, 1.31621, 1.31508, 1.32791, 1.32768, 1.32712, 1.32373, 1.32932, 1.37519, 1.26057, 1.26003, 1.29347, 1.28889, 1.28706, 1.28575, 1.28822, 1.28026, 1.27113, 1.27698, 1.27371, 1.3427, 1.28233, 1.3238, 1.46288, 1.3063, 1.2493, 1.24349, 1.24711, 1.24943, 1.26238, 1.25999, 1.26354, 1.2575, 1.25716, 1.25353, 1.25083, 1.24133, 1.23359, 1.22512, 1.21987, 1.2158, 1.2146
1.21809, 1.21969, 1.22208, 1.22188, 1.22239, 1.21568, 1.21817, 1.22795, 1.23377, 1.23143, 1.23584, 1.23798, 1.24917, 1.25603, 1.40237, 1.40031, 1.27088, 1.27701, 1.27462, 1.29478, 1.2892, 1.29096, 1.29332, 1.29675, 1.29916, 1.30219, 1.50302, 1.43132, 1.43092, 1.49717, 1.29641, 1.25898, 1.25875, 1.24633, 1.24419, 1.27157, 1.31265, 1.31271, 1.40199, 1.39239, 1.39433, 1.39306, 1.45797, 1.57514, 1.58238, 1.59472, 1.68138, 1.70552, 1.68532, 1.69901, 1.6952, 1.69582, 1.6797, 1.65817, 1.67637, 1.67155, 1.71008, 1.68119, 1.6911, 1.69203, 1.70661, 1.78356, 1.72982, 1.75877, 1.75059, 1.75115, 1.75078, 1.72479, 1.72338, 1.73843, 1.71939, 1.75859, 1.75054, 1.7459, 1.81067, 1.7359, 1.72781, 1.71341, 1.73499, 1.86119, 1.86062, 1.74536, 1.74409, 1.8511, 1.69722, 1.66838, 1.67486, 1.64108, 1.62025, 1.59804, 1.5852, 1.57706, 1.57797, 1.58113, 1.57939, 1.57637, 1.57441, 1.65757, 1.56639, 1.56451, 1.51209, 1.4542, 1.42904, 1.39134, 1.34302, 1.33307, 1.33015, 1.32811, 1.31789, 1.31902, 1.31358, 1.45441, 1.33844, 1.32662, 1.34515, 1.54084, 1.27391, 1.27079, 1.26772, 1.29149, 1.28765, 1.2864, 1.28463, 1.28437, 1.28134, 1.28059, 1.28239, 1.30889, 1.30182, 1.3013, 1.29118, 1.29615, 1.27887, 1.2788, 1.25192, 1.24963, 1.24851, 1.25634, 1.26465, 1.26449, 1.26362, 1.25835, 1.25353, 1.24484, 1.24084, 1.23241, 1.2213, 1.22087, 1.2155, 1.22396
1.22629, 1.22269, 1.22993, 1.23343, 1.22605, 1.22357, 1.22201, 1.231, 1.23277, 1.23291, 1.23779, 1.24582, 1.25315, 1.25901, 1.27375, 1.2725, 1.38166, 1.27846, 1.28604, 1.45343, 1.30201, 1.29519, 1.29696, 1.30023, 1.41411, 1.30615, 1.30377, 1.75936, 1.55444, 1.57276, 1.29521, 1.46523, 1.27899, 1.26064, 1.24541, 1.25415, 1.29492, 1.3109, 1.40067, 1.40073, 1.37045, 1.3984, 1.42368, 1.50774, 1.56763, 1.59267, 1.59308, 1.62574, 1.72406, 1.68933, 1.69383, 1.69382, 1.77963, 1.6495, 1.66173, 1.67912, 1.72058, 1.68521, 1.69568, 1.69355, 1.76428, 1.71381, 1.69239, 1.7247, 1.75068, 1.75085, 1.74883, 1.72496, 1.71677, 1.74777, 1.73042, 1.75208, 1.75638, 1.78237, 1.83532, 1.78623, 1.71317, 1.72316, 1.73122, 1.72063, 1.73135, 1.78281, 1.80626, 1.80402, 1.71407, 1.7109, 1.6324, 1.6221, 1.62073, 1.66975, 1.58566, 1.58521, 1.62702, 1.59588, 1.58865, 1.57604, 1.58785, 1.58635, 1.59507, 1.57082, 1.48149, 1.45078, 1.41018, 1.37658, 1.3528, 1.32293, 1.33326, 1.33375, 1.33301, 1.61317, 1.43833, 1.50331, 1.34027, 1.39733, 1.4966, 1.28585, 1.27644, 1.2776, 1.29959, 1.29536, 1.28771, 1.28797, 1.2859, 1.28306, 1.28449, 1.28532, 1.29141, 1.30854, 1.29984, 1.29207, 1.28895, 1.28768, 1.28151, 1.27937, 1.26166, 1.25685, 1.25138, 1.2607, 1.26149, 1.26532, 1.38706, 1.24772, 1.24721, 1.24538, 1.23797, 1.23331, 1.22548, 1.22157, 1.21815, 1.21605
1.23475, 1.23192, 1.23493, 1.23421, 1.23273, 1.2315, 1.23201, 1.23592, 1.23457, 1.23631, 1.24362, 1.24934, 1.25766, 1.26717, 1.28173, 1.40015, 1.48204, 1.84489, 1.30884, 1.30737, 1.30778, 1.3094, 1.3121, 1.31238, 1.31367, 1.31288, 1.31386, 1.31478, 1.31419, 1.48617, 1.44314, 1.49908, 1.5056, 1.28754, 1.26436, 1.25299, 1.2953, 1.30873, 1.31668, 1.323, 1.36759, 1.39762, 1.40516, 1.55422, 1.56518, 1.64686, 1.60666, 1.64909, 1.65856, 1.67883, 1.68172, 1.73835, 1.67541, 1.67671, 1.66158, 1.76839, 1.69283, 1.68898, 1.68792, 1.69403, 1.69261, 1.69799, 1.69254, 1.72243, 1.75129, 1.75056, 1.73853, 1.72821, 1.69859, 1.7474, 1.74845, 1.84258, 1.80365, 1.78007, 1.77156, 1.80728, 1.80972, 1.70359, 1.72507, 1.7159, 1.71243, 1.81814, 1.72446, 1.83424, 1.80617, 1.68313, 1.63313, 1.63515, 1.64053, 1.60912, 1.61368, 1.6072, 1.60185, 1.60736, 1.59661, 1.56119, 1.56648, 1.60276, 1.59245, 1.50568, 1.50683, 1.50483, 1.38136, 1.33335, 1.30495, 1.35207, 1.35028, 1.3369, 1.48161, 1.62988, 1.35844, 1.34041, 1.34085, 1.34043, 1.30889, 1.28531, 1.28453, 1.29524, 1.30159, 1.29737, 1.29578, 1.29176, 1.28539, 1.27994, 1.29145, 1.28867, 1.29119, 1.30496, 1.29911, 1.29038, 1.29004, 1.28858, 1.26993, 1.28107, 1.28165, 1.265, 1.26366, 1.26343, 1.25438, 1.25334, 1.25299, 1.24494, 1.24471, 1.24673, 1.24651, 1.24059, 1.22646, 1.23085, 1.32423, 1.2256
1.2417, 1.23727, 1.23639, 1.23747, 1.23832, 1.23558, 1.23766, 1.23704, 1.23603, 1.24269, 1.24514, 1.25502, 1.26298, 1.51752, 1.2988, 1.29816, 1.29903, 1.29987, 1.30167, 1.30648, 1.30651, 1.30949, 1.30943, 1.31065, 1.31185, 1.31284, 1.31296, 1.31327, 1.3152, 1.31608, 1.48968, 1.3304, 1.33143, 1.27514, 1.26038, 1.2694, 1.29114, 1.30308, 1.32094, 1.33698, 1.37571, 1.39662, 1.46929, 1.51328, 1.56776, 1.65112, 1.61317, 1.70276, 1.67116, 1.67878, 1.71925, 1.69169, 1.67496, 1.6932, 1.69645, 1.70284, 1.6973, 1.68928, 1.68856, 1.691, 1.71389, 1.67821, 1.76967, 1.70945, 1.72764, 1.80091, 1.7356, 1.71196, 1.71759, 1.7332, 1.73786, 1.8168, 1.86628, 1.78542, 1.7722, 1.80734, 1.80914, 1.70937, 1.70833, 1.7156, 1.71442, 1.70608, 1.70292, 1.67947, 1.7249, 1.67987, 1.63549, 1.63591, 1.64828, 1.62328, 1.63729, 1.618, 1.66567, 1.6551, 1.55844, 1.55595, 1.56149, 1.5195, 1.48684, 1.50367, 1.44059, 1.43024, 1.35383, 1.30882, 1.34252, 1.3373, 1.34066, 1.34478, 1.48561, 1.34326, 1.33563, 1.33896, 1.467, 1.32372, 1.30973, 1.28737, 1.30004, 1.29904, 1.30421, 1.30022, 1.29841, 1.29668, 1.28812, 1.28839, 1.29825, 1.29585, 1.29522, 1.29685, 1.29443, 1.29132, 1.28697, 1.40542, 1.26931, 1.27296, 1.27088, 1.26753, 1.2603, 1.25684, 1.24851, 1.24944, 1.2467, 1.2451, 1.2454, 1.24761, 1.24853, 1.2434, 1.2419, 1.24781, 1.24865, 1.24995
1.25074, 1.36469, 1.36041, 1.24667, 1.36398, 1.24754, 1.34603, 1.36541, 1.24282, 1.24441, 1.25777, 1.26473, 1.26673, 1.27713, 1.27762, 1.44169, 1.33601, 1.40296, 1.2994, 1.30332, 1.30488, 1.30894, 1.30933, 1.31166, 1.31196, 1.31394, 1.31593, 1.31538, 1.3153, 1.3181, 1.4851, 1.32901, 1.33211, 1.28354, 1.28017, 1.29431, 1.27719, 1.30021, 1.30397, 1.33817, 1.35721, 1.41008, 1.42742, 1.50245, 1.55579, 1.65503, 1.65625, 1.64573, 1.7858, 1.6826, 1.64687, 1.66914, 1.67892, 1.69713, 1.7065, 1.77907, 1.73057, 1.73068, 1.74401, 1.72687, 1.70253, 1.66093, 1.67204, 1.81774, 1.71569, 1.83485, 1.73694, 1.71047, 1.70826, 1.73802, 1.73695, 1.83166, 1.7821, 1.78257, 1.83545, 1.80788, 1.81042, 1.70948, 1.71056, 1.70979, 1.70493, 1.70413, 1.68522, 1.68042, 1.68358, 1.68529, 1.65487, 1.6364, 1.65472, 1.61266, 1.644, 1.6895, 1.69556, 1.67461, 1.58496, 1.57207, 1.58672, 1.49195, 1.47808, 1.48573, 1.38821, 1.37593, 1.31819, 1.31496, 1.35551, 1.34288, 1.34974, 1.34739, 1.3436, 1.34102, 1.33608, 1.33525, 1.32805, 1.32443, 1.3194, 1.29116, 1.29894, 1.29854, 1.2997, 1.29815, 1.29768, 1.29169, 1.28677, 1.28414, 1.28335, 1.28495, 1.28328, 1.28393, 1.28125, 1.39508, 1.2737, 1.26649, 1.25981, 1.26178, 1.26047, 1.26401, 1.25761, 1.24433, 1.24513, 1.24545, 1.24616, 1.24647, 1.24558, 1.24687, 1.24781, 1.2437, 1.25624, 1.24723, 1.25143, 1.2504
1.27913, 1.2719, 1.2587, 1.25927, 1.25842, 1.25799, 1.26273, 1.26117, 1.25806, 1.25868, 1.26013, 1.26073, 1.26717, 1.27561, 1.27704, 1.27693, 1.27683, 1.2781, 1.28298, 1.42059, 1.60793, 1.31182, 1.31562, 1.31747, 1.31806, 1.31759, 1.3162, 1.31498, 1.315, 1.31796, 1.31988, 1.32187, 1.32248, 1.35076, 1.27686, 1.27551, 1.28461, 1.29951, 1.29973, 1.34, 1.33904, 1.38437, 1.42258, 1.49861, 1.59465, 1.58575, 1.63662, 1.63318, 1.63246, 1.66479, 1.64712, 1.72041, 1.67634, 1.68629, 1.70044, 1.79306, 1.73042, 1.73027, 1.72009, 1.72076, 1.65959, 1.65966, 1.66178, 1.69021, 1.69892, 1.70857, 1.72451, 1.70637, 1.70575, 1.741, 1.73735, 1.73735, 1.82778, 1.78686, 1.78364, 1.77814, 1.72375, 1.72316, 1.71243, 1.71308, 1.70367, 1.70465, 1.68109, 1.67286, 1.66935, 1.66921, 1.66618, 1.64928, 1.61388, 1.61202, 1.62747, 1.64022, 1.6412, 1.68535, 1.57536, 1.52792, 1.52768, 1.47136, 1.45844, 1.41192, 1.39881, 1.40118, 1.33633, 1.35953, 1.36458, 1.34519, 1.35081, 1.34987, 1.34608, 1.34073, 1.33835, 1.3368, 1.32881, 1.32392, 1.31315, 1.29187, 1.29883, 1.29779, 1.29795, 1.28999, 1.29593, 1.29331, 1.28554, 1.27797, 1.28079, 1.28238, 1.28126, 1.27793, 1.27462, 1.27172, 1.27025, 1.2627, 1.25669, 1.25344, 1.25327, 1.25675, 1.24011, 1.23959, 1.24071, 1.24361, 1.24394, 1.2533, 1.25096, 1.25158, 1.24385, 1.25059, 1.25656, 1.24476, 1.24781, 1.24239
1.27638, 1.27444, 1.2626, 1.25994, 1.26048, 1.26344, 1.26378, 1.26632, 1.26056, 1.25928, 1.26103, 1.2675, 1.272, 1.27764, 1.27735, 1.27752, 1.27545, 1.27455, 1.28532, 1.29849, 1.29988, 1.30533, 1.31729, 1.31833, 1.31942, 1.32511, 1.32475, 1.52411, 1.51227, 1.5096, 1.32546, 1.32093, 1.32182, 1.36005, 1.28517, 1.29635, 1.27411, 1.32095, 1.32625, 1.32057, 1.37038, 1.38385, 1.41466, 1.47058, 1.59563, 1.59933, 1.61995, 1.63362, 1.63179, 1.62982, 1.64222, 1.65478, 1.67958, 1.686, 1.70439, 1.7582, 1.77983, 1.74437, 1.72758, 1.7234, 1.71537, 1.6619, 1.66175, 1.66361, 1.70018, 1.70869, 1.74135, 1.73879, 1.74137, 1.75989, 1.73792, 1.74109, 1.80663, 1.76812, 1.77501, 1.75775, 1.72267, 1.72221, 1.71112, 1.70574, 1.67598, 1.69604, 1.69579, 1.67214, 1.66983, 1.66836, 1.63368, 1.62952, 1.64759, 1.60701, 1.62939, 1.62838, 1.64694, 1.65574, 1.56312, 1.52771, 1.47355, 1.46411, 1.45937, 1.48949, 1.40202, 1.34321, 1.33784, 1.34857, 1.34705, 1.3498, 1.35678, 1.35238, 1.34645, 1.34418, 1.33271, 1.33154, 1.3271, 1.32218, 1.30999, 1.30304, 1.29968, 1.29778, 1.29823, 1.28588, 1.29333, 1.29255, 1.28668, 1.27723, 1.2845, 1.27915, 1.28051, 1.2781, 1.27549, 1.27166, 1.26537, 1.26167, 1.25784, 1.25278, 1.25467, 1.25361, 1.23676, 1.24437, 1.31026, 1.25354, 1.25337, 1.25169, 1.2505, 1.25, 1.25068, 1.25347, 1.25118, 1.24531, 1.24627, 1.24046
1.28357, 1.27305, 1.26569, 1.25511, 1.25574, 1.25826, 1.25888, 1.25887, 1.25971, 1.26008, 1.2645, 1.26746, 1.27147, 1.27507, 1.63238, 1.29211, 1.28503, 1.40286, 1.28916, 1.29657, 1.29805, 1.30501, 1.3191, 1.31969, 1.3179, 1.3234, 1.32982, 1.32694, 1.33276, 1.33169, 1.32448, 1.57787, 1.31169, 1.3091, 1.29087, 1.27861, 1.28716, 1.29378, 1.32323, 1.31953, 1.33454, 1.38906, 1.41386, 1.43313, 1.52711, 1.59572, 1.62989, 1.63766, 1.63662, 1.6319, 1.64453, 1.61976, 1.65869, 1.66954, 1.6859, 1.75548, 1.80446, 1.70946, 1.69351, 1.69267, 1.66607, 1.6618, 1.66093, 1.68857, 1.73428, 1.77791, 1.7131, 1.73775, 1.73567, 1.76108, 1.76091, 1.74132, 1.76297, 1.76891, 1.76866, 1.77871, 1.74667, 1.72394, 1.70414, 1.69517, 1.67477, 1.69708, 1.6963, 1.7799, 1.72363, 1.6482, 1.63302, 1.61282, 1.60983, 1.60719, 1.65347, 1.62295, 1.6791, 1.64067, 1.62501, 1.55233, 1.45403, 1.45855, 1.45071, 1.38576, 1.35394, 1.35358, 1.33658, 1.37346, 1.34806, 1.35852, 1.35465, 1.35295, 1.34567, 1.34362, 1.33778, 1.34653, 1.32488, 1.31846, 1.31785, 1.30902, 1.30532, 1.30163, 1.36756, 1.28683, 1.29576, 1.29549, 1.29855, 1.39441, 1.29018, 1.28222, 1.28092, 1.2769, 1.27482, 1.27186, 1.26469, 1.26181, 1.2584, 1.25632, 1.25502, 1.2525, 1.25154, 1.24631, 1.25779, 1.25408, 1.25424, 1.2619, 1.2598, 1.25863, 1.2521, 1.2532, 1.24877, 1.24403, 1.24552, 1.2426
1.26525, 1.26267, 1.26219, 1.2527, 1.25352, 1.25694, 1.25862, 1.2634, 1.25985, 1.26142, 1.26495, 1.26918, 1.27252, 1.2775, 1.2927, 1.29023, 1.2885, 1.29292, 1.29621, 1.30454, 1.29986, 1.30532, 1.3091, 1.31113, 1.31404, 1.3177, 1.42661, 1.33361, 1.3323, 1.33086, 1.33168, 1.33985, 1.34014, 1.56227, 1.29419, 1.27799, 1.28514, 1.34102, 1.33449, 1.31859, 1.3412, 1.3691, 1.42357, 1.41905, 1.5149, 1.54154, 1.66536, 1.65691, 1.63684, 1.63071, 1.64803, 1.62143, 1.64196, 1.66714, 1.65324, 1.69642, 1.81718, 1.68368, 1.69197, 1.69281, 1.66645, 1.68677, 1.69316, 1.70684, 1.73009, 1.73037, 1.72683, 1.73757, 1.74429, 1.80506, 1.75785, 1.75786, 1.76467, 1.77631, 1.78268, 1.77685, 1.73108, 1.69329, 1.69695, 1.69233, 1.66859, 1.68987, 1.6959, 1.74499, 1.72479, 1.72874, 1.63447, 1.66772, 1.60275, 1.61572, 1.6341, 1.69718, 1.64739, 1.82102, 1.51599, 1.49495, 1.46153, 1.43373, 1.39952, 1.38447, 1.37534, 1.34934, 1.34882, 1.36225, 1.36106, 1.35697, 1.35399, 1.35109, 1.34749, 1.33905, 1.33705, 1.33292, 1.32718, 1.32216, 1.31442, 1.31275, 1.3059, 1.30058, 1.29182, 1.28894, 1.28575, 1.29774, 1.29765, 1.30542, 1.30449, 1.51025, 1.2959, 1.50831, 1.28583, 1.28583, 1.28102, 1.274, 1.27199, 1.27123, 1.27043, 1.26708, 1.26428, 1.26938, 1.26658, 1.26265, 1.2611, 1.26345, 1.25569, 1.25279, 1.24921, 1.24621, 1.24622, 1.24567, 1.2461, 1.24265
1.27411, 1.2631, 1.26422, 1.25458, 1.25547, 1.25969, 1.26616, 1.27343, 1.27523, 1.27733, 1.27433, 1.2745, 1.28236, 1.28386, 1.29356, 1.29267, 1.29451, 1.29552, 1.30192, 1.30546, 1.30851, 1.30911, 1.3097, 1.31141, 1.31532, 1.31742, 1.31974, 1.32111, 1.3275, 1.33167, 1.33358, 1.33695, 1.33833, 1.33687, 1.35659, 1.27623, 1.324, 1.34701, 1.34581, 1.32709, 1.35897, 1.37022, 1.40364, 1.40528, 1.4984, 1.52623, 1.70473, 1.69978, 1.68889, 1.68761, 1.66048, 1.6332, 1.62791, 1.65152, 1.62438, 1.66234, 1.77043, 1.68221, 1.68886, 1.69254, 1.68577, 1.68594, 1.69211, 1.78404, 1.75971, 1.7299, 1.76596, 1.77795, 1.73698, 1.74789, 1.75953, 1.75166, 1.75004, 1.78408, 1.78211, 1.78261, 1.89306, 1.69326, 1.69691, 1.69655, 1.66497, 1.66268, 1.70109, 1.67986, 1.67947, 1.63752, 1.70003, 1.60277, 1.60942, 1.57814, 1.58257, 1.58286, 1.59365, 1.54751, 1.53826, 1.47747, 1.42671, 1.3953, 1.40117, 1.37994, 1.39589, 1.36347, 1.3653, 1.36145, 1.36215, 1.35648, 1.35599, 1.34997, 1.34633, 1.3393, 1.3368, 1.3332, 1.32714, 1.3241, 1.32178, 1.31322, 1.31596, 1.30884, 1.42101, 1.28203, 1.28284, 1.30104, 1.30399, 1.30366, 1.29903, 1.29741, 1.29172, 1.28907, 1.28581, 1.28225, 1.27591, 1.27236, 1.27027, 1.27015, 1.26948, 1.26543, 1.26267, 1.26645, 1.26656, 1.25812, 1.25456, 1.25328, 1.25299, 1.24973, 1.24917, 1.24823, 1.24713, 1.24899, 1.24978, 1.23954
1.26971, 1.26686, 1.26435, 1.26071, 1.25688, 1.25791, 1.26333, 1.27017, 1.2724, 1.27507, 1.27577, 1.27647, 1.28113, 1.28353, 1.29587, 1.29803, 1.30381, 1.30939, 1.31196, 1.31435, 1.3188, 1.31693, 1.3176, 1.31611, 1.31849, 1.31791, 1.31897, 1.32196, 1.32317, 1.33159, 1.33634, 1.33624, 1.33552, 1.33956, 1.34437, 1.27274, 1.27485, 1.2741, 1.27711, 1.32579, 1.32681, 1.37188, 1.38414, 1.43339, 1.45567, 1.51147, 1.56144, 1.62315, 1.61277, 1.65297, 1.59657, 1.62301, 1.61474, 1.62744, 1.62395, 1.62373, 1.64863, 1.69184, 1.69194, 1.77077, 1.68498, 1.6852, 1.68193, 1.77995, 1.76481, 1.71859, 1.72075, 1.74457, 1.7424, 1.73796, 1.75791, 1.75063, 1.77208, 1.91039, 1.9009, 1.89741, 1.79604, 1.74659, 1.70581, 1.66946, 1.66636, 1.65534, 1.75519, 1.81995, 1.85165, 1.62487, 1.60573, 1.59363, 1.57956, 1.55851, 1.55148, 1.52998, 1.5551, 1.55859, 1.50954, 1.45858, 1.40957, 1.40267, 1.37569, 1.35241, 1.36061, 1.37186, 1.36344, 1.36743, 1.3645, 1.35461, 1.35391, 1.34641, 1.34611, 1.33936, 1.33657, 1.33335, 1.32883, 1.32663, 1.32595, 1.32992, 1.3264, 1.32225, 1.31397, 1.31557, 1.30274, 1.30591, 1.30582, 1.30064, 1.29999, 1.29762, 1.29119, 1.28674, 1.28269, 1.279, 1.27556, 1.27392, 1.27101, 1.27042, 1.27039, 1.26651, 1.26054, 1.26319, 1.26311, 1.25707, 1.25379, 1.2536, 1.36508, 1.26041, 1.26064, 1.25527, 1.25404, 1.25005, 1.24372, 1.24273
1.27512, 1.27117, 1.26543, 1.26333, 1.26304, 1.25965, 1.26639, 1.26931, 1.27098, 1.27407, 1.27626, 1.28154, 1.28732, 1.42079, 1.298, 1.30094, 1.30699, 1.30873, 1.31156, 1.31657, 1.31888, 1.31888, 1.32017, 1.32135, 1.32242, 1.32319, 1.32258, 1.32621, 1.32706, 1.47489, 1.33622, 1.33761, 1.33693, 1.33783, 1.33569, 1.26598, 1.28245, 1.29995, 1.29849, 1.31208, 1.35718, 1.36399, 1.38235, 1.42714, 1.48509, 1.52583, 1.55308, 1.64667, 1.61368, 1.61489, 1.59613, 1.59226, 1.6283, 1.60617, 1.65539, 1.64638, 1.64855, 1.75819, 1.69139, 1.68219, 1.67542, 1.67834, 1.68027, 1.74595, 1.79559, 1.68098, 1.69483, 1.67561, 1.73897, 1.75124, 1.7629, 1.73399, 1.70882, 1.75752, 1.70311, 1.71551, 1.70273, 1.71583, 1.70361, 1.66591, 1.66205, 1.65094, 1.64053, 1.65099, 1.59697, 1.594, 1.58256, 1.56882, 1.56573, 1.54401, 1.53469, 1.49574, 1.51691, 1.50178, 1.53308, 1.42258, 1.40542, 1.38873, 1.36289, 1.34939, 1.36174, 1.36192, 1.36988, 1.37054, 1.36769, 1.35691, 1.35596, 1.35599, 1.34404, 1.34421, 1.34392, 1.33332, 1.33268, 1.32994, 1.33022, 1.32985, 1.3314, 1.33221, 1.32977, 1.32382, 1.31075, 1.3091, 1.30163, 1.30139, 1.30142, 1.29793, 1.29138, 1.28714, 1.28481, 1.28042, 1.27799, 1.27516, 1.2736, 1.27335, 1.26982, 1.26342, 1.26131, 1.2717, 1.46099, 1.26247, 1.27572, 1.2725, 1.27417, 1.25659, 1.25481, 1.25238, 1.25115, 1.25085, 1.24744, 1.24767
1.28065, 1.27723, 1.27407, 1.27139, 1.26755, 1.26724, 1.26836, 1.26791, 1.34638, 1.33928, 1.39063, 1.61018, 1.34034, 1.3128, 1.3137, 1.31951, 1.31972, 1.32183, 1.32288, 1.32595, 1.32659, 1.32633, 1.32666, 1.32985, 1.3299, 1.3339, 1.33397, 1.60365, 1.32932, 1.33311, 1.58976, 1.34499, 1.5064, 1.66771, 1.64103, 1.33306, 1.36935, 1.3134, 1.29629, 1.36048, 1.36382, 1.37305, 1.40306, 1.42704, 1.47106, 1.49968, 1.54578, 1.62072, 1.61457, 1.61379, 1.61256, 1.5921, 1.59945, 1.61529, 1.67984, 1.63803, 1.67977, 1.73602, 1.67957, 1.65904, 1.6515, 1.68523, 1.67863, 1.74511, 1.77993, 1.68586, 1.66276, 1.67635, 1.72191, 1.87832, 1.73981, 1.87916, 1.66891, 1.66598, 1.67333, 1.70611, 1.71126, 1.71726, 1.64749, 1.65798, 1.6549, 1.62397, 1.71001, 1.65207, 1.56593, 1.56723, 1.57407, 1.61687, 1.54399, 1.53041, 1.50607, 1.49365, 1.49625, 1.4847, 1.4882, 1.448, 1.39771, 1.3902, 1.34723, 1.35604, 1.36085, 1.36393, 1.37181, 1.37124, 1.57892, 1.57612, 1.35443, 1.35447, 1.34894, 1.34514, 1.34353, 1.33966, 1.33623, 1.33966, 1.34353, 1.34157, 1.336, 1.33292, 1.3303, 1.32376, 1.32255, 1.31961, 1.63404, 1.31179, 1.42679, 1.575, 1.71629, 1.29061, 1.64367, 1.28831, 1.61708, 1.27937, 1.4058, 1.4442, 1.51965, 1.50112, 1.45831, 1.44096, 1.28134, 1.28108, 1.28079, 1.26699, 1.26134, 1.25462, 1.25393, 1.25691, 1.26102, 1.26119, 1.25791, 1.25672
1.27784, 1.27494, 1.27202, 1.27229, 1.271, 1.27097, 1.27066, 1.27855, 1.2834, 1.3015, 1.29906, 1.29909, 1.31172, 1.31188, 1.31175, 1.31578, 1.31634, 1.31899, 1.3202, 1.32349, 1.32568, 1.32493, 1.32651, 1.3281, 1.32938, 1.33225, 1.33399, 1.33513, 1.33501, 1.34207, 1.45567, 1.59952, 1.5995, 1.55753, 1.59961, 1.32548, 1.32541, 1.381, 1.36319, 1.36125, 1.40254, 1.37781, 1.3994, 1.42153, 1.43735, 1.4675, 1.51092, 1.55191, 1.64428, 1.58821, 1.59084, 1.60681, 1.59908, 1.61304, 1.7725, 1.63832, 1.63493, 1.73284, 1.65762, 1.6198, 1.6653, 1.69916, 1.7354, 1.70675, 1.67553, 1.68666, 1.66128, 1.6865, 1.79005, 1.87881, 1.68319, 1.65579, 1.66757, 1.67664, 1.67901, 1.69275, 1.70303, 1.74175, 1.64682, 1.64693, 1.62375, 1.62405, 1.62462, 1.63327, 1.55049, 1.58947, 1.55269, 1.63736, 1.60061, 1.51353, 1.51037, 1.47386, 1.42616, 1.49564, 1.48156, 1.44237, 1.39139, 1.35191, 1.35754, 1.3558, 1.39159, 1.37571, 1.37343, 1.58424, 1.34892, 1.34752, 1.35746, 1.35718, 1.35461, 1.34301, 1.34667, 1.34268, 1.34041, 1.34396, 1.34398, 1.3439, 1.33866, 1.33285, 1.333, 1.32674, 1.32519, 1.60895, 1.31943, 1.55224, 1.32351, 1.31032, 1.30247, 1.30817, 1.31093, 1.30829, 1.42499, 1.46157, 1.31631, 1.38512, 1.29871, 1.29715, 1.29143, 1.29048, 1.27885, 1.27588, 1.26588, 1.26384, 1.26145, 1.25644, 1.25788, 1.26186, 1.26454, 1.26152, 1.2568, 1.25664
1.2781, 1.27469, 1.27143, 1.27445, 1.27531, 1.27214, 1.27716, 1.28213, 1.48779, 1.3026, 1.30131, 1.29921, 1.30245, 1.31161, 1.31268, 1.31388, 1.31558, 1.31788, 1.31909, 1.32556, 1.57395, 1.32482, 1.32586, 1.32832, 1.33003, 1.33042, 1.33301, 1.33563, 1.33727, 1.45495, 1.59333, 1.61305, 1.47213, 1.47699, 1.47709, 1.52004, 1.50369, 1.36714, 1.3885, 1.341, 1.36107, 1.39207, 1.40234, 1.41949, 1.44024, 1.52325, 1.53136, 1.53562, 1.66118, 1.62468, 1.60073, 1.60626, 1.61093, 1.61477, 1.74263, 1.63062, 1.65616, 1.70587, 1.63775, 1.61957, 1.66264, 1.66943, 1.73476, 1.69365, 1.67599, 1.67473, 1.66106, 1.65719, 1.68609, 1.69962, 1.63476, 1.65424, 1.66139, 1.6598, 1.67144, 1.67159, 1.69184, 1.68549, 1.66718, 1.63811, 1.61319, 1.60602, 1.5765, 1.57825, 1.54397, 1.54479, 1.54031, 1.55059, 1.53814, 1.4997, 1.4965, 1.48199, 1.43825, 1.41394, 1.5295, 1.44118, 1.44285, 1.3472, 1.35895, 1.36352, 1.37411, 1.37194, 1.37127, 1.59086, 1.53364, 1.53695, 1.36289, 1.3608, 1.35756, 1.35644, 1.34795, 1.34431, 1.34337, 1.34647, 1.34905, 1.34909, 1.34675, 1.33958, 1.3356, 1.33341, 1.32984, 1.33174, 1.32922, 1.33069, 1.33074, 1.32855, 1.46479, 1.31986, 1.31828, 1.30611, 1.31982, 1.31913, 1.31862, 1.3173, 1.30013, 1.30088, 1.28632, 1.28403, 1.2772, 1.27457, 1.2702, 1.26374, 1.26242, 1.25931, 1.25973, 1.26056, 1.26257, 1.26026, 1.25736, 1.2578
1.42948, 1.27581, 1.27512, 1.28059, 1.27829, 1.28723, 1.28027, 1.44024, 1.32748, 1.30862, 1.29945, 1.30389, 1.30703, 1.31283, 1.31994, 1.31969, 1.3213, 1.56511, 1.56968, 1.57333, 1.57564, 1.44363, 1.42995, 1.42945, 1.4383, 1.44431, 1.44341, 1.33851, 1.34024, 1.34602, 1.56286, 1.39603, 1.39504, 1.4963, 1.58242, 1.60409, 1.60978, 1.39615, 1.41186, 1.34752, 1.36364, 1.41501, 1.48279, 1.41703, 1.4026, 1.4319, 1.50349, 1.49383, 1.56752, 1.67648, 1.6769, 1.58935, 1.63033, 1.61378, 1.64948, 1.63832, 1.65385, 1.66462, 1.63604, 1.62891, 1.65057, 1.68179, 1.71681, 1.68646, 1.67489, 1.67448, 1.66145, 1.66573, 1.68408, 1.66422, 1.63491, 1.63244, 1.66193, 1.66228, 1.67239, 1.67155, 1.6651, 1.6857, 1.72739, 1.65063, 1.58534, 1.56804, 1.56877, 1.5919, 1.49608, 1.48727, 1.50934, 1.50913, 1.54905, 1.48358, 1.49165, 1.44632, 1.42294, 1.43337, 1.52784, 1.38962, 1.41794, 1.35013, 1.35748, 1.37629, 1.37497, 1.37194, 1.37067, 1.3671, 1.3644, 1.36269, 1.36214, 1.3608, 1.36069, 1.35949, 1.35347, 1.34415, 1.34461, 1.3493, 1.34865, 1.34985, 1.34716, 1.34029, 1.5509, 1.47819, 1.42936, 1.44392, 1.44374, 1.33771, 1.33169, 1.32838, 1.32027, 1.32129, 1.32122, 1.30645, 1.31894, 1.31722, 1.30976, 1.49214, 1.29366, 1.29058, 1.285, 1.28289, 1.27964, 1.27579, 1.27421, 1.26553, 1.26272, 1.26465, 1.26486, 1.26244, 1.2644, 1.26019, 1.25642, 1.25984
1.29722, 1.29616, 1.30322, 1.38229, 1.41065, 1.2931, 1.29574, 1.34285, 1.31055, 1.30977, 1.31181, 1.31213, 1.31297, 1.31552, 1.31993, 1.32067, 1.32102, 1.33653, 1.39563, 1.35086, 1.37416, 1.36474, 1.36836, 0.00436238, 1.39001, 1.46481, 1.37911, 1.39884, 1.40662, 1.40892, 1.38332, 1.38416, 1.39186, 1.3925, 1.38879, 1.38979, 1.39101, 1.39528, 1.42043, 1.34635, 1.36342, 1.38384, 1.43897, 1.44946, 1.40607, 1.39666, 1.44387, 1.47403, 1.54097, 1.6886, 1.55053, 1.63033, 1.62498, 1.71578, 1.65839, 1.60697, 1.63073, 1.65053, 1.62965, 1.62858, 1.67188, 1.69112, 1.66108, 1.67966, 1.67884, 1.7266, 1.68345, 1.66283, 1.65993, 1.65914, 1.62993, 1.63111, 1.6565, 1.66261, 1.65929, 1.67559, 1.65183, 1.64793, 1.64512, 1.66219, 1.61071, 1.56712, 1.56641, 1.55132, 1.4951, 1.48834, 1.50733, 1.50887, 1.51693, 1.47828, 1.47885, 1.47195, 1.45845, 1.41948, 1.3913, 1.38513, 1.3608, 1.42919, 1.36649, 1.37479, 1.37575, 1.37139, 1.37052, 1.36876, 1.3652, 1.36297, 1.36456, 1.3615, 1.36074, 1.36558, 1.35456, 1.35226, 1.3504, 1.35733, 1.3588, 1.35361, 1.35017, 1.34833, 1.35904, 1.35063, 1.34858, 1.34801, 1.34736, 1.34162, 1.33984, 1.33036, 1.32695, 1.3176, 1.31889, 1.3161, 1.29559, 1.3024, 1.37877, 1.29669, 1.29138, 1.288, 1.28423, 1.28297, 1.27775, 1.2767, 1.2765, 1.27053, 1.26693, 1.26152, 1.26363, 1.29568, 1.26483, 1.2642, 1.26101, 1.26144
1.30284, 1.31095, 1.31106, 1.31931, 1.37862, 1.30078, 1.30332, 1.30155, 1.30621, 1.31229, 1.31587, 1.31345, 1.30796, 1.30911, 1.31051, 1.31523, 1.32204, 1.34062, 1.35009, 1.5465, 1.37461, 1.37451, 1.37595, 1.39503, 1.38442, 1.38644, 1.37755, 1.37844, 1.38053, 1.37956, 1.38124, 1.3715, 1.52421, 1.40527, 1.38659, 1.38781, 1.38668, 1.38298, 1.37054, 1.3911, 1.39859, 1.3633, 1.36286, 1.36451, 1.38076, 1.39291, 1.40716, 1.44102, 1.44805, 1.5519, 1.53684, 1.63342, 1.6628, 1.60545, 1.68803, 1.60586, 1.62461, 1.58352, 1.65205, 1.62634, 1.64637, 1.65454, 1.69965, 1.68614, 1.68369, 1.6806, 1.68188, 1.6865, 1.66146, 1.66599, 1.63029, 1.63038, 1.65663, 1.66867, 1.66933, 1.66394, 1.63739, 1.61612, 1.62448, 1.62454, 1.61681, 1.56535, 1.56415, 1.55068, 1.50271, 1.49887, 1.50995, 1.50067, 1.49291, 1.46595, 1.46575, 1.50805, 1.39975, 1.37261, 1.37306, 1.40273, 1.3651, 1.36472, 1.37434, 1.3773, 1.37834, 1.37209, 1.37178, 1.36944, 1.36827, 1.36446, 1.36544, 1.36431, 1.36393, 1.3669, 1.36553, 1.35787, 1.35695, 1.36704, 1.36118, 1.36128, 1.35046, 1.36018, 1.35765, 1.35361, 1.3446, 1.34522, 1.34282, 1.33815, 1.41235, 1.32566, 1.31104, 1.30843, 1.29844, 1.2951, 1.28972, 1.29001, 1.29165, 1.29335, 1.29441, 1.2921, 1.29063, 1.28593, 1.28274, 1.2779, 1.27967, 1.27392, 1.26803, 1.25221, 1.25657, 1.27354, 1.27504, 1.26871, 1.26361, 1.26275
1.30487, 1.31151, 1.31082, 1.30992, 1.30971, 1.30467, 1.29794, 1.304, 1.30547, 1.30702, 1.30855, 1.30869, 1.30662, 1.30945, 1.31147, 1.30805, 1.32095, 1.53417, 1.34419, 1.53054, 1.52839, 1.5345, 1.53773, 1.54152, 1.54105, 1.36635, 1.36654, 1.37017, 1.36932, 1.37133, 1.37257, 1.37386, 1.37749, 1.49519, 1.56834, 1.38707, 1.38553, 1.46398, 1.37033, 1.32269, 1.34157, 1.35131, 1.35093, 1.45031, 1.3785, 1.37184, 1.4165, 1.42261, 1.45468, 1.50702, 1.552, 1.52408, 1.56451, 1.68247, 1.59408, 1.55871, 1.60573, 1.60956, 1.6408, 1.6192, 1.70925, 1.61972, 1.68189, 1.70926, 1.6802, 1.68035, 1.68113, 1.71942, 1.6632, 1.66081, 1.63079, 1.65228, 1.65165, 1.66781, 1.70564, 1.6434, 1.63792, 1.60276, 1.62519, 1.6247, 1.59547, 1.65622, 1.57944, 1.57579, 1.51743, 1.50946, 1.51001, 1.50599, 1.5205, 1.46322, 1.46306, 1.44605, 1.40654, 1.35775, 1.35733, 1.35458, 1.35856, 1.37222, 1.37113, 1.66976, 1.53123, 1.56523, 1.62708, 1.55443, 1.3681, 1.36732, 1.36922, 1.36983, 1.37009, 1.36682, 1.36874, 1.36134, 1.3576, 1.36527, 1.3678, 1.36612, 1.35996, 1.35764, 1.34672, 1.34224, 1.34076, 1.33926, 1.33739, 1.33309, 1.32231, 1.31895, 1.30837, 1.29792, 1.29569, 1.29163, 1.28826, 1.28786, 1.28668, 1.29221, 1.29463, 1.28955, 1.28996, 1.28558, 1.28214, 1.2782, 1.27836, 1.27418, 1.45262, 1.25049, 1.25006, 1.26649, 1.28814, 1.27884, 1.2661, 1.26693
1.29849, 1.30131, 1.30273, 1.3022, 1.30045, 1.29853, 1.29492, 1.2968, 1.29933, 1.30667, 1.30768, 1.30981, 1.31139, 1.30931, 1.31036, 1.31256, 1.31637, 1.34037, 1.34268, 1.34966, 1.35352, 1.35668, 1.35716, 1.36071, 1.36307, 1.36399, 1.36417, 1.37153, 1.37215, 1.37065, 1.37282, 1.35815, 1.47835, 1.548, 1.54609, 1.3775, 1.3766, 1.64206, 1.57161, 1.3421, 1.32427, 1.33003, 1.33244, 1.33353, 1.35454, 1.35616, 1.3858, 1.42009, 1.47213, 1.50753, 1.48494, 1.52961, 1.53944, 1.67976, 1.56466, 1.52721, 1.53755, 1.55457, 1.56162, 1.61744, 1.64744, 1.61998, 1.6347, 1.72065, 1.67253, 1.7251, 1.72181, 1.713, 1.64415, 1.65462, 1.62491, 1.6216, 1.65877, 1.69489, 1.63309, 1.63466, 1.60779, 1.61293, 1.61657, 1.62436, 1.60949, 1.57611, 1.55999, 1.56835, 1.48883, 1.49307, 1.49406, 1.50666, 1.51335, 1.46884, 1.46766, 1.41612, 1.35911, 1.35412, 1.35185, 1.40288, 1.35952, 1.37636, 1.52134, 1.59045, 1.39489, 1.39051, 1.38685, 1.44115, 1.38686, 1.38074, 1.37317, 1.37555, 1.37815, 1.37767, 1.37764, 1.37539, 1.35689, 1.94245, 1.87973, 1.35471, 1.35451, 1.40266, 1.4126, 1.34222, 1.34192, 1.33818, 1.33518, 1.32533, 1.3246, 1.31258, 1.30476, 1.29808, 1.29706, 1.29432, 1.28948, 1.28813, 1.2863, 1.29297, 1.29465, 1.29111, 1.28877, 1.28301, 1.28146, 1.2784, 1.28097, 1.26677, 1.26313, 1.2587, 1.25295, 1.26468, 1.28873, 1.28795, 1.37261, 1.46585
1.29785, 1.29855, 1.30306, 1.30231, 1.3006, 1.30034, 1.29321, 1.29532, 1.2975, 1.30206, 1.30709, 1.31175, 1.31605, 1.31869, 1.31115, 1.38977, 1.53692, 1.57279, 1.34829, 1.35183, 1.54053, 1.35694, 1.37002, 1.36978, 1.37099, 1.36433, 1.37195, 1.37057, 1.37078, 1.47057, 1.58762, 1.35347, 1.35837, 1.36182, 1.36919, 1.37392, 1.37563, 1.36949, 1.60998, 1.32713, 1.32664, 1.32344, 1.41486, 1.33665, 1.33479, 1.33627, 1.37492, 1.39591, 1.41698, 1.4258, 1.45471, 1.4731, 1.54818, 1.52644, 1.59011, 1.51875, 1.5714, 1.51994, 1.52868, 1.61979, 1.60611, 1.60555, 1.6197, 1.68881, 1.63915, 1.72008, 1.72361, 1.68979, 1.69927, 1.64178, 1.63403, 1.62493, 1.59667, 1.68621, 1.63179, 1.62082, 1.62727, 1.59945, 1.60004, 1.70585, 1.65201, 1.60591, 1.5554, 1.57147, 1.54576, 1.48883, 1.54504, 1.54001, 1.56538, 1.49775, 1.40917, 1.42418, 1.3537, 1.35388, 1.36385, 1.33272, 1.38205, 1.41931, 1.64815, 1.39569, 1.39505, 1.39365, 1.39014, 1.39116, 1.38562, 1.37867, 1.37654, 1.37495, 1.37398, 1.37328, 1.45633, 1.35818, 1.361, 1.34161, 1.42711, 1.34197, 1.33626, 1.33305, 1.33514, 1.3369, 1.34273, 1.33632, 1.33196, 1.32314, 1.32329, 1.32592, 1.32647, 1.29844, 1.29313, 1.29897, 1.29775, 1.2918, 1.29206, 1.29108, 1.29319, 1.29539, 1.28731, 1.28243, 1.27928, 1.27821, 1.2786, 1.2633, 1.26131, 1.25343, 1.25085, 1.25397, 1.27779, 1.27857, 1.24996, 1.24953
1.31167, 1.3076, 1.3069, 1.30232, 1.30469, 1.30259, 1.29987, 1.29733, 1.29851, 1.30221, 1.30471, 1.31392, 1.31735, 1.53298, 1.53504, 1.35458, 1.54314, 1.35832, 1.3536, 1.55556, 1.36371, 1.36618, 1.36935, 1.53715, 1.36958, 1.459, 1.34553, 1.33741, 1.33754, 1.33767, 1.33749, 1.35105, 1.35332, 1.36455, 1.36478, 1.37093, 1.37179, 1.3675, 1.61103, 1.43365, 1.35251, 1.32209, 1.32023, 1.31506, 1.32564, 1.37135, 1.37176, 1.38282, 1.39314, 1.43033, 1.45384, 1.46177, 1.51276, 1.52631, 1.5324, 1.57365, 1.57438, 1.52904, 1.54665, 1.59623, 1.63103, 1.60518, 1.60559, 1.62379, 1.62224, 1.72044, 1.72184, 1.64136, 1.61981, 1.62172, 1.62932, 1.5926, 1.59096, 1.5905, 1.59919, 1.63036, 1.61691, 1.59305, 1.57772, 1.94309, 1.61315, 1.57739, 1.54025, 1.53077, 1.49617, 1.47792, 1.48731, 1.51057, 1.43988, 1.39938, 1.4013, 1.42351, 1.34842, 1.35179, 1.34986, 1.37107, 1.49301, 1.40597, 1.39825, 1.39878, 1.39662, 1.39462, 1.39283, 1.39234, 1.38389, 1.37179, 1.37472, 1.37286, 1.37163, 1.37151, 1.36579, 1.35965, 1.40284, 1.4538, 1.32932, 1.33554, 1.33374, 1.33047, 1.33126, 1.33739, 1.34015, 1.33665, 1.32593, 1.32388, 1.32647, 1.32387, 1.31217, 1.31032, 1.29993, 1.29775, 1.29581, 1.29326, 1.29115, 1.29173, 1.29442, 1.29095, 1.28846, 1.28225, 1.28021, 1.27892, 1.28055, 1.25962, 1.25883, 1.25657, 1.24893, 1.25203, 1.26817, 1.26782, 1.25611, 1.24922
1.30597, 1.30869, 1.3017, 1.3, 1.30504, 1.30555, 1.30397, 1.30337, 1.30298, 1.30297, 1.30517, 1.54725, 1.32316, 1.53086, 1.34339, 1.34815, 1.3473, 1.35856, 1.35281, 1.35123, 1.35404, 1.35411, 1.57592, 1.53769, 1.48199, 1.49276, 1.33338, 1.33418, 1.33569, 1.33655, 1.33629, 1.34794, 1.35303, 1.36275, 1.36466, 1.36847, 1.37387, 1.373, 1.37372, 1.36697, 1.60985, 1.5206, 1.32949, 1.31194, 1.32373, 1.3616, 1.35727, 1.37056, 1.39509, 1.41306, 1.40644, 1.48651, 1.46091, 1.50015, 1.50071, 1.58013, 1.57866, 1.51673, 1.55514, 1.56504, 1.60234, 1.61345, 1.61067, 1.6235, 1.64067, 1.6191, 1.66972, 1.61027, 1.61954, 1.64135, 1.61571, 1.58553, 1.58633, 1.58887, 1.57007, 1.57653, 1.59869, 1.57039, 1.57085, 1.57807, 1.57389, 1.55137, 1.56103, 1.56109, 1.49006, 1.45781, 1.48868, 1.42187, 1.42146, 1.40946, 1.38651, 1.38906, 1.36448, 1.35415, 1.36748, 1.36133, 1.57981, 1.40136, 1.40472, 1.40298, 1.51893, 1.39556, 1.39038, 1.39154, 1.37182, 1.36968, 1.38078, 1.37803, 1.37192, 1.37194, 1.36809, 1.35995, 1.4406, 1.32846, 1.32832, 1.32752, 1.32387, 1.33132, 1.33178, 1.3398, 1.34124, 1.33892, 1.32559, 1.31144, 1.32727, 1.32783, 1.31241, 1.30605, 1.29915, 1.29612, 1.29589, 1.29494, 1.29323, 1.29105, 1.29423, 1.29458, 1.28946, 1.28558, 1.28348, 1.28201, 1.26485, 1.26184, 1.26144, 1.24617, 1.24292, 1.26158, 1.26662, 1.26706, 1.25571, 1.25595
1.30133, 1.30052, 1.3001, 1.30076, 1.30874, 1.30351, 1.29995, 1.29881, 1.30113, 1.30458, 1.30647, 1.56389, 1.33138, 1.33376, 1.34309, 1.34629, 1.34513, 1.51782, 1.34421, 1.34359, 1.34372, 1.55808, 1.58942, 1.33665, 1.33247, 1.32355, 1.3335, 1.33093, 1.33258, 1.33539, 1.33606, 1.3466, 1.34606, 1.36403, 1.36408, 1.36758, 1.37366, 1.37601, 1.51287, 1.57249, 1.56034, 1.36868, 1.3269, 1.32717, 1.31124, 1.35469, 1.37113, 1.38568, 1.38267, 1.3957, 1.39858, 1.41121, 1.53772, 1.53364, 1.50224, 1.47694, 1.47543, 1.53763, 1.52376, 1.56692, 1.59346, 1.62208, 1.63129, 1.62969, 1.6198, 1.63426, 1.6492, 1.59268, 1.59256, 1.60286, 1.60936, 1.65585, 1.58556, 1.58579, 1.57484, 1.57167, 1.57228, 1.59562, 1.55268, 1.57812, 1.57198, 1.52715, 1.56013, 1.56394, 1.5175, 1.48075, 1.47851, 1.44462, 1.38712, 1.3966, 1.37685, 1.37907, 1.37128, 1.36897, 1.42143, 1.4089, 1.40863, 1.40836, 1.40606, 1.40557, 1.40236, 1.40329, 1.3848, 1.39028, 1.38922, 1.36406, 1.36389, 1.37219, 1.37045, 1.3742, 1.37165, 1.35876, 1.36608, 1.32608, 1.32613, 1.32634, 1.32761, 1.33265, 1.33184, 1.33538, 1.33953, 1.34261, 1.31712, 1.31289, 1.30945, 1.31776, 1.31362, 1.30638, 1.29878, 1.29626, 1.29675, 1.29537, 1.29425, 1.29342, 1.30312, 1.35101, 1.3411, 1.29621, 1.34093, 1.28899, 1.37532, 1.26747, 1.26438, 1.37097, 1.26759, 1.26465, 1.26371, 1.26052, 1.25783, 1.25736
1.29795, 1.29808, 1.30027, 1.30197, 1.30843, 1.31339, 1.4126, 1.29965, 1.30102, 1.3042, 1.30607, 1.56518, 1.32856, 1.32868, 1.33459, 1.33954, 1.33755, 1.40623, 1.34296, 1.52299, 1.4975, 1.55838, 1.32984, 1.32323, 1.32046, 1.32032, 1.33375, 1.33079, 1.33382, 1.33473, 1.33637, 1.34899, 1.34674, 1.35744, 1.36022, 1.36789, 1.37418, 1.55483, 1.38276, 1.65369, 1.65544, 1.48557, 1.36484, 1.37834, 1.30451, 1.30609, 1.37172, 1.4486, 1.38558, 1.41276, 1.39682, 1.43428, 1.47096, 1.53304, 1.52841, 1.47565, 1.47643, 1.5133, 1.55767, 1.54217, 1.59229, 1.66489, 1.62938, 1.63474, 1.60898, 1.59393, 1.59292, 1.5891, 1.5871, 1.59025, 1.58704, 1.58356, 1.57598, 1.57936, 1.56788, 1.56653, 1.56891, 1.54844, 1.52981, 1.53088, 1.6368, 1.52771, 1.54552, 1.53011, 1.48341, 1.47769, 1.49451, 1.43694, 1.37618, 1.39856, 1.41989, 1.40397, 1.42711, 1.42765, 1.42115, 1.41502, 1.40956, 1.4105, 1.40938, 1.4074, 1.40946, 1.38148, 1.3878, 1.38941, 1.39038, 1.36358, 1.36216, 1.36069, 1.36699, 1.37424, 1.36568, 1.36094, 1.34518, 1.33083, 1.32932, 1.33116, 1.33787, 1.33233, 1.33669, 1.33937, 1.33948, 1.33893, 1.3348, 1.31045, 1.31991, 1.31614, 1.31512, 1.30847, 1.30219, 1.29668, 1.29657, 1.29479, 1.2935, 1.29119, 1.30322, 1.3135, 1.30471, 1.29835, 1.29196, 1.28807, 1.28136, 1.28138, 1.27993, 1.26234, 1.26753, 1.26375, 1.26098, 1.26038, 1.25821, 1.2672
