0.957986541121181,0.980209609729508,0.979925103872502,0.981371341978947,1.03527729894104,1.03533261952434,1.00323877826602,1.0016423842906,1.00397375172995,1.00430567522979,1.01682393293803,1.02002462382935,1.02999023176502,1.05397565609868,1.04266654828271,1.0450453333649,1.06185488774964,1.08374603285813,1.09752085810149,1.12792347009872,1.2089839305239,1.2058385602159,1.19878123437406,1.19663953750605,1.18729035892723,1.26984447510169,1.25774507323848,1.25817183202398,1.20639176604896,1.24277690398379,1.24241336872206,1.23707098096274,1.2362806869155,1.24650709188675,1.2277534141458,1.25507387935881,1.296935755041,1.27134603379144,1.27867996254981,1.38096772108379,1.3807938563934,1.28167517698884,1.28504973257054,1.29019454681806,1.28564245310597,1.28521569432046,1.31299453008087,1.32475410550377,1.32529150545589,1.3789050536205,1.3602225023438,1.36469556665117,1.37273285711158,1.36927136918467,1.38269846504724,1.43300068115393,1.4345259486651,1.45493134096478,1.44945460321742,1.40074878108615,1.3963310373621,1.37912633595373,1.37055954848167,1.3828249120948,1.42267153795653,1.42343022024188,1.4232800643729,1.40029831347923,1.38455565605825,1.38352037085637,1.39025367613884,1.35834160251137,1.35885529364208,1.36259338448551,1.38419212079652,1.3740131334681,1.37586242153864,1.37523018630085,1.37568065390777,1.40287467207322,1.40553006007194,1.40563279829808,1.39964236942002,1.39876514302759,1.38784327929476,1.38785118223523,1.39742954608776,1.39574621976714,1.39795114015893,1.38175011219056,1.36140004047419,1.36143165223607,1.36272773447354,1.34848663574232,1.34776746815933,1.35266729125221,1.3508101002412,1.34427436847054,1.34468532137511,1.34224331276914,1.33022294031065,1.32484103784896,1.3244300849444,1.35855498190413,1.30192251047907,1.3017407428482,1.30118753701514,1.30063433118207,1.29862698430209,1.35619200270289,1.30202524870521,1.28940425277082,1.28763399410501,1.30321859271654,1.26996301920877,1.2664936283414,1.24986584158752,1.23925219253311,1.24438120089968,1.23497670173756,1.22145477058932,1.2024323928723,1.19965055782603,1.17045709572106,1.16908988701934,1.17547546292102,1.19320966134104,1.14142169242555,1.12550517031418,1.10916979235777,1.10016834315973,1.0941700113412,1.06081169960729,1.03507972542923,1.02454510577955,1.01393935966562,1.03998745146257,0.98234340365705,0.96353440533279,0.949893930077466,0.93910641633267,0.931891031681389,0.925924311624744,0.921261576746041,0.937747110571421,0.906925642729147,0.913998774451925,0.912323351071781,0.9112880658699,0.912923974547682,0.91255253634548,0.912900265726265,0.907676422074023,0.906427757479387,0.905993095753407,0.909122660180468,1.06732372255653,1.06642278734268,0.894668182056489,0.897837261185912,0.894849949687354,0.892755670462174,0.890693002998883,0.891317335296201,0.892004891117298,0.887895362071661,0.881019803860692,0.881114639146361,0.876530933672382,0.875543066113334,0.875819669029868,0.876499321910492,0.870398251865816,0.869821337211333,0.867940437378907,0.867466260950564,0.869497316651965,0.870603728318098,0.874910830875544,0.874302304459171,0.873195892793038,0.872824454590836,0.870619534199043,0.873148475150204,0.874713257363735,0.878767465826064,0.873504107471461,0.878103618826385,0.87599353372026
0.969991107698723,0.990839064664856,0.983165309466177,0.996039199495681,1.0055622427649,0.99314672328279,1.00194269602855,1.0086522924896,1.01260376272578,1.00470872519388,1.01277762741618,1.01749568287819,1.0458751421145,1.03155501397855,1.03515085189348,1.05146252102847,1.06173634364256,1.08648835320205,1.11859800034132,1.12124548539956,1.13248346675129,1.19835447558856,1.19635503164904,1.18284100344128,1.23621746339172,1.23032186979932,1.2120739802486,1.22063286478019,1.21512451527094,1.21254025373647,1.22599896136093,1.24588275958944,1.26937029867334,1.26405161973543,1.27057944856562,1.28546858841558,1.30658524535777,1.49656403137326,1.45263158528732,1.34896871511113,1.43847741890129,1.45817944949893,1.47676716548996,1.28343753271418,1.32399542321842,1.31829740313784,1.33577870746274,1.33506744282022,1.34433759199432,1.38187655923812,1.38676847939052,1.42054564696946,1.36623664004328,1.37076502493395,1.37041729555317,1.37034616908892,1.3850851530699,1.45159630008543,1.45005522669332,1.40300111912078,1.40133359868111,1.39351759055393,1.37047261613647,1.37021181910089,1.3723535159689,1.37322283942086,1.37322283942086,1.37722963024036,1.37634450090745,1.38725846169981,1.38132335340505,1.37278817769488,1.35883948776113,1.36240371391418,1.36136052577182,1.37433715402747,1.37503261278904,1.37549888627691,1.40696839523792,1.41559050329328,1.41429442105581,1.40736354226154,1.40586198357178,1.40009283702695,1.38774844400909,1.3884913204135,1.38837277630641,1.40130988985969,1.40937879208199,1.44218389798283,1.38013000939372,1.39072785256718,1.3949559257199,1.38145770339308,1.35212989130009,1.35254084420465,1.3516952295741,1.35143443253852,1.34902403569444,1.34802036225445,1.32924297569208,1.32889524631129,1.32299174977843,1.35932947007042,1.30242039572883,1.30211218105041,1.30138511052695,1.29281832305489,1.29658802566021,1.30223072515749,1.30826066873792,1.29722816383848,1.28648016479604,1.28787108231918,1.2630874609978,1.25265557957426,1.250727262099,1.2420893481627,1.24216047462695,1.24467360969716,1.21205027142719,1.21740846506746,1.20352299865749,1.2613725229153,1.18302277107214,1.19260903786514,1.19388141128119,1.16979324872138,1.18202700057262,1.12132451480429,1.09778165513707,1.09146720569964,1.0967147581733,1.05593558533583,1.04523500393623,1.0051038722175,0.99852862574448,0.99058617056974,0.965968510998283,0.957338500002446,0.969659184198883,0.958508135192358,0.955813232491277,0.941406172010132,0.94056846032006,0.924470170577826,0.911351289393679,0.944061560008851,0.916369656593639,0.915326468451285,0.91421215384468,0.908814445502045,0.908269142609451,0.908743319037794,0.907755451478747,0.907573683847882,0.907755451478747,0.902365646076585,0.897710814138355,0.896754558341197,0.895703467258371,0.893735635080748,0.893293070414295,0.890463817725184,0.891910055831629,0.889262570773382,0.885508674049003,0.88553238287042,0.886480735727105,0.878459251147642,0.88034805392054,0.881288503836753,0.872042063484071,0.870026813663614,0.869133781390236,0.869197004914015,0.869726501925664,0.869931978377946,0.870074231306449,0.871749654686593,0.878103618826385,0.876064660184511,0.873298631019179,0.873788613328466,0.879368089301965,0.882821674288394,0.882260565514856,0.882007671419739,0.882829577228867
0.984611547572622,0.976226527731429,0.985773279822062,1.00212446365941,1.00119191668367,1.0025275136235,1.00210075483799,1.01466643018908,1.0097666070962,1.01117333050028,1.0150299654508,1.0311677698954,1.03693691644024,1.04257171299704,1.04857794775605,1.06643069028315,1.06473946102206,1.07861702449156,1.1197755384717,1.13371632546498,1.1362847811185,1.15929814377406,1.237711119141,1.23658099865345,1.19331239956718,1.23069330800153,1.26153058172475,1.22299584398143,1.23123070795365,1.23166536967963,1.23090668739428,1.24132276293687,1.25342216480009,1.33991984827026,1.28808446171193,1.28898539692579,1.3273778817406,1.33186675192891,1.46038436989072,1.43011610788151,1.46313459317511,1.46712557811366,1.4085173715705,1.39717665199264,1.39729519609973,1.57020363069488,1.41103050664072,1.55035934716874,1.49073956424512,1.44365384491069,1.44240518031606,1.36868655158972,1.36734305170941,1.37062277200545,1.37058325730309,1.37014859557711,1.50785733330829,1.3864602647121,1.38629430296218,1.37529340982463,1.37496148632479,1.37137355135033,1.37064648082687,1.37040148967222,1.37128661900513,1.37329396588511,1.37305687767094,1.37635240384792,1.37675545381202,1.39626781383832,1.39158927307867,1.36954006916073,1.38151302397639,1.38347295321354,1.38918677917507,1.39573831682667,1.39746906079012,1.39727148727831,1.41966051763656,1.41465005337707,1.41559840623375,1.41426280929392,1.48237825322535,1.4063440629406,1.40255855445433,1.42327216143243,1.43027416669096,1.4003931487649,1.42020582052915,1.44376448607731,1.44448365366029,1.38239815330929,1.38014581527467,1.37305687767094,1.35386063526354,1.35390805290637,1.4422787332685,1.35140282077663,1.35737744377374,1.38287232973764,1.37294623650433,1.32520457311069,1.32284159390945,1.32120568523167,1.36504329603195,1.30748618057162,1.30246781337166,1.29284203187631,1.2926444583645,1.29250220543599,1.29533145812511,1.28905652339004,1.29346636417362,1.32213032926694,1.30588188365573,1.30487821021574,1.25343006774056,1.25369876771662,1.23906252196177,1.22923916695461,1.22679715834864,1.20153936059892,1.21431841534276,1.19778546387454,1.26448628146141,1.29545000223219,1.32122149111262,1.19892348730257,1.18725874716534,1.1579704497747,1.15311014138419,1.12677754373023,1.08454422984584,1.06446285810553,1.05690764701394,1.05092512107635,1.03790897811834,1.0126274715472,1.04116498959296,0.976115886564816,0.971421539924223,0.963091840666337,0.953387029766257,0.953584603278066,0.927346840909772,0.915832256641517,0.909304427811333,0.917057212414736,0.972946807435392,0.910260683608491,0.910537286525024,0.909889245406289,0.908940892549604,0.907463042681269,0.908111083800004,0.907755451478747,0.905716492836873,0.904886684087274,0.90756578090741,0.901441002041317,0.897710814138355,0.89586942900829,0.895608631972702,0.893656605676025,0.890740420641717,0.891925861712574,0.953940235599324,0.885816888727426,0.884994982918298,0.881430756765256,0.880142577468258,0.87938389518291,0.874088925066417,0.874073119185472,0.872966707519339,0.872326569341076,0.871963034079347,0.870453572449123,0.871710139984231,0.875432424946721,0.877882336493158,0.878411833504807,0.874808092649403,0.876238524874904,0.881359630301004,0.881580912634231,0.882379109621941,0.894557540889876,0.890693002998883
0.96954854303227,0.984208497608531,0.984224303489476,1.01206636277366,1.0019268901476,1.00430567522979,1.00743523965685,1.01907627097266,1.01902885332983,1.02005623559124,1.03598856358355,1.03792478399928,1.03715819877346,1.06305613470145,1.06542701684316,1.07177307804248,1.06711824610425,1.08871698241526,1.11360334196277,1.12376652341025,1.13602398408291,1.18194006822743,1.23927590135453,1.24519520376834,1.2322185755127,1.21529047702086,1.2145080859141,1.2368813103914,1.26631186071053,1.22237151168411,1.22228457933892,1.25501065583503,1.25418084708543,1.33987243062743,1.27979427715641,1.27927268308523,1.29137208494844,1.3318983636908,1.42813246982294,1.43350646934416,1.43703908373531,1.40369657788235,1.46046339929544,1.39806178132555,1.39724777845689,1.39716874905217,1.4259433553121,1.40357803377527,1.40379141316802,1.40218711625213,1.43539527211706,1.37314381001614,1.36887622216105,1.368892028042,1.37584661565769,1.37012488675569,1.37094679256482,1.39257714063772,1.38666574116438,1.37556210980069,1.38435808254644,1.38376536201101,1.38371794436818,1.3901509379127,1.39049866729348,1.37273285711158,1.68528624985365,1.64651442389616,1.63090611646322,1.57300917456258,1.67344764502603,1.61695742652947,1.38764570578295,1.39954753413435,1.3996186605986,1.39663925204052,1.3980459754446,1.39829096659925,1.41032714493868,1.41007425084356,1.41491085041266,1.41502149157927,1.41009005672451,1.42607770530013,1.41475279160321,1.42010308230301,1.43108026661914,1.43080366370261,1.48541298236674,1.44546361827887,1.41447618868668,1.38762989990201,1.38103884754804,1.37072551023159,1.45111422071662,1.44879075621774,1.44852995918215,1.48899301440073,1.3721243306952,1.356160390941,1.35657924678603,1.36125778754568,1.36162922574788,1.36208759629528,1.36184260514064,1.3085214657735,1.29947259893263,1.29326088772134,1.29292106128103,1.29202802900765,1.38276168857102,1.3019699281219,1.28818719993808,1.29249430249552,1.29413811411378,1.28809236465241,1.25701009977454,1.27192294844592,1.23704727214132,1.22846467878832,1.21451598885457,1.21895744140005,1.26150687290333,1.20692126306061,1.26461272850897,1.20398136920489,1.38103884754804,1.19825964030289,1.18482464149984,1.18034367425201,1.14725406249416,1.15011492694516,1.0977184316133,1.07604066589756,1.05052207111225,1.03320672853727,1.04828553895857,1.02305145003027,0.996465958281189,1.00711121909748,0.982414530121301,0.96951693127038,0.974756580803567,0.952470288671461,0.953252679778226,0.908806542561573,0.914860194963415,0.932183440478867,0.931472175836353,0.908759124918739,0.910434548298883,0.911556765845961,0.912236418726585,0.912181098143279,0.91015794538235,0.908261239668979,0.907802869121581,0.906759680979227,0.910118430679988,0.908640580811653,1.01898933862747,0.900168628625264,0.903195454826185,0.90304529895721,0.903329804814215,0.896556984829387,0.902255004909972,0.903306095992798,0.885398032882389,0.885350615239555,0.882821674288394,0.873504107471461,0.873014125162173,0.873591039816657,0.873061542805008,0.870706466544239,0.870556310675264,0.872579463436193,0.872334472281549,0.873298631019179,0.879810653968418,0.879455021647161,0.881154153848723,0.881217377372502,0.884591932954207,0.884979177037354,0.896027487817738,0.894960590853967,0.896043293698683
0.997335281733151,0.993755249699164,0.995098749579468,1.01598622124796,1.00564917511009,1.02402351170837,1.01849935631818,1.02133651194776,1.04698155378063,1.04777184782787,1.04849101541085,1.05030078877903,1.05029288583856,1.06033752317895,1.06093024371438,1.06888850477006,1.08327975937026,1.11010233933351,1.10941478351241,1.14105815716382,1.14979880932627,1.19833866970761,1.23941815428303,1.18167136825137,1.22591202901574,1.26187831110553,1.26861951932847,1.31664568857911,1.26561640194896,1.22421289681418,1.23666793099864,1.24423894797118,1.24732899769588,1.28942005865177,1.28673305889116,1.29274719659064,1.3187952883876,1.32916394628736,1.4391886835438,1.43722875430665,1.39968978706286,1.39902594006318,1.46043969047403,1.40268500150189,1.39610975502887,1.39566719036242,1.39548542273155,1.40591730415509,1.40360964553716,1.40355432495385,1.42978418438167,1.36979296325585,1.36983247795821,1.36993521618435,1.36973764267254,1.37562533332447,1.40621761589304,1.39237166418543,1.39294857883992,1.39188168187615,1.38548820303399,1.38427115020125,1.38464258840345,1.38474532662959,1.39885997831326,1.44423866250565,1.43402806341534,1.6257613022157,1.53996698044756,1.4923754729229,1.45282915879913,1.45303463525141,1.45218902062086,1.47065819250481,1.39754809019484,1.39743744902823,1.3975876048972,1.40143633690725,1.41159161541426,1.41134662425961,1.41452360632951,1.4137254093418,1.41114114780733,1.48779176744893,1.45444926159596,1.42693122287114,1.426543978788,1.42541385830045,1.45941230821262,1.45991019346238,1.42715250520437,1.4016813280619,1.40131779280017,1.40081200460993,1.44706001225429,1.44660954464736,1.48885076147222,1.48966476434088,1.373325577647,1.37523808924132,1.37112065725521,1.35758292022603,1.34451935962519,1.3471194270406,1.34286764506646,1.30170122814584,1.30129817818175,1.30051578707499,1.29124563790089,1.29902213132571,1.29782878731438,1.29669866682683,1.28598227954628,1.28622727070093,1.28530262666566,1.30614268069132,1.26239200223623,1.24501343613748,1.25410972062118,1.24771624177903,1.21944742370933,1.21801699148383,1.21212930083191,1.21519564173519,1.21305394486718,1.22258489107687,1.29451745525645,1.37897618008475,1.18232731231057,1.16614209022314,1.16339976987923,1.13887694559344,1.10874303357226,1.13121109333523,1.0997494873147,1.06179956716634,1.04373344524648,1.02307515885169,0.999113443339436,0.996774172959612,1.02808562311117,0.970536410591317,0.958689902823223,0.960586608536593,0.913105742178547,0.914789068499163,0.91660674480781,0.916488200700724,0.931377340550684,0.911058880596201,0.918345391711733,0.913595724487834,0.913785395059171,0.914006677392398,0.913951356809091,0.913864424463895,0.912607856928787,0.911580474667378,0.91384861858295,0.980391377360372,0.912489312821701,0.905653269313094,0.903369319516577,0.902816113683511,0.902997881314375,0.903337707754688,0.900057987458651,0.895284611413334,0.887097165083951,0.88669411511986,0.886599279834191,0.875424522006249,0.872366084043438,0.873085251626425,0.873211698673983,0.873377660423903,0.874333916221061,0.875550969053807,0.873962478018859,0.874017798602165,0.879897586313615,0.882039283181629,0.881430756765256,0.883066665443038,0.884584030013735,0.885469159346641,0.89430464679476,0.88506610938255,0.882560877252806
0.984809121084432,0.999405852136914,1.00666865443103,1.01263537448767,1.02089394728131,1.02641019973103,1.01396306848703,1.04092790137879,1.05739762932322,1.05892289683439,1.06769516075873,1.07284787794672,1.0621235877257,1.08424391810789,1.10234165178964,1.08319282702506,1.0824104359183,1.11047377753571,1.11933297380525,1.13536013708323,1.16536760205685,1.19490089060213,1.18350485044096,1.19543038761378,1.24300608925749,1.26190992286742,1.29989145477767,1.2413148599964,1.24047714830633,1.24052456594916,1.24732899769588,1.24171000702002,1.25478937350181,1.27050041916089,1.27412786883772,1.36314659031858,1.36318610502094,1.32095279113655,1.34876323865885,1.41993712055309,1.4018789015737,1.39959495177719,1.40085942225277,1.40165761924048,1.39743744902823,1.39739003138539,1.38827794102074,1.40313546910881,1.40268500150189,1.40268500150189,1.40247162210913,1.43223409592811,1.36961909856546,1.37053583966025,1.37016440145805,1.37044890731506,1.40595681885745,1.39463190516053,1.39309873470889,1.3922373141974,1.37921326829892,1.37854942129925,1.37829652720413,1.40066975168143,1.40002961350317,1.41096728311694,1.41631757381674,1.41678384730461,1.41612000030493,1.56671053100609,1.45386444400101,1.45369057931061,1.45316898523944,1.56323323719825,1.55303844398888,1.39820403425405,1.39765082842098,1.49862669883656,1.42500290539588,1.42324054967054,1.42212623506394,1.4142391004725,1.44129876864993,1.44724968282563,1.44031880403135,1.42750023458515,1.42638591997855,1.42551659652659,1.43739471605657,1.48007849754788,1.42498709951494,1.46060565222395,1.41438135340101,1.45521584682178,1.53660032780633,1.41170225658087,1.38006678586994,1.46499968712659,1.38694234408091,1.38255621211874,1.40816173924925,1.35889480834444,1.40199744568079,1.40541151596486,1.37161854250497,1.3712945219456,1.30146413993167,1.3550144645725,1.34769634169508,1.30590559247715,1.30513110431085,1.29107177321049,1.27646713921754,1.27645923627707,1.28355607682126,1.30202524870521,1.28633791186754,1.28655129126029,1.26145155232002,1.24264255399576,1.21993740601862,1.21916291785233,1.21717137685329,1.23671534864148,1.2230906792671,1.28775253821209,1.26213120520065,1.23564054873724,1.23143618440593,1.16939810169776,1.21796167090053,1.15812850858415,1.1311636756924,1.13061046985933,1.11661436228275,1.08546097094064,1.04039840436714,1.03324624323964,1.02584118801702,1.02329644118491,1.00471662813435,0.984469294644119,0.963684561201765,0.968742443104087,0.953308000361533,0.942085824890757,0.911556765845961,0.920265806246521,0.934672866727666,0.908964601371021,0.917950244688114,0.918479741699764,0.916590938926865,0.913975065630508,0.914631009689716,0.913927647987674,0.91368265683303,0.914227959725624,0.915239536106089,0.923616653006809,0.924067120613735,0.904404604718459,0.902808210743038,0.901970499052966,0.900698125636913,0.896825684805448,0.896462149543719,0.893356293938074,0.887998100297802,0.885943335774984,0.886449123965216,1.04335410410381,0.878380221742918,0.873480398650044,0.874642130899483,0.876135786648763,0.87762153945757,0.877084139505448,0.875732736684671,0.8754956484705,0.879423409885272,0.881320115598643,0.883501327169019,0.886638794536553,0.884512903549483,0.89699954949584,0.897544852388435,0.885058206442077,0.884125659466337
0.986484544464576,1.00160286958823,1.00161077252871,1.02552507039812,1.03311979619208,1.0386913692251,1.03421040197727,1.05365953847979,1.05336712968231,1.0649291315934,1.0867017325948,1.08185723008523,1.10554234268095,1.09156204098531,1.09617735822118,1.08852731184392,1.11201485092783,1.11951474143611,1.12820007301526,1.14050495133075,1.164466666843,1.16851297236486,1.16650562548487,1.19317804957915,1.24240546578159,1.24558244785149,1.26904627811398,1.33994355709168,1.24075375122286,1.25320878540733,1.24752657120769,1.25893841724981,1.28067940648932,1.32917184922783,1.27954138306129,1.36207969335481,1.36233258744993,1.32965392859664,1.34455097138708,1.33772283081894,1.39622829913595,1.44993668258623,1.37011698381522,1.36990360442246,1.37126291018371,1.39788001369468,1.38933693504404,1.40081990755041,1.43382258696306,1.43424144280809,1.40129408397875,1.41597774737643,1.42070370577891,1.38161576220253,1.37016440145805,1.36959538974404,1.36907379567286,1.3921819936141,1.39167620542386,1.39109138782891,1.39782469311137,1.39766663430193,1.41276125060417,1.40025879877687,1.40683404524989,1.41706045022114,1.41722641197106,1.41688658553075,1.4172738296139,1.47038949252875,1.46995483080277,1.45263948822779,1.45241030295409,1.56219004905589,1.55562270552335,1.55310166751266,1.43610653675957,1.43650168378319,1.42354876434897,1.42248186738519,1.43358549874889,1.44122764218567,1.44132247747134,1.44129086570945,1.44091942750725,1.43041641961946,1.4300054667149,1.43804275717531,1.4376159983898,1.43719714254476,1.43600379853343,1.42550869358611,1.41979486762459,1.42482904070549,1.42452872896754,1.41073809784324,1.41016908612923,1.4331508370229,1.43318244878479,1.37903940360853,1.41248464768764,1.36147906987891,1.40336465438251,1.34881065630169,1.36811753987571,1.36690048704296,1.36492475192487,1.3623958109737,1.3594796259394,1.35899754657058,1.30086351645577,1.28832154992611,1.27466526878984,1.27439656881378,1.28611662953431,1.27978637421594,1.2918146496149,1.27264211602891,1.25350909714528,1.25535838521582,1.22630717603936,1.22553268787306,1.23140457264404,1.23248727548876,1.26847726639997,1.23900720137847,1.22026932951846,1.27520266874196,1.19750095801754,1.19648938163707,1.16866312823383,1.15538618824024,1.1417220041635,1.1542797765741,1.12517324681434,1.08890665298659,1.09013160875981,1.03044069937194,1.02825948780157,1.01788292696133,1.01786712108039,0.988270609011333,0.964119222927746,0.963155064190116,0.937984198785592,0.937130681214576,0.92049499152022,0.924043411792318,0.925805767517658,0.912173195202806,0.92149076201974,0.914836486141997,0.912678983393038,0.913255898047522,0.916978183010012,0.917088824176625,0.917033503593318,0.916646259510172,0.917262688867017,0.915231633165616,0.913587821547362,0.905953581051045,0.901306652053286,0.900974728553447,0.895703467258371,0.896074905460572,0.895497990806088,0.901030049136753,0.889515464868499,0.887855847369299,0.888021809119219,0.8892862795948,0.877969268838354,0.87808781294544,0.877977171778827,0.877250101255368,0.878514571730948,0.87921793343299,0.879700012801805,0.880276927456289,0.886014462239235,0.884038727121141,0.885342712299083,0.887634565036073,0.899607519851725,0.897552755328907,0.898469496423703,0.883809541847442,0.884196785930588
1.003673439992,1.00517499868175,1.02731903788535,1.02552507039812,1.03164984926422,1.02870995540849,1.03384686671554,1.03657338117851,1.06714195492566,1.06758451959212,1.08885133240329,1.09395663194844,1.18447691211906,1.1274730024918,1.12186981769688,1.19235614377002,1.14063139837831,1.12477809979072,1.13882162501013,1.14159555711594,1.16086292598759,1.16071277011862,1.16628434315165,1.17947435080005,1.21506129174716,1.28639323245085,1.29434359056606,1.33904262187783,1.37034616908892,1.37275656593299,1.31171425372435,1.28668564124832,1.28667773830785,1.30180396637198,1.32947216096578,1.36035685233183,1.32371882030189,1.33317864004732,1.33413489584448,1.3371064014621,1.37366540408732,1.37045681025553,1.36976135149396,1.36998263382719,1.37054374260073,1.37098630726718,1.39848854011105,1.42194446743307,1.43374355755833,1.40813012748736,1.40810641866594,1.40813012748736,1.41496617099596,1.41657837085233,1.37825701250177,1.36983247795821,1.38786698811618,1.38938435268688,1.39280632591141,1.39110719370985,1.48487558241462,1.40666808349997,1.4197632558627,1.43413870458195,1.43379887814164,1.42452872896754,1.42263992619464,1.42048242344568,1.41968422645797,1.49146663476858,1.42731056401382,1.42581690826454,1.44151214804268,1.40549054536958,1.43782937778255,1.44958105026498,1.44089571868583,1.43297697233251,1.43115929602387,1.42343812318235,1.42247396444472,1.44170972155449,1.44124344806662,1.44103006867387,1.43982091878159,1.43339582817755,1.43150702540465,1.4369284425687,1.43704698667579,1.43626459556902,1.44234985973275,1.442420986197,1.44015284228143,1.41411265342495,1.41144936248575,1.4110937301645,1.45808461421326,1.40308014852551,1.38372584730865,1.38226380332126,1.4120657918426,1.40971071558183,1.36521716072234,1.35119734432435,1.35000400031302,1.3492374150872,1.38178172395245,1.36297272562819,1.33939035125861,1.32745691114532,1.3321828695478,1.27020010742294,1.27585070986069,1.28285271511922,1.28249708279796,1.28169888581025,1.28881153223539,1.30971480978483,1.30032611650365,1.31034704502262,1.30972271272531,1.22559591139684,1.22515334673039,1.29281832305489,1.26434402853291,1.25697848801266,1.219257753138,1.23193406965569,1.22390468213575,1.18454013564284,1.18276197403655,1.17787005388415,1.18702165895117,1.1322226697157,1.16517793148551,1.09271587029428,1.04864117127983,1.02555668216001,1.02960298768187,0.993288976211293,0.995960170090957,1.00439260757498,0.983750127061133,0.935644928405769,0.941722289629027,0.92405131473279,0.917057212414736,0.945902945138915,0.913864424463895,0.930452696515416,0.919388579854087,0.913872327404367,0.913888133285312,0.91856667404496,0.918290071128427,0.917325912390797,0.916480297760252,0.916780609498202,0.917381232974103,0.922241541364616,1.04781136253023,0.909249107228026,0.906008901634351,0.898224505269059,0.896612305412694,0.898279825852366,0.90430976943279,0.904799751742077,0.984832829905849,0.890013350118258,0.889183541368659,0.889381114880468,0.881067221503526,0.878759562885592,0.878506668790476,0.87665738071994,0.877297518898202,0.879368089301965,0.881019803860692,0.883011344859732,0.885548188751365,0.885390129941917,0.888306314976225,0.8974974347456,0.895798302544039,0.897315667114736,0.898469496423703,0.891925861712574,0.897465822983711
0,0,0,0,0,0,0,0,0,0,0,0,0,0,0,0,0,0,0,0,0,0,0,0,0,0,0,0,0,0,0,0,0,0,0,0,0,0,0,0,0,0,0,0,0,0,0,0,0,0,0,0,0,0,0,0,0,0,0,0,0,0,0,0,0,0,0,0,0,0,0,0,0,0,0,0,0,0,0,0,0,0,0,0,0,0,0,0,0,0,0,0,0,0,0,0,0,0,0,0,0,0,0,0,0,0,0,0,0,0,0,0,0,0,0,0,0,0,0,0,0,0,0,0,0,0,0,0,0,0,0,0,0,0,0,0,0,0,0,0,0,0,0,0,0,0,0,0,0,0,0,0,0,0,0,0,0,0,0,0,0,0,0,0,0,0,0,0,0,0,0,0,0,0,0,0,0,0,0,0,0,0,0,0,0,0,0,0,0
0.994964399591437,1.00709541321654,1.00743523965685,1.01539350071253,1.0295950847414,1.02989539647935,1.04920228005337,1.06105669076193,1.06291388177294,1.06402819637955,1.08377764462002,1.09324536730593,1.129132619991,1.13634800464228,1.13343181960797,1.18778824417699,1.14092380717579,1.14154023653263,1.18274616815561,1.16809411651982,1.1626647964153,1.16178757002286,1.17165043973239,1.18191635940601,1.1819479711679,1.23704727214132,1.28063989178696,1.28315302685717,1.33460116933235,1.33253850186906,1.37617063621706,1.37005376029144,1.33893988365169,1.31102669790325,1.31041817148688,1.3610523110934,1.3336133017733,1.33383458410653,1.36374721379448,1.35032011793191,1.35938479065373,1.3685205898398,1.36637889297178,1.37098630726718,1.37122339548135,1.37049632495789,1.39367564936338,1.42259250855181,1.42201559389732,1.40835931276105,1.40829608923728,1.46015518461702,1.41736076195909,1.38147350927402,1.38175011219056,1.42173899098079,1.38442920901069,1.39035641436498,1.40366496612046,1.44535297711226,1.44915429147947,1.47911433881025,1.48218067971354,1.44528975358848,1.44209696563764,1.4386749924131,1.43534785447423,1.47434886570541,1.47399323338415,1.47521818915737,1.42770571103744,1.42696283463303,1.43373565461786,1.43928351882947,1.40590940121462,1.40549054536958,1.40571973064328,1.43351437228463,1.42009517936254,1.42505032303872,1.42478952600313,1.44217599504236,1.442420986197,1.44148053628079,1.44113280690001,1.43327728407046,1.43340373111802,1.43820081598475,1.4382166218657,1.43696795727106,1.4425079185422,1.43347485758227,1.44184407154252,1.41510052098399,1.41388346815125,1.41124388603347,1.47099011600465,1.38543288245069,1.3848006472129,1.38428695608219,1.38408938257038,1.4415911774474,1.38386810023716,1.36901057214909,1.35324420590669,1.35405030583487,1.35647650855989,1.41445247986526,1.32085795585089,1.32178259988615,1.32423251143259,1.27097459558924,1.27072170149412,1.28907232927098,1.28271836513119,1.28274997689308,1.2813985740723,1.31073428910577,1.31013366562987,1.31768887672146,1.31504139166322,1.30988077153475,1.32751223172863,1.29337943182843,1.29863488724256,1.29743364029076,1.22249795873167,1.24520310670881,1.23290613133379,1.18593895610645,1.19295676724592,1.23601198693944,1.18763808830801,1.19873381673123,1.11684354755645,1.08273445647767,1.08920696472454,1.02591231448127,1.02253775889956,0.999982766791397,0.998078158137554,0.981252797871862,0.97712746294528,0.934838828477586,0.941129569093599,0.935779278393799,0.911193230584231,0.910861307084391,0.923648264768699,0.930278831825024,0.918124109378507,0.927781502635752,0.919104073997081,0.919349065151725,0.91919890928275,0.914915515546721,0.914947127308611,0.915089380237114,0.911114201179507,0.910892918846281,0.90886186314488,0.909739089537314,0.908585260228347,1.02663148206426,0.901923081410132,0.903464154802246,0.906419854538915,0.9005874844703,0.896572790710332,0.897552755328907,0.892803088105008,0.889072900202045,0.884805312346961,0.884149368287754,0.878830689349844,0.877550412993318,0.880189995111093,1.00838359251354,0.945531506936713,0.927797308516697,0.895126552603887,0.900057987458651,0.898366758197562,0.897655493555048,0.899678646315976,0.899283499292358,0.897947902352526,0.89703116125773,0.896525373067498
1.01559897716482,1.00572030157434,1.01286455976137,1.01909997979408,1.03117567283587,1.0408962896169,1.04540886862663,1.06413093460569,1.05909676152478,1.07238160445885,1.08146208306161,1.10065042252855,1.11116923629728,1.13302086670341,1.15895041439328,1.20313575457434,1.18734567951053,1.17849438618147,1.16264108759388,1.1802014213235,1.17579948348039,1.16305994343892,1.18640522959432,1.18749583537951,1.18770921477226,1.22121768237515,1.30027079592034,1.27837174787138,1.27835594199044,1.33403215761834,1.40560908947667,1.37056745142214,1.32718821116926,1.32721191999068,1.42851181096562,1.38446872371306,1.39456077869628,1.44314015377999,1.48621908229492,1.49914829290773,1.36282256975921,1.37096259844576,1.4498023325982,1.44660164170689,1.38335440910645,1.387060888188,1.38932903210357,1.39028528790073,1.39099655254324,1.44971540025301,1.44376448607731,1.39756389607579,1.39752438137342,1.39720036081406,1.45520794388131,1.4221657497663,1.42470259365793,1.43049544902419,1.430977528393,1.44733661517082,1.48144570624961,1.47965173876238,1.46028163166458,1.43545849564084,1.44241308325653,1.45068746193111,1.44476025657683,1.44683082698059,1.42848019920373,1.42858293742987,1.42868567565601,1.49079488482843,1.43269246647551,1.41527438567439,1.40709484228547,1.40612278060737,1.40715016286878,1.40619390707162,1.43840629243704,1.42480533188407,1.42490807011021,1.42490016716974,1.45265529410873,1.46623254584028,1.4663985075902,1.44654632112358,1.44604843587383,1.43931513059136,1.43876192475829,1.43848532184176,1.42636221115713,1.43236844591614,1.4316650842141,1.430977528393,1.42282959676598,1.42432325251526,1.43322986642763,1.38904452624656,1.38653929411682,1.38643655589068,1.38543288245069,1.3891472644727,1.39848063717058,1.42527160537194,1.38885485567523,1.35759872610697,1.36094166992679,1.36358915498503,1.36628405768611,1.30212008399088,1.30172493696726,1.30845824224973,1.31891383249468,1.28874040577114,1.28825042346186,1.28535794724896,1.28504182963007,1.31240180954544,1.31010205386798,1.30118753701514,1.31633747390069,1.34210105984064,1.34074965701986,1.32793108757366,1.3245170172896,1.25591159104888,1.22392839095717,1.21537740936606,1.2036336398241,1.19728757862478,1.1961100404944,1.17720620688447,1.17271733669616,1.17136593387539,1.11384043017695,1.08491566804804,1.04246107183043,1.01826226810401,1.02188971778083,1.01793824754464,1.01951883563912,0.980280736193759,0.962032846643038,0.943374004187754,0.925924311624744,0.927433773254968,0.919293744568419,0.925687223410572,0.908608969049764,0.934016922668459,0.917025600652846,1.02686857027843,1.07555068358828,1.08403844165561,1.12544984973087,1.13853711915313,0.917476068259772,0.915761130177266,1.1304761198713,1.13040499340705,1.12992291403824,0.911169521762814,0.914773262618218,1.12128500010193,0.901938887291077,0.903029493076265,0.902855628385873,0.900603290351245,0.900231852149043,0.903329804814215,0.896738752460252,0.941738095509972,0.981252797871862,0.987701597297322,1.04918647417242,0.882782159586032,1.03659708999992,0.892431649902806,0.896509567186553,0.896335702496161,0.903558990087914,0.903132231302406,0.901290846172342,0.899899928649203,0.901030049136753,0.904025263575784,0.900018472756289,0.897544852388435,0.897805649424023
1.01392355378467,1.02249034125673,1.02529588512442,1.02803030252787,1.02916042301542,1.04069871610509,1.03613871945253,1.06281904648727,1.06740275196125,1.06781370486582,1.08542145623828,1.10038962549296,1.12597144380205,1.13590543997583,1.1579151291914,1.18785146770077,1.15905315261942,1.19855995204084,1.19769062858888,1.19749305507707,1.17675573927755,1.18093639478743,1.1775144215629,1.18966124106894,1.19539877585189,1.21014566277334,1.28359559152362,1.24895700343319,1.3214269675649,1.37917375359656,1.32853171104957,1.31881109426854,1.38857034981822,1.41929698237483,1.45801348774901,1.456156296738,1.45535809975029,1.39812500484933,1.51516755324524,1.50867133617695,1.44083249516206,1.37067809258876,1.37560162450305,1.37690560968099,1.43889627474632,1.39157346719772,1.38265104740441,1.39164459366198,1.38835697042547,1.3905223761149,1.39803016956366,1.39739003138539,1.39750857549248,1.39751647843295,1.3968447284928,1.39371516406574,1.39334372586354,1.43213135770197,1.43142009305945,1.4304638372623,1.48042622692867,1.43726826900901,1.44813481215853,1.45221272944228,1.43897530415105,1.46226526972314,1.45906457883183,1.45595872322619,1.42891486092971,1.42862245213223,1.42792699337066,1.43295326351109,1.43179943420213,1.43219458122575,1.4067155011428,1.40631245117871,1.44597730940957,1.42813246982294,1.41161532423567,1.43531624271234,1.43114349014292,1.43817710716334,1.45217321473992,1.45786333188003,1.45293189702527,1.44694937108768,1.43326938112999,1.43945738351986,1.43917287766286,1.44957314732451,1.43329308995141,1.4321787753448,1.43153863716654,1.42900179327491,1.43091430486922,1.42664671701414,1.43543478681942,1.3947267404462,1.38995336440089,1.39154185543583,1.39199232304276,1.38504563836754,1.36897105744672,1.36801480164957,1.36730353700705,1.35809661135673,1.35797806724965,1.35756711434508,1.39370726112527,1.30207266634804,1.30176445166962,1.30135349876506,1.29742573735029,1.29680930799344,1.28868508518784,1.2859190560225,1.28437798263039,1.29489679639912,1.30133769288411,1.34559415952943,1.34207735101922,1.34555464482707,1.34101835699592,1.33473551932038,1.28301077392867,1.25015034744452,1.22859902877635,1.20656563073936,1.20304882222915,1.19115489681822,1.19354948778135,1.17967192431185,1.22539833788503,1.14753856835117,1.08971275291478,1.08618013852362,1.05902563506053,1.03647854589284,1.01827807398495,1.07355123964876,1.02163682368571,0.966339949200484,0.963905843534992,0.966513813890877,0.937715498809532,0.944108977651685,0.938829813416137,0.923561332423503,0.947278056781109,0.919293744568419,0.950715835886593,0.947815456733231,0.92537900873215,1.08660689730913,1.12688028195637,1.14417191570993,1.04521129511482,1.12523647033812,1.16655304312771,0.932752452192878,0.976605868874103,0.970899945853047,0.914544077344519,0.949435559530068,0.988776397201565,0.905977289872462,0.905921969289155,1.05512158246718,0.903282387171381,0.903693340075944,0.938363539928267,1.03370461378703,0.914883903784832,0.960254685036753,0.979853977408251,0.896912617150644,0.891301529415256,0.89846159348323,0.900382008018018,0.908213822026145,0.910837598262974,0.906751778038755,0.904760237039716,0.901733410838795,0.901938887291077,0.905100063480028,0.901662284374543,0.900611193291717,0.899583811030308
1.02036445026966,1.02091765610273,1.02751661139716,1.0234703058753,1.04491888631734,1.05646508234748,1.04758217725653,1.06792434603243,1.06142812896414,1.07387526020813,1.08919906178407,1.1146544330456,1.12474648802883,1.14753066541069,1.18150540650145,1.18518817676157,1.16278334052238,1.17493016002843,1.17049661042342,1.20603613372771,1.20863620114312,1.19678969337503,1.18070720951374,1.19072813803271,1.19487718178071,1.21360715070025,1.24005038952082,1.24960504455193,1.27858512726414,1.28154082700081,1.37833604190649,1.37685028909768,1.3741553863966,1.37554630391974,1.39386531993471,1.38336231204692,1.38451614135589,1.440848301043,1.38224799744032,1.38945547915113,1.43105655779772,1.37237722479032,1.37186353365961,1.42760297281129,1.38759828814012,1.3868870234976,1.38796972634232,1.38776424989004,1.3881752027946,1.38880743803239,1.40332513968015,1.38763780284248,1.43262134001126,1.39747696373059,1.43408338399864,1.44413592427951,1.40942620972483,1.41500568569832,1.43325357524905,1.42478952600313,1.425255799491,1.43667554847358,1.52435867301462,1.4789878917627,1.46649334287587,1.45802139068948,1.45957036702206,1.45768156424917,1.54186368616094,1.45452829100069,0.00291058975245301,1.47740730366822,1.45255255588259,1.44244469501842,1.44590618294532,1.42595125825257,1.41721060609012,1.4316650842141,1.42295604381354,1.42816408158483,1.4288595403464,1.46286589319905,1.46118256687843,1.45929376410553,1.45890652002238,1.45756302014208,1.49286545523219,1.46854810739869,1.46387746957951,1.43991575406726,1.4399315599482,1.43264504883267,1.43931513059136,1.43335631347519,1.42756345810893,1.43552962210509,1.43901481885341,1.39433159342258,1.39358081407771,1.39310663764937,1.39365194054196,1.44464171246974,1.36809383105429,1.36790416048295,1.37394200700385,1.36445057549652,1.40337255732298,1.38429485902266,1.42241074092094,1.31858981193531,1.30178025755057,1.2981370019928,1.31278115068812,1.29681721093391,1.32107923818411,1.31391127117567,1.35931366418948,1.29274719659064,1.31010205386798,1.30051578707499,1.34609204477919,1.34538868307715,1.30743876292879,1.25182577082467,1.24024006009216,1.23987652483043,1.23477122528527,1.22736617006266,1.22242683226742,1.19122602328247,1.18733777657006,1.18023303308539,1.16075228482098,1.15981973784524,1.11038684519052,1.08326395348932,1.0586620997988,1.04239784830665,1.05919949975093,1.01790663578275,1.01080189229808,1.02515363219592,0.963257802416257,0.961392708464776,0.966742999164576,0.951284847600604,0.944693795246641,0.915626780189235,0.947475630292918,0.945673759865216,0.945507798115296,0.935621219584351,0.936103298953167,1.08674124729716,1.10909866589352,1.10269728411089,1.133566169596,1.13358197547695,1.12608208496866,0.981134253764776,0.945191680496401,0.949498783053847,0.950225853577306,0.945412962829628,0.955979194241197,0.925774155755768,0.924501782339716,0.939746554510933,1.02300403238743,0.98104732141958,0.918116206438034,0.917025600652846,0.914496659701685,0.915603071367818,0.981252797871862,0.90690193390773,0.908356074954648,0.908411395537954,0.908490424942678,0.909336039573222,0.909075242537634,0.906830807443479,0.913168965702326,0.892471164605168,0.892305202855248,0.894186102687674,0.900595387410772,0.901678090255488,0.902563219588395
1.00603641919324,1.02524056454112,1.02505879691025,1.03343591381097,1.03229789038295,1.05060110051698,1.06797176367526,1.06185488774964,1.08825070892739,1.08795830012991,1.11669339168747,1.10770774837038,1.16567581673527,1.1719349455894,1.15214598264656,1.16518583442599,1.16517002854504,1.17201397499412,1.17683476868227,1.23653358101061,1.22568284374204,1.23639132808211,1.20942649519036,1.2006305224446,1.23641503690353,1.22302745574332,1.24574840960141,1.26364066683087,1.26937820161382,1.2926444583645,1.29446213467314,1.30590559247715,1.37654997735973,1.38474532662959,1.39688424319516,1.38981111147238,1.38672106174768,1.38604140886706,1.38544078539116,1.38521160011746,1.38505354130801,1.38129174164316,1.38126012988127,1.38166317984536,1.39905755182507,1.40541941890533,1.39676569908808,1.38851502923491,1.38905242918704,1.38881534097286,1.3819951033452,1.40052749875293,1.39535897568399,1.44349578610125,1.45013425609804,1.42684429052595,1.45589549970241,1.42491597305069,1.42490016716974,1.42483694364596,1.4253980524195,0.00350617905527283,1.72593897564356,1.71462986782759,1.46816876625601,1.45943601703403,1.45934908468884,1.47990463285749,1.47321084227739,1.57735579182238,1.48805256448451,1.48251260321338,1.47348744519392,1.48008640048836,1.47948577701246,1.46593223410233,1.44363013608928,1.4446812271721,1.42787957572783,1.42309829674204,1.4640513342699,1.46213091973511,1.45920683176033,1.45969681406962,1.45922263764128,1.4587010435701,1.45786333188003,1.4464277770165,1.46725202516122,1.44197051859008,1.44442833307699,1.4449104124458,1.44410431251762,1.44641987407603,1.42749233164468,1.42968144615553,1.42464727307463,1.39313034647078,1.39345436703015,1.39388112581566,1.39437110812495,1.41503729746021,1.38166317984536,1.44251582148267,1.39519301393407,1.36818866633996,1.37362588938495,1.36761175168547,1.36731143994752,1.32386897617086,1.32288901155229,1.3016854222649,1.32785205816894,1.31561040337723,1.31506510048463,1.3189375413161,1.33505953987975,1.31033123914168,1.30993609211806,1.30887709809476,1.34606833595777,1.29393263766149,1.26998672803019,1.25868552315469,1.25019776508736,1.24413620974504,1.23218696375081,1.22807743470517,1.26496045788976,1.19606262285157,1.24468941557811,1.18833354706958,1.17971143901422,1.16012004958319,1.12861892886029,1.08988661760517,1.07470506895773,1.07287158676814,1.03392589612026,1.03663660470229,1.00818601900173,1.00493000752711,0.991479202843119,0.983157406525705,0.970560119412734,0.952486094552406,0.944851854056089,0.924723064672942,0.914188445023263,0.91178595111966,0.957354305883391,0.957954929359291,0.996410637697883,0.952770600409412,0.952825920992718,0.952683668064215,1.12409054396962,1.04521919805529,0.947578368519059,0.948242215518739,0.94804464200693,0.949230083077786,0.949727968327546,0.943413518890116,0.955362764884351,0.935494772536793,0.925086599934672,0.947625786161893,1.08640932379732,0.921719947293439,0.924865317601445,0.925189338160813,0.922186220781309,0.916780609498202,0.91032390713227,0.914804874380108,0.913990871511453,0.913793297999643,0.913026712773823,0.903796078302086,0.907139022121901,0.897023258317257,0.893008564557289,0.89151490880801,0.892629223414615,0.893530158628467,0.901369875577065,0.902476287243198,0.901441002041317
1.03187903453791,1.02619682033827,1.04007438380777,1.04875971538691,1.0482776360181,1.09464418776954,1.06945751648407,1.08428343281025,1.08855102066534,1.08856682654628,1.10931994822675,1.16052309954728,1.16207207587987,1.17069418393523,1.16467214329528,1.18162395060853,1.23198148729852,1.23086717269192,1.18556751790425,1.18566235318992,1.20441603093087,1.20402878684772,1.20379169863355,1.21725830919848,1.2178826414958,1.23197358435805,1.26560849900849,1.26571123723463,1.26853258698327,1.26918062810201,1.28793430584296,1.28911974691382,1.30589768953667,1.37296994532575,1.37354685998023,1.37204530129048,1.3864602647121,1.38634172060501,1.38619946767651,1.38618366179556,1.38555142655777,1.38170269454772,1.3818528504167,1.38189236511906,1.40956055971286,1.40784562163035,1.39715294317122,1.39735051668303,1.39003239380561,1.38908404094892,1.37649465677643,1.37665271558587,1.38005888292947,1.42354876434897,1.41549566800761,1.45763414660633,1.45537390563123,1.44865640622971,1.43854854536554,1.44122764218567,1.44140150687607,1.48945138494812,1.48817901153207,1.48323967373684,1.48374546192707,1.48730178513964,1.47937513584584,1.47532092738351,1.47503642152651,1.47499690682415,1.48301048846314,1.48323967373684,1.48219648559448,1.48058428573812,1.48075815042851,1.4824493796896,1.50396118365541,1.46707025753035,1.47009708373127,1.47171718652811,1.46846117505349,1.46318201081794,1.46122998452126,1.4688010014938,1.45925424940317,1.45915151117703,1.47958061229812,1.42974466967931,1.42802182865633,1.45810832303467,1.44731290634941,1.44686243874248,1.44323498906566,1.43852483654412,1.4366439367117,1.44739193575413,1.41193934479504,1.38715572347366,1.38676057645005,1.3865155852954,1.38581222359336,1.38322005911842,1.38269846504724,1.38188446217859,1.403941569037,1.36579407537683,1.36366028144929,1.36333626088992,1.35526735866762,1.35993009354632,1.38101513872663,1.35396337348968,1.32552069072959,1.33002536679884,1.33778605434272,1.34274910095937,1.32126890875545,1.32655597593147,1.32599486715793,1.32605018774124,1.3122121389741,1.29089000557963,1.2610564052964,1.23432075767835,1.23461316647583,1.23729226329596,1.24798494175509,1.22359646745733,1.24807977704076,1.24216047462695,1.24147291880585,1.1937628671741,1.17347601898151,1.14411659512663,1.13934321908131,1.15190099149192,1.08865375889148,1.06961557529352,1.07516343950513,1.03371251672751,1.03304076678735,1.01636556239064,0.992040311616658,0.995960170090957,0.97715907470717,0.944646377603807,0.940189119177386,0.931021708229427,0.920953362067618,0.914480853820741,0.927670861469139,0.968695025461253,0.968845181330228,1.1131370684749,0.954983423741677,0.952241103397762,0.950265368279668,0.94960942422046,0.949214277196841,0.948036739066457,0.947760136149924,0.947704815566617,0.943911404139876,0.941319239664936,0.940876674998483,0.947119997971661,0.934293525584992,0.938418860511573,0.931764584633831,0.9265091292197,0.925560776363014,0.926422196874503,0.920984973829508,0.918740538735352,0.913943453868619,0.914148930320901,0.913927647987674,0.914085706797122,0.914022483273342,0.900405716839435,0.897971611173943,0.893877888009251,0.894589152651765,0.894510123247041,0.894462705604207,0.896311993674743,0.906656942753086,0.906427757479387,0.903329804814215
1.02285387651846,1.02902607302739,1.03570405772655,1.0340286343464,1.05791132045393,1.10440431925293,1.07822978040841,1.08241833885877,1.09322956142498,1.10329790758679,1.13081594631161,1.13293393435821,1.18229570054868,1.18124460946586,1.20301721046726,1.20407620449056,1.1794585449191,1.1786287361695,1.18549639144,1.18533833263055,1.18556751790425,1.20355461041938,1.20346767807418,1.22577767902771,1.22576977608723,1.2529321824908,1.26205217579592,1.27105362499396,1.31270212128339,1.26867483991177,1.28089278588207,1.2830581915715,1.30468063670393,1.30453838377543,1.38676057645005,1.39737422550445,1.39023787025789,1.43975769525781,1.39014303497222,1.44811110333712,1.44743935339696,1.38254830917827,1.37628918032415,1.37587822741958,1.39432369048211,1.39524043157691,1.39631523148115,1.39576992858856,1.38201881216662,1.38206622980945,1.38399454728471,1.38285652385669,1.38364681790393,1.40357013083479,1.39747696373059,1.4581873524394,1.45196773828764,1.45182548535913,1.44856947388451,1.45936489056978,1.46583739881666,1.46563192236438,1.48283662377274,1.48165118270189,1.48057638279764,1.48146151213055,1.48249679733243,1.47207281884937,1.47132203950449,1.47375614516998,1.48341353842723,1.48326338255825,1.48292355611794,1.49381380808888,1.49505456974304,1.46857971916057,1.46850859269632,1.46783684275617,1.63585335719893,1.45922263764128,1.46116676099748,1.46952807201726,1.4623917167707,1.46308717553227,1.46600336056658,1.48892979087695,1.44422285662471,1.43571929267643,1.42777683750169,1.4272868551924,1.44645148583792,1.44257114206598,1.44251582148267,1.44105377749528,1.43963124821025,1.43961544232931,1.44245259795889,1.43859596300837,1.38695024702138,1.38647607059304,1.38546449421258,1.3847137148677,1.38225590038079,1.38167898572631,1.36538312247226,1.36454541078219,1.36439525491322,1.36334416383039,1.37338089823031,1.35493543516778,1.37131823076702,1.3371617220454,1.32748852290721,1.32730675527635,1.52934542845269,1.35100767375301,1.33261753127378,1.32661129651478,1.37038568379128,1.29700688150525,1.31554717985345,1.28415670029716,1.27279227189788,1.24830896231446,1.2563936704177,1.24111728648459,1.23248727548876,1.25034001801586,1.24589856547038,1.24611984780361,1.24611984780361,1.19060169098515,1.18764599124848,1.17035435749492,1.18303857695309,1.1561132587637,1.09232862621113,1.09205992623507,1.06498445217671,1.06997911055525,1.03381525495365,1.01635765945016,1.01390774790373,1.01417644787979,0.962032846643038,0.956627235359932,0.933495328597282,0.932618102204848,0.934001116787514,0.930816231777146,0.940939898522262,0.979308674515657,1.23399673711898,0.958057667585432,0.957931220537874,1.14510446268567,0.950051988886914,0.948692683125665,0.949040412506449,0.948281730221101,0.946630015662374,0.943539965937674,0.942884021878467,0.941192792617378,0.942955148342718,0.944077365889796,0.952715279826105,0.934277719704047,0.947791747911813,0.928421640814015,0.928010687909452,0.927631346766777,0.927947464385672,0.927797308516697,0.925489649898763,0.924391141173102,0.923474400078307,0.923134573637994,0.945476186353407,0.897584367090796,0.897473725924183,0.900516358006049,0.895110746722942,0.895347834937113,0.902484190183671,0.904531051766017,0.90430976943279,0.903717048897362,0.902673860755008
1.03371251672751,1.03465296664372,1.03466086958419,1.04277718944932,1.05787970869204,1.06991588703147,1.1030687223131,1.09397243782939,1.10296598408695,1.16896343997178,1.12831071418187,1.15286515022955,1.20782219827446,1.26817695466201,1.18985091164028,1.1888156264384,1.17786215094368,1.17741958627723,1.17831261855061,1.20086761065877,1.1991131578739,1.20418684565717,1.23641503690353,1.27543975695613,1.24302189513844,1.25876455255941,1.28188855638159,1.28080585353687,1.2910401614486,1.28215725635765,1.28158034170317,1.28156453582222,1.29900632544476,1.29761540792162,1.36788835460201,1.36846526925649,1.36017508470097,1.36556489010313,1.36295691974724,1.3619690521882,1.3578200084402,1.39830677248019,1.37617853915753,1.43010820494104,1.38690282937855,1.39455287575581,1.38892598213948,1.38812778515177,1.38229541508315,1.38187655923812,1.38137867398836,1.40089103401466,1.40345158672771,1.39325679351834,1.39131267016214,1.41426280929392,1.41840395010145,1.42771361397791,1.45797397304664,1.44899623267002,1.4635929637225,1.50132160153764,1.48193568855889,1.48240196204676,1.48228341793968,1.48229132088015,1.46796328980373,1.46786845451806,1.46858762210105,1.48800514684168,1.49680902252791,1.47999156520269,1.48853464385333,1.49778108420601,1.48068702396426,1.46898276912467,1.4744674098125,1.4691171191127,1.47532092738351,1.47487045977659,1.45894603472475,1.46857971916057,1.46239961971118,1.46198866680661,1.46112724629512,1.43859596300837,1.43895159532963,1.42090127929072,1.42775312868027,1.43247908708275,1.42983160202451,1.46194915210425,1.45927795822459,1.44082459222158,1.44002639523387,1.44968378849112,1.41253996827094,1.41209740360449,1.41152048895001,1.41487923865077,1.40607536296454,1.3780199242876,1.37672384205013,1.37602838328856,1.37495358338431,1.36417397257999,1.36395269024676,1.36354964028267,1.37029875144608,1.36504329603195,1.34848663574232,1.32782834934752,1.33268075479756,1.32704595824076,1.33203271367883,1.31619522097218,1.34300989799496,1.29863488724256,1.29412230823283,1.28813978229524,1.30543931898928,1.31042607442735,1.27298194246922,1.24886216814752,1.25618029102495,1.24979471512326,1.23338821070261,1.22756374357446,1.21304604192671,1.21465824178307,1.21342538306938,1.21457921237835,1.21312507133143,1.24677579186282,1.16682964604424,1.15740143806069,1.1358264105711,1.10306081937262,1.09880903739848,1.0509962475406,1.06555346389072,1.01463481842719,0.994719408436794,0.983860768227746,0.971935231054928,0.952312229862013,0.922992320709491,0.927955367326145,0.929456926015897,0.943611092401925,0.944274939401605,0.976115886564816,1.1305630522165,0.955015035503567,0.954730529646561,0.954564567896641,0.951300653481549,0.949364433065817,0.948416080209131,0.948329147863935,0.946977745043159,0.945468283412934,0.943729636509011,0.942394039569179,0.943366101247282,0.942109533712174,0.942425651331069,0.939880904498963,0.939114319273142,0.940955704403207,0.924707258791997,0.925102405815616,0.922573464864456,0.928097620254647,0.922715717792958,0.921988647269499,0.922960708947602,0.919056656354247,0.918432324056929,0.899101731661493,0.899299305173302,0.899678646315976,0.897876775888274,0.899022702256769,0.903938331230588,0.906427757479387,0.907660616193078,0.905811328122542,0.90530553993231
1.02021429440068,1.02432382344632,1.03643112825,1.04628609501906,1.07853009214636,1.0762303364689,1.08995774406942,1.10135378423059,1.1006346166476,1.1251258291715,1.13045241104988,1.14063930131878,1.19717693745817,1.22558800845637,1.20652611603699,1.18976397929508,1.19292515548403,1.17560981290905,1.17527788940921,1.17556239526622,1.19026186454484,1.20157887530129,1.23849351024776,1.26623283130581,1.26553737254424,1.26687296948407,1.28038699769184,1.27887753606161,1.27543185401566,1.28232321810757,1.28201500342915,1.28128002996522,1.30773117172627,1.32967763741806,1.32375833500425,1.35391595584684,1.44353530080361,1.44474445069588,1.36893944568483,1.35334694413283,1.35341016765661,1.35253294126418,1.43302438997535,1.43284262234448,1.40089103401466,1.49936957524096,1.38951870267491,1.38904452624656,1.40451058075101,1.40688936583319,1.46877729267238,1.41427071223439,1.39808549014696,1.41020860083159,1.39683682555233,1.41573275622178,1.41564582387659,1.41789816191121,1.48363482076045,1.45314527641802,1.45376960871534,1.45440184395313,1.50272042200125,1.50284686904881,1.48154054153527,1.51847888530317,1.46827940742262,1.46823989272026,1.46882471031522,1.49926683701482,1.48324757667731,1.48225970911826,1.48994136725741,1.48774434980609,1.48652729697334,1.49355301105329,1.47706747722791,1.47117188363551,1.47643524199012,1.47597687144272,1.47494948918131,1.46024211696222,1.48543669118816,1.48217277677306,1.43885676004396,1.41474488866274,1.41433393575817,1.41387556521077,1.41076970960513,1.41010586260545,1.47819759771546,1.47732037132302,1.51466176505501,1.47480723625281,1.48201471796362,1.48390352073652,1.41331445643724,1.41280076530653,1.41204208302118,1.43435998691518,1.39429207872022,1.37800411840665,1.38612834121226,1.37685028909768,1.37705576554997,1.36517764601998,1.36504329603195,1.39192909951898,1.38242186213071,1.40833560393964,1.40155488101434,1.33339992238055,1.35319678826386,1.31290759773567,1.32715659940737,1.31792596493563,1.32355285855197,1.29895100486145,1.29914857837326,1.29313444067378,1.29488099051818,1.29658802566021,1.26862742226894,1.25269509427663,1.24875942992138,1.25374618535945,1.32432734671826,1.23664422217723,1.22545365846834,1.23390980477378,1.21288798311726,1.21467404766402,1.21829359440037,1.1955094170185,1.24527423317306,1.14685891547054,1.14542058030457,1.14474883036442,1.10572411031181,1.06186279069012,1.05882015860825,0.998078158137554,1.00221929894508,0.976036857160092,0.957686229383231,0.944551542318138,0.952454482790516,0.936371998929227,0.947025162685993,0.940497333855808,0.941161180855488,0.974606424934592,0.9355500931201,0.955979194241197,0.95479375317034,0.954754238467978,0.952241103397762,0.949459268351485,0.949245888958731,0.948692683125665,0.949301209542038,0.946163742174504,0.942646933664295,0.942544195438154,0.944709601127586,0.943698024747122,0.939801875094239,0.939185445737394,0.939517369237234,0.937794528214255,0.924651938208691,0.923648264768699,0.919846950401485,0.920139359198963,0.920234194484632,0.919270035747002,0.919760018056289,0.920178873901325,0.915405497856009,0.919720503353927,0.902460481362254,0.90839558965701,0.905898260467738,0.905590045789315,0.905479404622702,0.90417541944476,0.905186995825224,0.904301866492318,0.904199128266177
0,0,0,0,0,0,0,0,0,0,0,0,0,0,0,0,0,0,0,0,0,0,0,0,0,0,0,0,0,0,0,0,0,0,0,0,0,0,0,0,0,0,0,0,0,0,0,0,0,0,0,0,0,0,0,0,0,0,0,0,0,0,0,0,0,0,0,0,0,0,0,0,0,0,0,0,0,0,0,0,0,0,0,0,0,0,0,0,0,0,0,0,0,0,0,0,0,0,0,0,0,0,0,0,0,0,0,0,0,0,0,0,0,0,0,0,0,0,0,0,0,0,0,0,0,0,0,0,0,0,0,0,0,0,0,0,0,0,0,0,0,0,0,0,0,0,0,0,0,0,0,0,0,0,0,0,0,0,0,0,0,0,0,0,0,0,0,0,0,0,0,0,0,0,0,0,0,0,0,0,0,0,0,0,0,0,0,0,0
1.02414995875593,1.03598856358355,1.03786946341598,1.06713405198519,1.07875927742006,1.07823768334888,1.08235511533499,1.10188328124224,1.10906705413163,1.12497567330253,1.13852921621265,1.13783375745109,1.15462750595489,1.15695887339424,1.18318873282206,1.18011448897831,1.18145008591814,1.17632898049204,1.17602866875409,1.20204514878916,1.18340211221482,1.2123900978675,1.2655215666633,1.25169142083663,1.30478337493007,1.32513344664644,1.32767819347855,1.27519476580149,1.27580329221786,1.27120378086294,1.28270255925025,1.29120612319852,1.2933004024237,1.33179562546466,1.32408235556362,1.35701390851202,1.34167430105513,1.34165059223371,1.36807802517334,1.34948240624184,1.35466673519172,1.35910028479672,1.38043822407214,1.43304019585629,1.43602750735485,1.50056291925229,1.44096684515009,1.4421918009233,1.43605911911674,1.48530234120013,1.42768990515649,1.42448921426518,1.42453663190801,1.42490016716974,1.46876148679144,1.50988048606922,1.5054232276428,1.48383239427226,1.43076414900025,1.42972886379836,1.43831936009184,1.46291331084188,1.46305556377038,1.55558319082098,1.59950773396646,1.59452097852839,0.00326873520878024,1.53396864862903,1.55911580521214,0.00330409296445366,1.49620839905201,1.51879500292206,1.48835287622246,1.48822642917491,1.48995717313836,1.48753887335381,1.48736500866342,1.47573978322855,1.47624557141878,1.47659330079957,0.00353781452598376,1.48936445260293,1.49031280545961,1.43909384825813,1.4263701140976,1.4251135465625,1.41702883845925,1.41707625610209,1.40615439236926,1.41060374785521,1.40403640432266,1.41551147388856,1.41514003568636,1.42107514398111,1.42120949396914,1.44414382721998,1.49137970242338,1.47608751260933,1.40521394245305,1.40490572777463,1.40664437467855,1.40059862521718,1.38225590038079,1.38039870936978,1.3710100160886,1.3706938984697,1.37041729555317,1.41054052433143,1.31643230918635,1.31678794150761,1.32455653199196,1.32431154083732,1.31554717985345,1.314100941747,1.315104615187,1.39221360537599,1.31365837708055,1.30503626902519,1.29420133763756,1.2900127791872,1.28568196780833,1.28377735915449,1.28174630345309,1.28131954466758,1.27277646601694,1.263174393343,1.25083790326562,1.23920477489028,1.22391258507623,1.23414689298796,1.22814065822895,1.21352021835505,1.19553312583992,1.19618906989912,1.20213998407483,1.20657353367983,1.1305630522165,1.14353968047214,1.14240165704412,1.07084053106674,1.05568269124072,1.01049367761966,0.987559344368819,0.979703821539276,0.955686785443719,0.954777947289395,0.948431886090076,0.924746773494359,0.916843833021981,0.917254785926545,0.985133141643799,0.930018034789436,0.936956816524183,1.11793415334164,0.955694688384191,0.958199920513935,0.954011362063575,0.954477635551445,0.954651500241837,0.955315347241517,0.955639367800885,0.945547312817658,0.943784957092318,0.94475701877042,0.946337606864896,0.939493660415817,0.938671754606689,0.939999448606049,0.928089717314175,0.927781502635752,0.925687223410572,0.922857970721461,0.919609862187314,0.919562444544479,0.920510797401165,0.918045079973783,0.914883903784832,0.913998774451925,0.913840715642478,0.909928760108651,0.908371880835592,0.907139022121901,0.905890357527266,0.904341381194679,0.904878781146801,0.903796078302086,0.903353513635632,0.903329804814215,0.903803981242558
1.03718981053535,1.05282972973019,1.05870161450117,1.06763193723495,1.07229467211366,1.08099580957374,1.10685423079936,1.10842691595337,1.14174571298491,1.12969372876454,1.13892436323627,1.14601330084,1.14844740650549,1.15607374406133,1.20507197499008,1.19047524393759,1.18098381243027,1.19577021405409,1.19224550260341,1.18800952651021,1.23650196924872,1.22298003810049,1.26726811650769,1.27297403952875,1.33298106653551,1.3222567763145,1.32183001752899,1.39508237276746,1.27148038377947,1.27099040147018,1.33290203713079,1.33262543421426,1.31390336823519,1.34099464817451,1.34116060992443,1.346289618291,1.34089981288884,1.4438514184225,1.35664247030981,1.3546430263703,1.36735095464989,1.35659505266698,1.37834394484696,1.38449243253447,1.37840716837074,1.50643480402326,1.42254509090897,1.42426002899148,1.4581873524394,1.42854342272751,1.42802182865633,1.42784796396594,1.42524789655053,1.42464727307463,1.43013981670293,1.47728085662066,1.43028206963143,1.42998966083395,1.42978418438167,1.42904130797727,1.44506847125525,1.44751047986122,1.4669991310661,1.57232161874148,1.56688439569648,1.67715412410757,1.53261724580825,1.53250660464164,1.53218258408227,1.76311440762563,1.52037559101654,1.52011479398095,1.48768112628231,1.48763370863948,1.48822642917491,1.48809998212735,1.48719114397302,1.47667233020429,1.4767276507876,1.47659330079957,1.42143867924284,1.43965495703167,1.43865918653215,1.43852483654412,1.43019513728623,1.41687077964981,1.41687077964981,1.43834306891326,1.42395181431306,1.40610697472643,1.40417865725117,1.41520325921013,1.41566162975753,1.42146238806426,1.42131223219528,1.42005566466017,1.45970471701009,1.45996551404568,1.40613068354784,1.40532458361966,1.40357013083479,1.40684194819036,1.38479274427242,1.38218477391654,1.3813944798693,1.40552215713147,1.38847551453255,1.40752950401146,1.31800499434036,1.31802870316177,1.32435105553968,1.32362398501622,1.32287320567134,1.31396659175897,1.30715425707178,1.30864000988059,1.30132978994364,1.30084771057483,1.3158474915914,1.27446769527803,1.27204939549348,1.27692550976494,1.27428592764716,1.26214701108159,1.27180440433884,1.25352490302623,1.25228414137206,1.25320088246686,1.24754237708864,1.24611984780361,1.2365098721892,1.23680228098667,1.22675764364628,1.19795142562446,1.16223803762979,1.16825217532927,1.15494362357378,1.14323146579372,1.10913027765541,1.01934497094872,1.01898933862747,0.997690914054408,0.997374796435513,0.98410575938239,0.987338062035593,0.928374223171181,0.930918970003287,0.923363758911693,0.914915515546721,0.917452359438355,0.919222618104167,0.98360787413263,0.974685454339316,1.32450121140865,1.22873337876438,0.957796870549844,0.954501344372862,0.954374897325304,0.953379126825785,0.953750565027986,0.948605750780468,0.946598403900484,0.94329497478303,0.940149604475024,0.937723401750004,0.935652831346241,0.93541574313207,0.930160287717938,0.927568123242998,0.925537067541597,0.923490205959251,0.922399600174063,0.919443900437394,0.917665738831109,0.91820313878323,0.917752671176305,0.914923418487194,0.912449798119339,0.910078915977626,0.908687998454487,0.908482522002206,0.905961483991517,0.903171746004768,0.903709145956889,0.90317964894524,0.903393028337994,0.902721278397842,0.901994207874383,0.902602734290756
1.04091209549784,1.05421274431285,1.05984754086966,1.07377252198199,1.08158853010917,1.07862492743203,1.10928043352438,1.10920930706013,1.12954357289556,1.14101864246145,1.1432946893175,1.14748324776786,1.14669295372062,1.15676129988243,1.16195353177278,1.17130271035161,1.1789448537884,1.20646289251322,1.19033299100909,1.19049104981854,1.21450018297362,1.21409713300953,1.3155313739725,1.27857722432366,1.25811651144068,1.32420880261117,1.3225412821715,1.32443798788487,1.31675632974572,1.31588700629376,1.30240458984788,1.33029406677491,1.35489592046542,1.3299226285727,1.3429703832926,1.40315127498976,1.40824076865397,1.36787254872106,1.38073853581009,1.37491406868195,1.37399732758716,1.38493499720093,1.37508793337234,1.37805943898996,1.3836547208444,1.40049588699104,1.42039549110049,1.42080644400505,1.42349344376566,1.42685219346642,1.4284881021442,1.42770571103744,1.42544547006234,1.43016352552435,1.42904921091774,1.42761087575177,1.42518467302675,1.43049544902419,1.43002917553632,1.44105377749528,1.44103006867387,1.47099801894512,1.47114027187363,1.51839195295797,1.55794617002222,1.66780494552875,1.53264885757014,1.53245128405833,1.53205613703471,1.53596018962807,0.00367894523693949,1.52582071700201,1.48994927019788,1.48399835602218,1.48308161492739,1.48221229147543,1.48225970911826,1.52069170863543,1.47657749491862,1.47700425370413,1.43730778371138,1.42595916119304,1.42471839953888,1.42418099958676,1.41785074426838,1.40563279829808,1.40534038950061,1.4134962240681,1.41194724773551,1.41210530654496,1.41447618868668,1.42776893456122,1.41413636224636,1.42300346145637,1.50677463046358,1.40525345715541,1.40473976602471,1.40447106604864,1.40852527451097,1.4088888097727,1.44054008636458,1.41693400317358,1.40048008111009,1.38242976507118,1.38106255636946,1.38484806485573,1.38973998500813,1.34432178611338,1.34965627093223,1.34460629197038,1.42928629913191,1.32340270268299,1.33343943708291,1.3070357129647,1.30679072181005,1.36550956951982,1.35055720614608,1.30486240433479,1.31624263861502,1.27834803904997,1.29939356952791,1.27085605148215,1.27185182198167,1.25667027333423,1.24683111244612,1.25083000032515,1.24345655686442,1.24945488868295,1.24891748873083,1.26748939884092,1.36518554896045,1.24732109475541,1.2567651086199,1.22819597881225,1.16071277011862,1.15831817915549,1.14199070413956,1.11758642396085,1.1077314571918,1.01509318897458,1.00572820451482,0.995478090722142,0.984082050560973,0.9552916384201,0.949451365411013,0.92435162647074,0.924454364696881,0.920020815091877,0.915097283177586,0.906641136872141,0.917800088819139,0.93295792864516,0.971634919316978,1.08989452054564,0.953766370908931,0.95399555618263,0.953821691492238,0.953110426849724,0.952130462231149,0.951679994624223,0.948487206673383,1.1218935265183,0.940228633879748,0.939375116308731,0.937944684083231,0.934238205001685,0.932523266919179,0.929251449563615,0.927757793814335,0.924620326446801,0.923537623602086,0.919293744568419,0.919151491639916,0.918614091687794,0.919435997496921,0.918724732854407,0.914536174404047,0.910339713013214,0.909004116073382,0.90852993964504,0.908221724966617,0.906451466300805,0.905629560491677,0.903748660659251,0.904349284135152,0.904396701777986,0.903693340075944,0.902997881314375,0.905163287003807
1.05457627957458,1.07091956047146,1.06292968765389,1.0768309599448,1.08826651480833,1.09540287005489,1.10842691595337,1.1983702814695,1.15923492025028,1.15472234124056,1.15295208257474,1.15409800894324,1.17151608974436,1.16279914640333,1.17168205149428,1.17033855161398,1.24354348920961,1.24178113348427,1.19132085856814,1.19111538211586,1.21512451527094,1.25282944426466,1.25591159104888,1.25372247653804,1.25834569671438,1.25824295848824,1.32984359916798,1.32910072276358,1.39046705553159,1.31337387122354,1.30699619826234,1.35680052911926,1.3262319553721,1.35250132950229,1.35729841436902,1.43149912246418,1.43081156664308,1.36932668976798,1.3700932749938,1.37868377128728,1.38391551787999,1.36586520184108,1.37779864195437,1.38477693839148,1.39357291113724,1.4120657918426,1.45345349109644,1.45259997352543,1.41839604716097,1.4178744530898,1.4244259907414,1.42453663190801,1.42328796731338,1.42181802038551,1.4293179108938,1.44133038041182,1.44442043013652,1.43737891017563,1.43741052193752,1.44144102157843,1.44156746862599,1.44054798930505,1.46496017242423,0.00280248542973136,1.49892701057451,1.4982710665153,1.53285433402242,1.53274369285581,1.53200081645141,1.54226673612503,1.52861835792923,1.52649246694216,1.49976472226458,1.48267066202282,1.49270739642274,1.48286033259416,1.49184597591126,1.63528434548491,1.45264739116826,1.44299790085149,1.43578251620021,1.40232936918063,1.41125178897395,1.42482113776502,1.41365428287755,1.40577505122659,1.40550635125053,1.41284028000889,1.41265060943756,1.43241586355897,1.43047174020277,1.42912033738199,1.42832214039428,1.50382683366738,1.44916219441994,1.44949411791978,1.40571973064328,1.4049689512984,1.40916541268924,1.40925234503443,1.44181245978063,1.44094313632867,1.39953172825341,1.38235073566646,1.39164459366198,1.38481645309384,1.40047217816962,1.3543585205133,1.35975622885593,1.35836531133279,1.38732168522358,1.38744813227114,1.39343856114921,1.39213457597126,1.39545381096966,1.36802270459004,1.34404518319684,1.35417675288243,1.32789947581178,1.32201178515985,1.28911974691382,1.32494377607511,1.28308980333339,1.267323437091,1.245005533197,1.24374106272142,1.24536906845873,1.25022147390877,1.24954182102815,1.28281320041686,1.28084536823924,1.23531652817787,1.213820530093,1.16420586980741,1.14335791284128,1.16989598694752,1.11348479785569,1.10604022793071,1.06772677252062,1.01146573929776,1.00384730468239,0.990104091200925,0.972037969281069,0.97197474575729,0.961487543750444,0.95366363268279,0.92292119424524,0.92182268551958,0.905692784015456,0.900840378565416,0.91324799510705,0.922202026662254,0.941414074950604,1.08906471179604,1.08489195922663,0.955315347241517,0.954975520801205,0.954580373777586,0.954003459123102,1.14074994248539,0.94897718898267,0.946969842102686,0.945231195198763,0.94365851004476,0.93897206634464,0.935929434262774,0.932878899240436,0.929670305408651,0.92780521145717,0.925663514589155,0.925284173446481,0.920819012079587,0.920257903306049,0.921372217912654,0.920921750305728,0.915073574356169,0.915927091927186,0.914631009689716,0.915152603760893,0.91610885955805,0.910418742417938,0.914275377368459,0.914275377368459,0.909683768954007,0.910371324775104,0.909612642489755,0.908553648466457,0.9051079664205,0.903930428290116
1.05424435607474,1.07037425757887,1.07366188081538,1.0885905353677,1.08691511198755,1.11095585690453,1.16448247272394,1.15215388558703,1.1528493443486,1.15176664150389,1.15405849424088,1.15401107659804,1.17696121572983,1.16903456643603,1.17118416624452,1.1802883536687,1.19041202041382,1.19208744379396,1.25325620305017,1.20633644546566,1.21527467113992,1.24462619205433,1.31448818583015,1.3076916570239,1.30596091306045,1.29895100486145,1.26696780476974,1.30826066873792,1.32914814040641,1.32390849087322,1.3224859615882,1.33963534241326,1.35427949110857,1.36482201369872,1.35996960824868,1.38386810023716,1.43280310764212,1.38676847939052,1.3788497330372,1.37749833021642,1.38023274761986,1.38678428527146,1.37847039189452,1.38727426758075,1.38679218821194,1.39311454058984,1.39313034647078,1.41226336535441,1.40633616000013,1.4146974710199,1.42945226088183,1.42475791424124,1.42478952600313,1.42392810549164,1.43351437228463,1.44741564457555,1.44616697998091,1.43866708947262,1.4385011277227,1.44387512724392,1.44230244208992,1.43745793958035,1.46683316931618,1.44800836511097,1.46092176984284,1.60001352215669,1.53150293120165,1.51297053579392,1.57304868926494,0.00354226388146971,1.57025104833772,1.54789362974136,1.49375848750557,1.52219326732519,1.46729944280405,1.48523121473587,1.4666276928639,1.4605029139978,1.44163069214977,1.43826403950853,1.43748955134224,1.43590106030729,1.40115973399072,1.40190261039512,1.41474488866274,1.41730544137579,1.41118856545017,1.41702093551878,1.41751882076854,1.43235264003519,1.43288213704684,1.43031368139332,1.42896227857254,1.45247352647787,1.40839092452294,1.40817754513019,1.4056565071195,1.40963168617711,1.40973442440325,1.40297741029937,1.40200534862126,1.4018235809904,1.44148053628079,1.3918658759952,1.36839414279224,1.36173196397403,1.40356222789432,1.35402659701346,1.3575908231665,1.359021255392,1.35835740839232,1.35712454967863,1.35283325300213,1.35243810597851,1.37598096564572,1.33164546959568,1.32134793816017,1.32101601466033,1.32057344999388,1.31601345334132,1.33346314590433,1.3025705515978,1.2538173118237,1.25287686190749,1.25946791426145,1.24834057407635,1.24724206535069,1.24510036848267,1.30022337827751,1.25325620305017,1.24966826807571,1.19595988462543,1.15220920617034,1.15235145909884,1.14162716887783,1.17153979856578,1.13815777801045,1.10939897763147,1.08107483897847,1.03158662574044,1.00490629870569,1.00451115168207,0.974590619053647,0.973689683839796,0.95559195015805,0.944488318794359,0.936933107702766,0.928326805528347,0.925631902827266,0.919491318080228,0.925995438088995,0.957401723526225,0.957765258787954,0.964079708225384,0.959748896846521,0.959606643918018,0.959740993906049,0.95948019687046,0.960096626227306,0.960562899715176,1.12861102591982,0.944353968806329,0.944598959960973,0.944583154080028,0.946100518650725,0.946661627424263,0.942275495462094,0.935984754846081,0.93488624612042,0.929211934861253,0.919775823937234,0.917950244688114,0.92002871803235,0.920060329794239,0.918179429961813,0.912987198071461,0.912520924583591,0.916330141891277,0.917863312342918,0.919933882746681,0.917673641771581,0.913896036225785,0.911058880596201,0.908735416097322,0.905763910479708,0.905550531086953,0.905613754610732,0.903021590135792,0.90298207543343
1.05738182344228,1.05930223797707,1.07366188081538,1.08659109142819,1.08667802377338,1.10536057505008,1.17166624561334,1.1411213806876,1.18102332713263,1.16279914640333,1.16909778995981,1.17365778661237,1.17361036896954,1.17145286622058,1.17723781864636,1.19456106416181,1.19616536107771,1.20138130178948,1.21306975074812,1.22034045598271,1.2289546610976,1.23428914591646,1.25546902638243,1.26872225755461,1.30212008399088,1.30054739883687,1.27344821595709,1.2963351315651,1.35425578228716,1.34841550927807,1.37504051572951,1.35231956187142,1.36583359007919,1.37082824845773,1.36154229340269,1.36245903449748,1.37279608063535,1.45244191471598,1.46045549635497,1.39460029339864,1.38883114685381,1.38367842966582,1.38367052672535,1.38382858553479,1.38321215617795,1.38265895034488,1.38427115020125,1.40029041053876,1.40639938352391,1.40933137443916,1.40917331562971,1.42411777606298,1.42426002899148,1.44889349444388,1.44940718557459,1.44935186499128,1.47609541554981,1.44493412126722,1.44461800364832,1.44661744758784,1.44201793623291,1.45460732040541,1.43662813083075,1.43662813083075,1.43620927498571,1.50291009257258,1.4705475513382,1.51527819441186,1.51305746813912,1.57236903638431,1.5700850865878,1.57021153363535,1.48256002085621,1.47893257117939,1.46801070744656,1.46683316931618,1.45506569095281,1.45565841148824,1.43639894555705,1.45517633211942,1.43354598404652,1.43548220446226,1.42305087909921,1.40277193384708,1.42616463764532,1.39470303162479,1.3949559257199,1.41933649707719,1.43825613656806,1.46830311624404,1.42990272848876,1.42386488196786,1.47683829195421,1.40195002803796,1.40120715163355,1.41384395344889,1.41175757716418,1.40081990755041,1.40360174259668,1.40380721904897,1.40298531323984,1.40247162210913,1.40124666633591,1.37970325060821,1.36696371056674,1.3621113051167,1.35905286715389,1.35681633500021,1.35703761733343,1.35729051142855,1.3571324526191,1.36270402565213,1.36170825515261,0.00350535714946371,1.37040148967222,1.34836018869476,1.32932990803728,1.32710127882406,1.32159292931482,1.34479596254172,1.34400566849448,1.29070033500829,1.29220979663852,1.27782644497879,1.27513944521818,1.24715513300549,1.25203915021742,1.22784824943147,1.22656797307495,1.22613331134896,1.22429982915937,1.19369174070985,1.15684823222763,1.13237282558467,1.15162438857539,1.11386413899836,1.1695008399239,1.12122967951862,1.05454466781269,1.01627072710497,1.01620750358119,1.00661333384772,0.982295986014215,0.963471181809011,0.968260363735272,0.946859200936073,0.939011581047002,0.9180687887952,0.912015136393359,0.920471282698803,0.911319677631789,0.921380120853126,0.987804335523463,0.980928777312494,1.09974158437422,0.960151946810613,0.958903282215977,0.958689902823223,0.9592114968944,0.960531287953287,1.15559166469252,0.941437783772021,0.942338718985873,0.950707932946121,0.945673759865216,0.942639030723823,0.941248113200684,0.954122003230188,1.06125426427374,0.922051870793278,0.919159394580388,0.919451803377866,0.933163405097442,0.931092834693679,1.0372056164163,0.920850623841477,0.914362309713655,0.915713712534431,0.917278494747962,0.915800644879628,0.915508236082149,0.913951356809091,0.91404619209476,0.913500889202166,0.906815001562534,0.906965157431509,0.907384013276545,0.903487863623663,0.90301368719532
1.06989217821005,1.11492313302166,1.11593470940213,1.11625872996149,1.10807128363211,1.1081898277392,1.16005682605941,1.16674271369904,1.13536013708323,1.15510168238323,1.16136081123735,1.1664977225444,1.17614721286117,1.17594173640889,1.17669251575377,1.20100986358727,1.19607842873251,1.27177279257695,1.22092527357767,1.24243707754348,1.24719464770785,1.24681530656518,1.27203358961254,1.26891983106642,1.27706776269344,1.3072648982384,1.29055808207979,1.40779030104704,1.34918999744436,1.36386575790157,1.37551469215785,1.36409494317527,1.36261709330693,1.38552771773635,1.36489314016298,1.36457702254408,1.39574621976714,1.40756111577334,1.45832170242743,1.41475279160321,1.41378863286558,1.3834255355707,1.38344134145165,1.38427115020125,1.38304619442803,1.38168688866678,1.38101513872663,1.38114158577419,1.400077031146,1.41504520040069,1.41333816525865,1.41257158003283,1.48212535913023,1.44947040909836,1.44935976793175,1.44935186499128,1.43949689822222,1.43990785112679,1.44475235363636,1.44371706843447,1.44088781574536,1.4356402632717,1.43575090443832,1.43622508086666,1.43547430152178,1.4662562546617,1.45560309090493,1.44487880068391,1.57782996825073,1.72804906074969,1.466311575245,1.46640641053067,1.46412246073415,1.45917521999844,1.46709396635177,1.46823989272026,1.46852439857727,1.44127505982851,1.49637436080193,1.45562679972635,1.42555611122895,1.4233669967181,1.42304297615873,1.4034831984896,1.40887300389176,1.40786933045177,1.40649421880957,1.41802460895877,1.41705254728067,1.42432325251526,1.44447575071982,1.42795860513255,1.48275759436802,1.41717899432823,1.40226614565685,1.4024242044663,1.39766663430193,1.39952382531294,1.39870191950381,1.40458170721526,1.40363335435857,1.40304063382314,1.40176035746662,1.38653929411682,1.37414748345613,1.36291740504488,1.36281466681874,1.35665037325029,1.3566187614884,1.3562157115243,1.35915560538003,1.36260919036646,1.36200856689056,1.34511208016061,1.34498563311306,1.34425065964912,1.37270124534969,1.32382155852803,1.32269143804048,1.32311029388551,1.30528126017983,1.30449886907306,1.28881153223539,1.30001790182523,1.26500787553259,1.25871713491658,1.23501621643992,1.23079604622767,1.22659958483683,1.22531140553984,1.19012751455681,1.17132641917302,1.15181405914672,1.14143749830649,1.13343972254844,1.13366100488167,1.1605468083687,1.14808387124376,1.12127709716145,1.0323690168472,1.0022983283498,1.00154754900493,0.977435677623703,0.980928777312494,0.955236317836793,0.942243883700204,0.957536073514255,0.909249107228026,0.915460818439315,0.909667963073062,0.91481277732058,0.914488756761213,0.979332383337074,1.07450749544592,1.10653021024,0.957725744085592,0.957860094073623,0.959725188025104,0.958855864573143,0.95804976464496,1.13724893985613,0.941477298474383,0.941248113200684,0.947594174400004,0.947791747911813,0.943429324771061,0.952391259266737,0.924944347006169,0.921988647269499,0.922304764888395,0.926880567421902,0.927410064433551,0.930373667110692,0.930903164122342,0.921727850233911,0.921245770865096,0.921182547341317,0.919933882746681,0.919183103401805,0.919222618104167,0.916417074236473,0.914172639142318,0.91291607160721,0.909320233692278,0.909257010168499,0.906751778038755,0.906941448610092,0.901180205005728,0.896517470127025
1.06108039958335,1.06886479594864,1.09796342276794,1.10273679881326,1.10960445408375,1.12439085570757,1.12507841152867,1.133281663739,1.1343959783456,1.1627201169986,1.16585758436614,1.17996433310933,1.18137105651342,1.19403156715017,1.20513519851386,1.20587807491826,1.2238335556715,1.22374662332631,1.22500319086141,1.23112796972751,1.22936561400217,1.25003970627791,1.25996579951121,1.26964690158988,1.29456487289928,1.29752057263595,1.3153021886988,1.41099889487883,1.39360452289913,1.364742984294,1.36482201369872,1.36329674618756,1.36363657262787,1.3654305401151,1.37359427762306,1.41683916788792,1.39736632256398,1.40100957812174,1.40836721570153,1.39811710190885,1.39898642536081,1.4051428159888,1.38389971199905,1.3843422766655,1.38235863860693,1.38194768570237,1.38250089153543,1.38190817100001,1.40532458361966,1.41360686523471,1.41368589463944,1.41447618868668,1.43856435124648,1.52838126971506,1.43848532184176,1.44732871223035,1.44140150687607,1.44095894220961,1.44598521235005,1.44129876864993,1.44103797161434,1.43539527211706,1.43515818390289,1.43699956903295,1.46372731371053,1.4681134456727,1.45997341698615,1.43622508086666,1.73074396345077,1.72483256397743,1.72597849034592,1.46009196109324,1.4509482589667,1.46876938973191,1.44457848894596,1.44590618294532,1.4778419653942,1.46452551069824,1.43660442200933,1.43268456353503,1.4304638372623,1.42243444974236,1.41182870362843,1.40214760154977,1.41714738256634,1.41182080068796,1.41124388603347,1.41634918557863,1.41641240910241,1.41626225323343,1.40635196588107,1.41114114780733,1.4101769890697,1.40991619203411,1.40303273088267,1.39824354895641,1.39831467542066,1.3999347782175,1.40587778945273,1.40599633355981,1.40549054536958,1.48602150878311,1.40836721570153,1.43048754608371,1.42942855206041,1.37885763597767,1.41687868259028,1.41234239475913,1.35753550258319,1.35695068498824,1.35883948776113,1.43734729841374,1.43096962545253,1.35318888532338,1.3429703832926,1.33691673089076,1.33622127212919,1.33375555470181,1.33210384014308,1.33226189895253,1.36264080212835,1.30489401609668,1.30493353079904,1.27234180429096,1.27283968954072,1.256164485144,1.25640947629864,1.2311595814894,1.23255049901254,1.2587961643213,1.18493528266646,1.16809411651982,1.15568649997819,1.12615321143291,1.13263362262026,1.13215944619192,1.11958586790037,1.11346899197474,1.07055602520973,1.05217378567098,1.02956347297951,1.00770393963291,0.996213064186073,0.964711943463174,0.941785513152806,0.9538612061946,0.914939224368138,0.922352182531229,0.909920857168178,0.922526047221621,0.926129788077026,0.940031060367938,0.973136478006729,0.954556664956169,0.955844844253167,0.957954929359291,0.957496558811894,0.958081376406849,0.95738591764528,0.955260026658211,1.08474970629812,0.944464609972942,0.943832374735152,0.944006239425544,0.944037851187434,0.938387248749684,0.985077821060492,0.922644591328707,0.922146706078947,0.928200358480789,0.926888470362374,0.925299979327426,0.924320014708851,0.921506567900684,0.919973397449043,0.919428094556449,0.918693121092518,0.919341162211253,0.91936487103267,0.91870102403299,0.916543521284031,0.914386018535072,0.914504562642158,0.913801200940116,0.911564668786433,0.901709702017378,0.901314554993759,0.891159276486753,0.890961702974944
1.06376739934396,1.081351441895,1.08057695372871,1.09787649042274,1.11112972159492,1.11858219446037,1.1193171679243,1.13389019015537,1.14948269170737,1.16181127884428,1.17143706033964,1.20162629294412,1.20141291355137,1.19915267257627,1.20208466349152,1.24566147725621,1.25365925301426,1.22522447319464,1.22426031445701,1.22486093793291,1.25538209403724,1.25011873568263,1.26888821930453,1.27614311865817,1.30791293935713,1.31225165367647,1.4273737875376,1.39034851142451,1.39894691065845,1.40064604286001,1.36583359007919,1.36509071367479,1.36386575790157,1.36750111051886,1.37345202469456,1.41663369143563,1.41104631252166,1.4009068398956,1.40098586930033,1.39895481359893,1.39875724008712,1.39859918127767,1.39334372586354,1.39441852576778,1.39203183774512,1.39863869598003,1.39215038185221,1.39257714063772,1.39502705218415,1.42399923195589,1.41471327690085,1.43281891352306,1.42868567565601,1.44551893886218,1.4389594982701,1.43814549540145,1.43825613656806,1.43911755707955,1.43878563357971,1.43937045117467,1.43555333092651,1.43629620733091,1.43531624271234,1.43961544232931,1.48546830295005,1.43047964314324,1.42537434359808,1.42506612891966,1.7266423373456,1.43271617529692,1.43314293408243,1.45552406150021,1.42989482554828,1.42970515497695,1.4300054667149,1.42896227857254,1.45468634981013,1.45446506747691,1.43353808110605,1.41974744998175,1.42056935579088,1.43601170147391,1.4275160404661,1.42815617864436,1.40476347484612,1.40628874235729,1.43832726303231,1.41668110907847,1.41740027666146,1.41698142081642,1.40761643635665,1.40711855110689,1.41119646839064,1.41125178897395,1.41181289774748,1.41147307130717,1.40026670171734,1.39983994293183,1.39935786356302,1.40645470410721,1.40569602182186,1.49010732900733,1.38869679686578,1.45226805002559,1.37826491544224,1.37971905648916,1.37286720709961,1.35766194963075,1.35800967901154,1.33717752792635,1.33648997210525,1.36131310812899,1.36603906653147,1.34588656832691,1.33893198071121,1.33893198071121,1.33716962498587,1.33706688675973,1.33661641915281,1.32728304645493,1.33826813371153,1.30967529508247,1.30977013036814,1.29379038473299,1.26631186071053,1.24677579186282,1.2473527065173,1.24811929174312,1.24687062714848,1.24581953606566,1.1838920945241,1.17936370963343,1.16810992240077,1.14462238331686,1.13510724298812,1.17215622792262,1.1716188279705,1.14956172111209,1.06462881985545,1.08576918561906,1.053311809099,1.05330390615853,0.961361096702886,0.957457044109532,0.956010806003086,0.949949250660773,0.914876000844359,0.912560439285953,0.901433099100844,0.919933882746681,0.895806205484511,0.939296086904007,0.954975520801205,0.956018708943559,0.960120335048723,0.958247338156769,0.958602970478027,0.958065570525905,0.95791541465693,1.18517237088063,1.19009590279492,0.946503568614816,0.947586271459532,0.944069462949323,0.944164298234992,0.999982766791397,0.999476978601165,0.920913847365256,0.919894368044319,0.92664347920773,0.926279943946001,0.924636132327746,0.924557102923022,0.92195703550761,0.922241541364616,0.920645147389195,0.920423865055969,0.920415962115496,0.920637244448723,0.920250000365576,0.917950244688114,0.91820313878323,0.917080921236153,0.914220056785152,0.914386018535072,0.903566893028386,0.89603539075821,0.890558653010852,0.888464373785672
0,0,0,0,0,0,0,0,0,0,0,0,0,0,0,0,0,0,0,0,0,0,0,0,0,0,0,0,0,0,0,0,0,0,0,0,0,0,0,0,0,0,0,0,0,0,0,0,0,0,0,0,0,0,0,0,0,0,0,0,0,0,0,0,0,0,0,0,0,0,0,0,0,0,0,0,0,0,0,0,0,0,0,0,0,0,0,0,0,0,0,0,0,0,0,0,0,0,0,0,0,0,0,0,0,0,0,0,0,0,0,0,0,0,0,0,0,0,0,0,0,0,0,0,0,0,0,0,0,0,0,0,0,0,0,0,0,0,0,0,0,0,0,0,0,0,0,0,0,0,0,0,0,0,0,0,0,0,0,0,0,0,0,0,0,0,0,0,0,0,0,0,0,0,0,0,0,0,0,0,0,0,0,0,0,0,0,0,0
1.06247922004696,1.06410722578427,1.09499191715032,1.09247087913964,1.11063183634516,1.14331839813892,1.1359133429163,1.13512304886906,1.14969607110012,1.15778868214384,1.16671110193715,1.1978565903388,1.280055074192,1.28120100056049,1.21820666205517,1.20934746578563,1.21107820974908,1.21174995968924,1.21497435940197,1.23938654252114,1.24247659224584,1.28878782341398,1.30224653103844,1.30475966610865,1.29895100486145,1.30028660180129,1.40614648942879,1.40653373351194,1.38633381766454,1.36997473088671,1.40312756616834,1.4027956426685,1.40796416573744,1.40925234503443,1.38144980045261,1.40988458027222,1.40824076865397,1.40078039284804,1.40143633690725,1.40522974833399,1.40544312772675,1.40349110143007,1.39682892261186,1.39257714063772,1.39322518175645,1.39153395249536,1.40357803377527,1.39591218151706,1.39867821068239,1.41250835650905,1.4229955585159,1.43670716023547,1.4290887256201,1.43917287766286,1.43785308660397,1.43818501010381,1.4437960978392,1.43816130128239,1.44418334192234,1.43803485423483,1.44442833307699,1.42595916119304,1.42663091113319,1.42640962879997,1.49099245834024,1.42572997591934,1.42621995822863,1.4263701140976,1.42578529650265,1.42497129363399,1.45489972920289,1.4119788594974,1.41171015952134,1.4128956005922,1.41876748536318,1.42450502014612,1.45438603807218,1.45378541459628,1.41868845595845,1.42273476148031,1.42260831443275,1.42109885280253,1.47702005958507,1.47706747722791,1.42386488196786,1.43543478681942,1.42983950496498,1.41685497376886,1.41712367374492,1.4171868972687,1.41129130367631,1.4110937301645,1.40677082172611,1.41178128598559,1.41253996827094,1.41156790659284,1.40132569574064,1.41648353556666,1.40134940456206,1.40863591567759,1.41706045022114,1.41629386499532,1.42456034072943,1.38451614135589,1.37410796875377,1.34347617148283,1.34873952983744,1.34856566514704,1.34278861566174,1.34050466586522,1.3349884134155,1.33321815474969,1.32500699959888,1.34223540982867,1.33883714542555,1.34076546290081,1.3926956847448,1.33705898381926,1.32831042871634,1.32777302876422,1.32675354944328,1.35180587074072,1.38133125634552,1.28619565893904,1.37606789799092,1.32858703163287,1.25182577082467,1.24728158005305,1.26418596972346,1.26482610790173,1.21191592143916,1.18235102113199,1.16459311389056,1.15486459416906,1.14179313062775,1.19026976748531,1.12508631446914,1.1296463111217,1.07054812226926,1.06948122530549,1.06100137017863,0.984967179893879,0.974511589648923,0.964016484701605,0.96303652008303,0.919443900437394,0.920708370912974,0.912426089297922,0.916496103641197,0.923355855971221,0.923023932471381,0.972243445733351,0.966221405093399,0.96645849330757,1.09434387603159,0.961210940833911,0.959993888001165,0.958136696990156,0.956508691252846,0.957670423502286,1.1550542647404,0.947467727352446,0.946590500960012,0.947064677388355,1.09011580287887,1.12744929367038,0.989851197105809,0.920273709186993,0.920210485663215,0.927860532040476,0.927765696754808,0.92744167619544,0.925924311624744,0.924106635316097,0.922541853102566,0.922138803138475,0.921506567900684,0.921949132567138,0.921617209067298,0.919396482794559,0.918313779949844,0.916527715403086,0.916290627188915,0.914654718511133,0.904957810551525,0.898730293459291,0.896509567186553,0.896888908329227,0.892052308760132
1.06738694608031,1.07773979809912,1.07731303931362,1.10250761353956,1.12680125255165,1.12657206727795,1.1446381891978,1.14956172111209,1.16977744284044,1.18140266827531,1.23588553989188,1.20335703690757,1.20335703690757,1.28089278588207,1.27955718894224,1.27644343039612,1.20939488342847,1.20786171297683,1.20684223365589,1.24203402757939,1.23187084613191,1.301084798789,1.27226277488623,1.27239712487426,1.2859190560225,1.29933034600413,1.32495167901558,1.40629664529776,1.38484016191526,1.3881752027946,1.42418890252723,1.3599379964868,1.38201881216662,1.3813944798693,1.38179752983339,1.4107776125456,1.40868333332042,1.39811710190885,1.4059726247384,1.40664437467855,1.40670759820233,1.40504007776266,1.39731100198067,1.39717665199264,1.39626781383832,1.39927883415829,1.39963446647955,1.41664949731658,1.40340416908487,1.41563001799564,1.42490016716974,1.43343534287991,1.42240283798047,1.42107514398111,1.43650168378319,1.4576420495468,1.43801904835389,1.43812178658003,1.4768699037161,1.45263948822779,1.42750023458515,1.42033226757671,1.42034807345765,1.41908360298207,1.42544547006234,1.42448921426518,1.42684429052595,1.42643333762138,1.42793489631113,1.42615673470485,1.43050335196466,1.41284028000889,1.41191563597362,1.4123819094615,1.41204998596166,1.42435486427715,1.41493455923407,1.4217073792189,1.4193602058986,1.42196027331402,1.42248186738519,1.42209462330205,1.47413548631266,1.47328196874164,1.45241030295409,1.43925190706758,1.45243401177551,1.41654675909044,1.4174160825424,1.40854898333239,1.40834350688011,1.40829608923728,1.40384673375133,1.40356222789432,1.41073809784324,1.46899857500561,1.41114114780733,1.39286164649472,1.39706601082603,1.39520091687455,1.39074365844812,1.42544547006234,1.42497129363399,1.37565694508635,1.39688424319516,1.35639747915517,1.34918999744436,1.35922673184428,1.34169800987655,1.3442585625896,1.34400566849448,1.32559972013431,1.32533102015825,1.33264914303567,1.33225399601206,1.39528784921974,1.39452916693439,1.34625800652911,1.32792318463319,1.32662710239572,1.35354451764464,1.37857313012066,1.37395781288479,1.31312097712843,1.30295779568095,1.30346358387118,1.29661173448163,1.26631186071053,1.22633088486077,1.22191314113671,1.21242961256986,1.20479537207354,1.1842951444882,1.17926887434776,1.16914520760265,1.19086248802074,1.15408220306229,1.15430348539552,1.12562371442126,1.1375729604155,1.04485566279356,0.99836266399456,0.985662638655448,0.969192910711013,0.966577037414656,0.944733309949003,0.939786069213295,0.940663295605728,0.909928760108651,0.914370212654127,0.937043748869379,0.964158737630108,0.967414749104728,0.966885252093079,0.968394713723303,0.966529619771822,1.16359734339104,1.16783331948423,0.95495971492026,0.954216838515857,0.952596735719019,0.947254347959692,0.946875006817018,0.950968729981709,1.07283997500625,1.00555433982442,0.98895816483243,0.98865785309448,0.999579716827306,0.927734084992918,0.927591832064415,0.927228296802686,0.927283617385993,0.924889026422862,0.92292119424524,0.923008126590436,0.922415406055008,0.926667188029147,0.922043967852806,0.921372217912654,0.921435441436433,0.919783726877706,0.919491318080228,0.904578469408851,0.905629560491677,0.905115869360973,0.901472613803206,0.903306095992798,1.04344893938948
