0.223013701996098,0.223554315225919,0.223437831249611,0.223757016679857,0.224076797238977,0.224603458665043,0.226231442565397,0.228610527368898,0.228627557691935,0.228632401881521,0.227808256519529,0.216612460878039,0.209718643879666,0.202782796812675,0.196337239245268,0.189841367138574,0.205964124705857,0.217770780970427,0.229073164659933,0.239683202780687,0.298167647147323,0.336642437483246,0.375195048188534,0.41440593356264,0.442819107429668,0.474889687382389,0.508154753535462,0.543077200996898,0.580059089972357,0.619422382540667,0.661390964651576,1.18586488428,1.19067274127804,1.19558973881173,1.20073855922215,1.20614240588009,1.21148072748538,1.21614086523241,1.22139696377436,1.22653903920557,1.22980469106011,1.23391431801211,1.23706120631417,1.24000345142135,1.24409649307984,1.24469482380117,1.24518330357747,1.24594900905964,1.24696838959547,1.24920179530405,1.25294574810356,1.25847153675381,1.26402057581173,1.27012136141232,1.2715615802605,1.27095840821467,1.26876232734738,1.26576361235844,1.26324154495303,1.25875190019624,1.25695061348967,1.25607774226555,1.25931039932944,1.26064146491249,1.26050686079524,1.26087703055421,1.26227550709496,1.26564611813499,1.26676278831261,1.26695358550432,1.26834346286066,1.26871580592679,1.2692794016164,1.27020422743387,1.27086189143855,1.2713350121495,1.27046867446199,1.27015732667739,1.2702152047161,1.27041107497818,1.27062754434753,1.27083008160204,1.27100728719767,1.27113420305124,1.27116677620169,1.27105517970592,1.27076199023514,1.27028361266097,1.26967017629143,1.26902597420838,1.26847138944825,1.26747842726875,1.26467982589189,1.26222736146872,1.26008882717853,1.25801324508559,1.2556843079666,1.25295864812141,1.236974634068,1.23150013507761,1.22514817901175,1.21580988513923,1.20592211821471,1.19567239558515,1.18508693675704,1.17388869146371,1.16224484042166,1.15055166881953,1.1395826067655,1.12979009471439,1.12162372472933,1.10892943495605,1.10387283182059,1.09951464494709,1.09399803945146,1.08729043138494,1.08011523176719,1.07298730886336,1.06634123975864,1.06038766993411,1.05510448303936,1.05033400995502,1.04499737037311,1.03789199058456,1.02997891939321,1.02193561001007,1.01443558549336,1.00767663571414,1.00132464764704,0.994021155540426,0.991883622216839,0.988526118781792,0.979340744842394,0.977106833172189,0.974947919036494,0.972866998793159,0.971527651603852,0.969549830106048,0.966306298927895,0.962015979701645,0.958457277702882,0.955175979910523,0.953515047797609,0.952256519561616,0.951756491661402,0.950757910065873,0.949215289105803,0.947538738887662,0.946043645969524,0.9447668034963,0.943471138816592,0.938250759121161,0.936564786568188,0.935169845318153,0.923525723901779,0.915532681802292,0.906050649929305,0.895089589665171,0.883492048289911,0.872275684938514,0.864681696194804,0.858001432929173,0.853173038684186,0.838412851473433,0.838146192500769,0.837806718048972,0.836181228973432
0.223525878994316,0.224095105674901,0.222906799620933,0.241252012802855,0.224401298103256,0.226153879197056,0.225155860118998,0.247642547574403,0.238598378920565,0.237842785738732,0.223055182078353,0.195972246498215,0.194073502855141,0.182892969792903,0.183679496780851,0.182692136719687,0.187705428493437,0.190100571364609,0.204415276712338,0.191492993803046,0.239773596245148,0.241694231556514,0.332169750039021,0.414050778692726,0.358935634817224,0.305106999965257,0.349900598628542,0.381400075474377,0.377519975984017,0.373639306190831,0.450429405747155,1.18108042342331,1.17717539813088,1.17325724789178,1.17232488768214,1.17139269024898,1.15970346785436,1.14807465758622,1.15040905249208,1.15275205806402,1.14899416003688,1.14533956888089,1.15209836390555,1.15879616146988,1.15680228669583,1.15459633202953,1.20875763655292,1.28094999995202,1.24643931766312,1.24625842134411,1.25351159998249,1.26007783271501,1.26418508313038,1.29526000793379,1.27033852910705,1.26927716554768,1.26969568072398,1.27104116221352,1.26903890952029,1.27284997938559,1.25760630862511,1.25844592311408,1.25929488007603,1.26016111898187,1.26026414800419,1.26006587455118,1.2612068134963,1.27014845819359,1.26718402977179,1.26463964054687,1.26354279422179,1.26276747722305,1.26677219062303,1.27089377532411,1.27153645544467,1.27316271071496,1.25705318788524,1.24019572075835,1.24137208057669,1.24249315669976,1.2416663719943,1.24070797794957,1.24677793586191,1.25287066400264,1.25118980272012,1.24964853075299,1.24846194827478,1.24732228546034,1.24611576018928,1.24489462142573,1.25926946208566,1.26848121931894,1.25725650611061,1.24116422543734,1.24305779047794,1.24495317078846,1.24736821746016,1.24994528429326,1.22355642185042,1.19251392737876,1.19540971041903,1.19830592456105,1.16907991740915,1.14083266982565,1.14121992964306,1.14152773385356,1.12717429139618,1.11938980371409,1.11607012907308,1.11274989053073,1.09759356404861,1.08749297044719,1.08542962957809,1.07614231213982,1.07722932461368,1.0776240495713,1.06656573524479,1.06070999028674,1.0518239955069,1.0378070756677,1.03599454644042,1.02894045411772,1.02778626736877,1.02661097961768,1.01700357573077,1.00010909357771,1.00087036910137,1.00173742108026,0.998060913470646,0.994443605911648,0.990210501137299,0.987620433692034,0.962461852047904,0.95131886227691,0.95378231073523,0.956251360493045,0.939968646620897,0.928537136213028,0.927267424646242,0.913164587565395,0.923181295352991,0.924051721136527,0.932356855048101,0.935745162619653,0.930101077282553,0.924968392882617,0.926614695116282,0.928179869830964,0.924159314497234,0.920106042051993,0.930305975012667,1.03713000000286,0.992645998075369,1.0374200000024,0.896010163294233,0.883436604666426,0.880997396623757,0.878545213133876,0.870872500681702,0.862951990004915,0.85212026059864,0.823682222857324,0.836840821380154,0.838319142993919,0.838474143787103,0.839228326011382,0.832139456926558
0.223173238002125,0.222771365434682,0.221160289584291,0.222097950364436,0.223356346450315,0.224173957365543,0.223820391023869,0.241921991943296,0.239617891979309,0.238570543017148,0.218639762323326,0.193639037615353,0.192812701454843,0.185750247283847,0.185152378892951,0.18353062300432,0.185344994240975,0.187799938430009,0.215210240372861,0.220190198404173,0.23755911070733,0.244639154074145,0.249234085557074,0.262799685935622,0.277422056717977,0.292643912935004,0.319320047515353,0.333959404748568,0.346761047763683,0.359001692602965,0.406367544041027,0.44172488890288,0.478025669142025,0.515586402333864,0.554673463089572,0.595500564868931,0.638218794651466,0.907028652521081,0.950555127800486,0.994390298327549,1.0386273485747,1.14656071762973,1.14808410245429,1.14968222864238,1.15131701182773,1.15296835215453,1.16126848755653,1.16786699635125,1.1766429420918,1.18743872384764,1.19183036726253,1.19358809867164,1.19635182161488,1.20161435746398,1.20938984383591,1.22886977567807,1.22932961377512,1.23065382705101,1.2321819572481,1.23422385684058,1.236542448166,1.23882605233793,1.24097187059949,1.24311055529942,1.2453454424041,1.24753661233897,1.2494130914494,1.25083295408185,1.25193216488656,1.25292731448267,1.25389755474269,1.25474041650326,1.25524879980748,1.25526713254503,1.25279316798699,1.24962982021483,1.24580363757381,1.2415342485155,1.23846272586755,1.23539459706925,1.23233238453894,1.2291657992813,1.22578862197553,1.22219074853525,1.21844771292174,1.21463647035152,1.21076369786634,1.20675894619439,1.20251756981264,1.19795321061196,1.1930448797285,1.18790485671224,1.18288553370097,1.17848481586533,1.17470364871935,1.17055349344724,1.1675699045328,1.16355409686251,1.15937030026567,1.15506881887373,1.14997231348543,1.14489309614829,1.14021914221922,1.13446926731842,1.1272166716931,1.11930403419334,1.11244278164809,1.10679950731033,1.10208259656862,1.09772456480093,1.09319130070677,1.08537395417478,1.08330525718024,1.07910882780722,1.07781649211245,1.07696008094628,1.06490530957437,1.05743534056633,1.04879431108889,1.03586905829042,1.03385987380109,1.03158836708693,1.02606588274712,1.0212386563249,1.01568601076531,1.00501454923665,0.996932000555926,0.989327318242877,0.981369250804994,0.973650206618276,0.966093841496007,0.958752888641731,0.9536465140122,0.947013420725267,0.943146812309153,0.938764034315603,0.933918488499139,0.927237170807826,0.925005974940864,0.919587186378051,0.922222431984499,0.926165795599825,0.928846437979359,0.927618332791061,0.924631088736436,0.92178242003238,0.91899725630097,0.916184056137123,0.913282410602329,0.910144448780812,0.906504685644768,0.902189878253086,0.889216178605902,0.884366815006359,0.878874810070106,0.873249285441301,0.867745082193743,0.862328174680613,0.856629702459775,0.850169320983059,0.842744852116486,0.835535734737566,0.835895014673968,0.836353805627025,0.832994282316664,0.828605168032482,0.823914188652216
0.238977546896263,0.245372254477484,0.216968707882411,0.20117899109881,0.20218424940946,0.202161787405486,0.218543644349012,0.243808248445251,0.239301174870016,0.238247975985431,0.215303762944213,0.192563012235409,0.191350081077362,0.188958460069131,0.187275210085567,0.180740333352514,0.182218088453619,0.18054189623643,0.221709859396103,0.228701411671569,0.234974247763201,0.247169400570729,0.244357420454213,0.241035387666039,0.260941400257887,0.282986659694577,0.278316450881606,0.273579123214638,0.305701431829987,0.339059571738264,0.340239297889371,0.341425140892936,0.341990564409016,0.342603318477921,0.343000346986231,0.342395111155783,0.506583690164036,0.868165790006546,0.867573590593828,0.866991001165234,0.95994609697078,1.1462977886077,1.13626298034736,1.12248635856421,1.12391666713758,1.12531878838884,1.13270429039784,1.1437300126579,1.16187739056199,1.18608532392246,1.18103987674649,1.17604669898551,1.18886996766148,1.19377429283028,1.20698183787314,1.22744925540039,1.2279812448876,1.22682433902951,1.22355819569525,1.22040449641955,1.2129244033145,1.20544187891676,1.22479542088314,1.23810615502555,1.24141515690574,1.24490663629735,1.24623039930363,1.24791035662012,1.23897490441288,1.22062244191733,1.22139203874154,1.22215838017885,1.24459342419535,1.25727441603765,1.23504515927554,1.21262455094217,1.21317596758071,1.213772391215,1.2108073063341,1.20792932694413,1.21701344314538,1.22565000027199,1.20878435409435,1.19044445729592,1.18878224658571,1.1871189250403,1.18605104328747,1.18498183136478,1.18547933794981,1.18597601964368,1.16913086143838,1.15770161898314,1.1589075442325,1.16010969948398,1.13977852578894,1.12681999645318,1.13829045429221,1.15023020932018,1.14995355477321,1.14969522029213,1.14638340374617,1.14308408233673,1.13143535873803,1.11542937034359,1.11555167154997,1.11556484328113,1.1087164847654,1.10205052331067,1.09608809016618,1.08180999981939,1.0743865305958,1.06050332663708,1.05909627214384,1.05792330905294,1.06836137202021,1.07538336104308,1.04512440900812,1.02586644599765,1.02786145811715,1.02988187443848,1.03189057881896,1.03193764405175,1.00748656099287,0.980967220714531,0.996738646004261,1.01069510019621,0.982413242410131,0.972234405083239,0.962997364214974,0.956599610112196,0.955765173693403,0.954909803588708,0.945239644717151,0.928036683066229,0.92449051937575,0.922296579709128,0.920673337967007,0.907513082368605,0.914328299803019,0.917709200262816,0.919891470583731,0.929518491890632,0.92926736910349,0.929485571481491,0.917443732016055,0.899560920897125,0.899629090399089,0.899521784761594,0.892532698955732,0.886008740597284,0.891662832453099,0.89736342690164,0.861256144162885,0.842064914200707,0.839167993455439,0.834327550966279,0.832849326591174,0.830727850268499,0.827118286180956,0.823247427540653,0.829107409710365,0.835379634993935,0.835421959342025,0.855619013496793,0.826607415273926,0.815891204278816,0.819317918014668
0.21749416926783,0.226250895506106,0.212779715914935,0.202499161388639,0.203461641693779,0.204547259064316,0.214103900121191,0.216326156842017,0.214846214216257,0.213627794747315,0.213262601350772,0.212357884095182,0.211762905239766,0.209000782827563,0.214218821218009,0.217689005638028,0.221167256123484,0.224277625493912,0.227027880466979,0.229809634986928,0.232187800687159,0.235073592137944,0.237588335873012,0.239539999990818,0.242338367624619,0.2483568938178,0.255547765891803,0.263523576532813,0.279171110871699,0.291014440658445,0.302209096063447,0.314566118577714,0.327358854493795,0.345919595059087,0.343901651069314,0.34271176880212,0.462380111876444,0.844977927197534,0.851768765569586,0.858686565267331,0.915443875641389,0.959653513376661,1.00408617819415,1.10021198974327,1.1076702377881,1.11922461864845,1.13020979070657,1.13809551862222,1.15156060672203,1.16000165698638,1.17167077737918,1.17999289434929,1.1842827882671,1.18710384480905,1.19039506002209,1.19382362082002,1.19695875621273,1.1996337942499,1.20091213780094,1.20171118570971,1.20240592897641,1.20302840083583,1.20172745882579,1.20052984011854,1.19967298263158,1.19929623390804,1.19937308647559,1.19977957793987,1.20033845302293,1.20086387275563,1.20120168693085,1.20125519565096,1.20098820694564,1.20040559583795,1.19952381663864,1.19834978941399,1.19688114922432,1.19512699027835,1.19313473481949,1.19100326787656,1.18614566786845,1.1814281543994,1.1769551715017,1.1727663595964,1.16884831587991,1.16520004002051,1.16186642505797,1.15779302824227,1.15331472267272,1.14872037044264,1.14407726388197,1.13944472142358,1.13487511335854,1.13045712686168,1.12638057825685,1.12277510608698,1.11797790926348,1.112291968733,1.10635269718437,1.10052141519022,1.09615386618207,1.09262668009535,1.08921220490838,1.0862481178753,1.08258615526789,1.07859637246447,1.07445786578992,1.07020919624982,1.0658297748905,1.06127723738875,1.05651594245174,1.051541346903,1.0464671431829,1.04183143786165,1.03721109347803,1.03358014074035,1.02966100279919,1.0254464446013,1.02035752529341,1.01445279886805,1.00794544397654,1.0011550506831,0.99493925462457,0.989078787246382,0.985586702938678,0.981866035801094,0.978279655895587,0.974644561768406,0.960638127123603,0.956066930462649,0.953468405781196,0.948514833787628,0.941761819189189,0.925386063457896,0.923568601376939,0.921451771598553,0.918446441604552,0.912705052919498,0.912074857130782,0.914286077656314,0.90964522735046,0.907742126415587,0.903889948740607,0.899636095481537,0.89414389947696,0.887759307307976,0.880610504920935,0.872850419105119,0.865420494473552,0.85865390104598,0.85479177173218,0.852246579161669,0.848758179090648,0.841592578858497,0.839133862201341,0.835744586947856,0.833191516560934,0.830500253308521,0.827157920895104,0.825345713030045,0.822295751975616,0.819263214366162,0.816366618455712,0.813616031202771,0.810895204557651,0.808044722728227,0.804943836909632
0.211452577818298,0.238659460674239,0.208591777764022,0.20309742354902,0.204844036896683,0.208195774026653,0.210218672898207,0.219647342717155,0.214998177717921,0.204133996326395,0.21262783096136,0.23627100148491,0.213576854184671,0.200502177451945,0.215464814814894,0.245852001361919,0.238185270999941,0.245326170226143,0.233710154473357,0.242540910241032,0.228815481514262,0.22603140828821,0.228608244867177,0.231571758360624,0.234602235279053,0.237715678243089,0.24381033395505,0.257245382168774,0.258155999481602,0.259208778986288,0.274017403466329,0.289842999979476,0.308121774647788,0.351120700459188,0.343725787466562,0.341611536055291,0.418659966750268,0.836902137808823,0.837542059904135,0.838160341907126,0.84704040216213,0.85630500719212,0.908626497124822,1.08769000009071,1.10380630256293,1.11078620099916,1.10725484110766,1.10372986480411,1.11151788546316,1.11956001201249,1.14708853090821,1.19941001758279,1.18155790900161,1.17917378735891,1.17979487689735,1.1804601994041,1.1903693652322,1.20071415685491,1.20110901172513,1.2015179341637,1.20220566475945,1.20249783618505,1.19500794810008,1.18764783687142,1.18765779328327,1.18782256083142,1.17420421339694,1.16146133736556,1.16518940184296,1.16890999877545,1.1727716450867,1.17655830967478,1.16990232053517,1.16325476857317,1.1615344125844,1.15988947091996,1.16006060648786,1.16023667561424,1.17997001596384,1.19372886054766,1.17588642727648,1.14163700010251,1.14610647181619,1.15058191961453,1.15207213190114,1.15359962330042,1.15206904024151,1.15061084988793,1.14467087239793,1.13933155282058,1.13357633596809,1.12744106935275,1.12014367503539,1.11201183907531,1.11242404304394,1.11287464648929,1.09392525747251,1.07425098544331,1.07384859962636,1.07342608140427,1.07233397793868,1.07120327894397,1.06288037885438,1.055859693417,1.04945738721005,1.04213853743496,1.03857520407231,1.03510955141936,1.01750908216884,0.996189108458977,0.99739698029245,0.998524825963572,1.01816553544553,1.038333579939,1.0159740642772,0.988003854873371,0.981476385041915,0.974991724036805,0.977677248484733,0.980475363951126,0.981072443526302,0.981687800421508,0.989714755283272,0.996333739202811,0.972140841502035,0.946642990394943,0.959772367839102,0.973429586385963,0.944556222326263,0.914048658477134,0.913289588001139,0.912356214957115,0.907977227855594,0.903574041548224,0.903020383691797,0.902492645556311,0.902966590370161,0.903665834165626,0.907560436149774,0.918200959269319,0.907537805341331,0.906186321210388,0.881062800703643,0.860435014828201,0.851952870041921,0.844106231609005,0.846836071704494,0.849581229341104,0.837887066674691,0.827911195807322,0.827040625956302,0.826143544170509,0.827404920520531,0.828571555558768,0.82185245931486,0.815333377980368,0.817766925992656,0.820341089293781,0.825417393782197,0.828583990595405,0.804595232096614,0.784488793206557,0.789068049457447,0.793648802119286,0.772124059874088,0.755772623235283,0.762910960984544
0.199308193439771,0.202105463247579,0.204488895870976,0.204031670439053,0.204824102733423,0.206233721097998,0.20778717536421,0.208929637126832,0.211002591854363,0.210537174069798,0.212710977711279,0.214425520196459,0.214820030628551,0.215773737989267,0.215872928182167,0.222732346851933,0.223026681952741,0.224722551015136,0.22713970008722,0.228176319544274,0.228195398990954,0.229933076999896,0.228425608622872,0.231420870811027,0.234204810792601,0.236216128804058,0.241029306645401,0.245187354050583,0.249459563031712,0.253908937302023,0.271810612634093,0.28086344674846,0.288598614310914,0.299367620777241,0.312299019320423,0.323595128841026,0.375402242267477,0.412063724948806,0.449493323456672,0.487996491977659,0.527817981260649,0.569148134140253,0.612121705049606,0.798755495593571,0.84234267275099,0.886222192972028,0.93048259789343,1.06057193569833,1.06629033347528,1.07311936473628,1.08070175735355,1.08834398701439,1.09383039049519,1.09804194985372,1.09994370976497,1.10102777249304,1.10397446626915,1.10828048738991,1.11395276564062,1.12048264646995,1.12146000120749,1.1228616072127,1.12517859902175,1.12824190992035,1.13108708211327,1.13393332881981,1.13633114551772,1.13802906724285,1.13898063104902,1.13929955382125,1.1391976097635,1.13890792480594,1.13862823482206,1.13850643105868,1.13864013945736,1.13904851973133,1.13849172651609,1.1372120995832,1.13378396623041,1.13058215555039,1.12768338238495,1.12511747322403,1.12281571917567,1.12059082711337,1.11816815560114,1.11525604859713,1.11162476480463,1.10716378359892,1.10190231327473,1.09599678844473,1.0897009062681,1.08333281135036,1.07724244107701,1.07176853619076,1.06717223908206,1.06355244375358,1.06078101496117,1.05851614036868,1.05632972057292,1.05390873051192,1.04323384805024,1.03912519728911,1.03360135991929,1.02756779996668,1.02313302288199,1.01792179496978,1.01409413579822,1.01014646442689,1.00598290717073,0.99666346597745,0.996037611830162,0.99357241034215,0.989540871682028,0.984431218696766,0.978929467340301,0.973642283700462,0.968914020068613,0.964814500601823,0.961219527672106,0.957935611077572,0.95485799700521,0.951999242992693,0.948965390884766,0.947079377327321,0.944404340148998,0.940955292219262,0.936824497220538,0.932278255657449,0.925516192939968,0.912017376734843,0.908987004504727,0.904610939286924,0.899165268372871,0.893265525958582,0.887838419911688,0.883323906895684,0.879217156529483,0.875587705424332,0.872299941381713,0.869055183396629,0.865508366599814,0.861407229820679,0.857230681266534,0.852818875998755,0.847772383202829,0.842529820039405,0.837403183940311,0.832496537074212,0.827786510718355,0.823192498376428,0.818637436479063,0.814095887416547,0.809607765162768,0.805246125927131,0.801058406622942,0.797027183026299,0.79308255656901,0.789148921290854,0.785181762588151,0.781168633671235,0.777106639278185,0.772998755445312,0.768896136056024,0.764897206199104,0.761114491735565,0.755865765890115,0.752985904224212
0.199061219022068,0.202731188807421,0.20336675792448,0.203895794780321,0.204224789885615,0.204171259090345,0.205705774162648,0.204616394872441,0.210098663592954,0.214055781354192,0.213528913793052,0.215784409039493,0.215086667036605,0.216307467253589,0.215839962463692,0.22351459294853,0.222310453310043,0.221639137243339,0.221608923736256,0.212293635148457,0.225406520280491,0.23721967739277,0.223999849540134,0.221935196904168,0.22212186417296,0.220304652821703,0.231855127322886,0.230449143735133,0.23130685905457,0.217829818983177,0.223017942433834,0.222025770619684,0.253851117379138,0.263780014940886,0.287528564734601,0.313916910876001,0.313838330269808,0.313772237326506,0.321845157597386,0.329425009758416,0.337092138095699,0.363282000001487,0.427864796925934,0.764573896635889,0.764165487252958,0.763757096456046,0.818247888601801,1.05352025393497,1.06064307561089,1.06609047276214,1.07300619122323,1.0812692633416,1.06591314373204,1.05132997079253,1.0522506571436,1.05316997143582,1.06593736777799,1.07840999997148,1.10576826672573,1.12700201784041,1.12206659535168,1.11760961898037,1.12341300961415,1.12921058668001,1.13034690167247,1.1315859219417,1.1318815073992,1.13223738140128,1.13383323966549,1.13543820582045,1.12098723610546,1.1009611820718,1.10000697228509,1.09905719125229,1.12782471411396,1.14019324780194,1.13936743109509,1.13950356402891,1.08750207165912,1.04941999895476,1.05737554292899,1.06552000097608,1.07660100974949,1.09256000800116,1.08047298832968,1.07007248886454,1.07275807802192,1.07550030779928,1.06993014636577,1.06434241606667,1.05725368591699,1.04902590687487,1.04797276604645,1.04697783403288,1.04699380194293,1.04703711277746,1.05035211679058,1.05365334340652,1.05247029180163,1.0512079091027,1.03241795728441,0.994866275422896,0.988701950165587,0.982693336070953,0.982437256300313,0.982216946002542,0.975532169427277,0.968507313961008,0.946199433505776,0.914172985274416,0.924085237520127,0.933941468565684,0.935155097842531,0.936280945963856,0.928884100494181,0.921337387233704,0.931256763880098,0.939933304447546,0.941586291322005,0.943212403822657,0.946262140995258,0.949336152753374,0.913542603245058,0.887724000000276,0.860878775247953,0.838762248416407,0.838882718493188,0.838824364568495,0.831111093964341,0.821125596834931,0.853709538112471,0.88937016570023,0.889841633490044,0.890335158783663,0.851210389107106,0.819853494538393,0.818650108528826,0.816716406731769,0.824741425772973,0.832945064919888,0.834287561654809,0.835517852568186,0.836018707885513,0.836324146091188,0.829087470702058,0.823209248014558,0.81789519788956,0.812326511202228,0.8139938711071,0.815526932221823,0.811572022774286,0.80756545225825,0.798854793584065,0.788786450071186,0.78822175274747,0.787640187637981,0.787712333470234,0.787774318315335,0.765626437744517,0.749447307681814,0.749828549598045,0.749414031749865,0.748321307693493,0.746796678215183,0.749760592419723,0.75287257076459,0.752715400019589
0.198746388847847,0.201332510775015,0.202497901294096,0.203228039729185,0.204189800931325,0.205124596741755,0.206296481632627,0.20696548859569,0.209175836538355,0.210825932742908,0.211951568559927,0.212969537743636,0.213495328924836,0.214171206223146,0.215155507235007,0.21857801424324,0.221337103430871,0.22255406987254,0.221375238079762,0.218887535900375,0.222058748587965,0.222189119432226,0.222122941240686,0.221344290703467,0.224379389161999,0.228919377522834,0.233178271173454,0.233380662913896,0.232213407412595,0.228250077269968,0.225538250221022,0.224733318968844,0.249350572923304,0.25390135576881,0.264371416283215,0.274063829950149,0.285434415201473,0.298897499329234,0.311397761913605,0.321981500986872,0.333980735626935,0.345871579779259,0.359465746841972,0.379486570263636,0.398904942982801,0.417130057823488,0.434693541129171,0.452066995344448,0.469690383881793,0.487900898840094,0.506792468875945,0.526217321375853,0.545910653383367,0.565551967446261,0.587383581195693,0.615074307501998,0.645288555596449,0.678187555139332,0.713908315739373,0.752557559642087,0.794207914811795,1.11405157990184,1.11580028503872,1.11908431525431,1.09921919694415,1.07781164132166,1.0666562743555,1.06629471412718,1.0656277733867,1.06470516219152,1.06348699912941,1.06179697505355,1.05934598355865,1.05581824525321,1.05097944890464,1.04476257849839,1.03730633627013,1.02894359582616,1.02015032156512,1.01146984023903,1.00343022788704,0.996475123464284,0.990923070340766,0.986951396300399,0.984584857016625,0.983683190871303,0.98394351424561,0.984965111906592,0.981365187852951,0.978054214590303,0.975008001138699,0.972196839358358,0.969567361523152,0.967091428286919,0.964749648218212,0.962384482227904,0.959474464295183,0.956652517874546,0.954184266550006,0.951313605447706,0.948032803539097,0.944356566307054,0.940323402873671,0.93600589844945,0.931490811026829,0.926840081230154,0.92206105983578,0.917105177367333,0.911897552224062,0.906383488882643,0.900569668978609,0.894542002744691,0.888455032359808,0.88250301097787,0.876893146750747,0.871832313263567,0.867523173052728,0.863485178343981,0.860003419999461,0.857063383660718,0.854457573534764,0.851958482158338,0.849371688054439,0.846568041522435,0.843566021679852,0.837765983473297,0.836061506377575,0.83356950463982,0.830538559120921,0.827124475362119,0.829277090827593,0.830556282043989,0.830601849613993,0.82923815704174,0.826579131962651,0.823043564431111,0.819376081356268,0.816385828544649,0.813111701404204,0.809910664508737,0.806724205114424,0.803461782721616,0.800054208681438,0.796471023077536,0.792713371665388,0.78880497904272,0.784793150391397,0.780759660027438,0.776832095292826,0.773181231312176,0.769991535908647,0.76740470916011,0.765455022230462,0.764027533510449,0.762866159026552,0.761637899553437,0.760031821565891,0.757851232691454,0.755059158328858,0.751765444597472,0.750496149146088,0.749632182553688,0.748673907750535,0.747603806385406,0.746654767458486,0.74503912667425,0.743000155891
0.198414007981916,0.201450812580698,0.202111724382985,0.202434242953204,0.204171303352522,0.205978809133733,0.207354700535941,0.20804869875257,0.208915184664317,0.208580526587747,0.210404051075036,0.211019332194808,0.211585742646958,0.211898470074381,0.211838507150239,0.201137672704835,0.22159327159444,0.225710339060809,0.222218027265378,0.219370542669721,0.221261844392047,0.204855240447432,0.221099898774558,0.217226175606191,0.225346940597473,0.24163621918819,0.238367719719982,0.237547076127364,0.236025553122279,0.227150079128302,0.226478669742961,0.2269153280147,0.240675761055427,0.238324085029904,0.239902324513046,0.239203660941804,0.280301361359393,0.293687845893042,0.293646400910815,0.293468953253955,0.292705159812462,0.294002838559724,0.317452529545277,0.338707101991022,0.340294140723273,0.341876691553942,0.35735038355487,0.393849828332967,0.385474465433288,0.377103170824043,0.413316344468134,0.455053000003444,0.410055801986647,0.366886362572834,0.366481661031324,0.365872030815796,0.471093407573594,0.58075332542705,0.580678590591062,0.580603724907947,0.635286994353508,1.11210392007112,1.11402646675374,1.1221354188514,1.08991455807812,1.06269999999802,0.801609752134569,0.740255554849202,0.74068577545269,0.741115999999913,0.741622224546901,0.742128445150688,0.627117234654315,0.552576223519845,0.627117236510775,1.00056851550747,0.993490408612137,0.986258495762678,0.975229498692472,0.961023989685295,0.970599501621202,0.979912730221843,0.978926370237706,0.977943844323938,0.975957867664782,0.974051820462669,0.982527603310499,0.989947970184159,0.871025546858211,0.814700968732812,0.814700888046224,0.814700969619827,0.862688841495685,0.921688000000701,0.853524006622405,0.787904999999363,0.847640709684038,0.893993107737095,0.902010618054328,0.909839904327918,0.896187149162054,0.886655000031135,0.875512739364513,0.86249719151241,0.862137290985626,0.861774019651455,0.844848327348075,0.824884000009912,0.852848314806933,0.8705599876858,0.879075135612318,0.890254013807333,0.87704483791289,0.866565261769013,0.863212158201575,0.859851206190881,0.855545670550534,0.851240114399508,0.850149227341431,0.849069396810802,0.847620439005542,0.846185461086575,0.835854944650138,0.825795000074606,0.802575218011871,0.772194087213622,0.772672158307106,0.773058051425722,0.779327555964772,0.78559663910297,0.789473836284867,0.793507412168375,0.788010503048801,0.782529202593317,0.806440509788041,0.826099768958729,0.795466246280433,0.758887000070319,0.77208495125224,0.787648018178771,0.777399190852394,0.766196621494651,0.773510776860023,0.780798474555995,0.782202723816177,0.783593806170566,0.768092116402142,0.750149991079381,0.751038372041686,0.751927914220072,0.751969915898966,0.752014675989992,0.748912803696673,0.745822065613121,0.743789256434708,0.741756015158346,0.740314948175822,0.738789246513751,0.732071307768825,0.725320011682392,0.726743901420834,0.728284402388903,0.730217582455269,0.732213229815068,0.727283471860905,0.72245569727004,0.726593109457662
0.13306002614045,0.153454363585167,0.185844875230993,0.190260749687845,0.198512814505982,0.208965797445747,0.209315434553382,0.209885191282267,0.210296593342905,0.210357103267542,0.210554259850522,0.210195895972294,0.210361702268793,0.20979631723012,0.208728266248858,0.205130310558835,0.220845073714275,0.225902951380956,0.222149003536475,0.220418232989525,0.221852904902216,0.223576843721141,0.224033607519464,0.225700237984059,0.226740370805615,0.242433026595861,0.240778909986602,0.240305376545203,0.240256411569958,0.242298056889034,0.243246729728096,0.243108469624685,0.243035713047148,0.242707138927311,0.242061680342192,0.240763853960843,0.266174253221029,0.272688189384135,0.280746225542339,0.288295221978951,0.290413267454948,0.295911751575894,0.307633147335973,0.311218045427987,0.316367541979207,0.323267257768956,0.33013430824262,0.342696135620837,0.344994658775294,0.346888993430426,0.34876644326612,0.350957321358569,0.353522865987202,0.356368669933672,0.359416285343604,0.362610520185038,0.42412416466891,0.522586906012447,0.524298421063936,0.525675052837979,0.526723334726217,0.527552364493104,0.528395009975931,0.529552435061336,0.531305134703884,0.533821804251286,0.537103472288093,0.540996900277027,0.545283869636739,0.549805789247959,0.554545855364767,0.559603009711604,0.556654957024713,0.554347577572717,0.56963995692547,0.576007213040839,0.583303377672852,0.591423975775805,0.600121168759947,0.609059409078312,0.617807444712326,0.626022087043065,0.633569869838128,0.640528119114651,0.646885990410835,0.652804448313664,0.658614973804124,0.664239128972484,0.668229155638302,0.672193915538018,0.675342974772633,0.679446188264493,0.684360479521369,0.688617668226048,0.694122888680288,0.700302147803219,0.706899894346054,0.713599709800495,0.719614748200408,0.725049129920693,0.730249604478802,0.734897194970791,0.738834318755008,0.742048818362719,0.744577455037963,0.746471296635269,0.747808100298521,0.748734058955131,0.749497058433535,0.750416383778609,0.751791371230626,0.753797604025743,0.753814727992886,0.753262629941336,0.751233228450036,0.750786664228132,0.752070396743676,0.754793496638004,0.753988871486058,0.753994882532774,0.754686535563276,0.755846141743216,0.75718719475088,0.758420131647479,0.759323737604286,0.759776093047998,0.759745652017307,0.759263813030985,0.758393627300326,0.75720232136528,0.755743396824797,0.754052258636483,0.752154981281288,0.750084574840686,0.747895864974197,0.745670732047696,0.743510022309687,0.741515131354058,0.739767858571855,0.738318293671787,0.737185743362046,0.736369204487942,0.735857184152959,0.735627272519552,0.735634471412566,0.735797912510274,0.73599982834881,0.736104749981637,0.735994999067744,0.735608390934942,0.734960852158876,0.734141450375334,0.733279214394019,0.732496087290446,0.731868137719383,0.731407774601647,0.729986770932385,0.728676653419523,0.727445823646909,0.726254243230531,0.725915988080753,0.725400783366381,0.724672384159054,0.723882603413274,0.723304824738123,0.723150234003203,0.723826036798067
0.0395294232633902,0.00318922000083026,0.170795975344023,0.17014799104552,0.194100709572263,0.21172751391887,0.211029343763391,0.212191514505638,0.211920017965781,0.212467347823644,0.211075636132788,0.209377229023558,0.209795566831044,0.208735572597003,0.208318310015004,0.205886660615681,0.218332357104366,0.230020714913498,0.219801659478094,0.217920914836836,0.221755262430523,0.224421432405056,0.225457819413243,0.226849760833848,0.228421674161818,0.244555426411592,0.241806332536856,0.242466592872743,0.242366070345327,0.243275584327244,0.243500516297736,0.242470341935898,0.245464775826233,0.247301966164242,0.24472816502511,0.23060108629934,0.254495415366001,0.249245261904663,0.27566233997534,0.285836569667673,0.288375390023214,0.299489585496384,0.302621280905936,0.306295953038062,0.295361039515501,0.283341991501398,0.307587769785682,0.33992604825983,0.303102801940663,0.262857122326662,0.263668103871632,0.264403235016754,0.266216168846211,0.268367697834334,0.291347822906464,0.324123000002962,0.379436038798248,0.520606448555947,0.522642086546956,0.524668864365369,0.506574839200706,0.481155999998402,0.505366949906074,0.527864999990041,0.509163736176519,0.493925000010576,0.444331946330695,0.381293753918264,0.380884456944549,0.380146353016524,0.465504818299303,0.568012082273541,0.554588496117026,0.538457329219301,0.538815234143029,0.539172596805347,0.53928410724257,0.539394561953977,0.523730517053051,0.507761525138322,0.507456108616418,0.507151152021994,0.535737193064559,0.567225000003049,0.542259743384075,0.521481000000999,0.580373581179764,0.643184316674416,0.650985515173016,0.658792681889994,0.632581012879883,0.604821990572445,0.61351184001739,0.622222009580392,0.654802249919651,0.689826789640953,0.685509743656323,0.68119189880464,0.680629298668873,0.680065899932268,0.644752206454576,0.608284885361038,0.610748154353258,0.61321050049992,0.609214445082434,0.605217336139669,0.644556669593512,0.674538000000697,0.691732501546376,0.707558999998802,0.731299784853745,0.756389506972917,0.75515059783639,0.755720063320336,0.738508718431268,0.716151000002123,0.739997733107364,0.759178420080542,0.707557745092821,0.646754999998807,0.701690589504454,0.755699000000784,0.686958144472371,0.611902867571065,0.684007151900253,0.733442000000748,0.709884514964189,0.688141029233994,0.690516499860861,0.69288980487783,0.690480808338479,0.688066383302123,0.685345005496188,0.682610236961457,0.684718569776848,0.686805056085453,0.697920051983065,0.708985010127459,0.693578484485283,0.68008471428086,0.68027620824166,0.680453779724642,0.683615758362091,0.686758304069663,0.687346429599986,0.687917552838918,0.699962998901914,0.713329570085187,0.705737288864718,0.69822944669248,0.709418033999286,0.719280015927927,0.702940446857266,0.687901000033561,0.712341536836407,0.732485303976547,0.716720991201227,0.696352569098857,0.703501569594538,0.71077266889273,0.710861725494669,0.710879097538993,0.706795141614955,0.702675413546572,0.705863521718483,0.709036197498723,0.69439899103603
0.068406627731904,0.104933582763408,0.172366478147139,0.172494699213017,0.189346278113575,0.198960711262387,0.204803388292227,0.213175168431349,0.213074208261839,0.212995190024847,0.21238292984868,0.211623185543384,0.211240428834571,0.210561211841148,0.210380691951275,0.210576378862407,0.214614516664996,0.215391481748188,0.219070657658274,0.22041670667212,0.222507556861037,0.224552113624736,0.226119646057861,0.228306293723489,0.23154952265628,0.23536236774118,0.23932304318041,0.241408708428526,0.243389848016103,0.24379049435531,0.244347771001611,0.244609001452678,0.248901071962395,0.250661055961864,0.255367649139377,0.258673125937892,0.259702344727452,0.262636945477856,0.262248208690588,0.26178238733761,0.261878251590435,0.26238299820858,0.262690800405992,0.262478067460977,0.262104771299539,0.261876710205337,0.262184301991632,0.262487259217343,0.26281004857896,0.263144916465516,0.263803994346517,0.264675119573046,0.26587633431233,0.2671651129144,0.274634316549494,0.283936540743087,0.293702248774349,0.302459016501876,0.311088894499221,0.32003340318935,0.328883030030774,0.337182213100236,0.344164728892962,0.351680300643502,0.359262831183533,0.36666933678579,0.373808546769292,0.383987243435395,0.381080335261731,0.380072307431272,0.392206857696651,0.401020089766114,0.409252521855544,0.415436501940131,0.422607846064047,0.429254512019681,0.43665651862909,0.444151921174073,0.450648332776062,0.458223565044642,0.466019090908274,0.472405623097564,0.479508542486908,0.486584700489283,0.493251531924617,0.499363051137638,0.504883553281301,0.50983447271899,0.514281627547039,0.518343239983106,0.522189049666885,0.526018719276211,0.530023297610868,0.534343306018034,0.539040452109514,0.544094424201551,0.54942381286408,0.554918615026656,0.560468828758735,0.565685977208483,0.570629177032508,0.575439310774441,0.580029390236414,0.583958399979019,0.586741004920697,0.589661951627883,0.592414921856694,0.594843865064841,0.596896534804588,0.598538059221715,0.599755676434356,0.600621771326642,0.601359570978614,0.602342864329678,0.603992532638931,0.606576571614082,0.605846092536632,0.606434870263697,0.608374498748269,0.611400693073772,0.615140664836741,0.619248778073449,0.616808516330534,0.614370282963692,0.644712213708611,0.669450720593862,0.668776868340939,0.66796216667595,0.666995446742917,0.665932850140055,0.664907747280459,0.664107281567306,0.663716033590897,0.663849672517691,0.664511029380831,0.665589335654793,0.66689949586114,0.66824011207159,0.669446918634034,0.670427796727361,0.671175101122001,0.671754835448144,0.67227403149238,0.672833614698678,0.673483409249954,0.674200354209074,0.674902562017066,0.67549262184078,0.675906383791143,0.676141666212038,0.676256184895271,0.676343067526503,0.676501252653487,0.676813750377679,0.677337384825973,0.678101119687004,0.679108221748123,0.680336417884078,0.679667197230101,0.678328444305548,0.675915376477739,0.674036327013301,0.672759367773965,0.671979667855657,0.671501902421779,0.671159322429781,0.670855832850811
0.093175631172198,0.176742783204565,0.174716592947145,0.175589368986574,0.112484421479777,0.0034754300007769,0.149342715680851,0.214401719680205,0.214108127086418,0.214418484099995,0.213632349219986,0.2139805964583,0.212787990347762,0.21239869197737,0.211991096610245,0.21153112088165,0.213660030495011,0.212318284792926,0.220598517489975,0.222006570589326,0.223278944778814,0.224857530049991,0.225943618521498,0.239352180056954,0.234084861397687,0.22022429919816,0.238835903307554,0.240571361543231,0.24622094335371,0.257473244250339,0.251034273116481,0.220445000107268,0.253193911564773,0.262513761974073,0.261895221726002,0.262507086636347,0.2629203951012,0.266114693241735,0.262891268621119,0.25922788151598,0.261671755061671,0.247294971173042,0.262846187290559,0.262292617546419,0.261666170267301,0.26122097782551,0.260354027904077,0.221946243211043,0.22283555978528,0.222263364681771,0.221922043470459,0.221304473183184,0.265472560018289,0.263402461588053,0.263172512404576,0.241469093029935,0.23885482374946,0.224727852115502,0.236464667618253,0.238360197126916,0.239258057498717,0.240712511173157,0.240792043058283,0.240221979496458,0.249691240145156,0.255141032959916,0.33348571904764,0.389511478101888,0.379334383938643,0.377914073684915,0.379658366208527,0.381394367352296,0.377504409238442,0.373574046846524,0.387630356160241,0.411497395962196,0.412865481762468,0.4142275469227,0.414681310180247,0.415129367753158,0.384626574482867,0.308040000040228,0.339170128942909,0.339943921581261,0.406400405139955,0.434857990702991,0.444084635112466,0.451206002549359,0.458219634642062,0.466123450020797,0.465150239700608,0.464120856172378,0.474354164218752,0.483302002518397,0.493362638347018,0.503994326667695,0.5090293089143,0.514010693516909,0.529444474741908,0.549243999987227,0.521314005818195,0.499510000001617,0.518382662697029,0.541260790977806,0.540443871218646,0.539626407623414,0.557251633589668,0.584820000002546,0.547702684649179,0.479485172487029,0.51706507400252,0.550157006029667,0.550163861106241,0.550165813216548,0.572403857001141,0.610831004917861,0.593307316257357,0.577977011261285,0.579100968932199,0.58022265701616,0.59517731044547,0.625903639551997,0.593039998930514,0.533894969271549,0.609708452788911,0.670036219878937,0.649778548151988,0.629590593698751,0.623027574012792,0.616434423358248,0.633574441365573,0.649405867067739,0.642759402199765,0.636247997418587,0.634608552052484,0.632758945313451,0.639153016408528,0.645476879210484,0.640712360635313,0.636025953813594,0.635598225940048,0.635289157722962,0.643414148543146,0.65259094928071,0.642208839633473,0.633879832763902,0.631618989181921,0.629425890863771,0.627834717450863,0.626245835301684,0.642106432974639,0.653812246722663,0.654733448779508,0.655591962585069,0.653028489247941,0.6502621023674,0.664853653558942,0.682407543166254,0.680552148552805,0.679704652616063,0.665955521748902,0.645495659461535,0.657676643302592,0.663117726299299,0.662994419831985,0.649659736375281,0.657310201398529
0.116373047135261,0.160560097910164,0.160931108577098,0.106337572154222,0.079385429292426,0.0500110125570618,0.124495887526001,0.215060232302238,0.214727103278906,0.214484825276021,0.214122853576821,0.214025402980785,0.214007761938602,0.214076538550461,0.214091672224631,0.214402958174716,0.216306301811296,0.218554227080041,0.220815163567331,0.222161094638537,0.22368395142356,0.225244856058657,0.226555504429343,0.228357740270671,0.231116626128728,0.231815550036831,0.236593272911887,0.246299796614793,0.249847068129851,0.254234139546511,0.255564463531837,0.256786087924155,0.25751552070085,0.260185303200457,0.261257677244749,0.262616975582836,0.263260890709459,0.264412223310341,0.264088402271858,0.263754477862065,0.264008815701988,0.264434318381223,0.263222092959492,0.26125411312733,0.260694295692988,0.259716905556103,0.259480172964595,0.227768439084817,0.22443609892064,0.222935933607351,0.222284072077774,0.222122914146086,0.267173512848154,0.265762479976968,0.262483086116841,0.238855535560067,0.23640949835051,0.232978337315217,0.234602174757535,0.2363449790747,0.238639330092272,0.240227849418978,0.240958729937107,0.24113906658958,0.246000566098494,0.249660679068473,0.266928435894638,0.286834856014842,0.308972922818242,0.310107373425245,0.316032424641887,0.317121766376144,0.318925959692079,0.323185470582479,0.340382847224756,0.34064037356947,0.341579384716013,0.343675573248325,0.347056962465857,0.3506143443977,0.348804852340198,0.318918839193552,0.338083723579921,0.337456998043214,0.361728626330041,0.372754865292745,0.383664828294198,0.410877911596325,0.415236571135937,0.418936735273338,0.42263105851417,0.427929938998797,0.433299069820503,0.439647184043496,0.44638997529661,0.450681661036999,0.450450467854092,0.451322538822127,0.453113829395922,0.45579690992994,0.459263183911072,0.463378729507399,0.468013358622289,0.473036632451602,0.478320811379213,0.483828353363633,0.481670855134603,0.481148157569457,0.480819434243002,0.48029272938248,0.499677170036272,0.51594096541922,0.518089938660999,0.520672076585429,0.523611975582613,0.526719238363559,0.528839308681038,0.531184310947556,0.535495825410794,0.540470617901209,0.539288506910106,0.538516758269454,0.537955240865773,0.537449315013674,0.546235843429972,0.553552000507061,0.561444928801666,0.56702370159017,0.571640245332492,0.574347171089248,0.577833266155354,0.581729925734604,0.587865867426998,0.599003799603167,0.598604530560773,0.600447283862076,0.603714861586094,0.607652897913708,0.608945618589163,0.610603640425616,0.612651629393784,0.615066642602445,0.617750792639438,0.620512201990024,0.623089082306943,0.625238041385063,0.626867235513654,0.628099630489178,0.627861901851411,0.630119857613747,0.632349348905244,0.635001322691016,0.638174716342537,0.641885733215864,0.643451425995911,0.644878087928107,0.644308946783907,0.643678125415993,0.644170242071463,0.644540998936409,0.646265885793244,0.647214346122537,0.652470480412136,0.657742037252363,0.662492202977923,0.664533344901903,0.66509785284437
0.161530043849035,0.160509364034051,0.161628534970467,0.0032972217357659,0.0031979894734324,0.00326458542625411,0.0996017578137486,0.216098113971609,0.215214230138281,0.214870066097105,0.214219524532925,0.214373491307404,0.214923544638284,0.216269469920191,0.215708344354147,0.216077989644611,0.218584779810269,0.222564805870724,0.222164597212518,0.222314017369634,0.224276748477563,0.225733932332584,0.226660402274693,0.227014219128367,0.230039200360059,0.232078432514579,0.234183286786613,0.272668343219117,0.267705579984525,0.268869097196949,0.266964456408694,0.268483306897488,0.258768706324878,0.259152024065991,0.260754046775904,0.263415802025761,0.263586897907176,0.264043778183007,0.265693737506732,0.267645977779193,0.266357866150163,0.265930773748702,0.264113306412125,0.258410854377636,0.259727170784464,0.257245650044934,0.258335622688626,0.231324634130945,0.253894166227154,0.279707800669042,0.253044881340261,0.222845885271943,0.269998282110916,0.268465135044796,0.258822205852501,0.214421000126665,0.235108996734823,0.232617389165412,0.232673617889102,0.229880332735506,0.231379203911784,0.215650814965237,0.222081288850148,0.215163175049754,0.235857031812507,0.235046085569675,0.242577566231168,0.23370873444487,0.30439749719767,0.302557714312386,0.30444624856948,0.282208000208629,0.296146646088442,0.276396000016576,0.339803330907853,0.339884124784033,0.340613460832151,0.340877681426037,0.346417832892735,0.355316692181395,0.346468089230613,0.310954985840493,0.3373135329901,0.334122545295695,0.335937505111795,0.331774008490025,0.377905026623359,0.404551311609767,0.380391491848433,0.33231699999622,0.366618198043751,0.366683719149405,0.365858937122888,0.345472982742227,0.380283382456981,0.387636007873449,0.39404109302831,0.412905997272338,0.421858085551597,0.433219521171815,0.437117233369467,0.441022993652874,0.441404372313236,0.44179791058636,0.460999044571864,0.491838137655303,0.478934467942124,0.476834039025507,0.474371299700224,0.471919916423349,0.491330169837827,0.514138576491369,0.513812685039285,0.513665211080882,0.519942047809398,0.527769707487873,0.528706234298462,0.529544872553161,0.530505764332107,0.547128311718093,0.533681117455284,0.52488883150148,0.532533932565873,0.540481659250261,0.530754262483201,0.51572895783354,0.533642933705825,0.542838778096319,0.537594560691419,0.532350128452455,0.548555503612107,0.571574000015156,0.585293008560415,0.60301229524133,0.582218470982976,0.560336999978152,0.586413214480803,0.610636865173094,0.606815112666955,0.603055163398091,0.592291060887067,0.582749581870528,0.581517516597274,0.580340206534432,0.596099334311548,0.618444545557407,0.617832894212653,0.617307682430758,0.62548345640456,0.634162940055047,0.630910721139965,0.604751000112178,0.637578571100203,0.6442120345011,0.64362374400493,0.643182826651787,0.641421898053394,0.642397685395971,0.641673926981749,0.642951497785731,0.646811954690944,0.644459301619588,0.647032670236721,0.641656078398029,0.664357293564072,0.665881933571773,0.665857505269833
0.163144644002719,0.162502680941402,0.163333503955254,0.00313475691646239,0.00308777827498125,0.00308011312749338,0.0746552315922952,0.101109547220686,0.127553518663137,0.154019583829137,0.213758041187848,0.214576622467969,0.215421913001132,0.216592896350233,0.216827927454635,0.217665253977714,0.219752097322904,0.22241979745114,0.223254677560221,0.224337828160707,0.225387437714705,0.226471143743361,0.227177010653875,0.227987041852558,0.229690635772541,0.230815450285933,0.233680206703034,0.244562742641614,0.265621242709875,0.266110328367014,0.263194891160547,0.261325563727271,0.258428683866487,0.257947319660549,0.259007698639297,0.261689127659955,0.263549782707133,0.266309021373943,0.266869096908565,0.267387053929797,0.267758964023731,0.268222718090427,0.26802875160975,0.268974653649383,0.269948740153394,0.271561970480965,0.272288935565808,0.272135751352722,0.271350979019163,0.270323050836904,0.271814718003782,0.272967385556356,0.27328595502529,0.257299954942323,0.253036823203852,0.238814735855619,0.236411980782692,0.234024050676466,0.233489129912945,0.232595994086921,0.232193156413734,0.229696150106247,0.234116001609128,0.235539620351063,0.236925497091413,0.237273875166861,0.249577835905109,0.254434847204008,0.30658948503099,0.306440153509521,0.306574145155531,0.307027447209649,0.309453846552629,0.315798115219396,0.338928319111314,0.339373942921662,0.340167397816232,0.341061275008312,0.34285943855216,0.342147667539279,0.343626715710701,0.342614286317121,0.339505636238161,0.337823679520015,0.341275010654643,0.348153678068208,0.354655657441773,0.357642765323804,0.35967309016936,0.363881224954384,0.366389378605947,0.367018705073828,0.365248176277749,0.358366589046258,0.37525839650593,0.383958468665849,0.390890580691961,0.397595976835753,0.411819941224071,0.415374132637053,0.417738010942615,0.420477067867546,0.42426153561894,0.428982843725792,0.434562878374614,0.440668111492933,0.44678446774572,0.453074340581946,0.458570250026466,0.464336142995064,0.467795321040049,0.469884845329565,0.47232104932794,0.475440146688417,0.479343026981652,0.483737750986089,0.487830537120348,0.492328156906346,0.49692766957853,0.501479540276869,0.505950425877886,0.510399067804819,0.514972436120685,0.517342730349179,0.517500368310076,0.517788108405793,0.520685879210517,0.524237281703924,0.527798670949955,0.531606751734836,0.534723385077165,0.537728253233355,0.540573764276697,0.543350607638369,0.546226786819441,0.549344509191513,0.552726610313677,0.556241738031711,0.559664512356187,0.562821529495114,0.565741319815051,0.568688124884332,0.572018580795342,0.575938600797573,0.590137592983934,0.59722193687813,0.605790561992817,0.61554787134489,0.623455788131564,0.624843888646319,0.627943433962704,0.630633061131562,0.63094349243046,0.632978257009014,0.635141304006381,0.637008140314984,0.638352629142325,0.640161946948046,0.639220836147111,0.641309588848329,0.653388323907286,0.657138919374124,0.659449525291731,0.662078345924301,0.665115238299315,0.66853975260479,0.672359283104509
0.170103563337386,0.178004361313976,0.170499748882887,0.0030748881344369,0.0030168805706164,0.00303515323798063,0.00152536043705324,0.00213748203493113,0.000840599180087543,0.0026967821435513,0.212582152660711,0.215008598970669,0.215449960253911,0.218232940670809,0.217133123159046,0.218390875752866,0.220202261835992,0.224384369402564,0.224155424715672,0.226496338175726,0.226626429310277,0.227565645817016,0.227868953197334,0.22807978887926,0.230054918558078,0.227753779321351,0.235908277525342,0.23309303598102,0.261889319754611,0.274056310693962,0.25809673349592,0.252279526210112,0.255352740462841,0.254421436860659,0.2561643038505,0.253456478387532,0.263390131355786,0.270856005233048,0.268555536579095,0.286395865970008,0.269408124761439,0.271062294870492,0.270895443885508,0.273042711392443,0.271806350973183,0.272259734086807,0.272623201223284,0.286212042628538,0.271300274284648,0.267755349911621,0.271488170910019,0.281902611896899,0.275820769682571,0.241530941369083,0.245131553247183,0.241137322966267,0.237696964869327,0.233463328252937,0.234399227918973,0.234331791875643,0.234540386609759,0.222261208806514,0.237077085794254,0.240544255947666,0.239150939534519,0.239916781178408,0.254428508711643,0.266488028190476,0.309212092428472,0.310217541703754,0.308566361757328,0.30507823024152,0.311720841835331,0.327841727790889,0.337596501598533,0.338474852356379,0.339674372533103,0.340048370756291,0.341314862590442,0.339592259006054,0.34301292255553,0.344586548355374,0.340117512958109,0.336182732341971,0.345664522246584,0.353184466009987,0.351031973644779,0.346582683162992,0.356578355299186,0.371374256157577,0.367656597926671,0.369676108996734,0.368217155416855,0.352009605661494,0.367284289953593,0.338187000030948,0.36660173167929,0.348927000080738,0.405361135096892,0.402351423460601,0.402617740161485,0.39927462068864,0.401032722794133,0.399433059449261,0.422739836813126,0.424855954926708,0.444838923901202,0.446831320257059,0.447846933590056,0.449542209736099,0.449729354238503,0.448215317401199,0.466784448200929,0.469119254785832,0.466736691931889,0.46612292723652,0.485546806339468,0.488115281235218,0.488794285852279,0.487637741953982,0.48819582444026,0.483336401853669,0.517450698875571,0.520005987271572,0.517946991000772,0.517667795341044,0.520421961723021,0.524501182578622,0.523956464019686,0.482318000026653,0.49603995221847,0.478634999997843,0.508586628056457,0.478457999994303,0.515375589295898,0.500617000073572,0.545946519686257,0.548478403346271,0.554014676817546,0.514413999993482,0.555931290865786,0.552620385885919,0.5581815156164,0.545820000136131,0.557277635183908,0.544427000044761,0.596029438878512,0.588360767195039,0.62072524777353,0.617505146627903,0.62582937718668,0.633506409749479,0.629618505995967,0.619501100365472,0.620528375370906,0.620556055320089,0.634444388654387,0.630569117819054,0.633279206576731,0.629840338550552,0.656090534436897,0.658644768276812,0.665636151771038,0.673585973834736,0.678682736863105,0.695909628165231,0.696053357506922
0.172381356442825,0.17393119223464,0.171927831713353,0.119464790693592,0.097218842264386,0.0725133767453373,0,0.00053827417404422,0,0.127946341457112,0.211648502643076,0.212408979043792,0.213373586042805,0.214312638589304,0.215430455101802,0.21673374956874,0.218597858299534,0.220804653075418,0.222754763202556,0.226332697331988,0.227124697121753,0.228125914863981,0.228769539762105,0.230459387792674,0.234733101915351,0.237862040134119,0.240549028081154,0.243819136174183,0.256793026116828,0.255469134218794,0.255472476946153,0.254376140060927,0.255412369008425,0.256336022976527,0.257187768450778,0.257726000214201,0.263999507087432,0.267711033253266,0.268223353605367,0.26897902627276,0.269622259428049,0.270750630625786,0.271320019217331,0.272114300703537,0.271789544397613,0.271313574223572,0.272507170899072,0.273986606442069,0.274690986694901,0.274911993230384,0.274973816004291,0.278456216229887,0.277620925682017,0.242244263061114,0.243944891173512,0.241423450281273,0.238915771037692,0.237538627869588,0.236073880096322,0.23603915877064,0.236362435847459,0.237546775460374,0.239407231937606,0.241557143815924,0.256649524184762,0.269143180871516,0.281103572400339,0.29329897580058,0.31090005177931,0.312123012572108,0.312431658765338,0.314464577299856,0.313690660328207,0.331608415323302,0.33544525025591,0.336251637228329,0.339895208569439,0.341216167017296,0.342365116697915,0.34338142637497,0.344072010978996,0.345609049051718,0.347780065999978,0.349129564421965,0.349547925346569,0.350419611975493,0.349478725356231,0.348504180362001,0.352988644128289,0.357934347845763,0.362903483972594,0.367465806455666,0.369689262162037,0.371860097562813,0.373272932977992,0.374978280788905,0.376979492392844,0.379156944697656,0.406068213336878,0.40569655493189,0.406320599633715,0.405306124499932,0.404618606503295,0.401851189959316,0.419940420610659,0.422739847229612,0.443128615739504,0.445695815243051,0.447288254965239,0.449296251199862,0.451396292743312,0.457986080303213,0.464206493926553,0.464547509564061,0.464382145528583,0.465697517429336,0.483361046545404,0.489337460010703,0.490883475231447,0.490882444687268,0.48967610356307,0.50507452870609,0.517494018339584,0.520014077493391,0.517085104099683,0.516570594444278,0.519029372394576,0.522272522704266,0.522795933243892,0.509654643546169,0.513899211979945,0.517768934573418,0.520857359613025,0.523132429205723,0.524933540416205,0.526674854570483,0.543419950376977,0.545950591401638,0.559190211293805,0.559350454283643,0.55944081518975,0.563029134070525,0.566167528269493,0.568740056691755,0.571166772122197,0.573984589052966,0.602562932994454,0.610924148010249,0.621651139816082,0.621829801692329,0.623551320446001,0.623151028375553,0.624464279251082,0.621881467870341,0.621311224665535,0.621164462430359,0.642006419316317,0.646801042969818,0.651730795600341,0.656995612841019,0.662845814811198,0.668780273238745,0.674821938619089,0.680503394784293,0.687168024759493,0.69615952547695,0.696080088704819
0.178803248330043,0.18408695652773,0.180586012568684,0.187937701476971,0.186434307997488,0.186965703177865,0,0.00198256026697858,0,0.208536431974917,0.210081296706235,0.20977455825014,0.211231580928971,0.210497849412284,0.21336100404849,0.214827509827707,0.216534206832712,0.217802977653536,0.219789507860405,0.229083578745264,0.227554650556974,0.229187811473568,0.22902232647639,0.244272444604998,0.24064280227307,0.243971971073135,0.244122833350677,0.246408353933061,0.252251799099262,0.253563662282385,0.254307290528093,0.253726872639748,0.256070352888502,0.257260247044645,0.258881993796931,0.25954477423229,0.2644485997736,0.267664369020664,0.268441578307899,0.26931747318701,0.27003316339677,0.270853060534957,0.271753429207277,0.272139663336283,0.27176411318718,0.268072239690486,0.271059822656588,0.257424044075166,0.278271320662927,0.290800546014088,0.288890685573579,0.289086572454573,0.279159695604319,0.240939193867038,0.246456539758368,0.309206094644022,0.308276537194584,0.309002459486437,0.267466396093557,0.237026645154553,0.236829596218327,0.236763310784828,0.241734891492897,0.244921307447776,0.277497485064557,0.310004561388862,0.311630357674182,0.313828012710759,0.313879523723072,0.314882359106163,0.314583705128888,0.317105093970643,0.314643228169159,0.360392999954553,0.336303700382859,0.331102598547631,0.342319873943933,0.342318526170871,0.343404889236005,0.363279913454244,0.357509650358076,0.363626250308728,0.358110054732463,0.357134197345043,0.352529803376181,0.34927865779424,0.347916648280325,0.344988881565532,0.348915221668742,0.332323000108109,0.358575368384956,0.354375186736825,0.371205465278959,0.372676459494696,0.383719787067446,0.392682426498727,0.387045336975733,0.381395223043743,0.406795706231532,0.407931527138124,0.411774965588231,0.416432157639928,0.410556936207001,0.401702786484455,0.413532134243692,0.406463449921428,0.439110854838438,0.436085651372525,0.446381548281272,0.448985196086958,0.448539236603037,0.467041854704246,0.467208688239296,0.453962023957803,0.459641198034487,0.448722756509679,0.48152824889919,0.503736411290094,0.494728306189478,0.495746437053402,0.490852551857614,0.513927262934489,0.514996670254958,0.525749886201876,0.514135125757002,0.51277053351575,0.516855529587217,0.522481915296793,0.521440636130578,0.505418666840536,0.516976553648722,0.572243247876276,0.570457334064372,0.572803154579855,0.538470519947461,0.528504534516235,0.53826105436546,0.532787021572455,0.563765211283586,0.567306122622554,0.569732189176934,0.601165016732121,0.583865689214613,0.583376104482368,0.581345469799724,0.577244788698031,0.607515177796081,0.620428933310482,0.622661933951638,0.624585027635984,0.623127963320877,0.620993300964993,0.622923595895537,0.610854147321727,0.621458362703924,0.62148806594694,0.653010444506808,0.670733732269974,0.671970714014601,0.684744620725025,0.681886272550614,0.677558157155412,0.684984798718571,0.6971798921345,0.696719147080134,0.696602693708027,0.696236213576431
0.102743033925221,0.17191134471341,0.176804913167978,0.180562111281465,0.184401808429835,0.186247822409066,0,0.000915164193459894,0,0.210010509914012,0.210484983021043,0.210813073112168,0.211473611542344,0.211798756258139,0.212950458182903,0.213855575164993,0.215149160253717,0.21637347623836,0.218970297140164,0.222009012155113,0.224740895679965,0.22676149525417,0.229450649097409,0.234310743184207,0.239670531870519,0.242947382083787,0.245193781366061,0.24794779104108,0.250762077532514,0.252497691756313,0.253664763365304,0.254948163932825,0.25678721219557,0.259213414775822,0.260602116362739,0.262544109403896,0.264862446515198,0.267187232650799,0.268219485143147,0.269356694774305,0.270080465341923,0.271044512264612,0.27242078317884,0.273779341673606,0.274839761197584,0.277332215833307,0.278847593104121,0.280265142334486,0.281647292090696,0.285884933683965,0.286710636013699,0.286793952677511,0.28081025640684,0.246172782008968,0.248592365021647,0.274288279411179,0.306862819408994,0.30652334261437,0.305716153475067,0.305287945665964,0.306275197812873,0.306075012920311,0.303842278572967,0.299759179903776,0.309190871771084,0.310000201090515,0.311323206612577,0.312781857437972,0.313605602111561,0.314410641579187,0.313865558789344,0.313724137338771,0.312977256213119,0.325898698338077,0.342014367401619,0.34425066131629,0.344316733216704,0.344132191078924,0.345599762910277,0.348456843849741,0.352439949140478,0.352714708538168,0.354320813234068,0.355071854350802,0.354085237515339,0.354792838164861,0.359749085935798,0.363710644369133,0.368091319259835,0.372634884847323,0.377220399437258,0.381679007197833,0.385775742886531,0.38933510484129,0.392372716181437,0.395046293791914,0.398615261122297,0.402325376222259,0.406448160061572,0.410564714676154,0.416231103939159,0.42064263204283,0.425968183366132,0.429673703806761,0.432830635855908,0.435620692578448,0.438295814873303,0.438978191810299,0.442847323612289,0.445741192914185,0.445413713503825,0.468565918661219,0.470597921540437,0.472851080234985,0.475472511119555,0.477713418471449,0.479983505379297,0.48140208046159,0.484334959043891,0.485717214982711,0.487873349877429,0.506389929343625,0.513448685135113,0.512737757055197,0.512724059258013,0.513030679485224,0.513442759316522,0.514221459210497,0.518412606181219,0.518740372147898,0.51922185015337,0.563763846220402,0.566332140990079,0.566418501990403,0.546350956138893,0.54532804568852,0.550201845218209,0.552712097846789,0.567596868768945,0.569731385010683,0.572049722014297,0.585370145260965,0.584461721370981,0.583784543757235,0.583143754988206,0.58353231689308,0.61246733752742,0.622050652565535,0.624231830941125,0.628526318086342,0.634105416654764,0.639552743782522,0.644601899961971,0.646653898752051,0.648902571930025,0.657965840032581,0.663188029820975,0.67336703406663,0.673624261857128,0.687341387538314,0.690047689831623,0.6914358944117,0.69359485054367,0.695419286980401,0.696171637026336,0.696451721044032,0.696239018831488
0.0748630754674247,0.167315468281257,0.0973442180145326,0.0025377307333827,0.104563212597326,0.18882012271672,0,0.00179682921887995,0,0.211037137345981,0.211036689177078,0.211631265408135,0.211983333352053,0.212466805768061,0.212673095483352,0.212706630970687,0.213728093216121,0.213685054584099,0.217617727854202,0.220584114028479,0.222563145152283,0.223714865760333,0.2280847258359,0.00309988999999711,0.241130327680822,0.242800770198632,0.245903523455794,0.248954390461924,0.250640657007565,0.25111257929636,0.253630244262654,0.254464838107455,0.257833407423776,0.260887879147197,0.262444232792008,0.264441313485113,0.26603416561503,0.267317907637246,0.268681379948961,0.269235970925027,0.270516670374935,0.270451555697278,0.273434123326696,0.275607793437216,0.276681835008522,0.278672759541974,0.279397522802473,0.280624247495535,0.28220280099171,0.284390126664312,0.285210707168455,0.284549825148436,0.28262352976255,0.243537380204807,0.252866664574016,0.256922537242741,0.306105295738825,0.304762460963402,0.305744545661137,0.304294557253396,0.307970020138578,0.310376621808013,0.306644445617104,0.296766776610633,0.318232206512756,0.327783201551848,0.328264410766328,0.33084063852991,0.313887191045281,0.315470855073937,0.312930642465911,0.310910145966355,0.310616930562318,0.309366585111134,0.344756665088424,0.345648017517356,0.345999308200657,0.353831931373281,0.346921696618829,0.338996185515905,0.340509189280026,0.336437641324241,0.352089492985304,0.379568999736564,0.354059032416205,0.353741660003663,0.360955576541855,0.386013473508058,0.37981260040667,0.379994998065102,0.379148711329694,0.405447487190862,0.40300980113639,0.40554224793415,0.407541592155153,0.421473586118842,0.420272853175096,0.420390287656608,0.4177998997697,0.411476030651391,0.421368404379304,0.425330863428616,0.427005145513964,0.442582326591539,0.439840878950124,0.44087811870482,0.439558834043001,0.438680274207526,0.440232972984114,0.437672361526309,0.442442332826438,0.478291381318255,0.474126427229143,0.476245255125273,0.475897303468442,0.493724999906964,0.468290774146051,0.460401967570648,0.461916136444385,0.464091489471505,0.466297861243196,0.469538991790597,0.512315191055268,0.511774268057957,0.510853895925823,0.498321070798105,0.509412670542408,0.50892603215133,0.518668164856726,0.518645254237536,0.526174719467285,0.561137523652671,0.564715157492383,0.566651710730244,0.546463753349565,0.53910447440024,0.55271194316334,0.555477190572933,0.570928328785228,0.571935099244895,0.574894314078169,0.586519896892021,0.584958862430053,0.584125989009117,0.583631627017945,0.583418495024,0.616466155922792,0.634535836112073,0.637079931664099,0.665687999988938,0.647973233943817,0.649020153255882,0.647393083606308,0.655462944104046,0.651521643131562,0.67480684243538,0.675629195481286,0.678430146782354,0.676014999393164,0.692889587963209,0.692657117236195,0.693901484639893,0.694298773104758,0.694672581706535,0.695928885590179,0.696769474406102,0.229690103131311
0.000716740263097426,0.000280625465388975,0,0.000273599180751013,0,0,0,0,0,0.119489838728641,0.144130013009202,0.21244130069762,0.212474938695794,0.212606746650749,0.212724311021603,0.212866982886249,0.213502427368532,0.214344485212641,0.217236847231734,0.219663473127419,0.221145617248291,0.227982901062595,0.232646931545157,0.236526561268447,0.2410363200998,0.243535508833362,0.246168132251833,0.249111354743471,0.250934157090293,0.253055817333244,0.254241161960984,0.255991933694044,0.257946185467156,0.260321061934069,0.26255280564576,0.265251725427995,0.266469660127276,0.268055864544814,0.269068487943787,0.27014611228067,0.271717165020933,0.273298839855751,0.274974070194972,0.27660101455737,0.277698240005829,0.278865322056567,0.279772698455937,0.280812577967103,0.282359942018745,0.285418826519291,0.28961755003336,0.293801542809652,0.297842776973268,0.30151619575391,0.304577048001326,0.306860771919428,0.30684479553543,0.306673704037923,0.30852475902131,0.311148591149446,0.311427015301536,0.313218844474287,0.316040402860472,0.317461576242318,0.319003286665064,0.32550992300101,0.326272959338461,0.328589664281314,0.313180401451561,0.313340180664033,0.311592817307527,0.309777683337956,0.309367272484977,0.309062563115942,0.346649666786764,0.347676742664571,0.347533337282258,0.348317470973866,0.34610523216624,0.343631552437367,0.344257732178179,0.347327772901481,0.350375069313113,0.352038338019859,0.354424404631947,0.356927950952256,0.36240262477642,0.373275719862976,0.375719482292012,0.37632893557287,0.378482162905697,0.394709060875768,0.398872774120512,0.402088577902117,0.409542571152575,0.414467720708794,0.418614940107392,0.419999242129048,0.421286872999523,0.424065063655447,0.425159560593847,0.4272472948216,0.429064602259451,0.431905423514066,0.435730833423969,0.437303847311353,0.440451780791869,0.440246425373046,0.441773325367731,0.440583878420878,0.440680469592802,0.439675062428642,0.440093742150873,0.441834874201813,0.444748367517641,0.448663709920928,0.453289798008171,0.458282673126312,0.461238430792304,0.463408389706007,0.465298261495122,0.467391477975703,0.511396436950285,0.510450839108169,0.507758047436116,0.503774775991733,0.505811808954597,0.513610619103937,0.518681130357749,0.526487889225163,0.533811278249822,0.546781910259733,0.545838032581468,0.545531655529586,0.545674035083663,0.55850343509393,0.5648364415936,0.570048249060445,0.573273463048052,0.575710092641865,0.579017014138576,0.588698487457475,0.591156415814886,0.604539494072974,0.609774396945669,0.616398486121392,0.619029756809751,0.637491408834877,0.638668809619537,0.644536755956,0.64675713569568,0.647693463544928,0.648285602429487,0.649436915096656,0.650433761934843,0.676201478267314,0.676533458588893,0.677254052420566,0.676540036445796,0.693605313960607,0.693911590447711,0.694701447985154,0.695109866596743,0.695522177596867,0.69599235849568,0.69636674560987,0.18443307608121
0.00175458400698297,0.00222392512497828,0.00110317929902812,0.182296999999999,0.00114900448109784,0.00199830895530264,0.000126343419598651,0.180251999999999,0.00161794089821797,0.00278709245066075,0.100956062828898,0.21325927558903,0.212852993469632,0.212851935482469,0.21272325289552,0.212634951617548,0.21303704374257,0.213007379179655,0.122971786442425,0.00323535865432411,0.135532014088868,0.242456526443565,0.237337978461029,0.244115360355227,0.243415125779272,0.243901285315416,0.246602022345752,0.249792582231139,0.251440577667289,0.255204554163571,0.254980256434368,0.256363905915537,0.258486084604132,0.258790618368656,0.263019778163572,0.266456643651306,0.267282224140124,0.268435478603156,0.269990028803886,0.269839777792182,0.273334244475672,0.275628128380043,0.276785922392665,0.278045079862931,0.278733500717066,0.279533099494262,0.280131227280399,0.280857929419528,0.281251157353156,0.30326996139444,0.302422479602382,0.309382222635538,0.309863753451977,0.310172563731644,0.310432517714258,0.310198327511786,0.311111962561551,0.320024104052344,0.315726633702521,0.313978178012331,0.313907343315682,0.315459702330689,0.317661420070398,0.321817779975439,0.320799284831983,0.322749830296849,0.323093828390755,0.341629012363752,0.313140685913301,0.313462649398832,0.31072531145045,0.307466266479554,0.308432099693848,0.308793921324811,0.347236261767801,0.350725720655865,0.347922748304473,0.345546030050738,0.345822686102686,0.345112208789903,0.345394612215808,0.367245771378444,0.350284646134263,0.351431357001417,0.354629819156887,0.359512654973679,0.367396013683164,0.371026297474429,0.373459016921084,0.37124500522351,0.380363887029562,0.390343963350222,0.39573620591861,0.0028863799999971,0.411435861697698,0.409991288388249,0.419323623825371,0.419237585849841,0.422892288399875,0.425056051828182,0.427164525228572,0.428643698000563,0.429605272968328,0.430302833396353,0.433505506226823,0.431124094848178,0.444716170846551,0.455662934044376,0.446893331332672,0.442726529914784,0.441171418368051,0.436384101550844,0.436875868098985,0.436760995565796,0.436920293809147,0.436035073713497,0.44438915570831,0.44328206910277,0.461202226303684,0.46292495488059,0.464122565304926,0.444540000054089,0.51093143389345,0.529633999965704,0.505695248064491,0.502967597445663,0.504292140175656,0.570959999974526,0.552183177268508,0.584156000006313,0.548886621826448,0.548737702284856,0.546131978374757,0.54456722898377,0.544854004459343,0.572614021565421,0.573004035791952,0.573356974426319,0.575860951393039,0.589881572094845,0.585438624371292,0.599390802672515,0.59413089601283,0.618699116121142,0.611518869784162,0.622499409845991,0.620385528213325,0.63874799865294,0.638388197226794,0.644751468447205,0.622017381297441,0.00341023999999712,0.0927994151986432,0.00307146999999711,0.617974870172218,0.67733966991954,0.677200805480405,0.677856554115493,0.676963923984229,0.693971018671572,0.694660959935582,0.695854506798649,0.695889761296633,0.696293544316177,0.696135492186223,0.825017999999999,0.139710032301127
0.00240713158520085,0.00228800994974312,0.00193991523611807,0.00215935784322747,0.00194643793322527,0.00204790630232655,0.00169123464911999,0.00218787858826022,0.00223453342868104,0.00258713329003927,0.00237608500423683,0.00185564934940648,0.000537116367211133,0.000358860379475472,0,0,0.000421229190222465,0.00192705747016284,0.00260764441560458,0.00300394764661447,0.093432306215455,0.133578049644843,0.173699977856034,0.244593860566842,0.244514919025768,0.245085045787183,0.24612331342656,0.24763869431228,0.249175512859211,0.252447222746637,0.253535367819868,0.258024434652611,0.260036127235669,0.261847237643657,0.263390126148965,0.265211699909345,0.266961211733887,0.270630750754072,0.271927111752906,0.273793252217377,0.27563660830641,0.277516181378882,0.278289367577277,0.27913300932864,0.27972703863025,0.280248367269192,0.2806828715696,0.280897682495679,0.281127696315284,0.295931153439576,0.301019033724561,0.308997561417736,0.309910511635748,0.31056368168937,0.311167802667985,0.311789317381617,0.313512165438808,0.316723056054777,0.316001472493003,0.314881861980062,0.315261118252398,0.315944983036387,0.317689864183918,0.31964495687956,0.320017156292742,0.320238530556742,0.318581757681472,0.315601861744601,0.313450565963216,0.312368366071081,0.310586900553715,0.308935037665404,0.325256562757087,0.334157422072383,0.347910515867026,0.348783820750547,0.347838858858757,0.346944957925227,0.346584885379855,0.346454779767256,0.346825456459672,0.348155426430538,0.349377559701358,0.35058905195718,0.353128241987356,0.356349932105576,0.36936511608237,0.371988520947993,0.375747797367036,0.38065211999702,0.382731606744115,0.386711142120436,0.399259404787702,0.407100565501852,0.414627015814632,0.41552199265387,0.419504979777477,0.422624231543672,0.42545222820305,0.42731630556408,0.429140163853682,0.429960215625979,0.430041461455564,0.430152375455851,0.438724203630969,0.445468740024217,0.449080897381745,0.453524106054296,0.451087928523462,0.446969347500316,0.443252740193793,0.440173776917288,0.437905790576147,0.437566026072095,0.438306086330772,0.44099574718622,0.445732385187918,0.448931131507121,0.459089318475083,0.459455464175362,0.475438295330164,0.490620647101249,0.509886688501826,0.50823900473347,0.506176722655101,0.504445187920694,0.504268599712394,0.526883254773731,0.546757867790225,0.550326304770574,0.548993905484833,0.547780416188958,0.545999016676821,0.544819465579665,0.544550643841613,0.567769563925692,0.573304454770959,0.577403364078364,0.580981724803264,0.588813039642637,0.588078951682386,0.590163749619025,0.592099464248117,0.606009104663669,0.607759239945592,0.621358844911193,0.619422039332531,0.638137363477448,0.637409400606777,0.621898300815709,0.617898708848849,0.588266725287944,0.588183998974801,0.588389223219289,0.615560057279302,0.621260328853613,0.624986482999973,0.626642065016118,0.627100566738306,0.693997867603402,0.694824866867181,0.695804637097355,0.696264101260966,0.696672324974045,0.187362891765471,0.139677082313758,0.0949889464891116
0.00285935548157785,0.00298399109075459,0.00266430792606366,0.00290748186271681,0.00259003539316786,0.00278978123081656,0.00249560584185735,0.00285373786776009,0.0027219242739224,0.0030200603673475,0.00275318544181634,0.0028261366988525,0.00205427263773139,0.00242999165245379,0.00179442980517894,0.00235200593586023,0.00201620369937844,0.00282108966643112,0.00287956738955262,0.00310752738193113,0.00320238397725832,0.00339158694470837,0.147114844170255,0.245093300843856,0.245090172979256,0.245548481456391,0.245487320454128,0.244990348565336,0.24540834013017,0.24263324706032,0.249355399823425,0.261840780955579,0.262206256356532,0.264663174325644,0.263905666792845,0.263484786371497,0.265120400399279,0.274793923279754,0.273629688654011,0.27731681034934,0.278093280533371,0.280215753098374,0.279828407050814,0.280449538341246,0.280767292483007,0.281250116630161,0.281553205218209,0.28138780304707,0.281864242716934,0.279546614949479,0.298992793507637,0.307554784821809,0.310093822299725,0.310969428295399,0.312155196241433,0.312592583980135,0.315052372273753,0.317762445019116,0.317300654269055,0.00322100999999712,0.316909552981236,0.329110687499482,0.318110052472656,0.00295417414825889,0.0023007852857068,0.00238996320206696,0.00127477578282456,0.0022243002885021,0.167453749338732,0.355797000002332,0.13701552052913,0.00269455655953282,0.335716257628247,0.372679221869389,0.374414385217952,0.41947900000719,0.356375167934885,0.347863566556282,0.347275540522409,0.347427241073878,0.347556818007404,0.348651875815426,0.348782379406991,0.348562328545094,0.350904966793985,0.00318387999999711,0.377217165992209,0.383791579944571,0.382856496922314,0.383196788525897,0.383044927460782,0.00315174999999711,0.402004520327131,0.417433760806649,0.416736787982633,0.417686254863658,0.420207090464233,0.427615086304467,0.428806662967674,0.432979153214231,0.432187944820916,0.431811424684775,0.430626503521157,0.430156858350877,0.441611827547772,0.457612559356682,0.458733096581297,0.458905038570597,0.457085215916745,0.459496351635812,0.458529665441553,0.469592856210754,0.470424280999465,0.491371758970785,0.468858880593221,0.439638928987327,0.449094184148169,0.452869873915532,0.456066787204634,0.455979852202317,0.487684025246796,0.532439256714516,0.52186732949964,0.00333783999999712,0.0927141111583357,0.00317786999999711,0.092964225017157,0.00325816999999711,0.547250287861295,0.551621131239801,0.157931948339288,0.00283710980857268,0.00275844706799102,0.00306777229510136,0.00265018657591273,0.00303167178770241,0.574361612504901,0.591272800052905,0.587576508546717,0.590242616641831,0.154448901981314,0.00339393727696744,0.00335877412626453,0.00327853508791555,0.00336849673700432,0.00341370199777459,0.617430330283051,0.638268340405069,0.635729344410656,0.00306148999999711,0.1820305618716,0.589970626094107,0.589633248508241,0.590148729158199,0.590950705992838,0.0029340699999971,0.0927560577596655,0.00338645999999611,0.547828873374358,0.693111003025413,0.694739335372363,0.696220890668249,0.696650281711323,0.697447364174599,0.136909045732489,0.00330645935149642,0.00328100274157449
0.00313118153498853,0.0030740895465101,0.0030296839171889,0.00298619869039174,0.00293544122579841,0.00288803276247497,0.0028687880899633,0.00291060149314241,0.00295019093858153,0.00298509719153391,0.00293970114460628,0.00284224526630096,0.00262466068504164,0.00260798373859169,0.00248663387230265,0.00258414091561026,0.00260374188953915,0.00284971610560661,0.00297684546754505,0.00307785639736005,0.0031374741813119,0.00319183863744641,0.120509463811985,0.245012301380237,0.245095145955021,0.245257776265052,0.245138636700657,0.244880403963346,0.244607502114861,0.244189971250922,0.246426515256548,0.248777523315611,0.25156745834552,0.254690797329812,0.258235181548816,0.26216053881905,0.264846135793049,0.26747693913698,0.270394794177555,0.278426043347336,0.278902519515414,0.279877146832466,0.280269959577607,0.28093941511652,0.28173331801033,0.282732422003692,0.283128289761993,0.283758014328702,0.285671065730151,0.28913683155049,0.296561625489646,0.309695972538654,0.311729585845239,0.313048533350615,0.313859721899482,0.315257661532575,0.316509209546241,0.318121785324085,0.31844664510833,0.319175181418605,0.318863606212093,0.319379089787394,0.319191639550384,0.00251080722729961,0.0017212622914334,0,0,0,0,0,0,0.00149514002793331,0.345070135073005,0.374523307925579,0.375893709307061,0.378195159274991,0.380330083463897,0.382308544339592,0.383711958875933,0.384954874319868,0.386303881921158,0.387853266605583,0.388226220911169,0.388665420345691,0.389537917312098,0.391925467034648,0.394337244959067,0.396539012340621,0.398449703520026,0.400245564713297,0.402065841293235,0.403791254312556,0.405188545577884,0.416052010688831,0.417085261136948,0.420718459847986,0.423154905748644,0.426456471332253,0.429250789639467,0.432110295916775,0.434743045793502,0.438331152565886,0.443065855691294,0.445199360490143,0.444765828605447,0.459651675930096,0.459762927781244,0.459765796645266,0.458973840065691,0.458687441287812,0.457940970599824,0.470368532739889,0.471891813662016,0.479311779630036,0.472972731949778,0.46710270493263,0.461965501638276,0.457549772611029,0.480841584059521,0.488065516436709,0.503334798492621,0.535549512863061,0.536971061795596,0.538177465114613,0.539732091393225,0.540980143508217,0.543025675047745,0.544516636696268,0.546752338826142,0.157931953557651,0.113294680147306,0.00253092183939059,0.00235264348717485,0.00236704643136825,0.00176284412456721,0.131608068153003,0.576457209354201,0.577403389882256,0.577439031049923,0.154448900035397,0.109392896032173,0.00338336649459202,0.00338670595178148,0.00337525330874007,0.00340112995799053,0.00339359221978008,0.616543740807084,0.636205749160944,0.631758344259815,0.0926574233759355,0.137343730401191,0.182030561029671,0.591319662784244,0.591060398584034,0.592568003760922,0.18212694882222,0.137441050429958,0.0927560577597338,0.547755279093803,0.547828873384667,0.266974926787209,0.222731923386347,0.17889710874271,0.135409642635812,0.0922000652576667,0.00326763487983949,0.00327316565725603
0.00315963086936229,0.00324562800077786,0.00317193601137208,0.003217017780906,0.003099733658408,0.00312473253311922,0.00305021093657731,0.00316454646468083,0.00308408656618464,0.00321978874485937,0.00306730428002118,0.00317172117053827,0.00293453208858872,0.00307260603031646,0.00287421488592211,0.00303120355679061,0.00291706639394614,0.00310807804736751,0.00306185140214316,0.00314117995286426,0.00308543054705815,0.00308092271714333,0.0939115790918284,0.244847598556062,0.134257929146293,0.00287545966785326,0.157019637173414,0.244766655820473,0.244191836856698,0.243330629104596,0.244032955626505,0.242713138775892,0.243038772824157,0.243534091284634,0.178259280256098,0.00280160620664961,0.00237037355459084,0.00323622790472422,0.267850261495281,0.278847413371877,0.279186965289693,0.279961273039438,0.280463543620612,0.281343132288071,0.282451090575959,0.284939479080438,0.284344541036397,0.284958036160922,0.28779021045763,0.292248821583723,0.293891345583392,0.444645999999999,0.313827224919675,0.315409886632011,0.314977974476936,0.317939948453166,0.31780892579904,0.319743462132501,0.319451984113653,0.320192587809533,0.320128817552145,0.320077898296494,0.320383837974217,0.00305642243259923,0.00221604614982962,0.345904999999999,0.157737397201529,0.345886999999999,0,0.00196535037666749,0.00159046186524064,0.00252310993014559,0.352897826598656,0.374808132549968,0.376120782670494,0.377827579216633,0.379740327987514,0.38201887699612,0.382910979606248,0.383984387038373,0.385349961070388,0.388639704232696,0.388038969017797,0.388300028604712,0.388184790777917,0.402865302627592,0.404883181863825,0.408900776553214,0.409361734195315,0.409730612240576,0.410227643456513,0.409471311743435,0.409899815739375,0.413559283490039,0.414784819258802,0.424840541248421,0.425266911182623,0.42577922029044,0.429791765568221,0.431571530881453,0.436432665775055,0.448291137242121,0.447372480259132,0.448050583898154,0.447683396432868,0.461747257374196,0.461158001714759,0.461553957942353,0.460640328775441,0.00320464999999711,0.457408281810243,0.481469227888356,0.475726194243078,0.49846213012846,0.499244653740901,0.498447549204238,0.487214603301473,0.0030115799999971,0.493629608525384,0.523909437435544,0.523734981409086,0.534003536910937,0.534355519124771,0.535583591013918,0.537705646408817,0.537831735840042,0.540913582484992,0.541028853985421,0.545569300599072,0.00258864719981922,0.0017453502702443,0.00240130425036772,0.00174660618985031,0.0022290172252637,0.000217357759870396,0.57959551958107,0.578504323638985,0.579117646342805,0.578367241351595,0.00340983326642078,0.00341175673616003,0.00334452405273417,0.00340880532551822,0.00340855794650939,0.0034449269189998,0.00335505179181863,0.616851659828171,0.640094893895072,0.625751903478384,0.00328501999999654,0.0926574233805461,0.00317060999999711,0.594289176293757,0.59796259838168,0.597192687285561,0.598324305907051,0.18212695020184,0.0030102099999971,0.547546564424354,1.40573,0.177575263637717,0.00323930347526339,0.00315362198792962,0.00305286637088213,0.00314490122532187,0.00322359485271581,0.00324858392858266
0.00327737714518247,0.003298393003135,0.00332815479291635,0.00323839881827228,0.00326869220647289,0.00318571354444791,0.00322634268044098,0.00316178139199453,0.00321351587761677,0.00316835127271799,0.00316526702740521,0.00309117202411178,0.00311553475844088,0.00311038395672889,0.00310237803764263,0.00306139961654086,0.00308423518316778,0.0030856491587108,0.00311000520600691,0.00309169284752492,0.00303168119455514,0.00284113364665037,0.00205524069271472,0.000839652842198554,0.00101510756327291,0.00218859271148236,0.116200754220816,0.153052626635986,0.236792761579713,0.239720639690636,0.240412618161651,0.24153749530444,0.241918060585689,0.24277333310905,0.139756256447888,0.00209002872872641,0.0012298398419963,0.135139526677824,0.261781009759846,0.267536596815316,0.278970783108682,0.279790611260871,0.280298286771871,0.281020991334259,0.281894628665874,0.283095661176396,0.284447171028427,0.286208802338588,0.288481376117073,0.291079871249549,0.292712851656646,0.298443637440788,0.300941451579584,0.306449935722586,0.31248667787059,0.31517469615805,0.316853606892432,0.318384982663199,0.319374428469608,0.320489853618109,0.321277822370396,0.321593635297257,0.321969433407224,0.00266037033161309,0.00211058260505497,0.00137267581381287,0,0,0.000955114786640715,0.0018980262487806,0.00200137262630447,0.00233033084199058,0.358882768989986,0.375117417260425,0.375724824646088,0.376869804000322,0.378282476436169,0.379782443609946,0.381290225673271,0.382654171769007,0.383819985463881,0.385246501140009,0.386911602498804,0.387359112694063,0.386959503954884,0.404921003646103,0.406097252695801,0.408045683321435,0.409522990092291,0.410885794060627,0.411605632102716,0.41204097745701,0.411523714963258,0.412862974810396,0.413735499953864,0.427037745050553,0.427255171336025,0.428542490617043,0.432593835617987,0.435146596523995,0.437593020672856,0.448990990985641,0.44922838186594,0.450146260359434,0.450145285209637,0.46186108327607,0.461883138566252,0.461814657462462,0.461678091932302,0.461211808114268,0.45845297588983,0.47113141523328,0.472688451406699,0.500674535823549,0.500844386548682,0.501390105352724,0.503549908969291,0.505911680816653,0.50794406734142,0.522368323743601,0.52297754138391,0.530578025445142,0.532021900130219,0.535052129041919,0.536911202529745,0.538222539323739,0.540411951955515,0.542229112450722,0.54530390894981,0.00201213368044123,0.000279916974738864,0,0,0.00119833388884393,0,0.579529283298828,0.579296503708817,0.579523975605661,0.579172842453158,0.122115585981421,0.00342260651812191,0.00342017224278951,0.00345110921019361,0.00346075149430223,0.0035459561797478,0.122551786097401,0.618356212310173,0.619649869026471,0.620701148983257,0.617655314081431,0.612152772483389,0.607935806352822,0.60475106483546,0.602049320641131,0.599503171025756,0.547825510131297,0.547752383915258,0.547545008432843,0.547316919976605,0.177575271592702,0.133192703747971,0.00324157868345337,0.00317751113887559,0.003125897739167,0.00317572856305077,0.00321876921073399,0.00325004084458902
0.00326365720034683,0.00352335365947855,0.00332493190268565,0.00327144272886389,0.00325958097093834,0.00327279816811998,0.00323173701892312,0.00324293397350706,0.00321162597007692,0.00332978208876007,0.00315396702963433,0.00319212564326207,0.00315971748810807,0.00341261175967355,0.0031894584957041,0.00324302833257029,0.00314475508784483,0.00318199688947465,0.00315285270416942,0.00313696690271481,0.00313068789147901,0.00324943113903561,0.00263745143708652,0.00268889870012615,0.00212347010915522,0.0028777190428948,0.0823318876909337,0.00295204000008468,0.233172846587795,0.239261039214923,0.237481052762215,0.00321309219930016,0.128326690230194,0.243111742367235,0.101334601781092,0.00238427952857467,0,0.248157801863277,0.247780018923453,0.247359439104568,0.278063837943593,0.279981071064161,0.279972044476869,0.280624969223409,0.28100502581888,0.281209851270637,0.284063299363969,0.287005208612326,0.288723687096281,0.290813337961029,0.293026610260367,0.296692050621155,0.296618413118192,0.29670277290151,0.313315350427241,0.313149273093948,0.316091229624877,0.317417449966384,0.319485310096616,0.321057438904066,0.323092015914742,0.326583945929785,0.324213050914303,0.00297399703229792,0.00249557315825367,0.00254981390310306,0.00157894355357336,0.00222198898569513,0.00197598491954907,0.00285009151637141,0.00244164661231642,0.00269616822287886,0.362072672946791,0.374719940761047,0.374661269847127,0.375392004657466,0.376456968239363,0.377139250511082,0.379400497219229,0.381099068716502,0.38163287448986,0.381415530820554,0.181976237370961,0.00318544999999711,0.385726863574246,0.405696340072896,0.406402119276916,0.407624989548599,0.409852223516215,0.412787898352531,0.413360597466737,0.415748348353139,0.173061208176722,0.00332348999991386,0.169536654691323,0.428964235528605,0.428163167119288,0.439194610350887,0.436798165388207,0.438560163669646,0.440495696977492,0.44973456126016,0.450558845168564,0.453144216923382,0.451786815211975,0.462832041353489,0.463208022678633,0.462563037500602,0.463690925347713,0.464516041339513,0.272924361673003,0.00323818000079097,0.12897044946153,0.502742023775253,0.502082295792938,0.502673275519918,0.503168277083239,0.511031815770341,0.509616028977681,0.519801933352034,0.521668409187308,0.527097125095598,0.529132543720631,0.536157424095003,0.536798727460646,0.537650364986545,0.539638303825174,0.540159983939502,0.543832712582114,0.00320414529599212,0.133464163140204,0.551945003691754,0.107506559248051,0.00255969973766477,0.00160796169916256,0.579879537594759,0.57994089854495,0.580830614501196,0.58008114504344,0.580475601192567,0.00335901327893107,0.003393882855405,0.00343697461559756,0.00334173256695358,0.00360275739421003,0.620787676444758,0.61959988761461,0.620798355629628,0.620770470036037,0.621142207545302,0.621296260522757,0.657561859663095,0.654148220384477,0.655723875439546,0.615638593521132,0.00319159999999711,0.547825510131297,0.673410000000718,0.546899690278922,0.00324078999971477,0.0894000663812358,0.00331621107853085,0.00317968367302865,0.00313283725869464,0.00317323543299702,0.00328849019095821,0.00322218590269169
0.00327755654839938,0.00333596324558203,0.0033483240476843,0.0032925455426013,0.00336365433416828,0.00330086443755844,0.00335605837845067,0.00326022730210467,0.00330641096484768,0.00321284340210035,0.003231806955698,0.0031397287322999,0.00322892825887697,0.0032203971861396,0.00327032276742303,0.0032230614910161,0.00326440733361788,0.00322651602020883,0.00326604909503827,0.0339506673377345,0.0535417902789486,0.074979459602701,0.092243074614743,0.109385754261686,0.127077432917706,0.144063925006866,0.16499633330588,0.184932489053162,0.210973562325207,0.211054047267859,0.210346331012091,0.00312689869055103,0.00298871301582208,0.00288064809547704,0.00266558442316835,0.00230404920280281,0.00145457844064537,0.107366162137528,0.14801443189743,0.188838342909602,0.277397734497881,0.278610175120744,0.279043992695638,0.279748822461519,0.28035275122474,0.281325855193587,0.283628204643861,0.287132600610009,0.288698593367426,0.290365376387947,0.292013556447,0.294366298883961,0.294727130538783,0.295429654619034,0.313799881835765,0.315447454427143,0.316654746527061,0.319226343363682,0.320128706643376,0.321653403826137,0.323566720353839,0.325731636034947,0.3245775764348,0.241025942953338,0.201563210693499,0.162179382462352,0.122911020902039,0.0839683897668165,0.127117089631518,0.170733383023341,0.214658191625774,0.258949848618621,0.364048809672172,0.372034981602298,0.372704449713888,0.373454890117709,0.374787221911937,0.375990121815203,0.377797297644456,0.379245112324302,0.379985604666629,0.181976237370961,0.137288493280552,0.0926009039709987,0.38526179020891,0.405806260552151,0.406176515962242,0.407312180284502,0.409475467660939,0.411797720240262,0.342663196587515,0.173061208176636,0.128759955186033,0.0852182907120918,0.125411401918304,0.166705473886502,0.208696810948618,0.251512694262089,0.295241899636543,0.441673941737734,0.44489767130131,0.448689659596617,0.450268556152587,0.451738508468781,0.4518209870856,0.464309986824943,0.465869222301604,0.464856174153274,0.466414090205697,0.465212834697846,0.228645011603405,0.045790295742387,0.070154396976024,0.0946313972428396,0.116827959121042,0.137587581540894,0.157664010972705,0.177371219854001,0.196564344542464,0.215191073698427,0.240491082467839,0.270866139816191,0.304615885367776,0.341912558853667,0.382874648855874,0.539353752060141,0.540221998661225,0.54119326329995,0.542737659736304,0.54247894207967,0.542384333168754,0.542363331037782,0.14311842317564,0.00262359035950473,0.00220511341643589,0.001707358817701,0,0.000641979633236142,0.00198491978946659,0.00278233661259218,0.0031968123738647,0.00334590762765429,0.00347440567765896,0.0035599934645753,0.00369019638634749,0.620075371284407,0.619076431385029,0.620032833502401,0.621180673811835,0.622110479288563,0.622089710191842,0.642130199511076,0.651572152150683,0.653327909309166,0.653878049868046,0.655152394329566,0.656257198583953,0.657974410322589,0.54665000245403,0.176983673231286,0.132641376342112,0.00312644846547829,0.00312568341499766,0.00312395419699952,0.00317559217443295,0.00319272566671487,0.00325561863274778
