0.101158825593262,0.101655376580824,0.10117934354587,0.100569882980217,0.0999434428886762,0.0998465247264508,0.0993222492322575,0.0579572888017953,0.00324944627933111,0.00336991416208063,0.00334424827099649,0.00338765449435132,0.00331808629024835,0.0723446444227916,0.0752276364241326,0.0754506518789733,0.0751891911154011,0.0744991852505293,0.075073864845371,0.0582492322316875,0.0571140676478974,0.0546399791672677,0.0475227210139584,0.0472268150637471,0.00317242999770652,0.0409164534352813,0.0411724640386468,0.0401118869146279,0.0388007128743983,0.0328418625132635,0.00343783753406525,0.00521941811820041,0.00451508415950135,0.00457263914728435,0.00405284557394112,0.0146708893385498,0.0235041767666798,0.00731535885500925,0.005837185322791,0.00496678601992555,0.00458152316522752,0.00524659736921999,0.00656042908201136,0.00512950140199735,0.00455274912210754,0.00406259959501339,0.00421837890827885,0.00350381215756015,0.00329316382096272,0.00311918517052825,0.0032119464982066,0.0141868997190168,0.0388500890214999,0.0166026974749939,0.00312731677358868,0.00317533869396468,0.00319658818083837,0.00334449074249162,0.00331233347155947,0.00345263501205863,0.00340645121400213,0.00344815610286761,0.00332151267441561,0.00338307207037896,0.00307949318247795,0.0883354574199512,0.0929846080004117,0.0934951212637983,0.0952775627026293,0.0958262714786071,0.0975918114036075,0.0977536994789266,0.0987305913553206,0.0986737752537642,0.098918529041113,0.0985097597138082,0.0983988255323977,0.0963051070507975,0.0945883253963149,0.0942655705774,0.0935446450827342,0.0553391564737046,0.00317611999612214,0.0534511083439568,0.135718953618486,0.136454736707885,0.137594526679771,0.13738418560214,0.137787092215748,0.138717286665939,0.137691235294517,0.140665892114058,0.142827918393445,0.142112762871509,0.158081200878644,0.156589124212649,0.157615276445192,0.158180117325224,0.157260222739068,0.168088319154595,0.171529103277159,0.170876993907157,0.170693517450737,0.171115680626992,0.00321222999993303,0.108758015347672,0.192610311894686,0.190590582742258,0.191588363718015,0.190143088622132,0.00304965463737831,0.00303915035073232,0.0031079051577989,0.21780899932102,0.224452830145094,0.224117745938684,0.224313413347119,0.224070579073029,0.226786379185889,0.227061598703991,0.228069724942543,0.228035344269786,0.234391879101953,0.232401518954076,0.233257830564348,0.232086162018409,0.2462916301463,0.253829129835218,0.255630858257518,0.258641459039981,0.261971727333702,0.262666870405256,0.264821286029784,0.267114303879149,0.267847076827027,0.270233650629559,0.27193176689589,0.272940761642158,0.273957578692412,0.273902877094798,0.274183431875434,0.274130996371511,0.274022606086366,0.111071331124109,0.00327434010419051,0.00329769274333388,0.00323426422573666,0.00314638850151682,0.00315816365823025,0.00327518550279619,0.00339805033755343,0.00350236082449229,0.00347021057451722,0.00369824581016837,0.317,0.00281160852661292,0.00288384868392461,0.00277431262031731,0.00282391624234277,0.00200319053894299,0.00253514086761626,0.00235690062878182,0.00302048864507217,0.176847414176909,0.355549988548865,0.355401111818267,0.355265191681178
0.102594584027267,0.103558463188599,0.103071872983764,0.102122402692275,0.101548749980387,0.100289460602461,0.0991857037296857,0.0968963227909963,0.0951999904299931,0.0924326019044551,0.0882465333246929,0.0848080104746814,0.0825731215042953,0.0789933550941573,0.0763996550586357,0.0757212485111702,0.0748084539944748,0.0726592404735391,0.0668645517969613,0.0619563573682188,0.0579417650361687,0.0549752682412105,0.0524518958969645,0.048436657225702,0.0462663624494737,0.0438799490981039,0.04202375025896,0.0413269051421268,0.039914163968632,0.0367168419180039,0.0343168580354144,0.031665969560754,0.0301539337206993,0.0289308177848711,0.0267185731612745,0.02475673386224,0.0235668076039046,0.0108333263803724,0.004990923265346,0.00526385177283256,0.00499010611942052,0.00568301583075868,0.00625931292979884,0.00540758363784905,0.00439863641595682,0.0041300312637337,0.00378096149724887,0.00360273040321753,0.00336757584686746,0.00343094664545947,0.0135395075217873,0.0216749561862565,0.0416775136485515,0.0430318798816906,0.0436565696958289,0.046038249342871,0.0523856399808395,0.0566632212457695,0.0588265324005625,0.0594679716716682,0.0594159389192361,0.060698905548673,0.063525167796832,0.0644396674882311,0.0741380802150553,0.0848094881986931,0.0873476915149355,0.0900244812035331,0.0919271791701021,0.0933425564147843,0.0950607278643281,0.0959045498124209,0.0970204296257394,0.097227512177034,0.0975687715967636,0.0971203952704155,0.0967364313733692,0.0957849325272347,0.0951117972675613,0.0945764071941463,0.0943197710512268,0.0901459428154493,0.0839086242407737,0.076674310608314,0.0834716375249189,0.095109003593797,0.108344302599346,0.122758458583129,0.140225960773868,0.140210727872388,0.140333720090177,0.14127641876485,0.142471466585758,0.14376654104742,0.147677602868013,0.152414505526434,0.155131954117754,0.156110422289104,0.156110234170808,0.166855746216791,0.168156260551962,0.169187110281042,0.170311849851258,0.171157275558551,0.173329439891646,0.17334964224247,0.189966348375071,0.189889138825689,0.190136931449366,0.189788676015728,0.00304647931083776,0.00303576551972915,0.00306663123180837,0.213204194157894,0.211698136965849,0.212565096651384,0.215269452109679,0.217923140623803,0.221018316677335,0.223869854942726,0.225582829017413,0.22769756707654,0.230137639017545,0.231007428478645,0.231378297440747,0.230972369653963,0.248566146675848,0.251299711760117,0.253279838545368,0.256768288573081,0.258530946078672,0.260464246914461,0.26832068119778,0.268931549993534,0.269784554573869,0.270922190846941,0.272130757839986,0.272968892646069,0.273698893271631,0.273899527115625,0.274080446883296,0.27425360068261,0.27445923114445,0.143310112015151,0.00331975909095669,0.00330735086076857,0.00325852111600743,0.00327289776115,0.00332768968924751,0.00342513467791409,0.00350022282964146,0.00363016826653403,0.00369164870692552,0.00385533867246621,0.122898964545656,0.00274220307671509,0.00275323671939712,0.00246372682165829,0.00175736004655347,0,0.000637471132869371,0.00174804011217003,0.00253664409400177,0.133353280204773,0.176969997796849,0.354635530498205,0.355827755468696
0.111840794048043,0.107329339113887,0.105345283417723,0.103771758496187,0.103668494095508,0.100981660620922,0.0995860576472902,0.0972744599685428,0.0965970693995889,0.0945898050889576,0.0955858579523424,0.0838539292488195,0.0839774275689401,0.077959070735043,0.0755353269263595,0.0758893149744078,0.0752898008384814,0.0738497578993346,0.0602988241926483,0.0648291845640808,0.0693907052641267,0.0688192218685695,0.068945687269566,0.0514249300125497,0.0534025809163705,0.0463857614060721,0.00328048999382385,0.0435339978962677,0.0427375798100043,0.0444550557431278,0.0432941935506324,0.030507959144961,0.028877897795147,0.0291906476799167,0.0296775790075468,0.0268007677746412,0.0282583107698281,0.0146801956983794,0.00413796721087815,0.00596530958686913,0.00490785639828308,0.00592408646317807,0.00801693724811118,0.00542556287512172,0.00407284013803118,0.00379735945942709,0.00367738971732089,0.00354498706862434,0.00362108439050412,0.00401062941699584,0.0399707570787083,0.0304934425166486,0.0416255592595393,0.0419957421938826,0.0402437218156782,0.0402982696146902,0.0582152876378819,0.0586600439277097,0.0581390611217032,0.0590117604737004,0.0580523369957195,0.0604754533504333,0.0648563242388798,0.0648676960091024,0.0768605102100864,0.0792545717588242,0.0769314463351497,0.0873427859633032,0.0889630279228589,0.0907368156819278,0.093279864337118,0.0940677229448889,0.0958760186879802,0.0959816842597681,0.0965563786279389,0.0960043089728065,0.0952389231992978,0.0952599155002927,0.0952193934474138,0.0947130699919067,0.0946816927058741,0.0942749702933598,0.094799788594717,0.0683344697462989,0.00319021336226208,0.00320349540237993,0.00308538971676679,0.0709129727149003,0.142819100980528,0.141759498861426,0.142379127720357,0.141995717686239,0.142527762186668,0.0786067280595882,0.00313658190474975,0.0276408800836165,0.00310060999971425,0.069886985331126,0.00299110999991535,0.164737511648717,0.165366569280539,0.16783468286967,0.170732536065379,0.170814531277985,0.176824183527996,0.175178421269666,0.00297408,0.189637807436925,0.190101055986125,0.190260525199277,0.00311618093617614,0.00307071395652287,0.00311838626109055,0.209892320898424,0.20914884494801,0.210448373872198,0.210212118569428,0.212931003414081,0.211869778838707,0.211821254056407,0.211441466051359,0.152900193344449,0.00335752723649973,0.00325395910682705,0.00321353504630728,0.125573660468049,0.248170362963831,0.249610994840806,0.249449416275959,0.18604139474672,0.00303383999999999,0.204081052648235,0.271014825077962,0.270460361945219,0.27129286524735,0.271631644568651,0.272690094537212,0.273211623426805,0.274017835076087,0.274031662101361,0.274068632905525,0.274443828768186,0.275174619114761,0.175446941622464,0.00331649608910756,0.00326964560300797,0.00313062201901576,0.0032780382444788,0.00334261982245227,0.00351015307594766,0.00337397901072627,0.00365049667300434,0.00351166071120047,0.00379713355023517,0.31722,0.00290609482322495,0.00306703614580485,0.00271810658502205,0.661223,0.305679791543766,0.662485,0.129917458008589,0.0030783644936767,0.0900329599966807,0.00316495000000306,0.352997673520588,0.357183457157168
0.112004419977357,0.108672079905453,0.105360602465961,0.103818496204309,0.102637611318384,0.100235586860101,0.0975060232801407,0.0959493379088549,0.0949872023129631,0.0941310268837126,0.0943160543210047,0.0826759482596952,0.0816739329209827,0.0792362594836767,0.0776678147421206,0.0769025941075274,0.0759442348452809,0.0732772048122635,0.0703061968475478,0.0679506519103158,0.0680956253005454,0.0679931854108335,0.0678662925697028,0.051779793056966,0.050977495837509,0.0487870373618482,0.0482312011635577,0.0466744909113294,0.0455707233161593,0.0468693122561811,0.0303091771760877,0.030299166388041,0.0295020922412395,0.028751923013691,0.0269445071000098,0.0250156752669473,0.023926903029298,0.0188469536043514,0.0143723863761377,0.00961103320881958,0.00604458486233763,0.00554984357403053,0.00545194322400227,0.00480108780999693,0.0039549817854213,0.00384131291939588,0.00357085075981454,0.00372505351362944,0.00393583059793916,0.00524994666013903,0.00891467819360627,0.012467413555316,0.0162962742941267,0.0210346904077777,0.0269534412696084,0.0336628861917846,0.0598119180060798,0.0597702367105804,0.0598473462841756,0.0601148923790502,0.0605448518344667,0.0623545460567018,0.0648429508147599,0.0657510325774519,0.0783966855499421,0.0788022884031902,0.0793026338967456,0.0830062302952377,0.085048555011671,0.0874212688863288,0.0896067484672265,0.091039612045913,0.0923598202690062,0.0938699390061071,0.095192668906657,0.0945957795196925,0.0940363618607047,0.0943277820519821,0.0948733192865451,0.0940003671445248,0.0933209244087563,0.0931678120200983,0.0931791432932699,0.0591872233728503,0.00326608360114232,0.00325555337436332,0.00313694493673206,0.00292625528287661,0.00240285625644805,0.00148885232359584,0.000998614092865403,0,0.00100816143703809,0.00207881310942155,0.0027595444908286,0.0508456427759014,0.0751362494967434,0.0992868068141605,0.126709916862976,0.162636067585058,0.165019771563405,0.166451555487131,0.169303812186936,0.171224702605376,0.174263013114847,0.176551580074853,0.185260432955838,0.189662121414674,0.190342457731687,0.191743203748408,0.195904281223992,0.200522006393986,0.203818099013202,0.207265200332376,0.208756598111988,0.209747390028956,0.210292865620921,0.211721761221152,0.21234309933906,0.212463715770595,0.212684054117895,0.12591687294064,0.00326589617606209,0.00321235353935913,0.00318529485143498,0.0730332738279695,0.0944847219188304,0.114234968696061,0.132994805278552,0.140373017284396,0.154110941491525,0.165537356474798,0.181353416740896,0.196186864879423,0.210551821740372,0.223492283193905,0.236871671613606,0.249961651883857,0.274596419985207,0.274227450332381,0.274180621710382,0.274387146300455,0.274703932466765,0.207560389699827,0.176460144161184,0.145307951448569,0.114028534151128,0.082532697794433,0.00349928761206411,0.00368916544505752,0.00374606329489173,0.00379688242559212,0.00361758693688318,0.00363636204786972,0.0034017889536556,0.00309780128679674,0.00295858500465974,0.002702850992656,0.115043588268287,0.26216547588863,0.338666184661121,0.339922115839331,0.341395986894324,0.342118033452116,0.342822204677867,0.35163544990956,0.354405834505374
0.122447826783282,0.110357478491748,0.103607592727555,0.104020875867514,0.102740805441864,0.100427594461103,0.0941013083177735,0.0943760089328965,0.0933092888281486,0.093195295487329,0.0939926343802381,0.0817653342701138,0.0806308770017451,0.079402472051955,0.0789837530127027,0.0779147026835422,0.0783511138087415,0.0729001099100042,0.0698898980159096,0.068736961138896,0.0671183987265815,0.0672161298825556,0.0666337247121878,0.0369915105333866,0.0031709100137732,0.0492041749020215,0.0490785110312405,0.0492585493208932,0.0506954147858781,0.049705150962909,0.00336170660749335,0.00397020848407107,0.00381546084801167,0.00480423167376845,0.0036118134990433,0.0227061613159434,0.0239290282507852,0.0225340009998248,0.0267882545804044,0.01156242141553,0.00421045369761862,0.00455954732845587,0.00395495843606653,0.00391406516789584,0.00364751426461038,0.00350811514716567,0.00351337297967229,0.00346089955547222,0.00346331135009611,0.00394846041390644,0.00341507975595006,0.00338849710450487,0.00323139327702195,0.00314709449349774,0.00313386785644022,0.0186048477236871,0.0615487616075164,0.060902772239328,0.061495618941783,0.0610616818353344,0.0616036367192044,0.0634842017980958,0.0666484289585254,0.0680411215167457,0.079926159972622,0.0785076412199563,0.0788507347092137,0.0802446970458262,0.0810598983234614,0.0842518914996639,0.0867439149056168,0.0882434973691974,0.0884173977321381,0.0922839353647128,0.0952683210592972,0.0936215612547133,0.0914027109053268,0.0936461153315067,0.095405758899366,0.0934340852156516,0.0910553603562736,0.0919729347987219,0.0914669008395486,0.0499437800385576,0.00327462796358546,0.00329314079567652,0.00314720386763506,0.00308599677621108,0.00285101907718926,0.00241687344840434,0.00261815509830753,0.00191783100330083,0.00256752152917972,0.00259437566040855,0.00310305406585541,0.0699259895179215,0.153873541235935,0.154486204029138,0.15498448465563,0.159066596603997,0.166225249776753,0.164219492872429,0.00308628999996604,0.0796573869726317,0.00300342999996588,0.179886601768173,0.190093806721576,0.189694181114827,0.190402472876937,0.191183646682727,0.201655255967531,0.202035501884876,0.203736123343233,0.206696109240707,0.208681640086432,0.209317664530252,0.209279103350391,0.211337343782866,0.213454721346179,0.2133003138953,0.214425367882724,0.099262663797259,0.00324895574304209,0.00316709001245011,0.00314146688704931,0.00299254375635241,0.00311170117214108,0.0687098569975519,0.0030433399999501,0.132981909895936,0.912916,0.157827425931234,0.0032287,0.0907298464082803,0.00309408999999999,0.0907104242089692,0.00322645,0.222864513814109,0.275611905332561,0.166852284594025,0.00305299999999794,0.173701876858042,0.295649104379271,0.293133847384441,0.296230400896232,0.296049350918057,0.296058126197929,0.132342111754343,0.00326943994691645,0.117785364924867,0.308983729854429,0.113467778816975,0.00323055485820645,0.00345832469558922,0.00332515667276637,0.00314813371118922,0.00301397475826285,0.00255586662991949,0.00295762744848004,0.222985458229423,0.33775945635538,0.340163675141528,0.342696494396519,0.342730124505157,0.344048937015341,0.347686791095642,0.354097169716949
0.115731870285694,0.111791458276395,0.107931058486159,0.105941082242191,0.104200268600453,0.100421049848843,0.0945393085228547,0.0938073073633388,0.0925887113436946,0.0912770880715249,0.086841158478385,0.0817574343571532,0.0798434476263693,0.0787756118511291,0.0781961165961578,0.0775421506765069,0.0768376684408911,0.0739930655709583,0.0716645702918341,0.0702557226769681,0.0694130066460861,0.0511887619590519,0.0410700972150289,0.0277739825309207,0.0164360169307946,0.0497012260208476,0.0499281319322931,0.0504839445284946,0.0511419591348118,0.0513415985799028,0.00396064751832674,0.00459169688368699,0.00610344952790059,0.00783668935701801,0.013371794436522,0.0192512209837446,0.0208988995506293,0.0205374169944479,0.0187274239585373,0.0131634715682771,0.0084094966701818,0.00514493445019622,0.00396708935468387,0.00378262118590816,0.00346797790369179,0.00354907390257413,0.00337359634631623,0.00356324902006572,0.00349898407910151,0.0038350972121376,0.00360585061785535,0.00361646655016018,0.00334819545636778,0.00323732214635521,0.00312955175773992,0.012566089368161,0.0229276584927426,0.0315902127264383,0.0399625095202452,0.0481525298341119,0.0627722893662821,0.0632936195237394,0.071171169838825,0.0722824437279863,0.0763675057257934,0.0769914822191419,0.0774347234439857,0.0785159231974317,0.0794946126210501,0.0820674222366511,0.0844136549820479,0.0867072163350029,0.089455332606725,0.0912864389009886,0.0930567912750277,0.092643343669006,0.092388128792521,0.0928073856549158,0.0935508035549417,0.0927436187398747,0.0921342155385707,0.091940615515409,0.0919099798332116,0.0411330218136066,0.00333543640712211,0.00336081921985349,0.00328428730630555,0.00324306654745248,0.00306215422524856,0.00280588421962137,0.00273651046502142,0.00250592935139085,0.0026738640635565,0.00265074374913342,0.0686855887480929,0.0873090679280186,0.154532221588208,0.154821467245362,0.155681572125792,0.158116890078339,0.161108722029167,0.160613104973601,0.158656529644882,0.157330570443896,0.184478923963025,0.183674871555697,0.189234629551325,0.189064952123207,0.189716056439831,0.192071863485771,0.197562796331467,0.202180881156632,0.205164303137971,0.207071803262045,0.208590823933427,0.209302056176602,0.209859221015214,0.210704148170116,0.21138066662385,0.211037895136609,0.116907180332862,0.072768943522553,0.00315900674981056,0.00307071265749652,0.00295688363709566,0.00263969307928943,0.0644980385806087,0.0789822515846266,0.0923548383532986,0.106130888668467,0.118662860128406,0.130198009773396,0.143852319521352,0.158490962742052,0.172675480943927,0.185073652489894,0.198663323200913,0.213634207120386,0.153138855056276,0.122851167028439,0.0858684088373694,0.131304635812866,0.175381088749,0.287583627473267,0.297058717813506,0.296189502909137,0.295857019167555,0.296350711490711,0.297346573797402,0.297486751098107,0.302682665738636,0.228165199958612,0.202036291049094,0.17653388737405,0.151482382257557,0.12656323490348,0.101594466420689,0.0016978050577145,0.00226222021591566,0.184026491015233,0.339707792587659,0.340517815671735,0.341263587801658,0.342454840276934,0.344410004998484,0.34686417408966,0.349900826283583
0.115652707254035,0.113053355647142,0.110269981390851,0.107991266839636,0.1078251169602,0.100365444322721,0.09238239371972,0.0936134971500378,0.0913888463167527,0.0920873527481816,0.0773611634336631,0.0783261328539068,0.0783045381535948,0.0776155670572148,0.0777320129570829,0.0770398604997385,0.0776322269950528,0.0744959223981472,0.0727440440408822,0.0713773934023564,0.0710749667497784,0.0422459701164697,0.00334463879207101,0.00349452495526651,0.00327563319876924,0.0501235670722544,0.0504746034723105,0.0514952944191723,0.0517299968072457,0.0524108298199403,0.00363308297086558,0.0041029053003077,0.038279506456044,0.0229324804597842,0.0342782788661462,0.0198872220118425,0.0197565979223656,0.020009036737622,0.0196357888594507,0.0171382831007872,0.0204981478028956,0.00407677198857718,0.0037257422735914,0.00347060526889238,0.00342611220322077,0.00333002991974238,0.00336391940122766,0.0034333708181403,0.00347411530397892,0.00385164489410222,0.00371575209704508,0.00396285891095655,0.00356191849200712,0.00337896490776038,0.00323492069418414,0.00318599832151862,0.00316420794313993,0.00316054802413936,0.00308833848115655,0.0375164054588849,0.0631986545932054,0.0632890867581913,0.0749389151974213,0.0739295652232736,0.0766952787365249,0.0756735486393394,0.0759867816196225,0.0765990600232845,0.0768352065577711,0.0798240805309654,0.0822948890670423,0.0845826140405442,0.0912025585242113,0.0905584649197002,0.0926467122558768,0.0920372321257392,0.0920707973556018,0.0922482147480684,0.0925910825855074,0.0923724260450931,0.092376262830406,0.091996810951693,0.092286722584003,0.0318879034905573,0.00325313053714717,0.00336462178776335,0.00318758359513859,0.0033413431696901,0.00319097227541659,0.0029682471639567,0.00298416425733174,0.00274368459303476,0.00297087315642795,0.00273426898662976,0.13865699999921,0.106406012636554,0.155044819568995,0.154873504567096,0.155229323577572,0.157343846366471,0.16008633677043,0.159330235123106,0.159192009141682,0.157648829489524,0.189542925755603,0.187126670300549,0.188846452295611,0.188131171216133,0.187817013553313,0.190484871453444,0.194573097080353,0.203818900438548,0.207559381076439,0.207957095101768,0.209145947513812,0.209393935751842,0.209859743468818,0.210016727913351,0.210022251812897,0.210017721858665,0.00330735341892598,0.00324502120138523,0.00315315383214524,0.00298020079028263,0.00290859753973879,0.00188089038791075,0.244476847041854,0.240556259853363,0.254135000229357,0.0985711064449538,0.00295480999990572,0.120368835378277,0.258716050644206,0.25866852117696,0.265283803326821,0.266317741856574,0.268583041285277,0.222630571179762,0.00305371999999793,0.0858686145516553,0.00303489999998223,0.0889200776038082,0.00320533000000952,0.282339983244121,0.299035128275206,0.296175160336034,0.295250452072416,0.296374003530141,0.298675912778746,0.297275252867844,0.312235278222358,0.312328676162827,0.313200113819068,0.313096265629552,0.313833406486237,0.314430017354714,0.315228724820227,0.000495772026308996,0.00230596015027017,0.145304671409658,0.344843710513671,0.341093315869126,0.339640789537321,0.341722472495625,0.344490737402271,0.345618530208177,0.348493691464874
0.116553884552097,0.114461796984113,0.110847596778391,0.108135219620459,0.104182700916741,0.100919619608158,0.0975540280406075,0.0964821564366249,0.0948434575685915,0.0929101562096174,0.0758446002422611,0.0761427690519754,0.0760312182455328,0.075927887493531,0.0754723457995319,0.0755458421891647,0.0751112472785778,0.0738597226887268,0.0723497254993462,0.0717167868545529,0.0518234508553516,0.0308104052461544,0.00348342141279616,0.00358281893515017,0.00350015664419041,0.0505012862000553,0.05132500797634,0.053249430334675,0.0531538752784703,0.0536972206162136,0.00365588227044023,0.00377081750868289,0.00359678247247084,0.00352796606757836,0.00356526315356554,0.00387063302184188,0.00487993539857559,0.00578972093349445,0.00681694825020436,0.00618430812156213,0.00470950969803341,0.00399243579002017,0.00351548483781393,0.00349433062439788,0.00333492606677132,0.00352068836746614,0.00345670967620168,0.00375834874654275,0.00382321769908336,0.00444959543162531,0.00471725416242936,0.00513039846144989,0.00419772530544823,0.00385102987720148,0.00339598143544427,0.00333168393214989,0.00323599882189624,0.00325259864223478,0.00321226823118402,0.0250479779539897,0.045267564593283,0.0631466243361619,0.0730415102070379,0.072305300046511,0.0737279258530991,0.073637104226581,0.0746915771768547,0.0756962947162204,0.0766131107196767,0.0785196040507729,0.0803192627279905,0.0821561017959788,0.0844906964357086,0.0868694990742596,0.0899186554547597,0.0904951266864698,0.0910368776005802,0.0909500566746965,0.0915308899631764,0.0912221215847773,0.0913613585155654,0.0911684223344965,0.0913939248740418,0.0231295334243545,0.00337529984721295,0.00347083638117828,0.00346108573326128,0.00346979752798542,0.00324351184526772,0.00272825999256896,0.00269210327388319,0.00248994972736306,0.00264750917887689,0.00261151045773438,0.0546075526619522,0.0817490683163474,0.107363870717068,0.154546324148388,0.155828028642345,0.15644763139659,0.15749716788191,0.158085293040995,0.158819108532418,0.157825145239179,0.17824180518778,0.186473667908719,0.187229420465067,0.187057996389833,0.187266113595511,0.187992005227408,0.199592523488152,0.204780817426571,0.207487752769722,0.20802386121512,0.208888237869387,0.209008083184657,0.209389611276347,0.209219519338813,0.209119454771785,0.208826698177723,0.00326048202215355,0.00323518356932317,0.00309429168885552,0.00277714670049651,0.0020950091558756,6.85106047557706e-05,0.236913554651093,0.23774978018995,0.123085322287107,0.0783790748336944,0.0584631066963656,0.10014640025196,0.25766252999964,0.259051819196767,0.263222048158807,0.26518810148998,0.266729687173889,0.268076295505563,0.270349423559788,0.271515837539321,0.272818715457192,0.272904840077295,0.273455485942984,0.277961898080345,0.294042995380612,0.294431261473493,0.294856311139185,0.295720738526837,0.296632376290051,0.296397899557351,0.311359009091144,0.311394704854373,0.311443958705372,0.312128590454152,0.312932058385772,0.314176731857425,0.315258474058068,0,0.00168539244955491,0.106798200578243,0.150306889874502,0.339601585634026,0.339836668892602,0.34064377818385,0.341857686308232,0.342795847624535,0.34364443654355
0.119663831651572,0.117576425053568,0.121913839891077,0.109783909703557,0.100056338260639,0.101899499211097,0.0996951953866911,0.099733137542956,0.0992143504605543,0.0914648492185974,0.0745027536775674,0.0748895310157547,0.0742479561105706,0.0745649520709878,0.0729755646462545,0.0744579578536597,0.0737548756340137,0.0734902971987937,0.0714323689551171,0.0716771046800031,0.00323473999614628,0.0157255849183553,0.00324230335620227,0.00348905305009344,0.00336151268472514,0.0593963297135256,0.0607704339104005,0.0570079442162257,0.053793311626338,0.0551978045365929,0.00342786152465356,0.00351790178693033,0.00334336999062369,0.0034119657145605,0.00337246066825218,0.00339111175926704,0.00328817790674837,0.00395204012755888,0.00383603804750453,0.00441435370155094,0.00366460470069834,0.00353766460117633,0.00335956980360986,0.00333162782228081,0.00346688832530779,0.00345999991123614,0.00369479834081522,0.00369022554508498,0.00376442266860618,0.00464931351747656,0.0137874936758349,0.00713918538685451,0.00454907965109756,0.00420649906863943,0.00354980550652741,0.0033940699691178,0.00337030040432708,0.00330537471992793,0.00330066830465932,0.00341169939199514,0.00329826534616615,0.0628228273172465,0.0721914335081265,0.0689829484696153,0.0664371620137147,0.0705526819342797,0.0741986798970935,0.0744687620148377,0.0759792789716636,0.0769310766108877,0.0785454594428753,0.0790747128466443,0.0789455190814646,0.0826460274004812,0.0896485410966068,0.0895054840399953,0.0905167575684254,0.0895523090527305,0.0908211230269501,0.0902007106263319,0.0903053035314566,0.0902480698804473,0.0907514731682459,0.0155393936623905,0.00323161644939779,0.00344818143795451,0.00343997395867851,0.00346987302592892,0.117607999999793,0.00177385042679328,0.00244279789867323,0.00187296966628607,0.00255037160304613,0.00254608054675257,0.00301402205134942,0.0362662363481783,0.00311504999976039,0.153056818633013,0.15730199676822,0.155582605735104,0.155860451927071,0.15743495057751,0.161050699556457,0.158411374656505,0.00322241999999999,0.184880854303971,0.186514206755198,0.185896251181654,0.186438911582087,0.18670768070992,0.209188884270655,0.207906918001679,0.209378079345296,0.207839572113823,0.209237033429891,0.208410334438337,0.209250151005326,0.208425963343204,0.208423478313787,0.207537951783921,0.00318617642560435,0.00327381440964771,0.00317361675443308,0.00291685435446345,0.00266509578994442,0.000858368969612447,0.237665711040403,0.237327204840875,0.00316492472251009,0.00343418563395552,0.00328856548808487,0.0816656374469879,0.25552238833007,0.257070938211554,0.263564554823551,0.264625376041279,0.265231646703554,0.267552074055948,0.272103300072863,0.272370098895731,0.27508666374971,0.273608636052375,0.27510583787128,0.274967443044419,0.293409790870221,0.292699454587215,0.294284872447444,0.199950936154331,0.00323248000000074,0.177812575510767,0.310296389243918,0.310246622936328,0.308891876062791,0.310880399726606,0.311492937102724,0.314017863971412,0.316332021757918,0.00177639211509998,0.00276835799452899,0.0029463130219701,0.00308064658929307,0.338496238971379,0.339941965378341,0.339572461687081,0.33980626109424,0.340264979808833,0.339800748085189
0.0759723570574232,0.114377169998193,0.112695860607514,0.111325075757057,0.110421606623763,0.106935874409647,0.103916707278767,0.103341761962902,0.102297762114213,0.0902478802227991,0.0889276185728073,0.0753705208810855,0.0751971087718209,0.0754519906681528,0.0751724162471053,0.0759692011891059,0.0748717866812097,0.0754198143311791,0.0740800354842669,0.0723705365289781,0.0684049783592419,0.0675864800129121,0.0668020331721267,0.0665010874038152,0.0660881972164052,0.064800063626106,0.0619950099043342,0.0601040309955026,0.0573315934071406,0.057721962614084,0.00340806869742254,0.00343789739891429,0.00338573813914236,0.00335819015992039,0.00329770799262637,0.0032849581424092,0.00330559416901177,0.00354994409580973,0.00360240152985723,0.00381648039147149,0.00353203901007698,0.00352928294508699,0.00338163344626693,0.00358326464433793,0.00355247448866795,0.00372252341247338,0.00362757596580444,0.00398634877431217,0.00417854559392124,0.00532471754625013,0.00723295605583806,0.00710420267438154,0.00676731151509914,0.00534651119424046,0.00402726545437265,0.00368922458726158,0.00341584385309396,0.00341511010037434,0.00338064520583538,0.00348524288752483,0.0292649661251645,0.0624660944977194,0.0633744302555648,0.0651712694459135,0.065628763379861,0.0683699421179688,0.0710447744588584,0.072611513251352,0.0739250921227282,0.0750952210076519,0.0758892619832341,0.0767002618532412,0.0772006186782665,0.0790775101882193,0.0807145123263261,0.081495205047851,0.0832838607813731,0.0855832321797692,0.0873008248486404,0.0880318722813758,0.0889214195942282,0.0886564432282056,0.0508226155474358,0.00826384440664735,0.003320723161977,0.00342134401898228,0.0033547871354822,0.0031196771369208,0.00212130462419216,0,0,0,0.00115364270332267,0.00208542633937352,0.00271895488486625,0.063459001985935,0.0900325555325487,0.151117969520549,0.151840028527878,0.153074933070851,0.153969278581147,0.155302472844519,0.157679812183254,0.157645504272652,0.174641699976518,0.18292004935763,0.183822882785239,0.183553752083404,0.183871815175978,0.18557611221245,0.192315032910107,0.197895950197122,0.203522750279921,0.2048167332254,0.205752452632494,0.205975417446799,0.206550691297562,0.206944112643646,0.207264293621496,0.20577648722248,0.0033555850467928,0.00339854720307882,0.00324033843809871,0.00301799000615945,0.00256858479816499,0.00158941974780566,0.237776432070458,0.23777314756291,0.109851630997813,0.00361156703632176,0.00343257732428017,0.060965530420256,0.0981124586705209,0.129420315982796,0.160860219137278,0.192421025102505,0.268758394965512,0.269470850339257,0.271057644222058,0.271506822083214,0.272257667276465,0.272222168088319,0.273113624051954,0.273233722695441,0.287545551254858,0.288750196902385,0.287677297722388,0.160175966623096,0.090516353500123,0.134135633237745,0.177812575510767,0.29755847510687,0.297810331995183,0.297681179644179,0.205990025806432,0.164814542546395,0.123781934621311,0.00252732639949627,0.00284437364856137,0.00298133001463259,0.0030625427689721,0.336758616747671,0.33791492667883,0.338333644582513,0.338725751392043,0.338964915935974,0.339167794615352
0.00302208999963388,0.112912014605222,0.112212568751515,0.11229570872742,0.112750833350077,0.111549425434304,0.113727298296869,0.107376213310624,0.107371716321107,0.0900514361603513,0.0958068283457741,0.0768750275947141,0.0762597563059259,0.076981378580907,0.076667767506233,0.0794970434403575,0.0841085952950376,0.0794560605015983,0.0776127188952188,0.0731699051068829,0.0679234253091783,0.0677617948887483,0.0666551986655629,0.066973521927488,0.0675040530495342,0.0663186243705288,0.0668399920948883,0.063856188473737,0.0646729260823925,0.0599878353370002,0.00331601938906088,0.00338432782271119,0.00336659797298866,0.00330830107486593,0.00320186750118078,0.00319586748292192,0.00318723891019545,0.00330074778188673,0.00332709663974005,0.00344274210284948,0.00347009679512772,0.00344430913715638,0.00362775885692945,0.00364000352679901,0.00401995899206502,0.00369840737931858,0.00365639573217746,0.00380084915955707,0.00400366828214863,0.00459029600649653,0.00485441937903342,0.00694303517817584,0.0105122438827957,0.00609197736900323,0.00398771290385549,0.00361823020497594,0.00347373280241444,0.00332116359643421,0.00329377603242125,0.0033644738137407,0.0475672938953837,0.0615067912958922,0.062303715598583,0.0627400274423788,0.0626728154623166,0.0660161707903923,0.0694834130253995,0.0705506973017605,0.0724740373638936,0.0733193598091886,0.0733946599794837,0.074416254577278,0.0738471995530294,0.0753771684768111,0.0737194839637246,0.0777101593845283,0.079013326654807,0.082377371751439,0.0842608993506757,0.0862134335011979,0.0884336296939833,0.0871494670910658,0.00304676027080331,0.00313728115251519,0.00312920955094373,0.00330367716459244,0.00316657736072921,0.00319434184346437,0.00304684285807254,0.0714274167980483,0.122675470298014,0.122782198580126,0.123861978210859,0.0757743431716036,0.00311441267013369,0.0891273105410215,0.148777410984341,0.148786329070398,0.00327675999999988,0.151358669188794,0.152052667333911,0.152776921650049,0.00298084,0.15830917073211,0.180166586304545,0.179717962208803,0.182123475104644,0.180436627546941,0.179633626485052,0.177986338077669,0.177448660851223,0.192526520805868,0.203080851960232,0.202625383225904,0.203092709572122,0.203435820332047,0.204142456147684,0.206063435958176,0.208416837575828,0.203126921389679,0.00334236099403108,0.00353822577945615,0.221223,0.00326553054525449,0.003107532044533,0.0026538338967938,0.238537006742819,0.239115315108259,0.241496332732085,0.00358834302131856,0.00313337490235454,0.00324433005520419,0.00322352379835115,0.00320621462230132,0.00322372050251701,0.139223880403011,0.271712974122113,0.270843050025408,0.27156822187442,0.271003963259089,0.270914981217808,0.270911706691882,0.00320724,0.201358176639902,0.286780901782522,0.287394262453362,0.286905772249673,0.120517064044744,0.00261959487272769,0.00183495076229329,0.00288565185001165,0.298439892434061,0.299237907053035,0.298721616935264,0.00320592,0.090705972441404,0.00317564933540435,0.00293352875678733,0.00306699891372306,0.00305671257032345,0.00312523571781326,0.334871026466232,0.337271862988246,0.337625418824456,0.338226990887653,0.338100346154412,0.33827233131812
0.106259321451,0.112352152559289,0.112322598520837,0.112735209436762,0.112666324691258,0.112685925794235,0.112858834290419,0.111360426477535,0.104224003860247,0.0851777686238233,0.0818285150901526,0.0798174074876889,0.0796558793764991,0.0798471863506241,0.0804075098820805,0.0814966896354199,0.0827888628921699,0.080948768095376,0.077847999332747,0.0745928461444569,0.0715048230613904,0.0690614296823061,0.0678271818564616,0.0675865938785125,0.0673883509195518,0.0662744872998064,0.0650031417196521,0.0637829178427929,0.0629572741810354,0.0613109948656086,0.0484763524618143,0.039798131056459,0.0310633799679073,0.0224239539952822,0.0140497715185278,0.00320809660940752,0.00316629920291714,0.00330568032286883,0.00332230950659513,0.00349373459451928,0.00345286822156353,0.00367614689174642,0.00362985327922201,0.00390780110657235,0.0037933813069825,0.00398757475928093,0.00376881182496278,0.00411170829870603,0.00405849993616686,0.00462290709617395,0.00477398924862384,0.00579015439000688,0.00630739582050864,0.00531970737951362,0.00414120199240214,0.00376012527783596,0.00338250393300827,0.00330599105389211,0.00321918555710361,0.00321400631440382,0.0298896923796803,0.0598363346380957,0.0601182346736395,0.0610326776603657,0.062020765089116,0.0638805003139601,0.0657824264403113,0.0680078192872098,0.0715142445358433,0.0725892694171944,0.0733212704410851,0.0737464969224815,0.0740576899731568,0.0746337759899003,0.074931820354536,0.0763850688348642,0.0777265653030733,0.0801895992083961,0.0824350426830103,0.0838043366846459,0.0848784477716714,0.0849143964594922,0.00312224704381027,0.00317207379834627,0.00319096250708206,0.0292801075227354,0.0474185734956509,0.0642789161195733,0.0804982783502349,0.0970259087883063,0.12138541863544,0.121990602909008,0.125202522548928,0.128179092169887,0.129431405728601,0.129807039531795,0.147072651326841,0.146904517452712,0.14722883703209,0.14927600095563,0.150600430533966,0.151425552146775,0.159861932642039,0.160444555129516,0.170586364291733,0.173572875715474,0.173939688106787,0.176262330402142,0.177085368724294,0.17729996807202,0.177706633515636,0.186765141168754,0.191950394975581,0.198446350578834,0.20091966960359,0.200445068986088,0.199546050411074,0.197726867807083,0.197051354439666,0.19859150072941,0.00348390502189499,0.0036247065047994,0.00361051338373499,0.00348890372617731,0.00334845794490344,0.00332928715006698,0.00368062115017323,0.0038576220441073,0.00378659118329636,0.00365432504239622,0.0033898085197853,0.00330079598818501,0.00322255828616058,0.00318512070420432,0.00317407632166847,0.0952318660940459,0.140994618457905,0.266897953119955,0.27036580759687,0.270484191774399,0.270491542791194,0.270322127586383,0.194714530411341,0.168602560737467,0.146708916652185,0.124829112593627,0.102883991646969,0.0808887029251067,0.00165766544319418,0,0.127879771380726,0.299297251897111,0.299743641244539,0.300074239637621,0.301553611470507,0.303399321808608,0.306100369202602,0.311493343917552,0.31838145629944,0.323244619688789,0.324668965023731,0.331478015532053,0.337108342795335,0.337084588181869,0.337143381034837,0.337376218140934,0.3374881769982
0.128519625531585,0.128716144482069,0.12867952991935,0.11377254039971,0.112357551961593,0.113747789936532,0.11358889762638,0.113782852291406,0.00305218999953198,0.0372405991249726,0.00328569999923075,0.0816650578061495,0.0831135017741884,0.0823917899427809,0.0838190119380938,0.0833319246885746,0.0847285783426601,0.0837453650940071,0.0862930199519143,0.0757466975669536,0.0745835193837871,0.0693400341445933,0.0682346640630645,0.0683931434989344,0.0684936006781432,0.0665125596915856,0.063305466393497,0.0632668895271102,0.0611420286060552,0.0610429471357704,0.0601096475983882,0.0604643768837878,0.0607716518428223,0.0609698823433951,0.0615717184278531,0.00327953975586117,0.00312502123445555,0.00330284049679591,0.00346612317468646,0.00348049790026934,0.00361872517215571,0.00369607792714317,0.00384556380804428,0.00395722144148451,0.00384550117178679,0.00401132433725956,0.00389936854060054,0.0040790795703692,0.00407982807379013,0.00431017885464413,0.00441591337890016,0.00462688017743524,0.00427519406261368,0.00430974590484561,0.00400416766877236,0.00356485582303964,0.00337440529903951,0.00316730251087049,0.00323671677393133,0.00304455404998237,0.00319246097615714,0.0579099124255303,0.0574456843722202,0.0591454680185731,0.0607706136360976,0.0614130394394379,0.0620350183775324,0.063882613102904,0.0731257026028545,0.0719887502884045,0.0736650784723382,0.0731897632325963,0.0739546828402969,0.0742009283370422,0.0747923177658155,0.0753272561797146,0.0749303315991718,0.0785619215828232,0.0811097044289575,0.082138298536952,0.0823625674503837,0.0831307069063943,0.00310691757604027,0.00317592029168319,0.00320825267118858,0.0600566884557527,0.10730143566459,0.107574467058829,0.121634617205434,0.11818484985074,0.119779310525714,0.118975528324671,0.130725844728258,0.130158332953129,0.130616393124067,0.130581658631564,0.145881537853314,0.144969051791137,0.145911928881736,0.148198102130306,0.14990902730158,0.151290255948806,0.167985527776725,0.164035022129229,0.167621289340834,0.170005971618834,0.171797326827666,0.173583247653525,0.17520812671982,0.176777488424601,0.178736091274235,0.179237380106892,0.180275173680543,0.195156044227092,0.201893227778213,0.197907914933367,0.195059786752713,0.195463743036172,0.194945404466369,0.195945458039634,0.00328051304776888,0.00356712698345048,0.00338739778027403,0.00348064347976191,0.0032387256604592,0.00343933508995062,0.00348469707391771,0.00367337899873086,0.00343292108562026,0.00351955120559606,0.00328836528370422,0.00327295310773622,0.00316171629368396,0.0031593148189851,0.00313204045084057,0.00313470717669322,0.00315008188339576,0.264755213281088,0.270316659669192,0.270427027165685,0.270598477688409,0.270075699959148,0.269570421541442,0.131680870239767,0.00317614842021332,0.00307331823179648,0.00309761992428617,0.00273091681715772,0.00236066229855946,7.25923297447475e-05,0.300821877239207,0.300229599213497,0.300823408830907,0.300860111949386,0.301679915837177,0.302879275578292,0.3032264395011,0.308981805846391,0.324713013246341,0.324487023254121,0.324130675368313,0.328471029814653,0.337248437237424,0.336794905193562,0.336245496482535,0.330193827106337,0.00326048999999999
0.129591502589138,0.129526026940709,0.129450334223695,0.116106013625569,0.115926224901918,0.116172903405643,0.116450156368304,0.116141229407398,0.078874753665492,0.0545685391750766,0.0388147982852731,0.0824648468589536,0.0830249172478779,0.0830548215978537,0.0835519723601461,0.0835707503291525,0.0836126242907399,0.0834121737635335,0.0841180107151316,0.07784218312213,0.0718311456032539,0.0698723776999484,0.069081624113398,0.0695558057477209,0.0692980886461466,0.0682614536265643,0.0667900590778745,0.0650308681580145,0.0618050127212846,0.0612384396234165,0.0605550867340449,0.0605213865010704,0.0604630794797006,0.0606370874188092,0.0608660884155601,0.00353296345427615,0.00340301434216414,0.0035204984935819,0.00350083527695705,0.0037085167416282,0.00369934724064441,0.00410411246368919,0.00417455170948878,0.0047453735566259,0.00449471214053088,0.00481116719307026,0.00435270556608617,0.00473868308962778,0.00445583433188873,0.0047008732186441,0.00449209066946768,0.00464731942228796,0.0041850599242615,0.00421740362796992,0.00379387052597309,0.00359842620452597,0.00325246364711234,0.00309734472263269,0.00290934503245178,0.00282075489544476,0.00293579869599813,0.0564666045998731,0.0565596816510294,0.0574769802624768,0.0583485860145837,0.0591395493752855,0.0598578508939979,0.0616538809413292,0.0651441235058693,0.0684523041897576,0.0702884799885978,0.0713794984083871,0.0725890279601976,0.0732947924828067,0.0742235137928783,0.0748955437374392,0.0758466928266293,0.0776653103927505,0.0797309245261986,0.0810795783146076,0.0823533974758998,0.082390218846283,0.0818738336407677,0.0809408154833005,0.0961358827078796,0.100062468280806,0.107481246568864,0.108142208562904,0.11028867349851,0.113567725236004,0.116120584268521,0.115754164555147,0.131624565005724,0.131158164787276,0.131050061525261,0.131492759259687,0.137946942974718,0.141483996725844,0.145716695558394,0.147804973082933,0.151272811909311,0.152955277006957,0.156006161982305,0.160524107906524,0.164022849032841,0.167044387229224,0.169332825237649,0.170922063853551,0.172684646545564,0.175837205749346,0.177628564494517,0.177853970204006,0.182985962486575,0.192594866145142,0.193038433619938,0.194275518475645,0.193913446716823,0.19407814633522,0.19419532367831,0.194722120605602,0.0955054165022508,0.00369432410958242,0.00355013821118562,0.0035252167352087,0.00342883803324626,0.0034774192789832,0.00351007183007224,0.00360373273278339,0.00357216060764112,0.00349272619365397,0.00333545405750127,0.00327917906344322,0.00321441859779446,0.00316523967666313,0.00313256292440995,0.00314021330577276,0.00316722921690596,0.255068997324975,0.255168493149509,0.254202829638639,0.253888070542027,0.252996754366983,0.140720292184187,0.0947384607318869,0.00311354821542228,0.00301633478635514,0.00297314270617169,0.00277772615376283,0.00245964177996389,0.00170243925337351,0.121085503319993,0.212105910613841,0.301050544061435,0.301225872759326,0.301947315932713,0.303534466179745,0.306137296985451,0.311615760441715,0.318867156843236,0.324104992173834,0.326464399441186,0.328548407370976,0.327909824444885,0.32411647821714,0.322685794314652,0.32181685620765,0.322305472011065
0.131319832735242,0.130948243959277,0.130747546416866,0.118215756381645,0.118848425066076,0.11855605527411,0.11970800336509,0.117884929853479,0.103486712842198,0.0747331900470254,0.00310255999942218,0.0829780164690422,0.0837289927401432,0.0835373575601447,0.0841543630046113,0.0842365777152197,0.0833952746237929,0.0828702970951292,0.0838314911472822,0.0788876265574095,0.00301964999913971,0.0347622576642562,0.00329487999914353,0.0716878121877104,0.0711667288412407,0.0706581232270736,0.0708808671664431,0.0684651342286109,0.0599174569297633,0.061370129268522,0.0602107733364817,0.0605530187698767,0.0599894523880311,0.0603361545162185,0.0604628591916411,0.00367951606274409,0.00347567111549001,0.00355317048887153,0.00357518448348074,0.00365198496595416,0.00374640462513055,0.00416752348801997,0.0043947519326638,0.00550785069239553,0.00499775630401052,0.00565711412500761,0.00417508094556947,0.00544904343489578,0.00478103448825859,0.00478888858567111,0.00479619889254686,0.00449290240873317,0.00422766530529139,0.0040199822165541,0.00390283724792659,0.00350561274934716,0.00335616203670683,0.00313402002039403,0.0332168923165216,0.0195511607311492,0.00312062726071011,0.0548421599588884,0.0548370101373478,0.0558174528432385,0.0560677435189594,0.0568690107495748,0.0566988338034228,0.0576860936043537,0.0558591037121515,0.0661174822639414,0.0674946644638593,0.0694772228807221,0.0716755751724001,0.0723074965741164,0.0737562142640755,0.074361783539284,0.0756584795891653,0.0767651930368039,0.0788407440492362,0.0804078449567828,0.0836572977911349,0.0828960471035932,0.0834601419256791,0.0817945261999799,0.108692102244089,0.106371417304253,0.107265611669403,0.107638301063824,0.10966738971734,0.110259937950993,0.00316540999993918,0.112979820364217,0.133039238121724,0.131730040404583,0.130907468352284,0.132637572073929,0.134730299792418,0.137695608525246,0.147868362502764,0.146179883630467,0.154592263216182,0.153656702088459,0.155009890513486,0.158528617563373,0.161162547851694,0.165019031113256,0.167644406905521,0.16803942691725,0.168596207741452,0.167953205685061,0.00304132,0.175023191304836,0.187449205783811,0.190047972294827,0.192457085207263,0.192336490355184,0.192247320292389,0.192750175462177,0.19317010851983,0.194451304619725,0.195703711597039,0.00362441918193479,0.00328584223210831,0.00342845089567967,0.00322283888813552,0.00338649053620039,0.00325779855463301,0.00348863929488867,0.887961,0.00339501733054602,0.00319036195680541,0.00326203864775075,0.00323100363602897,0.00317146666262616,0.00310415338653578,0.00315267915912476,0.00322944122688248,0.254816910745232,0.256642192278815,0.254616664000018,0.255664657197792,0.253334432363742,0.00318432943084043,0.00294619519689579,0.00321657693500914,0.00298811266366282,0.00306509420603616,0.00296000321538215,0.00303664810234356,0.00260882400266145,0.00310242412438284,0.178784729524645,0.301305071380939,0.301337236094101,0.301663319387581,0.185613755646602,0.0032413715105419,0.00302071047726749,0.00288876365448054,0.00272437772534116,0.00284627086688257,0.00245037755097923,0.00302076038869037,0.320304389173765,0.321964742054855,0.321221105370605,0.323569648926185
0.132176323462209,0.132621528790826,0.125981709915881,0.119271131317397,0.119242973799237,0.11946821820607,0.12000760983774,0.119377418506267,0.0997704225903615,0.0965602375784622,0.0940795035202389,0.0922572205161746,0.0907057341997772,0.0890488824351423,0.0872610812987913,0.086424653183065,0.0820768117207367,0.0817561369996908,0.0814709862045369,0.0797592831380188,0.0793992424341522,0.0782844009531092,0.0762032086500199,0.0746406154257916,0.0734795217287776,0.0726174858479074,0.0717018966680171,0.0699428754966434,0.0669000973082126,0.0640487474830975,0.0618777641747744,0.0614970083676428,0.0609108023007013,0.0486512934354751,0.028883726597785,0.00379530438829977,0.00364584368910063,0.0037426619151234,0.00365374298900694,0.00388097846360706,0.00395526511511369,0.0047792548295672,0.00587153346984772,0.00806532703738923,0.00798602956775142,0.00892973839826221,0.00817529688414986,0.00849950996298244,0.00607578082400896,0.00552510150269312,0.00485386779195502,0.00488332621188267,0.00455032702001198,0.00431587856060409,0.00382085502412947,0.0035841004497478,0.00327284713476179,0.00313302615242077,0.0376782445474651,0.0423647947592821,0.0446588046787006,0.0530597528048845,0.0544094170737916,0.0548309323109688,0.0552584638614379,0.0555314755432513,0.0559479078226417,0.0565304809017829,0.0575447930320047,0.062016643240093,0.0658165620668476,0.0673577199346648,0.0688137666729779,0.0703866632272414,0.0723449533878118,0.0729573729263304,0.0739616364044032,0.0747400258518792,0.0760510209543748,0.0780273247453544,0.0819690942248077,0.0823942984221253,0.0828534405492151,0.0822252583324107,0.101585630208179,0.103435162799949,0.104436163271133,0.105760237753356,0.10762076323829,0.107912183959808,0.107663276641053,0.110794726393528,0.119218410803301,0.124650948539551,0.131874275672531,0.133235481095236,0.135272306750222,0.13693008684112,0.138829632904921,0.143038507311374,0.146103723523917,0.150804322742475,0.154424901720028,0.157683253478215,0.160293869914829,0.161877715122976,0.162355017217127,0.165044786055344,0.167585364494386,0.167861219740627,0.167949608606596,0.172315388083729,0.186255058796133,0.187962564228937,0.189934069765196,0.190419566309689,0.190863005211787,0.191470306279333,0.191752767013447,0.122254658758829,0.0847761407743527,0.00354715100867114,0.00343811480948942,0.00341078788282736,0.00332348486462013,0.00337669247691997,0.00338588929554014,0.00342645710860844,0.00337058191602721,0.00338015467537886,0.00331883902239679,0.00329706920293237,0.00325061647662942,0.00317969822824097,0.00311999435124551,0.0309819632332888,0.122591579115366,0.252668779810825,0.251094632527308,0.251247109255683,0.250901333650989,0.251977299863054,0.120759116946907,0.00244641487981369,0.00273583648919966,0.00274822538994802,0.00289871914099582,0.00293234318077933,0.0756357319524164,0.1015022704757,0.123688443011307,0.145905649028019,0.171336899593666,0.19678938544794,0.222167632166666,0.142688938149959,0.00307690013480753,0.00294634694138223,0.00278512182782736,0.00246850203919992,0.00223738509931335,0.0015479219504084,0.126290816977377,0.315505617266024,0.313612133631859,0.314230732503221,0.314438498329728
0.148983422245113,0.137259320247809,0.00317608999989152,0.0627580947453963,0.00299057999987844,0.120314362226069,0.121655645357562,0.120373563238357,0.00322558999988658,0.117288217646445,0.118595840889715,0.11865354048034,0.117422083620473,0.107090418145129,0.102945622704169,0.0885799832419305,0.00302128999929238,0.0278089705143666,0.00322585999900391,0.0799167461911929,0.0808333105733638,0.079912862611664,0.080791414850387,0.0774947523988271,0.0757731296988867,0.0748765977705842,0.0737899925201622,0.0729903489186389,0.0729689409148609,0.0659862596254584,0.0617012085198956,0.0626325177375773,0.0612406011223084,0.0363658551802602,0.0033376188440501,0.00361118870703757,0.00347852977336679,0.00362129331164442,0.00361218411623806,0.00372592331731375,0.0037573344223034,0.00461716981998713,0.014812479580926,0.0119935526332357,0.0147731563819944,0.0136362875913989,0.0165126912861891,0.0144621469758559,0.0168695375822127,0.00609312637688298,0.00486153374776229,0.00491285231297659,0.00534919895338584,0.0043181603952556,0.00397639186147965,0.00343842486731276,0.003278169197322,0.00293621723080951,0.0530004012508591,0.0448382570661905,0.0470997325307368,0.0497069709911865,0.0547155888426686,0.0537953462242528,0.0544421799480252,0.0541671271186016,0.0549810809547769,0.0550466091106427,0.0555495823678287,0.058346794059736,0.0661833572590044,0.0652851156089773,0.0658364793627765,0.0681154405421549,0.072150291168652,0.0711575961951128,0.0723968872449022,0.0722232079008769,0.0726443157201506,0.0739323430965832,0.0839332178474753,0.0822459431910714,0.0837897595951147,0.082869311811149,0.100350845142296,0.101684468343266,0.101497552151966,0.103596093116284,0.107321858339244,0.106345533365521,0.107473837870512,0.108719178720964,0.108204533631868,0.119972266440902,0.131080789884249,0.13284701121069,0.13630301423196,0.136488616603131,0.136749058252978,0.141387103795944,0.144676351920779,0.0800276020450776,0.00332256960087633,0.00339756031731104,0.00336154377286373,0.0849702890084711,0.159860864108387,0.162330883414935,0.169028764428087,0.168329372896161,0.168306475035201,0.170077641805328,0.183474487905022,0.185639147404274,0.188918692558838,0.188531318705476,0.189277743710169,0.190468034833925,0.190586648891817,0.0954080191067548,0.00301878315581731,0.00332183593739621,0.00323949439762442,0.00331840476216513,0.00304762700412415,0.0033285323170816,0.00330305291030015,0.00335303854388999,0.0031670603202949,0.00332421447607334,0.00332813209437197,0.00331114011407537,0.00326680497321394,0.00317612399077937,0.00307630965477383,0.0314610441016201,0.254465407133052,0.252197656082109,0.24962914086259,0.250117773576837,0.249629174837742,0.251853132042502,0.256877446196647,0.00167534192175848,0.00261569965383218,0.00244327163802006,0.00285838148199689,0.00281954518194524,0.27569,0.147998213396341,0.276563,0.10996442614258,0.00316378499662556,0.116729715884063,0.286564999999872,0.0994620123062745,0.00303787023925062,0.00290703291710248,0.00285108095639372,0.00216614573476561,0.0021432677854873,0,0.311357932560087,0.312708848092168,0.311460046332853,0.311990270598546,0.311592267854205
0.144444513655584,0.140613409014766,0.137312239839513,0.134655251023934,0.132040361873024,0.130273342319709,0.127000602224315,0.126098519602282,0.124843877738016,0.123242421855865,0.121455749617086,0.120019615056953,0.118530377104672,0.110980225300669,0.0970867248834026,0.092135010803342,0.0673805576284102,0.0478295608966324,0.0288042550974718,0.0799533129315878,0.0805674725842047,0.0802569230106197,0.0802871926138986,0.07908595996079,0.0784275415988506,0.0776019405458599,0.0769548918025692,0.0756844563899424,0.0726737584643338,0.0684774754509072,0.0664855892438821,0.0660645589401286,0.0444888195432435,0.0247041992155599,0.00349212831540578,0.00363991323931597,0.00358199857385726,0.00370691382052453,0.00364725853699953,0.00392753691778195,0.00418795776759117,0.00558591697665971,0.00881994031793451,0.010441343662985,0.0140334041849466,0.0144994771438988,0.0168009524464081,0.0157038339871546,0.0145538216652282,0.00836255571957452,0.00569913506345501,0.00505478697517488,0.00453286727535436,0.00419998389532255,0.00364374472901416,0.00331592651131776,0.00292605394732815,0.00261083284550955,0.0302368449190167,0.0355073819989246,0.0472870117896366,0.0486664641774863,0.050152308641238,0.0508734779657175,0.0513861416046098,0.0514653572339129,0.0520205609431279,0.0530102003542887,0.0546482174291883,0.0571328225826518,0.0602380096740703,0.0617374477116151,0.0626695360179195,0.0640673669776989,0.0655973435268028,0.0671287662013991,0.0685792445688762,0.0692278887419872,0.0698663448583295,0.0715483770858339,0.0744874695072958,0.079283673050276,0.0818633801043275,0.0831127287818355,0.0853698902577672,0.0889177965820963,0.0932192764775006,0.0974494988970496,0.0990567723073205,0.102780429098276,0.105800786777338,0.108272759551972,0.110013678620249,0.113377578247033,0.116836580571244,0.120728575400449,0.125196056055931,0.0984108136207512,0.084607356518806,0.0687485853120167,0.0514499504030243,0.0339305518056646,0.00337221175976556,0.00342744034396787,0.00340882661084193,0.0292673306150163,0.0494021048197471,0.0672978304709317,0.0870470241021261,0.107728329840417,0.126381707910831,0.147855339905655,0.178938125230689,0.182012747162317,0.184200917152496,0.185435360436954,0.184520282909533,0.14466003615763,0.101424289276167,0.0685880989535561,0.00319445986997341,0.00328453763084521,0.00332250664162776,0.00334336819635487,0.00331954613870231,0.00337770004334135,0.00336198581069096,0.00337241446587129,0.00333122234358177,0.0270771543975047,0.0446146690569027,0.0425667321592608,0.0407971475011447,0.0385876305821306,0.0356579078095704,0.0322599316630812,0.0297903284494775,0.0279671759209166,0.0289359288436027,0.0306545647648302,0.0329104608091692,0.034788697765516,0.0358392433023415,0,0.00109869168748316,0.00178796916359966,0.00248878938106496,0.00251602456629175,0.00182507974487007,0,0.000579158813482617,0.00177147149480898,0.00275076927203701,0.00310228464810145,0.00323527191098223,0.00323306883854636,0.00306865667581954,0.00276183712917352,0.00233904613320888,0.00120354743969221,0,0,0.142276542126557,0.190543724508918,0.310998731768287,0.311045576356183,0.310809432315788
0.148664897846669,0.144996110848656,0.145251597919298,0.135109046666368,0.131422725510142,0.131786616883836,0.129895324964751,0.131682383995693,0.131570594254882,0.128568314530267,0.123975854921765,0.121515522205439,0.118209173640302,0.114641389279066,0.003213399999863,0.112339393996847,0.11416087752432,0.0652499892944743,0.00315313999918502,0.0803004127567974,0.0818711561218982,0.0808567831363105,0.0814386678377131,0.0805062215103166,0.0815578050080321,0.080403295857692,0.0825408639895043,0.0806379195089198,0.0850630760196179,0.0701448695526636,0.0696629069588497,0.0690258613046608,0.00310441756166877,0.0142218635541769,0.00329331090182084,0.00350862376602342,0.00342424092492501,0.00353362821367502,0.00350539376815514,0.0037000556494004,0.00390814737533084,0.00451528105976321,0.00479744260292285,0.00675993383000574,0.0166795751466886,0.0133491717421829,0.0250733284631517,0.0163602848023988,0.0169550703496044,0.0070886680385653,0.00497028580145683,0.00453825611811372,0.00405425306061135,0.00375449671865027,0.00359250851012514,0.00307406306508817,0.00296850762424399,0.00234263705566801,0.0228693861374967,0.0285454754901313,0.0458531445558961,0.0472206567704284,0.0472092456233176,0.0480435997681109,0.0483549089212671,0.0484873018895896,0.0483599195742371,0.0504799945640016,0.0526295590867603,0.0552027339971075,0.0584192444704789,0.0587176862071345,0.0590649005411942,0.0598832566907477,0.0588270360202328,0.0631168606893778,0.0657325342776471,0.0662147317904317,0.0664747236001839,0.068385668547261,0.0698788609039059,0.0683864878703707,0.0030419299998189,0.0828321564230929,0.0844285792430275,0.0847251611743405,0.0856115464659813,0.0939071635631706,0.0968305125541613,0.100056151357388,0.104678980222093,0.101291245800065,0.00291884000194757,0.0121162135482015,0.00306003999803374,0.0769796127285412,0.130140421517621,0.0895708595335287,0.0031114800024297,0.0198538908276255,0.00324885654108486,0.00332363282459436,0.00326860443652435,0.00342095175398163,0.0033272190420159,0.00341746619180714,0.00328902125028779,0.00339132182340072,0.00335881993232958,0.00331369002445842,0.00317336967057599,0.0872433694137883,0.175102912998804,0.178779970918278,0.183868178158924,0.184364027606807,0.183677171971067,0.121938312088442,0.0031289751932845,0.00299639501996123,0.00318131415463518,0.00322122058865158,0.00322561347235242,0.00333509722222987,0.00328402314180815,0.00338904747747293,0.00323686460364647,0.00335493684380721,0.003364864677331,0.101745518818792,0.219534938430903,0.219496673274261,0.219728600581234,0.219277245045704,0.218827964492749,0.142829092675036,0.0032242999999869,0.0262917707043801,0.0029568399998949,0.0303484585895654,0.00318001306493913,0.00276806867019473,0.00251751338457939,0.000429722863017467,0.258461999999927,0.114573879330025,0.00290661280085609,0.00279866310697044,0.00285788492339663,0.00178006074073989,0.00249104189936888,0.00236888972216748,0.00306492464218241,0.00311183906103247,0.00309284074512407,0.00310398360038524,0.00309987119901633,0.00264607576136861,0.00251199516710948,0.000338865674728633,0.308954,0.000840574285951123,0.00263717205860176,0.146714629003333,0.310653838692776,0.3106766830898,0.310473542081072
0.145837196323767,0.144647707622179,0.143500161456097,0.139557406299585,0.137552773459541,0.135500981842085,0.133926487395154,0.133494797976823,0.132805957210571,0.130210507438141,0.126006346532875,0.123912632509171,0.122294454625296,0.122199752442303,0.119337462511783,0.116922293648777,0.115229835013852,0.0812132522326039,0.0417599100041912,0.0799247409198017,0.080485300308793,0.0803962775088281,0.0805395581466895,0.0803535379368123,0.0805636398899876,0.0801822616494041,0.0797554810953064,0.0781724071920761,0.0753098178012215,0.0722140932226631,0.0710688087152493,0.0712656125945811,0.0545110423076091,0.0433004230538813,0.0308589335115497,0.0173722751122714,0.00343465253589156,0.0035258523556817,0.00349375363583674,0.00369803842710702,0.00376011626355146,0.00419803813434284,0.00440289016772139,0.00536566256438394,0.00607484856677616,0.0090986820943812,0.0116772392482293,0.0138007946037476,0.0140503129279101,0.00809076041428092,0.00522842029364937,0.00446676168083807,0.00388479264597315,0.00372435178388294,0.00327757450229529,0.00299793821412272,0.00264640635030477,0.00227183606320312,0.0190111738767123,0.0253005208028018,0.030548986478937,0.0442615462628054,0.0447658211672527,0.0451762922550648,0.0453270850779618,0.0454455706411759,0.046410468960496,0.0476891702610218,0.0509181651909721,0.0524011965159506,0.0542486284149327,0.055653950706257,0.0564466495936255,0.0576636121439438,0.058594836629938,0.0609688995805949,0.0629604736869976,0.0637246715999972,0.0642098397250934,0.0661477594281417,0.0675423996192013,0.0673578920167926,0.0669862289862565,0.0811019382007476,0.082600692600338,0.0836922889806036,0.0854433099153071,0.0898175450163515,0.0931132015163642,0.0961747910138013,0.0974529707664895,0.0986788609413261,0.0618353777053907,0.0189687538765613,0.0131611999974294,0.035661466627898,0.0470040225697057,0.0580074517149433,0.0520059227451357,0.0400655968403505,0.00329973691803173,0.00336146351771967,0.00339271865453089,0.00349519390024914,0.00345487775022557,0.00348184444731417,0.00343332655388476,0.0034215218481176,0.00337817795342754,0.00334363568500137,0.0032992668415627,0.0264413631167414,0.0355725326281749,0.0471721711410546,0.0602423016098245,0.0749854512150638,0.0913361526811237,0.109659100143867,0.0748222852230329,0.00259248504216902,0.00291661040964004,0.00305703087749324,0.00321086309475403,0.00326983931995836,0.00334173677313239,0.003413862362834,0.0659227314761676,0.0918003773725048,0.117541728772783,0.143412710513474,0.219211066448099,0.219208485134473,0.219358955951826,0.219277964031003,0.219260985232851,0.172923029666889,0.151130107159664,0.129547111496912,0.107969508771096,0.0861263059253531,0.0029078659403734,0.00266270408733918,0.00221506532800069,0.000899491351005959,0.194560117642367,0.180186965368487,0.157921386394527,0.137803519178397,0.118556541861797,0.0985698454217212,0.079237504420365,0.0559244106140371,0.00307084902048906,0.0030790951350781,0.00301929934908849,0.00283517217187956,0.00267710757767397,0.00212826984068056,0.00156477166081777,0,0.00130697891155781,0.00165920811468863,0.00232551589916369,0.102883682514679,0.146713348871315,0.190551321236687,0.30890915135469
0.146297886974608,0.144853949837552,0.144947988397842,0.142308822309552,0.143326501885434,0.138635487589549,0.13673235466579,0.135540099298219,0.135974904082718,0.13353155186257,0.13474024203424,0.125888456339011,0.124882487522877,0.125034650614448,0.126220964258584,0.125773614245736,0.126015078247368,0.0961464267743893,0.00316654999967384,0.0946231373108943,0.116876731994399,0.0951860835993244,0.11011900296462,0.0528073127363738,0.00315716519808113,0.00333700645083345,0.00321907405244779,0.0033528972529216,0.0031469910632926,0.0475809106777617,0.0935799999956137,0.0736298185929264,0.075323939724466,0.0753862196254853,0.0761949223208224,0.0388472377009907,0.00327781713435762,0.00339375060341141,0.00330498870377519,0.00347770881573136,0.00347523400307177,0.00369144961720024,0.00372649660713314,0.00415704334584662,0.00420557447164204,0.00532323750985629,0.00394804506066112,0.0124966232646745,0.0171809575915672,0.0065020062941294,0.00391151149905373,0.00391403263711457,0.00381064131462893,0.00347575219930527,0.00340602023149766,0.00300928496667969,0.00316763531346136,0.00266540799669514,0.00317152148377784,0.00297754433298412,0.00308984447586241,0.0423142281191896,0.0416765366107653,0.0423251294836998,0.0418756480007311,0.0417395144164526,0.0398607188584646,0.0414707281159205,0.0404750370144798,0.0493240545634228,0.0518203076100229,0.0533946264172627,0.0535519886209449,0.0557789121980091,0.0571218610240472,0.0591727465390809,0.0617307793103078,0.0614368324117246,0.0608266894944661,0.0645855207872459,0.067188063546682,0.0669120485721922,0.0671481700417403,0.0778372654625159,0.0811088388434905,0.082040159492275,0.0825773072022307,0.0868265858105748,0.0897159158282979,0.0944055870971553,0.0979994823714751,0.0980172707726249,0.0977653488871614,0.0308747061434077,0.00340198000223407,0.0238923164336056,0.00317329999936454,0.0736742230655234,0.116631999996269,0.0606643076781017,0.00321557943250443,0.00332217178140083,0.00329255488616672,0.00353680382232624,0.00327806452040265,0.00349495711440147,0.003332450674812,0.00342550893909318,0.00323061540128489,0.00335406628833149,0.00329579989757431,0.00319636742674165,0.00299453754402225,0.00314062665049915,0.00327459071638976,0.0353773853972297,0.00305946999984893,0.125161640260955,0.181744999999871,0.00183869930830298,0.00271978880313988,0.00286678780787322,0.00311828661064915,0.00308683729573433,0.00312004990208356,0.00320327733283046,0.210998999999933,0.135606146759516,0.210567628643841,0.207410971711771,0.218855818444565,0.218744986608108,0.219188384573125,0.219234256528458,0.219666809603436,0.219598240204741,0.219590784972297,0.221152897056672,0.223178484325438,0.120061927011972,0.00291819182067921,0.00282086422924888,0.00290479785975154,0.00218047509957083,0.259858999999872,0.191012672419993,0.259728426069399,0.259447030064848,0.259844369523024,0.259281979143609,0.259528887409267,0.125107531539764,0.00304374742089288,0.00305174169238198,0.00299972327939478,0.00245443596046365,0.00256481432229851,0.00158065860117097,0.283032999999999,0.118810885369067,0.00269705214516144,0.0023524978288412,0.00283073086522622,0.00265503400291568,0.00288279780020649,0.120452269987141,0.3070367207276
0.144797899210975,0.144072550685402,0.143582079348207,0.141653899662745,0.140370477114366,0.139018143235871,0.138609516927733,0.136031629750019,0.134991638998331,0.133329603946855,0.131820674272822,0.128863316513282,0.127431299611397,0.126870092035363,0.126634540081551,0.125177010975728,0.12361503956093,0.121808808459762,0.120762851630513,0.119760512579591,0.118229779043379,0.0862941896687398,0.0625228095949335,0.0344164112627247,0.00333228398584599,0.00342877159397625,0.00340991288659241,0.00345619755966882,0.00335490069299505,0.0362183659094073,0.0481351470880756,0.0742271872229497,0.0745726617182671,0.0746921575221705,0.0748908742422102,0.0607802836250294,0.0480761830213141,0.0374004872283,0.0271691590544866,0.0168983177160607,0.00341012609049478,0.00361599609475147,0.00363125323933398,0.00386018198959313,0.00387445087246462,0.00450540422498381,0.00512734159270975,0.00835900155105804,0.0104870081085567,0.00623897718502725,0.00426882072508713,0.00386381927308619,0.00356207511292141,0.00352388891884837,0.0032410478118379,0.00311963355730881,0.00291798470254359,0.0028078749537964,0.00294029087564296,0.0029727257146037,0.0220995979190765,0.0401468162459812,0.0398163487591485,0.0400268623368794,0.0396609154899389,0.0394285157229548,0.0386910371842692,0.0390943345560716,0.0401038440856498,0.0445141434325894,0.0516615798891326,0.052787513864314,0.0536697459982781,0.0549873475159831,0.0556558499951742,0.0571296974163023,0.0584416893944426,0.0598427838686855,0.0623920199937425,0.064436945399603,0.0658552267305832,0.0663377486979781,0.0665501509781591,0.0746616271475756,0.080285093567236,0.0806700973489795,0.0819825745608425,0.0849519601473164,0.0871211944940753,0.078822366947992,0.0712423935772379,0.0628037824717478,0.0542853298914531,0.0440678081280554,0.0614756152848452,0.0719802040721822,0.0805593584207093,0.0868883741073381,0.0987951057424336,0.0781494016703426,0.0614097323336056,0.0448370516318827,0.028790630839011,0.00378893809395171,0.00360948132670837,0.00358305879460597,0.00350353485771319,0.00346160016812784,0.00341601003239429,0.00336230881587833,0.00330617274379356,0.00321832877957301,0.00312813661880863,0.00313460086107451,0.00315643108761805,0.0676860556454941,0.0923637127432553,0.14229256879063,0.153873620082828,0.000235051384687852,0.00203533050539259,0.00250978772752244,0.00273449199515047,0.0026419392161862,0.00275412147569403,0.00270877124115342,0.0784127879030248,0.103309049957983,0.133556662060093,0.20483784027222,0.217934340945371,0.217673905501021,0.218344099434109,0.218767082927495,0.219325564923376,0.219514913193526,0.219930903622425,0.220679306480487,0.221502496648706,0.153923948860784,0.117286274798237,0.0808184175888544,0.0029416980478561,0.00277316773543498,0.111230347663282,0.150397404059201,0.25947874259169,0.259156226218807,0.259095637762758,0.258844464646777,0.258668628179608,0.171969209790332,0.14373030172035,0.1154382633186,0.0871065135891923,0.00146861351276508,0.00152056043178738,0,0.195723211637252,0.155032273855942,0.1096412403862,0.00233161905931823,0.0025336809381052,0.00233286010179296,0.00204875387074098,0.000647255982090064,0
0.144524909967392,0.143692861560284,0.144109900902864,0.140743962460248,0.137621466730019,0.138493837512898,0.146346458391681,0.135218079822573,0.134847648606522,0.13316421965926,0.130437900295359,0.130342907728842,0.129128474587875,0.128402146214594,0.128374714562369,0.124836236220057,0.121660686578552,0.121351746261581,0.121026755729426,0.120564484764012,0.121114777609993,0.0742276031573435,0.00331585345164511,0.00313588157917384,0.00324957184805653,0.00338158245214768,0.00328803341201846,0.00340475669993978,0.00323611431094536,0.0185114012834024,0.00313993999519327,0.0743162180158097,0.0739784223906262,0.0739944638500794,0.0738455305677531,0.0734047730952996,0.0741263705813957,0.0726152716406613,0.0720941132433786,0.0304459701323752,0.00321428059001154,0.00344738717569106,0.00359813342918923,0.00348957935760147,0.00340645686216309,0.00371971439244911,0.00392767634321038,0.00534451068808961,0.0281905013015029,0.00431967246193234,0.00366230086711882,0.00351883857119089,0.00361051295257866,0.00336233445252934,0.00349330907874249,0.00313736975374326,0.00324566559313948,0.0030068285130523,0.00332808294088577,0.0033640197970223,0.0357963979300083,0.0377318262964146,0.0369356129293249,0.0380522962894224,0.0369371693777291,0.0375377782101695,0.036046870526893,0.0359335029412597,0.0361264416945337,0.040571195161013,0.053916239942565,0.0392881444438596,0.00395528627223695,0.0359979678506368,0.0535301140388269,0.0553034991732737,0.0553799026463635,0.0573367662254947,0.0647577172096886,0.064934012562916,0.0656588738032818,0.0650908846487374,0.00302900999909691,0.0719219324437755,0.0790631737715544,0.0783074925381668,0.0794745683822697,0.083508813688136,0.0881185529057249,0.0626666337392456,0.00309101606076431,0.00325569071801083,0.00333017198570704,0.0342705795083987,0.100606377504005,0.100071067865806,0.100485605386388,0.0999228183259946,0.11000918007805,0.11056337074477,0.111557796733424,0.112118872036374,0.112571261891869,0.00384864169911093,0.00340677521364876,0.00356744496488128,0.00330019584683789,0.00347068672006667,0.00333459100884223,0.00337507014829779,0.00316938207051887,0.00323162855216725,0.00309897897420856,0.00310586546206838,0.00304922403870259,0.0907978389628999,0.16850887551537,0.162925898243776,0.172084999998649,0.0017430712583429,0.00275609561479523,0.00246014714081337,0.00259879892213541,0.0019088582553755,0.00232637598701989,0.00189049957604825,0.00240706585351264,0.00219909029411435,0.00285112391581913,0.203235664440606,0.217232179685115,0.215707931746351,0.217739053130224,0.218267084872274,0.21931928707599,0.219248453339284,0.219869142935781,0.220182186809423,0.220616961129344,0.220529491523208,0.220832914282878,0.104544510301453,0.00303607624362591,0.0030660982874336,0.00318696554039747,0.110229368558028,0.259882021445688,0.120122340067365,0.00314835136422898,0.151870335687042,0.257884344865673,0.258694495676829,0.262755057927593,0.262566516419583,0.26380691787947,0.000549715056961705,0.0021432423667566,0.00116355736298001,0.279121999999969,0.194305188463099,0.27807199999998,0.00218820426144994,0.00271500163283708,0.00217289836602356,0.00242581209474708,0.00127997432820588,0.00211402858509775
0.143226803818174,0.142687531758589,0.142021505407703,0.140091245168231,0.13826538893379,0.137542155980226,0.136154090881015,0.135162628201617,0.134627648697284,0.134312140004394,0.133992747040348,0.133035842615056,0.132168074388121,0.129399475932425,0.127890959437918,0.12435540107784,0.12197097001464,0.121159351516961,0.120710530320568,0.120562193275138,0.120663016383206,0.0609068505129187,0.00311604928024348,0.00302864671304136,0.0119767156785483,0.0195191067576003,0.0295289923646696,0.0403860195930617,0.0508507803233348,0.0587603549836375,0.0661686458113826,0.0744496913943931,0.0741663355914013,0.0734326096568473,0.0726136431649115,0.0723685019327498,0.0721623788353252,0.0717637565132303,0.0715054536234716,0.0444595778723331,0.029643153294658,0.011493639141655,0.00338175692612937,0.00339647968873181,0.00330256465416663,0.00351509426583164,0.00362903727512364,0.00400523463161871,0.00359615236964357,0.00368268356281231,0.00345184781805813,0.00347014015530486,0.00332401443006325,0.00337755781554691,0.00319774053106682,0.00326336682040051,0.00316885348893817,0.00324311826119643,0.00342717288606409,0.00420566854967127,0.0065717616251143,0.00913958481489303,0.0118715061295529,0.0148592524709636,0.0182304030410051,0.0219973069843998,0.0260530681561813,0.0302710110506477,0.0330445048638854,0.0323025081234219,0.0308931901373565,0.0272893915295432,0.00716768992994957,0.0126495153922588,0.018208089550735,0.0240570227973512,0.0319217682136249,0.0398696129688157,0.0470204740146473,0.0540767531946868,0.0589198574389471,0.061895478496054,0.063389857825246,0.0699365749634818,0.0706815455712895,0.0740316887340387,0.075400283050732,0.0746283600448316,0.074488674495901,0.0496889829860256,0.0032678863100049,0.00330662235095006,0.00328053770114674,0.0237519946933542,0.0977792427213657,0.0991598738244767,0.0997038361311714,0.0996502798751198,0.109236082512306,0.11011117381731,0.111804606736538,0.112246931887929,0.112414651477307,0.00389006211967475,0.00367361512848597,0.00360881170509655,0.00351539207536012,0.00345757805432082,0.00340981228762749,0.00337201627373568,0.00334325959491315,0.00328638008716305,0.00322620307682982,0.0543112160287066,0.0796556483593875,0.11440776535556,0.156246093160712,0.156008425286364,0.0894331752037469,0.00234764430744227,0.00252383012007701,0.00204104925049955,0.001331445536875,0,0,0,0.000759936177445339,0.00156600054622268,0.00237511671502029,0.202657855732033,0.205871185757776,0.210426767870201,0.215749339794955,0.217435353836588,0.218366532361343,0.218196896297225,0.218765653153748,0.219459058264308,0.22036728881745,0.220102885129522,0.219957277220559,0.128380099556745,0.00312421528725189,0.00317682115892315,0.00328265413195823,0.00347175643072279,0.0034848687322323,0.00342617346532291,0.00328238676174296,0.122043240203371,0.258477166242194,0.259198315096705,0.260560122102842,0.26114042654382,0.261499769060261,0,0.00149524482038177,0.00147382388272821,0.00127082750758185,0,0.00100401655714998,0.00167004234294289,0.00192018154728065,0.00132656954615737,0.00121951566305028,0,0.0012504287478083
0.00305112999987374,0.0398468190982123,0.00323929999963102,0.0318731753994775,0.00332248999969778,0.0591472164610404,0.00319597999980973,0.0654880977493802,0.00325757999989383,0.135809304856396,0.138429722283045,0.135832828306763,0.137323000238022,0.129413858916817,0.129699495507683,0.123002833378766,0.120954619052203,0.120830293441659,0.120309664215025,0.12051497142488,0.120466164919385,0.047478390406982,0.00322314712925978,0.00312029506262034,0.105938999999593,0.0638524963390984,0.100900999999128,0.0623752711510644,0.0754094241043336,0.0749198687701945,0.0749709931919667,0.0745791660143228,0.0746220129201696,0.0730058590632488,0.0708519693097653,0.07152076639754,0.0705394432832048,0.0709799775602248,0.0707927234699001,0.0711475447630413,0.0714417390352637,0.0210345743569639,0.0032940697256511,0.00325044794270881,0.0032505852558683,0.00330854164827662,0.00347667038408125,0.00351184922130069,0.00340047270370103,0.00341258884688486,0.00346806657989579,0.00329074177335258,0.00336524303876463,0.00318319017202672,0.00319578507199809,0.00321137572996518,0.00348575834795687,0.00330003351059558,0.00341311030369198,0.00359189951783471,0.00335710739975474,0.00351399325407099,0.00353763715379172,0.00345087038262906,0.00357036116012281,0.0172665582804201,0.0196487888900268,0.0255932746628886,0.0334170014715164,0.0330169200311601,0.0333448636182105,0.0243204356862074,0.00382744824216891,0.00446582913129244,0.00357549763178042,0.00365175506839891,0.00331766845858685,0.00340643642165433,0.00343722104586194,0.00335855622040992,0.00318522491167754,0.0282256227672701,0.0654518434648533,0.0678351296371797,0.0684691937711223,0.0719612341121013,0.0735658052354489,0.0741843852387208,0.0745166824081311,0.0335129773934287,0.00334569364973663,0.00334950242626816,0.00314534526406504,0.0143702001615664,0.0963855150517481,0.0430834232483812,0.00313736728225758,0.0512153117091425,0.107574258284937,0.108836508103534,0.113304608229286,0.112663520705225,0.112449384157883,0.00376027085837433,0.00341141757046172,0.00354372680595285,0.00335040608221075,0.00342001608070952,0.00317017795672357,0.00336217054892279,0.0033284373916153,0.00331713413531095,0.00320569407515421,0.0769077279823532,0.166068178349001,0.153963411149094,0.156404720621395,0.155635997806075,0.00325932472587262,0.00286473339815625,0.0030013987110635,0.0909828127596722,0.17645389844737,0.176100405228135,0.181547485162569,0.181763604800161,0.187482377875406,0.117263686950746,0.00294424742675387,0.2018425882805,0.203269323348341,0.205209630573666,0.217881288806987,0.217868091966023,0.218703853686033,0.216646459674863,0.217377973496783,0.218626115472015,0.221164460847209,0.219616037977849,0.218922110346969,0.152375853725991,0.00313746517566944,0.00316675560530351,0.00316241161053346,0.00336595425657382,0.00327368326815443,0.00326359548425496,0.00313922500901931,0.0921159530642517,0.258207970343904,0.258856689146369,0.259052304741761,0.259918784630989,0.259584102336084,0.0015442075330199,0.00244746529696703,0.0021112434730108,0.00246489470212149,0.00138752206320484,0.00214820853316836,0.00173901900031246,0.00217913141512659,9.3833452709824e-05,0.285050861580348,0.285251987659086,0.285239700124651
0.105371433354513,0.0639447475312264,0.0331611588885518,0.0382048363374275,0.0544226074958491,0.070404411017786,0.0876326347509146,0.103674735219881,0.118136987037499,0.136848551298588,0.136966984599771,0.134792006937502,0.131913268837195,0.129499945529784,0.127614116817066,0.123998353180514,0.121690950331119,0.121077183799715,0.120858059599609,0.120882219023785,0.120999822987024,0.0350284477286834,0.00324010154452646,0.00325467399157588,0.0162002837515222,0.0270754662554745,0.0395073006665314,0.0524895473349245,0.0748184318701926,0.0746208508571285,0.0745127159477342,0.0741735690234213,0.073518685047223,0.0731132458460393,0.0727690665184014,0.072452964090813,0.0712512126296459,0.0709823400274765,0.0709656465751835,0.0712926401224313,0.0716758905893008,0.0312143697385129,0.00324632539081567,0.00325951299937618,0.00322754526644982,0.00332724973065757,0.00335455935455273,0.00349377414312332,0.00343780949727714,0.00344756894922805,0.00328312743611903,0.00331372521717559,0.00319185050325713,0.0033044589392881,0.003222067790784,0.00343490334538292,0.00343120517058922,0.00359339304147298,0.00355253551187739,0.00374152870369332,0.00366922042017735,0.00368181522173427,0.00351230980828828,0.00347917819964157,0.00342911383637029,0.0149782031435989,0.0174709304040781,0.017351104216101,0.0178372063267751,0.0191825262741701,0.0213264449208231,0.0220681276514109,0.0148095381861776,0.00523114215814355,0.00413815437697749,0.00380941251953814,0.00347831779895903,0.00344308729846285,0.00337507320771904,0.00338540405547157,0.00326382319063275,0.00314603113689617,0.00284528879468655,0.00253788118885127,0.00228513149529222,0.00202098707257019,0.00249645760060043,0.00295334992241313,0.00330189991422496,0.00348116357432009,0.0034495083822963,0.00347495402946725,0.00344529371396993,0.00359669022510982,0.0035846922426805,0.00357258068544897,0.00343742146905969,0.00349517059368726,0.00348009473712717,0.00353358609960356,0.00354582802927043,0.00359136520200063,0.00357491624600771,0.0036227009380051,0.0035161156543449,0.00349936453493025,0.00345474658574551,0.00340720969473996,0.00336308440007637,0.00333811630352276,0.00333393050302166,0.0033189514108913,0.0711889242421271,0.0996534399214944,0.151096233214483,0.152380906186338,0.15380637492334,0.154547591495214,0.155334444624541,0.156533393871857,0.159644593222965,0.163464633238646,0.174555653184664,0.175986020105641,0.179262533766017,0.18026777748843,0.189917397071349,0.192327608237112,0.193858897952473,0.199977905301444,0.200841560527326,0.20250770648027,0.203708623919337,0.205740788318569,0.209154816876455,0.212235731762658,0.214292332315633,0.216330673380979,0.218328169332598,0.218177096658573,0.218051814420964,0.176506835344256,0.152910281217187,0.129422772428624,0.106044372974355,0.0827312496449533,0.00316095655105598,0.00311592276923496,0.0029492428830419,0.0024203467255083,0.00168900779045561,0,0.000462023544393408,0.00063240128469022,0.00182750235157576,0.0021245832781445,0.00239963778065004,0.00215983117990655,0.00193698781608022,0.00110786842333529,0.00136926506899649,0.00127723274728909,0.00132228578220153,0,0.285484488078751,0.285443935132285,0.28539180974225
0.180713832581789,0.0911279413701892,0.00319372999982621,0.0933159310059804,0.165645581813224,0.165047068748041,0.166063040648827,0.146981850670157,0.136499773072969,0.138185931935771,0.13811966954776,0.0857799892916236,0.00321580972821847,0.00305885373285706,0.0028678524587719,0.0841453863026132,0.120916364792928,0.121064274209369,0.121278959276336,0.121275202188913,0.121743450030001,0.0241268839583626,0.00320110095023619,0.0033878230210284,0.00351296824320016,0.00342403463703286,0.00311522131123094,0.0318328114325355,0.103618999999418,0.0341679200689934,0.00323203457553837,0.0448022417123595,0.0722060560576224,0.0733274942889492,0.0747696834808125,0.0745211604015393,0.0030026899894293,0.0156147488351323,0.00323958999691479,0.0715194977595327,0.0723731432663498,0.0418939464630038,0.00324682989260606,0.00326369330595849,0.00329054394324821,0.00329618203154214,0.00335124364456938,0.00349444472321167,0.00360165612627775,0.00342757379091818,0.00321267873868834,0.00319064164526799,0.00323011685424161,0.003231679574123,0.00346098829611487,0.00347249971496462,0.00375197369474515,0.00378438856175806,0.0039753188659585,0.00396939883051792,0.00417752790653088,0.00388104259155201,0.0036377693429398,0.00366923327849995,0.00356300536765775,0.0104603014034072,0.018259282008155,0.0127598277675743,0.00426821440431137,0.0180315987549566,0.0232275228189749,0.0209966764233461,0.0224286326969815,0.00542886997846454,0.00352123270655958,0.00357529837493143,0.00333812231836996,0.00333916420447615,0.00328922653456963,0.00332516417182066,0.00334316988440355,0.00319249681093249,0.00305605035719398,0.00283467705462601,0.00297045457693955,0.0026576620639016,0.00298884604332661,0.00317257514664579,0.00339460729348899,0.00347592287072739,0.00330172567430762,0.00346689875844258,0.00334968361293706,0.00350041713528726,0.00331808740187044,0.00347294769014988,0.00340121647884818,0.00340128127761237,0.00327109814729526,0.00337823494573572,0.00333720799381196,0.00341858713147204,0.00328675964188199,0.00342868469178634,0.00328854920159335,0.00341156221358453,0.00331062815378125,0.00338999333005682,0.0033070272965863,0.0033137976612003,0.00319611484474903,0.00327532891198792,0.149419372137192,0.149884160132646,0.150367561039524,0.15132094753722,0.152266387515318,0.153598502893386,0.155199969312529,0.15512303916368,0.169215179091229,0.167934120289613,0.171378248842773,0.174224046806675,0.00337039999999999,0.179632546805606,0.195298301866011,0.193506870240291,0.195807234106585,0.19752123381648,0.197759903096438,0.200614395619029,0.202790726124426,0.204040674137486,0.205058060517476,0.208862720381544,0.211027237435731,0.214264922866891,0.217449166299372,0.216835146927661,0.217024698944855,0.217137583608397,0.226650793467796,0.226693137352342,0.226367096808499,0.124632550596607,0.00307644756942806,0.00309658163958292,0.00313572023310496,0.0027303065553692,0.00269661456363133,0.00192383878877358,0.00249638574030748,0.00209687637482577,0.00274143622646328,0.00263038696338571,0.0028566575530756,0.00224024537346481,0.00218591170770327,1.27175708169821e-05,0.282169,0.00158883668304967,0.00204715154752255,0,0.285937199717249,0.285624310161877,0.28548305376694
0.176724455297079,0.166263665904127,0.165784827737116,0.16538668399592,0.165052093629261,0.163753843501555,0.158708497130232,0.1549008874276,0.148516408187167,0.143155355711514,0.0846439387527363,0.0580881723460718,0.00313714742045484,0.00288580556607047,0.00197343431865522,0,0.000102021325801785,0,0.00165400066320015,0.00238150492495231,0.00289576864703068,0.00320047613882192,0.00335471558046914,0.00344077372987829,0.0034912822235837,0.00349499981676281,0.00350240056674914,0.00379249383797498,0.00387540236585378,0.00389763853399527,0.00363576822505918,0.0286255152734961,0.0422723281695616,0.0564512532053346,0.0755755409528197,0.0764792337895556,0.0152724203537133,0.0314746186444572,0.0454441997308441,0.071037011039291,0.0712159600669666,0.0530064794321302,0.0288125811268035,0.00332904088864802,0.00328757541395189,0.00334651142556114,0.0034523274149171,0.00360436405045021,0.00362978151815832,0.00355527041918297,0.00335909729914915,0.00330774832797704,0.00323094462257328,0.00338669951834841,0.00343669235846551,0.00376219502198288,0.00395337959532138,0.00437671784470514,0.00464402938865969,0.00449506037738344,0.00419260126727568,0.00438447931708789,0.00429190664755632,0.00443597775912597,0.00468887482853649,0.00644158848912977,0.00597235022978003,0.00756299082404062,0.00629796131606642,0.00801151257536277,0.0122333562371051,0.0163428707108227,0.0206436833316633,0.00463637954530198,0.00389927126662403,0.00369186207586835,0.0034249250044136,0.00346469548607393,0.0033227229164151,0.00340410086398583,0.00329761607052719,0.00330144368570163,0.00315718377847548,0.00307367423530624,0.00302100004542955,0.00301762886821349,0.00313905814855551,0.00334946402848363,0.00344182062930674,0.00351474528692687,0.00347482499705258,0.00352311176561021,0.00351006135374275,0.00351185990932217,0.00344173759447764,0.0034259466005333,0.00335287432421171,0.00333421804284732,0.00328652103057135,0.0033061547761937,0.00329490571789991,0.00333365162271522,0.00331223581315519,0.00335392712021638,0.00333046073112782,0.00336703373221743,0.00337198363692607,0.00335131219762505,0.00332806433621133,0.00328465949451408,0.00326870164922124,0.00327018329743346,0.149968444255796,0.149972197135774,0.150015915588409,0.150657678890606,0.151297830807998,0.152603761503878,0.153760728811433,0.154134627844208,0.166771345176261,0.167961197625008,0.173141752626088,0.175482755458642,0.177744298854369,0.178985845963404,0.183828702126555,0.190850033609421,0.194701906302652,0.196630372063263,0.197812821694574,0.199367054861345,0.200876207481937,0.202380716843446,0.204077732463944,0.20691553458441,0.210221927276549,0.212085649003151,0.213837075099918,0.214499076365009,0.215215660144927,0.217141900148662,0.226578386535063,0.22728675114219,0.227616247549244,0.166698494779218,0.142177319560955,0.117855753009822,0.0936002260227723,0.0693851492065234,0.00275228263361687,0.0025551897823951,0.00267040076317723,0.00260756989650818,0.00278797974222112,0.00274934666629578,0.0026011280762711,0.00178369517572783,0.000547300223961564,0,0.00149856467995619,0.00181127178948898,0.00201583979740628,0.0014486547293411,0.125984711515523,0.270978047757477,0.273952249236183
0.00304414999999999,0.167699531535505,0.166520848605197,0.166094474117974,0.165905956485479,0.164956915932644,0.0031936699999998,0.158385856866632,0.165380915132392,0.154698500160558,0.00317848582163267,0.00305848144393661,0.00309257811021468,0.00308378824393051,0.148182999999981,0.00165868525794669,0.00242518365915877,0.00186248750479729,0.00265967422726434,0.00267954237651301,0.00302824175525894,0.00320033827297323,0.00334792490377334,0.00339466395439218,0.0032663183172627,0.00344206026701355,0.00328305124811885,0.00363056562610201,0.00338962518339998,0.00371092509967274,0.00341453038641113,0.00344564429167231,0.0032229025285901,0.0451072284298972,0.0918054999994404,0.0793778762789597,0.00318220999692045,0.0517023463504307,0.0702952554888974,0.0705319819211783,0.0703523404010059,0.0634385306347002,0.0720172000083286,0.00334428883388987,0.00320850844042039,0.00322670345295763,0.0563335999938369,0.0276308519440787,0.0479581000238074,0.0302722537177331,0.0503327999942486,0.00324582795973512,0.00332674887534797,0.0033461642973633,0.00360908503445814,0.00378837138016889,0.00447290946463625,0.00476167855644521,0.00632756285480149,0.00482026002957794,0.00423008479460087,0.0048033382938004,0.00522161666596366,0.00501517169499309,0.00489594424140168,0.00499835822285294,0.0045455880146589,0.00546553730996198,0.00565926578194258,0.00550297459704976,0.00387282601063918,0.0113592147800397,0.0230131698070751,0.00427620790774065,0.00388044973880165,0.00371038699558434,0.0035094983961133,0.00340902475530365,0.00336479911740676,0.00331484948774775,0.00330009574927157,0.00328112389448107,0.00333899450585947,0.0031854073591417,0.00314525681464508,0.00321319947848379,0.0558296999984384,0.00347039632535043,0.0033182562060283,0.0034559225511645,0.00334347642245961,0.00347145277690768,0.00345950082846771,0.00345125021862965,0.00335161598660472,0.00332487017479701,0.00315339030297003,0.00323704243993643,0.00318742204157471,0.00322050253704514,0.00315703438040115,0.00323625796093245,0.00320441426459269,0.00326294447026219,0.00320826997649007,0.00331358845071219,0.0033296002605074,0.00332648158384402,0.00327101803771311,0.00328395440286526,0.00329153706097501,0.00328186452245908,0.150573617054309,0.150114300326901,0.149231148834428,0.150215697058199,0.149891218589246,0.152035612533919,0.15350343857032,0.154127961581675,0.163242628168232,0.164846793002688,0.177256456449513,0.176899067163579,0.178815755804898,0.17959284481888,0.179398937109147,0.188016576925548,0.195634640154045,0.196813930438151,0.197500154745121,0.198557028548083,0.198783776155788,0.200657714419404,0.201730607550878,0.204666454501687,0.210767384496075,0.210313369808393,0.211204368170173,0.212091906092739,0.212007177398455,0.215633710601802,0.229168538760633,0.228446423283439,0.229366881385363,0.231053919063028,0.231990963257164,0.234606925598147,0.237240420697111,0.10033342854148,0.00306661829332684,0.00292975848645836,0.00308934308345858,0.00293870785944583,0.00306444449203421,0.00293940408191023,0.00299308804472568,0.114676943102332,0.265032999999161,0.13729339619719,0.00280136592690115,0.0024578428555426,0.00290809182319835,0.00241797075774628,0.00297551953385429,0.26919746358963,0.271506982123218
0.176646988656425,0.171117608211581,0.168035629916048,0.167148059942754,0.166969520396892,0.165767291629274,0.16517591858282,0.164349527152232,0.16488693633998,0.159506994531653,0.0862057181296762,0.00281617927279135,0.00298301337010814,0.00297165411457027,0.00281000999383824,0.00241741110225126,0.00249643146730728,0.00235318145732446,0.00261339126348476,0.00267766933410689,0.00293210928618271,0.00303620129782567,0.00321059070399576,0.00323882350580177,0.00332469797512034,0.00339879342772038,0.00348862571153689,0.00360867816895607,0.00365194403517935,0.00367006023243605,0.00354975430780951,0.0034843740621926,0.00336257591079278,0.0337526154810492,0.0840981989201292,0.0820716225550781,0.0796389907455055,0.0768004887647849,0.0736259976795908,0.0507978672340441,0.0400993271169116,0.0294968878211243,0.0191471499774333,0.0033827868466727,0.00324595330985158,0.00310756578064845,0.00288103658578916,0.00273669569220516,0.00279204813214962,0.00287732092580686,0.00301401694833562,0.00320537736971363,0.00327343759747158,0.00344168669396088,0.00351563317552281,0.00382242704857655,0.004004406070014,0.00446908779721608,0.0047675834329783,0.00485001013437742,0.00476616618322355,0.00594241350955337,0.00674513129857925,0.00610611965006651,0.00522313789896084,0.0048010459405941,0.00426201597901358,0.0046017438397954,0.00462406991165542,0.00477034219538327,0.00476859521631376,0.00654114613953762,0.0052224073221496,0.00464569654038694,0.00421967131479662,0.00417276330496641,0.00368917665495689,0.00360926173302813,0.00335010185742042,0.00345087842403033,0.00331638628651903,0.00337701651677019,0.00328043950785513,0.00331389441017231,0.00327186711211576,0.00339185568056887,0.00346727656240263,0.00351658191494744,0.00345222074330275,0.00345700517357612,0.00338456645427647,0.0033948440577873,0.00336206022702629,0.00334597512848537,0.00328909866743653,0.00327319075775008,0.00321797298140717,0.00322801983527491,0.00320749259778079,0.00321912792999706,0.00320762260138185,0.0032210465951583,0.00319897102367485,0.00323835321663184,0.00323702273979109,0.0032771958678719,0.00327772999996409,0.00328081858602378,0.00326635802871119,0.00325362084356872,0.00325638027314238,0.00328587897143427,0.150949121036504,0.150763651297724,0.150722945896395,0.15125482758302,0.151875489865264,0.152407202749175,0.153611352671098,0.155338850254618,0.159078046369837,0.163958814085373,0.175246249704432,0.176163139603037,0.179716882342462,0.181180661458205,0.182717464761887,0.185179864996711,0.1969704487699,0.197553581908273,0.198298947034198,0.198474004845774,0.198995505898003,0.199513253690878,0.200122712757087,0.201665272855397,0.204073053789959,0.207398014204376,0.20960318394637,0.210582465614216,0.212871987375276,0.213810571508252,0.227638698113278,0.227989740767507,0.230854036823399,0.231906891495218,0.23340759941438,0.234643437583651,0.235877151167976,0.131341298505127,0.00308310397317904,0.00305784148718654,0.0031062162572603,0.00304387257164924,0.00304970283775679,0.0813560006114313,0.122497404715818,0.163814741600471,0.25654210294526,0.25693992925128,0.257839004541832,0.258586365275269,0.259787932198804,0.260427436781365,0.261304605843706,0.266091281405634,0.265546645787005
