2.31296295040492,2.3132028812098,2.31359276876773,2.3145025064029,2.31404263902688,2.31474243720778,2.31563218060922,2.31640195860821,2.31730169912652,2.31873128683893,2.31940109366923,2.32054076499241,2.32326997789793,2.32161045649751,2.32171042766621,2.32265015665199,2.32301005285931,2.3233499548329,2.32390979337762,2.32529939262255,2.32553932342744,2.32219028927597,2.28043233210978,2.27948260600712,2.27911271268293,2.27774310767174,2.2772532489451,2.27806301541158,2.2776231422693,2.27727324317884,2.27721326047762,2.2772532489451,2.27824296351524,2.27885278764431,2.2783229404502,2.27865284530691,2.27849289143699,2.2791227097998,2.27970254257827,2.2794226233059,2.27968254834453,2.28028237535673,2.28086220813519,2.2808921994858,2.28240176413318,2.28195189387403,2.282261804497,2.28318153924904,2.2837613720275,2.28606070890762,2.28693045807531,2.28849000830704,2.33788576276195,2.33750587232088,2.33905542543574,2.33952528992863,2.34007513135649,2.34157469888699,2.34069495260243,2.3426743817427,2.34074493818678,2.34103485457601,2.33841560995606,2.33881549463086,2.34037504486259,2.33728593574974,2.33784577429446,2.33745588673653,2.33809570221622,2.33787576564508,2.33929535624062,2.33942531875993,2.34071494683617,2.34042503044694,2.34048501314816,2.34146473060142,2.34169466428943,2.3423744682366,2.3420745547305,2.34284433272949,2.34219452013294,2.34274436156079,2.3429742952488,2.34165467582195,2.34159469312073,2.2918390424585,2.29090931058959,2.29002956430503,2.28938974882534,2.28870994487818,2.28868995064444,2.28712040329584,2.28661055033547,2.28695045230905,2.28691046384157,2.28744031103568,2.28595074062205,2.28676050708852,2.28651057916677,2.28683048690661,2.28669052727043,2.28603071755701,2.28653057340051,2.2862006685438,2.28619067142693,2.28642060511494,2.28697044654279,2.28566082423281,2.2860007262064,2.28595074062205,2.28649058493303,2.28683048690661,2.28627064836189,2.2865005820499,2.28704042636088,2.2861006973751,2.28669052727043,2.28713040041271,2.28688047249096,2.2866005532186,2.28745030815255,2.28769023895743,2.28855998812513,2.28964967386396,2.28917980937107,2.28969965944831,2.2896696680977,2.29213895596461,2.29075935383654,2.2904394460967,2.29119922697882,2.29172907417293,2.2912392154463,2.29443829284472,2.29308868206726,2.2943783101435,2.29612780559575,2.2955779641679,2.29344857827458,2.29889700696876,2.35966948042178,2.35794997632013,2.35597054717986,2.35786999938517,2.35799996190448,2.35806994172257,2.35946953808438,2.36036927860268,2.35970946888926,2.3588297226047,2.35966948042178,2.3585598004492,2.35930958421446,2.35886971107218,2.35908964764332,2.35895968512401,2.35846982639737,2.35917962169515,2.36144896722465,2.36039926995329,2.36540782550519,2.36246867314539,2.36228872504173,2.36488797542794,2.3665374997115,2.36827699804689,2.37035639835586,2.37013646178472,2.3718459687695,2.37318558243008,2.37617472037423,2.37681453585391,2.3765846021659,2.37889393616288,2.37841407455312,2.37864400824113
2.31278300230125,2.31336283507972,2.31301293598927,2.31314289850858,2.31378271398826,2.3145025064029,2.3151723132332,2.31616202780333,2.31678184904927,2.31738167606148,2.31843137333283,2.31957104465602,2.32015087743448,2.32086067273225,2.32171042766621,2.32227026621093,2.32280011340504,2.32340993753412,2.32319000096297,2.32285009898939,2.32185038730239,2.32304004420992,2.28107214758946,2.2799924589675,2.27800303271036,2.27752317110059,2.27746318839937,2.27650346517985,2.27741320281502,2.27692334408839,2.2771532777764,2.27752317110059,2.27753316821746,2.27732322876319,2.27785307595731,2.27863285107317,2.2784229116189,2.27873282224187,2.27941262618903,2.27926266943598,2.27925267231911,2.27996246761689,2.28071225138214,2.281492026498,2.281492026498,2.28243175548379,2.28262170070432,2.28382135472873,2.28482106641573,2.28551086747976,2.28666053591982,2.28835004867086,2.33878550328025,2.33866553787781,2.33828564743675,2.33890546868269,2.33972523226603,2.3400051515384,2.34008512847336,2.3406049785506,2.34134476519898,2.33709599052921,2.3388354888646,2.33800572816439,2.33781578294385,2.33728593574974,2.33744588961966,2.33829564455362,2.33674609143876,2.33718596458104,2.33763583484019,2.33841560995606,2.33901543696826,2.33971523514916,2.34023508522641,2.34062497278434,2.3407049497193,2.34118481132906,2.3416046902376,2.34172465564004,2.34271437021018,2.34280434426201,2.34379405883214,2.34245444517156,2.33818567626805,2.29201899056216,2.29082933365463,2.28935975747473,2.28893987856619,2.28835004867086,2.28786018994422,2.28671052150417,2.28682048978974,2.28649058493303,2.28637061953059,2.28746030526942,2.28675050997165,2.28642060511494,2.28677050420539,2.28676050708852,2.28731034851637,2.28602072044014,2.28653057340051,2.2861006973751,2.28621066566067,2.28583077521961,2.28535091360984,2.28562083576533,2.28570081270029,2.28555085594724,2.28702043212714,2.28613068872571,2.28606070890762,2.2857308040509,2.28594074350518,2.28644059934868,2.28644059934868,2.28638061664746,2.28675050997165,2.28751029085377,2.28754028220438,2.28910982955298,2.28859997659261,2.28839003713834,2.28874993334566,2.28978963350014,2.28980962773388,2.28971965368205,2.28941974017595,2.28997957872067,2.29110925292699,2.29180905110789,2.2924088781201,2.29593786037522,2.29253884063941,2.2926088204575,2.29509810255814,2.2956779353366,2.29619778541384,2.29685759512727,2.30110636979704,2.35827988117684,2.35630045203657,2.357959973437,2.35777002821647,2.35901966782523,2.35834986099493,2.35885971395531,2.35847982351424,2.35908964764332,2.35916962457828,2.35886971107218,2.35841984081302,2.3581599157744,2.35822989559249,2.3583598581118,2.35818990712501,2.35847982351424,2.35987941987605,2.36112905948481,2.36038927283642,2.3630685001576,2.36222874234051,2.36404821761086,2.36675743628264,2.36668745646455,2.37021643871968,2.37019644448594,2.37123614464042,2.37301563144329,2.37564487318012,2.3763846598285,2.37657460504903,2.37768428502161,2.37920384678585,2.37880396211105
2.31262304843133,2.31264304266507,2.31292296193744,2.31326286391102,2.31319288409293,2.31413261307871,2.31519230746694,2.3161720249202,2.31641195572508,2.31717173660721,2.3189412262932,2.31967101582472,2.31984096681151,2.32068072462859,2.32126055740706,2.32192036712048,2.32253019124955,2.32312002114488,2.32292007880748,2.32400976454632,2.32054076499241,2.32150048821194,2.27949260312399,2.28032236382421,2.27950260024086,2.27765313361991,2.27693334120526,2.27678338445221,2.27706330372457,2.27697332967274,2.27717327201014,2.27729323741258,2.2768533642703,2.27771311632113,2.27807301252845,2.27844290585264,2.28020239842177,2.27858286548882,2.27921268385163,2.27933264925407,2.27983250509758,2.28007243590246,2.28011242436994,2.28083221678458,2.28182193135472,2.28165198036792,2.28318153924904,2.28450115867589,2.28534091649297,2.28595074062205,2.28722037446454,2.28935975747473,2.33664612027006,2.33806571086561,2.33872552057903,2.33809570221622,2.3384356041898,2.33874551481277,2.3395352870455,2.33849558689102,2.33749587520401,2.33698602224364,2.33702601071112,2.33698602224364,2.33659613468571,2.3370659991786,2.3376658261908,2.33681607125685,2.33673609432189,2.33662612603632,2.33809570221622,2.3374658838534,2.33839561572232,2.33876550904651,2.33988518613595,2.34037504486259,2.34053499873251,2.34115481997845,2.34143473925081,2.34106484592662,2.34175464699065,2.3422744970679,2.34219452013294,2.34340417127421,2.29394843411808,2.2919390136272,2.2910392731089,2.28923979207229,2.28861997082635,2.28785019282735,2.28744031103568,2.28684048402348,2.28716039176332,2.28722037446454,2.28648058781616,2.28673051573791,2.28588076080396,2.28622066277754,2.28572080693403,2.2867005243873,2.2867005243873,2.28571080981716,2.28617067719319,2.28606070890762,2.28569081558342,2.28619067142693,2.28631063682937,2.28584077233648,2.28537090784358,2.28596073773892,2.28646059358242,2.2866005532186,2.28595074062205,2.28681049267287,2.2855308617135,2.28618067431006,2.28708041482836,2.28706042059462,2.28696044942592,2.28725036581515,2.28791017552857,2.28776021877552,2.28810012074911,2.28841003137208,2.28891988433245,2.28893987856619,2.28975964214953,2.29024950087617,2.28989960178571,2.29004955853877,2.29069937113532,2.291339186615,2.29176906264041,2.29171907705606,2.29212895884774,2.29473820635082,2.29399841970243,2.29532803624615,2.2969475691791,2.29707753169841,2.35762007146342,2.35797996767074,2.3589296937734,2.3576600599309,2.35735014930793,2.35816991289127,2.35802995325509,2.35929958709759,2.35923960439637,2.35838984946241,2.35838984946241,2.35841984081302,2.35827988117684,2.3581599157744,2.35858979179981,2.35839984657928,2.35871975431912,2.35828987829371,2.3586597716179,2.3598294342917,2.36040926707016,2.36116904795229,2.36197881441876,2.36445809940253,2.36506792353161,2.36764717968408,2.36863689425421,2.36914674721458,2.37112617635485,2.37347549881932,2.37506504040165,2.37563487606325,2.37560488471264,2.37710445224314,2.37679454162017,2.37631468001041
2.31226315222401,2.31239311474332,2.31316289274232,2.31286297923621,2.3131029100411,2.31409262461123,2.31461247468847,2.31568216619357,2.31658190671187,2.31753163281453,2.3199109466296,2.31965102159098,2.31995093509708,2.3208106871479,2.32110060353713,2.32160045938064,2.32295007015809,2.32212030945788,2.32161045649751,2.32207032387353,2.32175041613369,2.32197035270483,2.28085221101832,2.28097217642076,2.27834293468394,2.27737321434754,2.27746318839937,2.27754316533434,2.27730323452945,2.27648347094611,2.276953335439,2.2770533066077,2.27850288855386,2.27835293180081,2.27775310478861,2.27881279917683,2.27878280782622,2.27877281070935,2.28100216777137,2.2803923436423,2.28028237535673,2.2801924013049,2.28090219660267,2.28142204667991,2.28184192558846,2.28278165457424,2.28247174395127,2.28354143545636,2.28524094532427,2.28623065989441,2.28867995352757,2.33551644606374,2.33742589538592,2.33721595593165,2.33760584348958,2.33784577429446,2.33782578006072,2.33840561283919,2.33950529569489,2.33790575699568,2.33680607413998,2.33709599052921,2.33669610585441,2.33611627307595,2.33662612603632,2.336266229829,2.33604629325786,2.3361662586603,2.33591633073855,2.33615626154343,2.33741589826905,2.33729593286661,2.33868553211155,2.33881549463086,2.33926536489001,2.33995516595404,2.34061497566747,2.34058498431686,2.3409048920567,2.34084490935548,2.34336418280673,2.34087490070609,2.3447437849348,2.34056499008312,2.34108484016036,2.29252884352254,2.29015952682434,2.28925978630603,2.2882700717359,2.28791017552857,2.28768024184056,2.28763025625621,2.28666053591982,2.28707041771149,2.28654057051738,2.2855308617135,2.28707041771149,2.28585076945334,2.28664054168608,2.28619067142693,2.28694045519218,2.28645059646555,2.28624065701128,2.286800495556,2.28591075215457,2.28603071755701,2.28621066566067,2.28555085594724,2.28592074927144,2.28688047249096,2.28647059069929,2.28559084441472,2.28613068872571,2.28651057916677,2.28599072908953,2.28585076945334,2.28655056763425,2.28646059358242,2.28687047537409,2.28881991316375,2.28779021012613,2.28691046384157,2.28828006885277,2.28881991316375,2.28867995352757,2.29363852349511,2.29038946051235,2.2907393596028,2.29001956718816,2.29059939996662,2.29000957007129,2.29137917508248,2.291339186615,2.29194901074407,2.29235889253575,2.2934085898071,2.2942783389748,2.29489816022074,2.29604782866079,2.29795727798297,2.35895968512401,2.35631044915344,2.35973946023987,2.35771004551525,2.35732015795732,2.36192882883441,2.35863977738416,2.35812992442379,2.35801995613822,2.35788999361891,2.35860978603355,2.35834986099493,2.35779002245021,2.35767005704777,2.357959973437,2.35834986099493,2.35854980333233,2.35883971972157,2.35925959863011,2.35967947753865,2.35876973990348,2.36006936509658,2.36152894415961,2.36293853763829,2.36489797254481,2.36804706435888,2.36872686830604,2.37096622248493,2.3706763060957,2.37225585056117,2.37488509229799,2.37430525951953,2.37526498273905,2.37591479533561,2.37452519609067,2.37593478956935
2.31102350973213,2.31146338287441,2.31285298211934,2.31270302536629,2.31307291869049,2.31366274858582,2.31456248910412,2.31518231035007,2.31633197879012,2.31694180291919,2.31791152325559,2.31962103024037,2.31990094951273,2.32093065255034,2.32125056029018,2.32125056029018,2.32147049686133,2.32144050551072,2.32190037288674,2.32098063813469,2.32053076787554,2.32240022873024,2.27956258294209,2.28028237535673,2.27766313073678,2.27767312785365,2.27729323741258,2.2768533642703,2.27763313938617,2.27657344499794,2.27680337868595,2.27769312208739,2.27755316245121,2.27814299234654,2.27829294909959,2.27818298081402,2.27886278476118,2.27917269538415,2.27943262042277,2.27948260600712,2.28007243590246,2.28018240418803,2.28085221101832,2.2807922283171,2.28172196018602,2.28198188522464,2.28300159114538,2.28399130571552,2.28472109524703,2.28738032833446,2.28800014958041,2.33674609143876,2.33811569644996,2.33720595881478,2.33724594728226,2.33731592710035,2.33727593863287,2.33730592998348,2.33730592998348,2.33709599052921,2.33565640569992,2.33540647777817,2.33500659310337,2.33557642876496,2.33480665076597,2.33536648931069,2.33548645471313,2.33527651525886,2.33537648642756,2.33568639705053,2.3363662009977,2.33681607125685,2.33778579159324,2.33896545138391,2.33889547156582,2.33876550904651,2.34093488340731,2.34034505351198,2.3407049497193,2.340804920888,2.34098486899166,2.34044502468068,2.3398352005516,2.3381356906837,2.29262881469124,2.29052942014853,2.28951971134465,2.28971965368205,2.28849000830704,2.28728035716576,2.28774022454178,2.28739032545133,2.28904984685176,2.28646059358242,2.28664054168608,2.28675050997165,2.28631063682937,2.28619067142693,2.28603071755701,2.28597073485579,2.28551086747976,2.28583077521961,2.28598073197266,2.28635062529685,2.28632063394624,2.28545088477854,2.2859007550377,2.28593074638831,2.28568081846655,2.28580078386899,2.28595074062205,2.28544088766167,2.28564082999907,2.28623065989441,2.28595074062205,2.28580078386899,2.28742031680194,2.28667053303669,2.28627064836189,2.28677050420539,2.28736033410072,2.28806013228163,2.28766024760682,2.28852999677452,2.28849000830704,2.2886699564107,2.28901985550115,2.28903984973489,2.28970965656518,2.28997957872067,2.29030948357739,2.29076935095341,2.29224892425018,2.29226891848392,2.29227891560079,2.29384846294938,2.29542800741485,2.29481818328578,2.29581789497278,2.29770735006122,2.35365121606601,2.3573601464248,2.35996939392788,2.35796997055387,2.35769005128151,2.35781001668395,2.35809993307318,2.35778002533334,2.35797996767074,2.35767005704777,2.35868976296852,2.35752010029472,2.35763006858029,2.35802995325509,2.35830987252745,2.35946953808438,2.35739013777541,2.35858979179981,2.35887970818905,2.35863977738416,2.35907965052645,2.35974945735674,2.3612990104716,2.36222874234051,2.36433813400009,2.36739725176233,2.36878685100726,2.37223585632743,2.37096622248493,2.37250577848292,2.3737154296242,2.37492508076547,2.3754849193102,2.37544493084272,2.37400534601343,2.37438523645449
2.31034370578496,2.31226315222401,2.31222316375653,2.31238311762645,2.31319288409293,2.31339282643033,2.31416260442932,2.31525229016816,2.31615203068646,2.31674186058179,2.3179415146062,2.31910118016312,2.31973099852594,2.32048078229119,2.32024085148631,2.32191037000361,2.32226026909406,2.32137052569263,2.3216804363156,2.32224027486032,2.32154047667942,2.32113059488774,2.28004244455185,2.27850288855386,2.27955258582521,2.27716327489327,2.27699332390648,2.27688335562091,2.27708329795831,2.27757315668495,2.27706330372457,2.27713328354266,2.27747318551625,2.27785307595731,2.27811300099593,2.27809300676219,2.27848289432012,2.27899274728049,2.27929266078659,2.2796925454614,2.27975252816262,2.28038234652543,2.28100216777137,2.28150202361487,2.28153201496548,2.28200187945838,2.2829616026779,2.28380136049499,2.28558084729785,2.28682048978974,2.28745030815255,2.33767582330767,2.33625623271213,2.33653615198449,2.3365661433351,2.33788576276195,2.33679607702311,2.33757585213897,2.33591633073855,2.33702601071112,2.33477665941536,2.33495660751902,2.33462670266231,2.33445675167552,2.33481664788284,2.33447674590926,2.33421682087064,2.33486663346719,2.33488662770093,2.33485663635032,2.33660613180258,2.33610627595908,2.33663612315319,2.33763583484019,2.33872552057903,2.33871552346216,2.33945531011054,2.3404050362132,2.34031506216137,2.33992517460343,2.33850558400789,2.33900543985139,2.33838561860545,2.33837562148858,2.29208897038025,2.2905394172654,2.29022950664243,2.28831006020338,2.28821008903468,2.28789018129483,2.28712040329584,2.28579078675212,2.28702043212714,2.28637061953059,2.28604071467388,2.2860007262064,2.28629064259563,2.28575079828464,2.28560084153159,2.28544088766167,2.28559084441472,2.28542089342793,2.28517096550618,2.28616068007632,2.28548087612915,2.28536091072671,2.28522095109053,2.28583077521961,2.28540089919419,2.28571080981716,2.28571080981716,2.28570081270029,2.28574080116777,2.28564082999907,2.28583077521961,2.28636062241372,2.28666053591982,2.28652057628364,2.28623065989441,2.28753028508751,2.28758027067186,2.28757027355499,2.2881701005672,2.28840003425521,2.28845001983956,2.28858997947574,2.2888698987481,2.28931976900725,2.28977963638327,2.29007954988938,2.29004955853877,2.29050942591479,2.29182904534163,2.29242887235384,2.29254883775628,2.2932086474697,2.2940084168193,2.294878165987,2.29750740772382,2.30082645052468,2.30382558558569,2.35791998496952,2.35641042032214,2.35807993883944,2.3576600599309,2.35777002821647,2.35770004839838,2.35833986387806,2.35777002821647,2.35720019255488,2.3564903972571,2.35652038860771,2.35803995037196,2.35777002821647,2.35505081242782,2.35675032229573,2.35771004551525,2.35772004263212,2.3578600022683,2.35860978603355,2.35833986387806,2.35975945447361,2.36037927571955,2.36252865584661,2.36334841942996,2.3655377880245,2.37282568622276,2.37058633204387,2.37178598606828,2.37282568622276,2.37387538349412,2.3750150548173,2.37457518167502,2.37518500580409,2.37344550746871,2.37349549305306
2.31141339729006,2.31125344342014,2.31152336557563,2.31200322718539,2.31321287832667,2.31389268227383,2.31386269092322,2.31538225268747,2.31600207393341,2.31679184616614,2.31772157803506,2.31880126665702,2.31962103024037,2.31999092356456,2.32163045073125,2.32161045649751,2.32113059488774,2.32045079094058,2.32129054875766,2.32197035270483,2.32402975878006,2.28041233787604,2.27957258005896,2.27897275304675,2.27740320569815,2.27708329795831,2.27662343058229,2.27700332102335,2.27717327201014,2.27688335562091,2.27686336138717,2.27686336138717,2.27775310478861,2.27750317686686,2.27804302117784,2.27750317686686,2.27836292891768,2.27868283665752,2.27938263483842,2.27970254257827,2.28034235805795,2.28016240995429,2.28066226579779,2.28162198901732,2.28181193423785,2.28198188522464,2.28322152771652,2.28380136049499,2.28588076080396,2.28594074350518,2.33471667671414,2.3363662009977,2.33618625289404,2.33601630190725,2.3364661721664,2.33658613756884,2.33584635092046,2.3356963941674,2.33530650660947,2.33495660751902,2.33383693042958,2.33403687276698,2.33388691601393,2.33308714666432,2.33386692178019,2.33335706881981,2.33354701404034,2.33405686700072,2.33426680645499,2.33461670554544,2.33483664211658,2.33576637398549,2.33653615198449,2.33687605395807,2.33800572816439,2.33885548309834,2.33934534182497,2.34013511405771,2.34013511405771,2.33911540813696,2.33856556670911,2.34023508522641,2.34052500161564,2.34116481709532,2.29095929617394,2.29027949222678,2.28912982378672,2.28891988433245,2.28727036004889,2.28774022454178,2.28668053015356,2.28603071755701,2.28601072332327,2.28582077810273,2.2865005820499,2.28565082711594,2.28560084153159,2.28558084729785,2.28608070314136,2.28617067719319,2.28537090784358,2.28541089631106,2.28568081846655,2.28609070025823,2.28569081558342,2.28566082423281,2.28460112984459,2.28545088477854,2.28409127688422,2.28546088189541,2.28601072332327,2.28555085594724,2.28520095685679,2.28605071179075,2.28549087324602,2.28580078386899,2.28627064836189,2.2861006973751,2.28636062241372,2.2865005820499,2.2870004378934,2.2880701293985,2.28843002560582,2.28802014381415,2.28830006308651,2.28879991893001,2.28869994776131,2.28934976035786,2.28960968539648,2.28963967674709,2.29004955853877,2.29169908282232,2.29136917796561,2.29474820346769,2.29226891848392,2.29302869936604,2.29433832167602,2.29548799011607,2.29627776234881,2.30080645629094,2.34892257978648,2.35605052411482,2.35861978315042,2.35731016084045,2.35803995037196,2.35751010317785,2.35779002245021,2.3573601464248,2.35768005416464,2.35701024733435,2.35622047510161,2.35820990135875,2.35831986964432,2.35724018102236,2.35625046645222,2.35715020697053,2.35700025021748,2.35690027904878,2.35769005128151,2.35773003974899,2.35817991000814,2.35896968224088,2.36147895857526,2.36247867026226,2.36304850592386,2.36490796966168,2.36826700093002,2.37092623401745,2.3700764790835,2.3716460264321,2.37336553053375,2.37380540367603,2.3745151989738,2.37520500003783,2.37492508076547,2.37499506058356
2.31027372596687,2.31023373749939,2.31091354144656,2.31177329349738,2.31225315510714,2.31278300230125,2.31356277741712,2.31465246315595,2.3154722267393,2.31668187788057,2.31669187499744,2.3192111484487,2.31860132431962,2.32016087455135,2.32045079094058,2.31914116863061,2.32050077652493,2.32015087743448,2.3209106583166,2.32185038730239,2.3229800615087,2.32117058335522,2.2789227674624,2.27870283089126,2.27744319416563,2.27751317398373,2.27609358338818,2.27598361510261,2.27640349401115,2.27781308748983,2.2771532777764,2.27707330084144,2.27712328642579,2.27858286548882,2.27815298946341,2.27788306730792,2.27830294621646,2.27875281647561,2.27878280782622,2.27889277611179,2.27918269250102,2.28018240418803,2.2818619198222,2.28212184486082,2.28208185639334,2.28284163727546,2.28324152195026,2.28447116732528,2.28580078386899,2.28758027067186,2.33082779825169,2.33510656427207,2.33553644029748,2.33688605107494,2.3367660856725,2.3369660280099,2.33552644318061,2.33551644606374,2.3350965671552,2.33433678627308,2.33370696791026,2.33375695349461,2.33337706305355,2.33286721009318,2.33263727640517,2.33285721297631,2.33340705440416,2.33344704287164,2.33357700539095,2.33394689871515,2.33523652679138,2.33504658157085,2.33603629614099,2.33650616063388,2.33724594728226,2.33830564167049,2.33816568203431,2.33890546868269,2.34016510540832,2.33864554364407,2.33817567915118,2.33937533317558,2.34057498719999,2.29269879450933,2.29101927887516,2.29001956718816,2.29159911165362,2.28903984973489,2.28803014093102,2.28736033410072,2.28754028220438,2.28604071467388,2.28666053591982,2.28586076657021,2.28645059646555,2.28580078386899,2.28584077233648,2.28601072332327,2.28598073197266,2.28569081558342,2.28586076657021,2.28566082423281,2.28562083576533,2.28540089919419,2.28579078675212,2.28567082134968,2.28584077233648,2.28509098857122,2.28531092514236,2.28554085883037,2.28538090496045,2.28529093090862,2.28562083576533,2.28534091649297,2.28560084153159,2.28593074638831,2.28598073197266,2.28614068584258,2.28692046095844,2.28652057628364,2.28706042059462,2.28721037734767,2.28749029662003,2.28774022454178,2.28816010345033,2.28840003425521,2.2887699275794,2.28865995929383,2.28912982378672,2.28897986703367,2.28933976324099,2.2912392154463,2.29019951529182,2.2920389847959,2.29207897326338,2.29296871666482,2.29660766720552,2.29570792668721,2.29680760954292,2.29882702715067,2.35243156780786,2.35730016372358,2.35650039437397,2.3566603482439,2.3568602905813,2.35612050393291,2.35743012624289,2.35662035977641,2.35658037130893,2.35620048086787,2.35634044050405,2.35749010894411,2.35568063079063,2.35654038284145,2.35560065385567,2.35573061637498,2.35643041455588,2.35719019543801,2.3570602329187,2.35804994748883,2.3583598581118,2.36188884036693,2.36053922958947,2.36265861836592,2.36394824644216,2.36498794659665,2.36712732960684,2.37056633781013,2.37090623978371,2.371346112926,2.37129612734165,2.37458517879189,2.37413530853274,2.37433525087014,2.3752149971547,2.37502505193417
2.30981385859085,2.31027372596687,2.31109348955022,2.3112334491864,2.31176329638051,2.31280299653499,2.3132028812098,2.3145025064029,2.31602206816715,2.31672186634805,2.31679184616614,2.31898121476068,2.31733169047713,2.31803148865803,2.31865130990397,2.3190411974619,2.32017087166822,2.3205107736418,2.3240497530138,2.32358988563778,2.32025084860318,2.27913270691667,2.27877281070935,2.27721326047762,2.27767312785365,2.27689335273778,2.27644348247863,2.27652345941359,2.27656344788107,2.27637350266054,2.27714328065953,2.2771532777764,2.27722325759449,2.2778230846067,2.27771311632113,2.27863285107317,2.27836292891768,2.27925267231911,2.27994247338315,2.27937263772155,2.27958257717582,2.28112213317381,2.28084221390145,2.28131207839434,2.28219182467891,2.2826616891718,2.28384134896247,2.28542089342793,2.28685048114035,2.3301579914214,2.33882549174773,2.3375658550221,2.33619625001091,2.33745588673653,2.33741589826905,2.33673609432189,2.33566640281679,2.334496740143,2.33407686123446,2.33357700539095,2.33371696502713,2.33319711494989,2.33241733983403,2.33188749263992,2.33219740326289,2.33228737731472,2.33281722450883,2.33301716684623,2.3331271351318,2.33370696791026,2.33441676320804,2.33504658157085,2.33554643741435,2.33629622117961,2.33717596746417,2.33788576276195,2.33731592710035,2.33989518325282,2.3393353447081,2.33792575122943,2.338035719515,2.33780578582698,2.33670610297128,2.33817567915118,2.28990959890258,2.28961968251335,2.28994958737006,2.28850000542391,2.28823008326842,2.2876002649056,2.28705042347775,2.28592074927144,2.28621066566067,2.28697044654279,2.28681049267287,2.28589075792083,2.28607070602449,2.28628064547876,2.28556085306411,2.28594074350518,2.28549087324602,2.2852309482074,2.28524094532427,2.28557085018098,2.28548087612915,2.28560084153159,2.28558084729785,2.28582077810273,2.28540089919419,2.28522095109053,2.28504100298687,2.2856308328822,2.28574080116777,2.28621066566067,2.28521095397366,2.28558084729785,2.28592074927144,2.28689046960783,2.28601072332327,2.28702043212714,2.28711040617897,2.28736033410072,2.28734033986698,2.28845001983956,2.28812011498285,2.28824008038529,2.28808012651537,2.28893987856619,2.28958969116274,2.29038946051235,2.29288873972986,2.29016952394121,2.2909393019402,2.2916391001211,2.29217894443209,2.29357854079389,2.29421835627358,2.29552797858355,2.29676762107544,2.30009666099316,2.35379117570219,2.35473090468798,2.353421282378,2.35617048951726,2.35656037707519,2.3560905125823,2.3562904549197,2.35664035401016,2.35670033671138,2.35614049816665,2.355190772064,2.35535072593392,2.35574061349185,2.35563064520628,2.35558065962193,2.35675032229573,2.35605052411482,2.35656037707519,2.35717020120427,2.35887970818905,2.35808993595631,2.36024931320024,2.35977944870735,2.36155893551022,2.36345838771553,2.36495795524604,2.36649751124402,2.37063631762822,2.36892681064344,2.37033640412212,2.37540494237524,2.37404533448091,2.3734155161181,2.37345550458558,2.37445521627258,2.37489508941486
2.30954393643536,2.30989383552581,2.31030371731748,2.31101351261526,2.31200322718539,2.31281299365186,2.31324286967728,2.31435254964985,2.31616202780333,2.31513232476572,2.31550221808991,2.31836139351474,2.31705177120477,2.31806148000864,2.31796150883994,2.31917115998122,2.31818144541108,2.320110888967,2.32126055740706,2.32173042189995,2.32356989140404,2.2801924013049,2.27905272998171,2.27708329795831,2.27680337868595,2.27727324317884,2.27590363816765,2.27633351419306,2.27728324029571,2.27731323164632,2.27783308172357,2.27809300676219,2.27806301541158,2.27732322876319,2.27769312208739,2.27799303559349,2.27814299234654,2.27843290873577,2.27864284819004,2.27880280205996,2.27931265502033,2.28005244166872,2.2805922859797,2.2815919976667,2.28197188810777,2.28302158537912,2.28386134319621,2.28554085883037,2.28560084153159,2.3387355176959,2.33672609720502,2.33721595593165,2.33713597899669,2.33663612315319,2.33700601647738,2.33719596169791,2.33681607125685,2.33410685258507,2.33385692466332,2.33338706017042,2.33266726775578,2.33260728505456,2.33170754453626,2.33091777230352,2.33139763391328,2.3314576166145,2.33122768292649,2.33216741191228,2.33259728793769,2.33239734560029,2.33347703422225,2.33433678627308,2.33486663346719,2.3355964229987,2.33658613756884,2.33751586943775,2.33771581177515,2.33844560130667,2.33751586943775,2.33759584637271,2.3360662874916,2.34125479114715,2.33431679203934,2.2909393019402,2.2901395325906,2.28923979207229,2.28880991604688,2.28732034563324,2.28667053303669,2.28644059934868,2.28618067431006,2.28599072908953,2.2861006973751,2.28678050132226,2.28569081558342,2.28572080693403,2.28597073485579,2.28603071755701,2.28567082134968,2.28544088766167,2.2852309482074,2.28527093667488,2.28527093667488,2.28515097127244,2.28583077521961,2.28636062241372,2.28556085306411,2.28515097127244,2.28541089631106,2.28517096550618,2.28526093955801,2.28575079828464,2.28541089631106,2.28579078675212,2.28544088766167,2.28577079251838,2.28550087036289,2.28598073197266,2.28735033698385,2.28723037158141,2.2886699564107,2.28772023030804,2.28787018706109,2.28815010633346,2.28863996506009,2.28791017552857,2.28874993334566,2.28879991893001,2.2888698987481,2.2904394460967,2.29020951240869,2.29108925869325,2.29017952105808,2.29082933365463,2.29211896173087,2.29268879739246,2.2932086474697,2.29504811697379,2.29635773928377,2.29756739042504,2.3549908297266,2.35327132562495,2.35553067403758,2.35504081531095,2.35630045203657,2.35630045203657,2.35585058177742,2.35627046068596,2.35580059619307,2.35522076341461,2.35585058177742,2.35565063944002,2.35660036554267,2.35438100559752,2.35522076341461,2.35565063944002,2.35616049240039,2.3554906855701,2.35679031076321,2.35724018102236,2.35807993883944,2.35880972837096,2.36026930743398,2.36101909119924,2.36437812246757,2.36836697209872,2.36768716815156,2.37167601778271,2.36888682217596,2.36978656269427,2.37276570352154,2.37241580443109,2.37398535177969,2.37406532871465,2.37309560837825,2.37512502310287
2.30939397968231,2.30959392201971,2.30983385282459,2.31080357316098,2.31157335115998,2.31224315799027,2.31313290139171,2.31326286391102,2.31701178273728,2.31339282643033,2.31588210853097,2.31623200762142,2.31745165587957,2.31786153767124,2.3204108024731,2.31922114556557,2.31985096392838,2.31990094951273,2.32095064678408,2.32080069003103,2.31912117439686,2.27985249933132,2.27886278476118,2.27689335273778,2.27603360068696,2.27628352860871,2.27698332678961,2.27671340463412,2.27700332102335,2.27709329507518,2.27643348536176,2.27721326047762,2.27732322876319,2.27734322299693,2.27760314803556,2.27804302117784,2.27821297216463,2.27850288855386,2.27878280782622,2.27975252816262,2.27970254257827,2.27997246473376,2.28068226003153,2.2815919976667,2.28239176701631,2.28382135472873,2.28444117597467,2.28582077810273,2.28796016111293,2.33027795682384,2.33834563013797,2.33727593863287,2.33700601647738,2.33739590403531,2.33621624424465,2.33645617504953,2.33436677762369,2.33309714378119,2.33288720432692,2.33275724180761,2.33152759643259,2.33132765409519,2.33093776653726,2.33108772329031,2.33044790781063,2.33102774058909,2.33094776365413,2.33117769734214,2.33193747822427,2.33249731676899,2.33295718414501,2.33360699674156,2.33548645471313,2.33640618946518,2.3358663451542,2.33679607702311,2.33713597899669,2.33733592133409,2.33774580312576,2.33722595304852,2.33708599341234,2.33444675455865,2.33491661905154,2.28972965079892,2.28915981513733,2.2887699275794,2.28808012651537,2.287800207243,2.2871004090621,2.28673051573791,2.2866005532186,2.2867005243873,2.28604071467388,2.28703042924401,2.28569081558342,2.28534091649297,2.28647059069929,2.28578078963525,2.28702043212714,2.28516096838931,2.28519095973992,2.28526093955801,2.28534091649297,2.28505100010374,2.28496102605191,2.28515097127244,2.28503100587,2.28521095397366,2.28522095109053,2.28564082999907,2.28564082999907,2.28527093667488,2.2852309482074,2.28574080116777,2.28571080981716,2.2853309193761,2.28576079540152,2.28602072044014,2.28709041194523,2.28725036581515,2.28761026202247,2.28705042347775,2.28754028220438,2.28804013804789,2.28818009768407,2.28828006885277,2.28788018417796,2.28897986703367,2.28935975747473,2.28957969404587,2.29292872819734,2.2909393019402,2.29047943456418,2.29204898191277,2.29168908570545,2.29319865035283,2.29352855520954,2.29506811120753,2.29648770180308,2.29903696660494,2.35467092198676,2.35572061925811,2.3545209652337,2.35532073458331,2.35531073746644,2.35527074899896,2.35564064232315,2.35717020120427,2.35524075764835,2.35501082396034,2.35504081531095,2.3549908297266,2.35574061349185,2.3536212247154,2.3545209652337,2.35426104019508,2.35570062502437,2.35501082396034,2.35643041455588,2.35768005416464,2.35839984657928,2.35862978026729,2.36034928436894,2.3613989816403,2.362498664496,2.3633684136637,2.36498794659665,2.36769716526843,2.36875685965665,2.36954663188939,2.3703763925896,2.37479511824616,2.37364544980611,2.37289566604085,2.37404533448091,2.37393536619534
2.30945396238353,2.30950394796788,2.30974387877276,2.31047366830427,2.31108349243335,2.31244310032767,2.31285298211934,2.3121331897047,2.31478242567526,2.3141026217281,2.31513232476572,2.31656191247813,2.31782154920376,2.31835139639787,2.31988095527899,2.31902120322816,2.3194110907861,2.32110060353713,2.32161045649751,2.31952105907167,2.32274013070382,2.27834293468394,2.27771311632113,2.27733322588006,2.27684336715343,2.27626353437497,2.27680337868595,2.27706330372457,2.27662343058229,2.27737321434754,2.27671340463412,2.27749317974998,2.27677338733534,2.27689335273778,2.27773311055487,2.27796304424288,2.27856287125508,2.27880280205996,2.27929266078659,2.27896275592988,2.27924267520224,2.28021239553864,2.28125209569312,2.28173195730289,2.28233178431509,2.28312155654782,2.28471109813016,2.28576079540152,2.28828006885277,2.32754874391832,2.32743877563275,2.33718596458104,2.33839561572232,2.33694603377616,2.336266229829,2.33694603377616,2.33454672572735,2.33284721585944,2.33268726198952,2.33228737731472,2.3307578184336,2.33037792799254,2.33042791357689,2.33017798565514,2.33027795682384,2.33026795970697,2.33028795394071,2.3306578472649,2.33121768580962,2.33163756471816,2.33249731676899,2.33284721585944,2.33435678050682,2.33565640569992,2.33623623847839,2.337265941516,2.33705600206173,2.33702601071112,2.337265941516,2.33699601936051,2.33637619811457,2.33727593863287,2.3379357483463,2.29134918373187,2.29005955565564,2.28915981513733,2.28890988721558,2.28789018129483,2.28673051573791,2.28662054745234,2.28615068295945,2.2861006973751,2.28557085018098,2.28596073773892,2.28542089342793,2.28568081846655,2.28522095109053,2.28584077233648,2.2843312076891,2.28539090207732,2.28515097127244,2.28529093090862,2.2852309482074,2.28502100875313,2.28515097127244,2.28517096550618,2.28542089342793,2.28598073197266,2.28481106929886,2.28494103181817,2.28566082423281,2.28545088477854,2.2862006685438,2.2855308617135,2.28542089342793,2.28518096262305,2.28571080981716,2.28617067719319,2.28597073485579,2.28612069160884,2.2861006973751,2.28713040041271,2.28747030238629,2.28815010633346,2.28811011786598,2.2893697545916,2.28821008903468,2.28796016111293,2.28919980360481,2.28920980072168,2.29005955565564,2.29038946051235,2.29102927599203,2.29177905975728,2.29198899921155,2.293108676301,2.29471821211708,2.29496814003883,2.29747741637321,2.298417145359,2.35256153032718,2.35387115263715,2.35496083837599,2.35359123336479,2.35498083260973,2.35481088162294,2.35606052123169,2.35497083549286,2.35516078071339,2.35472090757111,2.35493084702538,2.35444098829874,2.35451096811683,2.35453096235057,2.35406109785768,2.35430102866256,2.35460094216867,2.35537072016766,2.35560065385567,2.35613050104978,2.35695026463313,2.35806994172257,2.36029929878459,2.3617988663151,2.36166890379579,2.36421816859765,2.36474801579176,2.3668374132176,2.36965660017496,2.36984654539549,2.37083625996562,2.37138610139348,2.3722458534443,2.3719459399382,2.37345550458558,2.37226584767804
2.30915404887743,2.30934399409796,2.3097638730065,2.31075358757663,2.31141339729006,2.31229314357462,2.31232313492523,2.31347280336529,2.31505234783075,2.31563218060922,2.31604206240089,2.31644194707569,2.31802149154116,2.31933111385114,2.31984096681151,2.31942108790297,2.32069072174546,2.32226026909406,2.3214804939782,2.31988095527899,2.28121210722564,2.27864284819004,2.27774310767174,2.27683337003656,2.2768533642703,2.27620355167375,2.27683337003656,2.27673339886786,2.27727324317884,2.27731323164632,2.27674339598473,2.276953335439,2.27729323741258,2.27770311920426,2.27760314803556,2.27835293180081,2.27836292891768,2.27900274439736,2.27867283954065,2.27941262618903,2.27940262907216,2.28128208704373,2.28211184774395,2.28170196595228,2.28263169782119,2.28398130859865,2.28472109524703,2.28691046384157,2.33210742921106,2.32949818170797,2.32738879004839,2.32772869202198,2.32893834316325,2.33807570798248,2.3284884729041,2.33564640858305,2.33416683528629,2.33224738884724,2.33109772040718,2.33090777518665,2.33041791646002,2.33033793952506,2.3301579914214,2.3303579337588,2.32974810962973,2.33008801160331,2.32997804331774,2.33112771175779,2.33106772905657,2.3312576742771,2.33191748399053,2.33353701692347,2.3340968554682,2.33518654120703,2.33546646047939,2.33740590115218,2.3373659126847,2.33627622694587,2.33693603665929,2.3368660568412,2.3382356618524,2.33651615775075,2.33742589538592,2.29158911453675,2.28892988144932,2.28823008326842,2.28869994776131,2.28738032833446,2.28728035716576,2.28674051285478,2.28633063106311,2.28591075215457,2.28642060511494,2.28580078386899,2.28566082423281,2.28559084441472,2.28516096838931,2.28547087901228,2.28521095397366,2.28527093667488,2.28521095397366,2.28515097127244,2.28520095685679,2.28500101451939,2.28529093090862,2.28442118174093,2.28434120480597,2.28578078963525,2.28460112984459,2.28905984396863,2.28518096262305,2.28544088766167,2.28608070314136,2.28558084729785,2.28521095397366,2.28548087612915,2.28570081270029,2.28602072044014,2.2863006397125,2.28651057916677,2.28646059358242,2.28673051573791,2.28625065412815,2.28757027355499,2.28777021589239,2.28783019859361,2.28812011498285,2.28781020435987,2.28878992181314,2.28923979207229,2.29138917219935,2.29069937113532,2.29069937113532,2.29067937690158,2.29341858692397,2.29256883199002,2.29231890406827,2.29933688011104,2.29746741925634,2.35188172638001,2.35142185900399,2.35294142076824,2.35329131985869,2.35328132274182,2.3547908873892,2.35550068268697,2.35525075476522,2.35512079224591,2.35596055006299,2.35494084414225,2.35491085279164,2.35376118435158,2.35408109209142,2.35426104019508,2.35434101713004,2.35478089027233,2.3545909450518,2.35668034247764,2.35624046933535,2.35625046645222,2.35791998496952,2.35929958709759,2.3610990681342,2.36167890091266,2.3627985780021,2.36465804173993,2.36492796389543,2.36626757755601,2.36776714508652,2.37008647620037,2.37004648773289,2.37166602066584,2.37153605814653,2.37237581596361,2.37273571217093,2.36886682794222
2.30882414402072,2.30935399121483,2.30965390472093,2.31044367695366,2.312033218536,2.31245309744454,2.31275301095064,2.31318288697606,2.31481241702587,2.31596208546593,2.31649193266004,2.31772157803506,2.31786153767124,2.31903120034503,2.31958104177289,2.31689181733484,2.31704177408789,2.32078069579729,2.31456248910412,2.31939109655236,2.31681184039988,2.27827295486585,2.27873282224187,2.27643348536176,2.27573368718086,2.27621354879062,2.2768533642703,2.27679338156908,2.27649346806298,2.2763535084268,2.27643348536176,2.27704330949083,2.27780309037296,2.27661343346542,2.27811300099593,2.27845290296951,2.2782229692815,2.27851288567073,2.27891277034553,2.27993247626628,2.28020239842177,2.28042233499291,2.28150202361487,2.28146203514739,2.28440118750719,2.28392132589743,2.28541089631106,2.28714039752958,2.33076781555047,2.33207743786045,2.32853845848845,2.33480665076597,2.33435678050682,2.33492661616841,2.33456671996109,2.33862554941033,2.33080780401795,2.33176752723748,2.33176752723748,2.33036793087567,2.32977810098034,2.32959815287668,2.32974810962973,2.32958815575981,2.32958815575981,2.32950817882484,2.3294881845911,2.32991806061652,2.3306578472649,2.332727250457,2.33188749263992,2.33314712936554,2.33366697944279,2.33433678627308,2.3352965094926,2.33759584637271,2.33570639128427,2.33658613756884,2.33705600206173,2.33652615486762,2.33724594728226,2.33691604242555,2.29191901939346,2.29040945474609,2.2896696680977,2.28851999965765,2.28749029662003,2.28689046960783,2.2859007550377,2.28614068584258,2.28631063682937,2.28612069160884,2.28566082423281,2.28603071755701,2.28530092802549,2.28569081558342,2.28567082134968,2.28535091360984,2.28570081270029,2.28521095397366,2.2857308040509,2.28542089342793,2.28486105488321,2.28528093379175,2.28488104911695,2.2851309770387,2.28546088189541,2.28529093090862,2.28485105776634,2.28475108659764,2.2849310347013,2.28507099433748,2.28541089631106,2.28519095973992,2.28541089631106,2.28530092802549,2.28489104623382,2.28545088477854,2.28572080693403,2.2863006397125,2.28611069449197,2.28663054456921,2.28721037734767,2.28785019282735,2.28745030815255,2.28800014958041,2.28800014958041,2.28838004002147,2.28852999677452,2.28892988144932,2.28909983243611,2.29048943168105,2.29071936536906,2.29313866765161,2.29178905687415,2.29615779694636,2.29301870224917,2.29609781424514,2.29796727509984,2.35373119300097,2.35139186765338,2.35258152456092,2.3525215418597,2.35359123336479,2.35470091333737,2.35518077494713,2.35475089892172,2.3542210517276,2.35426104019508,2.35407109497455,2.35389114687089,2.35357123913105,2.35396112668898,2.35428103442882,2.35358123624792,2.35345127372861,2.35468091910363,2.35454095946745,2.35474090180485,2.35594055582925,2.35724018102236,2.35864977450103,2.3584598292805,2.36065919499191,2.36242868467791,2.36409820319521,2.36557777649198,2.36662747376333,2.37040638394021,2.37036639547273,2.37178598606828,2.37138610139348,2.37172600336706,2.37113617347172,2.36942666648695,2.37059632916074
2.30880414978698,2.3090640748256,2.30977387012337,2.30991382975955,2.31047366830427,2.31168331944555,2.31228314645775,2.31297294752179,2.31414261019558,2.31526228728503,2.316571909595,2.31659190382874,2.31792152037246,2.31866130702084,2.31899121187755,2.31771158091819,2.31695180003606,2.31786153767124,2.31591209988158,2.31405263614375,2.31348280048216,2.27821297216463,2.27717327201014,2.2773532201138,2.27656344788107,2.27511386593491,2.27649346806298,2.2755537390772,2.27553374484346,2.27708329795831,2.27731323164632,2.27642348824489,2.27714328065953,2.27694333832213,2.27742319993189,2.27781308748983,2.27831294333333,2.27875281647561,2.27878280782622,2.27955258582521,2.28008243301933,2.28038234652543,2.2815919976667,2.28245174971753,2.2828616315092,2.28474108948077,2.28565082711594,2.33032794240819,2.32950817882484,2.33204744650984,2.33394689871515,2.33330708323546,2.33387691889706,2.33380693907897,2.3342967978056,2.33077781266734,2.33054787897933,2.33067784149864,2.33028795394071,2.32956816152606,2.3294881845911,2.32955816440919,2.32874839794272,2.32880838064394,2.32861843542341,2.32889835469577,2.32941820477301,2.32949818170797,2.32999803755148,2.33044790781063,2.33110771752405,2.33381693619584,2.33348703133912,2.33396689294889,2.33490662193467,2.33471667671414,2.33610627595908,2.33541647489504,2.33620624712778,2.33599630767351,2.33460670842857,2.33567639993366,2.29115923851134,2.28939974594221,2.28875993046253,2.28794016687919,2.28768024184056,2.286800495556,2.28683048690661,2.28617067719319,2.28582077810273,2.28582077810273,2.28689046960783,2.2861006973751,2.2855308617135,2.28575079828464,2.28564082999907,2.28511098280496,2.28502100875313,2.28380136049499,2.28527093667488,2.28492103758443,2.28515097127244,2.28560084153159,2.28469110389642,2.28485105776634,2.28520095685679,2.2853309193761,2.28516096838931,2.28491104046756,2.28502100875313,2.28479107506512,2.28452115290963,2.28491104046756,2.28555085594724,2.28544088766167,2.28529093090862,2.28572080693403,2.28540089919419,2.28578078963525,2.28596073773892,2.2867005243873,2.28607070602449,2.28732034563324,2.28776021877552,2.28778021300926,2.2877002360743,2.2884700140733,2.28858997947574,2.28890988721558,2.28903984973489,2.28971965368205,2.29120922409569,2.29118922986195,2.2927087916262,2.29150913760179,2.29408839375426,2.2953780218305,2.29702754611406,2.35206167448367,2.35297141211885,2.35204168024993,2.35769005128151,2.35360123048166,2.35593055871238,2.35514078647965,2.35466092486989,2.35531073746644,2.35423104884447,2.35425104307821,2.35397112380585,2.35335130255991,2.35383116416967,2.35375118723471,2.35257152744405,2.35303139482007,2.35306138617068,2.3547908873892,2.35574061349185,2.35564064232315,2.35699025310061,2.35719019543801,2.35901966782523,2.36083914309558,2.36111906236794,2.3631684713263,2.36568774477755,2.36638754295845,2.36811704417697,2.36882683947474,2.37139609851035,2.37140609562722,2.37051635222578,2.36979655981114,2.36932669531825,2.36911675586397
2.30832428817721,2.30857421609896,2.30915404887743,2.30981385859085,2.31065361640793,2.31125344342014,2.31198323295165,2.31265303978194,2.31416260442932,2.31444252370168,2.31595208834906,2.31643194995882,2.31778156073628,2.31796150883994,2.31756162416514,2.32099063525156,2.31886124935824,2.31831140793039,2.31146338287441,2.31408262749436,2.27895275881301,2.27773311055487,2.27729323741258,2.27639349689428,2.27559372754468,2.27616356320627,2.27632351707619,2.27631351995932,2.27623354302436,2.2765534507642,2.27651346229672,2.27664342481603,2.27649346806298,2.27741320281502,2.27727324317884,2.27797304135975,2.27808300964532,2.27830294621646,2.2786228539563,2.27986249644819,2.28060228309657,2.28105215335572,2.28169196883541,2.28210185062708,2.28310156231408,2.28454114714337,2.28585076945334,2.33227738019785,2.33022797123949,2.33213742056167,2.3323273657822,2.3333270774692,2.33326709476798,2.33382693331271,2.33196746957488,2.33143762238076,2.3319274811074,2.33022797123949,2.32986807503217,2.33032794240819,2.32843848731975,2.32801860841121,2.32870840947524,2.32804859976182,2.32830852480044,2.32890835181264,2.32829852768357,2.32904831144882,2.32951817594171,2.33046790204437,2.33073782419986,2.3324273369509,2.33343704575477,2.33351702268973,2.33406686411759,2.33458671419483,2.3347966536491,2.3350965671552,2.33572638551801,2.33422681798751,2.33605629037473,2.29212895884774,2.29042944897983,2.28971965368205,2.2894697257603,2.28875993046253,2.28713040041271,2.28676050708852,2.2860007262064,2.28617067719319,2.28539090207732,2.2857308040509,2.28526093955801,2.28585076945334,2.28575079828464,2.28537090784358,2.28528093379175,2.28468110677955,2.28492103758443,2.28477108083138,2.28633063106311,2.28496102605191,2.28502100875313,2.28416125670231,2.28474108948077,2.28480107218199,2.28368139509254,2.28469110389642,2.28464111831207,2.28495102893504,2.28495102893504,2.28514097415557,2.28444117597467,2.28479107506512,2.28526093955801,2.2851309770387,2.28517096550618,2.28499101740252,2.28548087612915,2.28556085306411,2.28565082711594,2.28574080116777,2.2861006973751,2.28648058781616,2.28764025337308,2.28867995352757,2.28812011498285,2.28877992469627,2.28903984973489,2.29030948357739,2.29070936825219,2.29031948069426,2.29054941438227,2.29017952105808,2.29235889253575,2.29291873108047,2.29488816310387,2.29535802759676,2.29655768162117,2.35454095946745,2.35232159952229,2.35309137752129,2.35526075188209,2.35403110650707,2.35464093063615,2.3548908585579,2.35356124201418,2.35300140346946,2.35346127084548,2.35405110074081,2.35349126219609,2.35289143518389,2.35270148996336,2.35261151591153,2.35248155339221,2.35236158798977,2.35340128814426,2.35365121606601,2.3547908873892,2.35484087297355,2.35754009452846,2.35866976873477,2.35831986964432,2.36081914886184,2.36205879135372,2.36293853763829,2.36732727194424,2.36708734113936,2.36895680199405,2.36913675009771,2.37218587074308,2.37008647620037,2.36983654827862,2.37033640412212,2.36686740456821,2.36704735267188
2.30746453612639,2.3081943256579,2.30925402004613,2.30952394220162,2.31048366542114,2.31063362217419,2.31190325601669,2.31269302824942,2.31344281201468,2.31473244009091,2.31562218349235,2.31654191824439,2.31726171065904,2.31759161551575,2.31827141946291,2.31732169336026,2.31800149730742,2.32057075634302,2.31007378362947,2.31147337999128,2.31290296770369,2.27714328065953,2.2761535660894,2.27560372466155,2.27573368718086,2.27558373042781,2.27570369583025,2.27520383998674,2.27658344211481,2.27656344788107,2.27686336138717,2.2768533642703,2.27774310767174,2.27805301829471,2.27807301252845,2.27781308748983,2.27838292315142,2.2784229116189,2.27853287990447,2.27906272709858,2.28002245031811,2.28090219660267,2.2818619198222,2.28211184774395,2.2830615738466,2.28524094532427,2.28642060511494,2.3322273946135,2.33107772617344,2.3308577896023,2.33197746669175,2.33253730523647,2.33280722739196,2.33196746957488,2.33061785879742,2.3304579049275,2.33044790781063,2.32951817594171,2.33014799430453,2.33111771464092,2.32937821630553,2.32756873815206,2.32727882176282,2.32747876410023,2.3275887323858,2.32749875833397,2.32807859111243,2.32859844118967,2.32963814134416,2.3300580202527,2.33120768869275,2.33158757913381,2.33281722450883,2.33340705440416,2.33397689006576,2.33494661040215,2.33473667094788,2.33444675455865,2.33528651237573,2.33382693331271,2.33517654409016,2.33407686123446,2.29026949510991,2.28955969981213,2.28938974882534,2.28798015534667,2.28726036293202,2.28662054745234,2.28579078675212,2.2859007550377,2.28567082134968,2.28681049267287,2.28712040329584,2.28622066277754,2.28548087612915,2.28589075792083,2.28465111542894,2.28498102028565,2.28490104335069,2.28505100010374,2.28557085018098,2.28474108948077,2.28489104623382,2.28495102893504,2.28508099145435,2.28446117020841,2.28470110101329,2.28516096838931,2.2856308328822,2.28494103181817,2.28514097415557,2.28447116732528,2.2847310923639,2.28524094532427,2.28582077810273,2.28562083576533,2.28535091360984,2.28577079251838,2.28587076368709,2.28548087612915,2.28571080981716,2.28592074927144,2.28617067719319,2.28686047825722,2.28739032545133,2.28791017552857,2.28841003137208,2.28777021589239,2.28963967674709,2.28888989298184,2.2890698410855,2.29293872531421,2.29000957007129,2.29090931058959,2.29239888100323,2.29324863593718,2.29428833609167,2.29550798434981,2.29680760954292,2.34501370709029,2.35247155627534,2.35186173214627,2.3554906855701,2.35385115840341,2.35414107479264,2.35463093351928,2.35451096811683,2.35336129967678,2.35360123048166,2.35315136022251,2.35341128526113,2.3521516485355,2.35271148708023,2.35290143230076,2.35237158510664,2.35263151014527,2.35371119876723,2.35388114975402,2.3547908873892,2.35610050969917,2.35637043185466,2.35840984369615,2.35958950348682,2.36206878847059,2.36145896434152,2.36450808498688,2.36671744781516,2.36798708165766,2.36858690866986,2.36946665495443,2.3700764790835,2.3707762772644,2.36993651944732,2.37010647043411,2.36621759197166,2.36587768999808
2.30808435737233,2.3083942679953,2.30914405176056,2.30968389607154,2.31022374038252,2.31097352414778,2.31179328773112,2.31256306573011,2.31314289850858,2.31429256694863,2.31556220079113,2.31654191824439,2.31760161263262,2.31811146559299,2.31691181156858,2.31605205951776,2.31582212582975,2.31675185769866,2.31151336845876,2.31318288697606,2.31314289850858,2.277723113438,2.27677338733534,2.27651346229672,2.27583365834956,2.27519384286987,2.27550375349285,2.27596362086887,2.27626353437497,2.27616356320627,2.27629352572558,2.27656344788107,2.27631351995932,2.27768312497052,2.27809300676219,2.27825296063211,2.27831294333333,2.27866284242378,2.27921268385163,2.2795225944746,2.28062227733031,2.28130208127747,2.28198188522464,2.28215183621143,2.28498102028565,2.28525094244114,2.28731034851637,2.33102774058909,2.33058786744681,2.33109772040718,2.33412684681881,2.33309714378119,2.33301716684623,2.33132765409519,2.33029795105758,2.33129766274458,2.33044790781063,2.32912828838378,2.32855845272219,2.32807859111243,2.328188559398,2.32726882464595,2.3269189255555,2.32702889384107,2.32709887365916,2.32708887654229,2.32771869490511,2.32775868337259,2.329188271085,2.32958815575981,2.33121768580962,2.33173753588687,2.33233736289907,2.33245732830151,2.33370696791026,2.3341968266369,2.33425680933812,2.33427680357186,2.33301716684623,2.33398688718263,2.33722595304852,2.29124921256317,2.29151913471866,2.28887989586497,2.2888698987481,2.28713040041271,2.28735033698385,2.28623065989441,2.28580078386899,2.28579078675212,2.28574080116777,2.28591075215457,2.2861006973751,2.28677050420539,2.28528093379175,2.28547087901228,2.28544088766167,2.28509098857122,2.2851309770387,2.28487105200008,2.28471109813016,2.28496102605191,2.28480107218199,2.28347145563827,2.28471109813016,2.28448116444215,2.28511098280496,2.28422123940353,2.28512097992183,2.2847310923639,2.28490104335069,2.28382135472873,2.2898696104351,2.2851309770387,2.28530092802549,2.2847310923639,2.28552086459663,2.2854308905448,2.28615068295945,2.28598073197266,2.28548087612915,2.28582077810273,2.28638061664746,2.28648058781616,2.28738032833446,2.28853999389139,2.28824008038529,2.28793016976232,2.28849000830704,2.28919980360481,2.28905984396863,2.28913982090359,2.28967966521457,2.29099928464142,2.29603783154392,2.29335860422275,2.29508810544127,2.29530804201241,2.29949683398096,2.34426392332504,2.34606340436164,2.35353125066357,2.35429103154569,2.35494084414225,2.35423104884447,2.35496083837599,2.354420994065,2.35319134868999,2.35339129102739,2.35304139193694,2.35341128526113,2.35295141788511,2.35266150149588,2.35210166295115,2.35278146689832,2.35283145248267,2.35251154474283,2.35431102577943,2.35444098829874,2.35460094216867,2.35638042897153,2.35743012624289,2.35891969665653,2.36100909408237,2.36097910273176,2.36402822337712,2.36751721716477,2.36813703841071,2.36845694615055,2.36965660017496,2.36839696344933,2.36795709030705,2.3687068740723,2.36724729500928,2.3656377591932,2.36594766981617
2.30768447269753,2.30825430835912,2.3093639883317,2.30938398256544,2.30943396814979,2.31031371443435,2.31125344342014,2.31247309167828,2.31299294175553,2.3140026505594,2.31559219214174,2.31615203068646,2.31626199897203,2.31676185481553,2.31682183751675,2.31619201915394,2.31595208834906,2.31579213447914,2.31570216042731,2.31445252081855,2.27976252527949,2.27738321146441,2.27591363528452,2.27755316245121,2.27604359780383,2.27538378809041,2.27527381980483,2.27576367853147,2.27577367564834,2.27617356032314,2.27619355455688,2.27656344788107,2.27676339021847,2.2773532201138,2.27768312497052,2.27805301829471,2.27818298081402,2.27895275881301,2.27883279341057,2.27907272421545,2.27982250798071,2.28017240707116,2.28195189387403,2.28405128841674,2.2845311500265,2.28584077233648,2.28763025625621,2.3308577896023,2.33136764256267,2.33154759066633,2.33178752147122,2.33269725910639,2.3322273946135,2.33067784149864,2.3305578760962,2.32969812404538,2.32943819900675,2.32809858534617,2.3275887323858,2.32770869778824,2.32725882752908,2.32746876698336,2.32664900340001,2.32674897456871,2.32704888807481,2.32761872373641,2.32692892267237,2.32807859111243,2.32882837487768,2.32955816440919,2.33011800295392,2.33058786744681,2.33172753877,2.33253730523647,2.33370696791026,2.33360699674156,2.33392690448141,2.33311713801493,2.33319711494989,2.3350965671552,2.33388691601393,2.2910392731089,2.28948971999404,2.28961968251335,2.28785019282735,2.2874003225682,2.28654057051738,2.28688047249096,2.28586076657021,2.28547087901228,2.28565082711594,2.28559084441472,2.28496102605191,2.28594074350518,2.28537090784358,2.28552086459663,2.2852309482074,2.28531092514236,2.28474108948077,2.28499101740252,2.28485105776634,2.28474108948077,2.28480107218199,2.28469110389642,2.28512097992183,2.28554085883037,2.28516096838931,2.28514097415557,2.28467110966268,2.28570081270029,2.28496102605191,2.28422123940353,2.28466111254581,2.28546088189541,2.28497102316878,2.28457113849398,2.2851309770387,2.28504100298687,2.28542089342793,2.28591075215457,2.28575079828464,2.28562083576533,2.28631063682937,2.28652057628364,2.28616068007632,2.28688047249096,2.28771023319117,2.28786018994422,2.28879991893001,2.28897986703367,2.28887989586497,2.2897696392664,2.29102927599203,2.29107926157638,2.29135918084874,2.29459824671464,2.29366851484572,2.29455825824716,2.34472379070106,2.34536360618074,2.351651792692,2.35263151014527,2.35274147843084,2.35367121029975,2.35441099694813,2.35395112957211,2.35437100848065,2.35315136022251,2.35357123913105,2.35245156204161,2.35244156492473,2.35153182728956,2.35179175232818,2.3519517061981,2.35255153321031,2.35260151879466,2.35311137175503,2.35434101713004,2.35393113533837,2.35644041167275,2.3564903972571,2.35718019832114,2.35899967359149,2.36031929301833,2.36245867602852,2.36330843096248,2.36608762945235,2.36763718256721,2.36741724599607,2.36732727194424,2.36786711625522,2.36763718256721,2.36801707300827,2.36797708454079,2.36600765251739,2.36632756025723
2.30716462262029,2.30768447269753,2.30844425357965,2.30921403157865,2.30965390472093,2.31033370866809,2.31106349819961,2.31140340017319,2.31298294463866,2.3136027658846,2.31458248333786,2.31636197014073,2.31591209988158,2.31451250351977,2.3164719384263,2.31556220079113,2.31654191824439,2.31514232188259,2.31593209411532,2.31780155497002,2.27800303271036,2.27703331237396,2.27694333832213,2.27662343058229,2.27566370736277,2.27527381980483,2.27576367853147,2.27523383133735,2.27564371312903,2.27590363816765,2.27603360068696,2.27636350554367,2.27688335562091,2.27761314515243,2.27764313650304,2.27813299522967,2.27826295774898,2.27856287125508,2.27871282800813,2.27948260600712,2.27960257140957,2.28132207551121,2.28169196883541,2.28232178719822,2.28387134031308,2.28548087612915,2.32835851038479,2.33128766562771,2.33037792799254,2.33171754165313,2.33166755606877,2.33218740614602,2.33060786168055,2.33104773482283,2.32978809809721,2.3287883864102,2.32870840947524,2.32784865742442,2.32734880158091,2.32686893997115,2.32644906106261,2.32689893132176,2.32627911007582,2.32599919080346,2.32577925423232,2.32650904376383,2.32708887654229,2.32766870932076,2.32794862859312,2.32867841812463,2.32968812692851,2.3304579049275,2.33227738019785,2.33269725910639,2.33324710053424,2.33360699674156,2.33367697655966,2.3332271063005,2.33383693042958,2.3332271063005,2.33320711206676,2.29048943168105,2.28868995064444,2.28828006885277,2.28738032833446,2.28736033410072,2.28662054745234,2.28589075792083,2.2861006973751,2.28617067719319,2.28526093955801,2.28507099433748,2.28530092802549,2.28534091649297,2.28526093955801,2.28500101451939,2.2847310923639,2.28476108371451,2.28425123075414,2.28455114426024,2.284031294183,2.28420124516979,2.28567082134968,2.28444117597467,2.28534091649297,2.28576079540152,2.28438119327345,2.28503100587,2.28415125958544,2.284031294183,2.28502100875313,2.28503100587,2.28467110966268,2.28454114714337,2.28537090784358,2.28470110101329,2.28497102316878,2.28529093090862,2.28500101451939,2.2851309770387,2.28532092225923,2.28593074638831,2.28602072044014,2.28747030238629,2.28683048690661,2.28658055898486,2.28749029662003,2.28718038599706,2.2891698122542,2.28878992181314,2.28943973440969,2.289569696929,2.28993959025319,2.29056940861601,2.29323863882031,2.29206897614652,2.29366851484572,2.29898698102059,2.34748299495719,2.34432390602626,2.34529362636265,2.35156181864017,2.35366121318288,2.35337129679365,2.354420994065,2.35360123048166,2.35319134868999,2.35368120741662,2.35318135157312,2.3520516773668,2.35308138040442,2.35200169178245,2.35136187630277,2.35188172638001,2.35173176962696,2.35269149284649,2.35224162258733,2.35374119011784,2.35281145824893,2.35508080377843,2.35598054429673,2.35763006858029,2.35891969665653,2.36004937086284,2.36086913444618,2.36383827815659,2.36654749682837,2.3663375573741,2.36764717968408,2.36606763521861,2.36721730365867,2.36690739303569,2.3685069317349,2.36744723734668,2.36594766981617,2.36614761215357
2.30664477254305,2.30740455342517,2.30836427664469,2.3099638153439,2.30962391337032,2.31042368271992,2.31090354432969,2.31208320412035,2.31257306284698,2.31428256983176,2.3147024487403,2.31601207105028,2.31629199032264,2.31426257559802,2.31433255541611,2.3157721402454,2.31633197879012,2.31613203645272,2.31487239972709,2.31532226998625,2.27801302982723,2.27680337868595,2.27674339598473,2.27550375349285,2.27726324606197,2.27561372177842,2.27520383998674,2.27557373331094,2.27567370447964,2.2758536525833,2.27643348536176,2.27785307595731,2.27672340175099,2.27760314803556,2.27811300099593,2.27858286548882,2.27837292603455,2.278722825125,2.27888277899492,2.28050231192787,2.2805922859797,2.28140205244617,2.28199188234151,2.28330150465148,2.28506099722061,2.28624065701128,2.33001803178522,2.32933822783805,2.33107772617344,2.33226738308098,2.33194747534114,2.33237735136655,2.33169754741939,2.33039792222628,2.32967812981164,2.32963814134416,2.32802860552808,2.32777867760633,2.32676896880245,2.32684894573741,2.32644906106261,2.32608916485529,2.32549933495996,2.32575925999858,2.32595920233598,2.32635908701078,2.32669898898436,2.32724883041221,2.32825853921609,2.32834851326792,2.3296581355779,2.33053788186246,2.33131765697832,2.33211742632793,2.33334707170294,2.33365698232591,2.33306715243058,2.33284721585944,2.33290719856066,2.33378694484523,2.33297717837875,2.2907393596028,2.28909983243611,2.28819009480094,2.28793016976232,2.28713040041271,2.28652057628364,2.2861006973751,2.28663054456921,2.28562083576533,2.28551086747976,2.28548087612915,2.28526093955801,2.2851309770387,2.28507099433748,2.2846311211952,2.2849310347013,2.28441118462406,2.28456114137711,2.28531092514236,2.28441118462406,2.28420124516979,2.28475108659764,2.28470110101329,2.28428122210475,2.28508099145435,2.28580078386899,2.28504100298687,2.28424123363727,2.28446117020841,2.28425123075414,2.28458113561085,2.28503100587,2.28410127400109,2.28449116155902,2.28518096262305,2.28521095397366,2.28521095397366,2.28559084441472,2.28531092514236,2.28520095685679,2.28560084153159,2.28623065989441,2.28661055033547,2.28654057051738,2.28756027643812,2.28711040617897,2.28832005732025,2.2882700717359,2.28874993334566,2.28947972287717,2.28924978918916,2.28968966233144,2.29001956718816,2.29092930482333,2.29296871666482,2.29355854656015,2.29677761819231,2.34430391179252,2.34422393485756,2.34477377628541,2.34495372438907,2.35284144959954,2.35427103731195,2.35385115840341,2.35431102577943,2.35318135157312,2.35219163700298,2.35240157645725,2.35233159663916,2.35163179845826,2.3514518503546,2.35162180134139,2.35112194549789,2.35190172061375,2.35229160817168,2.35227161393794,2.35276147266458,2.35458094793493,2.35566063655689,2.35588057312803,2.35731016084045,2.36061920652443,2.36522787740153,2.36171888938014,2.36390825797468,2.36522787740153,2.36589768423182,2.36645752277654,2.36802707012514,2.36732727194424,2.36711733248997,2.36842695479994,2.36782712778774,2.36733726906111,2.36743724022981
2.30650481290686,2.30762448999631,2.30952394220162,2.30734457072395,2.30788441503493,2.31162333674433,2.31346280624842,2.31023373749939,2.3079943833205,2.31081357027785,2.31590210276471,2.31136341170571,2.31790152613872,2.31499236512953,2.31381270533887,2.31670187211431,2.31478242567526,2.31465246315595,2.31414261019558,2.27771311632113,2.27781308748983,2.27674339598473,2.27541377944101,2.27562371889529,2.27535379673979,2.27523383133735,2.2754537679085,2.27570369583025,2.27594362663513,2.27638349977741,2.27639349689428,2.27654345364733,2.27711328930892,2.2779230557754,2.27683337003656,2.27825296063211,2.27823296639837,2.27885278764431,2.27907272421545,2.27996246761689,2.28061228021344,2.28146203514739,2.28229179584761,2.28370138932628,2.28521095397366,2.28661055033547,2.32796862282686,2.33161757048442,2.33248731965212,2.33237735136655,2.33253730523647,2.33225738596411,2.33154759066633,2.3294881845911,2.32877838929333,2.32889835469577,2.32756873815206,2.32695891402298,2.32673897745184,2.32664900340001,2.32598919368659,2.3256193003624,2.32516943010324,2.32584923405041,2.32594920521911,2.32638907836139,2.32646905529635,2.32690892843863,2.32857844695593,2.32795862570999,2.32956816152606,2.33026795970697,2.33109772040718,2.33178752147122,2.33300716972936,2.33291719567753,2.33245732830151,2.33320711206676,2.3318275099387,2.33328708900172,2.29104927022577,2.29007954988938,2.28894987568306,2.28848001119017,2.28706042059462,2.28717038888019,2.28637061953059,2.28594074350518,2.28589075792083,2.28568081846655,2.28520095685679,2.28527093667488,2.28498102028565,2.28570081270029,2.28464111831207,2.28581078098586,2.28465111542894,2.28488104911695,2.28501101163626,2.28455114426024,2.28431121345536,2.28560084153159,2.28496102605191,2.28474108948077,2.28474108948077,2.2847310923639,2.28520095685679,2.2837613720275,2.28402129706613,2.28435120192284,2.28462112407833,2.28426122787101,2.28467110966268,2.28545088477854,2.2851309770387,2.28490104335069,2.28510098568809,2.28501101163626,2.28527093667488,2.2853309193761,2.28547087901228,2.28564082999907,2.28679049843913,2.28661055033547,2.28688047249096,2.28681049267287,2.28682048978974,2.28804013804789,2.28923979207229,2.28884990451436,2.28877992469627,2.29011953835686,2.29000957007129,2.2907393596028,2.29164909723797,2.29201899056216,2.29287874261299,2.34606340436164,2.34855268646229,2.34603341301103,2.34748299495719,2.34558354275188,2.35202168601619,2.35295141788511,2.35396112668898,2.35420105749386,2.35357123913105,2.3529214265345,2.35226161682107,2.35134188206903,2.35147184458834,2.35138187053651,2.35176176097757,2.3512519080172,2.35232159952229,2.35231160240542,2.35217164276924,2.35255153321031,2.35334130544304,2.35837985234554,2.35648040014023,2.35898967647462,2.35858979179981,2.3604292613039,2.36174888073075,2.36391825509155,2.36576772171251,2.36407820896147,2.36451808210375,2.36453807633749,2.36817702687819,2.36799707877453,2.36792709895644,2.36818702399506,2.36903677892901,2.30889412383881
2.30659478695869,2.3071946139709,2.30774445539875,2.30844425357965,2.30943396814979,2.31025373173313,2.31336283507972,2.30837427376156,2.31421259001367,2.31398265632566,2.3130029388724,2.3168718231011,2.3166718807637,2.31010377498008,2.30969389318841,2.30997381246077,2.31070360199228,2.31112348090083,2.31409262461123,2.27893276457927,2.27740320569815,2.27594362663513,2.27567370447964,2.2755537390772,2.27505388323369,2.27529381403857,2.27509387170117,2.27572369006399,2.2755537390772,2.27646347671237,2.27627353149184,2.27676339021847,2.27694333832213,2.27756315956808,2.27748318263311,2.27838292315142,2.27904273286484,2.27864284819004,2.278722825125,2.27965255699392,2.28141204956304,2.28156200631609,2.28209185351021,2.28567082134968,2.28577079251838,2.32799861417747,2.33108772329031,2.33039792222628,2.33114770599153,2.33248731965212,2.33184750417244,2.33112771175779,2.33149760508198,2.3305578760962,2.32873840082585,2.32816856516426,2.32740878428213,2.3266190120494,2.32580924558293,2.32575925999858,2.32426968958494,2.3250494647008,2.32495949064897,2.32495949064897,2.32510944740202,2.32530938973942,2.32594920521911,2.32682895150367,2.32703889095794,2.32810858246304,2.32945819324049,2.3302579625901,2.33087778383604,2.33180751570496,2.33226738308098,2.33227738019785,2.33225738596411,2.33253730523647,2.33110771752405,2.33142762526389,2.28984961620136,2.28942973729282,2.28887989586497,2.28790017841171,2.28934976035786,2.28664054168608,2.28635062529685,2.28559084441472,2.28550087036289,2.28548087612915,2.2853309193761,2.28481106929886,2.28525094244114,2.28540089919419,2.28426122787101,2.28434120480597,2.2846311211952,2.28412126823483,2.2847310923639,2.28478107794825,2.28416125670231,2.28479107506512,2.28442118174093,2.28397131148178,2.28451115579276,2.28469110389642,2.28437119615658,2.28501101163626,2.28387134031308,2.28451115579276,2.2839313230143,2.28462112407833,2.28470110101329,2.2856308328822,2.28459113272772,2.28396131436491,2.28456114137711,2.28514097415557,2.28440118750719,2.28536091072671,2.28564082999907,2.28552086459663,2.28672051862104,2.28615068295945,2.28776021877552,2.28732034563324,2.28686047825722,2.28850000542391,2.28836004578773,2.28938974882534,2.29283875414551,2.29107926157638,2.29120922409569,2.29145915201744,2.29194901074407,2.29286874549612,2.29470821500021,2.29636773640064,2.34635332075088,2.34758296612589,2.34854268934542,2.352421570691,2.35285144671641,2.35300140346946,2.35391114110463,2.35490085567477,2.35193171196436,2.35275147554771,2.35449097388309,2.35197170043184,2.35204168024993,2.35186173214627,2.35169178115948,2.35162180134139,2.3519517061981,2.35161180422452,2.35220163411985,2.35347126796235,2.35424104596134,2.3547908873892,2.35697025886687,2.35727017237297,2.36151894704274,2.36338840789744,2.36352836753362,2.36285856070332,2.36461805327245,2.36470802732428,2.36444810228566,2.36833698074811,2.36781713067087,2.3679071047227,2.36758719698286,2.36835697498185,2.3684069605662,2.30841426222904
2.30630487056946,2.30701466586724,2.30773445828188,2.3086941815014,2.30855422186522,2.31084356162847,2.30694468604915,2.31337283219659,2.3135027947159,2.31358277165086,2.31512232764885,2.31425257848115,2.31504235071389,2.31054364812236,2.31346280624842,2.31455249198725,2.31061362794045,2.31077358181037,2.31376271975452,2.27774310767174,2.27718326912701,2.27668341328351,2.27571369294712,2.27546376502537,2.27500389764934,2.27581366411582,2.27526382268796,2.27579366988208,2.27573368718086,2.27636350554367,2.27714328065953,2.27716327489327,2.27682337291969,2.27738321146441,2.27851288567073,2.27797304135975,2.27854287702134,2.27883279341057,2.27948260600712,2.2809921706545,2.28071225138214,2.28172196018602,2.28272167187302,2.28501101163626,2.32742877851587,2.32876839217646,2.33077781266734,2.33067784149864,2.33139763391328,2.33126767139397,2.33130765986145,2.33061785879742,2.33118769445901,2.32952817305858,2.32702889384107,2.32675897168558,2.32667899475062,2.32703889095794,2.32502947046706,2.32522941280446,2.32473955407783,2.32453961174043,2.325419358025,2.32552932631057,2.32481953101279,2.3250494647008,2.32569927729736,2.32675897168558,2.3265190408807,2.32790864012564,2.32893834316325,2.33011800295392,2.33079780690108,2.33164756183504,2.33215741479541,2.3311577031084,2.33152759643259,2.33241733983403,2.33208743497732,2.33230737154846,2.29049942879792,2.29054941438227,2.28921979783855,2.28819009480094,2.28669052727043,2.28619067142693,2.28666053591982,2.2855308617135,2.28560084153159,2.28547087901228,2.28520095685679,2.28502100875313,2.28531092514236,2.28532092225923,2.28471109813016,2.28508099145435,2.28448116444215,2.28476108371451,2.2844311788578,2.28437119615658,2.28400130283239,2.28421124228666,2.28434120480597,2.28431121345536,2.28434120480597,2.28408127976735,2.28396131436491,2.28389133454682,2.2838313518456,2.28418125093605,2.28460112984459,2.28438119327345,2.28414126246857,2.28425123075414,2.28459113272772,2.28535091360984,2.28508099145435,2.28485105776634,2.28467110966268,2.28623065989441,2.2852309482074,2.28571080981716,2.28555085594724,2.28648058781616,2.28633063106311,2.28751029085377,2.2872003802308,2.28852999677452,2.2884700140733,2.28922979495542,2.29035946916174,2.29054941438227,2.2908393307715,2.29108925869325,2.29160910877049,2.2930087051323,2.29508810544127,2.29662766143926,2.3487826201503,2.34883260573465,2.34889258843587,2.35179175232818,2.35311137175503,2.35338129391052,2.35397112380585,2.35368120741662,2.35267149861275,2.35263151014527,2.35216164565237,2.351651792692,2.35216164565237,2.35128189936781,2.35033217326515,2.35050212425195,2.35133188495216,2.35184173791253,2.35251154474283,2.35365121606601,2.35380117281906,2.35543070286888,2.35720019255488,2.36056922094008,2.35981943717483,2.36187884325006,2.36201880288624,2.36234870774295,2.36243868179478,2.36600765251739,2.36550779667389,2.36929670396764,2.36832698363124,2.36817702687819,2.36808705282636,2.36841695768307,2.36843695191681,2.30760449576257
2.30637485038755,2.30741455054204,2.30763448711318,2.30885413537133,2.3093639883317,2.30988383840894,2.31261305131446,2.31264304266507,2.31284298500247,2.3132028812098,2.31415260731245,2.31368274281956,2.31534226421999,2.31402264479314,2.31671186923118,2.31418259866306,2.31175329926364,2.31200322718539,2.27963256276018,2.27773311055487,2.27592363240139,2.27623354302436,2.27524382845422,2.27527381980483,2.27494391494812,2.27522383422048,2.27504388611682,2.27578367276521,2.27577367564834,2.27613357185566,2.27612357473879,2.27620355167375,2.27686336138717,2.27756315956808,2.27754316533434,2.27825296063211,2.27836292891768,2.27877281070935,2.27944261753964,2.27986249644819,2.28047232057726,2.2819618909909,2.28315154789843,2.28503100587,2.28627064836189,2.32790864012564,2.33048789627811,2.33067784149864,2.33093776653726,2.33167755318565,2.33058786744681,2.33034793664193,2.33036793087567,2.32820855363174,2.32699890249046,2.32682895150367,2.3262191273746,2.32539936379125,2.3258192426998,2.32408974148128,2.32369985392335,2.32410973571502,2.32413972706563,2.32385980779327,2.32452961462356,2.32478953966218,2.32540936090813,2.32574926288171,2.3267189832181,2.32761872373641,2.32890835181264,2.32987807214904,2.33028795394071,2.33059786456368,2.3314576166145,2.33157758201695,2.3315575877832,2.33093776653726,2.33141762814702,2.33101774347222,2.29040945474609,2.29000957007129,2.28874993334566,2.28714039752958,2.28699044077653,2.28637061953059,2.28584077233648,2.28579078675212,2.28545088477854,2.28512097992183,2.2849310347013,2.28490104335069,2.28496102605191,2.28503100587,2.28455114426024,2.28472109524703,2.28425123075414,2.28459113272772,2.28432121057223,2.28441118462406,2.28368139509254,2.28410127400109,2.28425123075414,2.28408127976735,2.28424123363727,2.28428122210475,2.28367139797568,2.2841312653517,2.28398130859865,2.28371138644316,2.28437119615658,2.28457113849398,2.28422123940353,2.28462112407833,2.28468110677955,2.28458113561085,2.28448116444215,2.28496102605191,2.2855308617135,2.28509098857122,2.28536091072671,2.28532092225923,2.28566082423281,2.28679049843913,2.2873003513995,2.28752028797064,2.28716039176332,2.28704042636088,2.28814010921659,2.28859997659261,2.28855998812513,2.2916391001211,2.28913982090359,2.29047943456418,2.29261881757437,2.2935085609758,2.29475820058456,2.29600784019331,2.34812281043687,2.34939244427937,2.35144185323773,2.35232159952229,2.35351125642983,2.35315136022251,2.35297141211885,2.35243156780786,2.35293142365137,2.35232159952229,2.35254153609344,2.35329131985869,2.35226161682107,2.3523515908729,2.35193171196436,2.35130189360155,2.35108195703041,2.35202168601619,2.35248155339221,2.35278146689832,2.35371119876723,2.3546909162205,2.35562064808941,2.36070918057626,2.35940955538316,2.36211877405494,2.3617988663151,2.36218875387303,2.36188884036693,2.36311848574195,2.36393824932529,2.36742724311294,2.36771715950217,2.36778713932026,2.36812704129384,2.3681070470601,2.30903408347499,2.30624488786824
2.30753451594448,2.30665476965991,2.30790440926867,2.30870417861827,2.30962391337032,2.31042368271992,2.3119332473673,2.31272301960003,2.31278300230125,2.31332284661224,2.31426257559802,2.31424258136428,2.31422258713054,2.31628199320577,2.31514232188259,2.31462247180534,2.31501235936327,2.3136027658846,2.27884279052744,2.27848289432012,2.27566370736277,2.27610358050505,2.27519384286987,2.27573368718086,2.27529381403857,2.27531380827231,2.27507387746743,2.27597361798574,2.27536379385666,2.27581366411582,2.27627353149184,2.27651346229672,2.27710329219205,2.2774531912825,2.27770311920426,2.27836292891768,2.27855287413821,2.27871282800813,2.27965255699392,2.27964255987705,2.28092219083641,2.28247174395127,2.28372138356002,2.28508099145435,2.28786018994422,2.33031794529132,2.33071782996612,2.33060786168055,2.33068783861551,2.33086778671917,2.33017798565514,2.32984808079843,2.32920826531874,2.32757873526893,2.32822854786548,2.32640907259513,2.32645905817948,2.32503946758393,2.32429968093555,2.32396977607884,2.32380982220892,2.32392978761136,2.32430967805242,2.32498948199958,2.32432967228616,2.32467957137661,2.32521941568759,2.32606917062155,2.3268189543868,2.3272188390616,2.32917827396813,2.32945819324049,2.33011800295392,2.33067784149864,2.33146761373137,2.33131765697832,2.33183750705557,2.33195747245801,2.32894834028012,2.33052788474559,2.28962967963022,2.28892988144932,2.28928977765664,2.28703042924401,2.28697044654279,2.28606070890762,2.28559084441472,2.28646059358242,2.28509098857122,2.28508099145435,2.28575079828464,2.28512097992183,2.28578078963525,2.28489104623382,2.28491104046756,2.28392132589743,2.28447116732528,2.28432121057223,2.2845311500265,2.28392132589743,2.28461112696146,2.28408127976735,2.28414126246857,2.28342147005392,2.28497102316878,2.28384134896247,2.28430121633849,2.28392132589743,2.2839313230143,2.28415125958544,2.28382135472873,2.28439119039032,2.28434120480597,2.28378136626125,2.28395131724804,2.28509098857122,2.28492103758443,2.28488104911695,2.28456114137711,2.28498102028565,2.28516096838931,2.28549087324602,2.28560084153159,2.28599072908953,2.28631063682937,2.28725036581515,2.28732034563324,2.28821008903468,2.28818009768407,2.28824008038529,2.28888989298184,2.28924978918916,2.29006955277251,2.29266880315872,2.29218894154896,2.29436831302663,2.29433832167602,2.35187172926314,2.35146184747147,2.3512519080172,2.35089201180988,2.35114193973163,2.35136187630277,2.35177175809444,2.35308138040442,2.35204168024993,2.35209166583428,2.35226161682107,2.35202168601619,2.35151183305582,2.35098198586171,2.35086202045927,2.35161180422452,2.35104196856293,2.35117193108224,2.35158181287391,2.35229160817168,2.3528214553658,2.3537211958841,2.3552907432327,2.35812992442379,2.35986942275918,2.36091912003054,2.35998938816162,2.3606292036413,2.36204879423685,2.36166890379579,2.36845694615055,2.36883683659161,2.36859690578673,2.36733726906111,2.36781713067087,2.36786711625522,2.36782712778774,2.30830429394347,2.30743454477578
2.30623489075137,2.30659478695869,2.30726459378899,2.30868418438453,2.30969389318841,2.3101637576813,2.31169331656242,2.31236312339271,2.31331284949537,2.31353278606651,2.31398265632566,2.3140026505594,2.3144025352342,2.31438254100046,2.31494237954518,2.31554220655739,2.31519230746694,2.31710175678912,2.27801302982723,2.27743319704877,2.2760535949207,2.27674339598473,2.27552374772659,2.2748839322469,2.27494391494812,2.275183845753,2.27643348536176,2.27551375060972,2.27604359780383,2.27569369871338,2.27589364105078,2.27604359780383,2.27669341040038,2.27711328930892,2.27738321146441,2.27824296351524,2.27826295774898,2.27854287702134,2.27886278476118,2.28011242436994,2.28127208992686,2.28263169782119,2.28339147870331,2.28525094244114,2.3313576454458,2.33210742921106,2.3307578184336,2.33088778095291,2.33029795105758,2.33053788186246,2.33021797412262,2.33107772617344,2.32857844695593,2.32776868048946,2.32740878428213,2.32605917350468,2.3255193291937,2.32540936090813,2.32510944740202,2.32366986257274,2.323649868339,2.32332996059916,2.32356989140404,2.32378982797518,2.32418971264998,2.32487951371401,2.32633909277704,2.32635908701078,2.32673897745184,2.32792863435938,2.32901832009821,2.32941820477301,2.32961814711042,2.33083779536856,2.33158757913381,2.3314576166145,2.33153759354946,2.33028795394071,2.33071782996612,2.33026795970697,2.28948971999404,2.28900985838428,2.28843002560582,2.28713040041271,2.28688047249096,2.28706042059462,2.28576079540152,2.28557085018098,2.28574080116777,2.28538090496045,2.28526093955801,2.28547087901228,2.28494103181817,2.28505100010374,2.28546088189541,2.28637061953059,2.28441118462406,2.28441118462406,2.28446117020841,2.28425123075414,2.28426122787101,2.28391132878056,2.28420124516979,2.28378136626125,2.2854308905448,2.28381135761186,2.28488104911695,2.28331150176835,2.28369139220941,2.28419124805292,2.28394132013117,2.28436119903971,2.28466111254581,2.28470110101329,2.28391132878056,2.2841312653517,2.28517096550618,2.2851309770387,2.2887699275794,2.28555085594724,2.28534091649297,2.28585076945334,2.28619067142693,2.28628064547876,2.28636062241372,2.28649058493303,2.28776021877552,2.28763025625621,2.28756027643812,2.28858997947574,2.28980962773388,2.28964967386396,2.28879991893001,2.29299870801543,2.29152913183553,2.29409839087113,2.29672763260796,2.34482376186976,2.35078204352431,2.35019221362897,2.35033217326515,2.3514518503546,2.35261151591153,2.35279146401519,2.35280146113206,2.35257152744405,2.35313136598877,2.35164179557513,2.35124191090033,2.35100198009545,2.35119192531598,2.35103197144606,2.3508520233424,2.35092200316049,2.35110195126415,2.35137187341964,2.35311137175503,2.35278146689832,2.35327132562495,2.35484087297355,2.35799996190448,2.35887970818905,2.3593295784482,2.35968947465552,2.36013934491467,2.3612990104716,2.36138898452343,2.36767717103469,2.36747722869729,2.36713732672371,2.36757719986599,2.36727728635989,2.36696737573691,2.3692767097339,2.30838427087843,2.30685471199732
2.3061249224658,2.30627487921885,2.3072945851396,2.30851423339774,2.30935399121483,2.30999380669451,2.31109348955022,2.31268303113255,2.31282299076873,2.31321287832667,2.31466246027282,2.3153722555706,2.31454249487038,2.31487239972709,2.31508233918137,2.31666188364683,2.31589210564784,2.31761160974949,2.27909271844919,2.27687335850404,2.27638349977741,2.27648347094611,2.27671340463412,2.27592363240139,2.27494391494812,2.27519384286987,2.27486393801316,2.27514385728552,2.27560372466155,2.27593362951826,2.27647347382924,2.27770311920426,2.27738321146441,2.27689335273778,2.27800303271036,2.27814299234654,2.27829294909959,2.27818298081402,2.27904273286484,2.28041233787604,2.28125209569312,2.28219182467891,2.28390133166369,2.28571080981716,2.33348703133912,2.33215741479541,2.33147761084824,2.33080780401795,2.33102774058909,2.33052788474559,2.32959815287668,2.32986807503217,2.32796862282686,2.32697890825672,2.32654903223131,2.32569927729736,2.32576925711545,2.32411973283189,2.32395977896197,2.32352990293656,2.3233499548329,2.32316000961236,2.32559930612866,2.32348991446908,2.32339994041725,2.32486951659714,2.32573926576484,2.32560930324553,2.32677896591932,2.32761872373641,2.32826853633296,2.32907830279943,2.32996804620087,2.33042791357689,2.33091777230352,2.33104773482283,2.33051788762872,2.33161757048442,2.33007801448644,2.28988960466884,2.28980962773388,2.28864996217696,2.28838004002147,2.28792017264545,2.28666053591982,2.28639061376433,2.28508099145435,2.28552086459663,2.28510098568809,2.28554085883037,2.28512097992183,2.28558084729785,2.28565082711594,2.28489104623382,2.28462112407833,2.28438119327345,2.28445117309154,2.28432121057223,2.28405128841674,2.28381135761186,2.28384134896247,2.2839313230143,2.28315154789843,2.28387134031308,2.28408127976735,2.28384134896247,2.28342147005392,2.2839313230143,2.28401129994926,2.28333149600209,2.28388133742995,2.28537090784358,2.28374137779377,2.28389133454682,2.2837613720275,2.28420124516979,2.28461112696146,2.28470110101329,2.28507099433748,2.28471109813016,2.28538090496045,2.28557085018098,2.28592074927144,2.28741031968507,2.2867005243873,2.28641060799807,2.2875002937369,2.2870004378934,2.28773022742491,2.28825007750216,2.28877992469627,2.2893697545916,2.2891698122542,2.29056940861601,2.29345857539145,2.29439830437724,2.29585788344026,2.34913251924075,2.34713309586674,2.348882591319,2.34939244427937,2.35118192819911,2.35295141788511,2.3538211670528,2.35255153321031,2.35208166871741,2.35132188783529,2.35120192243285,2.35111194838102,2.35243156780786,2.35121191954972,2.35113194261476,2.3513518791859,2.3507520521737,2.35081203487492,2.35179175232818,2.35224162258733,2.35217164276924,2.35347126796235,2.35578060195933,2.35908964764332,2.35854980333233,2.35919961592889,2.35978944582422,2.36047924688825,2.36167890091266,2.36231871639234,2.36517789181718,2.36601764963426,2.36756720274912,2.36705734978875,2.3669373843863,2.36794709319018,2.3682070182288,2.3068947004648,2.30607493688145
2.30549510410299,2.30693468893228,2.30711463703594,2.30830429394347,2.30927401427987,2.30964390760406,2.31118346360205,2.31268303113255,2.31297294752179,2.31355278030025,2.31471244585717,2.31649193266004,2.31556220079113,2.31556220079113,2.31661189806248,2.31811146559299,2.31902120322816,2.31542224115495,2.27724325182823,2.2788227962937,2.27668341328351,2.27540378232415,2.27527381980483,2.27440407063714,2.27613357185566,2.27520383998674,2.2748839322469,2.27510386881804,2.27537379097353,2.27560372466155,2.27608358627131,2.27727324317884,2.27747318551625,2.27678338445221,2.27752317110059,2.27819297793089,2.27716327489327,2.27898275016362,2.27913270691667,2.28038234652543,2.2818619198222,2.28233178431509,2.28370138932628,2.28589075792083,2.33337706305355,2.33211742632793,2.33130765986145,2.33090777518665,2.33144761949763,2.32956816152606,2.32917827396813,2.3279886170606,2.3278886458919,2.32663900628314,2.32619913314086,2.32396977607884,2.32468956849348,2.3237498395077,2.32330996636541,2.3232799750148,2.32309002979427,2.323649868339,2.32358988563778,2.32292007880748,2.32338994330038,2.32332996059916,2.32427968670181,2.32518942433698,2.32600918792033,2.32719884482786,2.32776868048946,2.32912828838378,2.32952817305858,2.33029795105758,2.33061785879742,2.33067784149864,2.32946819035736,2.33452673149361,2.33097775500474,2.33047789916124,2.28908983531924,2.28792017264545,2.2866005532186,2.28713040041271,2.28661055033547,2.28565082711594,2.28531092514236,2.28545088477854,2.28547087901228,2.28537090784358,2.28546088189541,2.28508099145435,2.28469110389642,2.28489104623382,2.28442118174093,2.28428122210475,2.28400130283239,2.28404129129987,2.28375137491063,2.28400130283239,2.28404129129987,2.28362141239132,2.28392132589743,2.28373138067689,2.28359142104071,2.28348145275514,2.28347145563827,2.28380136049499,2.28410127400109,2.28364140662506,2.28334149311896,2.28457113849398,2.28392132589743,2.28377136914438,2.28430121633849,2.28419124805292,2.28426122787101,2.28441118462406,2.28477108083138,2.28545088477854,2.28625065412815,2.28657056186799,2.28599072908953,2.28668053015356,2.28621066566067,2.28687047537409,2.28716039176332,2.28779021012613,2.28842002848895,2.28814010921659,2.28908983531924,2.2897696392664,2.28910982955298,2.29058940284975,2.29730746538642,2.29329862152153,2.29532803624615,2.34773292287894,2.34776291422955,2.3470131304643,2.34982232030478,2.35102197432919,2.3513518791859,2.35184173791253,2.35247155627534,2.35168178404261,2.35198169754871,2.35196170331497,2.35157181575704,2.35057210407004,2.35076204929057,2.35068207235561,2.35027219056393,2.35060209542065,2.35107195991354,2.35147184458834,2.35139186765338,2.35571062214124,2.35520076918087,2.35487086432416,2.35789999073578,2.35853980621546,2.35948953231812,2.36010935356406,2.36070918057626,2.36433813400009,2.36521788028466,2.36481799560985,2.36709733825623,2.3668374132176,2.36641753430906,2.36628757178975,2.36661747664646,2.36763718256721,2.30615491381641,2.30550510121986
2.30543512140177,2.30650481290686,2.30658478984182,2.30756450729509,2.30920403446178,2.30958392490284,2.31050365965488,2.31174330214677,2.31307291869049,2.31401264767627,2.31461247468847,2.3149023910777,2.31453249775351,2.31558219502487,2.31663189229622,2.31730169912652,2.31739167317835,2.27758315380182,2.27807301252845,2.27648347094611,2.27574368429773,2.27519384286987,2.27434408793592,2.27481395242881,2.27476396684446,2.27485394089629,2.27522383422048,2.27549375637598,2.27549375637598,2.27549375637598,2.27559372754468,2.27594362663513,2.27666341904977,2.27716327489327,2.27666341904977,2.27796304424288,2.27880280205996,2.27829294909959,2.27896275592988,2.28055229751222,2.28189191117281,2.28490104335069,2.28442118174093,2.28627064836189,2.32834851326792,2.32920826531874,2.32996804620087,2.33026795970697,2.33021797412262,2.32964813846103,2.32939821053927,2.32937821630553,2.32853845848845,2.32657902358192,2.32555931766118,2.32485951948027,2.3238498106764,2.32360987987152,2.32291008169061,2.32317000672923,2.32227026621093,2.32271013935321,2.32337994618351,2.32303004709305,2.32316000961236,2.32331996348228,2.32420970688372,2.32495949064897,2.32608916485529,2.32683894862054,2.3278886458919,2.32859844118967,2.32940820765614,2.33116770022527,2.33090777518665,2.33032794240819,2.32923825666935,2.32849847002097,2.32900832298134,2.29038946051235,2.28894987568306,2.2884700140733,2.28796016111293,2.28733034275011,2.28665053880295,2.28605071179075,2.28516096838931,2.28504100298687,2.28572080693403,2.28502100875313,2.28486105488321,2.2843312076891,2.28471109813016,2.28478107794825,2.28437119615658,2.28479107506512,2.28442118174093,2.28406128553361,2.28399130571552,2.28313155366469,2.28417125381918,2.28367139797568,2.28431121345536,2.28406128553361,2.2838313518456,2.28319153636591,2.28411127111796,2.28389133454682,2.28339147870331,2.28345146140453,2.28349144987201,2.28337148446957,2.28364140662506,2.28442118174093,2.28452115290963,2.28449116155902,2.28466111254581,2.28506099722061,2.28416125670231,2.28474108948077,2.28562083576533,2.28644059934868,2.28651057916677,2.28606070890762,2.28677050420539,2.28625065412815,2.2875002937369,2.28766024760682,2.2881701005672,2.28872993911192,2.28922979495542,2.28955969981213,2.29071936536906,2.29081933653776,2.29135918084874,2.29324863593718,2.34722306991857,2.34609339571225,2.34642330056897,2.34786288539825,2.35119192531598,2.35121191954972,2.35222162835359,2.35266150149588,2.35245156204161,2.3517517638607,2.35163179845826,2.35144185323773,2.35087201757614,2.35003225975905,2.35001226552531,2.35052211848569,2.34983231742165,2.35089201180988,2.35066207812187,2.35148184170521,2.35210166295115,2.35411108344203,2.35466092486989,2.36165890667892,2.35636043473779,2.35844983216363,2.35921961016263,2.36007936221345,2.36112905948481,2.36362833870232,2.36415818589643,2.36490796966168,2.36772715661904,2.36588768711495,2.36624758332227,2.36666746223081,2.36636754872471,2.30800438043737,2.30541512716803,2.3044554039485
2.30674474371175,2.30694468604915,2.30777444674936,2.30796439196989,2.30912405752682,2.30967389895467,2.31033370866809,2.3122331608734,2.3132028812098,2.31374272552078,2.31510233341511,2.31448251216916,2.31605205951776,2.31638196437447,2.31746165299644,2.31781155208689,2.31906119169564,2.27956258294209,2.27868283665752,2.27704330949083,2.27608358627131,2.275183845753,2.27509387170117,2.27422412253348,2.2750838745843,2.27497390629873,2.27541377944101,2.27515385440239,2.27622354590749,2.27627353149184,2.27581366411582,2.27663342769916,2.27679338156908,2.27713328354266,2.27794305000914,2.27911271268293,2.27935264348781,2.27975252816262,2.28075223984962,2.28047232057726,2.28245174971753,2.28303158249599,2.28484106064947,2.32789864300877,2.33046790204437,2.32789864300877,2.32991806061652,2.33024796547323,2.33009800872018,2.32997804331774,2.32994805196713,2.32829852768357,2.32826853633296,2.32693891978924,2.32516943010324,2.32451961750669,2.32402975878006,2.32378982797518,2.32331996348228,2.32237023737963,2.32237023737963,2.32262016530138,2.32272013647008,2.32246021143146,2.32343992888473,2.32421970400059,2.32413972706563,2.32465957714287,2.32566928594675,2.32699890249046,2.32795862570999,2.32872840370898,2.32982808656469,2.33031794529132,2.33047789916124,2.33249731676899,2.3314576166145,2.32962814422729,2.32538936667439,2.29081933653776,2.28994958737006,2.28788018417796,2.28769023895743,2.28702043212714,2.28615068295945,2.28584077233648,2.2860007262064,2.28582077810273,2.28532092225923,2.28524094532427,2.28524094532427,2.28532092225923,2.28474108948077,2.28504100298687,2.28411127111796,2.28436119903971,2.28303158249599,2.28462112407833,2.28343146717079,2.28380136049499,2.28398130859865,2.28390133166369,2.28408127976735,2.28365140374193,2.28352144122262,2.28372138356002,2.28384134896247,2.28374137779377,2.28388133742995,2.28357142680697,2.28390133166369,2.28372138356002,2.28410127400109,2.28417125381918,2.28436119903971,2.28445117309154,2.28448116444215,2.28541089631106,2.28508099145435,2.28510098568809,2.28572080693403,2.28547087901228,2.2860007262064,2.28618067431006,2.28681049267287,2.28687047537409,2.28719038311393,2.28784019571048,2.28890988721558,2.28877992469627,2.28870994487818,2.28954970269526,2.2906393884341,2.29281875991177,2.29389844853373,2.29402841105304,2.2965476845043,2.3440739781045,2.34414395792259,2.34783289404764,2.35084202622553,2.35197170043184,2.35286144383328,2.35290143230076,2.35255153321031,2.3525215418597,2.35126190513407,2.35107195991354,2.35058210118691,2.35140186477025,2.35093200027736,2.34993228859035,2.35029218479767,2.3507520521737,2.3512519080172,2.35132188783529,2.35327132562495,2.35380117281906,2.35460094216867,2.35477089315546,2.35621047798474,2.35867976585164,2.3601293477978,2.36185884901632,2.36427815129887,2.36374830410476,2.36367832428667,2.36417818013017,2.36636754872471,2.36556777937511,2.36569774189442,2.36649751124402,2.36765717680095,2.36488797542794,2.30521518483063,2.30398553945561
2.30615491381641,2.30678473217923,2.30663477542618,2.30810435160607,2.30914405176056,2.30974387877276,2.31104350396587,2.31261305131446,2.31282299076873,2.31361276300147,2.31441253235107,2.31529227863564,2.31491238819457,2.31552221232365,2.31580213159601,2.31579213447914,2.3160720537515,2.2783229404502,2.27871282800813,2.27773311055487,2.27666341904977,2.27524382845422,2.27547376214224,2.27470398414324,2.27516385151926,2.2749839034156,2.27503388899995,2.2749839034156,2.27599361221948,2.27550375349285,2.27593362951826,2.27646347671237,2.27700332102335,2.27717327201014,2.27847289720325,2.27801302982723,2.27944261753964,2.2792226809685,2.27970254257827,2.28114212740755,2.28179194000411,2.28353143833949,2.28583077521961,2.32500947623332,2.32734880158091,2.32859844118967,2.32926824801996,2.32970812116225,2.32983808368156,2.32914828261752,2.3288883575789,2.32844848443662,2.32759872950267,2.32585923116728,2.3249494935321,2.32431967516929,2.32460959155852,2.32282010763878,2.32237023737963,2.32272013647008,2.32214030369162,2.32241022584711,2.32240022873024,2.32326997789793,2.32382981644266,2.32375983662457,2.32372984527396,2.32496948776584,2.3260191850372,2.32687893708802,2.32785865454129,2.3282885305667,2.32917827396813,2.32993805485026,2.33092776942039,2.33083779536856,2.33068783861551,2.32880838064394,2.32712886500977,2.29076935095341,2.2890698410855,2.28834005155399,2.28785019282735,2.2870004378934,2.28737033121759,2.28651057916677,2.28571080981716,2.28601072332327,2.28518096262305,2.28508099145435,2.28436119903971,2.28506099722061,2.28520095685679,2.28477108083138,2.28531092514236,2.28516096838931,2.28444117597467,2.28388133742995,2.28406128553361,2.28399130571552,2.28414126246857,2.28319153636591,2.28371138644316,2.2837613720275,2.28399130571552,2.28407128265048,2.28327151330087,2.28384134896247,2.28381135761186,2.28310156231408,2.28350144698888,2.28351144410575,2.28395131724804,2.28361141527445,2.28427122498788,2.28431121345536,2.28425123075414,2.28510098568809,2.28505100010374,2.2845311500265,2.28537090784358,2.28550087036289,2.28549087324602,2.28631063682937,2.28624065701128,2.28665053880295,2.28662054745234,2.28755027932125,2.28865995929383,2.28828006885277,2.28952970846152,2.29035946916174,2.29142916066683,2.28612069160884,2.29396842835182,2.29999668982446,2.34786288539825,2.34436389449374,2.3430742664175,2.35298140923572,2.3522516197042,2.35186173214627,2.35189172349688,2.35258152456092,2.35138187053651,2.35170177827635,2.35130189360155,2.35132188783529,2.35106196279667,2.3502821876808,2.35012223381088,2.34983231742165,2.35050212425195,2.35030218191454,2.35079204064118,2.35280146113206,2.35261151591153,2.35468091910363,2.35386115552028,2.35693027039939,2.35904965917584,2.35859978891668,2.36033928725207,2.36427815129887,2.36351837041675,2.36345838771553,2.36301851457325,2.36381828392285,2.36504792929787,2.36505792641474,2.36539782838832,2.36672744493203,2.36798708165766,2.30670475524427,2.30487528285705,2.3034556922615
