2.23196969116343,2.23186978294009,2.23258912214817,2.23303870915322,2.23353825026994,2.23445740592471,2.23548646062516,2.23606592832056,2.23660543272662,2.23735474440171,2.23833384499049,2.23908315666557,2.23984245916299,2.2401921379447,2.24053182590407,2.24172073376187,2.24239011885828,2.24313943053336,2.24366894411709,2.24469799881754,2.24498773266524,2.24634648450272,2.24712576864481,2.24808488758892,2.24914391475637,2.24945363024874,2.25097223524358,2.25211118898971,2.2541093534566,2.25568790338545,2.25838542541575,2.26045352563898,2.26180228665414,2.31221597615383,2.30847940860074,2.3086992066921,2.31009792181892,2.30908884876314,2.30910883040781,2.3084094728444,2.3066410972912,2.30692084031657,2.30558207012375,2.30563202423542,2.30610159288514,2.30547217107807,2.30651121660085,2.30576190492577,2.30651121660085,2.30678096880388,2.30784998679367,2.3083795003774,2.30886905067179,2.30998802277325,2.31090717842802,2.31153660023509,2.31267555398122,2.31405428746337,2.31491349818414,2.31702156169671,2.31592257123992,2.31477362667145,2.31411423239738,2.31510332380849,2.30993806866157,2.31122688474272,2.31202615052948,2.27610914423709,2.27462051170925,2.27496019966862,2.27386120921183,2.27394113579051,2.2741709247042,2.27468045664326,2.27501015378029,2.2750700987143,2.27488027308995,2.27581941038939,2.27588934614573,2.27677852933349,2.27691840084618,2.27718815304921,2.27760776758725,2.27794745554663,2.27937614314045,2.28002554659219,2.28056505099826,2.28207366517076,2.28369217838894,2.32890064945238,2.32923034658942,2.32919038330008,2.33031934622388,2.33154821737101,2.33161815312735,2.33106865789896,2.32877076876203,2.32960999783813,2.32855097067068,2.32752191597023,2.32697242074183,2.32610321919873,2.32604327426473,2.32540386163532,2.32547379739166,2.32553374232567,2.32571357712769,2.32602329262006,2.32721220047786,2.32776169570625,2.32938020892444,2.33008955731018,2.33070898829492,2.33098873132028,2.33217763917808,2.33281705180749,2.33262722618314,2.33254729960446,2.33251732713746,2.33386608815261,2.28980656165763,2.2895068369876,2.28743873676437,2.28580024190151,2.28579025107918,2.28518081091678,2.28398191223664,2.28429162772901,2.28429162772901,2.28403186634831,2.28469126062239,2.28429162772901,2.28386202236863,2.28418172868333,2.28373214167828,2.28367219674427,2.28348237111992,2.28321261891689,2.2833025363179,2.2830427749372,2.28319263727222,2.28322260973922,2.2827530410895,2.2829828300032,2.28366220592194,2.2829828300032,2.2826930961555,2.28251326135348,2.28329254549556,2.28386202236863,2.28236339901846,2.28404185717065,2.2839119764803,2.28474121473406,2.2845214166427,2.28399190305898,2.2850709118711,2.28457137075437,2.28566037038883,2.28674937002329,2.28673937920095,2.28644964535325,2.28709904880499,2.28871756202318,2.28732883771869,2.28791829623642,2.28881747024652,2.29203451503822,2.29179473530219,2.29411260608379,2.2944922573325,2.34190870013185,2.34349724088303,2.35104031174555,2.35226918289269,2.35388769611087
2.23176987471674,2.23250919556949,2.23328847971158,2.23385795658465,2.23263907625984,2.23463724072673,2.2357861852952,2.23701505644234,2.23717490959969,2.23734475357937,2.23820396430014,2.23896326679756,2.2396126702493,2.24009222972135,2.24042192685839,2.2422802198126,2.24249002708162,2.24344914602573,2.24391871467545,2.2446580355282,2.24562714529464,2.24597682407635,2.24691596137579,2.2476452914062,2.24920385969038,2.24963346505076,2.2514717763603,2.2528904731318,2.25441906894897,2.25647717834987,2.25879504913146,2.260633360441,2.30802982159569,2.30911882123015,2.3089889405398,2.30906886711847,2.30986813290523,2.31028774744328,2.30969828892555,2.30786996843834,2.3069008586719,2.30645127166685,2.30554210683441,2.30497262996135,2.30512249229636,2.30572194163643,2.30601167548413,2.30610159288514,2.30623147357549,2.30689086784956,2.30790993172768,2.30793990419468,2.30868921586977,2.30954842659053,2.31083724267167,2.31150662776808,2.3125256916462,2.31410424157504,2.31479360831612,2.31488352571713,2.31564282821455,2.31531313107751,2.31435401213341,2.31436400295574,2.31411423239738,2.31271551727055,2.27752784100858,2.27545974078535,2.27461052088692,2.27518998858232,2.27413096141486,2.27380126427782,2.27441070444023,2.27448064019657,2.27470043828793,2.27517999775998,2.2751000711813,2.27570951134371,2.27633893315078,2.27646881384113,2.27679851097816,2.27761775840959,2.27757779512025,2.27793746472429,2.27846697830802,2.28009548234854,2.28207366517076,2.28277302273417,2.28440152677469,2.28626981055123,2.32935023645743,2.33029936457921,2.33024941046753,2.33121852023398,2.33088882309694,2.32914042918841,2.32903053014273,2.3282112827113,2.3282112827113,2.32626307235608,2.32619313659974,2.32563365054901,2.32605326508706,2.32541385245765,2.32528397176731,2.32575354041703,2.32543383410232,2.32573355877236,2.32697242074183,2.32780165899559,2.32859093396001,2.32925032823409,2.33045921773656,2.33135839174666,2.33239743726944,2.33206774013241,2.33234748315777,2.33173804299537,2.33304684072118,2.33414583117797,2.28964670850028,2.28787833294708,2.28828795666279,2.28658951686594,2.28562040709949,2.28633974630757,2.28444149006403,2.28436156348535,2.28414176539399,2.28437155430769,2.28383204990162,2.28405184799298,2.28415175621633,2.28380207743462,2.28383204990162,2.28378209578995,2.28371216003361,2.2835922701656,2.28337247207424,2.28343241700825,2.28317265562755,2.28472123308939,2.28397192141431,2.28351234358692,2.28338246289657,2.28421170115033,2.28369217838894,2.28315267398288,2.28387201319096,2.28402187552598,2.2830128024702,2.28370216921128,2.28367219674427,2.28407182963765,2.2844614717087,2.2844614717087,2.28429162772901,2.28532068242946,2.28499098529242,2.28522077420611,2.28630977384057,2.28651958110959,2.28742874594203,2.28748869087604,2.28793827788109,2.28909721327189,2.290146249617,2.28962672685561,2.29270390013463,2.29257401944428,2.29303359727166,2.34280787414195,2.34461621298449,2.35056075227349,2.35153985286227,2.35219924713635
2.23126034277769,2.23232936076747,2.23358820438162,2.23297876421921,2.23452734168106,2.23456730497039,2.23550644226983,2.23612587325457,2.23656546943729,2.23744466180272,2.23973256011731,2.23866354212752,2.2393229364016,2.24010222054369,2.24074163317309,2.24206042172124,2.24244007296995,2.242859687508,2.24405858618813,2.2443683016805,2.24527746651294,2.24627654874638,2.24677608986311,2.24808488758892,2.24972338245177,2.25136187731462,2.25084235455323,2.25212117981204,2.25429917908096,2.25652713246154,2.25847534281676,2.25995398452226,2.31057748129098,2.3084394453114,2.30920873863116,2.31011790346359,2.30845942695607,2.30868921586977,2.30908884876314,2.30893898642813,2.30731048238761,2.30539224449939,2.30520241887504,2.30537226285472,2.30525237298671,2.30524238216438,2.30561204259075,2.30514247394103,2.30580186821511,2.30634137262117,2.30723055580893,2.30792991337235,2.30857931682409,2.30957839905753,2.30995805030624,2.31122688474272,2.31234585684418,2.3134248656563,2.31437399377807,2.31439397542274,2.31299526029592,2.31478361749379,2.31431404884407,2.31364466374766,2.31450387446842,2.2771282081152,2.2768085018005,2.27551968571935,2.27573948381071,2.2744606585519,2.27387120003417,2.27447064937423,2.27395112661284,2.27445066772956,2.27470043828793,2.27519997940465,2.27515002529298,2.27630896068377,2.27646881384113,2.27660868535381,2.27693838249085,2.27730804291722,2.27746789607457,2.27807733623697,2.27966587698815,2.28012545481554,2.28047513359725,2.28256321546515,2.28418172868333,2.32753190679256,2.32946013550311,2.32926031905642,2.33057910760457,2.33076893322893,2.32992970415283,2.32924033741175,2.32837113586865,2.32759185172657,2.3275718700819,2.3260932283764,2.32652283373678,2.32528397176731,2.32545381574699,2.3249342929856,2.3246745316049,2.32445473351355,2.32523401765563,2.32623309988908,2.32627306317842,2.32703236567584,2.32794153050827,2.32914042918841,2.33083886898527,2.33144830914767,2.33204775848774,2.33233749233544,2.3320077951984,2.33299688660951,2.33152823572635,2.33216764835575,2.28904725916021,2.28737879183036,2.28661948933294,2.28616990232789,2.28656953522127,2.28499098529242,2.28472123308939,2.28444149006403,2.28398191223664,2.28372215085595,2.2838820040133,2.28383204990162,2.28406183881532,2.2839119764803,2.28317265562755,2.2839419489473,2.28370216921128,2.28271307780016,2.28307274740421,2.28376211414528,2.28334249960724,2.28357228852093,2.28392196730263,2.28369217838894,2.28288292177985,2.2826930961555,2.28382205907929,2.28353232523159,2.28352233440926,2.28341243536358,2.28375212332295,2.28352233440926,2.28383204990162,2.28375212332295,2.28402187552598,2.284171737861,2.2845214166427,2.28525074667312,2.28614992068322,2.2850709118711,2.2862897921959,2.28585019601319,2.28782837883541,2.28753864498771,2.28882746106886,2.28841783735314,2.28869758037851,2.29176476283519,2.29071572649007,2.29222434066257,2.29611077055068,2.34475608449717,2.34317753456833,2.34977147730907,2.35242903605004,2.35208934809067
2.23091066399598,2.2325691405035,2.23270901201618,2.23320855313291,2.23355823191461,2.23441744263538,2.23560635049318,2.23600598338656,2.23652550614795,2.23760451496007,2.23916308324425,2.2384837073255,2.23947279873661,2.23989241327466,2.24131111004615,2.24152091731518,2.24277976092932,2.24249002708162,2.24372888905109,2.24500771430991,2.24535739309161,2.24583695256367,2.24702586042147,2.24837462143662,2.24969340998477,2.25209120734504,2.25156169376131,2.2529504180658,2.25479872019768,2.25664702232955,2.25887497571014,2.2611528832024,2.30890901396112,2.30848939942308,2.30908884876314,2.3098881145499,2.30858930764642,2.30827959215405,2.30918875698649,2.30689086784956,2.30596172137246,2.30502258407302,2.30493266667201,2.30491268502734,2.30481277680399,2.30468289611365,2.30478280433699,2.304872721738,2.30517244640803,2.30613156535214,2.3069308311389,2.30908884876314,2.30817968393071,2.30938857343318,2.31018783921993,2.31127683885439,2.31295529700658,2.31353476470198,2.31556290163587,2.3133948931893,2.31264558151421,2.3131351318086,2.31521322285417,2.31433403048874,2.31348481059031,2.31377454443801,2.2765787128868,2.27559961229803,2.27409099812552,2.27534984173967,2.27418091552653,2.27379127345549,2.27413096141486,2.27418091552653,2.2747503923996,2.27498018131329,2.27595928190207,2.2756795388767,2.27682848344517,2.27717816222687,2.27699832742485,2.27722811633855,2.27781757485628,2.27914635422676,2.2794760513638,2.28004552823686,2.28126440856167,2.28305276575954,2.28473122391173,2.32853098902601,2.328471044092,2.3302693921122,2.33099872214262,2.33069899747258,2.33093877720861,2.32896059438639,2.32816132859963,2.32825124600064,2.32677260429514,2.32596334768605,2.325483788214,2.32513410943229,2.32457462338156,2.32413502719884,2.3242948803562,2.32444474269121,2.32498424709727,2.32531394423431,2.32618314577741,2.32672265018347,2.32795152133061,2.32903053014273,2.32996966744217,2.33079890569593,2.33201778602073,2.33216764835575,2.33165811641669,2.33162814394969,2.33132841927966,2.33137837339133,2.28928703889624,2.28757860827705,2.28652957193193,2.28615991150555,2.28553048969848,2.28491105871375,2.28453140746504,2.28383204990162,2.28425166443967,2.28396193059197,2.28385203154629,2.28357228852093,2.28312270151588,2.28352233440926,2.28314268316055,2.28323260056156,2.28329254549556,2.2830128024702,2.28255322464281,2.28356229769859,2.2829828300032,2.28340244454124,2.28412178374932,2.28358227934326,2.28279300437884,2.2830128024702,2.28286294013518,2.28321261891689,2.28326257302856,2.28266312368849,2.28366220592194,2.2835922701656,2.28383204990162,2.28412178374932,2.28382205907929,2.28411179292699,2.28432160019601,2.28502095775943,2.28519080173911,2.28606999410454,2.28562040709949,2.28676935166796,2.28679932413496,2.28753864498771,2.28787833294708,2.28787833294708,2.28847778228715,2.28912718573889,2.29110536856111,2.29209445997222,2.34304765387798,2.34247817700492,2.34274792920795,2.34343729594902,2.35205937562366,2.35252894427338
2.23091066399598,2.23066089343762,2.23220947089946,2.23348829615827,2.23573623118353,2.23496693786377,2.23583613940687,2.2358461302292,2.23606592832056,2.23717490959969,2.23786427634077,2.23792422127477,2.23901322090923,2.23997233985334,2.24090148633044,2.24158086224919,2.24236014639127,2.242859687508,2.24364896247242,2.24431834756883,2.24478791621855,2.2461067047667,2.24744547495951,2.24872430021833,2.24920385969038,2.2505726023502,2.25149175800497,2.2535298857612,2.25451897717231,2.25673693973056,2.25976415889791,2.26214197461351,2.29315348713968,2.30950846330119,2.30964833481387,2.31024778415394,2.30815970228604,2.30794989501702,2.30732047320994,2.30652120742319,2.30539224449939,2.30540223532173,2.30514247394103,2.30544219861107,2.30431323568727,2.30419334581926,2.30473285022532,2.30466291446898,2.304842749271,2.30614155617448,2.30766016116932,2.30627143686483,2.30839948202207,2.31211606793049,2.30858930764642,2.30629141850949,2.30909883958548,2.31416418650905,2.30976822468189,2.31539305765619,2.31207610464115,2.31341487483397,2.31346482894564,2.31347481976797,2.31244576506752,2.27570951134371,2.27589933696806,2.27441070444023,2.27406102565852,2.27384122756716,2.27378128263316,2.27379127345549,2.27393114496817,2.27440071361789,2.27487028226761,2.27481033733361,2.27522995187165,2.27621904328276,2.27641885972945,2.27639887808478,2.27666863028782,2.27726807962788,2.27751785018624,2.27849695077502,2.27953599629781,2.28009548234854,2.28169401392205,2.28339245371891,2.28483113213507,2.32617315495507,2.33048919020356,2.33066902500558,2.33119853858931,2.33009954813252,2.33071897911725,2.32839111751332,2.32716224636619,2.32733209034587,2.32563365054901,2.32546380656933,2.32486435722926,2.32476444900591,2.3240650914425,2.32360551361512,2.32416499966585,2.32448470598055,2.32485436640692,2.32486435722926,2.32568360466068,2.32671265936113,2.32715225554385,2.32877076876203,2.32952008043712,2.33021943800053,2.33133841010199,2.33144830914767,2.33169807970603,2.33027938293454,2.33092878638628,2.28988648823631,2.28844780982015,2.28714900291667,2.28650959028726,2.28538062736347,2.2854205906528,2.2848111504904,2.28412178374932,2.28434158184068,2.2838820040133,2.28370216921128,2.2836222426326,2.28392196730263,2.28335249042957,2.28323260056156,2.2830128024702,2.28317265562755,2.28313269233821,2.28266312368849,2.28396193059197,2.28318264644988,2.2838820040133,2.28363223345494,2.28331252714023,2.28229346326212,2.28258319710982,2.28300281164786,2.28289291260218,2.2827230686225,2.28346238947525,2.28367219674427,2.2835922701656,2.28344240783058,2.2836222426326,2.28380207743462,2.28381206825696,2.28395193976964,2.28450143499803,2.28462132486605,2.28548053558681,2.28543058147514,2.2851008843381,2.28642966370858,2.28767851650039,2.28716898456133,2.28761857156639,2.28841783735314,2.28881747024652,2.28989647905864,2.29046595593171,2.29157493721083,2.34403674528909,2.34692409294375,2.34491593765452,2.3449958642332,2.3517496601313,2.35113022914656
2.23182981965075,2.23212954432078,2.23291881928521,2.23305869079789,2.2331785806659,2.23572624036119,2.23560635049318,2.23658545108195,2.23662541437129,2.23693512986366,2.23741468933571,2.23872348706153,2.23924300982292,2.24211037583291,2.24052183508173,2.24177068787354,2.24244007296995,2.24307948559935,2.24338920109172,2.24452815483785,2.24516756746726,2.245876915853,2.24714575028948,2.24792503443157,2.24934373120306,2.25007306123348,2.25183144596434,2.2529204455988,2.25515838980172,2.25728643495896,2.26033363577097,2.2629812036896,2.30929865603217,2.3098881145499,2.30911882123015,2.30915878451948,2.30744036307796,2.30734045485461,2.30537226285472,2.30687088620489,2.30683092291556,2.30486273091567,2.3046129603573,2.3045530154233,2.30438317144361,2.30442313473295,2.30446309802229,2.30450306131163,2.30503257489535,2.30561204259075,2.30658115235719,2.30720058334193,2.307859977616,2.31034769237729,2.30654118906786,2.31238582013352,2.31236583848885,2.3110170774737,2.3152232136765,2.30948848165652,2.30763018870231,2.30833953708806,2.30857931682409,2.31023779333161,2.31229590273251,2.27732802456189,2.27545974078535,2.27418091552653,2.27412097059253,2.2739111633235,2.27372133769915,2.27366139276514,2.27423086963821,2.27428082374988,2.27522995187165,2.27512005282597,2.27533985091733,2.27613911670409,2.27607917177008,2.27650877713046,2.27752784100858,2.2771282081152,2.27721812551621,2.27907641847042,2.27992563836885,2.28036523455157,2.28237338984079,2.284231682795,2.32654281538145,2.32949010797011,2.32915042001074,2.3296899244168,2.33075894240659,2.33021943800053,2.33032933704621,2.32911045672141,2.32722219130019,2.32663273278246,2.32545381574699,2.32477443982825,2.32415500884351,2.32405510062017,2.32352558703644,2.32318589907707,2.32347563292477,2.32351559621411,2.3240351189755,2.32474446736125,2.32543383410232,2.32590340275204,2.32774171406158,2.32881073205137,2.32933025481276,2.33038928198022,2.3304991810259,2.33077892405126,2.33079890569593,2.33075894240659,2.32992970415283,2.28862764462217,2.28809813103844,2.28722892949534,2.28595010423653,2.28630977384057,2.28490106789141,2.2848111504904,2.28397192141431,2.28431160937368,2.28385203154629,2.28327256385089,2.28363223345494,2.28320262809455,2.28310271987121,2.28283296766818,2.28323260056156,2.28316266480522,2.28322260973922,2.28267311451083,2.28311271069354,2.28288292177985,2.2826930961555,2.28334249960724,2.28260317875449,2.28329254549556,2.28223351832811,2.28299282082553,2.28249327970881,2.28307274740421,2.28390198565797,2.28280299520117,2.28296284835853,2.2830128024702,2.28366220592194,2.28305276575954,2.28406183881532,2.28411179292699,2.28413177457166,2.28509089351577,2.28585019601319,2.28570033367817,2.28550051723148,2.28705908551566,2.28738878265269,2.2868392874243,2.29047594675404,2.28984652494697,2.28978658001296,2.29038602935303,2.29150500145449,2.29324340454069,2.2948119636472,2.34492592847686,2.34700401952243,2.34953169757305,2.35104031174555,2.35100034845621
2.23142019593504,2.23201964527511,2.23272899366085,2.2337280758943,2.23512679102112,2.23530662582314,2.23564631378252,2.23615584572157,2.23622578147791,2.23661542354896,2.23794420291944,2.23896326679756,2.23951276202595,2.24088150468577,2.24091147715278,2.2417007521172,2.24235015556894,2.24305950395469,2.24372888905109,2.24477792539621,2.24512760417792,2.24621660381238,2.24736554838084,2.24821476827927,2.24943364860407,2.25102218935525,2.25216114310138,2.25380962878657,2.25567791256311,2.25742630647164,2.25962428738522,2.30353395154518,2.31023779333161,2.30913880287482,2.30865924340276,2.30939856425551,2.30849939024541,2.30758023459064,2.30718060169726,2.30456300624563,2.30586181314911,2.30449307048929,2.30438317144361,2.30439316226595,2.30413340088525,2.30518243723037,2.30498262078368,2.30471286858065,2.30492267584967,2.30580186821511,2.30646126248918,2.30772010610332,2.30839948202207,2.30613156535214,2.3122059853315,2.31199617806247,2.3122059853315,2.31340488401163,2.31362468210299,2.31301524194059,2.30841946366674,2.31280543467156,2.30999801359558,2.30933861932151,2.31180635243812,2.27628897903911,2.27576945627771,2.27468045664326,2.27432078703922,2.27374131934382,2.27409099812552,2.27410098894786,2.27439072279556,2.27435075950622,2.27546973160768,2.27574947463304,2.27584938285639,2.27581941038939,2.27604919930308,2.27676853851116,2.27706826318119,2.2773879694959,2.27821720774966,2.27970584027749,2.27990565672418,2.28079483991195,2.28255322464281,2.28512086598277,2.32707232896517,2.32935023645743,2.32929029152343,2.3299796582645,2.33000963073151,2.32951008961478,2.32916041083308,2.32809139284329,2.32608323755406,2.32533392587898,2.32610321919873,2.32494428380793,2.32404510979783,2.32337572470142,2.32326582565575,2.32328580730041,2.3240351189755,2.32343566963543,2.32387526581815,2.32459460502623,2.32509414614295,2.32572356795002,2.32722219130019,2.32854097984834,2.32942017221377,2.32993969497517,2.33050917184823,2.33001962155384,2.33053914431523,2.33122851105631,2.33099872214262,2.28946687369826,2.28909721327189,2.28790830541408,2.28617989315022,2.28461133404371,2.2853906181858,2.28408182045999,2.28413177457166,2.28416174703866,2.28375212332295,2.28366220592194,2.28384204072396,2.28383204990162,2.2839119764803,2.28327256385089,2.28369217838894,2.28308273822654,2.28345239865292,2.28261316957682,2.28296284835853,2.28300281164786,2.28307274740421,2.28250327053114,2.28271307780016,2.28227348161745,2.28262316039915,2.2830427749372,2.2829828300032,2.28293287589152,2.28284295849051,2.2829828300032,2.2838820040133,2.28317265562755,2.28379208661229,2.28332251796257,2.28429162772901,2.28398191223664,2.28443149924169,2.28439153595235,2.2853906181858,2.28583021436852,2.28588016848019,2.2868392874243,2.28755862663238,2.28797824117043,2.28949684616526,2.28911719491655,2.29017622208401,2.29017622208401,2.2915949188555,2.29436237664215,2.34976148648674,2.34672427649706,2.34862253274061,2.3473736799488,2.35100034845621,2.35215928384701
2.23134026935636,2.23242926899082,2.23490699292977,2.23384796576231,2.23391790151865,2.23477711223942,2.23539654322415,2.23556638720384,2.2363656529906,2.23689516657432,2.23817399183313,2.23889333104122,2.23979250505132,2.24042192685839,2.24163081636086,2.24163081636086,2.24243008214761,2.24273979763998,2.24341917355873,2.24478791621855,2.24542732884795,2.24685601644178,2.24746545660418,2.24882420844167,2.24969340998477,2.25101219853292,2.25216114310138,2.25360981233988,2.25563794927377,2.25673693973056,2.25992401205526,2.263590643852,2.30511250147403,2.30789994090534,2.30807977570736,2.30798985830635,2.3080897665297,2.30805979406269,2.3075102988343,2.3060316571288,2.30491268502734,2.30440315308828,2.30467290529131,2.30370379552487,2.30411341924058,2.30345402496651,2.3045829878903,2.30467290529131,2.30503257489535,2.30608161124047,2.30694082196123,2.30783999597134,2.30847940860074,2.31050754553464,2.31129682049906,2.31140671954474,2.31183632490512,2.31272550809289,2.31269553562588,2.31344484730097,2.31434402131107,2.31135676543307,2.31324503085428,2.31042761895596,2.27901647353641,2.27594929107973,2.27489026391228,2.27435075950622,2.27403105319152,2.2741409522372,2.27378128263316,2.27380126427782,2.27437074115089,2.27465048417625,2.2747503923996,2.27487028226761,2.27583939203405,2.27592930943507,2.27616908917109,2.27665863946548,2.27687843755684,2.27757779512025,2.27814727199332,2.27879667544506,2.27984571179017,2.28121445445,2.28325258220623,2.28503094858176,2.32646288880277,2.32900055767573,2.32951008961478,2.32972988770614,2.33204775848774,2.32922035576708,2.3296899244168,2.32739203527988,2.32546380656933,2.32540386163532,2.32473447653891,2.32434483446787,2.32363548608212,2.3222967158893,2.32263640384867,2.32263640384867,2.32267636713801,2.32310597249839,2.32362549525979,2.32386527499581,2.3249043205186,2.32552375150333,2.32715225554385,2.32851100738134,2.32893062191939,2.32929029152343,2.33015949306652,2.3302394196452,2.32982979592949,2.32989973168583,2.32970990606147,2.32964996112747,2.28870757120084,2.28714900291667,2.28543058147514,2.28577026943451,2.28456137993204,2.28448145335336,2.28439153595235,2.28376211414528,2.28358227934326,2.28350235276459,2.28403186634831,2.28339245371891,2.2833325087849,2.28328255467323,2.28334249960724,2.28309272904887,2.28306275658187,2.28241335313013,2.28271307780016,2.28294286671386,2.28285294931285,2.28228347243978,2.28230345408445,2.28267311451083,2.28258319710982,2.28234341737379,2.2830128024702,2.28292288506919,2.28319263727222,2.28343241700825,2.28300281164786,2.2830128024702,2.2835922701656,2.284171737861,2.28374213250061,2.28396193059197,2.28437155430769,2.28482114131274,2.28592013176953,2.28569034285583,2.28581023272385,2.28566037038883,2.28739877347503,2.28709904880499,2.28771847978973,2.28833791077447,2.28848777310948,2.29079565306874,2.29203451503822,2.2933932668757,2.34890227576597,2.34699402870009,2.34899219316698,2.3506506696745,2.35131006394858,2.3529985129231
2.23140021429037,2.23211955349845,2.23245924145782,2.23368811260496,2.23380800247297,2.23438747016837,2.23482706635109,2.23585612105154,2.23728480864537,2.23661542354896,2.23795419374178,2.2393828813356,2.23941285380261,2.23981248669599,2.24072165152842,2.24129112840149,2.24193054103089,2.24277976092932,2.24398865043179,2.24453814566019,2.24579698927433,2.24659625506109,2.24694593384279,2.24760532811687,2.24966343751777,2.25072246468522,2.25210119816737,2.25364977562922,2.2558777290098,2.2582255722584,2.26018377343595,2.30404348348424,2.30633138179883,2.3063813359105,2.30752028965663,2.30792991337235,2.30825961050938,2.30659114317953,2.30562203341309,2.3054222169664,2.3045829878903,2.30406346512891,2.3042632815756,2.30404348348424,2.30383367621522,2.30411341924058,2.30405347430658,2.30502258407302,2.30593174890545,2.30527235463138,2.30665108811354,2.30765017034698,2.30853935353475,2.30981817879356,2.31115694898638,2.31127683885439,2.31184631572746,2.31278545302689,2.31291533371724,2.3133948931893,2.31482358078312,2.3131351318086,2.31386446183902,2.31227592108784,2.2774479144299,2.27584938285639,2.27435075950622,2.27515002529298,2.27349154878546,2.27406102565852,2.2738811908565,2.27364141112047,2.27435075950622,2.27422087881587,2.27380126427782,2.27525992433866,2.27536982338434,2.27624901574977,2.27610914423709,2.27673856604416,2.27711821729287,2.2771581805822,2.27757779512025,2.27861684064304,2.27969584945516,2.28136431678501,2.28357228852093,2.28634973712991,2.32911045672141,2.32996966744217,2.32917040165541,2.32926031905642,2.32917040165541,2.32865087889402,2.32743199856922,2.32707232896517,2.32629304482309,2.32471449489424,2.32478443065058,2.32356555032578,2.32236665164564,2.32271633042735,2.32203695450861,2.32263640384867,2.32392521992982,2.32286619276237,2.32303603674205,2.32419497213285,2.32484437558459,2.32560367808201,2.32743199856922,2.32794153050827,2.32858094313768,2.32930028234576,2.33009954813252,2.32998964908684,2.33088882309694,2.32882072287371,2.32899056685339,2.2889573417592,2.28754863581004,2.28727888360701,2.28537063654113,2.28575028778984,2.28461133404371,2.28450143499803,2.28434158184068,2.28371216003361,2.28412178374932,2.28361225181027,2.28380207743462,2.28337247207424,2.28302279329253,2.2829828300032,2.2830427749372,2.28295285753619,2.28241335313013,2.28324259138389,2.28270308697783,2.28239337148546,2.28220354586111,2.28312270151588,2.28285294931285,2.2829828300032,2.28245331641947,2.28266312368849,2.28288292177985,2.28254323382048,2.28288292177985,2.28216358257177,2.28372215085595,2.28342242618591,2.28339245371891,2.28322260973922,2.28366220592194,2.28379208661229,2.28395193976964,2.28431160937368,2.28470125144472,2.28530070078479,2.28593012259186,2.28650959028726,2.2865495535766,2.28717897538367,2.28752865416538,2.28812810350544,2.29042599264237,2.29100546033777,2.29283378082497,2.29290371658132,2.34976148648674,2.34984141306541,2.349112083035,2.34971153237507,2.34961162415172,2.35029100007046
2.23088069152898,2.23245924145782,2.23267903954918,2.2334083695796,2.2336981034273,2.23437747934604,2.23524668088914,2.2355264239145,2.23622578147791,2.23754457002606,2.2381939734778,2.23937289051327,2.23904319337623,2.23988242245233,2.24060176166041,2.2417307245842,2.24238012803594,2.24342916438106,2.24498773266524,2.24507765006625,2.24558718200531,2.24654630094941,2.24751541071586,2.24833465814728,2.24979331820811,2.25066251975121,2.25287049148713,2.25417928921294,2.25603758216715,2.25842538870509,2.26077323195369,2.30324421769748,2.30587180397145,2.30649123495618,2.3072205649866,2.30767015199165,2.30967830728088,2.30676098715921,2.30543220778873,2.3066410972912,2.30477281351466,2.30381369457055,2.30377373128121,2.30416337335225,2.30376374045888,2.30425329075326,2.30373376799187,2.30433321733194,2.30467290529131,2.30506254736236,2.3060316571288,2.30730049156527,2.30859929846876,2.3089889405398,2.31079727938234,2.31169645339244,2.31206611381881,2.31265557233655,2.31269553562588,2.31289535207257,2.31338490236696,2.3134548381233,2.31431404884407,2.31565281903689,2.2765487404198,2.27571950216604,2.27499017213563,2.27512005282597,2.27345158549612,2.27347156714079,2.2735614845418,2.27424086046054,2.27418091552653,2.2744606585519,2.27431079621688,2.27421088799354,2.27482032815594,2.27543975914068,2.27586936450106,2.27658870370914,2.27671858439949,2.27706826318119,2.27755781347558,2.27909640011509,2.28103461964798,2.28135432596268,2.28311271069354,2.32998964908684,2.3305291534929,2.32912044754374,2.32926031905642,2.32880074122904,2.32889065863005,2.32948011714778,2.32788158557427,2.32654281538145,2.3258334669957,2.32456463255923,2.32368544019379,2.32373539430546,2.32339570634609,2.32222678013296,2.32191706464059,2.32184712888425,2.32211688108728,2.32312595414306,2.32328580730041,2.32451467844755,2.32528397176731,2.32574354959469,2.32723218212253,2.32753190679256,2.32814134695496,2.32922035576708,2.33001962155384,2.33032933704621,2.32961998866046,2.32953007125945,2.32834116340165,2.28798823199276,2.2874187551197,2.28677934249029,2.28551050805381,2.28483113213507,2.28458136157671,2.28401188470364,2.28413177457166,2.28384204072396,2.28379208661229,2.28395193976964,2.28338246289657,2.28328255467323,2.28342242618591,2.28270308697783,2.28299282082553,2.28281298602351,2.28256321546515,2.28267311451083,2.28256321546515,2.28242334395247,2.28226349079511,2.2821735733941,2.28266312368849,2.28138429842968,2.2821436009271,2.28253324299814,2.28235340819612,2.28310271987121,2.28316266480522,2.28285294931285,2.28257320628748,2.28378209578995,2.2836222426326,2.28737879183036,2.284201710328,2.28399190305898,2.28419171950567,2.28533067325179,2.28480115966807,2.28492104953608,2.28613992986089,2.28623983808423,2.28633974630757,2.28743873676437,2.28828795666279,2.28755862663238,2.28653956275426,2.28963671767795,2.29264395520062,2.29499179844922,2.35024104595879,2.34923197290301,2.34823289066957,2.34999127540043,2.34895222987765,2.35134003641558
2.23095062728532,2.23170992978274,2.23310864490956,2.23318857148824,2.23310864490956,2.23390791069632,2.23533659829015,2.23566629542718,2.23602596503122,2.2375845333154,2.23810405607679,2.23912311995491,2.23930295475693,2.24001230314268,2.24036198192438,2.24189057774155,2.24271981599531,2.24295959573134,2.24400863207646,2.24489781526423,2.24591687914234,2.24614666805603,2.2484545480153,2.24921385051271,2.2496434558731,2.25120202415727,2.25189139089835,2.25432915154796,2.25633730683719,2.25923464531418,2.26360063467434,2.3057419232811,2.30570195999176,2.30564201505775,2.30815970228604,2.30871918833677,2.3069308311389,2.30774008774799,2.30526236380905,2.30620150110848,2.30409343759591,2.30380370374821,2.30376374045888,2.30349398825585,2.30348399743351,2.30395356608323,2.30398353855023,2.30410342841825,2.30466291446898,2.30491268502734,2.30547217107807,2.30770012445865,2.30791992255001,2.30932862849917,2.31077729773767,2.31158655434676,2.31177637997111,2.31330497578829,2.31297527865125,2.31324503085428,2.31387445266135,2.31395437924003,2.31513329627549,2.31668187373733,2.27766771252126,2.27555964900869,2.27473041075493,2.27497019049096,2.27522995187165,2.27350153960779,2.27365140194281,2.27364141112047,2.27363142029814,2.27436075032855,2.27465048417625,2.27545974078535,2.27688842837917,2.27545974078535,2.27605919012541,2.27681849262283,2.27678852015583,2.27699832742485,2.27833709761767,2.27919630833843,2.28047513359725,2.28168402309972,2.28364222427727,2.33126847434565,2.33085885062994,2.33016948388886,2.32969991523914,2.32919038330008,2.32831119093465,2.32795152133061,2.32776169570625,2.3251940543663,2.32536389834598,2.32428488953386,2.32278626618369,2.3229061560517,2.32188709217359,2.3219770095746,2.32180716559491,2.3240351189755,2.32202696368627,2.32192705546293,2.32358553197045,2.32417499048818,2.32463456831557,2.32570358630535,2.32664272360479,2.32753190679256,2.32853098902601,2.3290505117874,2.32946013550311,2.32920037412242,2.32914042918841,2.32803144790928,2.32955005290412,2.28827796584046,2.28717897538367,2.28709904880499,2.28658951686594,2.28490106789141,2.28501096693709,2.28406183881532,2.28431160937368,2.28379208661229,2.28407182963765,2.28448145335336,2.284231682795,2.28343241700825,2.28313269233821,2.28306275658187,2.28308273822654,2.28276303191184,2.28252325217581,2.28239337148546,2.28235340819612,2.28215359174943,2.28219355503877,2.28266312368849,2.2824333347748,2.28242334395247,2.28255322464281,2.28191381201341,2.28253324299814,2.28338246289657,2.28244332559713,2.28251326135348,2.28258319710982,2.28321261891689,2.28328255467323,2.28374213250061,2.28342242618591,2.28403186634831,2.284231682795,2.28687925071364,2.2854205906528,2.28505093022643,2.2859700858812,2.28570033367817,2.28629978301824,2.28707906716032,2.28766852567806,2.28775844307907,2.28803818610443,2.29203451503822,2.29292369822598,2.29461214720051,2.34745360652748,2.34751355146148,2.34715388185744,2.3497215231974,2.34956167004005,2.35195946740032
2.231090498798,2.23160003073706,2.23239929652381,2.23280892023953,2.23513678184346,2.23580616693987,2.23464723154907,2.23700506562,2.23638563463527,2.23731478111237,2.23827390005648,2.23921303735592,2.23965263353863,2.23988242245233,2.24017215630003,2.24191055938622,2.2425999261273,2.2440485953658,2.24419845770081,2.24644639272607,2.24606674147736,2.24663621835042,2.24770523634021,2.24910395146704,2.25034281343651,2.25155170293898,2.25269065668511,2.25438909648197,2.25689679288792,2.25845536117209,2.26091310346637,2.30319426358581,2.30517244640803,2.30582184985977,2.30678096880388,2.30597171219479,2.30727051909827,2.30675099633688,2.30622148275315,2.30446309802229,2.30419334581926,2.30349398825585,2.30359389647919,2.30331415345382,2.30373376799187,2.30332414427616,2.30376374045888,2.30408344677358,2.3045530154233,2.30536227203239,2.30579187739277,2.3072205649866,2.3081197389967,2.30886905067179,2.31111698569704,2.31144668283408,2.31217601286449,2.31332495743296,2.31506336051915,2.3131351318086,2.31473366338211,2.31634218577796,2.31588260795058,2.31384448019435,2.27602921765841,2.27720813469388,2.275359832562,2.27460053006458,2.27340163138445,2.27411097977019,2.27387120003417,2.27358146618647,2.27384122756716,2.27416093388187,2.27425085128288,2.27466047499859,2.27589933696806,2.2759093277904,2.27584938285639,2.27662866699848,2.27603920848074,2.27761775840959,2.27806734541464,2.27992563836885,2.2809546930693,2.28155414240937,2.28331252714023,2.33256728124913,2.33099872214262,2.3296599519498,2.3296299794828,2.32964996112747,2.32848103491433,2.32720220965552,2.32678259511748,2.3258034945287,2.32484437558459,2.32354556868111,2.32285620194003,2.32264639467101,2.32190707381826,2.32180716559491,2.32112778967617,2.32228672506697,2.3216573032599,2.32202696368627,2.32217682602129,2.32315592661007,2.32408507308717,2.32549377903633,2.32691247580782,2.32720220965552,2.32832118175698,2.32896059438639,2.3290804842544,2.32924033741175,2.32990972250816,2.32793153968594,2.32918039247775,2.28787833294708,2.28669941591161,2.28545056311981,2.28588016848019,2.28498099447009,2.28379208661229,2.28407182963765,2.2839119764803,2.28331252714023,2.28400189388131,2.2839119764803,2.28349236194225,2.28361225181027,2.28326257302856,2.28282297684584,2.2827230686225,2.28276303191184,2.2827230686225,2.2824633072418,2.28312270151588,2.28191381201341,2.28285294931285,2.28222352750578,2.28228347243978,2.28241335313013,2.28258319710982,2.28235340819612,2.28242334395247,2.2833325087849,2.28238338066313,2.28313269233821,2.28286294013518,2.28313269233821,2.28328255467323,2.28425166443967,2.28448145335336,2.28444149006403,2.28541059983047,2.28480115966807,2.28533067325179,2.28574029696751,2.28585019601319,2.28673937920095,2.28663947097761,2.2877084889674,2.28814808515011,2.28768850732273,2.28878749777952,2.29569115601263,2.29226430395191,2.29408263361678,2.34605489140065,2.34945177099437,2.34659439580671,2.34951171592838,2.35083050447653,2.35031098171513
2.23159003991472,2.23263907625984,2.23338838793493,2.23262908543751,2.23507683690945,2.23474713977241,2.23595602927488,2.2366553868383,2.23738471686871,2.23751459755906,2.23850368897017,2.23910313831024,2.23927298228992,2.24046189014773,2.24145098155884,2.24193054103089,2.24286967833033,2.24377884316277,2.24480789786322,2.24592686996468,2.24580698009666,2.24672613575143,2.24798497936558,2.24933374038073,2.25037278590351,2.25154171211664,2.2531802069795,2.25548808693876,2.25675692137523,2.25899486557815,2.26222190119218,2.30311433700714,2.30463294200197,2.30598170301713,2.30652120742319,2.30712065676325,2.30697079442824,2.30691084949423,2.30529233627605,2.30497262996135,2.30407345595124,2.30335411674316,2.30300443796146,2.30349398825585,2.3031043461848,2.30386364868222,2.30384366703755,2.30418335499692,2.30402350183957,2.30501259325068,2.30541222614406,2.30694082196123,2.3081197389967,2.30907885794081,2.31010791264126,2.31143669201174,2.31274548973756,2.31333494825529,2.31383448937201,2.3131351318086,2.31486354407246,2.31581267219424,2.31560286492521,2.31581267219424,2.27672857522182,2.27495020884629,2.27406102565852,2.2735914570088,2.27320181493776,2.27341162220678,2.27348155796312,2.27350153960779,2.27412097059253,2.27415094305953,2.27431079621688,2.27418091552653,2.27473041075493,2.27579942874472,2.27542976831834,2.27615909834876,2.27732802456189,2.27691840084618,2.27834708844,2.27966587698815,2.28155414240937,2.28245331641947,2.28475120555639,2.32779166817326,2.32735207199054,2.32852099820367,2.32881073205137,2.32870083300569,2.32845106244733,2.32758186090423,2.32711229225451,2.32460459584856,2.32411504555417,2.32325583483341,2.32282622947303,2.32181715641725,2.32167728490457,2.32193704628526,2.32097792734115,2.32199699121927,2.32156738585889,2.32174722066091,2.32199699121927,2.32310597249839,2.3240351189755,2.32521403601097,2.32598332933072,2.32726215458953,2.32802145708695,2.32961998866046,2.3299197133305,2.32827122764531,2.3276318150159,2.32852099820367,2.2889573417592,2.28772847061206,2.28672938837862,2.28643965453092,2.28598007670353,2.28496101282542,2.28421170115033,2.28377210496762,2.28425166443967,2.28375212332295,2.2836222426326,2.28311271069354,2.2835922701656,2.28307274740421,2.2833624812519,2.28319263727222,2.28279300437884,2.28267311451083,2.28196376612508,2.28287293095752,2.2824033623078,2.28307274740421,2.28267311451083,2.28239337148546,2.28190382119107,2.28262316039915,2.28207366517076,2.2821735733941,2.28216358257177,2.28178393132306,2.28274305026717,2.28326257302856,2.28314268316055,2.28325258220623,2.28369217838894,2.28271307780016,2.28400189388131,2.28494103118075,2.28482114131274,2.28465129733305,2.28549052640914,2.28523076502845,2.28618988397256,2.28606999410454,2.28730885607402,2.28743873676437,2.28771847978973,2.28842782817548,2.2895368094546,2.28965669932262,2.29173479036818,2.34576515755295,2.34445635982714,2.3455753319286,2.3474036524158,2.34938183523803,2.35058073391816,2.35082051365419
2.2314102051127,2.23248921392483,2.2331486081989,2.23365814013796,2.23453733250339,2.23516675431046,2.23589608434088,2.23690515739666,2.23695511150833,2.23737472604638,2.23783430387376,2.23910313831024,2.23945281709195,2.24026207370104,2.24100139455379,2.24261990777197,2.24246005461462,2.24309946724402,2.24431834756883,2.2452674756906,2.24574703516266,2.24670615410676,2.24777517209655,2.24870431857366,2.24948360271574,2.25127195991361,2.25293043642113,2.25582777489813,2.25653712328387,2.25918469120251,2.26244169928354,2.30253486931174,2.30392359361623,2.30607162041814,2.30630140933183,2.3066710697582,2.30746034472263,2.30610159288514,2.30437318062128,2.30404348348424,2.30360388730152,2.30325420851982,2.30261479589041,2.30298445631679,2.30277464904776,2.30303441042846,2.30328418098682,2.30386364868222,2.30507253818469,2.3054821619004,2.30645127166685,2.30656117071252,2.307859977616,2.30832954626572,2.30997803195091,2.31128682967673,2.31212605875282,2.31336492072229,2.31451386529076,2.31510332380849,2.31521322285417,2.31585263548357,2.31660194715866,2.31851019422454,2.27729805209489,2.27518998858232,2.27430080539455,2.27341162220678,2.27290209026772,2.27323178740476,2.27372133769915,2.27364141112047,2.27365140194281,2.27466047499859,2.27421088799354,2.27476038322193,2.27526991516099,2.27544974996301,2.27629896986144,2.27759777676492,2.27774763909994,2.27792747390196,2.27908640929275,2.27916633587143,2.28147421583069,2.28245331641947,2.32630303564542,2.32827122764531,2.32626307235608,2.32819130106663,2.32864088807169,2.32852099820367,2.32824125517831,2.32761183337124,2.32625308153375,2.32621311824441,2.32362549525979,2.3229061560517,2.32218681684362,2.32280624782836,2.32173722983857,2.32043842293509,2.32093796405182,2.32105785391983,2.32071816596046,2.32199699121927,2.32245656904665,2.32272632124968,2.32375537595013,2.3249342929856,2.32596334768605,2.32711229225451,2.32829120928998,2.3287308054727,2.32910046589907,2.33017947471119,2.32918039247775,2.32390523828515,2.28957677274394,2.28862764462217,2.28602003999287,2.28610995739388,2.28490106789141,2.28453140746504,2.28419171950567,2.28409181128232,2.28401188470364,2.2836522150996,2.2836522150996,2.2836222426326,2.28367219674427,2.28302279329253,2.28274305026717,2.28221353668344,2.28262316039915,2.28200372941442,2.28206367434842,2.28270308697783,2.28238338066313,2.2824333347748,2.28189383036874,2.2821136284601,2.28219355503877,2.2824633072418,2.28232343572912,2.28197375694741,2.28228347243978,2.2821436009271,2.28277302273417,2.28247329806414,2.28302279329253,2.28306275658187,2.28376211414528,2.28350235276459,2.28369217838894,2.284231682795,2.28404185717065,2.28496101282542,2.28489107706908,2.28547054476448,2.28569034285583,2.28617989315022,2.28736880100802,2.287129021272,2.28758859909938,2.28934698383025,2.29096549704843,2.29242415710926,2.29205449668289,2.34552537781693,2.34256809440593,2.34551538699459,2.34800310175587,2.34977147730907,2.35060071556283,2.35246899933938
2.23173990224974,2.23153009498072,2.23258912214817,2.23320855313291,2.23635566216826,2.23535657993482,2.23564631378252,2.23680524917331,2.23686519410732,2.23843375321383,2.23916308324425,2.2384237623915,2.23921303735592,2.24018214712236,2.24111129359947,2.2425699536603,2.24303952231002,2.24301954066535,2.24389873303078,2.24507765006625,2.24579698927433,2.24716573193415,2.24785509867523,2.24925381380205,2.25065252892888,2.25204125323337,2.25359982151754,2.2550085274667,2.25690678371025,2.25911475544617,2.30205530983968,2.30187547503766,2.30485274009333,2.30628142768716,2.30729050074294,2.30630140933183,2.30620150110848,2.30634137262117,2.30515246476337,2.30396355690557,2.30280462151477,2.30277464904776,2.30260480506808,2.30229508957571,2.30214522724069,2.30344403414417,2.30340407085483,2.30402350183957,2.30453303377863,2.30524238216438,2.30546218025573,2.30699077607291,2.30788995008301,2.30882908738245,2.31057748129098,2.31129682049906,2.31190626066146,2.31299526029592,2.31390442512835,2.31337491154463,2.31369461785933,2.31417417733139,2.31443393871208,2.27693838249085,2.27667862111015,2.27552967654169,2.27488027308995,2.27374131934382,2.27342161302912,2.27338164973978,2.27352152125246,2.27350153960779,2.27351153043013,2.27434076868389,2.27413096141486,2.27448064019657,2.27543975914068,2.27542976831834,2.27641885972945,2.27658870370914,2.27768769416593,2.27793746472429,2.27811729952631,2.27987568425718,2.28102462882564,2.28247329806414,2.28491105871375,2.32587343028504,2.32710230143218,2.32765179666057,2.32874079629503,2.32820129188897,2.32778167735092,2.32741201692455,2.32608323755406,2.32433484364553,2.32367544937146,2.322586449737,2.32120771625485,2.32105785391983,2.3211377804985,2.3207881017168,2.32069818431579,2.32084804665081,2.32161733997056,2.32217682602129,2.32213686273195,2.32248654151366,2.32417499048818,2.32504419203128,2.32692246663016,2.3266726960718,2.32754189761489,2.32854097984834,2.32935023645743,2.32942017221377,2.32782164064026,2.32596334768605,2.28901728669321,2.28878749777952,2.28667943426695,2.28624982890656,2.28587017765785,2.28463131568838,2.28422169197267,2.28437155430769,2.28439153595235,2.2833025363179,2.28429162772901,2.28354231605392,2.28349236194225,2.28338246289657,2.28358227934326,2.28357228852093,2.28279300437884,2.28261316957682,2.28256321546515,2.28234341737379,2.28199373859208,2.2821136284601,2.28244332559713,2.28228347243978,2.28285294931285,2.28199373859208,2.28232343572912,2.28166404145505,2.28189383036874,2.28237338984079,2.28223351832811,2.2827230686225,2.28230345408445,2.28290290342452,2.28343241700825,2.28323260056156,2.28346238947525,2.28422169197267,2.28409181128232,2.28448145335336,2.28500097611476,2.28474121473406,2.28511087516044,2.28619987479489,2.28699914058165,2.28667943426695,2.2880581677491,2.29012626797234,2.28774845225673,2.28279300437884,2.29896814573833,2.34622473538034,2.34273793838561,2.34151905806081,2.35092042187754,2.35049081651715,2.35087046776586,2.35006121115677
2.23157005827006,2.23174989307208,2.23262908543751,2.23384796576231,2.23663540519363,2.23514677266579,2.23568627707185,2.23630570805659,2.23717490959969,2.23738471686871,2.2384237623915,2.23915309242191,2.23981248669599,2.24030203699037,2.24069167906142,2.24260991694964,2.24275977928465,2.24344914602573,2.24355904507141,2.24501770513224,2.24524749404593,2.24686600726412,2.24810486923359,2.24916389640104,2.24983328149745,2.25190138172068,2.25354986740587,2.25503849993371,2.25739633400464,2.26023372754763,2.30391360279389,2.30382368539288,2.30486273091567,2.3074803263673,2.30784998679367,2.30726052827594,2.3054521894334,2.30554210683441,2.30438317144361,2.30463294200197,2.30355393318985,2.30274467658076,2.30258482342341,2.30256484177874,2.30222515381937,2.30305439207313,2.30360388730152,2.3042932540426,2.30468289611365,2.30486273091567,2.30561204259075,2.30677097798155,2.30782001432667,2.3084394453114,2.30998802277325,2.31096712336202,2.3128753704279,2.31351478305731,2.31377454443801,2.31379452608268,2.31293531536191,2.31474365420445,2.31700158005204,2.27626899739444,2.27476038322193,2.27450062184124,2.27342161302912,2.27365140194281,2.27345158549612,2.27307193424741,2.27329173233877,2.27375131016615,2.27469044746559,2.27412097059253,2.2744906310189,2.27467046582092,2.27500016295796,2.27514003447064,2.27581941038939,2.27643884137412,2.27698833660252,2.27758778594259,2.27897651024708,2.2803452529069,2.28158411487637,2.28248328888647,2.32417499048818,2.32469451324957,2.32570358630535,2.32693245745249,2.32730211787887,2.32683254922915,2.32664272360479,2.32692246663016,2.32690248498549,2.32565363219368,2.32268635796035,2.32263640384867,2.32178718395024,2.3211078080315,2.32101789063049,2.32050835869143,2.3204983678691,2.32060826691478,2.32079809253913,2.32141752352387,2.32184712888425,2.32262641302634,2.3234256788131,2.32468452242724,2.32606325590939,2.32649286126978,2.3276318150159,2.32775170488392,2.32872081465036,2.32946013550311,2.32901054849806,2.32883071369604,2.28909721327189,2.28737879183036,2.28669941591161,2.28593012259186,2.28588016848019,2.284231682795,2.28424167361734,2.2844914441757,2.28369217838894,2.28369217838894,2.28369217838894,2.28480115966807,2.28340244454124,2.28292288506919,2.28274305026717,2.28310271987121,2.28265313286616,2.2824033623078,2.28194378448041,2.28241335313013,2.28372215085595,2.28160409652104,2.28237338984079,2.28213361010477,2.2821136284601,2.28236339901846,2.28193379365808,2.28236339901846,2.28324259138389,2.28265313286616,2.28245331641947,2.28306275658187,2.28313269233821,2.28205368352609,2.28316266480522,2.28368218756661,2.28378209578995,2.28395193976964,2.28377210496762,2.28439153595235,2.28456137993204,2.28535065489646,2.28634973712991,2.28629978301824,2.28680931495729,2.28722892949534,2.28811811268311,2.29136512994181,2.28952681863227,2.28844780982015,2.29360307414473,2.34697404705542,2.34083968214206,2.34101951694408,2.34929191783702,2.35141996299426,2.34992133964409,2.35011116526844
2.23212954432078,2.23203962691977,2.2328588743512,2.23391790151865,2.23531661664548,2.23562633213785,2.23561634131551,2.23731478111237,2.23770442318341,2.23765446907174,2.23830387252348,2.23893329433055,2.23956271613762,2.24087151386344,2.24186060527455,2.24251000872629,2.24356903589374,2.24414850358914,2.24460808141653,2.24535739309161,2.24594685160935,2.24675610821844,2.24784510785289,2.24907397900003,2.25074244632989,2.25258075763943,2.25423923414695,2.25620742614684,2.25722649002495,2.260573415507,2.30048675073317,2.3031043461848,2.30468289611365,2.3084094728444,2.30773009692566,2.30799984912869,2.30657116153486,2.30488271256034,2.30509251982936,2.30466291446898,2.30338408921017,2.30222515381937,2.30193541997167,2.30241497944372,2.3024649335554,2.30315430029647,2.3033641075655,2.30388363032689,2.30443312555528,2.30498262078368,2.30604164795113,2.30695081278357,2.30819966557538,2.30923871109816,2.31032771073262,2.31181634326045,2.31227592108784,2.3128753704279,2.31312514098627,2.31242578342285,2.31267555398122,2.31269553562588,2.31369461785933,2.27736798785123,2.27445066772956,2.27373132852148,2.27404104401385,2.27346157631845,2.27361143865347,2.27427083292754,2.27346157631845,2.27378128263316,2.27702829989186,2.27438073197322,2.27514003447064,2.27474040157726,2.27523994269399,2.27543975914068,2.27588934614573,2.27652875877513,2.27757779512025,2.27778760238927,2.27822719857199,2.27983572096784,2.28137430760735,2.32299607345271,2.32304602756439,2.32369543101613,2.325543733148,2.32625308153375,2.32642292551343,2.32662274196012,2.32635298975709,2.32698241156417,2.3258034945287,2.32653282455911,2.32324584401108,2.32172723901624,2.32146747763554,2.3204683954021,2.32016867073206,2.3201786615544,2.32025858813307,2.32008874415339,2.32033851471175,2.32093796405182,2.3219470371076,2.32274630289435,2.32346564210243,2.32454465091456,2.32558369643734,2.32647287962511,2.3266726960718,2.32738204445754,2.32870083300569,2.32836114504632,2.32770175077225,2.32680257676214,2.28862764462217,2.28908722244955,2.28762856238872,2.2856803520335,2.28589015930252,2.28416174703866,2.28425166443967,2.28379208661229,2.28376211414528,2.2838820040133,2.28436156348535,2.28377210496762,2.28303278411487,2.28343241700825,2.28319263727222,2.28294286671386,2.28226349079511,2.28323260056156,2.28227348161745,2.28263315122149,2.28228347243978,2.28196376612508,2.2818238946124,2.2824333347748,2.28197375694741,2.2818238946124,2.28215359174943,2.28242334395247,2.2824633072418,2.28230345408445,2.28271307780016,2.2826930961555,2.28266312368849,2.28348237111992,2.28266312368849,2.28383204990162,2.28408182045999,2.28387201319096,2.28413177457166,2.28442150841936,2.28468126980005,2.28476119637873,2.28641967288625,2.28681930577963,2.28705908551566,2.28786834212475,2.28778841554607,2.28838786488614,2.29024615784035,2.29062580908906,2.29327337700769,2.34241823207091,2.34693408376608,2.34132923243645,2.34287780989829,2.35244901769471,2.35107028421255,2.34974150484207
2.23177986553908,2.23212954432078,2.23242926899082,2.23362816767095,2.23450736003639,2.2351767451328,2.2358461302292,2.23702504726467,2.23805410196512,2.23843375321383,2.23884337692954,2.23953274367062,2.24014218383302,2.2408015781071,2.24163081636086,2.24188058691922,2.24257994448263,2.24354905424907,2.24485785197489,2.24557719118297,2.24705583288847,2.2470658237108,2.24825473156861,2.24968341916243,2.25096224442124,2.25229102379173,2.25368973891855,2.2561374903905,2.25864518679645,2.26164243349678,2.301945410794,2.30421332746393,2.30467290529131,2.30553211601208,2.30659114317953,2.30724054663127,2.30515246476337,2.30482276762633,2.30390361197156,2.30370379552487,2.30295448384978,2.30366383223553,2.30240498862139,2.30245494273306,2.3022351446417,2.30259481424574,2.30324421769748,2.30414339170759,2.30449307048929,2.30510251065169,2.30567198752476,2.30662111564653,2.30832954626572,2.30945850918952,2.31073733444833,2.31158655434676,2.31190626066146,2.31305520522992,2.31408425993037,2.31210607710815,2.31182633408279,2.31537307601152,2.31389443430602,2.27492023637928,2.27495020884629,2.27490025473462,2.27326175987176,2.27288210862305,2.27326175987176,2.27333169562811,2.27358146618647,2.27367138358748,2.27394113579051,2.27373132852148,2.27430080539455,2.27500016295796,2.27490025473462,2.27556963983102,2.27618907081576,2.27644883219646,2.27761775840959,2.27902646435875,2.27877669380039,2.28116450033832,2.28178393132306,2.32395519239682,2.32233667917864,2.32302604591972,2.32529396258964,2.32691247580782,2.32648287044744,2.32619313659974,2.32549377903633,2.32588342110737,2.32472448571658,2.32515409107696,2.32607324673173,2.32158736750356,2.32084804665081,2.32014868908739,2.3198889277067,2.32045840457976,2.31977902866102,2.31961917550367,2.32038846882342,2.32057829444777,2.32198700039693,2.32242659657965,2.32303603674205,2.32414501802118,2.32535390752365,2.3258634394627,2.3270223748535,2.32708231978751,2.32809139284329,2.32812136531029,2.32806142037629,2.32892063109705,2.28789831459175,2.28743873676437,2.28685926906897,2.28566037038883,2.28498099447009,2.28441151759702,2.28476119637873,2.28392196730263,2.28421170115033,2.28380207743462,2.28367219674427,2.28375212332295,2.28331252714023,2.28317265562755,2.28305276575954,2.28208365599309,2.28274305026717,2.28285294931285,2.28193379365808,2.28212361928243,2.28200372941442,2.2821436009271,2.2821436009271,2.28207366517076,2.28146422500836,2.28190382119107,2.28276303191184,2.28180391296773,2.28288292177985,2.28241335313013,2.28260317875449,2.28252325217581,2.28249327970881,2.28280299520117,2.28321261891689,2.28319263727222,2.28353232523159,2.28382205907929,2.28430161855134,2.284171737861,2.28505093022643,2.28637970959691,2.28531069160712,2.2868992323583,2.28644964535325,2.28765853485572,2.28884744271352,2.28901728669321,2.29028612112969,2.29202452421588,2.34653445087271,2.35064067885217,2.34596497399964,2.34785323942086,2.34513573574588,2.34765342297417,2.35006121115677,2.35019109184712
2.23199966363044,2.23210956267612,2.2328888468182,2.23391790151865,2.23453733250339,2.23537656157948,2.2361358640769,2.23590607516321,2.23767445071641,2.23912311995491,2.23830387252348,2.2390332025539,2.23974255093964,2.24089149550811,2.24113127524413,2.24134108251316,2.24278975175166,2.24393869632012,2.24453814566019,2.2452674756906,2.24588690667534,2.24743548413718,2.24857443788331,2.24944363942641,2.25129194155828,2.25267067504044,2.25518836226872,2.25579780243112,2.25809569156805,2.29900810902767,2.29952763178906,2.30481277680399,2.3057718957481,2.30540223532173,2.30691084949423,2.30826960133172,2.30586181314911,2.30833953708806,2.30359389647919,2.30291452056045,2.30238500697672,2.30204531901735,2.301945410794,2.30197538326101,2.30196539243867,2.30237501615439,2.30257483260107,2.30333413509849,2.30418335499692,2.30471286858065,2.30608161124047,2.30688087702723,2.30788995008301,2.30881909656011,2.31073733444833,2.31182633408279,2.3119462239508,2.31221597615383,2.31500341558515,2.31275548055989,2.3128753704279,2.31271551727055,2.31420414979839,2.27471042911026,2.2747503923996,2.27320181493776,2.27331171398344,2.27364141112047,2.27324177822709,2.27345158549612,2.27394113579051,2.27347156714079,2.27396111743518,2.27459053924225,2.27396111743518,2.27445066772956,2.27516001611531,2.27589933696806,2.27702829989186,2.27568952969904,2.27737797867356,2.27800740048063,2.2791563450491,2.2804051978409,2.28116450033832,2.32204694533094,2.32079809253913,2.3234556512801,2.32323585318874,2.32503420120895,2.32543383410232,2.32677260429514,2.32579350370636,2.32545381574699,2.32485436640692,2.32453466009222,2.32204694533094,2.3222967158893,2.32150744092488,2.32035849635642,2.31999882675238,2.31998883593004,2.31937939576764,2.3192794875443,2.31917957932095,2.32024859731074,2.3219770095746,2.32276628453902,2.32230670671164,2.32448470598055,2.32520404518863,2.32607324673173,2.32681256758448,2.32747196185855,2.32796151215294,2.32794153050827,2.32811137448796,2.32360551361512,2.28791829623642,2.28740876429736,2.28670940673395,2.28635972795224,2.28434158184068,2.28454139828737,2.28419171950567,2.28405184799298,2.28357228852093,2.28326257302856,2.2835922701656,2.28355230687626,2.28307274740421,2.28266312368849,2.28310271987121,2.28306275658187,2.28226349079511,2.28257320628748,2.28228347243978,2.28169401392205,2.28224350915044,2.28186385790174,2.2821136284601,2.28183388543473,2.28199373859208,2.28152416994236,2.28162407816571,2.28233342655145,2.28148420665303,2.28172398638905,2.28283296766818,2.2826930961555,2.28370216921128,2.28253324299814,2.28266312368849,2.28299282082553,2.28377210496762,2.28380207743462,2.28428163690667,2.28411179292699,2.2853906181858,2.28608997574921,2.28563039792183,2.28611994821622,2.28589015930252,2.287129021272,2.28764854403339,2.28944689205359,2.29270390013463,2.29443231239849,2.2942624684188,2.34388688295407,2.34646451511637,2.34689412047675,2.34893224823298,2.3476933862635,2.35040089911614,2.34845268876092
2.23146015922438,2.23206959938678,2.23264906708218,2.23293880092988,2.23327848888925,2.23450736003639,2.23564631378252,2.23612587325457,2.23736473522404,2.23831386334582,2.23976253258431,2.24027206452337,2.23994236738633,2.24103136702079,2.2417007521172,2.24215033912225,2.24310945806636,2.24284969668566,2.24442824661451,2.24518754911193,2.24627654874638,2.24695592466513,2.24825473156861,2.24948360271574,2.25126196909128,2.25287049148713,2.25455894046165,2.25666700397422,2.25901484722282,2.30417336417459,2.30575191410343,2.30605163877347,2.3054821619004,2.30587180397145,2.30613156535214,2.30680095044855,2.30624146439782,2.30360388730152,2.30838949119973,2.3033641075655,2.30232506204271,2.30186548421533,2.30181553010366,2.30202533737268,2.30168564941331,2.30244495191073,2.30332414427616,2.30375374963654,2.30405347430658,2.30465292364664,2.30546218025573,2.30689086784956,2.30769013363632,2.30942853672252,2.31108701323004,2.31167647174777,2.31196620559547,2.31293531536191,2.31489351653947,2.31357472799132,2.31300525111825,2.31478361749379,2.31499342476281,2.27495020884629,2.27415094305953,2.27341162220678,2.27318183329309,2.27278220039971,2.27339164056211,2.27349154878546,2.27339164056211,2.2736214294758,2.2738811908565,2.27448064019657,2.27457055759758,2.27500016295796,2.27513004364831,2.27584938285639,2.27563957558737,2.27629896986144,2.27769768498827,2.27880666626739,2.27923627162777,2.28035524372923,2.28382205907929,2.28477118720106,2.32240661493498,2.32289616522937,2.32857095231534,2.32595335686372,2.32643291633577,2.32698241156417,2.32581348535103,2.32557370561501,2.32405510062017,2.32281623865069,2.32184712888425,2.32133759694519,2.32047838622443,2.31954923974733,2.31967912043767,2.31940936823464,2.31951926728032,2.31955923056966,2.31976903783868,2.32056830362544,2.32138755105687,2.32233667917864,2.32270633960502,2.32380533006181,2.32539387081299,2.32608323755406,2.32676261347281,2.32776169570625,2.32813135613263,2.32709231060984,2.32831119093465,2.32318589907707,2.28804817692677,2.28709904880499,2.28658951686594,2.28549052640914,2.28474121473406,2.28559043463249,2.28402187552598,2.28445148088636,2.28367219674427,2.28381206825696,2.28342242618591,2.28373214167828,2.28310271987121,2.28315267398288,2.28316266480522,2.28295285753619,2.2824633072418,2.28314268316055,2.28207366517076,2.28209364681543,2.28226349079511,2.2821436009271,2.28194378448041,2.28266312368849,2.28231344490679,2.28177394050073,2.28224350915044,2.28262316039915,2.28224350915044,2.28203370188142,2.28230345408445,2.28235340819612,2.28270308697783,2.28317265562755,2.2833624812519,2.28370216921128,2.28367219674427,2.28376211414528,2.28439153595235,2.28409181128232,2.28525074667312,2.28620986561723,2.28642966370858,2.28653956275426,2.28670940673395,2.28757860827705,2.28821802090645,2.28795825952576,2.2894768645206,2.29502177091622,2.29559124778929,2.34675424896406,2.34507579081188,2.34751355146148,2.34823289066957,2.34928192701468,2.34957166086238,2.35040089911614
2.23191973705176,2.23276895695019,2.23535657993482,2.23437747934604,2.23451735085872,2.23497692868611,2.23572624036119,2.23673531341697,2.236975093153,2.23834383581282,2.23899323926456,2.23926299146759,2.24053182590407,2.24114126606647,2.24269983435065,2.24229021063493,2.242919632442,2.24328929286838,2.24471798046221,2.24583695256367,2.24636646614739,2.24770523634021,2.24869432775132,2.24950358436041,2.25182145514201,2.2529504180658,2.25472878444134,2.25772603114168,2.25870513173045,2.26243170846121,2.30292451138278,2.30607162041814,2.3022351446417,2.304902694205,2.30631140015416,2.30576190492577,2.30568197834709,2.30556208847908,2.30364385059086,2.30237501615439,2.30172561270265,2.30327419016449,2.30189545668233,2.30184550257066,2.30227510793104,2.30268473164675,2.30235503450972,2.30323422687515,2.3042333091086,2.30463294200197,2.30536227203239,2.30662111564653,2.30783999597134,2.3086692342251,2.31011790346359,2.31173641668178,2.31076730691533,2.31351478305731,2.31329498496595,2.31296528782892,2.31411423239738,2.31507335134149,2.31710148827538,2.27506010789197,2.27543975914068,2.27290209026772,2.27322179658243,2.27273224628804,2.27270227382103,2.27367138358748,2.2736214294758,2.27403105319152,2.27378128263316,2.27422087881587,2.27482032815594,2.27517000693765,2.27566954805437,2.27607917177008,2.27764773087659,2.27756780429792,2.27792747390196,2.27813728117098,2.27923627162777,2.28075487662261,2.28280299520117,2.32616316413274,2.3252240268333,2.32423493542219,2.3266726960718,2.32687251251849,2.3272821362342,2.32749194350322,2.32600331097539,2.32637297140176,2.3240650914425,2.32236665164564,2.32205693615328,2.32071816596046,2.32051834951377,2.31931945083363,2.31926949672196,2.31934942330064,2.31938938658997,2.31894979040726,2.32009873497572,2.32089800076248,2.32120771625485,2.32208690862028,2.32361550443745,2.32444474269121,2.32532393505664,2.32600331097539,2.32701238403117,2.32737205363521,2.3275718700819,2.32812136531029,2.32878075958437,2.29025614866268,2.28819803926178,2.28727888360701,2.28648960864259,2.28518081091678,2.28424167361734,2.28369217838894,2.28496101282542,2.2848111504904,2.28397192141431,2.284201710328,2.28338246289657,2.28310271987121,2.28281298602351,2.28345239865292,2.28342242618591,2.28287293095752,2.28268310533316,2.28234341737379,2.28255322464281,2.28236339901846,2.28219355503877,2.28194378448041,2.28201372023675,2.28257320628748,2.28151417912003,2.28202371105909,2.28198374776975,2.28216358257177,2.28219355503877,2.28233342655145,2.2826930961555,2.28183388543473,2.28229346326212,2.28282297684584,2.28352233440926,2.28366220592194,2.28367219674427,2.2839419489473,2.28560042545482,2.28504093940409,2.28500097611476,2.28491105871375,2.28526073749545,2.28667943426695,2.28616990232789,2.2877384614344,2.28827796584046,2.28792828705875,2.29103543280477,2.29233423970825,2.34396680953275,2.34523564396923,2.35076056872018,2.34920200043601,2.34958165168472,2.3494018168827,2.34945177099437,2.35013114691311
2.2319597003411,2.23217949843246,2.23278893859486,2.23431753441203,2.23461725908207,2.23548646062516,2.23563632296018,2.23718490042202,2.23685520328499,2.23831386334582,2.23880341364021,2.23917307406658,2.24056179837107,2.24140102744717,2.24223026570093,2.24271981599531,2.24394868714245,2.24369891658409,2.24588690667534,2.24578699845199,2.24754538318286,2.24738553002551,2.24839460308129,2.25050266659386,2.25150174882731,2.2532101794465,2.25456893128399,2.25728643495896,2.26067332373034,2.30349398825585,2.30328418098682,2.30363385976853,2.30767015199165,2.30402350183957,2.30562203341309,2.30601167548413,2.3051624555857,2.30419334581926,2.30353395154518,2.30308436454013,2.30186548421533,2.3016556769463,2.30205530983968,2.30237501615439,2.30255485095641,2.30213523641836,2.30315430029647,2.30352396072285,2.30444311637762,2.30459297871264,2.30576190492577,2.30701075771758,2.3080897665297,2.30940855507785,2.30929865603217,2.30885905984945,2.31199617806247,2.31288536125024,2.31328499414362,2.31319507674261,2.3133948931893,2.31833035942252,2.31627225002162,2.27552967654169,2.27412097059253,2.27370135605448,2.27343160385145,2.27292207191239,2.27309191589208,2.27341162220678,2.27332170480577,2.27344159467378,2.27375131016615,2.27459053924225,2.27495020884629,2.27444067690723,2.27542976831834,2.27624901574977,2.27666863028782,2.27726807962788,2.27730804291722,2.278317115973,2.28049511524191,2.28120446362766,2.28292288506919,2.3243248528232,2.32384529335114,2.3267026685388,2.32881073205137,2.32970990606147,2.32811137448796,2.32759185172657,2.32685253087382,2.32483438476226,2.32263640384867,2.32248654151366,2.32120771625485,2.32082806500614,2.32035849635642,2.319659138793,2.31935941412297,2.31890982711792,2.31972907454935,2.31977902866102,2.32069818431579,2.32051834951377,2.32133759694519,2.32203695450861,2.32304602756439,2.32431486200086,2.32505418285361,2.32600331097539,2.32698241156417,2.32769175994991,2.32693245745249,2.32657278784845,2.32881073205137,2.28757860827705,2.28815807597245,2.28721893867301,2.28593012259186,2.2853606457188,2.28472123308939,2.28497100364775,2.28409181128232,2.28379208661229,2.28373214167828,2.2838820040133,2.28313269233821,2.28256321546515,2.28277302273417,2.28316266480522,2.2833325087849,2.28280299520117,2.28288292177985,2.28225349997278,2.2821436009271,2.28258319710982,2.28159410569871,2.28204369270376,2.28204369270376,2.28257320628748,2.28184387625707,2.28198374776975,2.28210363763776,2.28212361928243,2.28266312368849,2.28226349079511,2.2830128024702,2.28228347243978,2.2824333347748,2.28294286671386,2.28325258220623,2.28399190305898,2.28455138910971,2.28427164608434,2.28504093940409,2.28491105871375,2.28419171950567,2.28588016848019,2.28456137993204,2.28593012259186,2.2862897921959,2.28733882854102,2.28830793830746,2.28897732340387,2.29075568977941,2.29138511158648,2.34828284478124,2.35028100924813,2.3476334413295,2.34834278971524,2.34843270711625,2.34909210139033,2.349172027969,2.35163976108562
2.23197968198577,2.23219948007713,2.23301872750855,2.2336981034273,2.23506684608712,2.23525667171147,2.2355264239145,2.23651551532561,2.23696510233066,2.23770442318341,2.23893329433055,2.23883338610721,2.24040194521372,2.2413810458025,2.24185061445222,2.24241010050295,2.24325932040137,2.24406857701047,2.24506765924391,2.24583695256367,2.24678608068544,2.24770523634021,2.24865436446198,2.24975335491878,2.25279056490845,2.25371971138556,2.25424922496928,2.25724647166962,2.26025370919229,2.30369380470253,2.30434320815427,2.30775007857033,2.30792991337235,2.30668106058054,2.30830956462106,2.30474284104765,2.30463294200197,2.30399352937257,2.30393358443856,2.30239499779905,2.30256484177874,2.30153578707829,2.30166566776864,2.30174559434731,2.30241497944372,2.30216520888536,2.3024649335554,2.30317428194114,2.30407345595124,2.30454302460096,2.30565200588009,2.30673101469221,2.307830005149,2.30900892218447,2.30839948202207,2.31042761895596,2.31270552644822,2.31253568246853,2.31328499414362,2.31251570082386,2.31384448019435,2.31280543467156,2.27677852933349,2.27676853851116,2.27365140194281,2.27333169562811,2.27268229217637,2.2729520443794,2.27361143865347,2.272402549151,2.27313187918142,2.27346157631845,2.27379127345549,2.27480034651127,2.27473041075493,2.27484030980061,2.27500016295796,2.27612912588175,2.27604919930308,2.27694837331318,2.27711821729287,2.27854690488669,2.28044516113024,2.28163406898804,2.2833624812519,2.32393521075215,2.32646288880277,2.32759185172657,2.32805142955395,2.32779166817326,2.32770175077225,2.32677260429514,2.32634299893476,2.32545381574699,2.32273631207202,2.32145748681321,2.32021862484373,2.32010872579805,2.31922953343262,2.31941935905698,2.31899974451893,2.31879992807224,2.31888984547325,2.31921954261029,2.31972907454935,2.32055831280311,2.3208180741838,2.32196701875226,2.32289616522937,2.32390523828515,2.32498424709727,2.32643291633577,2.32675262265047,2.3281813102443,2.32662274196012,2.32666270524946,2.32781164981793,2.28766852567806,2.2868392874243,2.28667943426695,2.28566037038883,2.28514084762744,2.28558044381016,2.28487109542441,2.28411179292699,2.28442150841936,2.28392196730263,2.28344240783058,2.28349236194225,2.28337247207424,2.28316266480522,2.28297283918086,2.284171737861,2.28314268316055,2.2824633072418,2.28209364681543,2.28220354586111,2.28213361010477,2.28262316039915,2.28158411487637,2.28142426171902,2.28128439020634,2.28226349079511,2.28172398638905,2.28194378448041,2.28165405063271,2.28135432596268,2.28247329806414,2.28242334395247,2.28285294931285,2.28309272904887,2.28225349997278,2.28338246289657,2.28341243536358,2.28358227934326,2.28407182963765,2.28398191223664,2.28405184799298,2.28427164608434,2.28462132486605,2.28583021436852,2.2862298472619,2.2868992323583,2.28716898456133,2.28735881018569,2.28880747942419,2.2897965708353,2.29196457928188,2.34551538699459,2.35031098171513,2.34695406541075,2.34757349639549,2.34761345968483,2.34912207385733,2.3496915507304,2.35118018325823
2.23179984718375,2.23212954432078,2.23302871833089,2.23398783727499,2.23419764454402,2.23540653404649,2.23586611187387,2.23659544190429,2.23634567134593,2.23801413867578,2.2387734411732,2.2396426427163,2.2405418167264,2.24105134866546,2.24215033912225,2.24246005461462,2.24312943971103,2.2440785678328,2.24467801717287,2.24569708105098,2.24656628259408,2.24796499772091,2.24923383215738,2.25020294192383,2.25204125323337,2.25340999589319,2.25493859171036,2.25696672864426,2.30272469493609,2.30428326322027,2.30546218025573,2.30669105140287,2.30773009692566,2.30745035390029,2.30666107893587,2.30853935353475,2.30392359361623,2.30351396990051,2.30348399743351,2.30200535572801,2.30161571365697,2.30156575954529,2.30140590638794,2.30164568612397,2.30141589721028,2.30213523641836,2.3027546674031,2.30287455727111,2.30417336417459,2.30450306131163,2.30499261160601,2.30642129919984,2.30805979406269,2.30934861014384,2.3095983807022,2.31177637997111,2.31273549891522,2.31187628819446,2.31307518687459,2.31302523276292,2.31302523276292,2.31337491154463,2.27468045664326,2.27399108990218,2.27383123674483,2.27394113579051,2.27316185164842,2.27285213615605,2.27351153043013,2.27279219122204,2.27302198013574,2.27345158549612,2.2739111633235,2.2738811908565,2.27411097977019,2.27473041075493,2.27551968571935,2.27525992433866,2.27580941956705,2.27673856604416,2.27752784100858,2.27800740048063,2.28029529879522,2.28105460129264,2.28486110460207,2.32941018139144,2.3267326410058,2.32686252169615,2.32766178748291,2.3279215488636,2.32689249416315,2.32630303564542,2.32811137448796,2.32606325590939,2.32048837704677,2.31970909290468,2.32009873497572,2.32001880839705,2.31966912961534,2.31882990053924,2.31862009327022,2.31845024929053,2.31917957932095,2.3192794875443,2.31948929481332,2.32000881757471,2.32076812007213,2.32228672506697,2.32305601838672,2.32417499048818,2.3252539993003,2.32595335686372,2.3273121087012,2.32841109915799,2.32916041083308,2.32656279702612,2.32778167735092,2.2883479015968,2.2883778740638,2.28578026025684,2.28549052640914,2.28485111377974,2.28483113213507,2.28447146253103,2.28374213250061,2.28375212332295,2.28381206825696,2.28407182963765,2.28356229769859,2.28335249042957,2.28288292177985,2.28284295849051,2.2830128024702,2.2821735733941,2.28288292177985,2.28215359174943,2.28261316957682,2.28229346326212,2.28252325217581,2.28208365599309,2.2824033623078,2.28131436267334,2.28174396803372,2.28143425254135,2.28171399556672,2.28174396803372,2.28137430760735,2.28232343572912,2.2830128024702,2.28311271069354,2.28260317875449,2.28283296766818,2.28300281164786,2.28341243536358,2.28369217838894,2.28401188470364,2.28390198565797,2.28409181128232,2.28464130651072,2.28576027861218,2.2862897921959,2.28555047134315,2.28645963617559,2.28746870923137,2.28838786488614,2.28867759873384,2.28995642399265,2.29221434984024,2.34689412047675,2.34649448758337,2.34900218398932,2.34833279889291,2.34947175263904,2.34908211056799,2.34958165168472,2.34958165168472
2.2313802326457,2.23329847053392,2.2337580483613,2.23395786480799,2.23460726825973,2.23550644226983,2.23565630460485,2.23615584572157,2.2367153317723,2.23810405607679,2.23897325761989,2.23904319337623,2.2402221104117,2.24192055020856,2.2420204584319,2.24257994448263,2.24298956819834,2.24425840263482,2.24514758582259,2.24591687914234,2.24720569522349,2.2482247591016,2.24930376791372,2.25044272165985,2.25155170293898,2.25354986740587,2.25479872019768,2.25857525104011,2.2600239202786,2.30189545668233,2.30474284104765,2.30604164795113,2.30739040896629,2.30587180397145,2.30596172137246,2.30431323568727,2.30372377716954,2.30355393318985,2.3027846398701,2.30206530066202,2.30225512628637,2.30155576872296,2.30151580543362,2.30209527312902,2.30186548421533,2.30202533737268,2.30271470411376,2.30381369457055,2.3042932540426,2.30483275844866,2.30515246476337,2.30633138179883,2.30795988583935,2.30894897725046,2.31027775662094,2.31174640750411,2.31216602204216,2.31271551727055,2.31260561822487,2.31186629737212,2.31319507674261,2.31402431499637,2.27482032815594,2.27560960312036,2.27319182411542,2.27296203520173,2.27256240230835,2.27374131934382,2.27304196178041,2.27374131934382,2.2739111633235,2.27316185164842,2.27379127345549,2.27410098894786,2.27430080539455,2.27484030980061,2.2750401262473,2.27548971325235,2.27592930943507,2.27678852015583,2.27717816222687,2.27917632669377,2.28018539974955,2.28126440856167,2.28346238947525,2.32674263182814,2.32779166817326,2.32684254005148,2.32764180583824,2.32874079629503,2.32729212705653,2.32640294386877,2.32623309988908,2.3249342929856,2.32141752352387,2.32034850553408,2.31910964356461,2.31945932234632,2.31948929481332,2.31886986382858,2.31897976287426,2.31849021257987,2.31864007491489,2.31876995560524,2.31887985465092,2.32026857895541,2.32181715641725,2.32210689026495,2.32315592661007,2.32516408189929,2.32520404518863,2.32637297140176,2.32729212705653,2.32832118175698,2.33212768506641,2.3246445591379,2.32628305400075,2.28794826870342,2.28664946179994,2.28668942508928,2.28602003999287,2.28460134322138,2.2848111504904,2.284171737861,2.28421170115033,2.28418172868333,2.2839119764803,2.28343241700825,2.2836522150996,2.28305276575954,2.28328255467323,2.28257320628748,2.28314268316055,2.28254323382048,2.28262316039915,2.2821436009271,2.2821735733941,2.28201372023675,2.28213361010477,2.28227348161745,2.28213361010477,2.28199373859208,2.28209364681543,2.2818838395464,2.28177394050073,2.28174396803372,2.28197375694741,2.28157412405404,2.28184387625707,2.2824633072418,2.2827230686225,2.28231344490679,2.28273305944483,2.28381206825696,2.28433159101835,2.28371216003361,2.28392196730263,2.28450143499803,2.2856803520335,2.28491105871375,2.28606000328221,2.28566037038883,2.28674937002329,2.28790830541408,2.28842782817548,2.29297365233766,2.29106540527177,2.29209445997222,2.34596497399964,2.3497514956644,2.34770337708584,2.34611483633466,2.34901217481165,2.34881235836496,2.34904214727866,2.34942179852737
2.23176987471674,2.23243925981315,2.23310864490956,2.23426758030036,2.23477711223942,2.23572624036119,2.23576620365053,2.23679525835098,2.23680524917331,2.23824392758948,2.23888334021888,2.23929296393459,2.23965263353863,2.24130111922382,2.24189057774155,2.24266986188364,2.24335922862472,2.2437588615181,2.24506765924391,2.24597682407635,2.24654630094941,2.2479350252539,2.24897407077669,2.25058259317254,2.25251082188309,2.25399945441092,2.25602759134482,2.25733638907063,2.30084642033721,2.30111617254024,2.30406346512891,2.30569196916943,2.30767015199165,2.30633138179883,2.30620150110848,2.3042632815756,2.30360388730152,2.30315430029647,2.30334412592083,2.3025248784894,2.30190544750467,2.30142588803261,2.30150581461129,2.30179554845899,2.30226511710871,2.30178555763665,2.30284458480411,2.30337409838783,2.30422331828626,2.3045530154233,2.30669105140287,2.30685090456022,2.3075402713013,2.30922872027583,2.31094714171735,2.31171643503711,2.31178637079345,2.31350479223498,2.31300525111825,2.31286537960557,2.31319507674261,2.31385447101668,2.27659869453147,2.27376130098849,2.27300199849107,2.27284214533372,2.2726623105317,2.2729520443794,2.27323178740476,2.27346157631845,2.27464049335392,2.27357147536413,2.27369136523215,2.27441070444023,2.27488027308995,2.27550969489702,2.27533985091733,2.27553966736402,2.2759393002574,2.27652875877513,2.27747788689691,2.27858686817603,2.27995561083585,2.28219355503877,2.28483113213507,2.32351559621411,2.32703236567584,2.32802145708695,2.3287907504067,2.32854097984834,2.32683254922915,2.32573355877236,2.32572356795002,2.32397517404149,2.32106784474216,2.32085803747314,2.32025858813307,2.319599193859,2.31926949672196,2.31880991889457,2.31862009327022,2.31861010244789,2.31850020340221,2.31899974451893,2.31896977205193,2.31972907454935,2.3211377804985,2.32236665164564,2.32323585318874,2.32419497213285,2.32514410025462,2.32625308153375,2.3269624299195,2.3290804842544,2.3272821362342,2.32831119093465,2.31924951507729,2.28931701136324,2.28735881018569,2.2868992323583,2.28543058147514,2.28464130651072,2.28453140746504,2.28390198565797,2.28436156348535,2.28414176539399,2.28379208661229,2.28488108624674,2.2839119764803,2.28312270151588,2.28367219674427,2.28294286671386,2.2830427749372,2.28299282082553,2.28247329806414,2.28206367434842,2.28223351832811,2.28164405981038,2.28241335313013,2.28206367434842,2.28160409652104,2.28133434431801,2.28199373859208,2.28187384872407,2.28142426171902,2.28236339901846,2.2839419489473,2.28236339901846,2.28206367434842,2.28249327970881,2.28265313286616,2.28332251796257,2.28352233440926,2.28408182045999,2.28363223345494,2.28380207743462,2.28421170115033,2.28464130651072,2.28497100364775,2.28671939755628,2.28591014094719,2.28656953522127,2.2877684339014,2.28782837883541,2.28945688287593,2.28972663507896,2.29085559800275,2.29273387260163,2.34727377172546,2.34669430403006,2.34843270711625,2.34793316599953,2.34785323942086,2.35021107349179,2.34965158744106,2.34951171592838
2.23209957185378,2.23262908543751,2.23328847971158,2.23361817684862,2.23504686444245,2.23555639638151,2.23621579065558,2.23653549697028,2.23757454249307,2.23847371650317,2.23924300982292,2.239932376564,2.2408615230411,2.24130111922382,2.24251000872629,2.24281972421866,2.24401862289879,2.24430835674649,2.24548727378196,2.24677608986311,2.2467461173961,2.24811486005592,2.24942365778174,2.25139184978163,2.25235096872574,2.25390953700991,2.25589771065447,2.25945444340554,2.3028146123371,2.30305439207313,2.30477281351466,2.30617152864148,2.30622148275315,2.30701075771758,2.30489270338267,2.30401351101724,2.30381369457055,2.30264476835742,2.30216520888536,2.30197538326101,2.30111617254024,2.3015957320123,2.30153578707829,2.30168564941331,2.30183551174832,2.30210526395136,2.30261479589041,2.3031343186518,2.30428326322027,2.30451305213396,2.30604164795113,2.30620150110848,2.30792991337235,2.30873916998144,2.31094714171735,2.31176638914878,2.31232587519951,2.31213604957515,2.31305520522992,2.31215603121982,2.31306519605226,2.31298526947358,2.27658870370914,2.27340163138445,2.27346157631845,2.27297202602406,2.27241253997334,2.27277220957738,2.27325176904943,2.27365140194281,2.2733017231611,2.27378128263316,2.27397110825751,2.27386120921183,2.27467046582092,2.27499017213563,2.27530987845033,2.27591931861273,2.27669860275482,2.27692839166851,2.27830712515067,2.27880666626739,2.28042517948557,2.28178393132306,2.28450143499803,2.32855097067068,2.3281513377773,2.32884070451837,2.3276018425489,2.32716224636619,2.32719221883319,2.32610321919873,2.32655280620378,2.32396518321916,2.32160734914822,2.32181715641725,2.319599193859,2.31922953343262,2.31912962520928,2.31855015751388,2.3187599647829,2.3187599647829,2.31943934070165,2.31979901030569,2.32030854224474,2.32073814760513,2.32138755105687,2.32333576141209,2.32366545854912,2.32463456831557,2.32624309071142,2.32640294386877,2.32697242074183,2.32759185172657,2.32594336604138,2.32675262265047,2.3278616039296,2.28861765379983,2.28788832376942,2.28757860827705,2.28586018683552,2.28559043463249,2.28422169197267,2.28430161855134,2.2844614717087,2.28400189388131,2.28400189388131,2.28441151759702,2.28364222427727,2.28363223345494,2.28358227934326,2.28279300437884,2.2826930961555,2.28349236194225,2.28222352750578,2.28331252714023,2.28306275658187,2.28339245371891,2.28277302273417,2.28166404145505,2.28213361010477,2.28273305944483,2.28232343572912,2.28195377530275,2.28191381201341,2.28197375694741,2.2826930961555,2.28219355503877,2.28247329806414,2.2833624812519,2.28300281164786,2.28302279329253,2.28380207743462,2.28382205907929,2.28374213250061,2.28405184799298,2.284201710328,2.2845214166427,2.28553048969848,2.28630977384057,2.28591014094719,2.28653956275426,2.28676935166796,2.29116531349512,2.2888973968252,2.28938694711958,2.2921444140839,2.29216439572857,2.34442638736013,2.34655443251738,2.34964159661872,2.34787322106552,2.34851263369493,2.3503309633598,2.34965158744106,2.3506506696745
2.23204961774211,2.23230937912281,2.23348829615827,2.23405777303134,2.23473714895008,2.23591606598555,2.23651551532561,2.23637564381293,2.23786427634077,2.2384837073255,2.23921303735592,2.23944282626961,2.24035199110205,2.24166078882786,2.24339919191406,2.24251999954862,2.24422843016782,2.24464804470587,2.24519753993426,2.24611669558903,2.24694593384279,2.24898406159902,2.24916389640104,2.25106215264459,2.25259074846176,2.25396948194392,2.25698671028893,2.25805572827871,2.30055668648951,2.3013059981646,2.30363385976853,2.30570195999176,2.3071905925196,2.30652120742319,2.30847940860074,2.30446309802229,2.30301442878379,2.30344403414417,2.30216520888536,2.30179554845899,2.3016257044793,2.30125604405293,2.30127602569759,2.30146585132195,2.30172561270265,2.30222515381937,2.30289453891578,2.3034240524995,2.3036838138802,2.30473285022532,2.30544219861107,2.30749031718963,2.30834952791039,2.30868921586977,2.31050754553464,2.31143669201174,2.31308517769693,2.31307518687459,2.31269553562588,2.31244576506752,2.31217601286449,2.31250571000153,2.27431079621688,2.27379127345549,2.27305195260274,2.27218275105964,2.27255241148602,2.27250245737434,2.27284214533372,2.27394113579051,2.27314187000375,2.27365140194281,2.27387120003417,2.27365140194281,2.27424086046054,2.27490025473462,2.27493022720162,2.27577944710005,2.27624901574977,2.27745790525224,2.27832710679534,2.27762774923192,2.28020538139421,2.28142426171902,2.28433159101835,2.32890064945238,2.32809139284329,2.32803144790928,2.32944015385844,2.32882072287371,2.32706233814284,2.3264429071581,2.32508415532062,2.32228672506697,2.32227673424463,2.32230670671164,2.31972907454935,2.3193394324783,2.31995886346304,2.31883989136158,2.31891981794025,2.31880991889457,2.3219770095746,2.31951926728032,2.3192794875443,2.32084804665081,2.32131761530052,2.32365546772679,2.32387526581815,2.32457462338156,2.32558369643734,2.32581348535103,2.32662274196012,2.3267026685388,2.32672265018347,2.32658277867079,2.32766178748291,2.28900729587088,2.28761857156639,2.28821802090645,2.28596009505886,2.28517082009444,2.28634973712991,2.28448145335336,2.28418172868333,2.28426165526201,2.28403186634831,2.28400189388131,2.28326257302856,2.28383204990162,2.28306275658187,2.28290290342452,2.28252325217581,2.28316266480522,2.28237338984079,2.28267311451083,2.28228347243978,2.28307274740421,2.28207366517076,2.28231344490679,2.28199373859208,2.28161408734337,2.28137430760735,2.28206367434842,2.28154415158703,2.28315267398288,2.2833624812519,2.28247329806414,2.28251326135348,2.28293287589152,2.28312270151588,2.28293287589152,2.2830427749372,2.28279300437884,2.28357228852093,2.28357228852093,2.28480115966807,2.28422169197267,2.28537063654113,2.28475120555639,2.28595010423653,2.28680931495729,2.28754863581004,2.28753864498771,2.28759858992172,2.29070573566773,2.29000637810432,2.29240417546459,2.34741364323814,2.346184772091,2.34669430403006,2.34880236754263,2.34954168839538,2.3500112570451,2.34995131211109,2.34991134882175
2.23193971869643,2.23226941583347,2.23278893859486,2.23438747016837,2.23457729579273,2.23568627707185,2.23640561627993,2.23696510233066,2.23772440482808,2.23838379910216,2.23882339528487,2.23978251422898,2.2408015781071,2.24123118346748,2.24224025652326,2.2425999261273,2.24365895329475,2.24528745733527,2.24546729213729,2.24641642025906,2.24742549331485,2.24830468568028,2.24968341916243,2.25102218935525,2.25272062915211,2.25409936263427,2.25647717834987,2.25964426902989,2.26100302086738,2.30164568612397,2.3042632815756,2.30506254736236,2.30526236380905,2.30527235463138,2.30402350183957,2.30297446549445,2.30295448384978,2.3021751997077,2.30151580543362,2.3013659430986,2.30138592474327,2.30102625513923,2.30125604405293,2.3016257044793,2.30176557599198,2.30216520888536,2.30272469493609,2.30303441042846,2.30389362114922,2.30483275844866,2.30582184985977,2.30692084031657,2.30820965639771,2.31003797688492,2.31013788510826,2.31156657270209,2.31189626983913,2.3122059853315,2.31328499414362,2.31288536125024,2.31289535207257,2.27473041075493,2.27380126427782,2.27347156714079,2.2735914570088,2.27224269599365,2.272402549151,2.27244251244034,2.27261235642002,2.27274223711037,2.27322179658243,2.27442069526256,2.27352152125246,2.27411097977019,2.27531986927266,2.27413096141486,2.27525992433866,2.27521996104932,2.27614910752642,2.27684846508984,2.27748787771924,2.27958595040948,2.2794760513638,2.28175395885606,2.32584345781804,2.32839111751332,2.328441071625,2.32861091560468,2.32852099820367,2.32784162228493,2.32750193432556,2.3249043205186,2.32471449489424,2.32346564210243,2.32208690862028,2.32220679848829,2.31996885428537,2.31896977205193,2.31986894606203,2.31860011162555,2.31928947836663,2.31860011162555,2.31863008409255,2.31885987300625,2.3204683954021,2.32093796405182,2.32179717477258,2.32275629371669,2.32301605509738,2.32508415532062,2.32597333850838,2.32703236567584,2.32708231978751,2.32664272360479,2.32671265936113,2.32626307235608,2.28793827788109,2.28749868169837,2.28679932413496,2.28581023272385,2.28526073749545,2.28564038874416,2.28432160019601,2.2838820040133,2.28389199483563,2.28392196730263,2.28353232523159,2.2839419489473,2.28345239865292,2.28325258220623,2.28294286671386,2.2827230686225,2.28265313286616,2.28231344490679,2.28261316957682,2.28296284835853,2.28195377530275,2.28226349079511,2.28146422500836,2.28208365599309,2.28234341737379,2.28290290342452,2.28202371105909,2.28146422500836,2.28213361010477,2.28223351832811,2.28251326135348,2.28277302273417,2.28227348161745,2.28248328888647,2.28266312368849,2.28348237111992,2.28328255467323,2.2838820040133,2.28386202236863,2.28405184799298,2.28424167361734,2.28442150841936,2.28555047134315,2.28551050805381,2.28606000328221,2.28825798419579,2.28797824117043,2.28756861745471,2.29475201871319,2.28952681863227,2.29173479036818,2.34493591929919,2.34427652502512,2.34724379925845,2.34930190865935,2.34793316599953,2.349112083035,2.34984141306541,2.35006121115677,2.34948174346137
2.23196969116343,2.23307867244256,2.23313861737657,2.23432752523437,2.23510680937645,2.2358161577622,2.23655547861495,2.23754457002606,2.23818398265547,2.23822394594481,2.23889333104122,2.24017215630003,2.24174071540654,2.24241010050295,2.24241010050295,2.2437588615181,2.24358901753841,2.24441825579217,2.24652631930474,2.24661623670575,2.24704584206614,2.24902402488836,2.24963346505076,2.25156169376131,2.25290046395413,2.25391952783225,2.25654711410621,2.25849532446143,2.30235503450972,2.30279463069243,2.30391360279389,2.30525237298671,2.30567198752476,2.30541222614406,2.30909883958548,2.30329417180916,2.30282460315944,2.30384366703755,2.30139591556561,2.30146585132195,2.30020700770781,2.30171562188031,2.30163569530164,2.30439316226595,2.30189545668233,2.30196539243867,2.30224513546404,2.30328418098682,2.30404348348424,2.30560205176842,2.30579187739277,2.30718060169726,2.30806978488503,2.30950846330119,2.31085722431634,2.31141671036707,2.31182633408279,2.31278545302689,2.31398435170703,2.31417417733139,2.31485355325013,2.27539979585134,2.27473041075493,2.27424086046054,2.27225268681598,2.27288210862305,2.27233261339466,2.27183307227794,2.27342161302912,2.27345158549612,2.27379127345549,2.27347156714079,2.27353151207479,2.27387120003417,2.27422087881587,2.27470043828793,2.27586936450106,2.27573948381071,2.27685845591217,2.27752784100858,2.27748787771924,2.27884662955673,2.27978576685617,2.28170400474438,2.32718222801085,2.32745198021388,2.32800147544228,2.32845106244733,2.32795152133061,2.32733209034587,2.32775170488392,2.32442476104654,2.32444474269121,2.32238663329031,2.3220069820416,2.32058828527011,2.31999882675238,2.319659138793,2.31874997396057,2.31830038695552,2.31848022175754,2.31850020340221,2.31882990053924,2.31924951507729,2.3193094600113,2.32162733079289,2.32176720230558,2.32253649562533,2.32392521992982,2.32520404518863,2.32591339357438,2.32635298975709,2.32659276949312,2.32764180583824,2.32805142955395,2.32635298975709,2.32966994277214,2.28793827788109,2.287158993739,2.28621985643956,2.28583021436852,2.28456137993204,2.28412178374932,2.28413177457166,2.28385203154629,2.28384204072396,2.28370216921128,2.28379208661229,2.28372215085595,2.28329254549556,2.28329254549556,2.28318264644988,2.28271307780016,2.2824033623078,2.28273305944483,2.28274305026717,2.28210363763776,2.28230345408445,2.28221353668344,2.28180391296773,2.28192380283574,2.2821136284601,2.28305276575954,2.28294286671386,2.28255322464281,2.28247329806414,2.28259318793215,2.2826930961555,2.28282297684584,2.28282297684584,2.28329254549556,2.28382205907929,2.2830427749372,2.28334249960724,2.2839419489473,2.28476119637873,2.28418172868333,2.28398191223664,2.28496101282542,2.28567036121117,2.28673937920095,2.28758859909938,2.28727888360701,2.28807814939377,2.29018621290634,2.29064579073373,2.29322342289602,2.34741364323814,2.34466616709616,2.34709393692344,2.34825287231423,2.34912207385733,2.3494617618167,2.35023105513646,2.35073059625318,2.35026102760346
2.23201964527511,2.23255914968117,2.23380800247297,2.23315859902123,2.2352366900668,2.2355264239145,2.23635566216826,2.23725483617836,2.23750460673672,2.23824392758948,2.23917307406658,2.24067169741675,2.24142100909183,2.2423401647466,2.24226023816793,2.24276977010699,2.2434991001374,2.2449177969089,2.24583695256367,2.24659625506109,2.24723566769049,2.24926380462439,2.24973337327411,2.25187140925368,2.25286050066479,2.25470880279667,2.25702667357826,2.26148258033943,2.30268473164675,2.3033940800325,2.30409343759591,2.30452304295629,2.30569196916943,2.30482276762633,2.30437318062128,2.30379371292588,2.30267474082442,2.3024949060224,2.30151580543362,2.3015957320123,2.30087639280422,2.30218519053003,2.3016556769463,2.30160572283463,2.30185549339299,2.3022351446417,2.30192542914933,2.30360388730152,2.30396355690557,2.30510251065169,2.30619151028615,2.30706071182925,2.30831955544339,2.30976822468189,2.3111069948747,2.31188627901679,2.31161652681376,2.31335492989996,2.31221597615383,2.31349480141264,2.31619232344295,2.27583939203405,2.27395112661284,2.27369136523215,2.2726922829987,2.27421088799354,2.27294205355706,2.27314187000375,2.27372133769915,2.27357147536413,2.27323178740476,2.27373132852148,2.2735914570088,2.27424086046054,2.27450062184124,2.2747803648666,2.27499017213563,2.27665863946548,2.27671858439949,2.27745790525224,2.2777376482776,2.27920629916077,2.2804051978409,2.28258319710982,2.3293702181021,2.32712228307685,2.32780165899559,2.32831119093465,2.32833117257932,2.32860092478235,2.32758186090423,2.32680257676214,2.32391522910748,2.32261642220401,2.32213686273195,2.31974905619401,2.32024859731074,2.31882990053924,2.31912962520928,2.31885987300625,2.31915959767628,2.31884988218391,2.31896977205193,2.32000881757471,2.32033851471175,2.32057829444777,2.32175721148324,2.32256646809233,2.32473447653891,2.32516408189929,2.32573355877236,2.3258634394627,2.32734208116821,2.32712228307685,2.3258034945287,2.32508415532062,2.28872755284551,2.28782837883541,2.28738878265269,2.28697915893698,2.28544057229747,2.28455138910971,2.28455138910971,2.28412178374932,2.28384204072396,2.28378209578995,2.28392196730263,2.28376211414528,2.28337247207424,2.28354231605392,2.28314268316055,2.28318264644988,2.28229346326212,2.28315267398288,2.28352233440926,2.28302279329253,2.28276303191184,2.28271307780016,2.28209364681543,2.28235340819612,2.2824333347748,2.28256321546515,2.28250327053114,2.28237338984079,2.2827230686225,2.28305276575954,2.28249327970881,2.2824033623078,2.28317265562755,2.28338246289657,2.28285294931285,2.2829828300032,2.28386202236863,2.28386202236863,2.28361225181027,2.28421170115033,2.28428163690667,2.28486110460207,2.28541059983047,2.28574029696751,2.28668942508928,2.28655954439893,2.28807814939377,2.28906724080488,2.28933699300791,2.29206448750522,2.29298364315999,2.35281867812108,2.34453628640581,2.34806304668988,2.34834278971524,2.34818293655789,2.34973151401973,2.3494018168827,2.34980144977608,2.35021107349179
2.23196969116343,2.23263907625984,2.23350827780294,2.2334383420466,2.23490699292977,2.23557637802617,2.23618581818858,2.23712495548802,2.23777435893976,2.23818398265547,2.23922302817825,2.24004227560968,2.24133109169082,2.24194053185323,2.24251000872629,2.24282971504099,2.24372888905109,2.24472797128454,2.24607673229969,2.24667618163976,2.24806490594425,2.24989322643146,2.25070248304055,2.2523709503704,2.25311027122315,2.25543813282708,2.2570666368676,2.26111291991306,2.30234504368738,2.3028146123371,2.30398353855023,2.304902694205,2.30531231792072,2.3063213909765,2.30413340088525,2.30250489684473,2.30218519053003,2.30273468575843,2.30218519053003,2.30124605323059,2.30115613582958,2.30123606240826,2.30119609911892,2.30123606240826,2.30139591556561,2.30195540161634,2.30271470411376,2.30395356608323,2.30431323568727,2.30499261160601,2.30615154699681,2.3074803263673,2.30897894971746,2.30998802277325,2.31121689392038,2.31218600368683,2.31253568246853,2.31388444348369,2.31166648092543,2.31283540713857,2.31502339722981,2.27404104401385,2.27339164056211,2.27351153043013,2.27283215451138,2.27303197095807,2.27365140194281,2.2738811908565,2.2730119893134,2.27283215451138,2.27345158549612,2.27407101648086,2.27440071361789,2.27435075950622,2.27479035568894,2.27445066772956,2.27488027308995,2.27588934614573,2.27685845591217,2.27690841002384,2.2776777033436,2.27928622573944,2.28136431678501,2.28231344490679,2.32855097067068,2.32807141119862,2.32765179666057,2.32912044754374,2.32868085136102,2.32869084218336,2.32589341192971,2.32494428380793,2.32410505473184,2.32351559621411,2.32231669753397,2.32101789063049,2.31992889099603,2.31954923974733,2.31869002902656,2.31860011162555,2.31869002902656,2.31954923974733,2.3187599647829,2.31987893688436,2.32018865237673,2.32183713806192,2.32208690862028,2.32235666082331,2.32363548608212,2.32515409107696,2.32531394423431,2.32723218212253,2.32722219130019,2.32749194350322,2.32657278784845,2.32604327426473,2.28872755284551,2.28755862663238,2.28703910387099,2.28658951686594,2.28498099447009,2.28433159101835,2.28441151759702,2.28416174703866,2.28395193976964,2.2839119764803,2.28371216003361,2.28356229769859,2.28366220592194,2.28355230687626,2.28326257302856,2.28321261891689,2.28322260973922,2.28267311451083,2.28250327053114,2.28282297684584,2.28297283918086,2.28245331641947,2.28197375694741,2.28254323382048,2.28174396803372,2.28149419747536,2.2821735733941,2.28204369270376,2.28241335313013,2.28212361928243,2.28267311451083,2.28236339901846,2.2821136284601,2.28299282082553,2.28287293095752,2.28366220592194,2.28401188470364,2.28393195812497,2.28364222427727,2.284231682795,2.28558044381016,2.28617989315022,2.28558044381016,2.28566037038883,2.28725890196234,2.28674937002329,2.28818804843945,2.28847778228715,2.28908722244955,2.29050591922104,2.29209445997222,2.34981144059841,2.34662436827372,2.34848266122793,2.34807303751221,2.34860255109594,2.34862253274061,2.34994132128876,2.34986139471008,2.34982143142074
