2.23611300433083,2.23568386986345,2.23731236910465,2.23679711236982,2.23821610598433,2.23771314492513,2.23895585531089,2.23922996166571,2.24013403035789,2.24029185103194,2.24071728513145,2.24124325427451,2.24141853316672,2.24213107805518,2.24211762713221,2.2431841862796,2.24359827934499,2.2447453618751,2.24575188905251,2.24635051064942,2.24682074043217,2.24690574672452,2.24751557037518,2.24761438169816,2.24842152922315,2.24830758118781,2.24927349759937,2.24917746401099,2.25016015974937,2.25013373846725,2.25129372558721,2.25100568305506,2.25212702702896,2.25181036576816,2.25276432500599,2.25322369624579,2.2539855508979,2.25456225902257,2.25477784909003,2.25547462636503,2.25517413841455,2.25626418742837,2.25630592691305,2.25766084433658,2.25741001924862,2.25871433882443,2.25853598150941,2.25975979867372,2.25967159071582,2.26061907425485,2.26064068747517,2.26153390355333,2.26229365766399,2.26311897201018,2.26340093290262,2.2635080570631,2.26429889964011,2.26426269791433,2.26525779622579,2.26544626750988,2.26613543550494,2.26631889543727,2.2671356081423,2.26746743057685,2.26795766961486,2.26845057766908,2.26869645611539,2.26937322956544,2.26984882478197,2.27076663420592,2.27107490817262,2.27155470672734,2.2718598114606,2.27263746849879,2.27323139554732,2.27406537127321,2.27465666207023,2.27508290159236,2.27581006397417,2.27640325057048,2.27757659839737,2.27796285593284,2.27884242522882,2.27939983092934,2.28071245661233,2.28181247383621,2.28283891895856,2.28390835150732,2.28525346889028,2.28597325216937,2.28687623582207,2.28762262019744,2.28838688315564,2.30531243543632,2.31410290629771,2.32750834647135,2.34110757629236,2.34918781688285,2.36310322842722,2.37295076853771,2.37273120594494,2.37258777142018,2.37296136802276,2.37369710234302,2.37475662205187,2.37570187946073,2.37675670968491,2.37773162325044,2.37885525752674,2.37928680354391,2.37954337609521,2.37840460852944,2.37754054249668,2.37729752017127,2.37894013018135,2.38160265271068,2.2889444348607,2.29013245677661,2.29082197536196,2.29115765012265,2.29054332094651,2.28986783258236,2.28941852073893,2.28959044301396,2.2896769781917,2.29004224078295,2.29040880886259,2.29055529628145,2.29063765651987,2.29069350062308,2.29087520963547,2.29122424204446,2.29149577982736,2.29177147514111,2.2918030050967,2.291974336547,2.29199651680192,2.29252791542593,2.29266326576902,2.29328346074727,2.29314826946939,2.29355340988774,2.29333258303326,2.29386449917985,2.29369131480499,2.29426389021165,2.29428336143788,2.29503931971011,2.29489914000623,2.29538486560567,2.29538006095513,2.29610618320278,2.29615587018134,2.2964767443769,2.29647060891082,2.29712787974493,2.29671597246693,2.29727767827258,2.29747221127863,2.29826502805059,2.29839827799575,2.29893627767773,2.29935026361018,2.29947245703983,2.29970697751484,2.30017344726984,2.30106247994038,2.30104603724066,2.3011304559058,2.30155149458274,2.30177436786621,2.30230609441306,2.30236189664893,2.30310435943806,2.30337408946223,2.30431328372877
2.23393361275641,2.23822199112534,2.23537618799941,2.23880855545049,2.2369042886729,2.23898789866908,2.23813222740482,2.2404276759079,2.24005597332264,2.24035303098487,2.24086617446953,2.24102063041395,2.24229741805561,2.241281783727,2.24255011529909,2.24228696058724,2.24399411208805,2.24435607182166,2.24654716219393,2.24793705043589,2.24675290058505,2.24756403679271,2.24659624285247,2.2487822457372,2.24763785425738,2.24900668454714,2.24836251485314,2.2496099290559,2.24894170587004,2.25131873523324,2.24988636404058,2.2520827179859,2.2507852667581,2.25251812701129,2.25164898121927,2.2536486771599,2.25367210016605,2.25426710576911,2.25516456987652,2.25422507429549,2.25591176081835,2.25477298188874,2.25772831198908,2.25634237378699,2.25888688285463,2.25717366055414,2.2600771214577,2.25855803829327,2.26037697023069,2.25941192317814,2.26080095481847,2.2602795487688,2.26185839436351,2.26390179373588,2.26263142320792,2.26375874579998,2.26333992113097,2.26486184120754,2.26438244752024,2.26676616783856,2.26525888574643,2.26679068299513,2.26649296633856,2.26722266587669,2.26798934427234,2.26808193331857,2.26903429216313,2.26870181043995,2.27025112314041,2.27023396284569,2.27151884827447,2.27098502093526,2.272246449802,2.2723616151365,2.27382494048368,2.2738398177004,2.27449730173337,2.2752887254204,2.27572280552611,2.27723855004672,2.27763501512894,2.27901826502228,2.27848734553739,2.28010134772972,2.28123030408662,2.28266324533724,2.2830421714479,2.28433745929914,2.28551980629884,2.28654687324934,2.28761778612081,2.28908541343503,2.29080509573958,2.36260584540214,2.36187820809805,2.36191814477193,2.36191744496592,2.36251758982341,2.36262369509897,2.37044443771705,2.37175370801324,2.37200183147352,2.37234213431183,2.37296232492902,2.3739956632701,2.37523520688025,2.37583730239643,2.37718694469975,2.37890745623578,2.37958562264105,2.3808754700697,2.37849906150365,2.37787787023099,2.3767252805501,2.37770209407651,2.38065929921957,2.29071864536615,2.2915712744354,2.29004262221585,2.28936843089023,2.28961899706712,2.28907779925089,2.28937258171152,2.28970043900851,2.28934808515276,2.28973415327853,2.28979827094982,2.29010596892567,2.29036944447564,2.29040903473451,2.29042529179552,2.29090736075779,2.29120186585164,2.29150529759903,2.29198466275946,2.29133449441803,2.29198152728497,2.29180549216428,2.29305564000565,2.29298799314509,2.29357809732292,2.29236725192267,2.29381511555903,2.29300761078703,2.29434012739074,2.29321967520879,2.29481521493816,2.29431474826891,2.2958323442571,2.29419446707498,2.29555994022236,2.29511702175701,2.29609939532014,2.29549800593189,2.29641497246986,2.29662985476438,2.29654852147424,2.29656861870646,2.29735202054771,2.29739444996024,2.29809389503104,2.29856185406591,2.29949172135489,2.2994731358889,2.29942519593545,2.30003528977867,2.30207072110957,2.30089917764387,2.30050348757951,2.30115717139292,2.30131036495553,2.30150302865053,2.30251543346578,2.30212242356196,2.30379870361941,2.30386789676967
2.23553870559651,2.23511058111238,2.23680732880523,2.23622708199262,2.23776216478554,2.23716639742592,2.23861660919871,2.23855090192548,2.23955965350841,2.23957489448527,2.24027810970276,2.24070055365745,2.24099752489342,2.24180418834075,2.24185705456959,2.24283465635097,2.24344796645307,2.24446539250003,2.24533159076339,2.24584377297089,2.24667872793298,2.24646416234166,2.24731139815149,2.24728037017136,2.24803227915672,2.24784859834139,2.2487719399383,2.24875339277587,2.24970623020086,2.24971275469314,2.25074847698872,2.25042200761058,2.25141307476793,2.25134642353318,2.25218959292832,2.25263948536546,2.25319545106652,2.25386897074389,2.25392058120022,2.25472503008038,2.25448426491612,2.2557335946748,2.25585561088385,2.25725137341279,2.25703350643304,2.2582448225663,2.25828213070386,2.25923172822884,2.25911413912125,2.25991478828072,2.26003875357827,2.26058062472308,2.26148561081215,2.26221363622674,2.26268047718723,2.26269525528222,2.26369022078785,2.26382269328093,2.26495544178994,2.26515129955831,2.2658326840204,2.26583781415473,2.26650983465593,2.26690916595551,2.2675535763257,2.26821388803177,2.26847546005874,2.2691611709562,2.26956848071417,2.27048174400864,2.27083807477764,2.27157984922288,2.27189134636987,2.27288840046179,2.27348804144365,2.27419945298259,2.27463827140875,2.27561923932192,2.27656587030242,2.27740046633678,2.27844526142628,2.27921563592887,2.28030121386434,2.28130154774285,2.28291899204601,2.28409131956183,2.28513466357148,2.28582545960928,2.286728162717,2.2867846204313,2.31190147354119,2.32614497409317,2.34051953748352,2.36460441453831,2.36381722334733,2.36345796300097,2.3636153317815,2.36384100558575,2.36510818818506,2.36859515084513,2.3711387585577,2.37210401188685,2.37292248942064,2.37355494506922,2.374541850736,2.3753693920314,2.37600944736778,2.37659890698517,2.37741450768691,2.37779705904766,2.37763007520894,2.37633832786763,2.37594425121551,2.37550278978826,2.37465537827148,2.3708939345007,2.28904914045519,2.28998992230853,2.29043082424159,2.29028752481232,2.28986233573042,2.28921656157261,2.2892289336299,2.28921205744092,2.28932132842714,2.28923640400698,2.28974410291603,2.28985522171447,2.29030418490841,2.29024511926636,2.29047758771422,2.29062202122447,2.290875409832,2.29118530739539,2.29125594109926,2.29148205265902,2.29143555468216,2.29215296779619,2.29209627622671,2.29302810908527,2.29247120624265,2.29309965242183,2.29270164492501,2.29372495898684,2.29316459514256,2.29424195467835,2.29380734467037,2.29470977053181,2.29439151613965,2.29501503211116,2.29471739038246,2.29533336801663,2.2953216437917,2.29570899551839,2.29594712360673,2.29635897494892,2.29648031328329,2.29686070267805,2.29743668830287,2.29750561966742,2.29791023000683,2.29827957235204,2.29895003325444,2.29901122867736,2.29945992005517,2.29983085051416,2.30080479724116,2.30056140871811,2.30065356832183,2.30086766267729,2.3010990102192,2.30165496505961,2.30190274526605,2.30266964967241,2.30298738544585,2.30421806591423
2.23367709110259,2.23688154315055,2.23479957006659,2.23820679998983,2.23588693811022,2.2387496810891,2.23721122199611,2.23940612206531,2.2383539917518,2.24006504948694,2.24014025278312,2.24055661579501,2.2410982909856,2.24169181079175,2.24296025922373,2.24222052777702,2.24443115187964,2.2446761089618,2.24438435655186,2.24551516118793,2.24568505537546,2.24769115992857,2.24625757880491,2.24844665001088,2.24696676397945,2.24875655847747,2.24780863326068,2.25029594543194,2.24863828042348,2.25094802695563,2.24988664692145,2.25128814659289,2.25055098139455,2.25207008328997,2.25199410817427,2.25256097504118,2.25337800216368,2.25317962899815,2.25459628041197,2.25369089272324,2.25563354610435,2.25423572768442,2.25735706630992,2.25598831070696,2.25821722292141,2.25710649123176,2.25936665714997,2.25837523578834,2.25973945567672,2.25964780290064,2.26037903057697,2.26045265052933,2.26138960378347,2.26201541613813,2.26207680902954,2.26287887056038,2.26295599252463,2.26463955612678,2.2640686394247,2.26593505050134,2.26491700926267,2.26631159990056,2.26578843802029,2.26706182231774,2.26765038755652,2.26811813925088,2.2691229894116,2.26855353379999,2.27037728328746,2.26981822654545,2.27177174634821,2.27123675251374,2.2727252417403,2.27270920562805,2.27454565564854,2.27432928591404,2.27494242287567,2.27629317132127,2.27718324526833,2.27833299561284,2.27841133119234,2.28024002919493,2.28086656524658,2.28240411450654,2.28335888634439,2.28496074169192,2.28590740492225,2.28670460222003,2.28894706956293,2.28888209605274,2.36380664375408,2.36398545628935,2.36391194649848,2.36516934159967,2.36393051530503,2.36373458317356,2.36413563853231,2.36386274941725,2.36488525220218,2.36725716394396,2.37185793223507,2.37225535769073,2.3724882464362,2.37295535757999,2.37373813671414,2.37469705029481,2.37469062537597,2.37479946151215,2.37466302420286,2.37556345958532,2.37436547649907,2.37429720058675,2.37544881651348,2.375879914782,2.37383651153432,2.3676316506967,2.28966208593579,2.2893687150701,2.2891317882385,2.28933113948501,2.28886366422032,2.2891265229363,2.28878503450102,2.28969374788777,2.28865982741109,2.28921829444193,2.28900043792968,2.29025475564508,2.28978183033568,2.2905216287488,2.29009538706436,2.29048921468931,2.29059989530559,2.29066807688889,2.29123112090761,2.29068356172847,2.29182804649722,2.29127372443397,2.29263180747803,2.29182318008974,2.29328966819554,2.29155317524263,2.29372003394611,2.29236026425918,2.29414294352184,2.29301082618325,2.29517038779576,2.29283026412377,2.29511272351083,2.29399099562453,2.29506319594567,2.29444810824423,2.29525867182751,2.29523388773834,2.2956963615245,2.29607630484794,2.29608129250291,2.29699177036457,2.29765002339988,2.29761813922356,2.29712894353219,2.29831248295801,2.29811925759918,2.29898979414188,2.29849025894283,2.29991014197614,2.29973067859757,2.30056150129108,2.30005259368105,2.30067040405106,2.30065885653383,2.30137056278005,2.30182088051546,2.30214534753571,2.3033691308317,2.30312401760445
2.23472422050921,2.23455173595758,2.23594112290694,2.23554254504031,2.23697453398949,2.23662827402233,2.23811432729782,2.23785589805562,2.2389046006466,2.23885808829724,2.23973430620197,2.23996778969433,2.24035000416281,2.24142898937913,2.24194755476654,2.24248157406913,2.24312684146375,2.24367439426832,2.24438776320765,2.24484540923354,2.24578106538735,2.24571548537252,2.24686083301722,2.2465660935579,2.24735974692426,2.24729415667529,2.24831531027132,2.24851869792304,2.24924135565258,2.24936301703347,2.25022424086082,2.2500855923751,2.25099397399965,2.25117986901957,2.25172834176236,2.25221574664323,2.25252218502835,2.25329068051517,2.25324503169662,2.25425665755117,2.25408164517147,2.25527714578343,2.25534312819281,2.25661554124767,2.25657681248344,2.25774922461767,2.25779560148865,2.25857681315189,2.25876265052206,2.25944173965001,2.2599211089891,2.26039176507745,2.26103898767917,2.26125216265307,2.26196387140384,2.26200359578456,2.26302094275905,2.26330122779338,2.26444239945908,2.26449842489016,2.26548050716437,2.26550661183614,2.2663208387668,2.26688718547933,2.26765830686103,2.2681594307085,2.26848079158342,2.26925578451537,2.26967015685507,2.27073683752245,2.27110410006358,2.27195010070738,2.27243347198329,2.27360918319476,2.27422129218616,2.27520723552889,2.27587601066048,2.27727851671646,2.27844986835006,2.27967651352092,2.28079709045478,2.28196352789907,2.28320825933401,2.28416817196157,2.28531829616166,2.28634715729515,2.28695540121918,2.31102042659101,2.32569682751277,2.33971518850588,2.36481297014453,2.36482936499648,2.36474337688426,2.36485417511068,2.36468765590593,2.36514416531447,2.3652276560952,2.36552838436312,2.36669265327738,2.36866330347187,2.37230267875534,2.37263492623934,2.37312405775281,2.37317023828815,2.37419997530106,2.37443479515359,2.37477741181972,2.3746616857008,2.37451278749846,2.37432503177273,2.37390022547369,2.37381579988628,2.37455287021403,2.37454376405224,2.37495253510968,2.33088065502974,2.28908888993548,2.28966678382615,2.29042880451759,2.28996029749598,2.28961701784686,2.28856599492467,2.28875015746052,2.2883879580227,2.28895544830882,2.28880491258992,2.28941837574645,2.28925187848067,2.28990154850182,2.28976895037108,2.29004580766338,2.29002381819317,2.29034635042886,2.29058481524287,2.29056351512739,2.29085500959756,2.29085088889439,2.29158966698624,2.29153101448577,2.29239526831822,2.29187789333338,2.2927812904789,2.29235902238433,2.29357147671695,2.29274994311291,2.29392099835888,2.29326819240798,2.29414125217396,2.2936376638628,2.29466118985653,2.29418433983917,2.29493126303784,2.29485052090289,2.29533478866632,2.29559182955688,2.29592847145612,2.29644687507754,2.29656609591371,2.29734365402447,2.29713950068226,2.29760494446843,2.2975720946135,2.29840399222454,2.29822222073453,2.29903589526625,2.2992083791931,2.30015604565876,2.2999978722363,2.30058452830444,2.30050348923612,2.30110661775363,2.30132714382665,2.30189711360821,2.302678718135,2.3035843059695,2.30492143222999
2.23386585722971,2.235740014906,2.23454220546419,2.23679822414212,2.23530220057087,2.2381645826363,2.23691947155305,2.23945041837153,2.23808941658979,2.23951889964011,2.23931703407837,2.2401105475601,2.23994892291124,2.24124200276349,2.24264553082458,2.24218483378954,2.24270810749594,2.24359999366288,2.24346334744435,2.24670840044294,2.2441720451247,2.24639906660041,2.24599568639015,2.24712560942036,2.24627233092093,2.24778626156933,2.24755492894976,2.24926993967783,2.24817581351139,2.25018198181157,2.24945700076544,2.25047410593868,2.25101130571914,2.25132389551899,2.25181902697477,2.25188818194774,2.25299838289418,2.25257435293968,2.25396258643251,2.25318414232954,2.25521498994021,2.25398610737026,2.25642801402562,2.25524783663747,2.25752336414893,2.25703259629216,2.25823156377358,2.25799212712668,2.25881018482967,2.2592064256401,2.25987524786726,2.26099208916219,2.26060111871104,2.26168305611256,2.26124317569399,2.26252189898596,2.26186992806689,2.26405774465979,2.2634387679227,2.26527665411174,2.2646258822003,2.26635662645854,2.26578449702136,2.26745961056703,2.26825470144489,2.26781569869127,2.26899325041678,2.26892788662482,2.27044549692428,2.2708360597475,2.27217788167644,2.27162913192129,2.27360197202598,2.27376091941697,2.27522407879865,2.27521349614421,2.27677180548669,2.27749656217188,2.2789730897017,2.28016373940524,2.28113794501704,2.28249066222226,2.28369040125449,2.28542753407056,2.28683331196367,2.28875961077711,2.28978059656301,2.36255664603221,2.36221897796351,2.36192282479285,2.3630213794398,2.36443592806844,2.36504605027444,2.36533584138741,2.36494822669443,2.36730583610688,2.36516110866987,2.36585344232713,2.36661521661147,2.36779717928744,2.37468344944332,2.37200909817233,2.37260866195936,2.37194953114558,2.37367570574005,2.37348527403522,2.37358119574805,2.37376331160958,2.37251657103832,2.37252317607458,2.37226571506589,2.37367686551513,2.37540130557409,2.37240832695413,2.37336852053916,2.29075683399979,2.28919128266004,2.28970336066869,2.28948816952421,2.29006100123548,2.28867737579333,2.288949175534,2.28740950096136,2.28862317891829,2.28776948920431,2.28986090512489,2.28849656023206,2.28937345408299,2.28906152318023,2.29003506953201,2.28918902954169,2.28987850231454,2.28994603158645,2.29049943899596,2.29034126868087,2.2901135775796,2.29087888993682,2.2905739200985,2.2921852554395,2.29131538882061,2.29259617279197,2.29147767829265,2.29364040903016,2.2923231270833,2.29407279717564,2.29189135107167,2.29453237868147,2.29233982792945,2.29467795286059,2.2932427099964,2.29490036696526,2.29403691357715,2.29525104276224,2.29489550326566,2.2954381706512,2.29599319378982,2.29616418948089,2.29672058944538,2.29626277329036,2.29780979720246,2.29647908667291,2.29811857766206,2.29740145600138,2.29877083118905,2.29776244655499,2.30007292135357,2.29925657919261,2.30080986944253,2.29974499630772,2.30118948215407,2.30071206527579,2.30168984325713,2.30170882657104,2.30301654432354,2.30396332923083,2.30508171153229
2.2338460987254,2.23428389545952,2.23496965771453,2.23526738531569,2.23627236225681,2.23646523071636,2.23755966770478,2.23761543604863,2.2385009761892,2.23838088095166,2.23917776335439,2.23934610951963,2.23987386118994,2.24056674045801,2.24169857258912,2.24223859440371,2.24280817522554,2.24280233869204,2.24377608432667,2.24404652128037,2.24488985097779,2.24452231373039,2.24573861794199,2.24548606327709,2.24654282225412,2.24674530091024,2.24775043079724,2.24783608855843,2.24847100186634,2.24873054549454,2.24946879931879,2.249837989495,2.25052625793329,2.25081091361256,2.25110405969165,2.25169999064931,2.25182767641016,2.25255448164455,2.25249195416178,2.25362734403607,2.25366624882132,2.25480033778366,2.25480118274954,2.25580640294021,2.25588980901608,2.25689662125328,2.25705829760541,2.25793483989896,2.25828176191528,2.25882676406311,2.25951689737856,2.26003591513072,2.26056702370437,2.26075981103219,2.2614797495373,2.2615373810992,2.26247848438532,2.26272334657427,2.26387538470139,2.26398620565776,2.26503472963153,2.26518223553944,2.26612877350463,2.26663532752718,2.26753024822725,2.26802575445437,2.2684831074997,2.26937686793238,2.26982993648737,2.27093164983005,2.27158931234454,2.27271229863933,2.27353846499533,2.27494833328442,2.27579290622853,2.27714595123658,2.27821825427876,2.27938160372831,2.28013008401701,2.28088464971037,2.28190152906569,2.28407821688308,2.28568271643091,2.30659010622618,2.31813170257828,2.33228329695085,2.34381108089279,2.36336878126758,2.36317299670645,2.36319985186174,2.36371954058489,2.36456394785711,2.36520449643441,2.36570422264434,2.36614574405402,2.36662404642887,2.36659786438772,2.36694663773367,2.36785525825042,2.36884191036292,2.37140603030628,2.3714204890573,2.37190468854626,2.37189536824532,2.37263358071449,2.37244872667789,2.37281798960347,2.37266416830986,2.37261417225465,2.3723659633511,2.37157144507785,2.37104275598416,2.37208788843005,2.37178929707571,2.3731001202167,2.28823895653429,2.28913857656394,2.29006045879843,2.29083247289977,2.2897166639134,2.28923884481963,2.28801397563904,2.28830740625731,2.28769637211334,2.28866779968817,2.28839193512606,2.28899874253076,2.28860791000278,2.28941386449347,2.28924667689054,2.2895671706129,2.28948443084605,2.28983111087302,2.29006757171515,2.29021888090807,2.2903610638304,2.29045214489481,2.29100559089686,2.29112533816722,2.29175817964042,2.29143394018335,2.29233549625657,2.29210048521522,2.29302620340719,2.29228106128412,2.29325498294593,2.2926015398907,2.29365431210662,2.29300213136485,2.2941805311318,2.29369064260834,2.29475543696211,2.2942883946079,2.29491304826449,2.29513948414501,2.29574311627117,2.29622900676909,2.29633044365432,2.29697545685387,2.29668675047713,2.29724442509236,2.29706869996741,2.29802035548295,2.29779026467317,2.29884923076986,2.2986080615806,2.29969116064737,2.29929307757392,2.30041207303013,2.30015774580144,2.30123316795311,2.30169427863237,2.30301630249029,2.30390568799626,2.3056725339362,2.30652792817009
2.23483073165194,2.23384111158246,2.23493866859434,2.23585889322666,2.23599462975674,2.2374303779784,2.23689050097471,2.23835021077261,2.23809193707673,2.23889883225149,2.2387640516099,2.23978134185239,2.23952966553442,2.24047504707299,2.24130072970753,2.24376076062343,2.2424303253942,2.24387724879406,2.24223379738537,2.2449235487542,2.24344684217178,2.24533819045999,2.24396177352091,2.24604147437203,2.24556038597463,2.24768793859362,2.24724792183445,2.24837745680632,2.24771386459248,2.24901237351526,2.24896063627442,2.25026282354706,2.25058023229883,2.25049186889257,2.25133947603935,2.2510967570745,2.25227756979557,2.25159543907695,2.25285528663514,2.25274599535507,2.25458558703778,2.25390864129301,2.25577582927661,2.2546465364311,2.25641085132205,2.25578431485422,2.25723476227995,2.25767706873302,2.25842279045293,2.25867020639997,2.25915656587506,2.26039703085417,2.2599406198868,2.26133870432644,2.26088505913549,2.26219144448164,2.26178149256987,2.26344294490238,2.2629307723059,2.26490843314502,2.26396246898134,2.26581469381074,2.26542288293907,2.26669625503162,2.26726649351606,2.26810097700763,2.26896321120193,2.26922649590713,2.27054414177605,2.27019793417237,2.27233862118704,2.27272502985158,2.27430614145383,2.27516183417026,2.27661651320607,2.27726191567744,2.27900878910048,2.28007408463989,2.28167676928717,2.28238022928703,2.35907826428034,2.28600326789867,2.28798005216448,2.36062527921305,2.36028319965392,2.3616703508798,2.36149885375672,2.36212827851582,2.36289067114367,2.36376890677974,2.36426073248091,2.36523707790105,2.3654272733096,2.36604044935346,2.36625384425221,2.36593730891595,2.3658992495434,2.36679718962907,2.36747256043527,2.36804288657364,2.36857935238426,2.36976078421248,2.36984955165932,2.37102826176919,2.3705972352399,2.37065533971983,2.37070101318673,2.37085651391885,2.37094240018866,2.37219381239533,2.37024553598678,2.36837790063862,2.37109873800991,2.3683760457706,2.36999417308299,2.28936821014379,2.28936404267878,2.28966515333685,2.28943032224901,2.28948632902245,2.28765171347281,2.28886956005008,2.28733645301295,2.28845015135227,2.28782666015789,2.28895261636621,2.28784424787346,2.28917593027196,2.28860059076602,2.28988192383602,2.28887941786832,2.28975733379594,2.28921552655882,2.28994505665782,2.2903524337121,2.29003105306693,2.29058872409369,2.29042985808649,2.29141645585384,2.29085526675909,2.29188472624458,2.29106989467462,2.29321194999498,2.29124346280384,2.29334058914642,2.29152578885489,2.29387884539328,2.29189315790452,2.29412174335577,2.29252718664967,2.29462374601672,2.29385741605439,2.29460669303718,2.29364217896709,2.29535208394738,2.2954137895344,2.2960933267651,2.29652531430971,2.2968000214555,2.29690278005652,2.29607082169349,2.29779546905644,2.29655950001703,2.29888030348537,2.29756666866073,2.2994197655209,2.29785751540119,2.29974226473534,2.29916640912749,2.30076493004248,2.30006652716055,2.30297661659152,2.30324321080637,2.30433239941829,2.30591915559013,2.30591828377847
2.23297704024777,2.23416679270699,2.23407584733881,2.23538476475426,2.23580515776396,2.23647401330287,2.23666213974689,2.23720155910946,2.23765231084488,2.23796231334967,2.2385096890981,2.23886485887852,2.23940514606652,2.23977377665004,2.24096486262593,2.24146356258411,2.24226659496086,2.24199679530527,2.24292397601278,2.24284453977627,2.24423786656809,2.24368641938454,2.24475360684722,2.24470757427203,2.24599046459744,2.24628500175169,2.24721471018348,2.24733455506776,2.24809621398842,2.24806057349528,2.24858492137858,2.24915723934743,2.24965857987787,2.25005814416867,2.25038880126776,2.25118143928688,2.25142460113995,2.25203938169346,2.25199507620444,2.25314349065497,2.25346367898294,2.25467928956677,2.25444404896518,2.25516057244856,2.25524405857262,2.25614540160031,2.2564303271988,2.2575448320361,2.25791601357848,2.25836302248811,2.25881352780209,2.25925058873851,2.25990711667496,2.26047308118688,2.2612446974469,2.26141182805962,2.26244123442746,2.26249002851285,2.26342524237548,2.26373441216834,2.26491071883386,2.26519915198087,2.26627264000301,2.26678222138391,2.26769856495586,2.26846565024887,2.26918504622798,2.27027278789992,2.27089706050762,2.27203873016305,2.27310074849294,2.27442040457166,2.27534895349104,2.27655130088663,2.27766156502081,2.27988934723722,2.28204588147206,2.28337827489822,2.31184895224365,2.3266773741215,2.35561102774033,2.354966531289,2.35729605087058,2.36013519523744,2.36148769398217,2.36237870700578,2.36258506894307,2.36271263792458,2.36314652231339,2.36381886682319,2.36461765224484,2.36544796249984,2.36615150392167,2.36657060238176,2.36636419003936,2.36598245316323,2.36643493118399,2.36708954891397,2.36847914157305,2.36806552563028,2.36841761679778,2.36873117591049,2.3696336527274,2.36995613874085,2.3701079629793,2.3699334083661,2.37021755276339,2.37027569300122,2.37053035944952,2.37035961625469,2.36899090438419,2.36798810701979,2.36856058736208,2.3689492119333,2.37004101503491,2.28815702050058,2.28912096197708,2.28975747667362,2.29008454627472,2.2888588618195,2.28859503045494,2.28765108566199,2.28795020997454,2.28754695633745,2.28829733727907,2.28783398598854,2.28838849332901,2.28807788804443,2.2887718250239,2.28869099879035,2.28922741677745,2.28928774573902,2.28950977092853,2.28959640500471,2.29006504090149,2.29016453733872,2.29025099998214,2.29058703378305,2.29061571527255,2.29109641895292,2.29083323275899,2.29164378451932,2.29139376581881,2.29228827034083,2.29174039114891,2.29285773882544,2.29211579031389,2.29314323040703,2.29242285264518,2.29363598063672,2.2930083929188,2.29426273492983,2.29351365892775,2.29445488579454,2.29436909014332,2.29548343027437,2.2955863132126,2.29602592288344,2.29634206706779,2.29637117802638,2.29684351451985,2.29678327341851,2.29767403992051,2.29796057824562,2.29932303913236,2.29861834096118,2.29950035288426,2.29893718337938,2.30034991777241,2.30054730509923,2.30177594832124,2.30272718986203,2.30377625065862,2.3052230649339,2.30647481735761,2.30651632276144
2.23498262476585,2.23259495552331,2.23548432080052,2.23424102403227,2.23757036446056,2.23563986455168,2.23731344443541,2.23647782270567,2.23800680098737,2.23761206460539,2.23859697093787,2.23910214294965,2.23900429485003,2.24025360947419,2.24008122324457,2.24178549520614,2.24084621615945,2.24293917212763,2.24120301995036,2.24408427119376,2.24315126301414,2.24509387133406,2.24338359868358,2.24586575292936,2.2450774908486,2.24715339719079,2.24639545665766,2.24788867327884,2.24832834986617,2.24804068533543,2.24811840657714,2.24860532412318,2.24983623224435,2.24920283735364,2.25077758876856,2.25068123924021,2.25250606551471,2.25162341117338,2.25261365388907,2.25249755847174,2.25435982326447,2.2547442796729,2.25511577715122,2.25419227685308,2.2559787238227,2.25543126549562,2.25692658024801,2.25717736948654,2.25857325926046,2.25802397566454,2.25873012496854,2.25889085662392,2.25932861932619,2.26123733665886,2.26092118995488,2.26213784575199,2.26234959528479,2.2633828760671,2.26248270552511,2.26458309119675,2.26465951761871,2.26631652062903,2.26628290279514,2.26791964803968,2.26823741950929,2.26893325433796,2.27003907585602,2.27057165229254,2.27185539438862,2.27232875955077,2.27441480671788,2.27474383581504,2.2762515610552,2.27692444681372,2.27835618786074,2.28168910076815,2.34836348267707,2.28414090705889,2.35699679374432,2.3583019336473,2.35860536377839,2.35864795704383,2.3604328550117,2.36071254831046,2.36151057243619,2.36213045946283,2.36275567092434,2.36262304475508,2.36317104624692,2.36375837489192,2.36451159207837,2.36525338603377,2.36596126780965,2.36698701432128,2.36511616787535,2.36470723132203,2.36507915544995,2.36646749423614,2.36936966044166,2.36722341886152,2.36627571662777,2.36700640178301,2.36791775638881,2.36878758099152,2.36808331330698,2.36836727731736,2.36822651544914,2.36869735264675,2.36876533966553,2.36924885738627,2.36766384900697,2.3680229825875,2.36739007569132,2.36695770077888,2.36611901657361,2.28915064849539,2.28869385038612,2.28917168388477,2.28845539021077,2.28833733135054,2.28790927475864,2.28813468598428,2.28685574336599,2.28831151418527,2.28739960257982,2.28825268436882,2.28745491278466,2.28823407860627,2.28774159318325,2.28865575124785,2.28860268526272,2.28978402088261,2.2891918212914,2.28929708736008,2.29010623007955,2.29005583357337,2.29031579249227,2.290085215767,2.29082978060062,2.29022580114034,2.29116662629227,2.29035899781153,2.29193847245266,2.2908575069478,2.29286815228115,2.29142829679522,2.29352865785254,2.29118717326338,2.29382584016583,2.29170807692276,2.29414215027902,2.29237345277565,2.29453311728739,2.29304100498778,2.2947804470307,2.29466584371752,2.29582203503338,2.29527102798389,2.29566969560886,2.29652201597908,2.29625849235135,2.29722563172386,2.29636813019948,2.29932171911939,2.29933540135458,2.3001374652604,2.29864209397112,2.30003856157537,2.29947580366895,2.30232927579853,2.30114680703797,2.30336354058872,2.3003587206278,2.30576538860456,2.30549244232029,2.30672181735851
2.23220173524883,2.23424513929696,2.2335031040216,2.23526105904283,2.2348315877643,2.23603648240825,2.23580618221968,2.23703346445429,2.23694127583384,2.23773891678162,2.23791112412449,2.23851942789573,2.23884000365731,2.23938146404713,2.24043320722691,2.24051117194679,2.2413401821385,2.24114524070408,2.24241518398931,2.24224952391009,2.24373946875117,2.24328343595982,2.24448199007128,2.24434189551313,2.24585869452558,2.24587602667613,2.24645885092686,2.24644649443499,2.24747407944861,2.2472992007367,2.24782446057298,2.24824582156055,2.24897086774396,2.24941900847638,2.24988825324378,2.25079536592986,2.25109671749524,2.25176852828737,2.25170900943956,2.25262555242813,2.25288200260833,2.2540587715246,2.25391296612187,2.25479897113692,2.254912605982,2.25592869452265,2.2562422831254,2.25721027227703,2.25740736468507,2.25802676341564,2.25837956971337,2.25886486162289,2.25952754624142,2.26023214858174,2.261088652581,2.26145713964912,2.26242788504241,2.26259497799717,2.26361310941229,2.26407882496199,2.26539446409987,2.26583571392401,2.2670714533213,2.26795647496168,2.26911858085305,2.27011476348781,2.27103865056643,2.27202390957043,2.27252034951461,2.2733241081481,2.27486118103861,2.27671874878469,2.2789973234752,2.28048336027225,2.30969735384749,2.32467966059897,2.35052812631102,2.35372529837944,2.35686822139966,2.35860879109599,2.35918004508731,2.35974669201397,2.36038085770287,2.36080040829618,2.36120091266668,2.361668511815,2.36206389721994,2.36235618431582,2.36289976626855,2.36348920808656,2.36410597438552,2.36464336991062,2.36507158509148,2.36523445322654,2.36500482845769,2.3648001768852,2.36540918061349,2.3658287017074,2.36698626340025,2.36646436864203,2.36658416426917,2.36674224187779,2.36736148320354,2.3676928986979,2.36829873008384,2.36794778587359,2.36783415821045,2.36788002901854,2.36803013325287,2.36797164293766,2.36729306244157,2.36729060418018,2.36770013298237,2.36841193713228,2.32785461036579,2.28824798173175,2.28886583846504,2.28932206059665,2.28912045238895,2.28815115950766,2.28786485820524,2.28747863730741,2.28761544841394,2.287673689344,2.28795134761798,2.28766697465922,2.28781576177533,2.28767418676091,2.28808916276635,2.28819954970337,2.2886102891963,2.28876262596154,2.28890834202773,2.28918715055128,2.28947461709954,2.2898540149915,2.28970877129246,2.29019510945249,2.28993131118345,2.29049647440016,2.29023727415631,2.29118407001359,2.29073033505693,2.29175942664761,2.29122784102336,2.29237217529057,2.29164854342916,2.29265923726157,2.29191154726695,2.29305826049119,2.29244359100902,2.2936639840662,2.29305621772929,2.29429569598646,2.29401440206554,2.29532629209896,2.29481853011257,2.29546081502265,2.29544431987796,2.2959533148892,2.29632938424483,2.29633465175159,2.29717087496691,2.29761366690512,2.2993398110768,2.29900890913163,2.30045176441291,2.29964307942723,2.30103453170421,2.30164135094254,2.30287482647404,2.30370304035694,2.30365622192955,2.30482953719153,2.30465034793959,2.33611329527117
2.23474714654229,2.23226132408082,2.23632379348063,2.2330779134743,2.23663573574769,2.23358978471106,2.23784486960019,2.23583320974998,2.23862464551062,2.23693501063271,2.23874731198405,2.23841179850378,2.23866983999522,2.23982162831091,2.24047401781584,2.24165740215374,2.24031557817346,2.24217257528072,2.24150433256088,2.24382995906692,2.24219189498856,2.2450415736313,2.24300120504417,2.24588111309715,2.24485925177382,2.24794972643041,2.24465684163127,2.24700181884865,2.24637685245281,2.24780933868538,2.24740136914766,2.24827729381938,2.24929685898866,2.2492159883258,2.25030856247019,2.25038618813674,2.25161832509898,2.25104635010006,2.25251647761587,2.25147723435676,2.25341154982833,2.25258668770252,2.25469506708564,2.25408655974643,2.25587570459074,2.2552094742935,2.25751284343061,2.25650549865089,2.25779572700821,2.25755179258798,2.25896549209984,2.25895282291931,2.25977152792868,2.26034137063573,2.26100727378828,2.26211249625253,2.2620158710247,2.26328608031793,2.26367442899874,2.26523286918114,2.26524258123965,2.26666461285222,2.26670728856759,2.26873829926855,2.26946730708979,2.27066826797418,2.27146389000938,2.27198668017777,2.27310524800488,2.27321477511049,2.27621534930907,2.27738153918135,2.35550874451901,2.28139179119285,2.35585596302473,2.35505716515528,2.35647030650617,2.35626972878535,2.35823050929506,2.35819987250328,2.35902252712006,2.35975302525582,2.35994685670163,2.36003919537756,2.36024675792206,2.36078126281727,2.36096393285231,2.36122627626099,2.36178092149554,2.3623031522863,2.36267657240735,2.36328542819954,2.36321924732911,2.36322579316877,2.36349207416163,2.36364806890241,2.36434776809678,2.36424587282754,2.36450872037957,2.36496181435993,2.36500678652793,2.36576767041038,2.365368102789,2.36582422736217,2.3680607343805,2.36654120206188,2.36592380810698,2.36578369638462,2.36620295365657,2.36709207835505,2.36711895070582,2.36776011193949,2.36762725574836,2.36815505437209,2.28933502753776,2.28839350625731,2.2882045088736,2.28831878591106,2.28821438893518,2.28750423698852,2.28720492925259,2.28767277584621,2.28763640455078,2.28804679226655,2.28809703889934,2.28774989193801,2.28753068083381,2.28750417766793,2.28795318059728,2.28812163302509,2.28846498246165,2.28799732705206,2.28860913788541,2.28874241243885,2.28941377842512,2.2892349562613,2.28975646913899,2.28948330980182,2.29026302313015,2.2892510293414,2.29101374286447,2.29020261194471,2.29174533704665,2.29026695869875,2.29220980577103,2.29070431813323,2.29270094330447,2.2910891777665,2.29296040815374,2.29126228901728,2.29375762302967,2.29203421269983,2.29427581683626,2.29281344911743,2.29548077013783,2.29449894096734,2.29527513826589,2.29445452810426,2.29564057164565,2.29540225516788,2.2958814054308,2.29621825521784,2.29583148439054,2.29768370401784,2.29782691499058,2.30007505703595,2.30078462477975,2.30068908483406,2.29988546213588,2.30169544024334,2.30120307532098,2.30366186960023,2.30283446329621,2.30637215394016,2.30583979951774,2.39178252573032
2.2322200258098,2.23429449789637,2.23320516340045,2.23499580866093,2.23396286307785,2.23567469560623,2.23532201568587,2.23693144976602,2.23653417152356,2.23757222199084,2.23746255731824,2.23821616825224,2.23843513709966,2.23892069842744,2.23982299053372,2.23988146390624,2.24075089507271,2.24060238992614,2.2419999358596,2.24170169283879,2.24309455867779,2.24286358404621,2.24413645115662,2.2437761063097,2.24539439547743,2.24507946917311,2.24590616837153,2.24554775082034,2.24666932858708,2.24641963114568,2.24726848941985,2.24748525677355,2.2484222148457,2.24887201424245,2.24949589669926,2.25039675063714,2.25064956119857,2.25122072567359,2.25111104168948,2.25200570391641,2.25200127936406,2.25315762870572,2.25332189290595,2.25447096337458,2.25456004715658,2.25571442030368,2.25610641038172,2.25694185407663,2.25706681734641,2.2579901014856,2.25853366448482,2.25907351728104,2.25970294222705,2.26034488905364,2.26125011333233,2.26190428303159,2.26289976251894,2.26365283405034,2.26522581660271,2.26614935380633,2.26712872844913,2.26755461252164,2.2686166448793,2.2693573183842,2.27036012115355,2.27114279150801,2.27217317928243,2.27284508852453,2.27305517118467,2.29931909929735,2.31254409937771,2.32808266468271,2.35453096663667,2.35483098672814,2.35551633542025,2.35589433813468,2.35600265674566,2.35688729152135,2.35752611302463,2.35836502305347,2.35894107401877,2.35950403341096,2.35969446066193,2.35999927352759,2.36033169351582,2.36067509381868,2.36098448445327,2.36125208405512,2.36159861345048,2.36187257821768,2.36240691178663,2.3628191751513,2.3627827312798,2.36255695792909,2.36296505367678,2.36325416856393,2.36380905017412,2.36386277093295,2.3643593153558,2.36451809032637,2.36471758563919,2.36486272874765,2.36497519538859,2.36532002797069,2.36611277810137,2.36589280234883,2.36562843623192,2.36577947067645,2.36591457894881,2.36649523285305,2.36601997354116,2.36693036473796,2.36749554775161,2.36787007413855,2.28732049882096,2.28797926055391,2.2888653178618,2.28907359844576,2.28841624161613,2.28766604482785,2.28705364244188,2.2871487197391,2.28712540884205,2.28751098365686,2.28759448991829,2.28762169652409,2.28742220805549,2.28765308107391,2.28773761317241,2.28813524909731,2.28803380350174,2.28841863472423,2.28826114504989,2.28891564153142,2.28878749432273,2.2893280661494,2.28911442450401,2.28981466279795,2.28956492576605,2.29011719098462,2.28978530910628,2.29074794371146,2.29049257124748,2.29145530201643,2.29081738851773,2.29160171127337,2.29123521877673,2.29220266123636,2.29174300162621,2.29262496168201,2.29223572124803,2.29327934987538,2.29280196999371,2.29392764545618,2.29359457827336,2.29470649539444,2.29413442668341,2.29492247175278,2.29494006404478,2.29555268265579,2.29585934519747,2.29588768213707,2.29656941191461,2.29665977889884,2.29825387481559,2.29849730797567,2.30069328035924,2.30037242001575,2.30163452891688,2.30161856481209,2.30237571836221,2.3023717706564,2.30201341897987,2.33741595736748,2.3577331603346,2.39358950330277
2.23575147771767,2.23194759231784,2.23584783523807,2.23278360280208,2.23640698612663,2.23379859184658,2.2375583804629,2.23535823354947,2.23807748417763,2.23659153369666,2.23821831335995,2.2380165765336,2.23857469855543,2.23914502699482,2.23875543443598,2.24050246910743,2.23948745542288,2.24196622097726,2.24036842606165,2.24328296853229,2.2410731616736,2.24503493546742,2.24213010765897,2.24546681526091,2.24334334014175,2.2463763732423,2.24444561346613,2.24718354083263,2.24538423532908,2.24743267942047,2.24601066168895,2.24814229644153,2.24756103332516,2.24912814825651,2.24923130249499,2.25050068204981,2.25146757501317,2.25035336545453,2.2518240074738,2.25093352951556,2.25306807715677,2.25204295989952,2.25461129879656,2.25350460585193,2.25548831505106,2.2550247492887,2.25702173931738,2.2566512325252,2.25758642603496,2.25798274913749,2.25932731702817,2.25904424631596,2.25995185248575,2.26079723455492,2.26113073709526,2.26260252807402,2.26272666658983,2.2647602181545,2.26573341034428,2.26838685924736,2.26731481727428,2.26826921054028,2.26862606854332,2.26985418594281,2.27097146975706,2.2713775129885,2.27361058669138,2.27469795921892,2.27551084873231,2.35466350346335,2.35509921960027,2.35455782105078,2.35481018047363,2.35603546243709,2.35579434859689,2.3558528112182,2.35647932637553,2.35663041229222,2.35759302977361,2.35775741012963,2.35890091389779,2.35859832004478,2.35873697121685,2.35895981294364,2.35951156172318,2.35976596870434,2.35998466448787,2.36035799900654,2.36041173748274,2.36036611045921,2.36127649814036,2.36212732254271,2.361617099351,2.36069694927436,2.36147460793398,2.36204728988711,2.3623396029813,2.36259397397078,2.36291676628472,2.36377070475422,2.36290567758161,2.36362722536439,2.3630401048214,2.36367403801041,2.36426076701476,2.36414453125966,2.36399168488533,2.36427579561734,2.36462996890298,2.36720905846025,2.36519254013424,2.36767902778781,2.36562645937857,2.36298580286426,2.28882725699422,2.2882207806089,2.28851668131338,2.28795088390692,2.28778794854425,2.28720481771866,2.28697936112297,2.2866256952766,2.28692575226683,2.28685905416652,2.28784401151317,2.28716404359441,2.28760292192786,2.28727671152991,2.28800794428995,2.28781489020173,2.28815377805843,2.28828540337737,2.28848045115008,2.28841784857659,2.28919722087956,2.28833518483168,2.28959349004578,2.2889089261408,2.2905034703055,2.28935225334302,2.29010167529061,2.28967411995336,2.29114957387265,2.29114778874819,2.29130310776277,2.29033355629462,2.29189627566391,2.29118283977326,2.29286201831744,2.29145360174713,2.29319940970111,2.29205395070855,2.29378523715972,2.29249401880128,2.29413042537482,2.29304081433206,2.29468922242334,2.29376319300783,2.29515923794967,2.29535559304951,2.29565984986861,2.29621725706563,2.29565743748144,2.29725246533208,2.2966494283094,2.29873250189865,2.29875440786965,2.3005735293899,2.30008171721346,2.30102408244307,2.30228976032141,2.30324718460376,2.30388773416847,2.38814462115526,2.38913334134189,2.39023297808132
2.2322221570369,2.23401065980719,2.23309171953756,2.23473501051762,2.23415965140814,2.23569943767823,2.23535380398597,2.23645114427139,2.23629906147045,2.23718638537349,2.23725423189174,2.23784491892581,2.23826073845273,2.23845942690447,2.23940399668446,2.23922390552008,2.24021955358117,2.24016213371258,2.24139729555912,2.2410205802535,2.2425371000358,2.24239150652479,2.2437473711366,2.24332247627172,2.24467646639173,2.24407994308629,2.24544526364855,2.24492755018611,2.2461006925085,2.24554753843637,2.24676544941363,2.24679271330089,2.24797960954052,2.2481886348899,2.24902796215357,2.24976533566308,2.25027071348326,2.25085152654234,2.25074295511053,2.25184326697413,2.25174529280673,2.25300291837304,2.25308975249117,2.25428563960727,2.25453469122119,2.25576307536553,2.25631251127599,2.25715597313745,2.25750543175687,2.25833752132945,2.25900966401146,2.25973242947816,2.26056169632916,2.2614248220604,2.26245607143077,2.2631003762175,2.26416856087918,2.26508057442913,2.26602497485512,2.26707464238152,2.26817791864715,2.26911934217598,2.26960843818222,2.26994695285969,2.29054111618493,2.29852617064769,2.31260382338553,2.32659988313656,2.33414376962744,2.35538345409658,2.35514899936036,2.35478277108785,2.35455548765116,2.35517528804898,2.35549785962634,2.35653380591935,2.35694945489489,2.35782553030268,2.35768369208004,2.3580230286486,2.35832644083968,2.35844772370301,2.35857509436696,2.35905770912618,2.35981350938892,2.35966689968462,2.35942218375923,2.3594745611611,2.35974394500946,2.35984171790771,2.36014136908,2.36044628848871,2.35995097163343,2.35988252834887,2.36123836365971,2.36166253815505,2.36234542582394,2.36313884403274,2.36299011875248,2.36287673150096,2.36296774852404,2.36306421014797,2.36313875981327,2.36351013933062,2.36401130822745,2.36370304675038,2.36354638610908,2.36376714041257,2.36360238048401,2.36398713906372,2.36327268696075,2.36432415826339,2.36472308784987,2.32616691889564,2.2880233939804,2.28875911195807,2.28924144633662,2.2888147169428,2.28778534289803,2.28727542044174,2.28679866322571,2.28688486399579,2.28665997278145,2.28690113829098,2.28681560563599,2.28717536404664,2.28701794355912,2.28737400520108,2.28726038274702,2.28785108665932,2.28762303410637,2.2881881003454,2.28783524375937,2.28851418437675,2.28839062978097,2.2888953995961,2.28878499745864,2.28934777969099,2.28931874200614,2.2896585833718,2.28942435302177,2.29001225213303,2.29010724478126,2.2907457393955,2.2905085751196,2.29087855292035,2.29086555347233,2.29153070889272,2.29158140168669,2.29217309483698,2.29205079451008,2.29283432741312,2.29264910453902,2.29355537976936,2.29311844878693,2.29395200535155,2.29357817088703,2.2943229322268,2.29446329810176,2.2953146156978,2.29568766935792,2.29586023627843,2.29651110800342,2.29672082563744,2.29821888329364,2.29882508316054,2.30068457736445,2.30062464068685,2.30085140214963,2.30012627657035,2.32994382311404,2.34510687761177,2.360181847398,2.39009015359139,2.38992064471231,2.39010917427963
2.23405427985471,2.23256221893517,2.2350187849688,2.23329920077376,2.23630555616008,2.23476359179837,2.23716189743685,2.23534138229857,2.237407367008,2.23692126252764,2.23771166921891,2.23821066949651,2.2380364277048,2.23930703649771,2.23929706215709,2.24057315373107,2.23882577317221,2.24193421448963,2.23995886763396,2.24241396271378,2.24104311082017,2.24416384947629,2.24232478895871,2.24539515122768,2.24319434192821,2.24567683306486,2.2437665270009,2.24652243958335,2.24435855439132,2.24685005474518,2.2452457923039,2.24822780718732,2.24714529609109,2.24899849522021,2.24850794889757,2.24965280047981,2.25072607628823,2.25047689418439,2.25190602754232,2.25109902014856,2.25320778645781,2.25207802654501,2.25428020266771,2.25353192934229,2.25544528901658,2.25548345102004,2.25693740241195,2.25704030441776,2.25763732079179,2.25829649210374,2.25881024593331,2.25997898583771,2.26049053180285,2.26160473241415,2.26289008320962,2.2633377852761,2.26423615065377,2.26616976893681,2.26587018821051,2.26738254100889,2.26884645017479,2.27141793381091,2.27098368127728,2.27255428715282,2.35286005122966,2.35134982165478,2.35130665975691,2.35146706778116,2.3520013515011,2.35336094267287,2.3540773406046,2.35461187676801,2.35489325241807,2.35500216140407,2.35569535097085,2.35692906147754,2.35736151436904,2.35858643329862,2.35726340114823,2.35690734530239,2.35752190741391,2.35701892666063,2.35739536329436,2.35790393462235,2.36012169284779,2.35883573558684,2.35749276092973,2.35759940115782,2.35820517331557,2.35836649693254,2.35802632709243,2.3587802084363,2.35693696280286,2.35639289441012,2.36144676345893,2.36028760342054,2.36105006558285,2.36410379222745,2.36169824767175,2.36150760346698,2.36167987407851,2.36207307392217,2.36182008611993,2.36231306227278,2.36394110449401,2.36162348328665,2.36225625909857,2.36196468569152,2.36238183850224,2.3622193702995,2.36107093559746,2.36213325200845,2.36159846371114,2.2890701047776,2.28785567252339,2.28808625789637,2.28880538907283,2.28788553675174,2.28739115024049,2.28689328915694,2.28729635344133,2.28680582497989,2.28712713148119,2.2861845603384,2.28668078343489,2.28640846516824,2.28740929279546,2.28655311210652,2.2874038854422,2.28720153968339,2.28797217283174,2.28734153455413,2.28794419323341,2.28766088957164,2.28881277285648,2.2883161122437,2.28909827504265,2.28870569341893,2.28944165332831,2.28903746735669,2.28946797217135,2.28951107473838,2.28992890670403,2.28994722568724,2.2904841018245,2.29040343260343,2.29072937940165,2.29076678389177,2.29171369281777,2.29143620351489,2.29239556512675,2.29193766577824,2.29324768423525,2.29295824673254,2.2938370356785,2.293116466747,2.29390531293029,2.29327550344126,2.29443010635241,2.29500732052279,2.29573252717098,2.29619602295635,2.29621651809453,2.29755129626911,2.29741153377187,2.29940030963704,2.29923854757921,2.30090354161749,2.30050688281245,2.30113674094329,2.38570353247427,2.38827942384153,2.38759743170217,2.38834324873033,2.3888705525977,2.38938012445505
2.23180869684612,2.23328535859082,2.2330302998401,2.23393879053264,2.23408465042888,2.23512579294125,2.23545933930038,2.2359956822265,2.2364731889875,2.23682978081056,2.23738557316827,2.23742764231904,2.23836137680913,2.23826616080031,2.23945521086751,2.239055051238,2.24003173007848,2.23995406401493,2.24099846693334,2.24061477338168,2.24184364356205,2.24164504013449,2.24290519964545,2.24281313294789,2.24386862052589,2.24362824929191,2.24459389197464,2.24421721832478,2.24555290202285,2.2451569514319,2.24649655676664,2.24651138246539,2.24789423641628,2.24779617008001,2.24884950547157,2.24919295566135,2.24997930355918,2.25079966871411,2.25101043907553,2.25218812103947,2.25213665465375,2.25340621456622,2.25376344312124,2.25504455312146,2.25579722984894,2.25726343438669,2.2577598059063,2.25810470229142,2.2585219047915,2.25890350094971,2.25913296052356,2.25987114853136,2.26078675579206,2.26176359923823,2.26316995986855,2.26481196263238,2.26739000624552,2.26917757827625,2.28829095415362,2.29686450656936,2.30743231005479,2.31789685281141,2.32891117165693,2.33572315231836,2.35382696516107,2.35305586555251,2.35269403113341,2.35272237536714,2.35336287855124,2.35392019593264,2.35424281986143,2.35474387617489,2.3548356269643,2.3553826466288,2.35562121236747,2.35643596945746,2.35671091359107,2.3574423620188,2.3568769195501,2.35680505620135,2.35674279807708,2.35686958143119,2.3569688823502,2.35739316565903,2.35807323985409,2.35787876741627,2.35734804987674,2.35734252755225,2.35762784781685,2.35769788008604,2.35768731439247,2.35763798048907,2.35689883075715,2.35710066630296,2.35879374844911,2.35964476191432,2.36037322210105,2.36121597704816,2.36102744265837,2.36081969864536,2.36120037588056,2.36146321571267,2.36153171538688,2.36176969321365,2.36206573934949,2.36180312231214,2.36164682684144,2.3615645745715,2.3607647294676,2.36019972952973,2.35997082272029,2.36122107314197,2.36209306747431,2.28688538531884,2.28757801647256,2.28890366985647,2.28928955212625,2.28882939896407,2.28739978036631,2.28678098525314,2.2865510365798,2.28662976375194,2.28636419670827,2.28649497877045,2.28631071069911,2.28686692248129,2.28681255624387,2.28691802752529,2.28673117519165,2.28716174699055,2.287127373921,2.28748086516725,2.28738099024554,2.28788572808795,2.28795027453527,2.28834733498947,2.28833817675449,2.28872799870974,2.28891208217409,2.28913291974947,2.28926360383222,2.2895090815413,2.28972097884049,2.28991927951181,2.29021634839683,2.29047253251306,2.29064508661935,2.29088852461991,2.29121527362481,2.29178259291459,2.29207511612538,2.29249871108485,2.29257835101136,2.29319273097732,2.29300082898316,2.29354105804057,2.29333899156302,2.29395716002859,2.29418344192769,2.29495176992378,2.29555902362661,2.29615162962755,2.29717516607489,2.29783059570127,2.29911886719774,2.29974609173402,2.30042803656388,2.29993079508728,2.29976072895959,2.34185044821838,2.38749057511687,2.38761950367726,2.38708401651683,2.38732343667191,2.38825508228629,2.38904427190007
2.23275351319087,2.23274971905766,2.23373225671866,2.23323464258205,2.2339412423535,2.23501526466683,2.2355352996346,2.2366564492842,2.23633900885055,2.23789377545042,2.23673391474041,2.23854105740465,2.23753524890521,2.23980217208509,2.23819821306294,2.24054489519548,2.23899686615109,2.24133691569542,2.2401758237692,2.24164135286403,2.24085332559464,2.24209334023707,2.24164520798343,2.24356836969907,2.24252385944401,2.24505338056603,2.24310088863208,2.2452529658464,2.24440265277308,2.24707595227549,2.24497142925392,2.24837166859089,2.2468579354163,2.24886826889154,2.24850482376876,2.24937621293859,2.25024025672007,2.25042640143074,2.25196967883493,2.25158464753161,2.25302335240996,2.25254800925046,2.25477196061731,2.25440338842182,2.25605997588229,2.25747673002447,2.25726518157464,2.25696850295141,2.25817860694013,2.25959810461016,2.25959689985418,2.26081133394142,2.26206296041333,2.26307868036357,2.26403094463828,2.26541721701786,2.35231232737694,2.26994001733338,2.35338583919076,2.35324679870839,2.3538579366839,2.35424359096858,2.35322754344378,2.35280807582981,2.3528661051411,2.35312113937681,2.35269400638223,2.3528732411186,2.35417772912651,2.35435851507076,2.35457841417211,2.35491689940182,2.35467867177017,2.35469786308692,2.35494692501797,2.3546535024473,2.3555256675663,2.35583845409519,2.35581824861985,2.35507138437117,2.35540637902075,2.35534283152212,2.35574894909896,2.35552679391353,2.3562836564499,2.35628278310348,2.35585609305625,2.35585813720733,2.35638831308346,2.35620273970977,2.35650404367748,2.35623895277099,2.35508017251954,2.35496171052462,2.35669641163982,2.35838871715806,2.35869905162388,2.3588212598552,2.35927948292862,2.35918466875986,2.3596054342606,2.36055455504109,2.360045149977,2.36025126090384,2.36021974473316,2.36029328494262,2.36067756176298,2.3601640789363,2.35959619813314,2.35810563625547,2.35875176941561,2.35927781224401,2.35985944496062,2.28860839938778,2.28804258762429,2.28771779787687,2.28796779681854,2.28839761233172,2.28708148609608,2.28599926680731,2.28671982972233,2.28610925132339,2.28634018107975,2.28608240129297,2.28643209264207,2.28683018693525,2.28731153149942,2.28654730485022,2.28666767713649,2.28657745638693,2.28708273229635,2.28698972317386,2.2873992853259,2.28747706396889,2.28787362520332,2.28787150915173,2.2880740679193,2.28833184871224,2.28893271853975,2.28902647622344,2.28920525418592,2.28950488643581,2.28955073393539,2.28985233062945,2.28999883383828,2.29054602557964,2.29073383465599,2.29049319761433,2.2910886711635,2.29150995604222,2.29263418409239,2.29207750441606,2.29278418314775,2.2926136750211,2.29309336051389,2.29303693218761,2.29345990832118,2.29368387430072,2.29430283059964,2.29459783910409,2.29554965587434,2.29639229639249,2.29736779574741,2.29805026942409,2.29790763829308,2.2992921197044,2.29956443073346,2.30048617808735,2.30181036855326,2.38090443509113,2.38384191045136,2.38476900148322,2.38551673780823,2.38571482873529,2.38860043627764,2.38829328743299
2.23156751967023,2.2323615306829,2.23255549283703,2.23274619032552,2.23331471110752,2.23389791346823,2.23512642295596,2.23550932473252,2.23678628735867,2.23677588324581,2.23772188924645,2.2371770046442,2.23877985164998,2.23805537468758,2.23911650806939,2.23861565392742,2.23964051205653,2.23969603713608,2.24066359778602,2.24058241744273,2.24125564655307,2.2413299508866,2.24201104916421,2.24238542469992,2.24316713811825,2.24349737829513,2.24418792011215,2.24398247097399,2.24531976492625,2.24525447489916,2.24662272441832,2.24679613256853,2.24805545071983,2.24788964571874,2.24907049666193,2.24927980676856,2.25030208137407,2.25137573680555,2.2519638196119,2.25289108659654,2.25306986702396,2.25403243858836,2.25440976161504,2.25532002260123,2.25614987312734,2.2570907111922,2.25696841039751,2.25748775303579,2.25826563912882,2.28304044803774,2.28907994188407,2.29768509972691,2.30636041833234,2.31648172153624,2.32454052025336,2.33218317669415,2.35145635234024,2.351513648938,2.35273270125933,2.35337644087895,2.3540001883603,2.3541778090321,2.35398126238077,2.35344796254549,2.35324793605076,2.35297851020068,2.35318077996408,2.35333057854475,2.35389928397286,2.35424998495133,2.35436648359977,2.35467917028037,2.3544141286244,2.35466201296805,2.35460151638607,2.35492612821242,2.3549842733409,2.35536840305731,2.35493777854055,2.35487878557894,2.35477662849142,2.3549646389667,2.35499018973708,2.35536915164317,2.35536549954184,2.35554934865344,2.35545709052305,2.35581193643473,2.35589967981908,2.35600529692154,2.35609584796425,2.35629448743887,2.35584269567285,2.35589477760903,2.35677611741884,2.35779920698965,2.35799186140553,2.3581529918384,2.35864629069299,2.35883137142344,2.35917913578572,2.35932630923388,2.35937293896995,2.35942635773413,2.35949437080674,2.3596765589431,2.35984510610162,2.35974640779488,2.35885885793601,2.35801294292044,2.35767347899154,2.35814549641322,2.35905008128674,2.3234179083825,2.28706791694317,2.28778024331563,2.28810942110463,2.28797443636828,2.28685598302793,2.28630755530363,2.28599263995994,2.28615705818161,2.28591637903531,2.2861831996235,2.28614798960234,2.28655384254897,2.28667423959113,2.28656822508179,2.2865405044505,2.28674234852958,2.28716306414346,2.28716132035679,2.28725204031113,2.28755627945522,2.28768042491191,2.28790584320705,2.28787951723237,2.28816438745885,2.28855279493863,2.28890534351904,2.28919718842906,2.2893960796882,2.28950744885745,2.28976003088456,2.28990697890849,2.29023995279159,2.2903941241505,2.2906276342579,2.29095106601429,2.29146747826487,2.29181955007321,2.29215139381932,2.29250615118123,2.29281760025792,2.29305903291941,2.29321994708923,2.29340625574818,2.29381182177273,2.29432594920936,2.29496346721082,2.29589188506522,2.29687699782977,2.29797162911962,2.29901525350559,2.29937796827067,2.29936613470933,2.29934911767006,2.33191138646414,2.35131795273618,2.385043301968,2.38491952290823,2.38441056037827,2.38460275025201,2.38558714544592,2.38727413465692,2.38820801173771
2.23197417270216,2.23241177530063,2.2322769387398,2.23290299832036,2.23240652966535,2.23418972749126,2.23423814227542,2.23685505081722,2.23575089653062,2.23942668715146,2.23613189601819,2.23933898289878,2.23768929503212,2.24021506131504,2.23741583985047,2.23988016986397,2.23833680527204,2.24048978862542,2.24059739035506,2.24105958401952,2.24146649422141,2.24179903766138,2.24210434292068,2.2427062213555,2.24332701584422,2.24409319101226,2.24437999143654,2.2448386157164,2.24470890959707,2.24666874397106,2.2455262218421,2.24863616353819,2.24688149815867,2.2487714546298,2.24843022625979,2.24945606834785,2.24990593450891,2.25117916148726,2.25200242354756,2.25203958872889,2.25376123793035,2.25465524130804,2.25532895260624,2.25617992285592,2.2576423438405,2.25847508867271,2.35393803358698,2.25873159728862,2.26050490870247,2.35144881065195,2.35158347768651,2.3523592515134,2.35415803459932,2.35309820845147,2.35322631388472,2.35303999859925,2.35284721556786,2.35238282637121,2.35220629561478,2.35266814215389,2.35290386253717,2.35329468390045,2.35352475876079,2.35330514283498,2.35315963303696,2.35313878595661,2.35360344474581,2.35368938296152,2.35327226304604,2.35386116553101,2.35351668832712,2.35378636484255,2.35336941185416,2.35309780371188,2.35379134216622,2.35351206476246,2.35419237720001,2.35394442157305,2.35371538686207,2.35306537176531,2.35370595527122,2.35314308686625,2.35364002150277,2.35411181771756,2.35394674909492,2.35368676174531,2.35418611305843,2.3547118710874,2.35490983623088,2.35459034838945,2.35501544304146,2.35580879201456,2.35548792251856,2.35493329193804,2.35611717261857,2.35713814645788,2.3565970128165,2.35642068219611,2.35735906193745,2.35779087077899,2.35778901353034,2.35770218464746,2.3575991855103,2.35781477468501,2.35788694806599,2.35773568409887,2.3585976636305,2.35860167090906,2.35825423292358,2.35813343825779,2.35762901734125,2.35685768610022,2.35711374690913,2.35734080439028,2.28693243201246,2.28686903987808,2.28708976286364,2.28617473505852,2.28637867966563,2.2856892719522,2.28603222415727,2.28583093708315,2.28609239935537,2.28576930206905,2.28627133357327,2.28605761222022,2.28671783657364,2.28640840984701,2.28634857521628,2.28676427857225,2.28778078497457,2.28720002855092,2.28712571916206,2.28759042787352,2.28771300292019,2.28790266450538,2.28770965713567,2.28765592036288,2.28853691466594,2.2886365663133,2.2896042112118,2.28914104683661,2.28967696161401,2.28951781965185,2.29003186242598,2.28979043388455,2.29036873138864,2.29025584534509,2.29097193377629,2.29117855875278,2.29132957370076,2.29190750112181,2.29246954656493,2.29291319797239,2.29317130670989,2.2932699185871,2.29317586229741,2.29383961395995,2.29442211506766,2.29525746184952,2.29605971667528,2.29679675529808,2.29665634817716,2.29904581916353,2.29912735126306,2.30022733972283,2.30113863808166,2.37877685128795,2.37885964577927,2.38553949179516,2.38480456445655,2.38403242547063,2.38415228254342,2.38481803580184,2.38630029122965,2.38676635975423
2.23169354577189,2.23231911084686,2.23264628722435,2.2318166506397,2.23182495075354,2.23212999002736,2.23497419174893,2.235481863569,2.23702579479527,2.23654788867392,2.2380398388591,2.23750352889856,2.23905731975777,2.23780141734911,2.23893849255588,2.23813925265099,2.23923738479138,2.23929983716156,2.24028415808913,2.24034426075845,2.24083775669049,2.24151510044554,2.24198527774054,2.24241759398787,2.24292185340278,2.2431622076692,2.24387828842847,2.24396951436897,2.24535661819409,2.24586388136102,2.24746772271799,2.2477469473717,2.24844813309708,2.24820409114677,2.24877546822566,2.24916798630299,2.25022691300266,2.25158296268917,2.25223258938028,2.25286245763396,2.25339379969741,2.28013638351273,2.28758708577452,2.30059019177636,2.31509955765007,2.32458417992886,2.34834820201305,2.34780010449731,2.35006702870332,2.35271407388138,2.35290567551141,2.35358087224095,2.35422196910315,2.35415255037533,2.35374275125772,2.35310867150328,2.35268538707565,2.35225714051797,2.35233807668152,2.35226039231186,2.35257761448248,2.35275795556212,2.35304721257519,2.3529511726487,2.35303595932803,2.35313637672606,2.35345785356456,2.3536841099409,2.35372973071229,2.35386042899462,2.35383023523997,2.35358773183337,2.35322676401971,2.35328777083462,2.35325092960205,2.3535048149984,2.35347957025819,2.35357800359086,2.35303181781514,2.35319646765994,2.3531948704533,2.35334148011567,2.35343412564381,2.35418007530074,2.35398859411321,2.35394821976187,2.35372676206176,2.35412326352752,2.35421224565397,2.35446691276303,2.35441382772796,2.35484914900847,2.35502205619456,2.35530311455487,2.35548293982484,2.3562008944097,2.35625975982709,2.35646762937089,2.35702592644843,2.35702252348235,2.35748472868902,2.35753291035948,2.35758869301848,2.35772807131885,2.35814016871002,2.35794414674389,2.35810117677605,2.35788760148751,2.35760214493885,2.35683910191064,2.35630350564573,2.35685498058764,2.35881418918582,2.3603551346116,2.28592913332389,2.28674952421359,2.28712347181172,2.28699846507765,2.28636306064551,2.28618839332172,2.28574789981185,2.28584623444302,2.28566675679146,2.28595132971153,2.28593020153407,2.28601892274351,2.28634052939491,2.28625900579989,2.28656150262504,2.28645774646691,2.28697554750926,2.28691569947521,2.28724966874874,2.28727076313462,2.28737771011361,2.28762949642485,2.28748719900943,2.28782078539685,2.2879796749486,2.28861397293888,2.28873353471419,2.28921085101904,2.28915406423802,2.28986018928833,2.28964629669482,2.29010015292839,2.28999279900694,2.29060670739417,2.29075174921085,2.29127968516539,2.29135312031814,2.29177400484387,2.29251898195349,2.29269567649972,2.29331201647429,2.29325543041988,2.29374720407562,2.29391187844498,2.29497101162434,2.29568811030453,2.29701681232698,2.29790555910456,2.29865789538607,2.29948777047014,2.29986040370454,2.33021108190464,2.34872326198645,2.3804914453045,2.38045026837777,2.38231577419644,2.3829659882989,2.38334727443691,2.38413873368436,2.38521693964041,2.38608162022026,2.38650204606404
2.23300937650904,2.23299983854133,2.23447392631027,2.23174620458818,2.23026134079265,2.23016596326504,2.23606847916056,2.23769339237198,2.23573062567507,2.23861233707822,2.23570187872389,2.24135889928232,2.23670311562545,2.24022226830082,2.23716069115087,2.2398267585972,2.23821362120983,2.2401828499656,2.24006874078708,2.2404592500593,2.24044125099972,2.24196138696872,2.24263730437328,2.24268593279937,2.24312829187464,2.24328205786456,2.24339144519295,2.24456118965989,2.24444031006346,2.24687482059457,2.24649815059019,2.24908406846183,2.24811874280229,2.24950648250829,2.24911724966517,2.2504098584609,2.25112139495881,2.25321307112555,2.2536951435282,2.25503522319269,2.25740745225627,2.34928770678895,2.34747915492306,2.34648865696926,2.35305501285204,2.35360223312551,2.35346504820628,2.35209007033083,2.35441680849601,2.35395488501123,2.3515993434462,2.352581658233,2.35316746701057,2.35404614524508,2.35268315119022,2.35228544610142,2.35224569324637,2.35248148638888,2.35295606310483,2.35200526686857,2.35220613061807,2.3519717652368,2.35224227438924,2.35214098002616,2.35204846841323,2.35274721117615,2.3523329758249,2.35336410323357,2.35302542787468,2.35319006707986,2.35377974936061,2.35228713957666,2.35254987474787,2.35192856752015,2.35247610758317,2.3519298953843,2.35265415040292,2.35213823553261,2.35159936586719,2.35197030544852,2.35244130319744,2.35207801408507,2.3524310043129,2.35358169566574,2.35371105055708,2.35272415194231,2.35245350378482,2.35220288195291,2.35309187060729,2.35311876601848,2.35296400031749,2.35278400417985,2.35400708240858,2.35458553802891,2.35376490980555,2.35483401333612,2.35503471301155,2.35525262743741,2.35631407784817,2.35519299105619,2.35639624025055,2.3569101668535,2.35612832374376,2.35686643062884,2.35774681653219,2.3570436202354,2.35660145746638,2.3564092286019,2.3568012836955,2.3569016500881,2.35582248836862,2.35697033171648,2.35829821938589,2.35900451961252,2.28734496284885,2.28736785459729,2.28699015303384,2.28600798497819,2.28623566319418,2.28585990039539,2.28630629243927,2.28523696262549,2.28588010390294,2.28580934725372,2.28596792973442,2.28579398108391,2.28615825974279,2.28641481466901,2.28656319143818,2.28639981217383,2.28620272005396,2.28680160665562,2.28756694577393,2.28694084636917,2.28724000141136,2.2873582537226,2.28751592066725,2.28732832925058,2.2880995726982,2.28782363982675,2.28910921271698,2.28815279146292,2.28978270985647,2.28932593632563,2.29049914050025,2.28932824439109,2.2904077436697,2.29021590073283,2.29103396513723,2.29132924067639,2.29116106835454,2.29161578844525,2.29242032696096,2.29299980090972,2.29275768791952,2.29405767434313,2.29330308257034,2.29461722124905,2.2949773376446,2.29613459519299,2.2965645085739,2.29734591088317,2.29817536246964,2.30005594521558,2.30226007742672,2.37810289264368,2.37890278630378,2.37892521813603,2.37883781727109,2.38035010741923,2.38194209969419,2.38263512780285,2.38333278871452,2.38459913638906,2.38494605366091,2.38456595432113
2.23108227115725,2.23025078140178,2.22984406304832,2.22916389200238,2.22929442645193,2.22926655714968,2.23275284235771,2.23406496012464,2.23614276793933,2.23568472852008,2.23770607672782,2.23701685682932,2.23848533116677,2.23720787197069,2.23870491109737,2.23785830679156,2.23928384178595,2.23909051089917,2.2401479984,2.23994135317802,2.24057339366875,2.24100602484136,2.2417956808202,2.24190280107919,2.24275468157041,2.24311427832584,2.24421575947568,2.24476400801541,2.2465347387389,2.24715220927103,2.24815984927128,2.24826021623783,2.24826131975392,2.27421907372257,2.27877811132785,2.28746248401133,2.29459049363718,2.30616239429379,2.3136261493562,2.32178510612907,2.32634074873328,2.35223919906672,2.35102257600125,2.35042607001372,2.35225908840309,2.35328607185024,2.35307539153062,2.3535463171011,2.35380093798374,2.35349117505821,2.35239129013677,2.35259769948949,2.35318997163449,2.35321151542178,2.35266385381287,2.35227455223733,2.35233041909078,2.35277168691948,2.35234828533718,2.35179523799108,2.35159413861352,2.35172511208201,2.35180835102723,2.35194784147062,2.35191445837053,2.3521704185044,2.3522962552568,2.35291953108053,2.35323027141055,2.35293522447616,2.35240651713932,2.35218958902226,2.35212692803055,2.35203426125007,2.35172093348818,2.35176958578626,2.35171305993968,2.351699885418,2.35137259488962,2.35150986412255,2.35153337307007,2.3518158215234,2.35200780949142,2.35241814901407,2.35250185125501,2.35258739751903,2.35237191611918,2.35222193513443,2.35208094596985,2.35233481307692,2.35231892396965,2.35280441931147,2.3536940306249,2.3540341780215,2.35383692808202,2.35422335907084,2.35452199837749,2.35497272831618,2.35528492468813,2.35517713397389,2.35574989960305,2.35590087412908,2.35608076026523,2.35632367826134,2.35673557288701,2.35602094590474,2.35595966138554,2.35547817818926,2.35556848225637,2.35521834809307,2.35528435382848,2.35535086931103,2.33058309940806,2.31425971649593,2.28753273746942,2.28781976356391,2.2876006990202,2.28703106535286,2.28601826986853,2.28586354034247,2.28541571841346,2.285418719437,2.28526535841141,2.28567656639374,2.28590185709606,2.28641923809665,2.28632082518655,2.28590403257514,2.28615308331273,2.28595857660989,2.28624487076178,2.28634495589006,2.28671396453666,2.2868565062964,2.28681016490462,2.28718447588053,2.28708214647641,2.28765747939664,2.28745090387221,2.28815890399596,2.28799381443255,2.2888445205808,2.28867462261577,2.28966374039105,2.2892792331488,2.29002592525049,2.28985799123454,2.29064832025976,2.29061527370864,2.29098168464145,2.29121352846929,2.29157468863792,2.2924275362437,2.29258354105054,2.29354771195984,2.29333005024528,2.29403903803623,2.29435265922169,2.2960349793227,2.296870690743,2.29798880019126,2.29817977571006,2.29835076967977,2.29812293157082,2.33952817395683,2.38023974684794,2.37977886274907,2.37923187060309,2.37939779140747,2.38046858763933,2.38179972488255,2.38288314856596,2.38361640999035,2.38408397042004,2.3844690241476,2.38457289399857
2.23237672940221,2.2240625647607,2.22256887714881,2.22337038430178,2.2213483346181,2.22905249382819,2.22937974354613,2.23478578569286,2.23388913536559,2.23793413483617,2.2353171646601,2.23916721282676,2.2356262536863,2.23953607561093,2.23642558046569,2.23997625184195,2.23788697396395,2.2410053403082,2.23933125152141,2.24127991998906,2.2398957946755,2.24167900947719,2.24104960716348,2.24243053784661,2.2422286407964,2.24472268819605,2.24391205280414,2.24568180899502,2.24591949521537,2.24796716951285,2.24786606460319,2.25051584677269,2.25111403069399,2.34685905589324,2.34837027222831,2.34958122102999,2.35095968351825,2.351653258243,2.35193993016376,2.35281005768214,2.35214714457267,2.35219137291628,2.35178150626915,2.35064875708578,2.35111864912629,2.35164134709267,2.35223757366958,2.35255944498874,2.35352308245199,2.35240119131839,2.35168114964684,2.35227401833594,2.35355173426231,2.35289669126114,2.3517756112086,2.35144975895921,2.35145221929571,2.35330435499331,2.35149992760143,2.35008482162762,2.35021125464463,2.35006483561379,2.35079814988456,2.35070374111429,2.35091785278567,2.35089309196875,2.35103185880089,2.35203694518877,2.3533207669036,2.35197909201526,2.35031747273508,2.35066080402107,2.3516769082829,2.35083293452055,2.35067443299369,2.35016463743742,2.35062712009619,2.35018545697959,2.3503524559342,2.3499574405688,2.34990972076346,2.3504428910991,2.35089899008913,2.35024843530338,2.35093979399779,2.35131853634742,2.35199127008576,2.3507831723569,2.35038432764394,2.35044420886196,2.3507254578586,2.3512188226367,2.35336525838448,2.35295778683647,2.35265624711253,2.35268988260112,2.35311273382246,2.35396670645302,2.35383043373932,2.35385305556238,2.35438505035652,2.35441169008262,2.35449950346256,2.35531324357518,2.35519620277477,2.35411215931818,2.35392996027708,2.3542318413083,2.35405168662456,2.35490309882128,2.35496941572102,2.35401209982549,2.28778933788591,2.28803875861452,2.28764208752166,2.28705303971215,2.28765535488354,2.28647053964022,2.28587147745545,2.28512979547747,2.28557525777705,2.28477343368166,2.28509508042122,2.28518285969976,2.28583016882169,2.28794117450939,2.28638610678934,2.28565250546731,2.2854314728953,2.28600652508428,2.2859202500316,2.28607899610611,2.28614378558056,2.28670898219548,2.28672519416338,2.28653141715937,2.28741185004725,2.28710901140772,2.2880426587521,2.28702634291766,2.28865907403651,2.28772228205895,2.28946945127932,2.28848999663922,2.28970102296485,2.28925616364551,2.29031898022766,2.2904719835398,2.29066207599647,2.29053179940356,2.29077744408647,2.29201783730736,2.29160655454861,2.29335533512363,2.29326326720718,2.29436186742454,2.29292543076197,2.29512478212221,2.29527742698085,2.29726183130528,2.296854362532,2.29818819729663,2.29935881386723,2.29960950229402,2.37801666933013,2.37822764572018,2.37890260353371,2.37897285680857,2.38017248301146,2.38078210789558,2.3814344478402,2.38237815357565,2.38257135374123,2.38233912453476,2.38284094870987,2.38315246957188
2.22779527618507,2.22322843197665,2.22169494146515,2.22155673401845,2.22273679037737,2.22471964726633,2.22724990545658,2.23282696304551,2.23485721167996,2.23495589866761,2.23708582999551,2.23611531688626,2.23785401203037,2.23684163123033,2.23853145620899,2.23774786224871,2.23907889211439,2.23848584948128,2.23991995608157,2.23936757090273,2.24042897415732,2.24010956833546,2.24131260552704,2.24113163455912,2.24285685338668,2.24365050428271,2.24545634183199,2.24593815386308,2.24731074586832,2.2474692858365,2.24759466703608,2.28787048669985,2.3078129624991,2.34888058941637,2.34911095236557,2.34968769081046,2.35065096203246,2.3518222759936,2.35247943424042,2.35272213599394,2.3521853078077,2.35172274437282,2.35118962461287,2.35097831069983,2.35124437247784,2.35183627813728,2.35212392886444,2.35245669903224,2.35253560342241,2.3522940342018,2.35197082098908,2.35223624709954,2.35281946737268,2.35264711553578,2.35153164275477,2.35099984174577,2.35073757708487,2.35115853413441,2.35036187886266,2.3505165924113,2.34995329921856,2.35054959461123,2.35011009400978,2.35043209168527,2.35032220976257,2.35058622736078,2.35059353011648,2.35082989463915,2.35104401940398,2.35077868521774,2.3503324558009,2.35081807036759,2.35110616081719,2.35071333675248,2.35011620560169,2.35001545285686,2.3498316228099,2.34988347710555,2.34977733250175,2.34967066512961,2.34973512441224,2.35002409124336,2.34997790943711,2.34984952140695,2.34994836378116,2.35024672122672,2.35031241426832,2.35014397929407,2.35003956888061,2.35017650376017,2.35024257394766,2.35068069841925,2.35143406223454,2.35172410829798,2.35160253210009,2.352406530884,2.35257749195582,2.35295853958595,2.35306174945357,2.35325068735834,2.35354421510966,2.35378005683401,2.35418349655902,2.35416935493033,2.35419724278749,2.35361356441293,2.35367330534919,2.35323401998281,2.35341403347505,2.35362083123762,2.35439747159595,2.35440350224965,2.2854050241122,2.28662758097263,2.28785670310384,2.28803707136284,2.28746780711508,2.28656290570758,2.28544184223214,2.28520783697512,2.28489691054654,2.2848966088978,2.28480936552744,2.28507138599128,2.28547010790412,2.2859335498472,2.28592848431544,2.28544995568861,2.28556702818536,2.28538706098642,2.28579219836513,2.28588284973953,2.28615191845895,2.28649316926288,2.28644402747747,2.28678088890831,2.28689111377443,2.28759668965705,2.2874442261036,2.28797414337263,2.28767869182478,2.28857978561614,2.28843937858209,2.28922444152473,2.28899310264524,2.28976920983842,2.28981685460647,2.29017491521737,2.29039770684674,2.29042183936689,2.29099028126751,2.29128243066617,2.2921434360485,2.29216194581927,2.29335248594262,2.29317627134124,2.2945313004274,2.29522087160545,2.29697263904007,2.29759203089882,2.29792036254727,2.29763454547732,2.32873047638736,2.34786175748928,2.37950698442523,2.37927979108326,2.37855800278031,2.37869371289731,2.37956822336643,2.38054181876218,2.38118919532351,2.38175305288665,2.38209299657094,2.38221176236041,2.3825319177911,2.38280131065127
2.22067274498992,2.22100014542658,2.21997030511764,2.22024745308797,2.22072766639754,2.22246513038146,2.22375476726923,2.23485235262206,2.23458229524168,2.2367930777162,2.23545467980753,2.23856326250663,2.23581389673592,2.23951100595803,2.23672242846977,2.24054556699172,2.23686345099235,2.24003777702597,2.2381135347901,2.2411480818528,2.23863349164612,2.24185356474097,2.23983118834289,2.24251189301916,2.2414771465907,2.24494406626472,2.2441886523963,2.24660473484096,2.24710340134629,2.25017487369768,2.25083616753668,2.34422119740237,2.34517913006849,2.3460829628056,2.34690641428211,2.34827913336945,2.3492661846922,2.35091372072871,2.35163090671461,2.35166570039525,2.35128424056586,2.35104457093547,2.35090696953209,2.351262503423,2.35162923883911,2.35174987156611,2.35178657793885,2.35146194274317,2.35155436777466,2.3514708798454,2.3512866695487,2.35125604578099,2.352234772015,2.35255512734188,2.35009173931461,2.34922936247135,2.3490868112245,2.34871946292908,2.34832618204255,2.34968458114094,2.34872544145893,2.34999872985278,2.34881874979778,2.34881834457546,2.34923727414351,2.34915516417646,2.3494993873481,2.3485706296195,2.34880115776276,2.3487536471614,2.34916280528053,2.34996938114998,2.35112207438217,2.34943370264032,2.34895800519644,2.34866341655007,2.34850756453774,2.34871617459577,2.34869014475763,2.34842306373501,2.34867070759177,2.3491596470355,2.34846631379599,2.34825387612974,2.34828850242307,2.34828856180919,2.34863875499475,2.34827548645888,2.34912518617041,2.34882071178849,2.34877763277178,2.34881806218825,2.34924249798881,2.35002876334951,2.34894512206182,2.35186479044948,2.35124812308408,2.35124407378347,2.35159266643928,2.35157921809555,2.3519566479554,2.35233495991816,2.35316642353188,2.35273654764365,2.35214147979184,2.35243975804973,2.35197511581542,2.3526396430831,2.35226598266333,2.35353394538294,2.35265481391802,2.35151149857999,2.28682521103879,2.28668383597298,2.28715239879292,2.28643248416867,2.28614645115724,2.28578581784416,2.28524706865578,2.28495130193836,2.28499774367778,2.28460579576246,2.28465526583973,2.28483903416214,2.28483637929281,2.28516581711275,2.28515724602337,2.28590193936828,2.28502041699852,2.28533492739772,2.28529528714584,2.286053614835,2.28605034878801,2.28641940122177,2.28650694154387,2.2862475152491,2.28725365887746,2.2871977163808,2.28833430674465,2.28736311389184,2.28817815042543,2.28780822767692,2.28919647464791,2.28862006394141,2.28938184483249,2.28956511499585,2.28996356550838,2.28979599210653,2.28995314206517,2.29078197536876,2.28988840891463,2.29204218182645,2.291065175295,2.29270531336197,2.2921007457118,2.29377142594972,2.29385079812693,2.29587416127554,2.29553093380533,2.29794385261135,2.29815655927959,2.29893104783282,2.3762240561407,2.3769045672657,2.37822875242838,2.37947263679611,2.37833015071659,2.37838778565697,2.3791841171706,2.37953227109838,2.37977167971595,2.37983524276097,2.38047955349614,2.38066633781002,2.38100524207613,2.38135242758215
2.21952023917305,2.21885114698627,2.21916301825684,2.21951396615879,2.22074779837297,2.221419732396,2.22211139408885,2.23502807300118,2.23517379458018,2.23481664663232,2.23653290447086,2.23581279409818,2.23728983417453,2.23654720084087,2.2380086308884,2.23730234626888,2.23856860814765,2.23781882962865,2.23941873621985,2.2386581559143,2.24015580576591,2.23946136904727,2.24106303773281,2.24083725872676,2.24308177349842,2.2437616594636,2.24540104360821,2.24529520161558,2.24575671605203,2.28156863114689,2.30139195210489,2.34284084390733,2.34339858424658,2.34426854707688,2.34538793811988,2.34676290592756,2.34882514086636,2.35075168593317,2.35179061128264,2.35199784110964,2.35169356714272,2.35128801196215,2.35116918582717,2.35155349136009,2.35186686163951,2.35222057449281,2.35239919707459,2.35190127272413,2.35177064914374,2.35151455212904,2.35108177470502,2.35106432761165,2.3515335119544,2.35132266182545,2.34923705391861,2.3490266163661,2.34853614806096,2.34876058568816,2.34784044145555,2.34819324915626,2.34785012075868,2.34848582635041,2.34769297250486,2.34756255326029,2.34740654449116,2.34805771998504,2.34821346534982,2.34853339000611,2.3486912897665,2.34902207203826,2.34904315893005,2.34900806766423,2.34895803623429,2.34857930990364,2.34813779035168,2.34815652802928,2.34825441288253,2.34842379759238,2.34841072418612,2.34821329724609,2.34821258937716,2.34817328332149,2.3480489520897,2.34794330120978,2.3475791901598,2.3475217985313,2.34758415375976,2.34786299306143,2.34824980065023,2.34868980260228,2.34908976336676,2.34885505644033,2.34888038914014,2.34925052581853,2.34945677543462,2.35044707970758,2.35073594326166,2.35088479199198,2.35107779462278,2.35150976880599,2.35166631940397,2.3519757284277,2.352328004648,2.35233245599826,2.35241835661406,2.35231922494263,2.35242754119265,2.35180323127442,2.35139187974157,2.3511992063703,2.35199631944202,2.3520444773028,2.31917857352714,2.28615438625796,2.2869392808246,2.28695701477574,2.28649786235275,2.28561285101235,2.28481858257723,2.28451101573442,2.28450096163266,2.28444572791817,2.28460296960901,2.28461071789633,2.28499011827131,2.28496300196453,2.28566126567375,2.28544970633865,2.28558710395184,2.28526024825575,2.28570934702665,2.28581117690346,2.28618360307166,2.28628216041156,2.28641636802045,2.28658286941896,2.28671809179584,2.28728039512519,2.28724881260386,2.28772716828187,2.28763088398576,2.28836149999697,2.28842814440492,2.28885350189364,2.28891007779806,2.28918433697956,2.28967593471801,2.28966162991393,2.29040774963723,2.29025515584082,2.29110838551522,2.29101076673722,2.29198687978336,2.29190825659627,2.29317567005423,2.2934147520125,2.29530177789765,2.29621673863581,2.29721831940333,2.29714373795542,2.29701548237736,2.33641627208492,2.37717532019331,2.37679236068818,2.37688668236509,2.37735057852266,2.37736472410211,2.3781629782095,2.3790686490843,2.37966674905156,2.3797917504748,2.3801660702108,2.38036264369375,2.3804167103,2.38074393087922,2.38095357970071
2.21598976456766,2.21489596073471,2.21830807930899,2.21958146867172,2.22046379838896,2.22217322161114,2.22429927909271,2.23397667575077,2.23371376486289,2.23626708141,2.23529144902909,2.237542144555,2.2355286169253,2.23818775868171,2.23602122017761,2.23886038820138,2.23674592775911,2.24017855624817,2.23732731258323,2.2409383117034,2.23822262381326,2.2415456337654,2.23919818686534,2.24252914807963,2.24163197165156,2.24487587343327,2.24415603514929,2.24631847537727,2.24625613715604,2.33582337626224,2.3366905797274,2.33903880121014,2.342045204509,2.34486786860064,2.34691002025483,2.3471217006536,2.35005564339118,2.35189886682551,2.35295065793825,2.35290293313746,2.3526130196997,2.35181262941421,2.3517135054288,2.35254433426576,2.35270699859285,2.35329139352043,2.3541978630701,2.35224873872265,2.35255111423402,2.35181697442619,2.35064914158772,2.3501492467112,2.3514507748348,2.35236895885285,2.34593843803058,2.34848620380672,2.34786594357393,2.3488208016563,2.34700385546552,2.3458403361793,2.34682566419572,2.34663108593187,2.346610409263,2.34467473854655,2.34499679950009,2.34587701418539,2.34647426146004,2.34735092329838,2.34795304860656,2.3485141547053,2.34859961285895,2.34707452224759,2.34684222685431,2.34684106500767,2.34646247733901,2.34669250135656,2.34728616186148,2.34759975328513,2.34745003648709,2.34724405904523,2.34686111156961,2.34675891010007,2.34686078750307,2.34719076691407,2.34611189992856,2.34565284103066,2.34611863363159,2.34627493180251,2.34704621299499,2.34758243683829,2.34942174478414,2.34773114810323,2.34738862699612,2.34780306082188,2.34853184798691,2.34880954238987,2.34998217957576,2.34933300808666,2.35004645020177,2.35046117361983,2.3508148542634,2.3507014171429,2.35107512215134,2.3515535762434,2.3513222059273,2.3519101378028,2.35152600801776,2.35185415599953,2.35033259951748,2.35070723889708,2.35166045808226,2.35073609515925,2.35144241625697,2.28587541612772,2.28623206174505,2.28616265699205,2.28576898301608,2.28525068390573,2.28413943882206,2.28421815527727,2.28408816105311,2.28456539892746,2.28418744138448,2.28498515608451,2.28448132850379,2.28554627357424,2.28565637698225,2.28640498857464,2.28520982614364,2.28594154926542,2.2854418677547,2.28619781967588,2.28620971181022,2.28622175996095,2.28666969235468,2.28633624406356,2.2867899445273,2.28673938462579,2.28711758400148,2.28709538193835,2.28788014566424,2.28811828834121,2.28863228096814,2.28866062869651,2.28865790030659,2.28891390199836,2.28905289496521,2.29034273017869,2.28971645500331,2.29127329289704,2.29045639473087,2.29202345172771,2.29098059608644,2.29321700021653,2.29258442134355,2.29418529449765,2.29401505833138,2.29634942272083,2.29614645293585,2.29767846437014,2.29807559478745,2.37433207273368,2.37417914910123,2.37433605862591,2.37586390630807,2.37653603535214,2.37651903676861,2.37693069528154,2.37839935952185,2.37840100563468,2.37846341405683,2.37908947214944,2.3794087330738,2.3785032636231,2.37955523282068,2.37919664184834
2.22291927635749,2.21943314737029,2.21848321734216,2.21933771447557,2.2200685889899,2.22014524054833,2.22879156845457,2.23180718343158,2.23375542072575,2.23446351940671,2.23607471000411,2.23566236403111,2.23665281380531,2.23637566308559,2.2376414591646,2.23698913697745,2.23839796021098,2.23783506495974,2.23901019620836,2.23812133474312,2.23981248165164,2.23897175035465,2.24081053915065,2.24074008522887,2.24299339052655,2.24369695625515,2.24549319211243,2.24515659869464,2.24515679913702,2.28727051829329,2.33995717298704,2.34080065532588,2.34162942800503,2.34351385877246,2.34702189464276,2.34845902122813,2.349363059404,2.35228830339808,2.35203709511154,2.35192316637257,2.35230206643656,2.35209617928085,2.35206110265456,2.35079430705324,2.35071677058012,2.35104945881904,2.35167677547111,2.35185871818592,2.35179596443369,2.35167326387524,2.35130300594674,2.35082777909128,2.34979103508848,2.34826530001856,2.34502597336396,2.34537578902493,2.34718830509397,2.34752359725983,2.34754715940087,2.34731457643507,2.34727078893476,2.34736243348993,2.34646758883352,2.34525605008157,2.34484703726119,2.34561182778866,2.34620879751186,2.34711899373401,2.34693725249905,2.34718188928246,2.34710638284002,2.34660121649031,2.34658964279284,2.34668447430181,2.34655789719541,2.34643717637909,2.34663136539341,2.34662411957915,2.34680997076069,2.3464671825118,2.34624599690382,2.34587845086534,2.34593977519928,2.34587416834367,2.34575467698185,2.3457738740056,2.34582266653896,2.34596541616355,2.34621549339951,2.34673113160762,2.3472985744631,2.34707915646257,2.34723923100006,2.34784722037097,2.34811081891117,2.34852548583023,2.34900895528313,2.34929334758009,2.34959508044426,2.35014129311907,2.35038813423306,2.3506817023539,2.35133175310576,2.35143805342766,2.35143379162919,2.35120253428137,2.35086675940754,2.34984224885426,2.34911786348518,2.34885703280152,2.35018525134001,2.35082614458672,2.3177923462776,2.28529166350715,2.28591575289089,2.28588065906244,2.28581489209931,2.28479946083273,2.28424489104151,2.28393046158098,2.28432528858066,2.28420750024685,2.28443578682948,2.28436907127076,2.28486241328849,2.28474564729159,2.28557125339709,2.28554409471027,2.28576218782355,2.2855110522113,2.28593915094552,2.28599954744038,2.28612992891717,2.2861021761347,2.28632065452085,2.28648460570026,2.28646759908367,2.28678139684437,2.2868194884823,2.28718640416744,2.28740661541604,2.28791541501042,2.28824999681088,2.28851560758685,2.28893182263686,2.28886021200895,2.28957561365353,2.28947347630791,2.29036639678749,2.29023659829548,2.29136285489102,2.29109432651257,2.29221454954618,2.29233269205013,2.29370961558384,2.29443247967482,2.2961627530456,2.29675117741387,2.29696800892944,2.29686828205102,2.3350547322252,2.37449420537392,2.37388544984614,2.37361555666069,2.37439569526433,2.3756005254287,2.37643202165269,2.37741098258407,2.37798744374405,2.37844616708839,2.37839892410911,2.37870453429162,2.37860641636249,2.37920774801028,2.37934266489059,2.37933124803921
2.22792628146167,2.2204499355229,2.21814220760523,2.22016344558342,2.21911135685989,2.21936261549029,2.23168728233092,2.2336202449198,2.23340194578321,2.23582842716965,2.23557463601597,2.23712878827859,2.23563349585055,2.23783516749461,2.23748781059563,2.2384418065543,2.23739299063021,2.24027156372196,2.23694593469651,2.24015443672836,2.23769072617526,2.24108964069016,2.23891033690878,2.24264945646091,2.24123664527736,2.24427954362131,2.24526273014061,2.24639400570764,2.24653990611109,2.24632844668082,2.33819711430305,2.34085380780997,2.25034630920657,2.3421604987546,2.34938685784457,2.34971173879643,2.34553553711164,2.354794660376,2.34789830608605,2.34862440313432,2.35102369664044,2.35106343304103,2.35366905761236,2.34795156089446,2.25711803211622,2.2577910718955,2.3504523401194,2.35152266476232,2.3503022613622,2.35043588498877,2.35090904036939,2.35179943970499,2.26300155492948,2.34053818505657,2.26436212999817,2.26478563987726,2.34913419848536,2.34501708386966,2.34738988159962,2.34642040291296,2.34699540667075,2.34750577923041,2.34728086840823,2.34434612850811,2.3444189627182,2.34472039636363,2.34577899350494,2.34703643961651,2.3450034581064,2.34520278847215,2.34525165044525,2.34483187069994,2.34536235905368,2.3461947088953,2.34567105725226,2.34556659782031,2.34505341497797,2.34532813610709,2.34536031606893,2.34544186237705,2.34438371075982,2.34440248373365,2.34405825994839,2.34422435356476,2.3445472516506,2.34508046195532,2.34496585212528,2.34463237214763,2.34468047143156,2.34504135645557,2.34530589186213,2.34534525858259,2.34581281950704,2.34747940095982,2.34680076827699,2.34723236252119,2.34776525784195,2.34808255259173,2.3486401230135,2.34894864016933,2.34959442619222,2.34949504394078,2.35139105404671,2.35112903979123,2.35017822388868,2.35050403939288,2.34890916201846,2.34876055615519,2.34776426881495,2.34809553186948,2.3487560308443,2.34910204422753,2.28681633075376,2.2857745519949,2.28514438934348,2.28500494604385,2.28491586707808,2.28458644330085,2.28343999578083,2.28409741809482,2.28423687393753,2.28478213783563,2.28373937371619,2.28483350490726,2.28425906948253,2.2849194235191,2.28463093544386,2.28637357944073,2.28525690759006,2.28603168110014,2.28569508377212,2.2867534241163,2.28569446382575,2.28600101453332,2.28619113143521,2.2864211347975,2.28649236451867,2.28633611777741,2.28699126192478,2.28669479655234,2.2872061833684,2.28762671488107,2.2879296623895,2.28876721997336,2.28874310323262,2.28958692421512,2.28887869417494,2.29016242325257,2.28917281075005,2.29110118026104,2.29054432344357,2.29215092574877,2.29176262943403,2.29331920359156,2.29282549160678,2.29457738663235,2.2952011463913,2.29653931065118,2.29702263780595,2.29882674384888,2.37112842549343,2.37171366316613,2.37238475939114,2.37264593709069,2.37419922085015,2.37486835119208,2.37587891917749,2.37646252598166,2.37682470124358,2.3771992495442,2.37730424701956,2.3770992554919,2.37641437433086,2.37878819150488,2.37847709405328,2.37780648689413
2.22671502918316,2.22504985657883,2.2260455607109,2.22563945179776,2.22848071788289,2.23068502342951,2.23139566472255,2.23194830551381,2.2335327688945,2.23428521552428,2.23548512053658,2.23541303333453,2.23613875661135,2.23620086197626,2.23715655666186,2.23699676523339,2.23809678384718,2.23754880876796,2.23862761328087,2.23791129072131,2.23955465822218,2.23866379253172,2.24045195159888,2.24017063715725,2.24196804415571,2.24275751280491,2.24467457955386,2.2447444765944,2.24528322257786,2.2455217000893,2.24888643653226,2.25136747815664,2.25168591426174,2.27250140335496,2.272186446431,2.27258518522015,2.27143665081963,2.26955412289565,2.26857620655921,2.26901130493746,2.270470867828,2.27177976632772,2.27209163457841,2.27207511709282,2.257135132151,2.25740303380909,2.25655645258067,2.25601445305192,2.25550556933033,2.25472020947189,2.25346814888043,2.25380979200098,2.26284433934002,2.26475430835159,2.26367811884267,2.26299601447396,2.28241120222261,2.28988138471043,2.30124319195833,2.31204429925885,2.32302862210789,2.33025493680737,2.34655592906925,2.3456772770681,2.34548960654656,2.34594926602357,2.34602005487255,2.34564836308508,2.34436527788785,2.34422163196008,2.34466611004439,2.34450834212672,2.34489845966892,2.34510239684012,2.34532429538688,2.3450193570096,2.34504535943354,2.34478470141385,2.34493749337691,2.34449680852988,2.34451801217168,2.34374468987796,2.34371278382863,2.3435907012685,2.34388667487982,2.34384344850237,2.34383005076286,2.34377806504236,2.34389682047972,2.34416563988837,2.34460034952916,2.34481939860644,2.34533600784173,2.34588815396401,2.34606219760624,2.34651877033885,2.34698151635572,2.34763163938045,2.34829785228167,2.34884390912092,2.34911213495192,2.34928650008803,2.34986753821893,2.34893687690857,2.34847408728054,2.34756352163719,2.34708507757839,2.34688787301165,2.34648898474192,2.34696715525783,2.34840062726494,2.31841979242353,2.28613139980349,2.28631226003633,2.28628530886375,2.28554082921207,2.28542233917296,2.28419861153781,2.28382640299167,2.28354907989705,2.28400642401757,2.28382890427084,2.28405371173505,2.28386346966497,2.28441023925296,2.28427435633888,2.28489452871285,2.28480761167239,2.28529771681414,2.28515395591987,2.28566649262154,2.2856807422879,2.28577706446639,2.28578895937255,2.28600553812086,2.28621726735606,2.2862328928182,2.28647019040436,2.28664629390186,2.28680935160669,2.28707421329205,2.2874458308818,2.28796842141693,2.28826720554426,2.28883438302548,2.28887351560183,2.28944803506061,2.28934057955975,2.29011004763705,2.29006413670563,2.2911429122291,2.29139447541894,2.29276355960879,2.29332830210956,2.29473899566959,2.29565502199821,2.29688046442695,2.29705475555853,2.2972339228084,2.33529054610925,2.37268769724251,2.37211668083931,2.37169958850258,2.37224093344566,2.37338192997951,2.37477165635599,2.37566354722288,2.376204697499,2.37644411643874,2.37704558175042,2.37734171222806,2.37825757874262,2.37816558551195,2.37877750608665,2.37815863326249,2.37784940005828
2.22907372147566,2.22777111793415,2.22746265427425,2.22820251276503,2.22939317929229,2.23086628199755,2.23130853138802,2.23278841615781,2.23287679137748,2.23555797495693,2.23458104752249,2.23606346031209,2.23559072884739,2.2366464126979,2.23597405915505,2.23801920256159,2.23712681730843,2.23866277201869,2.23690328191677,2.24036588272391,2.23775835607165,2.24087935508661,2.23861878221534,2.24169713951033,2.23970480769659,2.24328452412671,2.242602116777,2.24470467556199,2.24446057904424,2.24416739230906,2.24483329410117,2.24586212860366,2.24615071465183,2.24714735909811,2.24701728002554,2.24754793923725,2.24743504650525,2.24822187850672,2.24927401143506,2.25014288182151,2.24926677202076,2.25058286206518,2.25143670550243,2.25260051043462,2.2537062235814,2.25440763976088,2.25440446405064,2.25479110129722,2.25516743219611,2.25639112746746,2.25717163830642,2.25769438632257,2.25967700329241,2.26055888732336,2.26153315272928,2.26157921499264,2.26242063072108,2.26327232476199,2.26493884594277,2.26647577829241,2.26794899014679,2.26895777041967,2.34494222606766,2.34498292063449,2.34571957295535,2.34669458282932,2.34681635418666,2.34488848108139,2.34260266620485,2.34234889569392,2.3435163430714,2.34314914422616,2.34310553518318,2.34385373022646,2.3438722890448,2.34431770627303,2.34356029583495,2.34417811366907,2.34322785550513,2.34343837752368,2.34359655715786,2.34260861034953,2.34190942618309,2.34256119289334,2.34239063452189,2.34221883423094,2.3418162627189,2.34220879159318,2.34213604370405,2.34262083720993,2.34321329172679,2.34350565204855,2.34388171726357,2.34406660795628,2.34417928602108,2.34496747668876,2.34529925457125,2.34617280408578,2.34753509623407,2.34811394001608,2.34819404438328,2.34806438043873,2.34894163211518,2.34596735192958,2.34551731071524,2.34409590850736,2.34352898298357,2.34671408399187,2.34473489794995,2.34578893081877,2.34831127398623,2.28708155713437,2.28653551096496,2.2870227443925,2.28520264294094,2.28492406264765,2.28524743215602,2.28435322644857,2.28323169855613,2.28371576539829,2.28327582095249,2.28399551089875,2.28334545813657,2.28399300484347,2.28353658387361,2.28489666920832,2.28410671316145,2.28463701483856,2.28442296844893,2.28528963156564,2.28499977444786,2.28563853736915,2.28536356975235,2.28575776697835,2.28585278976885,2.28599096352085,2.28619307412144,2.28624706267639,2.28670553373224,2.28664066828204,2.28678077932683,2.28746317056296,2.28758009479749,2.28849851913264,2.28814892230084,2.28929798168678,2.28878726145533,2.28988559034874,2.28958221998522,2.29046254192031,2.29039906608247,2.29203439599857,2.29251071422546,2.29373040499736,2.2939658730982,2.29541896587675,2.29680607273527,2.2985710704289,2.30035540726227,2.37107699816348,2.37133736500527,2.37092851884751,2.37147145117843,2.37192068551736,2.37306323112605,2.3736395468415,2.37515181120949,2.37428067833528,2.37519644483044,2.3754593898891,2.37639142244567,2.37873841799352,2.37881295349626,2.37832445734894,2.37705875998393,2.37598779687378
