0.169607,0.167464,0.17313,0.174341,0.185953,0.184942,0.183802,0.182333,0.00324329,0.200129,0.209007,0.209219,0.00325843,0.00369553,0.236759,0.233135,0.233352,0.244577,0.251737,0.251917,0.252145,0.269064,0.267593,0.278266,0.277407,0.00350946,0.310607,0.311197,0.311475,0.310921,0.321986,0.329418,0.328436,0.337911,0.341199,0.35494,0.363796,0.376488,0.377106,0.376883,0.397823,0.390407,0.391086,0.405273,0.404912,0.415896,0.420762,0.42145,0.434315,0.434029,0.43166,0.453494,0.453953,0.454173,0.469507,0.468906,0.469029,0.474429,0.483247,0.484793,0.484257,0.496172,0.501244,0.501011,0.518624,0.525744,0.526689,0.528314,0.527076,0.54358,0.548852,0.547403,0.554054,0.55703,0.567037,0.576446,0.584478,0.595832,0.595035,0.610217,0.624582,0.625718,0.634363,0.643093,0.642278,0.658314,0.666005,0.664952,0.674817,0.678755,0.687041,0.701914,0.701222,0.708274,0.720432,0.719618,0.7228,0.735188,0.736728,0.742853,0.744667,0.755131,0.757506,0.75757,0.780219,0.782739,0.78765,0.790595,0.792201,0.801058,0.810513,0.815237,0.81806,0.821742,0.826828,0.831724,0.8407,0.843034,0.850984,0.839061,0.841628,1.09475,0.00319589,1.0944,1.06346,0.911108,0.911255,0.922019,0.93208,0.942147,0.942447,0.949887,0.951128,0.957187,0.965275,0.967244,0.980523,0.987597,0.987694,0.99993,1.00592,1.01393,1.01871,1.03196,1.03215,1.04501,1.05613,1.06128,1.0616,1.07231,1.07847,1.08409,1.09315,1.10191,1.11301,1.11374,1.12578,0.0036962,1.14371,1.14496,1.15533,1.15737,1.17823,1.18579,1.19175,1.19807,1.19906,1.21525,1.22262,1.23194,1.2392,1.24622,1.26033,1.26649,1.27419,1.28078,1.29767,1.30169,1.30298,1.31248,1.32756,1.32787,1.34033,1.35395,1.36083,1.36255,1.36777,1.38537,1.40472,1.40723,0.00336349,1.43105,1.44311,1.45095,1.45607,1.47321,1.47882,1.47814,1.49381,1.49536,1.51454,0.00329516,0.00315099,1.55396,1.55342,0.00326234,1.5852,1.58546,1.58712,1.59386,1.59909,0.00321855,0.0037886,1.61799,1.6299,1.62947,1.63286,1.63267,1.62928,1.62188,1.60541,1.59511,1.59354,1.60214,1.60073,1.6258,1.62674,1.634,1.64686,1.64452,1.65593,1.66488,1.66851,1.67522,1.69051,1.68866,0.0032791,1.70599,0.00337946,1.72555,1.73458,1.74049,0.0033738,1.74785,0.00334519,1.76818,1.76904,1.78054,1.78147,0.00344485,0.00299654,0.00375457,1.81709,1.82704,1.82703,1.83448,1.83571,1.84452,1.84417,1.85282,1.86175,1.86089,1.87207,1.87573,1.87581,1.89295,1.89187,1.89069,1.90907,1.91304,1.91476,1.9147,1.91492,1.9284,1.9291,1.92833,1.95774,1.95649,1.95509,0.00326169,1.98043,1.98639,1.98656,0.00364041,1.99723,0.00330443,0.0033485,0.00368016,0.00337132,0.00342005,2.02662,2.03366,2.03073,2.03842,2.04341,2.03935,2.05257,0.00346286,0.00324873,2.07971
0.169023,0.167287,0.179044,0.18274,0.187648,0.187272,0.18876,0.18856,0.199654,0.197824,0.210734,0.211524,0.211388,0.0029547,0.234353,0.236016,0.235778,0.248908,0.246943,0.257668,0.260393,0.268195,0.265846,0.282338,0.285301,0.304166,0.302979,0.304375,0.304625,0.314899,0.332074,0.330817,0.332903,0.340181,0.345082,0.354329,0.355716,0.363374,0.3638,0.362706,0.380443,0.393487,0.395313,0.407732,0.407263,0.416342,0.422719,0.422228,0.421551,0.433088,0.441715,0.451358,0.449901,0.446329,0.445265,0.472805,0.471117,0.478947,0.477988,0.479005,0.495482,0.494804,0.499021,0.505573,0.516758,0.517669,0.527262,0.531144,0.535559,0.536936,0.00323749,0.556697,0.55844,0.557337,0.562396,0.579782,0.595068,0.602582,0.604172,0.604569,0.625672,0.629615,0.638104,0.64377,0.650479,0.662895,0.663529,0.668796,0.673001,0.684823,0.690467,0.692398,0.707906,0.710901,0.713002,0.717698,0.726039,0.733591,0.742104,0.744877,0.748241,0.752889,0.760199,0.767102,0.773851,0.774184,0.782293,0.793911,0.794739,0.800631,0.807132,0.809573,0.821857,0.823245,0.831953,0.83502,0.847177,0.847114,0.85154,0.862942,0.869432,1.10178,1.01639,1.10205,1.05358,0.909819,0.917121,0.92468,0.933225,0.933557,0.944366,0.948052,0.950461,0.958906,0.96346,0.977923,0.978487,0.988004,0.988915,0.99593,1.00885,1.01572,1.02154,1.02321,1.03924,1.04736,1.05793,1.06176,1.06258,1.06808,1.07588,1.0861,1.08948,1.09655,1.11458,1.11692,1.12189,1.12827,0.00333125,1.13932,0.00325109,0.00330174,1.17008,1.18235,1.18433,0.00335205,1.2058,1.20536,1.20632,1.21905,1.22765,1.23851,1.25338,1.24958,1.25093,0.00349307,1.28383,1.28867,1.29632,1.30596,1.30911,1.32025,1.32551,1.33726,1.33727,1.35781,1.36226,1.3748,1.37452,1.38787,1.39929,1.40726,1.41034,1.4334,1.44365,1.45446,1.47186,1.47128,1.49449,1.49512,0.00351459,0.00308884,1.53067,1.55471,1.55118,1.56387,1.56539,1.58921,1.58904,1.58731,1.58669,1.59445,1.60519,0.00311706,1.61992,1.62452,1.62945,1.62887,1.62928,0.0035322,1.6004,1.59128,1.58972,1.60214,1.60161,1.61713,1.61895,1.63311,1.64147,1.64625,1.64738,1.66513,1.66664,1.67594,1.67491,0.00325796,1.70878,1.71608,0.00349933,1.73675,1.73664,1.73537,0.00358466,1.75479,1.75387,1.76533,1.77398,1.77689,1.78825,1.78895,1.79538,1.80417,1.81099,1.81827,1.82316,1.83108,1.83209,1.84022,1.84531,1.84961,1.8589,1.85775,1.85697,1.87522,1.8743,0.00325799,1.89308,1.89125,0.00339803,0.00352307,1.92109,0.00340077,1.92401,1.93103,1.93118,1.94079,1.94413,1.95773,1.95567,1.97242,1.97099,1.97188,1.98368,1.98323,1.98039,1.99858,1.9981,0.00323976,0.00346617,2.02074,0.00353727,0.00324721,2.03213,2.0452,2.04517,2.0455,2.05235,2.06033,2.06538,2.06943
0.171079,0.171482,0.178809,0.186213,0.18284,0.189968,0.188803,0.194922,0.206192,0.201198,0.20178,0.211341,0.2133,0.21194,0.223713,0.236373,0.232048,0.248302,0.247146,0.246349,0.261617,0.267716,0.279349,0.279743,0.279937,0.278227,0.304935,0.307666,0.305645,0.30538,0.00329484,0.332552,0.3319,0.331884,0.345881,0.350372,0.34767,0.362538,0.366763,0.366766,0.383367,0.38535,0.388498,0.404334,0.00329028,0.42482,0.424934,0.424249,0.42522,0.438907,0.438717,0.449329,0.448585,0.445092,0.459658,0.46268,0.467358,0.468487,0.479601,0.479677,0.489847,0.496042,0.50108,0.503556,0.504016,0.515609,0.525727,0.528895,0.536118,0.543174,0.555462,0.556861,0.556573,0.559074,0.561016,0.580073,0.579728,0.603225,0.604676,0.612181,0.628288,0.631342,0.638829,0.641651,0.654422,0.655478,0.655489,0.660748,0.674878,0.674845,0.690607,0.694479,0.699049,0.708561,0.708274,0.726056,0.724563,0.724128,0.723116,0.740854,0.739844,0.752442,0.752194,0.76677,0.773881,0.78004,0.781483,0.790733,0.790349,0.799183,0.807558,0.813703,0.820274,0.821978,0.832172,0.83741,0.845469,0.85362,0.854626,0.864302,0.869338,0.871283,0.876645,0.882995,0.899996,0.911071,0.912644,0.922339,0.928188,0.931776,0.937294,0.950068,0.958147,0.964408,0.968627,0.974088,0.979064,0.989998,0.988926,0.999012,1.00884,1.01068,1.01733,1.02601,1.03612,1.04408,1.04808,1.05599,1.05952,1.06703,1.07569,1.08143,1.08708,1.09994,1.10421,1.11113,1.11512,1.12992,1.13065,0.00353187,1.14795,1.15217,1.15423,1.15967,0.00317042,0.00328693,1.2079,1.20858,1.20844,1.20908,0.00318454,0.00328981,1.23721,1.24296,1.24793,1.26349,1.26375,1.28133,1.28319,1.29542,1.30538,1.31534,1.31542,1.41534,1.4154,1.34573,1.35196,1.35835,1.36318,1.37199,1.38066,1.39043,1.40272,1.4144,0.00320083,1.42751,1.44448,1.4556,0.00328249,1.4822,1.48505,1.51433,1.51584,1.52805,1.53944,1.54091,0.003115,1.57498,1.57875,1.57885,1.58377,1.58608,0.00318018,0.00354023,0.00315461,1.61695,1.61997,1.62232,1.62324,1.60025,1.58908,1.58167,1.58542,1.59311,1.60562,0.0037105,1.62716,1.63384,1.63374,1.64448,1.64907,1.65557,1.66564,1.67308,1.67463,1.68011,0.0035584,0.00341381,1.7309,1.73042,1.73179,1.7309,1.74382,1.752,1.7564,1.75545,1.76868,1.77687,1.77641,0.00370959,1.79877,1.79781,1.80424,1.80455,1.8226,1.82291,1.834,1.82793,1.85424,1.85202,1.85077,1.8626,0.00340115,0.00355761,0.00317113,0.00359766,0.00326888,1.91021,0.00346816,1.91418,1.92888,1.92649,1.92607,1.92463,0.00316891,1.94458,1.94535,1.94807,1.95152,1.96105,1.95919,1.9741,1.97396,1.98297,1.9807,0.0032473,0.00317137,0.00342465,0.00332,2.01383,2.01472,2.01409,0.00320012,2.04421,2.04112,2.04416,2.04296,2.06294,2.06225,2.06965
0.175972,0.174139,0.181967,0.195439,0.196106,0.197512,0.197007,0.203347,0.202717,0.203706,0.214432,0.213108,0.212026,0.224267,0.233654,0.23213,0.230278,0.236189,0.237238,0.237429,0.248824,0.255134,0.254164,0.27351,0.27295,0.270883,0.289954,0.294819,0.297825,0.304288,0.314777,0.322381,0.331244,0.335337,0.335024,0.338575,0.358923,0.357472,0.363329,0.370441,0.375743,0.378836,0.391788,0.389918,0.397998,0.418572,0.418017,0.417352,0.441484,0.442642,0.440443,0.448479,0.449865,0.455981,0.467474,0.467765,0.465588,0.465045,0.486275,0.485488,0.484654,0.496814,0.496917,0.505037,0.517829,0.517584,0.514985,0.512808,0.511567,0.00337557,0.555828,0.554764,0.558259,0.560434,0.570023,0.579775,0.578321,0.596321,0.593527,0.600606,0.00358951,0.631788,0.639654,0.639025,0.641969,0.6493,0.65773,0.65961,0.668917,0.680653,0.681638,0.697274,0.696491,0.705033,0.71316,0.71463,0.726517,0.73121,0.00324551,0.00307717,0.749834,0.752655,0.756992,0.763076,0.769957,0.774756,0.775417,0.786952,0.790489,0.792102,0.7934,0.804503,0.811598,0.810871,0.83264,0.834164,0.846182,0.852763,0.86315,0.863585,0.872849,0.876642,0.87828,0.882511,0.891419,0.894009,0.913486,0.928136,0.930072,0.932601,0.941919,0.944432,0.953296,0.960953,0.967739,0.970109,0.982249,0.987122,0.994463,0.994886,1.00514,1.01701,1.01954,1.02619,1.03131,1.03798,1.04769,1.04982,1.06017,1.06674,1.07543,1.07778,1.08866,1.09587,1.10207,1.10687,1.11281,1.11929,1.12938,1.14273,1.14763,1.15446,1.15808,0.00338038,1.16978,0.00330442,1.20068,1.20881,1.21634,1.22432,1.22807,1.22168,1.22627,1.23022,1.25323,1.25511,1.26768,1.27228,1.27755,1.28923,1.30343,1.30238,1.3123,1.31548,1.3325,1.33576,1.34348,0.00317232,1.36244,1.37016,1.37324,1.37957,1.39264,1.39923,1.41242,1.41376,1.42577,1.43141,1.44641,0.0033769,0.00376877,1.48724,1.48568,1.51681,1.52347,1.54119,1.54321,1.54911,1.54876,0.00314425,1.58175,1.58092,1.5799,0.00311996,1.60642,1.6075,1.61047,1.61776,1.61883,1.61329,1.58835,1.57898,1.58078,1.60505,1.60388,1.60626,1.62892,1.63014,1.64066,1.64304,1.66201,1.66033,1.6669,1.66602,1.67135,1.68341,1.69664,1.71693,1.71637,1.73088,1.72693,1.72594,1.73112,1.74025,1.74019,1.74162,1.75711,1.77784,1.77797,1.78764,1.79052,1.79117,1.79797,0.00349089,0.00332882,0.00350229,1.82514,1.83095,1.8351,0.00347398,1.86167,1.86854,1.86919,1.87165,0.00334889,0.00337779,1.91466,1.91474,1.91543,0.00358344,0.00295385,1.92825,1.92741,0.0032895,1.94456,0.00316169,1.95368,1.95359,1.95565,1.9624,1.95522,1.96262,1.97302,0.0033106,1.99338,1.99375,0.00318395,2.00965,2.01055,2.01018,2.01289,2.01554,2.01919,2.03631,2.03115,2.04472,2.04268,2.05743,2.05527,2.06237
0.17766,0.176836,0.186787,0.193174,0.193717,0.194258,0.200529,0.202757,0.204336,0.211573,0.212138,0.217066,0.215379,0.232987,0.232148,0.232213,0.234095,0.233774,0.241278,0.239734,0.248804,0.249503,0.258914,0.272999,0.274609,0.277244,0.301057,0.301017,0.301513,0.303565,0.313572,0.32121,0.3281,0.327596,0.0033759,0.345497,0.344511,0.34327,0.369512,0.373595,0.0033211,0.397013,0.393352,0.393399,0.400342,0.407095,0.407904,0.427244,0.433462,0.435279,0.441848,0.44187,0.441776,0.464715,0.46383,0.462815,0.482502,0.481732,0.481228,0.489726,0.487741,0.487407,0.498764,0.509195,0.520586,0.522139,0.521069,0.529846,0.530843,0.538557,0.543296,0.567534,0.568723,0.57037,0.572106,0.57156,0.587993,0.588012,0.588374,0.605023,0.610927,0.628482,0.628505,0.627988,0.638902,0.644006,0.659395,0.66211,0.662651,0.678781,0.678602,0.67728,0.696805,0.702163,0.702767,0.711335,0.725059,0.733071,0.73937,0.738137,0.757304,0.759446,0.765581,0.769498,0.772311,0.772599,0.003355,0.794872,0.797781,0.799609,0.802639,0.804244,0.805684,0.812708,0.81279,0.830238,0.830111,0.850668,0.858226,0.861808,0.867534,0.875561,0.885576,0.885917,0.89484,0.89671,0.904386,0.905407,0.00338654,0.933116,0.942695,0.944869,0.00338863,0.966559,0.97048,0.983945,0.988185,0.994955,0.99786,1.00363,1.01566,1.01674,1.01941,1.02885,1.03594,1.04302,1.04779,1.05906,1.06255,1.0665,1.07085,1.08433,1.08677,1.10199,1.10303,1.11076,1.11743,1.12057,1.13582,1.13666,1.14294,1.15728,1.16469,1.17012,0.00338298,0.00358253,0.00318798,0.00305324,0.00337999,0.00374587,1.22898,1.23604,1.23753,0.00328908,1.23794,1.24669,0.00365614,1.27241,1.27777,1.28119,1.29513,1.30497,1.30729,1.31227,1.32358,1.32395,1.33618,1.3438,1.35447,1.35401,1.36893,1.38163,1.38854,1.38841,1.3964,1.40589,1.41054,1.42242,1.43396,1.44389,1.45079,1.45585,0.00325522,0.00339468,0.00342035,1.53034,1.52893,1.54809,1.55086,1.55072,1.57158,1.5708,0.00345522,1.58035,0.00335608,1.59834,1.61213,1.61,1.60901,1.60895,1.59226,1.58165,1.58154,1.59016,0.00341264,0.0030661,1.62913,1.63847,1.64153,1.64496,1.66149,1.66206,1.66842,1.66792,0.00329734,1.6884,1.70744,1.70581,1.72083,1.72098,1.72664,1.72664,1.73354,1.7322,1.74355,1.74179,0.00329612,1.76905,0.00300248,1.78886,1.78832,1.78788,1.79216,1.80085,1.80493,1.81365,0.00324633,0.00300131,0.00346052,1.85295,1.85232,1.85308,0.00314356,0.0032637,0.00330543,1.88692,0.00319347,0.00340748,0.0032396,0.00416612,1.94621,1.94622,1.94566,0.00353703,0.0032906,0.0030031,0.00305529,1.96249,1.96398,1.96735,1.96611,1.96803,0.0032739,1.98588,1.98603,1.98537,1.98374,0.00359991,1.99797,2.00852,0.00342335,0.00331921,2.02721,2.03088,2.0378,2.03668,2.04318,2.0524,0.00341858,0.00370242
0.179311,0.192315,0.190207,0.194368,0.204443,0.204079,0.204803,0.20801,0.211656,0.213937,0.220963,0.221188,0.235964,0.235644,0.239052,0.240191,0.240899,0.239195,0.241769,0.252906,0.252699,0.251527,0.250486,0.268799,0.268955,0.275038,0.30439,0.304684,0.311302,0.312603,0.311491,0.324393,0.328086,0.339867,0.341273,0.347023,0.346361,0.360941,0.370407,0.371038,0.369856,0.369085,0.396192,0.40976,0.410572,0.410562,0.409461,0.407948,0.438153,0.437034,0.435897,0.445299,0.443667,0.46385,0.465875,0.47544,0.474969,0.482849,0.482346,0.48093,0.491914,0.496895,0.496355,0.510087,0.511046,0.525768,0.526085,0.524863,0.535258,0.541691,0.541322,0.551734,0.56849,0.569019,0.574148,0.575275,0.57539,0.592124,0.595897,0.606634,0.605689,0.619614,0.618928,0.641467,0.64019,0.641743,0.658054,0.664714,0.66659,0.679125,0.681186,0.688204,0.694482,0.697261,0.707224,0.707164,0.71766,0.728683,0.738503,0.746799,0.759124,0.759849,0.760281,0.761072,0.778309,0.781676,0.786488,0.00344787,0.800212,0.799418,0.811408,0.812552,0.818824,0.822644,0.82348,0.831728,0.83743,0.84897,0.849657,0.860559,0.864756,0.874107,0.877453,0.890557,0.897721,0.900665,0.908157,0.909504,0.912843,0.91749,0.938276,0.949661,0.952736,0.965403,0.971367,0.973986,0.978306,0.987994,0.996919,1.00157,1.00694,1.01346,1.02561,1.02829,1.03962,1.04663,1.04914,1.05526,1.0642,1.07272,1.07846,1.08385,1.08565,1.10172,1.10273,1.11345,1.11594,1.12549,1.13283,1.13697,1.14419,1.1517,1.16009,1.16929,0.00315483,1.19241,1.19398,1.20825,1.20837,0.0034235,0.00334672,1.23772,1.24047,1.24782,1.25054,1.25757,1.26714,1.27223,1.2746,1.2817,1.28832,1.28956,1.30517,1.31275,1.31301,0.00336773,1.33047,1.33931,1.34769,1.34979,1.35925,1.36949,1.37472,1.37422,1.48516,1.39329,1.40055,1.41063,1.4192,1.42427,1.44004,1.45057,1.45224,0.00325264,1.48319,1.49209,1.50881,0.00328009,1.5432,1.55048,1.55086,1.55193,0.00357012,0.00323107,1.58542,1.58698,1.59636,1.59752,1.59729,1.5999,1.59919,1.59553,1.59474,1.59462,1.60729,0.00312508,0.00344481,1.64025,1.64139,1.64487,1.65208,1.66068,1.67785,1.67828,1.68666,1.6993,1.69886,1.71844,1.71836,1.72612,1.72656,1.73141,1.7324,1.73855,1.74821,0.00331416,1.7683,1.76504,1.78204,1.7817,1.78575,1.79524,1.79522,1.79391,1.79363,0.00326507,1.82763,0.00333606,0.00368261,0.00326167,1.84671,1.85712,1.85943,1.85776,1.87572,0.00365937,1.89564,0.00335387,0.00352023,0.00340856,1.93391,0.00324087,0.00346995,0.00340696,1.96363,0.00328253,1.97343,0.00323493,1.9811,1.97961,1.97923,1.96746,1.96707,1.98326,1.98575,1.98662,1.98886,1.99141,1.9895,1.99549,2.01151,2.0131,2.01147,2.01943,2.02772,0.00323092,2.04166,0.00340759,0.00346543,0.00337334
0.191113,0.191969,0.190909,0.189986,0.199596,0.199453,0.203427,0.206833,0.217332,0.221794,0.234442,0.235013,0.241098,0.240992,0.239975,0.245338,0.245019,0.245711,0.244926,0.247409,0.246937,0.260255,0.260102,0.265294,0.264066,0.274449,0.00342234,0.293697,0.311705,0.313005,0.311508,0.309897,0.00327283,0.338113,0.0031938,0.345139,0.00316429,0.363365,0.369592,0.368648,0.368225,0.367328,0.00352106,0.404045,0.408046,0.408256,0.423999,0.423637,0.434604,0.433333,0.444745,0.445928,0.444993,0.452314,0.458329,0.464369,0.00364052,0.480297,0.479223,0.483925,0.491888,0.491009,0.492727,0.499718,0.508985,0.52605,0.522478,0.528983,0.529623,0.531707,0.551739,0.553597,0.553214,0.553392,0.572352,0.571327,0.569831,0.585802,0.594311,0.596407,0.607492,0.613757,0.624739,0.636146,0.644631,0.645118,0.659663,0.660516,0.664095,0.670021,0.680404,0.681349,0.691466,0.699182,0.704064,0.704427,0.712523,0.726244,0.726229,0.736501,0.743723,0.747184,0.760018,0.769119,0.776768,0.779159,0.786403,0.793974,0.795586,0.805906,0.806569,0.818014,0.818161,0.829025,0.829802,0.837174,0.845155,0.84552,0.854108,0.862745,0.869641,0.877078,0.879105,0.878187,0.0031817,0.903877,0.909103,0.913314,0.917119,0.919395,0.926596,0.942648,0.944779,0.954885,0.964184,0.97493,0.972053,0.00365885,0.00358697,0.00358052,0.00304046,1.09289,0.00335277,0.00364465,1.02889,1.03183,1.04577,1.05944,1.06028,1.07313,1.07936,1.08077,1.086,1.09658,1.09952,1.10869,1.1148,1.1252,1.12934,1.13557,1.14096,1.14985,1.15716,1.16231,1.17426,1.18119,1.19418,1.19509,1.20214,1.21534,0.00311299,1.23408,1.24395,1.24505,1.24787,1.25836,1.25839,1.26492,1.27098,1.28034,1.28604,1.29456,1.29872,1.30418,1.31414,1.31834,1.3265,1.32975,1.33355,1.34288,1.35044,0.00340997,1.3662,1.37155,1.38064,1.38405,1.39059,1.39682,1.40964,1.40874,0.00311538,1.42992,1.43754,1.44665,1.45664,1.46558,1.48671,1.50238,1.49719,1.53018,1.54724,1.55007,1.56091,1.56494,1.5771,1.57536,1.5779,1.57506,1.58404,1.5889,1.58879,1.59202,0.00371833,0.00365885,0.00323529,0.00304569,0.00335763,1.62907,1.64001,1.65001,1.64775,1.66208,1.66254,0.00327688,1.69213,1.69177,0.0032392,0.00333398,1.71967,1.71967,1.73172,1.73288,1.73954,1.741,1.74988,1.75483,1.75369,1.76347,0.00331457,1.78637,1.78572,1.78545,1.7994,1.7999,1.8012,1.79999,1.79903,0.00360198,0.0032299,0.00338936,1.8427,1.8433,1.85687,1.85619,1.87095,1.87561,0.00320112,1.87874,0.00287083,0.00310147,0.00324931,0.0032648,0.00333636,0.003297,1.9616,0.00304077,1.96929,1.96675,1.97911,1.97962,1.97921,1.97963,1.9768,1.97803,1.97599,1.97645,1.9874,1.99309,1.99072,1.9893,2.00037,1.99976,0.0032191,2.01531,2.02448,2.03586,2.03548,0.0033175,0.00303865,0.00322085
0.17734,0.192373,0.193191,0.191081,0.194597,0.00337984,0.210828,0.211457,0.213786,0.217311,0.23372,0.231737,0.239226,0.240197,0.25061,0.250565,0.247968,0.246039,0.244563,0.244238,0.251114,0.00316709,0.267581,0.266478,0.265058,0.264554,0.269106,0.00329259,0.00317548,0.00339778,0.307878,0.328777,0.327692,0.328173,0.341639,0.00313273,0.354031,0.36299,0.361861,0.00336584,0.378835,0.396326,0.39696,0.396357,0.404969,0.404386,0.421902,0.413185,0.426161,0.427023,0.435112,0.441911,0.44837,0.456205,0.455802,0.464342,0.464339,0.462622,0.482346,0.481559,0.486717,0.490728,0.490199,0.496863,0.4978,0.513611,0.524188,0.524737,0.52886,0.531401,0.54237,0.540891,0.555038,0.558723,0.559459,0.576288,0.575125,0.583557,0.588658,0.601411,0.603783,0.613508,0.622233,0.622487,0.63161,0.650124,0.653406,0.664134,0.667241,0.667657,0.670356,0.679642,0.688383,0.687541,0.702875,0.702737,0.718342,0.723165,0.724941,0.731989,0.74491,0.747174,0.751522,0.76314,0.766413,0.784134,0.786618,0.789347,0.801029,0.802471,0.802662,0.817728,0.824518,0.825907,0.83457,0.835064,0.838224,0.846116,0.847087,0.86218,0.865857,0.870406,0.875615,0.887669,0.896335,0.906918,0.909493,0.912008,0.921044,0.921867,0.929377,0.936865,0.937136,0.00336522,0.00327126,0.96992,0.970692,0.00320072,0.963505,0.963807,0.0032684,0.00326961,0.0033038,0.00311941,0.00330554,1.03931,1.04214,1.0522,1.05315,1.06679,1.07067,1.08601,1.0905,1.09546,1.09833,1.10778,1.11566,1.11915,1.12848,1.13501,1.14076,1.1508,1.15391,1.16288,1.17206,1.17527,1.18259,1.19357,1.20492,1.20776,1.22098,1.22539,1.2345,1.24463,1.25437,1.25854,1.26414,1.26615,1.27269,1.27764,1.2846,1.29183,1.29746,1.30509,1.30935,1.31845,1.32503,1.33061,1.33685,1.34335,1.34559,1.35812,1.36114,1.36619,1.36876,1.37742,1.38454,1.38804,1.399,1.39819,1.41373,1.42587,1.43988,1.43849,1.44848,1.45707,1.45802,1.47391,1.48241,0.00318499,0.00321613,0.00308551,0.0032603,0.00311849,1.57054,1.57121,1.57378,1.57215,1.5709,1.58846,1.58807,0.00329532,0.00322775,0.00328567,0.00335053,0.00366361,0.00332188,1.63663,1.63536,1.63439,1.65172,1.65063,1.6519,1.67873,1.68641,1.6884,1.69701,1.70605,0.00336036,0.00335308,1.72627,1.72898,1.73452,1.73514,1.74776,1.74531,1.75255,1.76156,1.76517,1.76405,0.00333008,0.00328071,1.80356,1.80258,1.80381,1.79888,1.79798,1.79692,1.82267,1.82316,1.82265,0.00318948,1.85038,1.85051,1.86884,1.8686,1.87479,1.87952,1.87671,0.00321501,0.00313051,0.00316762,0.00330256,1.94799,1.94688,1.95644,1.95446,1.96258,1.97219,1.97948,1.98178,1.98022,1.9805,1.97787,1.97847,1.97979,1.98951,1.99314,0.00352584,0.0031285,1.99948,1.99926,1.99977,2.00663,2.02201,2.0211,2.02377,0.00314078,2.04169,0.00304346
0.182735,0.182461,0.00306942,0.206824,0.206779,0.214632,0.214313,0.214825,0.215318,0.221012,0.223558,0.238527,0.238201,0.251081,0.251403,0.251578,0.250253,0.248377,0.24766,0.248174,0.246746,0.262399,0.26805,0.267699,0.267185,0.265878,0.00339435,0.00353143,0.00334423,0.00355983,0.329174,0.329654,0.327808,0.33926,0.349828,0.352861,0.359,0.357223,0.369953,0.37194,0.00335292,0.385722,0.384407,0.39121,0.407776,0.420212,0.421071,0.428912,0.429764,0.428238,0.436745,0.440852,0.451925,0.449232,0.462507,0.462136,0.465362,0.473386,0.47681,0.487658,0.48744,0.486898,0.485899,0.497547,0.50581,0.512163,0.524502,0.524209,0.539351,0.541104,0.544328,0.545662,0.548904,0.557913,0.563818,0.563385,0.574928,0.588939,0.594051,0.594136,0.594122,0.609058,0.609004,0.631978,0.639227,0.639406,0.639529,0.00343428,0.667874,0.668338,0.675762,0.684501,0.691698,0.69135,0.701862,0.710738,0.714037,0.727737,0.735491,0.736001,0.74174,0.750009,0.755818,0.756259,0.778527,0.779711,0.787037,0.788469,0.799181,0.80327,0.807404,0.811965,0.817707,0.827717,0.829853,0.836162,0.841626,0.850414,0.857422,0.858058,0.865539,0.869726,0.879572,0.884903,0.896593,0.900021,0.905349,0.915624,0.924253,0.929037,0.930623,0.942055,0.94324,0.942942,0.00325833,0.00342347,0.00332993,0.977048,0.977318,0.00364544,0.00326486,0.00340075,0.00325713,1.24989,1.25027,0.00355629,1.05042,1.05192,1.05725,1.06542,1.07434,1.08214,1.09819,1.1024,1.10621,1.11163,1.11625,1.12203,1.12395,1.13734,1.14361,1.14578,1.15516,1.16303,1.16678,1.17465,1.18491,1.18918,1.20093,1.20863,1.21428,1.22212,1.22685,1.23591,1.24332,1.25759,1.25872,1.2714,1.27237,1.27832,1.2803,1.28907,1.29772,1.29832,1.30728,1.31882,1.32303,1.32539,1.33325,1.34579,1.3468,1.35152,1.35608,1.3627,1.36958,1.37912,1.37971,1.38551,1.39861,1.40896,1.41563,1.41764,1.42763,1.43172,1.43878,1.44792,1.45445,1.45781,1.46666,0.00306488,1.48894,1.49079,1.49515,0.00347531,1.52657,0.00351534,0.00338898,1.56382,0.00310885,1.57084,0.00316201,1.56403,1.56322,0.00334182,0.00311007,0.00349307,0.00331798,0.00343197,1.63241,1.6331,0.00333925,1.65399,1.65347,0.00343381,1.67865,1.67957,0.0034435,0.00376579,1.71131,1.71087,1.71919,1.72741,1.72483,1.73301,1.73323,1.73937,1.75423,1.75249,1.76058,1.76444,0.0030238,0.00322249,0.0034407,1.79336,1.80148,1.79914,1.79825,1.79719,0.0029082,1.82785,1.82558,1.83356,0.00324151,1.85476,1.8497,1.85628,1.857,1.8771,0.00329496,0.00351511,0.0032587,0.00321141,0.00311048,0.00367105,0.00332621,1.9548,1.96193,1.95714,1.97252,1.97214,1.97178,1.97962,1.98128,1.97904,1.97938,1.97934,1.97915,1.9805,1.9882,1.98655,2.00135,1.99961,1.99919,1.99831,0.00310253,0.00331091,0.00302705,0.0034498,0.00317467,2.03785
0.179967,0.179291,0.190975,0.191447,0.0110518,0.00319209,0.217735,0.218385,0.219689,0.22037,0.222741,0.231204,0.229986,0.229068,0.245161,0.251741,0.249624,0.248615,0.248775,0.261397,0.256021,0.257084,0.263678,0.26411,0.272789,0.00305272,0.00358744,0.00316331,0.00313261,0.320027,0.318865,0.00327559,0.329127,0.339266,0.338768,0.351778,0.358208,0.369538,0.369593,0.375382,0.377021,0.390718,0.388438,0.391816,0.404775,0.410135,0.409606,0.426493,0.426218,0.43,0.436137,0.436287,0.449035,0.448046,0.459735,0.460099,0.457633,0.456505,0.480455,0.480279,0.487306,0.497547,0.500119,0.507206,0.511088,0.518113,0.51761,0.526883,0.53235,0.541237,0.54658,0.546633,0.551078,0.557175,0.55859,0.567502,0.00323446,0.585489,0.594499,0.610293,0.609704,0.611574,0.610648,0.610143,0.00312574,0.645657,0.647919,0.657609,0.659168,0.672744,0.67413,0.68624,0.687599,0.692083,0.707212,0.713882,0.71802,0.729676,0.72864,0.749205,0.750524,0.749487,0.757935,0.763756,0.773103,0.772911,0.779244,0.787862,0.794091,0.80221,0.807567,0.82008,0.821753,0.823264,0.831402,0.839578,0.841615,0.853941,0.858075,0.86389,0.869452,0.87518,0.882279,0.888621,0.891541,0.898479,0.909548,0.913245,0.925159,0.925578,0.926104,0.939548,0.945261,0.936215,0.935292,0.935113,0.00353139,0.00335437,0.00349292,0.990056,0.991169,1.00093,0.00320513,0.00349221,1.04001,1.04458,1.052,1.05634,1.05956,1.0698,1.07078,0.00322649,1.09432,1.09715,1.09948,1.11513,1.116,1.12436,1.13196,1.13919,1.14629,1.14768,1.16,1.16443,1.16541,1.17692,1.18157,1.19002,1.19824,1.20495,1.21102,1.21898,1.22716,1.23541,1.24239,1.24462,1.25333,1.25549,1.26465,1.27534,1.28259,1.28672,1.28992,1.30171,1.30708,1.31298,1.31898,1.32868,1.33214,1.34302,1.34519,1.35026,1.35916,1.36134,1.36757,1.37403,1.37799,1.38258,1.39152,1.39995,1.40506,1.40967,1.4188,1.42581,1.43,1.43515,1.44576,1.45448,1.46357,1.461,1.46061,0.00335267,1.49844,1.50022,1.5086,0.00318285,0.00329589,0.00316796,1.55115,1.55821,1.56762,1.56375,1.56221,1.56128,0.00327002,0.00310649,0.00379075,0.00313619,1.62287,0.00322406,0.00337352,1.66214,1.66258,1.66947,1.67778,1.68191,1.6834,0.00351946,1.7128,1.71094,1.71649,1.7152,1.72336,1.72371,1.72098,1.71992,1.7382,1.74535,1.74432,0.00314811,0.00353415,0.00325292,0.00352127,1.79235,1.79891,1.79819,1.79611,1.81144,1.81046,0.00354047,0.00309279,1.83677,1.83606,1.83774,0.00329289,1.8528,1.86264,0.00332019,0.00306724,0.00318175,1.89881,1.90181,1.90164,0.00345731,0.0033256,0.00300362,1.95403,1.95532,1.95467,1.96076,1.97084,1.96912,1.97357,1.9737,1.97898,1.98072,1.97911,1.98028,1.98231,1.99223,1.99215,1.99023,1.98929,0.0032229,2.01243,2.01021,2.02342,2.02802,2.03164,2.03157
0.176828,0.182785,0.188757,0.209818,0.210343,0.209985,0.209927,0.210284,0.222409,0.233941,0.234562,0.231363,0.230686,0.245337,0.244971,0.253482,0.252031,0.251955,0.262519,0.262684,0.263193,0.261774,0.268993,0.276681,0.276219,0.28442,0.282604,0.298917,0.297169,0.296583,0.0032943,0.00321822,0.33133,0.348302,0.344796,0.350767,0.350191,0.365778,0.367447,0.374527,0.38665,0.387027,0.389136,0.394572,0.396668,0.407805,0.414235,0.420253,0.426279,0.426541,0.428872,0.430735,0.447706,0.444775,0.45274,0.45516,0.00343485,0.472296,0.480799,0.480668,0.499401,0.49887,0.50535,0.504785,0.504917,0.512441,0.515485,0.524102,0.525055,0.531885,0.544424,0.543042,0.548149,0.54724,0.56323,0.564659,0.569629,0.572783,0.592743,0.593798,0.600079,0.602162,0.611767,0.61688,0.00336075,0.00357651,0.0030446,0.657586,0.661101,0.671348,0.671589,0.679481,0.689558,0.688335,0.70322,0.70774,0.718526,0.730262,0.729852,0.745298,0.750405,0.755016,0.758821,0.7602,0.763425,0.777671,0.77996,0.782771,0.793003,0.798493,0.8037,0.812228,0.814274,0.821921,0.828698,0.83916,0.838549,0.850408,0.858664,0.859344,0.870959,0.871129,0.880943,0.885476,0.887528,0.897247,0.908944,0.913383,0.918502,0.925826,0.932464,0.93359,0.944529,0.00334151,0.00303016,0.00332911,0.00343697,0.00331898,0.00348352,0.993847,0.993919,1.00366,1.00643,1.01001,0.00318416,1.04045,1.04278,1.05071,1.06156,1.06412,1.07051,1.07497,1.08189,1.0902,1.10182,1.10868,1.11028,1.12139,1.12385,1.12438,1.14205,1.14311,1.15585,1.1579,1.16036,1.16669,1.17817,1.18218,1.18572,1.20129,1.20448,1.21213,1.21966,1.22488,1.23421,1.23613,1.24653,1.24781,1.25809,1.2604,1.27374,1.27425,1.2842,1.28867,1.29835,1.30234,1.30873,1.31993,1.32412,1.33016,1.33782,1.34032,1.34648,1.3553,1.36502,1.36791,1.37281,1.38046,1.38812,1.38825,1.39827,1.40392,1.40611,1.41732,1.42167,1.4226,1.43129,1.44369,1.45373,1.46195,1.46152,0.00347238,0.00322127,0.00329638,0.0031669,1.50186,1.51431,1.51865,1.51935,0.00287798,1.54816,1.56558,1.56398,1.5643,0.00319839,0.0031615,1.59527,1.60611,0.00347334,0.00326797,1.63893,0.00298741,1.66418,1.6633,1.66442,1.67486,1.68403,1.6864,1.71293,1.7072,1.71017,1.71289,1.71228,1.71268,1.71095,1.71147,1.71681,1.73672,1.73761,1.74403,1.7533,1.75864,0.00305322,0.00328373,0.00327537,1.79236,1.79963,1.80005,1.80943,1.80971,1.80973,1.83082,1.83309,1.83391,0.00349411,1.84487,1.84442,1.85982,0.00311978,0.00314731,0.00310452,1.89365,1.89187,1.90124,1.91342,1.91316,0.00333246,1.94856,1.94824,1.94811,1.95851,1.96298,1.96417,1.96669,1.97549,1.98281,1.97948,1.98133,1.98115,1.98126,1.99395,1.99358,1.9931,2.00797,2.01378,2.01045,2.02152,2.02232,2.02124,2.02776
0.156295,0.152762,0.00351313,0.207048,0.206397,0.20817,0.207817,0.210263,0.213944,0.213135,0.235193,0.232607,0.243321,0.243367,0.245099,0.245646,0.255511,0.254617,0.265343,0.265131,0.264897,0.263387,0.276164,0.276646,0.288902,0.287133,0.290779,0.296821,0.297833,0.300431,0.00336601,0.00304955,0.33418,0.331934,0.339645,0.342982,0.350439,0.356685,0.363151,0.369118,0.376355,0.378943,0.379421,0.388433,0.399177,0.398232,0.41277,0.418144,0.422837,0.430867,0.429428,0.441231,0.440223,0.447678,0.449607,0.449124,0.464959,0.466857,0.46548,0.478777,0.496192,0.496847,0.496704,0.497539,0.496673,0.496496,0.00345308,0.530393,0.531164,0.529934,0.543876,0.547845,0.542996,0.550717,0.562513,0.565862,0.56778,0.576594,0.593378,0.592435,0.594212,0.603813,0.610073,0.614599,0.622708,0.629262,0.00359866,0.00312017,0.00354936,0.673179,0.673842,0.680996,0.680462,0.698225,0.705536,0.707877,0.712117,0.730281,0.73029,0.730218,0.747369,0.75382,0.758032,0.76031,0.767872,0.769131,0.779468,0.787185,0.787233,0.795294,0.802587,0.807947,0.806561,0.822544,0.82826,0.833871,0.843525,0.850253,0.856871,0.861241,0.862572,0.879585,0.883018,0.883993,0.891922,0.896743,0.902575,0.908374,0.914354,0.928951,0.932603,0.937407,0.937747,0.00305165,0.952599,0.00309901,0.965137,0.974969,0.980106,0.985048,0.994938,0.997986,1.00611,1.01594,1.01808,1.02939,1.0459,1.04572,1.05928,1.06088,1.06991,1.07705,1.08435,1.09431,1.0976,1.10484,1.11641,1.11751,1.12446,1.12954,1.13616,1.14481,1.14658,1.15614,1.16357,1.17368,1.17677,1.17848,1.18793,1.19293,1.20496,1.20895,1.2179,1.22573,1.2289,1.23376,1.23708,1.24601,1.25333,1.25823,1.26777,1.2736,1.27777,1.28538,1.29339,1.29794,1.30578,1.31307,1.31927,1.32639,1.32913,0.00309852,1.34915,1.35472,1.35698,1.35778,1.37078,1.38038,1.38488,1.38424,1.3847,0.00347628,1.40611,1.40785,1.41738,1.42336,1.42613,1.43338,1.438,1.44257,1.45738,1.46545,1.47084,1.47232,1.47715,0.00321596,1.50475,0.00309793,1.52044,1.52338,1.54355,1.54263,1.55031,0.00321576,1.57683,1.58589,1.58799,1.59549,1.59534,0.00304097,0.00323895,0.00310644,0.0034538,1.65157,1.66128,1.66759,1.66478,0.00312669,1.68672,0.00323021,1.71276,1.7163,1.71698,1.72102,1.72084,1.73067,1.73138,1.74043,1.73831,1.73786,1.75491,1.76268,1.7659,1.76934,0.00369879,1.78638,1.78846,0.00342629,0.00336907,0.00312443,1.81909,1.82043,1.82208,1.82835,1.83788,0.00268974,1.84641,1.85499,1.86446,0.0034615,0.00308174,1.88904,1.8889,0.00319323,1.91085,1.91028,1.91191,0.00336984,1.95102,1.95134,1.95176,1.95148,1.96573,0.00330924,1.97378,1.97645,1.98201,1.9821,1.98933,1.98757,1.99317,1.99864,1.99708,2.00635,2.00776,0.0032908,2.01537,2.0239,2.02984,2.02553
0.146332,0.156481,0.00313641,0.160198,0.15879,0.182821,0.208319,0.212741,0.215106,0.234967,0.00321633,0.252877,0.251965,0.242457,0.246735,0.245009,0.256622,0.257642,0.265947,0.26916,0.26613,0.265844,0.276218,0.287542,0.292721,0.293713,0.294189,0.299978,0.310487,0.00334918,0.00322738,0.00331509,0.342107,0.342128,0.347435,0.346323,0.353203,0.362035,0.366252,0.366216,0.376411,0.384755,0.383044,0.396708,0.405474,0.405136,0.416018,0.42505,0.427268,0.434881,0.436447,0.448718,0.451255,0.449141,0.457122,0.456588,0.464476,0.473072,0.47458,0.47429,0.486975,0.493638,0.500387,0.497777,0.497401,0.508068,0.00316054,0.518984,0.532165,0.539026,0.548261,0.54912,0.549489,0.552664,0.553032,0.56469,0.573296,0.574352,0.583571,0.593681,0.601655,0.601912,0.611698,0.625365,0.62353,0.634822,0.639143,0.00344953,0.00336451,0.674446,0.682907,0.683454,0.690151,0.694034,0.707759,0.711947,0.717384,0.729214,0.728778,0.740292,0.748358,0.754318,0.754229,0.753944,0.773179,0.777425,0.782508,0.783526,0.785546,0.797637,0.806247,0.811292,0.818639,0.824807,0.824569,0.00327386,0.839838,0.853181,0.853844,0.861348,0.867607,0.881192,0.884821,0.894677,0.898218,0.904604,0.905157,0.914929,0.914346,0.914204,0.929843,0.939108,0.940885,0.00344209,0.00332573,0.96833,0.97466,0.983235,0.989324,0.995347,0.997692,1.00434,1.00859,1.0184,1.02485,1.02563,1.04094,1.04919,1.05614,1.06523,1.06793,1.07587,1.08801,1.09041,1.09977,1.10508,1.11846,1.12314,1.12401,1.12799,1.13719,1.13912,1.14911,1.15695,1.15842,1.16823,1.17673,1.1754,1.17606,1.27335,1.19951,1.20028,1.2146,1.2173,1.22534,1.22954,1.24019,1.24708,1.2509,1.261,1.26546,1.26762,1.2763,1.28138,1.29178,1.29319,1.30248,1.3033,1.31493,1.32486,1.32577,1.33634,1.34393,1.34732,1.35729,1.35925,1.37064,1.3715,1.37883,1.39117,1.39237,1.40056,1.40119,1.41154,1.41244,1.42251,1.42519,1.42877,1.43564,1.44732,1.44807,1.45299,1.46383,1.47004,1.47416,1.4813,1.48945,1.50822,1.51313,1.52664,1.53026,1.53412,1.53424,0.00348473,0.00327132,1.58001,1.58244,1.58174,1.58234,1.58823,1.60846,1.6069,1.61944,0.00351503,0.00309663,1.66331,1.66254,1.68964,1.69012,1.68943,1.70538,1.70584,1.70608,1.72166,1.73118,1.73626,1.73782,1.73854,1.73737,1.73647,1.76183,1.76052,1.77028,1.77491,1.77833,1.7759,1.78422,1.79327,0.00335794,0.00335782,1.81713,1.8227,1.81786,1.82786,0.00307722,1.83875,1.85144,1.85187,1.85935,0.00337074,0.00337006,1.88604,1.88989,1.89716,1.90651,1.90602,0.00323724,0.00333575,0.00321059,1.96194,1.96093,1.96167,1.95929,1.95872,1.95836,1.97835,1.97864,1.98485,1.9846,1.98458,1.99659,1.99725,1.99627,1.99423,2.00571,2.00472,2.01396,2.00425,2.02708,2.02677
0.128482,0.128859,0.127174,0.126636,0.00308211,0.00339178,0.00328335,0.00325482,0.217764,0.218432,0.21743,0.216094,0.255397,0.244322,0.251896,0.25216,0.263159,0.262858,0.26764,0.267987,0.274088,0.278686,0.278835,0.283213,0.275316,0.287659,0.295116,0.296847,0.32271,0.00312364,0.323465,0.32214,0.320458,0.337778,0.345157,0.351677,0.358507,0.36577,0.362922,0.367089,0.383194,0.383579,0.391194,0.40971,0.410172,0.417471,0.417234,0.429952,0.429376,0.440725,0.440421,0.453032,0.453567,0.453174,0.457498,0.468321,0.469911,0.468438,0.473719,0.48671,0.489492,0.491673,0.494704,0.507656,0.506592,0.513396,0.522753,0.523848,0.523653,0.535199,0.537095,0.5372,0.555458,0.554229,0.554989,0.567247,0.566779,0.57336,0.572098,0.57042,0.604259,0.604363,0.618851,0.621528,0.62572,0.635597,0.642613,0.649778,0.660854,0.668123,0.683482,0.681745,0.691022,0.702308,0.702458,0.71092,0.718404,0.721559,0.729417,0.742854,0.746524,0.752891,0.762825,0.769876,0.768445,0.779816,0.781019,0.787404,0.792436,0.80209,0.811624,0.818421,0.817925,0.833654,0.8335,0.8456,0.845485,0.00340931,0.861977,0.864771,0.877092,0.880838,0.884543,0.895585,0.898489,0.909145,0.918822,0.918442,0.918565,0.932677,0.933625,0.942929,0.946732,0.947126,0.00360312,0.00304386,0.980208,0.986981,0.992306,1.00034,1.00471,1.0115,1.0129,1.02142,1.02878,1.03579,1.03678,1.04235,0.00365785,1.06381,1.06474,1.0695,1.08388,1.08405,1.0975,1.10615,1.1155,1.11907,1.12883,1.12926,1.1341,1.14278,1.14329,1.15788,1.16264,1.1638,1.17521,1.1799,1.18442,1.18642,1.18647,1.20605,1.21049,1.21356,1.21801,1.22594,1.23584,1.24061,1.24268,1.2511,1.25513,1.26504,1.27503,1.27838,1.28794,1.29043,1.29943,1.30535,1.3126,1.31926,1.32314,1.33177,1.33732,1.34811,1.35056,1.35698,1.36521,1.36891,1.37659,1.38757,1.38922,1.39289,1.4016,1.4051,1.41006,1.41533,1.42122,1.42796,1.43227,1.43958,1.44401,1.44462,1.45823,1.46356,1.47291,1.4735,1.48813,1.49603,1.49914,1.50578,1.51575,1.52452,1.54057,1.54531,1.54565,1.55319,1.55734,0.00300763,1.58165,1.58842,1.59299,1.59533,0.00325149,0.00317933,0.00347617,0.00342643,0.00299922,1.67843,1.68349,1.68355,1.68763,1.70382,1.70343,1.71697,1.71979,1.72995,1.74085,1.74368,1.74235,1.74333,1.75214,1.75012,1.76669,0.00323477,1.77488,1.78523,0.00356184,0.0032354,1.81325,1.8139,1.81424,1.82351,1.81846,1.82412,1.83264,1.83859,1.84387,1.84288,1.85915,1.85928,1.86684,1.86709,1.87214,0.00318442,1.89451,1.89497,1.90994,1.90678,1.9151,0.00326004,1.9663,1.967,1.96699,1.96646,1.97229,1.97137,0.00325926,0.00326357,1.98527,1.98933,1.99346,1.9921,1.992,0.00286368,2.00722,2.00917,2.0063,2.00551,2.00459,0.00319138
0.129849,0.128917,0.128182,0.1276,0.00298729,0.00340114,0.00319744,0.00339227,0.00339016,0.218148,0.217363,0.24525,0.245064,0.243765,0.251939,0.251129,0.259928,0.265235,0.278967,0.27766,0.277366,0.280252,0.285499,0.283068,0.281065,0.288585,0.28831,0.00335135,0.00322663,0.324087,0.323901,0.322723,0.320738,0.00353799,0.350039,0.352726,0.361816,0.372302,0.373101,0.372858,0.371941,0.37054,0.400606,0.398037,0.411589,0.418061,0.422063,0.427843,0.431311,0.434623,0.448743,0.450307,0.46224,0.464282,0.465356,0.47422,0.475444,0.475404,0.480932,0.486359,0.489975,0.495682,0.503434,0.503849,0.511115,0.512075,0.511469,0.528249,0.531866,0.539029,0.542197,0.552137,0.556197,0.558793,0.559769,0.577249,0.574635,0.587494,0.587199,0.591897,0.600313,0.607914,0.608309,0.618673,0.626372,0.635335,0.642634,0.655622,0.656415,0.663492,0.679359,0.679121,0.688194,0.697,0.710988,0.711437,0.717691,0.723457,0.725729,0.742532,0.748367,0.75399,0.762506,0.767167,0.767924,0.77488,0.781309,0.788504,0.794164,0.797632,0.812986,0.816593,0.828963,0.829662,0.839559,0.846196,0.848135,0.852365,0.853787,0.870917,0.873061,0.879482,0.88304,0.893108,0.901597,0.904992,0.915127,0.922589,0.92526,0.00336739,0.00331526,0.945948,0.948135,0.950308,0.952534,0.96325,0.967149,0.976394,0.987811,0.993762,1.0057,1.0113,1.01683,1.01864,1.02542,1.02784,1.03404,1.04181,1.04319,1.0559,1.0629,1.06395,1.0688,0.00335231,1.08447,1.09168,1.09253,1.11079,1.11778,1.12561,1.19543,1.13785,0.00311013,1.1538,1.15435,1.16728,1.16761,1.17579,1.17841,1.18297,1.18739,1.189,1.20333,1.21075,1.213,1.21993,1.22331,1.23169,1.23998,1.24356,1.24928,1.25921,1.26606,1.26922,1.28305,1.28457,1.29634,1.30491,1.30883,1.31288,1.32018,1.32382,1.33273,1.33992,1.34869,1.3558,1.35983,1.36398,1.37092,1.37971,1.38148,1.38822,1.39289,1.3964,1.40913,1.41263,1.41867,1.42593,1.43044,1.43302,1.43605,1.44564,1.45637,1.45925,1.4673,1.46956,1.48505,1.48239,1.49206,1.49907,1.50868,1.50917,1.52113,1.52943,1.53969,1.54997,1.55123,1.55998,1.56137,1.58172,1.58697,1.58554,0.00326465,0.00324762,0.00330552,1.65889,0.00317719,1.67774,1.67912,1.68173,0.00323779,1.69998,1.7039,1.70444,1.70341,1.71742,1.72888,1.72883,1.72791,1.74269,1.75227,1.75028,1.74947,0.00310281,0.00325595,0.00326629,1.79681,1.79566,1.79524,1.80721,1.80901,1.81578,1.82686,1.82447,1.8233,0.00310732,0.00312027,1.84902,1.8577,1.86546,1.86456,1.86452,1.86475,0.00332932,0.00315254,1.89418,1.89801,1.90538,0.0030921,1.91445,1.92086,0.00343811,0.00303797,0.00309172,0.00323525,1.97344,1.97903,1.97822,1.97292,1.97905,1.99155,1.99054,2.00162,2.00348,2.00335,2.00562,2.01036,2.01047,0.00339733,2.02787
0.126067,0.127342,0.128337,0.127072,0.127268,0.00326285,0.153733,0.157199,0.16126,0.186088,0.185682,0.196983,0.200741,0.199892,0.00355218,0.248218,0.257293,0.253791,0.276794,0.276454,0.274253,0.283722,0.285131,0.283727,0.284028,0.287365,0.285955,0.284831,0.295905,0.00335224,0.320259,0.00350436,0.00343614,0.00324655,0.35843,0.362564,0.360846,0.366207,0.370587,0.375577,0.380157,0.395005,0.396893,0.404954,0.407167,0.420992,0.419463,0.426994,0.426257,0.438201,0.45129,0.451301,0.462139,0.460776,0.47119,0.471921,0.472827,0.474803,0.483824,0.484729,0.48425,0.498192,0.501221,0.50878,0.508019,0.508211,0.511147,0.53079,0.530907,0.538609,0.538006,0.547127,0.55577,0.555786,0.569163,0.572777,0.579199,0.579518,0.587393,0.596061,0.597136,0.611024,0.61261,0.619142,0.627405,0.63791,0.639536,0.646322,0.658946,0.662426,0.670634,0.679973,0.68431,0.699885,0.702595,0.71092,0.710712,0.722573,0.724768,0.732322,0.739334,0.746634,0.760256,0.760158,0.771801,0.774474,0.78198,0.785139,0.792036,0.802877,0.808003,0.817753,0.822195,0.832584,0.83965,0.842364,0.843537,0.851353,0.860379,0.861929,0.868718,0.8771,0.884659,0.889198,0.894755,0.901788,0.909293,0.923535,0.923822,0.936314,0.938921,0.94933,0.948741,0.955993,0.957253,0.963419,0.96672,0.968232,0.983647,0.98488,0.990986,0.997674,1.01232,1.02107,1.02412,1.02793,1.03338,1.03982,1.04279,1.0484,1.06405,1.06474,1.07247,1.07315,1.072,1.07932,1.09389,1.09837,1.11224,1.12005,1.12087,0.00324058,1.14381,1.15332,1.15857,1.15982,1.16997,1.17035,1.18415,1.18439,1.18844,1.18538,1.18677,1.21006,1.21351,1.21899,1.2232,1.22375,1.23335,1.23976,1.24603,1.2526,1.25929,1.26082,1.2727,1.28549,1.28566,1.29514,1.30369,1.30686,1.31249,1.32275,1.33078,1.33281,1.34062,1.34654,1.34956,1.35798,1.36349,1.37539,1.3774,1.38562,1.38899,1.3986,1.39867,1.41547,1.4149,1.42334,1.4264,1.43525,1.4379,1.44328,1.44351,1.45764,1.46321,1.47507,1.47554,1.48057,1.48738,1.49834,1.50331,1.50986,1.50936,1.53019,1.52981,1.53655,1.55236,1.55096,1.56638,1.57258,0.00323091,0.0033076,0.00300948,1.60556,0.00331446,0.00320917,0.00345906,0.00320638,1.67612,0.00329133,0.0032291,0.00340474,0.00332111,0.00342147,1.70454,1.71407,1.72186,1.72662,1.73063,1.73018,1.74031,1.74248,1.7554,1.75538,1.75855,0.00339147,0.00334845,1.79585,1.79404,1.80574,1.80371,1.80967,0.00306755,1.8237,0.0035844,1.85018,1.85092,1.85441,1.84976,1.85802,1.86812,1.86731,1.86836,0.00317933,1.88558,1.88194,1.88214,1.90381,1.90463,1.91415,0.00333592,1.92339,1.93269,0.00276446,0.00337477,1.95101,1.97924,1.9767,1.97743,1.97747,1.98117,1.9817,2.00572,2.00423,2.00465,2.00377,2.00032,2.01081,2.00958,2.03372
0.00328925,0.127936,0.00309046,0.00335454,0.00320929,0.150141,0.161536,0.152237,0.164266,0.179512,0.177968,0.180246,0.201317,0.194148,0.00313453,0.00325026,0.218682,0.229296,0.277755,0.278087,0.277579,0.276409,0.27655,0.283755,0.283426,0.283221,0.286958,0.28641,0.286368,0.00365507,0.00315826,0.00347507,0.337077,0.337226,0.36223,0.363281,0.362313,0.377403,0.377687,0.386607,0.387318,0.397952,0.406936,0.407667,0.410557,0.421984,0.424524,0.425129,0.438883,0.440495,0.446573,0.465801,0.465518,0.466412,0.465271,0.462744,0.474386,0.486265,0.485899,0.488838,0.499803,0.503254,0.50582,0.507398,0.51059,0.518108,0.531301,0.53225,0.537993,0.538674,0.542381,0.548438,0.554287,0.56392,0.563304,0.574393,0.574706,0.581948,0.597761,0.59641,0.611166,0.619348,0.626653,0.629312,0.635184,0.639324,0.648449,0.655586,0.659889,0.660564,0.669464,0.684851,0.685382,0.699339,0.704894,0.71402,0.720561,0.720038,0.733244,0.739118,0.739663,0.752359,0.759843,0.768905,0.771888,0.777827,0.786907,0.788977,0.800252,0.800984,0.809407,0.811685,0.822402,0.826304,0.832604,0.842121,0.846114,0.852113,0.855883,0.865676,0.870748,0.873006,0.880359,0.888518,0.00310078,0.900752,0.9095,0.916753,0.918268,0.929262,0.929371,0.945005,0.946758,0.956261,0.963348,0.971676,0.975944,0.976943,0.981574,0.98397,0.991409,1.00087,1.00486,1.01188,0.00307878,1.02642,1.03686,1.03952,1.04071,1.04287,1.0526,1.06227,1.07395,1.0806,1.08198,1.0829,1.088,1.10285,1.10881,1.11543,1.11697,1.12245,1.12998,1.13689,1.14783,1.14969,1.17,1.17178,1.17399,1.17833,1.18712,1.19216,1.19807,1.20517,1.20837,1.21706,1.22191,1.22431,1.23954,1.24255,1.24844,1.25185,1.26037,1.26172,1.26465,1.27801,1.28695,1.28736,1.30092,1.30606,1.31284,1.32036,1.32477,1.33151,1.33891,1.34606,1.3544,1.35677,1.36106,1.37381,1.37554,1.38437,1.38665,1.39521,1.40173,1.40341,1.4137,1.41935,1.42317,1.43627,1.43364,1.43355,1.44788,1.45668,1.45779,1.46955,1.47108,1.47966,0.00327,1.49976,1.50067,1.50464,1.51283,1.51713,1.52557,1.54007,1.53983,1.55034,1.5505,1.56819,0.00350627,1.58155,1.59475,1.6066,0.00318146,0.0033405,1.62288,0.00331559,0.00368416,1.66942,1.66786,0.00319586,0.00334105,0.00341248,0.00326508,1.7027,1.70904,1.72542,1.72647,1.72617,1.73305,1.73447,0.00340219,0.00358667,1.77243,1.77207,1.77118,1.79167,1.79283,1.80206,1.80134,1.80382,1.82416,1.82484,1.82479,0.00343825,0.00332199,1.8504,1.85034,1.84884,1.85395,1.85639,0.00314331,1.8885,1.88651,1.89336,1.89207,1.89187,0.00309551,1.90474,1.92025,1.92659,1.92571,1.93206,1.94021,1.94839,1.95072,1.95951,1.98278,1.98219,1.98162,1.98845,1.98951,1.99262,1.99465,2.00439,2.00842,2.01379,2.01308,0.00317011
0.00327527,0.00319894,0.0109203,0.00322441,0.00345626,0.0035255,0.155203,0.154317,0.00321021,0.165161,0.163129,0.18087,0.180534,0.197655,0.197713,0.205336,0.221039,0.221022,0.229031,0.26782,0.268274,0.267197,0.267553,0.284779,0.285603,0.284802,0.285245,0.28477,0.284933,0.00329447,0.338532,0.337637,0.337405,0.337009,0.337462,0.00344528,0.379635,0.380579,0.380101,0.385664,0.400011,0.400966,0.401994,0.413321,0.414086,0.418097,0.425511,0.436887,0.436505,0.442578,0.448567,0.452101,0.451552,0.467804,0.464725,0.00338747,0.473464,0.490578,0.491458,0.493056,0.502898,0.500905,0.507754,0.512406,0.515687,0.5215,0.531992,0.529349,0.536509,0.542068,0.542618,0.548215,0.556695,0.562945,0.573274,0.572757,0.578769,0.583634,0.589717,0.00299033,0.605236,0.614237,0.625877,0.625697,0.62531,0.647286,0.653403,0.65528,0.663369,0.661787,0.674347,0.00320248,0.688034,0.697827,0.700357,0.711081,0.717408,0.725697,0.73452,0.738552,0.749462,0.749374,0.759887,0.766826,0.769732,0.777201,0.781918,0.793604,0.797257,0.798289,0.807662,0.811774,0.821645,0.826393,0.829386,0.839122,0.844379,0.848132,0.857269,0.866728,0.868023,0.87445,0.881069,0.888741,0.900561,0.907616,0.908237,0.919825,0.922438,0.927171,0.930882,0.941219,0.940951,0.950367,0.954051,0.960961,0.966835,0.972665,0.974263,0.980452,0.984497,0.989139,1.00406,1.00721,1.00873,1.01692,1.0294,1.03469,1.04212,1.04276,1.04213,1.05172,1.0638,1.06794,1.07541,1.07689,0.00340715,1.10106,1.10303,1.10883,1.11234,1.11656,1.12444,1.12966,1.14188,1.14223,1.15734,1.15884,1.17185,1.17326,1.18077,1.18834,1.19614,1.19849,1.20215,1.20626,1.21551,1.22496,1.2261,1.23847,1.2424,1.25169,1.25983,1.26601,1.26932,1.27406,1.28107,1.28761,1.29109,1.30146,1.31028,1.31103,1.32346,1.3259,1.33553,1.34092,1.34435,1.35185,1.35611,1.36396,1.37355,1.37832,1.38827,1.39589,1.39781,1.40001,1.40728,1.41364,1.41791,1.42955,1.43601,1.43987,1.45033,1.45153,1.46128,1.46121,1.47083,1.47892,1.48504,1.49525,1.49532,1.49936,1.51007,1.51368,1.52612,1.52986,1.53105,1.54008,1.54862,0.00351545,1.56997,1.5728,1.58181,1.60031,1.59959,1.61285,1.61669,0.00332278,0.00348081,1.65854,1.66848,1.66772,1.67229,1.67146,1.6762,1.67948,0.00333434,1.7031,1.70254,0.00312257,1.72122,1.72899,1.73925,1.73782,1.74748,1.77214,1.77136,0.00344931,0.00348337,0.00303712,1.80073,1.80103,1.81525,1.8201,1.83009,1.83686,1.83748,1.84403,1.84374,1.84426,1.853,1.85138,0.00296166,0.00304723,1.88637,1.88735,1.89299,1.8992,1.89691,1.90626,1.9081,1.92597,1.92577,1.9254,1.9328,1.94182,1.95397,1.95175,1.95087,0.00312045,1.98255,0.00293108,1.98971,1.99003,1.99567,1.99764,2.00006,0.00311965,0.00334694,0.00318957
0.00316089,0.104278,0.00320161,0.00311905,0.00349949,0.00328126,0.137791,0.152396,0.156166,0.155391,0.166828,0.180882,0.17745,0.198743,0.197336,0.197089,0.212694,0.22359,0.222301,0.23024,0.238241,0.265235,0.00339707,0.265707,0.281848,0.299759,0.298394,0.294431,0.290681,0.00321386,0.337663,0.337761,0.338228,0.338396,0.33666,0.334898,0.00319279,0.377346,0.00314388,0.00320841,0.400327,0.400134,0.400081,0.415523,0.414456,0.415912,0.00309549,0.431711,0.446077,0.446423,0.446178,0.447667,0.447481,0.445938,0.453374,0.473942,0.474735,0.474602,0.00303509,0.498119,0.501316,0.508982,0.510413,0.513691,0.519325,0.524849,0.528694,0.533275,0.53606,0.539319,0.543044,0.548358,0.551517,0.566914,0.567667,0.577784,0.582256,0.582201,0.594768,0.597113,0.604694,0.611113,0.624873,0.625471,0.632327,0.00325177,0.655245,0.655896,0.654521,0.671315,0.671001,0.669529,0.6698,0.00325965,0.70531,0.706912,0.716515,0.722497,0.729392,0.735434,0.744886,0.745952,0.753739,0.76023,0.768064,0.770527,0.778311,0.784692,0.788612,0.798625,0.802299,0.805953,0.812863,0.821945,0.829983,0.831529,0.838513,0.8439,0.853526,0.853357,0.866746,0.86854,0.879816,0.886813,0.890808,0.899178,0.902674,0.915007,0.91818,0.920393,0.924886,0.930624,0.937274,0.945531,0.947306,0.956358,0.965913,0.970768,0.975219,0.979965,0.983817,0.984433,1.00157,1.00391,1.00765,1.00893,1.02198,1.02751,1.03558,1.03933,1.04099,1.04532,1.05277,1.05794,1.05778,1.07437,1.08265,1.0906,1.09138,1.09725,1.10264,1.11116,1.11401,1.1216,1.12382,1.13388,1.13759,1.14867,1.148,0.00350622,0.00327482,1.17747,1.18164,1.18611,1.19878,1.20009,1.21494,1.21814,1.22021,1.2284,1.23618,1.24182,1.2462,1.25711,1.26851,1.27551,1.27698,1.28082,1.28845,1.29186,1.29702,1.30986,1.31535,1.32196,1.32667,1.33284,1.34154,1.35321,1.35535,1.35977,1.36288,1.37062,1.37158,1.3865,1.39502,1.39961,1.40182,1.40715,1.4143,1.4172,1.42457,1.43475,1.4417,1.45348,1.45334,1.46144,1.46728,1.47074,1.47106,1.48484,1.49475,1.49675,1.50208,1.50775,1.51968,1.5221,1.52426,1.53665,1.53689,1.54667,1.55314,1.56953,1.56947,1.58981,1.58895,1.60303,1.60915,1.61472,1.62283,1.63007,0.00336354,1.63965,1.64037,1.66062,1.66143,1.66419,0.00319907,1.68159,1.68769,1.68858,0.00309589,0.00329678,1.73029,1.73144,1.73028,1.74485,1.74585,1.76666,1.76652,0.00327148,0.00321764,0.00315912,0.00328701,1.81294,1.81159,1.82251,1.82857,1.83398,1.83985,1.84011,1.84068,0.00339095,1.86691,1.86637,0.00331268,1.88949,1.89081,1.88832,1.88791,1.89778,1.89773,1.91361,1.91833,1.91814,0.0030054,1.94096,1.94897,1.95068,1.96115,1.96079,1.96839,1.96696,0.0029758,0.00344895,1.99561,1.99462,1.99307,1.99338,0.00301975,0.00361909
0.00312311,0.00323487,0.00329929,0.00353857,0.00341626,0.00309011,0.0033214,0.135655,0.149218,0.00313458,0.167723,0.165217,0.00310108,0.184035,0.197119,0.196188,0.19542,0.210802,0.222576,0.225168,0.238273,0.00303508,0.244487,0.245438,0.26522,0.00314731,0.282997,0.306514,0.307467,0.305003,0.00342492,0.00316146,0.335544,0.335774,0.335353,0.350158,0.00328458,0.00320494,0.00315043,0.00313055,0.00323047,0.420271,0.421528,0.420946,0.418556,0.00320662,0.00328337,0.00325124,0.444704,0.442412,0.442902,0.449258,0.458663,0.458918,0.450554,0.453856,0.00323245,0.00320496,0.493671,0.495478,0.500237,0.510491,0.514499,0.514574,0.52303,0.523274,0.519879,0.535701,0.535576,0.539028,0.542627,0.542551,0.553581,0.554127,0.568686,0.568085,0.566808,0.578432,0.588965,0.593713,0.609637,0.609209,0.608494,0.62306,0.626149,0.638742,0.638911,0.646773,0.653192,0.65729,0.00295586,0.678343,0.683337,0.0033662,0.704136,0.707926,0.717349,0.724521,0.728721,0.729521,0.740932,0.740138,0.752424,0.753507,0.760543,0.763887,0.77004,0.770771,0.781429,0.788401,0.793542,0.803011,0.803225,0.812266,0.820632,0.825761,0.829839,0.838917,0.845852,0.852201,0.85363,0.863312,0.871671,0.878928,0.880629,0.890979,0.895579,0.904514,0.911337,0.912388,0.921997,0.928445,0.92954,0.933211,0.945714,0.949823,0.950132,0.959181,0.959684,0.982181,0.985497,0.985903,0.988907,0.993948,1.00107,1.00539,1.0113,1.01496,1.02284,1.03633,1.03915,1.0418,1.04946,1.05142,1.06065,1.06139,1.07267,1.07513,1.08058,1.08784,1.09499,1.09743,1.10754,1.1095,1.11929,1.12056,1.13229,1.1374,1.14008,1.14983,1.15774,1.15975,1.15834,1.17808,1.18678,1.19309,1.20021,1.21467,1.21632,1.22133,1.22876,1.23286,1.24236,1.24448,1.25752,1.26578,1.27042,1.27841,1.28103,1.28863,1.29556,1.29695,1.30305,1.31581,1.31682,1.32903,1.33764,1.34675,1.34988,1.35315,1.35723,1.36375,1.36075,1.36041,0.0034526,0.00310722,1.3948,1.40258,1.40953,1.41544,1.41789,1.42376,1.43645,1.43888,1.44917,1.45405,1.46052,1.46304,1.46897,1.48461,1.48607,1.48728,1.49893,1.49944,1.51398,1.51554,1.52379,1.52683,1.53315,1.54296,1.54761,1.55484,1.56627,1.5722,1.58399,1.59028,1.59665,1.59879,1.61189,1.61329,1.61544,0.00333503,0.00324688,0.00300763,1.64912,1.65835,1.66495,1.6731,1.67252,1.68943,1.68713,0.00306987,0.00322772,0.00313345,1.72806,0.00322252,1.74433,1.74743,0.0031289,0.00327731,0.0033731,0.00327157,0.0031957,1.80689,1.80784,1.80788,0.0033515,1.83274,1.83129,1.84099,1.8402,1.85664,1.85673,1.85998,1.86121,0.00342691,0.00309306,1.88063,1.89172,1.90235,1.90169,1.91022,1.90814,1.91754,1.93287,1.93431,1.94223,1.94608,1.95455,1.95345,1.96757,1.96651,1.96503,1.97602,1.97863,0.00321647,0.00332539,0.00331882,2.01789,2.01061
0.00326014,0.00341315,0.00295304,0.00330457,0.00319853,0.00298457,0.00319698,0.00340685,0.152532,0.153313,0.153179,0.00336192,0.00319228,0.186169,0.193562,0.203889,0.204169,0.212607,0.210515,0.224707,0.22371,0.242046,0.239447,0.244062,0.00312833,0.259691,0.270196,0.284648,0.284104,0.30507,0.312357,0.00331251,0.00303186,0.351309,0.350941,0.350574,0.00304534,0.00319696,0.00322843,0.42111,0.421366,0.419349,0.42105,0.421562,0.421433,0.431516,0.438348,0.437623,0.443018,0.457492,0.00334232,0.459664,0.46209,0.46124,0.473231,0.478762,0.0032397,0.499307,0.498583,0.495156,0.50559,0.509522,0.510334,0.524538,0.524865,0.527599,0.528706,0.532027,0.533036,0.542552,0.542533,0.548953,0.558558,0.556502,0.566634,0.570197,0.573974,0.579972,0.58843,0.600088,0.601367,0.60031,0.0033055,0.628149,0.634654,0.632663,0.637403,0.64626,0.656067,0.655156,0.666946,0.68148,0.681383,0.692768,0.692699,0.00310004,0.715664,0.720475,0.719967,0.718264,0.74042,0.743611,0.745965,0.754579,0.76345,0.764587,0.769585,0.777005,0.778904,0.784269,0.796625,0.797945,0.80235,0.811926,0.812508,0.818729,0.823444,0.835604,0.842022,0.84445,0.853939,0.864346,0.870405,0.874975,0.875768,0.887094,0.894086,0.89888,0.905891,0.909498,0.916117,0.920335,0.929751,0.933781,0.940956,0.942654,0.961032,0.96289,0.970947,0.974135,0.979619,0.984791,0.988861,0.992866,0.998414,1.00467,1.00789,1.01463,1.01849,1.02594,1.0329,1.03354,1.0459,1.04589,1.06101,1.0619,1.06933,1.07353,1.07939,1.08091,1.09078,1.09118,1.1026,1.11213,1.11864,1.12563,1.13161,1.1378,1.14022,1.14996,1.15532,1.16275,1.16426,1.1748,1.18086,1.18914,1.19567,1.2038,1.20911,0.00320248,1.2275,1.22685,0.00321223,1.24587,1.24968,1.26742,1.26804,1.27067,1.27497,1.28518,1.29067,1.29153,1.30502,1.30657,1.31312,1.31994,1.32093,1.33955,1.34282,1.35828,1.36364,1.36723,1.37124,1.37401,1.38155,1.38085,1.39279,1.39301,1.40243,1.41187,1.4194,1.4211,1.4242,1.43366,1.44259,1.44973,1.45337,1.46302,1.46964,1.47429,1.48036,1.48635,1.49977,1.50329,1.51324,1.51686,1.51807,1.52174,1.53677,1.54125,1.55157,1.5526,1.56076,1.57118,1.57114,1.58643,1.58858,1.58822,1.59842,1.60537,1.61994,1.62067,1.63053,1.63052,1.64487,1.6537,0.00335159,1.66202,1.67204,1.68162,1.69598,1.69935,1.70024,1.70544,0.00310489,0.00351045,0.00342054,1.74814,0.00328892,0.00369026,0.00344583,0.0033688,0.00306108,0.00293132,1.80763,1.80782,0.00309486,0.00337454,0.00319376,0.00314963,1.84753,1.84792,1.8509,1.86441,1.86343,1.86523,1.86949,1.87508,1.89101,1.89207,1.90339,1.90231,1.91373,1.91367,1.91419,1.93512,1.93526,1.94437,1.94816,1.94908,1.95564,1.97173,1.96973,1.98041,1.97812,0.00316353,1.99386,0.0033758,2.02409,2.01837
0.00311589,0.00317147,0.00338462,0.00327517,0.0029604,0.00298567,0.00332555,0.00314288,0.00338082,0.00317735,0.155755,0.00317572,0.00353269,0.179566,0.200428,0.197589,0.200242,0.221924,0.223989,0.221959,0.226648,0.225519,0.240015,0.245636,0.261125,0.261936,0.264835,0.28244,0.28092,0.00350565,0.00344407,0.00294183,0.00329654,0.354546,0.354736,0.353841,0.00326495,0.409974,0.409937,0.409233,0.420321,0.419771,0.422427,0.421307,0.42001,0.44175,0.441061,0.441608,0.441823,0.00320637,0.46448,0.00313533,0.467308,0.483169,0.48097,0.00329586,0.00308984,0.500101,0.498632,0.498701,0.514416,0.517075,0.520014,0.532062,0.534168,0.529463,0.539335,0.538912,0.542195,0.547835,0.547395,0.547761,0.560704,0.565392,0.56579,0.565839,0.581629,0.584025,0.586075,0.595614,0.595915,0.608234,0.608998,0.621368,0.622599,0.636772,0.637081,0.637076,0.649783,0.664063,0.665519,0.676227,0.676786,0.677127,0.694686,0.705784,0.705832,0.705231,0.727054,0.733253,0.736707,0.742716,0.749653,0.751545,0.755973,0.767403,0.774539,0.778509,0.77792,0.788079,0.790289,0.793828,0.804917,0.806091,0.814788,0.81903,0.818893,0.829498,0.842875,0.849469,0.853217,0.859493,0.867268,0.873183,0.877476,0.881495,0.890587,0.897495,0.897672,0.898683,0.908914,0.918115,0.926212,0.932755,0.939835,0.942109,0.94557,0.00332622,0.963719,0.972431,0.97844,0.982921,0.987412,0.994304,1.00031,1.00268,1.00335,1.01038,1.01548,1.02875,1.03008,1.03688,1.04376,1.05389,1.05726,1.06266,1.06851,1.07147,1.07992,1.08569,1.08911,1.08925,1.10238,1.10882,1.11271,1.12216,1.1283,1.13616,1.1434,1.14898,1.15508,1.15817,1.16671,1.1678,1.17652,1.1813,1.18919,0.00326879,1.20282,1.20182,0.00336144,1.22881,1.2303,1.22972,1.25035,1.25996,1.26066,1.26466,1.2773,1.28178,1.29545,1.29692,1.29652,1.30383,1.30989,1.31674,1.32244,1.33015,1.33719,0.00296811,1.3574,1.35657,1.35734,0.00306245,1.37848,1.37871,1.38538,1.39056,1.39596,1.40273,1.40285,1.41627,1.4265,1.4274,1.43748,1.43997,1.44995,1.46089,1.46135,1.47158,1.47922,1.48588,1.49005,1.49728,1.51199,1.51159,1.51366,1.52257,1.53321,1.53434,1.54923,1.54933,1.55273,1.56278,1.57101,1.5762,1.58033,1.59192,1.59364,1.59692,1.60894,1.60955,1.61768,1.62283,1.63651,1.63921,0.00318608,1.65679,1.66729,1.6785,1.68948,1.68694,1.70574,1.70443,1.71384,0.00347035,1.73096,1.73132,1.74025,1.73924,0.0032916,0.00316592,0.00317139,0.00316446,0.00363142,0.00330515,0.00308298,0.00327708,0.00321426,0.0030027,0.00319179,1.85344,1.85178,1.85953,1.86135,1.86128,1.87166,0.00290511,1.88809,1.89206,1.89085,1.9144,1.9136,1.91897,1.92048,1.91913,0.00324702,1.94703,1.93778,1.94869,0.00323154,1.96278,1.96125,0.00314344,0.00336321,0.00337912,2.0002,1.99803,0.00286428,0.00314973
0.00328761,0.0032844,0.00325824,0.00327778,0.00313198,0.00326413,0.00319459,0.00336823,0.00317394,0.00340966,0.0034153,0.00313603,0.00339045,0.184167,0.00343349,0.197896,0.204708,0.202759,0.00311707,0.224808,0.221092,0.242509,0.242389,0.245638,0.258325,0.258662,0.254972,0.253417,0.00323162,0.290786,0.29399,0.302685,0.00288886,0.00333484,0.00326081,0.00339068,0.00310896,0.00316704,0.00318485,0.00348382,0.419707,0.413762,0.414262,0.424294,0.43198,0.430676,0.435932,0.00345437,0.00335446,0.462801,0.461982,0.462456,0.00301992,0.00323939,0.00335148,0.00328532,0.497282,0.498036,0.5091,0.510078,0.511218,0.516927,0.526785,0.528189,0.538477,0.538111,0.54104,0.550562,0.552833,0.54934,0.5489,0.561366,0.563694,0.56474,0.57218,0.57333,0.575549,0.578138,0.581549,0.590778,0.589268,0.594774,0.00318449,0.621322,0.623025,0.627743,0.642236,0.641989,0.646649,0.657802,0.656697,0.665461,0.672499,0.684502,0.684125,0.703822,0.707678,0.712814,0.72171,0.725609,0.735456,0.741706,0.742949,0.750663,0.75466,0.762047,0.765287,0.773385,0.783588,0.78252,0.78962,0.793595,0.80243,0.802952,0.811084,0.8114,0.818985,0.822949,0.82732,0.828782,0.852289,0.853708,0.86019,0.862943,0.869698,0.881602,0.889767,0.891412,0.894198,0.897116,0.904308,0.906361,0.908765,0.925274,0.92634,0.00341204,0.945754,0.950838,0.956278,0.960868,0.972521,0.974758,0.983573,0.990723,0.99148,1.00229,1.00562,1.00647,1.0101,1.0222,1.02328,1.03504,1.03783,1.04686,1.05596,1.05805,1.06113,1.06727,1.07804,1.0833,1.08599,1.08976,1.09766,1.09582,0.00340921,1.11526,1.12387,1.13254,1.13501,1.14084,1.14809,1.15015,1.15529,1.16069,0.00345477,1.1763,1.18836,1.19005,1.19693,1.20752,1.21668,1.21877,1.22713,1.23317,1.24001,1.24493,1.25686,1.26,1.26445,1.27269,1.27891,1.28969,1.29268,1.30095,1.30436,1.30711,1.31401,1.31956,1.32941,1.33509,1.33643,1.34029,1.36242,1.36398,1.37061,1.37643,1.37836,1.3875,1.39451,1.39698,1.40058,1.40188,1.4118,1.42463,1.42336,1.4377,1.44781,1.45069,1.4576,1.46132,1.47495,1.48158,1.48341,1.48959,1.49934,1.49996,1.51071,1.51687,1.52713,1.53484,1.53667,1.54717,1.55773,1.55919,1.56137,1.56687,1.57961,1.57913,1.58575,1.58989,1.59583,1.60344,1.61291,1.61732,1.6258,1.62643,0.00328044,0.00316927,0.00328754,1.66558,1.67518,1.67804,1.69236,1.694,1.69397,0.00341106,0.0033289,0.00328873,1.73383,0.00320867,1.7415,1.75453,0.00341391,0.00329773,0.0031608,0.00345791,1.79475,1.79335,0.00337088,0.00321972,0.00335375,0.00324655,1.84782,1.85791,1.85694,1.86153,0.00316184,1.88394,1.88565,1.88951,1.88997,0.00347827,1.91276,1.91033,1.92698,1.92666,1.92456,1.93347,1.94186,1.93966,1.94808,1.9482,0.00315632,0.0032806,1.97622,0.00342921,0.00324962,2.00102,0.00322091,2.0173
0.00313132,0.0030888,0.826658,0.00352258,0.00348241,0.00322068,0.0035531,0.00319506,0.00318875,0.00334642,0.00332517,0.00321614,0.00350744,0.00318858,0.189099,0.188173,0.187798,0.00330956,0.207976,0.217302,0.227919,0.231201,0.228958,0.245734,0.255342,0.256916,0.25562,0.27694,0.277584,0.286278,0.283419,0.305483,0.00325372,0.315107,0.00324953,0.346348,0.348418,0.349157,0.357497,0.00305571,0.00321947,0.389581,0.393939,0.393706,0.410243,0.42384,0.436686,0.436296,0.439799,0.439737,0.463969,0.464971,0.467588,0.468001,0.46701,0.466681,0.472309,0.471865,0.00337545,0.513689,0.512723,0.517509,0.522109,0.534233,0.537055,0.539524,0.545225,0.552468,0.553012,0.553825,0.553145,0.00315334,0.00327483,0.00299186,0.587227,0.00320532,0.00312809,0.00308693,0.599768,0.600866,0.605327,0.60471,0.610932,0.621309,0.620076,0.634453,0.633603,0.633063,0.651795,0.656781,0.658616,0.669,0.676233,0.676066,0.689607,0.688777,0.699725,0.704416,0.722073,0.722145,0.72951,0.736667,0.739224,0.749123,0.753242,0.756344,0.763985,0.765595,0.769375,0.782156,0.790286,0.793404,0.797552,0.798283,0.808925,0.818896,0.819171,0.823142,0.825255,0.827153,0.842753,0.8422,0.854416,0.859621,0.864422,0.878016,0.877971,0.89036,0.893252,0.894941,0.896404,0.911349,0.911221,0.912443,0.927331,0.931455,0.93384,0.942073,0.960712,0.962193,0.963338,0.00348346,0.976505,0.985112,0.98787,0.00310585,1.00528,1.00685,1.01251,1.01957,1.0287,1.03241,1.03289,1.03508,1.04485,1.05341,1.0582,1.06646,1.07046,1.07764,1.08013,1.07966,1.08414,1.08704,0.00322691,0.00305589,1.12041,1.12253,1.13406,1.13667,1.14286,1.13714,0.00346678,0.00318382,1.16893,1.17335,1.18185,1.18534,1.1932,1.20157,1.20714,1.21108,1.22079,1.22673,1.2338,1.23264,1.23489,1.251,1.25846,1.26485,1.27292,1.27882,1.29254,1.30634,1.30848,1.31078,1.31268,1.31933,1.32323,1.32448,1.33517,1.33759,1.3455,1.35336,0.00364039,1.37127,1.3745,1.37546,1.38996,1.39205,1.39833,1.40564,1.40932,1.41198,1.42196,1.43314,1.43706,1.45451,1.45398,1.45599,1.46041,1.46964,1.47705,1.47945,1.49181,1.4942,0.00334764,1.51514,1.515,1.52751,1.54129,1.54015,1.54568,1.55793,1.56185,1.56261,1.56868,1.57861,1.58187,1.58256,1.59611,1.59566,1.60698,1.61932,1.61914,1.62148,1.62656,1.64302,1.64181,1.65792,1.65696,0.00302092,1.6823,1.6988,1.70037,1.69981,1.70578,0.00288876,0.00333347,1.7307,1.73649,1.74194,0.0034718,1.7593,1.7698,1.77465,1.77601,0.00307206,1.79871,0.00315573,0.00325744,0.00318031,0.00347811,1.84939,1.84814,0.0033981,1.86472,1.86349,0.00316702,0.00331202,0.00401407,0.00291605,0.00350494,1.9235,1.92331,1.92887,1.93771,1.9413,1.94247,1.94832,1.94837,1.9519,1.9623,1.96345,1.97541,1.97808,1.977,1.98687,0.00329437,0.00322617
0.00328369,0.00341048,0.00342726,0.00345059,0.0031058,0.00333655,0.00313489,0.0034556,0.00337015,0.145398,0.00333531,0.00317819,0.179914,0.180279,0.00319087,0.18881,0.00320857,0.00338082,0.00310651,0.00338235,0.00298875,0.23049,0.00338241,0.240826,0.247209,0.00334873,0.266724,0.271295,0.278135,0.289217,0.290674,0.301904,0.308504,0.312556,0.323793,0.00301245,0.00329382,0.00303918,0.362698,0.370181,0.369538,0.380048,0.380087,0.00355369,0.407313,0.406345,0.429916,0.429412,0.427702,0.427718,0.439261,0.446802,0.00319921,0.470022,0.469141,0.468114,0.474981,0.47597,0.47826,0.481269,0.00324533,0.00349324,0.00321467,0.531741,0.544536,0.543433,0.548241,0.552469,0.55187,0.57056,0.570557,0.00339773,0.599627,0.00295395,0.60849,0.607554,0.00309345,0.00322982,0.00317943,0.614836,0.61528,0.614692,0.622753,0.62751,0.625729,0.638194,0.639412,0.639424,0.650112,0.649163,0.664117,0.663982,0.671486,0.67292,0.00315318,0.693414,0.693181,0.700423,0.710433,0.72194,0.721184,0.739486,0.739532,0.754066,0.757173,0.759408,0.76037,0.76775,0.766436,0.781556,0.781216,0.788236,0.802919,0.802824,0.811613,0.815175,0.822062,0.823536,0.829329,0.836331,0.835575,0.846982,0.849459,0.865126,0.869418,0.87117,0.873108,0.880432,0.879965,0.890456,0.00323821,0.00336477,0.00310523,0.00342839,0.00346896,0.00327428,0.00299939,0.928351,0.00327174,0.00291353,0.00322536,0.974134,0.98033,0.980733,0.9874,0.99466,0.998296,1.00792,1.01141,1.01184,1.02211,1.02524,1.02717,1.03037,1.04218,1.05266,1.05767,1.06091,1.07124,1.07346,1.08159,1.08136,1.07958,1.07959,0.00325984,0.00305001,0.0032944,1.12258,0.00313284,1.12497,1.12558,1.12678,1.13079,0.00318056,0.00311835,0.00344529,1.18135,1.18464,1.192,1.19646,1.20364,1.2142,1.21804,1.22294,1.23072,1.24003,1.2411,1.24923,1.25476,1.25997,1.26561,1.26902,1.27606,1.29153,1.29733,1.3004,1.30291,1.31884,1.32314,1.32464,1.33032,1.33753,1.34219,1.35307,1.35177,1.365,1.36995,1.38254,1.38802,1.39009,1.39913,1.40368,1.40602,1.41032,1.42088,1.425,1.43385,1.44376,1.44479,1.45322,1.46156,1.46855,1.46916,1.4767,1.48556,1.48717,0.00330633,1.51039,1.5143,1.52606,1.53145,1.53071,1.54196,1.55157,1.55279,1.56692,1.57168,1.57639,1.57984,1.58912,1.5961,1.59933,1.60288,1.61001,1.62368,1.6247,1.6295,1.63486,1.64426,0.00330184,1.66467,1.67374,1.68064,1.68055,1.68053,1.69315,1.70333,1.70926,1.7094,1.73113,0.00320506,0.0035337,1.75728,1.75765,1.76513,1.77103,1.76912,0.00331445,0.00310827,1.80651,1.80574,1.80562,0.00298047,0.00328947,0.00320799,1.85378,0.00301873,1.85994,0.00315916,0.00359423,1.8853,0.00351932,0.00337541,0.00315999,1.9166,0.00346888,1.9302,1.93084,0.0032682,0.00326443,1.96025,0.00342104,1.96577,1.97014,1.96969,1.97534,0.00312243,1.99231,2.00304,2.00297
0.00346934,0.00329609,0.00312179,0.134722,0.133091,0.142423,0.143806,0.143256,0.144984,0.154127,0.162755,0.164544,0.176423,0.180925,0.179247,0.170178,0.170939,0.176073,0.175677,0.00326945,0.00343971,0.0031866,0.255546,0.256663,0.257198,0.256395,0.00310448,0.00328823,0.283477,0.303553,0.305069,0.30588,0.308043,0.31444,0.323476,0.328553,0.335669,0.348345,0.00320095,0.359007,0.367584,0.370298,0.377684,0.377986,0.396619,0.395032,0.0034938,0.421493,0.419726,0.428198,0.433314,0.436206,0.445087,0.00324123,0.00323474,0.48357,0.483786,0.481879,0.483162,0.490866,0.00316033,0.00312334,0.00339134,0.00314608,0.00359649,0.00317845,0.55636,0.557165,0.55764,0.563581,0.578324,0.57772,0.607842,0.608549,0.607979,0.608527,0.612411,0.61647,0.00329184,0.652142,0.653136,0.653036,0.635064,0.634188,0.633634,0.640318,0.645056,0.650768,0.6562,0.658567,0.659604,0.670453,0.671393,0.676059,0.675127,0.690577,0.697417,0.702319,0.711849,0.715692,0.715639,0.735291,0.743442,0.743715,0.744798,0.753305,0.762388,0.764686,0.768472,0.780125,0.786379,0.797108,0.799734,0.00338765,0.00311962,0.00348424,0.00339201,0.0031488,0.00318732,0.0034533,0.845605,0.84387,0.851173,0.00342066,0.866738,0.879533,0.878858,0.880453,0.882239,0.00322818,0.00331667,0.00324004,0.912634,0.914484,0.00333772,0.00342163,0.00337027,0.00303267,0.00314416,0.0032249,0.00326156,0.0032874,0.980116,0.00313181,0.996479,0.998012,1.00278,1.00863,1.01809,1.02509,1.02511,1.02477,0.00320194,0.00322315,0.0033665,0.00357967,1.05825,1.06317,1.06869,1.07386,0.00313428,1.07232,1.07436,1.07709,1.41747,0.00317084,0.00320379,0.00342308,1.11809,1.11913,1.12046,1.12382,1.12639,0.00302784,0.00306909,0.00320132,0.00344424,1.18813,1.18957,1.19291,1.20516,1.21215,1.20883,1.22203,1.22335,0.00308486,1.2381,0.00327301,1.25725,1.25964,1.26253,1.27013,1.27593,1.28495,1.28593,1.29445,1.29693,1.30854,0.0031358,1.31967,1.3257,1.33461,1.34046,1.35112,1.35258,1.3592,1.3634,1.37413,1.38235,1.39109,1.39446,1.38931,1.38993,1.39148,0.0035143,0.0034087,1.43335,1.44002,1.44342,1.45255,1.46121,1.46155,1.47177,1.47189,1.48012,1.48594,1.49816,1.50531,1.50551,1.52064,1.52286,1.52871,1.53714,1.54034,1.55429,0.00309137,1.57107,1.57063,1.58265,1.59003,1.58929,1.59683,1.60093,1.61616,1.61485,1.62122,1.6213,1.64392,1.64389,1.6439,1.65508,1.65559,1.67325,1.67593,1.67869,1.69189,1.69045,1.70016,1.70145,1.71047,1.72035,1.74657,1.75069,1.75324,1.75273,1.75092,1.76871,0.00339947,1.77498,1.77848,0.00332025,1.80517,0.00339131,0.00335533,0.00352298,0.00295391,0.0034137,0.00330357,0.00333741,0.00335146,1.88159,1.88751,1.88788,1.89968,1.89969,0.00308412,1.90856,0.00322631,0.00309001,0.0031902,1.94919,0.00322851,1.97167,1.96872,1.9696,0.00330899,0.00328725,0.00296316,0.00345356,0.00283911
0.121802,0.121049,0.135639,0.00333186,0.134531,0.00324686,0.152128,0.149222,0.156178,0.144682,0.171993,0.1763,0.176289,0.177478,0.176719,0.173596,0.172901,0.170583,0.172783,0.696391,0.00323323,0.00329448,0.00326076,0.00345434,0.25676,0.255289,0.00323805,0.00323228,0.280539,0.292686,0.291272,0.304659,0.303952,0.31207,0.00315943,0.324289,0.323701,0.342698,0.341971,0.352567,0.354562,0.365264,0.372823,0.372223,0.386241,0.403919,0.00318832,0.410349,0.408846,0.428595,0.421256,0.432997,0.433207,0.00314705,0.462104,0.463675,0.47608,0.475927,0.00297408,0.497197,0.510417,0.513899,0.513838,0.524478,0.521193,0.528121,0.544261,0.544814,0.00327362,0.00318635,0.00327177,0.585475,0.00306076,0.00320498,0.608599,0.610452,0.618562,0.621546,0.626538,0.627036,0.652974,0.651692,0.640681,0.641355,0.640475,0.64575,0.650242,0.65604,0.656212,0.660817,0.660809,0.668894,0.670098,0.67519,0.682733,0.687367,0.688924,0.698477,0.708346,0.708241,0.716581,0.727405,0.734445,0.736702,0.742366,0.744045,0.747915,0.753234,0.767278,0.781261,0.782532,0.00347445,0.771442,0.00347279,0.00317965,0.00372515,0.00324406,0.00341893,0.0030429,0.838917,0.841303,0.856348,0.857372,0.865972,0.864904,0.87102,0.87581,0.891599,0.892151,0.891874,0.898908,0.905312,0.0035033,0.917712,0.00303094,0.93285,0.933664,0.942151,0.94635,0.948584,0.952872,0.967091,0.979678,0.980456,0.980799,1.00262,1.003,1.00906,1.01331,1.01784,1.01808,1.027,1.02809,1.03231,1.03999,1.04787,1.05879,1.06022,1.05995,1.0613,1.06325,1.06533,1.06689,1.06975,0.00328273,1.07994,0.00333096,0.00341327,0.0035215,0.00332669,1.1229,1.12497,0.00306244,0.0032679,0.00337298,0.00318345,0.00309367,1.18092,1.18404,1.19213,1.19697,1.20269,1.21228,1.21596,1.21811,1.21996,1.23318,1.23561,1.25084,1.25019,1.25494,1.259,1.26716,1.27256,1.2806,1.28694,1.29255,1.29499,0.00327152,1.31055,1.31887,1.32418,1.33385,1.33721,1.34094,1.35128,1.35778,1.36094,1.3672,1.37916,1.38677,1.38903,0.00317189,0.00347473,1.40194,1.40256,1.42212,1.42442,1.43304,1.43948,1.43878,0.00341265,1.46348,1.46048,1.46103,0.00343646,0.00314701,1.49371,1.50163,1.50877,0.00347552,1.52449,1.53332,1.53911,1.54035,1.54939,1.56172,1.56135,1.57149,1.57859,1.59499,1.59339,1.59996,1.60092,1.60348,1.61303,1.62047,1.62164,0.00308895,1.64426,1.64856,1.65605,1.66316,1.66628,1.67253,1.67594,1.68495,1.68428,1.69974,1.70347,1.71241,1.71795,1.72333,1.72353,0.00325995,1.74826,1.74998,1.75929,1.76631,1.77784,0.00327741,0.00334394,0.00347998,1.80113,1.80251,1.82132,1.8207,0.00326046,0.00313347,0.00339297,0.00351177,0.00318002,1.88566,1.88397,1.89317,1.89331,1.90068,1.89896,0.00325691,0.00335412,0.00338457,1.94465,0.00349222,1.9554,0.00336379,1.96225,0.00313539,0.00334442,0.00323832,0.00315447
0.13557,0.00327777,0.137231,0.13825,0.003147,0.00323968,0.00315628,0.150694,0.157147,0.158169,0.166012,0.165985,0.177332,0.176034,0.17459,0.172183,0.170609,0.170063,0.00315863,0.00338989,0.00342413,0.00320636,0.00341933,0.00317508,0.252588,0.252042,0.258679,0.00318784,0.00352105,0.286968,0.28604,0.285807,0.284642,0.284223,0.283906,0.00346335,0.00330074,0.00333927,0.00319496,0.356098,0.356201,0.35697,0.360756,0.369431,0.367617,0.391343,0.388752,0.40856,0.409092,0.411376,0.410822,0.421261,0.431591,0.00318406,0.44988,0.459245,0.456087,0.455462,0.00310653,0.484132,0.49387,0.00331327,0.514785,0.00332676,0.52735,0.535411,0.535774,0.538706,0.548791,0.55754,0.558066,0.562128,0.563603,0.00342842,0.00347768,0.00334142,0.622859,0.622947,0.623145,0.622959,0.635421,0.635371,0.637629,0.636976,0.637208,0.643523,0.642663,0.655565,0.65592,0.656093,0.659661,0.65929,0.666488,0.00305937,0.00334732,0.00332061,0.69314,0.695831,0.695109,0.709092,0.714589,0.722416,0.721153,0.735893,0.738875,0.740803,0.749756,0.750459,0.00334117,0.752423,0.75536,0.759638,0.00331564,1.32527,0.00341291,0.00305385,0.00332641,0.825256,0.825612,0.827778,0.843236,0.845193,0.855954,0.865661,0.866139,0.878456,0.879065,0.881821,0.890319,0.891873,0.89871,0.902123,0.917721,0.919177,0.929131,0.00299726,0.942573,0.945438,0.947389,0.947442,0.950259,0.958524,0.970563,0.979668,0.98465,0.986617,1.00004,1.00083,1.01436,1.016,1.01886,0.00354753,1.03559,1.03744,1.04301,1.04905,1.05595,1.05678,1.05953,1.06157,1.06317,1.06562,1.06735,0.00332218,0.0032829,0.00326855,0.00319896,0.00357635,0.00352515,0.00308638,1.1379,1.13769,1.1373,0.00332561,1.14298,0.00314771,0.00341593,0.0032797,1.18049,1.18134,1.1898,1.19936,1.20387,1.2097,1.2143,1.21433,1.22309,1.23224,1.23588,1.25032,1.25821,1.2585,1.26281,1.26704,1.27067,1.28437,1.28516,1.29153,1.29553,1.29834,0.00324841,1.31763,1.32588,1.32552,1.34315,1.34661,1.35411,1.35515,1.35993,0.00322538,1.37951,1.38385,1.3923,1.39291,1.40372,1.41321,1.41662,1.42219,1.42747,1.43106,1.43812,1.44741,1.45341,1.45821,1.45823,1.4579,0.0035017,1.49203,1.49529,1.50014,1.49971,0.00314859,1.52924,1.5279,1.52693,0.00313897,1.55194,1.56186,1.5618,1.57832,1.58457,1.58799,1.59378,1.60069,1.59949,1.61254,1.61129,1.61949,1.62614,1.63729,1.64007,1.64357,1.6428,1.65357,1.66533,1.66505,1.67621,1.68252,1.68422,0.00299732,1.7029,1.7099,1.72282,1.72211,1.72811,1.7307,1.75104,1.75472,1.75206,1.75844,1.77079,0.00333738,0.0034857,1.79608,1.79944,0.00328069,0.00323504,0.00311269,1.83794,0.00310056,0.00331383,0.00357888,1.87261,1.87374,1.87412,1.8794,1.88582,0.00308521,0.00327823,0.00297361,1.93076,0.00316902,1.94165,0.00333441,0.00326857,1.96135,0.00342695,0.00302176,0.00331379,0.00304629
0.00337339,0.00352184,0.159795,0.16563,0.164763,0.163849,0.173191,0.174907,0.179454,0.176069,0.186126,0.00335729,0.00322353,0.00333956,0.00322279,0.00334433,0.00330016,0.00339938,0.00317003,0.00327859,0.21883,0.00319006,0.00311763,0.00324902,0.00321648,0.253685,0.00318578,0.00344591,0.00317133,0.285971,0.287385,0.287641,0.285529,0.284201,0.282602,0.281615,0.00341079,0.00318036,0.00331988,0.349976,0.346137,0.345803,0.357087,0.356427,0.355846,0.372744,0.373049,0.388218,0.393938,0.406945,0.405346,0.414856,0.413892,0.432601,0.448736,0.452773,0.450227,0.450439,0.454911,0.4871,0.00328436,0.484823,0.500891,0.502002,0.516148,0.529318,0.529978,0.529253,0.538684,0.545019,0.54351,0.542636,0.563724,0.566368,0.566116,0.00347227,0.00318424,0.622897,0.623629,0.624995,0.634739,0.648757,0.642775,0.00312555,0.646661,0.667354,0.00316033,0.676814,0.677542,0.659597,0.657967,0.66672,0.669166,0.672147,0.00345729,0.689828,0.691418,0.701553,0.702946,0.709043,0.713852,0.716362,0.724513,0.723205,0.731686,0.732052,0.740063,0.742277,0.743087,0.00334485,0.00297571,0.00311812,0.00295493,0.00315847,0.00325214,0.00318055,0.00325215,0.00335707,0.832242,0.838866,0.00298544,0.85385,0.869746,0.871129,0.879191,0.883806,0.00331079,0.899413,0.900363,0.900626,0.00305769,0.915371,0.00338969,0.00322374,0.957565,0.958857,0.956056,0.00335565,0.00329788,0.00319186,0.982088,0.988151,0.989425,0.99276,0.0032012,0.00327512,1.00131,1.00282,1.01047,1.01088,1.01624,1.02692,1.02852,1.03683,1.04104,1.04456,1.05365,1.05998,1.06051,1.06055,1.07295,1.07268,1.08067,0.0030909,1.45976,0.00324485,0.00314883,0.00308871,1.1273,1.13363,1.13788,1.14025,1.14496,1.14695,1.156,1.15562,0.00309817,1.16886,1.17526,1.18015,1.18339,1.1917,1.19826,1.20206,1.20854,1.21185,1.2163,1.22385,1.23183,1.23258,1.2355,1.25443,1.25704,1.26201,1.26877,1.27606,1.27884,1.28812,1.292,1.29457,1.30472,1.30635,1.31433,1.32178,1.33054,1.33644,1.33993,1.34685,1.35585,1.35782,1.36864,1.3772,1.37852,1.39486,1.39404,1.397,1.40573,1.41237,1.41941,1.42699,1.43595,1.43892,1.4451,1.45356,1.46444,1.47159,1.47233,1.48206,1.48128,1.49135,1.49702,1.50717,1.51623,1.51622,1.52624,1.5366,1.53637,1.55325,1.55247,1.56348,1.57474,1.57629,1.5788,1.59016,1.59885,1.59895,1.60927,1.61024,1.62373,1.62405,1.62803,1.63997,1.63914,1.64441,1.64965,1.6618,1.6637,1.6643,1.68693,1.68612,1.68608,1.69635,1.70616,1.70709,1.71796,0.00320633,1.73365,1.74071,0.00310507,0.00318013,0.00335583,0.00363962,1.77855,1.79153,1.7919,1.79949,1.79931,1.81682,0.00315702,1.82711,0.00314245,1.83438,0.00314701,0.00324733,0.0031986,1.8693,0.00335995,0.00338657,0.00332346,0.00337321,1.93843,1.93746,1.93844,1.94299,0.00339003,0.00314261,0.00322962,0.00328826,0.00329961,0.00328912
0.00313694,0.201503,0.199796,0.166753,0.166184,0.173369,0.174711,0.1773,0.176854,0.175769,0.00311755,0.202831,0.204021,0.209133,0.207036,0.00302404,0.00353136,0.00315223,0.00362955,0.00313252,0.223629,0.230262,0.230652,0.231739,0.238738,0.251138,0.258103,0.00334946,0.270302,0.279257,0.276501,0.28373,0.282921,0.28234,0.281918,0.282534,0.00328575,0.00313259,0.00346983,0.00316778,0.00363838,0.352917,0.357778,0.357012,0.355953,0.373075,0.369284,0.376565,0.3842,0.00313099,0.403381,0.414648,0.418224,0.417102,0.428579,0.450524,0.449589,0.455051,0.454774,0.462603,0.484888,0.484784,0.48467,0.491111,0.499168,0.511667,0.531464,0.531136,0.531453,0.532653,0.542577,0.542797,0.555893,0.554999,0.00323291,0.00324068,0.583811,0.00300476,0.00315235,0.00352898,0.624978,0.00312917,0.652023,0.00334553,0.666512,0.674388,0.676676,0.678825,0.680836,0.683514,0.683323,0.683341,0.671113,0.672149,0.674136,0.690272,0.00331581,0.702333,0.708706,0.709548,0.714098,0.719375,0.718874,0.00308771,0.738229,0.738407,0.738542,0.00321109,0.00336328,0.00309492,0.00350876,0.780932,0.781658,0.781136,0.00340623,0.00316596,0.829375,0.829733,0.00323485,0.851151,0.866031,0.866578,0.867557,0.00321261,0.899192,0.901776,0.902008,0.90699,0.912665,0.915094,0.92073,0.926418,0.932367,0.943798,0.950043,0.948507,0.959861,0.00295506,0.969873,0.977943,0.980631,0.986127,0.987072,0.993443,0.994817,0.996108,1.03511,1.04251,1.04432,1.01917,1.02509,1.03538,1.03781,0.00322691,1.05666,1.05863,1.06075,1.06188,1.06485,1.06499,1.06731,1.07287,1.07511,1.08803,1.08946,1.09991,1.10622,1.11252,1.12482,1.12747,1.13812,1.14644,1.14746,1.15233,1.15645,1.15789,1.16637,1.17823,1.18487,1.18714,1.1878,1.19291,1.19571,1.19955,1.2017,1.20964,1.21241,1.22093,1.22207,1.22752,1.23366,1.24678,1.24764,1.26236,1.26567,1.26831,1.27104,1.28001,1.28771,1.28773,1.2964,1.29848,1.30675,1.46615,0.00332556,0.00311638,0.00323865,0.00324181,0.0034672,0.00334392,0.00314848,0.00334429,1.37176,0.00316734,0.00306132,0.00322434,1.40401,1.40617,1.41287,1.42097,1.42929,1.43349,1.43847,1.44875,1.45118,1.45706,1.46481,1.47575,1.47736,1.48502,1.49115,1.49939,1.5033,1.51562,1.52078,1.5213,1.528,1.53624,0.00348653,1.55269,1.55581,1.56748,1.58673,1.58793,1.58848,1.59253,1.60253,1.60303,1.61537,1.61639,1.6242,1.62989,1.62882,0.00317441,0.00294039,0.00313385,1.66091,1.66354,1.67275,1.67379,1.68538,1.69205,1.69329,0.00316922,1.70467,0.00324103,1.72582,0.00319978,0.0032151,0.00327535,1.75929,1.75862,1.77452,0.0031079,1.78867,1.78774,1.78805,1.80501,1.80396,1.82381,1.82453,1.83063,1.83218,1.84274,1.84097,0.00308071,0.00326876,0.00313993,0.00321879,1.89682,0.00329423,0.00309734,0.00314237,0.00341498,0.00326948,0.00307323,1.99187,1.99044,0.00372311,0.00335066
0.00314942,0.187109,0.00295648,0.0031259,0.00325988,0.0033357,0.00297158,0.173309,0.184048,0.182833,0.189169,0.00296536,0.203652,0.217876,0.217279,0.217068,0.214096,0.216347,0.217325,0.00370512,0.227875,0.230657,0.232182,0.232014,0.244859,0.245712,0.244742,0.254426,0.266293,0.263336,0.275009,0.27422,0.00306798,0.289762,0.301364,0.300394,0.299552,0.00335477,0.00331595,0.00331875,0.00285517,0.00303763,0.00315624,0.0034841,0.00319852,0.367584,0.367154,0.36772,0.37556,0.385474,0.396453,0.414514,0.406883,0.408503,0.00327438,0.427425,0.00335127,0.444725,0.449103,0.463538,0.462013,0.461326,0.482351,0.482951,0.482611,0.49024,0.508037,0.509458,0.513815,0.531958,0.532388,0.532236,0.536723,0.539496,0.00325757,0.00335042,0.00311737,0.583172,0.58861,0.588779,0.00319846,0.00343253,0.00319789,0.00333668,0.0029936,0.00331509,0.0031492,0.676546,0.681983,0.682578,0.681558,0.682885,0.682163,0.684246,0.683446,0.681596,0.691081,0.704852,0.704876,0.711749,0.727427,0.728638,0.725536,0.726999,0.733714,0.739468,0.749566,0.759839,0.763442,0.764549,0.770189,0.774927,0.00322173,0.795341,0.804221,0.804639,0.813196,0.00351951,0.845753,0.845245,0.855449,0.863786,0.870867,0.871772,0.0031299,0.895537,0.897435,0.903542,0.903579,0.907981,0.909165,0.91879,0.923648,0.928088,0.935205,0.942041,0.942643,0.946069,0.0032001,0.970129,0.979187,0.986554,0.989455,0.989487,0.991254,1.00102,0.00323545,1.02024,1.02143,1.03842,1.04597,1.0464,1.05155,1.05108,0.00330073,0.00341081,1.09046,1.09152,1.09247,1.09475,1.07016,1.07224,1.07453,1.07746,1.09021,1.09262,1.10011,1.10474,1.10964,0.00328519,1.13885,1.13967,1.14326,1.14627,1.15063,1.16011,1.16401,1.17147,1.17357,1.1832,1.19499,1.19927,1.20496,1.2057,1.20611,1.20333,1.20564,1.20838,1.21381,1.21968,1.22563,1.23194,1.23421,1.24672,1.25303,1.26066,1.27012,1.27072,1.27581,1.2866,1.2895,1.2951,1.30664,1.30791,1.31614,1.31716,0.00324619,1.3326,1.33274,0.00334562,0.00308183,0.00341897,0.00315905,0.00324988,0.00331562,0.00324156,0.00307112,0.00321937,0.00315062,0.00338247,0.00320993,0.00310512,0.00334025,0.00342588,0.00300783,0.00302746,0.00306704,0.00327456,0.00339636,1.47835,1.47911,1.49024,1.4914,1.50856,1.50643,1.50977,1.51666,1.52999,1.52987,1.54789,1.54743,1.56028,1.56384,1.57297,1.58137,1.58077,1.5864,0.00345987,0.00307523,1.60721,1.60821,1.62644,1.62618,1.62682,1.62392,1.62284,0.00294641,1.65856,1.66506,1.66776,1.6691,1.67204,1.67957,1.6889,1.69919,1.7069,0.00314251,0.00351375,0.00312333,0.00325195,0.00327141,1.74726,1.74593,0.00323702,0.00330508,1.7837,0.00305665,1.78586,0.00334506,1.80285,1.80941,1.80887,0.00337698,0.00318956,1.83712,1.83654,1.83869,1.86893,0.00319273,0.00321256,0.00310568,0.00350089,0.00315404,0.00321259,0.00299162,0.00353472,0.00310774,0.0034228,0.003227,0.00313109
0.00337137,0.00313759,0.00353253,0.00311464,0.00306156,0.00323842,0.00338123,0.003161,0.00324441,0.00318949,0.00339308,0.0030915,0.00330304,0.00302014,0.22191,0.213953,0.228504,0.228822,0.227666,0.226545,0.228745,0.228826,0.228972,0.242617,0.242507,0.24085,0.255871,0.251822,0.256577,0.260428,0.269441,0.271797,0.27601,0.279654,0.289969,0.297996,0.297057,0.296693,0.306137,0.00317148,0.00326934,0.00310208,0.00317384,0.00340504,0.00335521,0.00339499,0.363411,0.364415,0.00311018,0.00298584,0.386155,0.385309,0.397494,0.409652,0.409035,0.408944,0.42822,0.428198,0.441003,0.441762,0.443949,0.455678,0.456617,0.457541,0.483768,0.483487,0.00300907,0.00319644,0.499679,0.510611,0.525659,0.522051,0.532818,0.532698,0.541024,0.545087,0.557132,0.00332842,0.560355,0.00324476,0.00322674,0.601465,0.600357,0.621392,0.617587,0.618072,0.00331152,0.00335195,0.00318868,0.676477,0.674794,0.675639,0.682012,0.68216,0.682129,0.688149,0.699401,0.699755,0.70079,0.705385,0.00316542,0.728984,0.730007,0.733338,0.736771,0.744367,0.745297,0.752535,0.763815,0.764682,0.765057,0.769362,0.769187,0.787099,0.79089,0.798793,0.811218,0.805936,0.832063,0.834032,0.836847,0.00327553,0.0031694,0.864988,0.867597,0.865658,0.865015,0.881095,0.892014,0.00310243,0.906899,0.913326,0.918882,0.92244,0.928378,0.938635,0.94048,0.942693,0.94557,0.95286,0.952508,0.958861,0.966272,0.970552,0.986459,0.991306,1.00215,1.00819,1.00966,1.02195,1.02495,1.02615,1.03781,1.04134,1.04319,1.05984,1.06457,0.00313322,0.00308989,1.09131,1.09024,1.09181,1.09494,1.09562,1.08914,1.09267,1.09656,1.1032,1.10653,1.11152,1.1243,1.12853,0.00301902,1.14808,1.15086,1.15596,1.16525,1.16521,1.17431,1.17608,1.17567,1.19757,1.19938,1.20007,1.19887,1.19964,1.20794,1.21402,1.20858,1.20828,1.21904,0.00293374,0.00315737,1.24387,1.24524,1.24994,1.25393,1.26408,1.27706,1.28129,1.29048,1.30527,1.31219,1.31458,1.31507,1.31561,1.31894,1.32739,1.33263,1.33522,1.34404,1.34682,1.35673,1.35899,0.00306889,0.00322004,0.00354647,0.0034715,0.00322865,0.0030163,0.00310742,0.00335638,0.00316208,0.00311863,0.00331534,0.0036085,0.00307448,0.00317648,0.00314206,0.00315694,1.47452,1.47556,1.48144,0.00323182,0.00314914,1.49816,0.00314351,1.5208,1.5235,1.52952,1.53612,1.54919,1.55063,0.00306712,1.56795,1.56791,1.57812,0.00332542,1.59052,1.59546,1.60183,1.61087,1.61662,1.62282,1.6264,1.62667,1.63986,1.64064,1.65375,1.65409,1.66099,1.66808,1.66804,1.68268,1.68479,1.69159,1.69909,0.00298231,0.00324785,0.00324483,0.00304911,1.73788,0.00340778,0.00312726,0.00350707,1.76121,0.00337621,0.00328337,1.7789,1.78899,1.7905,0.00326279,1.80634,0.00306868,1.82306,1.82329,0.00331377,0.00345652,0.00329066,0.00326318,0.00298341,0.00306163,0.00306443,0.00322731,0.00343579,0.0032289,0.00313019,0.00304866,0.0032405,0.00323042
0.00346119,0.00368073,0.00328417,0.172511,0.0030045,0.00343661,0.00360804,0.00349751,0.00329263,0.00308556,0.00314699,0.00287542,0.263457,0.264724,0.00310593,0.00319612,0.00315955,0.231678,0.23063,0.238251,0.23864,0.240356,0.239121,0.243169,0.247717,0.00332014,0.258735,0.258794,0.259755,0.26213,0.258967,0.264864,0.279434,0.278844,0.280685,0.293446,0.297236,0.297745,0.300826,0.306275,0.311025,0.315598,0.327889,0.00330264,0.336384,0.335396,0.345545,0.347021,0.366047,0.36571,0.37381,0.384309,0.383487,0.396563,0.403469,0.414744,0.413604,0.425882,0.434684,0.434283,0.441402,0.456494,0.452818,0.467256,0.472698,0.471803,0.471986,0.482234,0.499743,0.49667,0.508667,0.515963,0.520314,0.525961,0.534943,0.53475,0.544872,0.548587,0.555431,0.561605,0.00319396,0.00346435,0.00303199,0.621437,0.620395,0.619572,0.61855,0.621531,0.632499,0.00342684,0.00315276,0.677455,0.677771,0.68618,0.687116,0.693053,0.695045,0.695551,0.694136,0.694606,0.704537,0.708254,0.719258,0.723736,0.725012,0.735841,0.74571,0.748238,0.760375,0.768895,0.771015,0.770101,0.776591,0.782567,0.790181,0.79165,0.807131,0.80724,0.00327584,0.00353216,0.00333098,0.839446,0.842324,0.84867,0.848068,0.858755,0.863096,0.862341,0.861935,0.870698,0.884886,0.888639,0.0030499,0.915452,0.916139,0.925461,0.930726,0.934684,0.942568,0.950275,0.953514,0.958808,0.961158,0.967559,0.981746,0.983936,0.987016,0.988567,0.994633,1.00293,1.00469,1.01965,1.0308,1.03201,1.03862,1.04471,1.0517,1.05288,1.06825,1.07148,1.07699,1.08749,1.08977,1.09067,1.10352,1.10534,1.10661,1.10936,1.12259,1.1292,1.13014,1.13475,1.14018,1.15,1.15684,1.15897,1.16383,1.17852,1.17808,1.18154,1.19116,1.19491,1.20126,1.20301,1.20452,1.20621,0.00324056,1.25466,0.00311084,0.00328377,0.0030343,0.00328608,1.24158,1.24313,1.24665,1.24989,1.26281,1.26417,0.00323546,0.00333969,0.00318891,0.00306773,0.00345352,1.31669,1.32264,1.32366,1.32487,1.3311,1.32954,1.33269,1.34336,1.35191,1.35672,1.36286,1.36664,1.36989,1.37891,1.37959,1.38926,1.39856,0.00313957,1.40878,0.00321921,0.00357238,0.00323221,0.0033703,0.0033331,0.00346133,0.00318921,0.0034086,1.46173,1.46388,0.00317617,0.00321722,0.00324148,0.00354296,0.00328676,0.0032513,0.00336289,1.54012,1.53983,1.54161,1.54305,1.55265,1.5573,1.56122,1.56784,0.00313901,1.59636,1.59721,1.60061,1.60235,1.61376,1.61746,1.62302,1.6233,1.62782,1.64735,1.64506,1.65567,1.65493,1.6641,1.66298,1.67673,1.67988,1.68081,0.00338286,0.00327254,0.00304535,0.00323928,0.0033311,0.00324304,0.00301019,0.00314319,0.00309789,0.00353311,1.75492,1.76685,1.76605,0.00329352,0.00332192,0.003294,0.00304784,0.0031017,0.00339261,0.00309796,0.00303794,1.84201,1.84042,1.84812,1.85432,1.85273,0.00327108,0.00336124,0.00305669,1.88997,0.00309808,1.90529,0.00304075,0.00342147
0.0033812,0.00309701,0.00334509,0.00313779,0.00334619,0.00324906,0.00315545,0.00309891,0.0035246,0.00325938,0.00314602,0.00350533,0.00331297,0.266568,0.26762,0.268012,0.273242,0.00298481,0.00318682,0.240949,0.0031639,0.00326829,0.249642,0.251964,0.258179,0.260779,0.264997,0.263269,0.264541,0.26864,0.268741,0.27587,0.277511,0.284303,0.29049,0.296808,0.295686,0.299527,0.304233,0.303275,0.317015,0.317256,0.319461,0.31875,0.332927,0.348028,0.348009,0.347227,0.364561,0.363888,0.364094,0.375758,0.374045,0.390044,0.399883,0.398228,0.408907,0.414762,0.427238,0.426611,0.439097,0.446171,0.446872,0.45132,0.461103,0.460362,0.471674,0.486463,0.483673,0.485182,0.487507,0.504321,0.518707,0.003179,0.52502,0.534999,0.542102,0.549144,0.554241,0.556266,0.555956,0.555317,0.00315093,0.00317927,0.610862,0.613893,0.61235,0.625536,0.62734,0.629756,0.639497,0.638156,0.00361407,0.0031054,0.00313916,0.696036,0.696293,0.695569,0.694856,0.694071,0.701277,0.703703,0.70372,0.71429,0.721671,0.726457,0.736613,0.749355,0.751314,0.751252,0.768683,0.00308256,0.77825,0.781846,0.781221,0.794248,0.794143,0.807846,0.809184,0.814942,0.820563,0.827599,0.827154,0.832267,0.841841,0.849833,0.84982,0.855866,0.854863,0.874122,0.877223,0.886402,0.894153,0.902765,0.903096,0.922436,0.928624,0.928508,0.934345,0.93709,0.943286,0.947513,0.953497,0.957297,0.968419,0.00308681,0.989329,0.99318,0.99482,0.995865,1.00179,1.00573,1.01644,1.0189,1.03224,1.04149,1.04862,1.05051,1.05274,1.0606,1.06778,1.07551,1.08184,1.08607,1.09676,1.10034,1.10151,1.11166,1.11162,1.1138,1.12636,1.12907,1.14343,1.14659,1.15953,1.1604,1.16711,0.00314632,1.18885,1.19457,1.19687,0.00308249,0.00324664,0.00324566,0.00313322,0.0031385,1.24521,1.25641,1.25414,1.25438,1.25728,1.24938,1.25129,0.00315085,1.25962,0.00324646,0.00317521,0.00320665,1.32886,1.32944,0.00336569,1.32886,1.32883,1.33139,1.33343,1.33504,1.33521,1.34027,1.34138,1.34173,1.35194,1.35634,1.35845,0.00312261,1.37341,1.37767,1.38184,1.39492,1.39567,1.40334,1.40433,1.41015,1.41366,1.42279,1.42412,1.42683,1.43429,1.43442,0.00330347,0.003096,1.44174,0.00285077,0.00335678,0.00315733,0.00320137,0.00316346,0.00326145,0.00316742,0.00319479,0.00333418,0.0033351,0.00321168,1.54276,1.5488,1.55402,1.55415,0.00328913,0.00308288,1.56892,1.5762,1.57689,0.00335441,1.60565,1.61332,1.61304,1.61384,1.62449,1.63573,1.64002,1.6434,1.64543,1.65791,1.65861,1.66505,1.67304,0.00309561,0.00309929,0.00328198,0.00349035,0.00323261,0.00335975,0.00312372,0.00322262,0.00307547,0.00337396,0.00307838,1.74851,0.00308772,1.75983,1.76399,1.76193,0.00314728,1.79143,1.795,1.79431,0.00332982,1.81764,1.8245,0.00341445,1.8449,1.8515,1.85285,0.00328019,0.00323048,0.00348681,0.00330445,0.00311248,0.00308802,0.0033037,0.00305295
0.00312015,0.00351142,0.0033379,0.00332578,0.00317706,0.00332699,0.00318337,0.00312657,0.00322919,0.00327113,0.23307,0.233404,0.231772,0.230993,0.0030325,0.00347556,0.00297269,0.285417,0.284462,0.283412,0.00313207,0.277654,0.269798,0.268211,0.00313082,0.259114,0.268872,0.266291,0.267145,0.269159,0.275058,0.273019,0.276663,0.284164,0.299228,0.299958,0.301577,0.302315,0.303845,0.316933,0.315964,0.315666,0.316372,0.323425,0.322037,0.332232,0.334256,0.344939,0.002934,0.00341409,0.3644,0.00305738,0.375374,0.00332221,0.39829,0.395862,0.403021,0.403634,0.00333175,0.43266,0.433094,0.434649,0.443698,0.442761,0.462867,0.462937,0.461881,0.472595,0.474912,0.480232,0.495674,0.495539,0.502411,0.517113,0.519235,0.527799,0.528147,0.527386,0.537249,0.558019,0.558745,0.559233,0.565718,0.00323825,0.58811,0.596608,0.597869,0.614147,0.625175,0.624845,0.626108,0.626664,0.626375,0.645325,0.656872,0.661653,0.00328787,0.694749,0.69823,0.698392,0.702662,0.707408,0.707752,0.718408,0.725562,0.729014,0.730184,0.738705,0.746045,0.744962,0.74441,0.7547,0.767091,0.774774,0.777658,0.780884,0.784359,0.804761,0.805956,0.806551,0.818696,0.824924,0.824544,0.834358,0.835839,0.837084,0.845713,0.85707,0.859642,0.861349,0.870291,0.884093,0.888852,0.894031,0.894468,0.896304,0.902892,0.910264,0.921103,0.932571,0.939348,0.94118,0.945457,0.952257,0.961984,0.96525,0.975632,0.980175,0.986854,0.987851,0.997441,0.997883,1.00487,1.00936,1.01499,1.03365,1.03456,1.03959,1.04281,1.05262,1.05985,1.06592,1.06759,1.08042,1.08115,1.09109,1.09553,1.10229,1.10547,1.10931,1.11454,1.12003,1.12244,1.13423,1.14203,1.14997,1.1598,1.16154,0.00299335,1.19264,1.19858,1.20181,1.20519,1.2133,1.21975,0.00333322,1.23782,1.24977,1.24978,1.26018,1.2611,0.00329893,1.28442,0.00314109,1.29599,0.00337283,1.31161,0.0030675,0.0033526,1.33725,1.34645,1.34666,1.35079,1.36132,0.00316601,1.3429,1.3455,1.35004,1.3578,1.36338,1.36388,1.37284,1.37713,0.00340999,0.00350408,0.00321838,1.40054,0.00307395,1.40853,1.411,1.41449,1.41339,1.42055,1.42564,1.42398,1.42478,1.43312,0.00352497,0.0032864,0.00337307,0.00336169,0.00314059,0.00328906,0.00334548,1.45245,0.00296091,0.00314659,0.00326953,0.00312944,0.00334729,0.00317039,0.00304643,0.0035224,0.00323108,0.00326144,0.00325022,0.00318706,0.003299,0.00315781,0.00322726,0.00336453,1.5788,0.00348784,0.00347091,1.60503,1.60959,1.61749,1.62455,1.62402,1.63189,1.64035,1.65499,1.66024,1.65904,1.66231,0.00321783,0.00317935,0.00315593,0.00332429,0.00301766,0.00340704,0.00325441,0.00308514,0.00314003,0.00327528,0.0032863,1.74383,1.74168,1.75112,1.75884,1.7652,1.77468,1.7735,1.7843,1.78798,1.78991,0.00320158,1.81389,1.81322,1.82362,1.8357,1.83733,1.8373,1.85097,1.86057,1.86282,1.88527,1.88795,1.88729,1.88814
0.0944801,0.0958361,0.09529,0.0951544,0.105009,0.00337625,0.00346236,0.00309316,0.185059,0.183711,0.206261,0.204823,0.231673,0.235867,0.23644,0.236651,0.00327699,0.00312231,0.00333489,0.287573,0.287135,0.289436,0.290772,0.286943,0.287553,0.00320864,0.293526,0.2702,0.291591,0.284525,0.27698,0.00308707,0.276674,0.277374,0.276353,0.30422,0.304765,0.304636,0.303977,0.31251,0.318318,0.317857,0.321048,0.32362,0.324169,0.334645,0.332642,0.332235,0.345968,0.347178,0.353332,0.00317642,0.362975,0.362655,0.383927,0.382176,0.390362,0.39818,0.396312,0.00299875,0.430989,0.431671,0.435168,0.438218,0.442504,0.451795,0.457474,0.462652,0.473755,0.483243,0.485894,0.487345,0.00339321,0.52146,0.522532,0.523487,0.524044,0.531292,0.534702,0.552401,0.556141,0.562987,0.569562,0.571105,0.580309,0.591004,0.596041,0.603854,0.609024,0.616231,0.615827,0.626255,0.624936,0.624165,0.623359,0.65499,0.65422,0.669171,0.689734,0.00308745,0.70441,0.705244,0.714521,0.720125,0.719436,0.726461,0.734992,0.73873,0.739231,0.742922,0.744245,0.752883,0.765669,0.766752,0.773094,0.784907,0.785639,0.787694,0.794167,0.805014,0.814535,0.8143,0.824293,0.829433,0.836009,0.83588,0.849876,0.851337,0.853055,0.859054,0.867824,0.872082,0.883508,0.884478,0.887486,0.897319,0.903285,0.912489,0.914887,0.916963,0.927713,0.929264,0.942677,0.944107,0.953487,0.960256,0.961011,0.965826,0.973142,0.974108,0.980244,0.986079,0.991708,1.00039,1.00786,1.01476,1.0296,1.03039,1.03752,1.04103,1.05299,1.05421,1.06347,1.07423,1.07489,1.08134,1.08381,1.09477,1.09914,1.1091,1.1124,1.11632,1.11967,1.12911,1.14542,1.14503,1.14651,1.15742,1.16406,0.0033095,1.18145,1.19503,1.20875,1.21213,1.2149,1.21913,1.22613,1.2311,1.23749,0.0031624,1.25507,1.26813,1.26876,1.27461,0.00306069,1.29803,1.2983,0.00324986,1.31567,1.3258,1.3467,1.34466,1.3452,1.35784,1.35921,0.00315695,1.37249,0.00296254,0.00320997,0.00306595,1.39225,1.39189,1.39455,1.39633,1.39725,1.40223,1.4168,1.41606,1.416,1.42355,1.42607,1.42552,1.42489,1.42893,1.43547,0.00321356,1.43825,1.43994,1.44197,1.44126,1.44497,1.45129,1.45213,0.00291485,0.00351002,0.00304583,0.00316415,0.00331444,0.00349214,0.00307302,0.00335051,1.50559,0.00303846,0.00315627,0.00328509,0.00302701,0.00314219,0.00321694,0.00324694,0.00343753,0.0033932,0.00322238,1.58477,1.58667,1.59254,0.00304682,0.00321094,0.00320682,0.00343738,0.00342144,0.00334723,0.00343923,1.6543,1.65784,1.66107,1.66339,1.6647,0.00302562,0.00309222,0.00331234,0.00340182,0.00300567,0.00351771,0.00311322,0.00334555,0.00323049,1.72922,1.74095,1.74506,0.00316661,1.75271,0.00328226,1.77535,1.77561,0.00284974,1.78894,1.79665,1.79556,1.80732,0.00309091,0.00302516,1.83698,0.0034392,0.00315222,1.84821,1.85819,0.00306295,0.00301477,1.89045,1.89158
