1.83712586244217,1.83600760021266,1.83722848257932,1.83696319964189,1.89015413892648,2.00173302206274,2.00957102409794,2.00991880595769,1.92311629053065,1.88497154496979,1.77350426830226,1.74852578706055,1.74485928192766,1.74756528774622,1.75402449985336,1.760867884285,1.75740466377368,1.75113533994613,1.69076774055826,1.5145893804475,1.48136256265245,1.49006361233844,1.51874903241068,1.53786553897255,1.52668932078194,1.51833826252921,1.5109620850592,1.49190660273378,1.49086644983221,1.47640159483777,1.46552487637967,1.50168049312618,1.52815837983779,1.5643647043564,1.71484566424793,1.71568812577465,1.50184163466109,1.4161961219242,1.37040013468449,1.3822916587647,1.38721951271701,1.47822407755996,1.51157058707866,1.54905243927944,1.51348739637981,1.47823740067192,1.43218586037373,1.34873746815608,1.35243621819582,1.40337082816378,1.45639765890886,1.58016890456758,1.62287676781767,1.70224252537471,1.702163506835,1.66119580605261,1.4003041357705,1.35601804648788,1.31616061245797,1.31545997412911,1.3207000696359,1.36963134702789,1.51307305132755,1.51034799815601,1.34382483617669,1.26726985937427,1.21837308445197,1.21266811297098,1.2599068915574,1.31065950241578,1.49703769986879,1.50302125997481,1.51538949868973,1.54427686500488,1.30277241190787,1.30145877384833,1.29725098554349,1.29817649309633,1.32917878494705,1.40554758086635,1.44161113092975,1.36761823197407,1.32466667806778,1.32811839975524,1.32782347408418,1.38194712239719,1.39097642751955,1.49689003293918,1.5132530757757,1.4924755594691,1.46597108083481,1.41364094275524,1.41600012107177,1.47317584908174,1.50200239545233,1.50133615866945,1.66982083928446,1.66975740449168,1.65597031907821,1.61199610354932,1.59055742467688,1.59050556813675,1.62434380977297,1.6506012833601,1.68397544486256,1.74565181249297,1.76489315803441,1.76704133858679,1.77634858281625,1.76955175828606,1.73657112353385,1.73306431728843,1.75469785909234,1.78568023099305,1.83730842866785,1.86820668578467,1.88747360325583,1.90430430664978,1.90496726671378,1.76342239480799,1.74976720559961,1.72867259416527,1.72838325146441,1.72848999211179,1.73002488454183,1.736576457626,1.73648534284653,1.71525127888814,1.70177861361063,1.46883827482944,1.44312874432906,1.44223723321834,1.45630030555888,1.46542884096749,1.54760996734206,1.60797303204001,1.60697090736385,1.55045013540147,1.51392666567998,1.45623297943537,1.37380440175131,1.37470495021199,1.43899904947057,1.4940207073933,1.49580555641958,1.37467716045542,1.33590777055332,1.29202944411798,1.28034176037547,1.26290680023988,1.29492839644702,1.35525612787318,1.46717061246241,1.54156566400992,1.53699281522438,1.44210215862473,1.40054887727867,1.26804499590525,1.26348322599376,1.26677646777009,1.31892652176018,1.35209373895093,1.38640308757787,1.32032812276304,1.24140741897665,1.22668838642775,1.2048378167752,1.20590246509857,1.23221065836148,1.27175233104024,1.2728798712834,1.2245688483958,1.16949470953932,1.16564045624635,1.17310174969957,1.21744400775333
1.84015223964685,1.80019343219426,1.8175547763352,1.83593989007948,1.84710095773206,2.02589981987737,2.01141662284447,2.01245179670908,2.02731212707837,1.94804106194705,1.79807938492414,1.75303542319777,1.73775863528224,1.73829005702978,1.74909587019183,1.77110249667264,1.77093240371176,1.84900007231015,1.67961959049226,1.53817958307463,1.46391641071198,1.50435928726696,1.55712888212404,1.55307394022906,1.49177885852629,1.48071913875642,1.49622025104929,1.49474429118333,1.50322808967333,1.47869729655089,1.46110558390165,1.50350567078515,1.52683188545376,1.58904335882975,1.7646667442581,1.76705341472439,1.74383001485956,1.43232498140073,1.35941743720551,1.39737307717504,1.40225377450886,1.45803233159648,1.47941487783461,1.77754008823568,1.40834756917523,1.42296232335658,1.53005008823568,1.34477162669359,1.34648720922172,1.33807582029763,1.44586916202734,1.64366004411784,1.71028005335375,1.73487504017727,1.73393503899592,1.68331257475591,1.40522077607026,1.36411358933895,1.30426758497511,1.31281252407838,1.32352324152711,1.37379827781554,1.51918302628308,1.55918006087937,1.58961006719769,1.26450018332317,1.21010330099169,1.2105897885823,1.24845202946273,1.32866217557202,1.4847276070747,1.38482787069979,1.38597941658779,1.64151008823568,1.30282181136677,1.30471409047189,1.24855996445187,1.2887926964226,1.32893355277766,1.38228870127733,1.81090008823568,1.34471996947685,1.31859807529333,1.29481389598981,1.32648442810724,1.355750620626,1.417585841973,1.60543004411784,1.69177004742494,1.71785505413719,1.71743504877322,1.40694130896788,1.40573512800546,1.44634373475027,1.50340550249984,1.50316012639683,1.66851290356726,1.66821034026749,1.77236007080566,1.58659997385682,1.55096630898745,1.56728287278707,1.59292143087873,1.61261442249982,1.67539191943826,2.02129008823568,1.86617003293788,1.81649818547688,1.96588008823568,1.79726109071637,1.73832466425605,1.71437766767114,1.7252446219572,1.78537416499832,1.83713849337484,1.83967312257986,1.82368872161477,1.97896993717593,2.02734007724295,1.76878147570062,1.7738354790316,1.69113882252928,1.72806201513821,1.72476781586717,1.72236004746736,1.79955356724287,1.77950650194257,1.72537886563595,1.68233096998539,1.49049347110433,1.44168708915224,1.44057787749352,1.45390396105408,1.45494719984718,1.54764869585837,1.60991428137774,1.68127007718674,1.48982319425149,1.48921329966671,1.44856980790634,1.33494783868786,1.35784206020398,1.50320057589444,1.49233994015534,1.49717077593656,1.69273008823568,1.58228226882756,1.30837517014585,1.29222236887227,1.23936629884481,1.29933455843251,1.3747442852609,1.51020566479084,1.54860830964881,1.52773064082478,1.38161294280855,1.40319469787955,1.25266076312944,1.24290550758683,1.28474441183718,1.37413891599764,1.52778029311911,1.49224939861779,1.52750045710524,1.23724936331469,1.20346726970152,1.20341686615113,1.19402022520803,1.21983431489499,1.27146746003336,1.27485136226283,1.2300128817571,1.17316099111154,1.16157891034698,1.18155737550038,1.19822361979847
1.83423064460356,1.81982176563205,1.82416779001236,1.83513681977052,1.90109931610066,2.02320550543158,2.021762134275,2.02212737937617,2.02421333393356,1.95763697700225,1.77352881384444,1.76531644725929,1.73808955460845,1.73845793552161,1.74805849017208,1.78398336688062,1.79104744001051,1.80875278233062,1.71891250619533,1.54514852819135,1.50541737234295,1.50556102403578,1.5301921170374,1.54094602601174,1.52978970618693,1.52078379392241,1.51347270762985,1.50745412187676,1.49876033521488,1.46979980269298,1.46701647309529,1.50265275743607,1.50184583845876,1.49270757062509,1.47918405681008,1.47710050908979,1.47591935302139,1.46601321952218,1.44371612400563,1.41426458598917,1.41704600031683,1.44494169484466,1.4632370091014,1.48216828338548,1.47391557305613,1.46122496458625,1.4003148918378,1.34606866475484,1.34512501576382,1.34206281099104,1.41981932358989,1.57373166598978,1.60955979328752,1.69722334458371,1.69255681870952,1.68454385707043,1.44507477216128,1.36694421055801,1.30785016824439,1.3109330399457,1.31387476770917,1.3489487859938,1.43604697423927,1.43946788513843,1.35273907604872,1.2632975296844,1.25981884380926,1.24737556905995,1.24813832860482,1.36832526022808,1.38782014096811,1.38954270743754,1.4559697778451,1.49136715269802,1.3498371942996,1.31231045829063,1.28388134105869,1.29249411276055,1.33371293951273,1.38275069726081,1.43802293255289,1.39895739042438,1.31875383009379,1.30123176065524,1.3322322083108,1.36728552844539,1.41177183779192,1.52024146305481,1.65037218211746,1.65734277155309,1.65717064865017,1.43530167272853,1.4282531432236,1.43956302436237,1.47892455856726,1.51686449388749,1.65062778431488,1.69541187698854,1.71707485165097,1.62958916429913,1.56674036437036,1.56859889231848,1.5758801937336,1.60632956418597,1.65750228380572,1.71135651463862,1.82538230193644,1.82136934981613,1.8107585737642,1.77034568841633,1.74175932364334,1.72888174529813,1.72720828423389,1.76295387704509,1.85922454105445,1.88383926054217,1.9117393506033,1.98720341619388,1.99035614574744,1.8195216644243,1.74507840128379,1.72369343437794,1.72516420507136,1.72550628010915,1.72535083991507,1.75945477678216,1.74433672925909,1.72700504238629,1.68020829344546,1.50925226104237,1.44221279199353,1.44130478216176,1.44844704740831,1.45194039633054,1.55071940185376,1.60241525525305,1.61975306856465,1.50709785803505,1.50062763647219,1.42535840666277,1.39957095719457,1.40233332124541,1.47088379541205,1.47717996773866,1.51494556885579,1.57882193351878,1.57363664011286,1.3056447705356,1.29009803795384,1.29003080490641,1.3391026213679,1.3773171006092,1.52559648846074,1.52559463110263,1.52527913403687,1.44221334919078,1.38735721930456,1.32970721277296,1.32590464253617,1.34759464794135,1.39285776588462,1.46330584652337,1.46784411712239,1.47145596543635,1.30265101242967,1.25608519157086,1.24966649732933,1.23360068702257,1.23199974438809,1.23173759399577,1.23122174736498,1.2316447769269,1.22059547221572,1.21972362352811,1.22079495480656,1.22135646823961
1.7998074467593,1.75524799572709,1.83449531734284,1.83466690136613,1.97690885500192,2.28999008823568,2.1636796078995,2.15637045338959,2.19120007106443,1.96626551431792,1.76030622293768,1.86552008823796,1.70994404075115,1.73839678656852,1.74609089970698,1.79459435756645,1.82398350081454,1.82295581546624,1.76571003645364,1.55087194822589,1.503864213578,1.44500994899232,1.50954716600217,1.55493864535568,1.58570997938192,1.64962702018408,1.80003008823568,1.66576004411784,1.49577851679688,1.46060302541689,1.44135438243882,1.50252379057196,1.50073104313322,1.48944052363851,1.45383995411891,1.42224572063289,1.43986417466637,1.55814074081478,1.47839377093177,1.41112120740743,1.41878883279958,1.43081654243929,1.44876707657938,1.4998553630952,1.7683341746548,1.75897023839995,1.33987994441561,1.30634994728659,1.34467887856978,1.32533974028124,1.39203398425358,1.54121831245961,1.54213164420189,1.70573723679602,1.68606555749754,1.68601296921675,1.4866972276175,1.37041566092948,1.30021277939196,1.2993231563398,1.29920285967788,1.3326172347896,1.42982850073827,1.44520939866633,1.28751995334656,1.26128990380448,1.269183121528,1.24762203729095,1.24953757288164,1.43328008140057,1.38309007400827,1.40044794615717,1.62033270440334,1.57857163405312,1.3785341713336,1.32899086112728,1.27813005092518,1.29491805393306,1.33924392217828,1.38245534072761,1.76560008823568,1.45859000336804,1.31649069906648,1.2970992261285,1.33771091114778,1.38323686334506,1.40494645466407,1.48261999828768,1.6461458866314,1.65863940652159,1.65845899631886,1.443503779304,1.42033006965474,1.43356608923981,1.46048352571234,1.53338340971258,1.62960293873535,1.7413800366171,1.81667008823568,1.66503088068441,1.54506994396026,1.64715004414501,1.56771671572291,1.60053785862234,1.64061316166552,1.66461705252095,1.82951311927247,1.82302565670295,1.79978396027272,1.72745443678172,1.7424952673802,1.72956352617116,1.7271236913524,1.72570018345809,1.9595606657341,1.96439854838422,1.99655823036888,1.99738545243603,1.99696108168702,1.93871004411784,1.73047439369058,1.72117296300227,1.7214263104931,1.80903008020551,1.71375070524613,1.79070136461283,1.72557374441155,1.7276020792311,1.67746031559153,1.52711050103783,1.43166786861206,1.44012518744047,1.38516766861936,1.42979807815847,1.55376806284943,1.59630176305265,1.75576008823568,1.5202364602073,1.51948270363597,1.39235047556791,1.396083954247,1.40438835271672,1.4474697018187,1.4671020040739,1.5405426000961,1.62608006967802,1.5545850446326,1.30299043519431,1.28754393926424,1.28931408477917,1.38004917152635,1.38001591085632,1.54718586182649,1.52629624815635,1.55946281335517,1.5601971095539,1.37180482320477,1.33458724496209,1.32160161838408,1.37093203145358,1.414893680246,1.45060848339718,1.46493811576212,1.47596827960073,1.4986661797757,1.27086874447764,1.25695098760081,1.23690457362484,1.24720726805062,1.21712061485406,1.22769122703451,1.28129616665782,1.22166042378206,1.21715982366192,1.22263837108918,1.22311991709084
1.77124514897922,1.77142055295814,1.81418054447542,1.88379517016941,1.99926802282473,2.11859566010363,2.11910636367543,2.11982353043581,2.12046357784595,1.84602583845538,1.7591806749701,1.74911803956977,1.72368406009916,1.73710953353621,1.75566627389722,1.78715499698117,1.82194194095476,1.82159142811995,1.68102946108437,1.52210978103346,1.48741297217745,1.4762550986224,1.52046482542835,1.54594072435111,1.58257870166033,1.65232771228159,1.68378273472463,1.57599485344511,1.5036627763579,1.46294983741302,1.46035730538278,1.49881204346614,1.50304422415058,1.51085482144293,1.51977975373503,1.52880413333117,1.53795182604736,1.5480142588321,1.48082272727839,1.4338415290782,1.43057942508913,1.43614889863988,1.5131380431227,1.55155656449076,1.76335334684828,1.76024395993312,1.43127457260412,1.40181077880011,1.35453305911033,1.37017256200845,1.37635047100915,1.46431825314896,1.60007696843069,1.69615175971292,1.69122768668656,1.68799663161403,1.48287969652503,1.37953158882416,1.30608238017598,1.29894403760628,1.29945119457421,1.33038991618712,1.37210561893542,1.40114627450031,1.35826059384922,1.26238328110671,1.26289736504789,1.25891016289532,1.26924189925387,1.35297038044143,1.37016877180303,1.45778307333108,1.60254506203259,1.59378776268889,1.38230874873341,1.33105721033926,1.3303197908265,1.33285875339994,1.33365174374142,1.3988298895555,1.52664216281926,1.49184479851651,1.37465914668829,1.31598299182531,1.32329508905281,1.36276135991442,1.40027941176431,1.44749639388381,1.65070327185917,1.65698880514028,1.65687127204368,1.44030714379354,1.43580295038558,1.43876246659062,1.46564598850189,1.53033432659935,1.65016993526015,1.65478663805966,1.67253707894516,1.66980299066902,1.60296233142212,1.60805946277605,1.61229638963316,1.61510613223619,1.63636364777117,1.6649105101945,1.82654419290455,1.82457865447997,1.76386446599565,1.72770166126347,1.72813792746722,1.72883820978693,1.73679488204775,1.78689702315048,1.94248071518887,1.97265318110486,1.9954061828905,1.99522393170984,1.99391652115433,1.790917451585,1.72752738267463,1.72312626489177,1.72249331174019,1.73052423920532,1.71302164314063,1.71404943448134,1.71582589043175,1.70640448664843,1.66680007636241,1.54584486293843,1.42389269268724,1.4215945788177,1.41863592591327,1.42259540795423,1.46790196088552,1.47705110545664,1.4867340110376,1.50262537597533,1.49438346529354,1.44929729854177,1.42612973458993,1.42768276181508,1.44580653254082,1.46035815739179,1.51030396544149,1.50713031509822,1.50519596440383,1.31618010789427,1.31052620169597,1.31639892154859,1.39761318579599,1.41570800277902,1.49845486002846,1.53991309087903,1.54651996773093,1.54097591672382,1.38740546709595,1.32957399868251,1.32558164657621,1.35862263747755,1.40491995841345,1.4380694000818,1.46807401120773,1.47359154980618,1.47286527042518,1.26340976022013,1.24590236663891,1.24180088196029,1.24499778205601,1.24500170793064,1.2449755548991,1.24595980087367,1.24746288669458,1.24855182625331,1.25345664411436,1.25857850062953
1.75935054530909,1.76963066238173,1.8012481258983,2.09850927208687,2.09856478924047,2.12457964880371,2.12486620121919,2.1252843643173,2.1258305106207,1.79811613029832,1.75850664441089,1.69924263638581,1.69119371771018,1.73386405435942,1.76502538365937,1.77980982322612,1.84978255598435,1.83507853603144,1.63425616264764,1.46210076114864,1.46226748784146,1.46398752665688,1.52974967084753,1.5364885111017,1.57954997927383,1.65553147461608,1.79617008823568,1.51414044356677,1.5132059390252,1.46627492983486,1.45537363408102,1.4960252001378,1.52466582819444,1.57550988137516,1.6224021740752,1.88015008823568,1.71829337468355,1.71786670815849,1.48429810883882,1.43704552292692,1.42725138470126,1.45099510732043,1.59607999999957,1.81551036347901,1.78559486096821,1.79142489901814,1.45197428236469,1.46931018312613,1.33957625700829,1.38929648799508,1.34869895076848,1.41308997643976,1.6745683111338,1.72437986262397,1.7078701964752,1.71995854832659,1.47936591728694,1.3871703894091,1.31331691214434,1.29519104925353,1.28202360073681,1.32827600127086,1.32984591255049,1.50365004124717,1.57004008823568,1.26123684192064,1.26177129757745,1.25279411717177,1.28800550603539,1.31881094201154,1.34010997345564,1.53722000744179,1.66059006225762,1.63121006228743,1.3872160558445,1.31280727954677,1.32669647378247,1.33656403404007,1.32803391871801,1.41416014143883,1.83471506617676,1.83405506617676,1.41493609959837,1.31193584653325,1.31159416469646,1.35076678972015,1.39114976258491,1.39925267653116,1.67440690135599,1.72690869020586,1.7250221239376,1.42572277364905,1.43039044946772,1.45875506456077,1.47331700278424,1.52794200586796,1.66820511126126,1.62142352366592,1.67620854376677,1.68522979543644,1.59663826508948,1.53902993253774,1.61786612081043,1.61685822774819,1.62893341847202,1.66596734815134,1.86645660928983,1.86697219405524,1.72624560745888,1.6764005797057,1.68120308081613,1.670991717861,1.74809399828781,1.92371955022937,1.9214263027607,1.98032628671528,2.10627673284343,2.1045033995101,1.99007281353556,1.74375575447186,1.70314770258718,1.70268777451274,1.71981678584081,1.73508613492732,1.69274220450075,1.70522782091491,1.71682396113524,1.69586477765271,1.65116482913738,1.56601715111135,1.41759637998688,1.3852829085078,1.41292633395146,1.39234133946236,1.44794990803436,1.44894402127914,1.48026780936613,1.52305457381738,1.47369136174458,1.48845129895258,1.42433501150675,1.4298824029349,1.44388945521715,1.45074164729711,1.51308124944861,1.50574012570474,1.50295515837601,1.32591407415399,1.30195037575795,1.3205922562551,1.42989842058615,1.43760692837196,1.457289980139,1.6642800654596,1.69352006689393,1.52714677898609,1.40198343838537,1.29281496600684,1.29283496471936,1.34734509113775,1.39603695387627,1.41534582543769,1.49970628257981,1.50000701054894,1.47413547724608,1.25882592033075,1.23445298580158,1.22891984049055,1.30010713655255,1.43985008823568,1.26698629209677,1.24668006976942,1.24878869290194,1.24641075719212,1.26910611098563,1.27299285664038
1.7563940308055,1.77899050228391,1.80043996560519,2.08943047800603,2.10444458578212,2.10692991830312,2.10636600336645,2.10372526570853,2.10292690271827,1.81328869936622,1.73099080532592,1.70235401019527,1.70501496184244,1.7203509846455,1.73917809648692,1.79124512409182,1.80080312816718,1.77878845318192,1.64216344898836,1.53074112899141,1.47813326860688,1.47949481765232,1.52848794854005,1.54978229349589,1.60855577401631,1.66722169612395,1.69682733924825,1.57946045487632,1.53496503573575,1.50281961082815,1.49288613649719,1.50163485967517,1.52896329668313,1.57680199035443,1.62585213777837,1.64631615093003,1.67530663054735,1.57730644870473,1.46148280514875,1.43521861680159,1.43198041984677,1.46345237814994,1.63224474690791,1.78644092353493,1.77021932346791,1.76135039824051,1.4970923577778,1.44905567159705,1.42886347818733,1.42143884570552,1.42498475310416,1.43633484692897,1.69356538484384,1.71920874010672,1.71503070630986,1.68454101222608,1.46456814793956,1.39837659212382,1.33467264949748,1.33222875710605,1.32728003841577,1.3297060938282,1.33123382272165,1.4522604067059,1.48611935088543,1.34005466590948,1.27881362556897,1.27563690993382,1.31205577856842,1.32872182597732,1.38088980842977,1.56646312164297,1.59768600298434,1.42409323044655,1.36584470502141,1.3178230185531,1.32278733282061,1.34183385261571,1.3762720593933,1.41334070300001,1.73511033827628,1.7353063490597,1.41683837412641,1.34036868927174,1.33971812423747,1.34357211525068,1.38184943718746,1.3850355448927,1.67786188722686,1.69865204925919,1.71042040244412,1.43225980421819,1.43057120824065,1.44449671320848,1.45244951054816,1.50433216654641,1.55840911758308,1.62677345529922,1.67334630682613,1.67815590708117,1.60348750881114,1.57178049140166,1.602129331574,1.60858200445668,1.61411569884753,1.66219446098889,1.86405467195839,1.86422492539108,1.70794798194764,1.70248808946372,1.70207964342084,1.70156094707139,1.75719015254277,1.8158489267283,1.92020836417599,2.00548353376973,2.03465963171548,2.04922456381944,2.01957320786584,1.75830698981795,1.70108492762669,1.70092580009102,1.70069302498028,1.70191897655215,1.70382452658849,1.70560813948929,1.70718032134927,1.69923101087455,1.678062000833,1.57802134494022,1.42971345004136,1.41615568128347,1.41589473663953,1.41765086900656,1.44861590941159,1.44965847236492,1.48709070115426,1.4937324738385,1.48572851184624,1.44995662175204,1.42568052751528,1.42724884255375,1.44019520715607,1.46364014828655,1.51022449673019,1.50767892564319,1.48425349729629,1.35086622577009,1.32768446250194,1.32532561368295,1.39560372265117,1.44141721110168,1.49454929507851,1.55761671566028,1.57819081355291,1.48988927146717,1.36930137413307,1.31901518543085,1.32282640483449,1.3527844769198,1.37682175302962,1.44853524343568,1.49820714713087,1.49831013607045,1.37177640508132,1.26933978135579,1.26360217954374,1.26334917646824,1.31190052415741,1.34858497609266,1.32607719493195,1.30295704281282,1.26560491098218,1.26176463386493,1.26537324699105,1.27162846189937
1.7367107637013,1.79404309526432,1.79988948952714,2.06565057187474,2.10803334787026,2.10964276628491,2.11060468884246,2.08690271175588,2.09834676452135,1.82801413834238,1.64811827649624,1.64527160605311,1.7064490664785,1.68620569152822,1.68228579659922,1.81479282643902,1.80669302992205,1.76559603166079,1.65195828780905,1.57044765952537,1.47491443172885,1.47887438868669,1.52644778500216,1.56960060290573,1.64772002987629,1.67786511911342,1.77807221991371,1.75526791243981,1.55441909493519,1.51595309458298,1.47269485325005,1.50832323829322,1.53396805010828,1.57785388525163,1.62878276200956,1.59290940493078,1.74388008453157,1.53844999999956,1.41571125955259,1.41552558433475,1.42293248065914,1.4907487366947,1.73031004411784,1.81654005832419,1.74174002687638,1.73989199214882,1.71577004396056,1.43303932769685,1.43497389122091,1.41565671258678,1.42853127274425,1.4626863488482,1.73506934949252,1.75667313558595,1.73575619593733,1.65548921602629,1.45018658486284,1.41295341073267,1.34083338809092,1.33994424824315,1.32324968152237,1.30459477016892,1.31596776283397,1.41433453052644,1.55214006764489,1.519230061871,1.28058567088554,1.27102249285356,1.33744501137036,1.34003269783547,1.4139834111549,1.69557178466823,1.70026834768529,1.3673246651515,1.35096173668714,1.30505470519886,1.29481134887344,1.34667626568606,1.41260871044863,1.4129034248719,1.73667263922147,1.73726064174984,1.4184480981864,1.34024984615798,1.33786113011893,1.33423162348989,1.37325397264948,1.37381340812867,1.68073268363625,1.6803127424162,1.74105006673617,1.43521525835037,1.42747008946293,1.41980498224785,1.43668002544835,1.48617997443185,1.51306683083449,1.63005923233602,1.66757707772857,1.6928226809133,1.60996456472452,1.53600580574763,1.59387280496504,1.53293914096931,1.59274108933933,1.65883450182874,1.88742494583259,1.87913515967788,1.67756347668185,1.70123263347239,1.70073578127599,1.69956366270473,1.76997842015039,1.77010416289549,1.91818375853445,2.10524008823568,2.0081084969105,2.06922006276575,2.09688006584221,1.77210342665852,1.67930711254239,1.65686565130131,1.66110319632488,1.66272097398893,1.74802006481157,1.68628585708685,1.76147004681691,1.73060042830913,1.70397003408271,1.59112024841758,1.4399423397162,1.41529560544343,1.41682424543416,1.41832930558603,1.44725224025593,1.42967902349737,1.4979031375249,1.49992312046711,1.4911044481028,1.42247417606389,1.37397648945377,1.40730260154329,1.43586725117424,1.48747836348631,1.63885008823568,1.54664103454082,1.46177083148229,1.3717330415917,1.33406825284571,1.29223995164353,1.37056459263674,1.44664073727757,1.53357483985381,1.5308237602376,1.63100006825525,1.44411997060956,1.32833925805687,1.31439204540664,1.32569741549763,1.3597657016204,1.36220383003038,1.49669001909155,1.52028104477013,1.52633904216477,1.32436186153276,1.2767829211444,1.26280883838595,1.26216773599355,1.3223399714424,1.37798606606745,1.57149008823568,1.51390004411784,1.27842250808701,1.25795975423779,1.23978195113677,1.2984413072767
1.74069893841373,1.77108968449663,1.81816485256986,2.06509692303077,2.10398804097794,2.11275926635399,2.11237635975201,2.10155300537875,2.09991305266052,1.86925098931195,1.7239559654394,1.6945341739093,1.69215566668391,1.69033694136939,1.6925822104472,1.70400840223371,1.72231808652337,1.72489984618818,1.67332445280378,1.5633046965203,1.48750442999611,1.48417074960191,1.54201044826513,1.56329013482751,1.59411386140627,1.60425370580151,1.62039081958659,1.60806401246274,1.56376215267492,1.54921433429993,1.52796289393491,1.51700242036854,1.54168241528497,1.60259854804294,1.61215910067125,1.60209366808672,1.49596239062661,1.46010497157317,1.41562239461092,1.41555106991731,1.43333999917718,1.47001379487814,1.55658455988985,1.77617782350838,1.76345443681392,1.75599948623251,1.52683801724554,1.45492633774387,1.4282984435826,1.42349640578185,1.43731839619718,1.44561543671741,1.70694311376849,1.75200416298232,1.74686878569857,1.70012602553532,1.49841905989732,1.38159287568532,1.33502182642876,1.32850468422202,1.32178016887197,1.32030058877487,1.3197008408623,1.41359475327287,1.44953945976124,1.38328288798581,1.2819128375879,1.27761755337113,1.33279069188942,1.35353909286967,1.39559509298061,1.38257506882281,1.37440942009999,1.35182635534356,1.33584184402365,1.31008137490975,1.31012390404625,1.34223099139969,1.39683924649531,1.44898123990739,1.52132742426859,1.5561167062571,1.44034899294233,1.34926801810163,1.34433966317609,1.34942594335925,1.3689046489317,1.39128585398086,1.57632642805473,1.59361608063891,1.46056898083474,1.43044047230161,1.42501761206613,1.42218347952663,1.43372450191756,1.45434399731295,1.51068314312207,1.62120143844041,1.66911176159625,1.68962155987732,1.58998906066369,1.5331634528018,1.53150788815326,1.53153043788344,1.57368598415558,1.62612183434269,1.70587024790411,1.74969023950886,1.7011464732015,1.70138123495358,1.70178592976059,1.70774414229871,1.75411259843833,1.75740378072715,1.8087577452927,1.8219199842474,1.97443510788374,1.97083405732356,1.97146907785174,1.80794793928553,1.68471572412097,1.67077325648129,1.66224484729276,1.66274543153638,1.67065358438553,1.67669615599371,1.68478624800588,1.66584216367592,1.6421641584105,1.5898330039076,1.42207130927968,1.41578773680517,1.41638082320786,1.41732891205606,1.43562933021881,1.45923877892771,1.49907540242272,1.49978729554789,1.48820905859377,1.40619226961222,1.3969500677106,1.41619778338278,1.44340730009629,1.45995836700926,1.54352725442134,1.54431439516966,1.44964836134721,1.40193427855294,1.34676387548546,1.33834115905763,1.37297443781975,1.42719898324909,1.50381654959234,1.53048442490768,1.53141281092289,1.4895394868159,1.33217858124343,1.32968512289423,1.32773160560776,1.35876266538296,1.37320426200574,1.44798516393183,1.50511841418343,1.51141789959423,1.33017893339252,1.29887631034173,1.29776244637148,1.30492578000853,1.33378692075,1.3581612788245,1.44858362257787,1.44584561567071,1.34293236722201,1.30271607174711,1.25859157774984,1.26525644874405
1.74437459045436,1.75353821999883,1.83351304910493,2.05765797138626,2.0762709265257,2.11668636188182,2.11139287913137,2.10153404226114,2.10737975848591,1.95556832385195,1.75045863501645,1.69778800775838,1.69140276031598,1.67938670012635,1.69386282901052,1.69890244866221,1.71811539403083,1.72573431509242,1.69304744388949,1.55560799568925,1.48895707695534,1.44878994937978,1.55778740487254,1.55740673240595,1.55354854602929,1.58828474070964,1.65311571838826,1.56908930034352,1.58921821048391,1.5896712861658,1.53917020171131,1.48875834428979,1.55432461994765,1.72441034419111,1.72405148808915,1.72433834419111,1.44503749385051,1.37038929962898,1.37048971169835,1.36991993522174,1.44445962806105,1.46029006590604,1.50236995591606,1.78640814261929,1.79295989061117,1.79303243569847,1.46629142878901,1.48712237439614,1.38644600663941,1.41084952951284,1.46035282242193,1.4002299451813,1.69060339384861,1.82607337815053,1.82480671008515,1.89089008823568,1.60006004411784,1.33702103104409,1.32989478596726,1.2869962503508,1.28746281644344,1.31966376292864,1.32174984646748,1.41286252396713,1.55553008823568,1.33021961823654,1.2953507472419,1.27266438488678,1.32823304114064,1.37276962592466,1.5161300761797,1.36083304530014,1.34706006572139,1.33964418900821,1.30087750879742,1.31114169370021,1.30754254528362,1.3382947557378,1.37805243417,1.49086770706689,1.4691960582196,1.74115008823568,1.47265002164174,1.35778209791897,1.31961125210123,1.36782583190656,1.36634328073631,1.41277034622316,1.55411311364391,1.63419005332062,1.34991463976059,1.3477877821415,1.35729467337682,1.36037961968864,1.36264123217893,1.42042999433938,1.50840282005543,1.6162402401591,1.67224437321939,1.69246024057827,1.5754179790691,1.49314267351246,1.49208947823386,1.5202163122355,1.53515795575587,1.58875660673772,1.65860774489928,1.93586008823568,1.70055721394362,1.70045165612284,1.64580462170723,1.72580320836644,1.73851722725712,1.74649316122862,1.79660805931912,0.00442689502399554,1.98138627560634,1.97442737028975,1.97697117821839,1.91660004411784,1.69077023673116,1.69171678581602,1.64870101812265,1.61604071497809,1.61687248569509,1.63961145939978,1.69687601639425,1.65494174308959,1.60507396357777,1.58882301885168,1.37659445430511,1.37631822412686,1.37960256750126,1.37886790995762,1.42739553908452,1.48481749757764,1.60958332805635,1.61695678729854,1.48554265728449,1.37723046978369,1.37783304544816,1.42278043745153,1.45120525022255,1.43292527872231,1.5450442573008,1.56491684755555,1.4372677857913,1.43700031800259,1.36112112041815,1.32428593436207,1.37521174110897,1.40684978543231,1.48196698467945,1.55290388186762,1.53327736217119,1.53022084972771,1.33665978105646,1.34701736642928,1.31764206435375,1.35868368453209,1.38216190066404,1.41969325094765,1.49123867326897,1.51519551356962,1.33611769427112,1.29992236399997,1.29594937254588,1.30959709872043,1.35025454468989,1.34624437839919,1.4521851103818,1.44505595536384,1.40193003621428,1.33530087999871,1.24604626606546,1.24596019253695
1.72923891638003,1.78780974450038,1.85734395599038,2.05094345936346,2.07875375018094,2.07832998617004,2.07706563380494,2.07552088024995,2.04405324700821,1.97669108934513,1.76776986549185,1.69989371406252,1.69348867697686,1.69515985178492,1.6975836542989,1.70039960851407,1.72195910406468,1.72462218101436,1.71093874044049,1.56399834366204,1.50743790726828,1.49857094715581,1.53459068805993,1.54563074634178,1.5609820944063,1.56936464594687,1.57221200438919,1.57400501643282,1.58098208373237,1.56734309367136,1.54564832615158,1.52349350216416,1.53296141380405,1.61686994313595,1.61498606049508,1.6128206479715,1.43951879642897,1.37133277557629,1.37139433046068,1.38532078125158,1.42480532652174,1.43825195645835,1.55658299790422,1.77688226244771,1.78330715719282,1.77206791465455,1.52178554114458,1.45529206615418,1.42103218162909,1.41653341524266,1.46957124237567,1.5036748459271,1.70054237590344,1.70786000675495,1.71186537108315,1.71335268893868,1.51717388445211,1.39102141702988,1.35847549294546,1.32298420766515,1.32250792078398,1.31968113430421,1.31934774216206,1.37552716664136,1.3979352535707,1.34843932709137,1.33603296118405,1.33612902699919,1.34794926916125,1.38110529970876,1.45550764689503,1.43033336572951,1.4050071310612,1.37862905859449,1.33917644918452,1.33263306159153,1.33627287346603,1.33535769968036,1.39407130465453,1.47196299005594,1.49577243847487,1.51201380025364,1.3992172840151,1.34262185749188,1.33516435029504,1.34383070051405,1.35050257757099,1.4230443023323,1.57346474841825,1.58623894394447,1.41749363672021,1.35068023251227,1.35587334807792,1.3594890875194,1.36150352074239,1.39310826521096,1.47075307698588,1.59785675559977,1.60678963001984,1.5814143173805,1.55288813033653,1.50140655401026,1.51431777716087,1.52495337102212,1.54900079887861,1.60749669617442,1.66783165363656,1.73350780003482,1.686589939507,1.67949803698783,1.66513968562335,1.69732158739094,1.7437025797559,1.74539369096658,1.78554439526422,1.80096255494989,1.94998721149026,1.9610737145191,1.94089017987413,1.86237832561746,1.68650344199283,1.67241693312708,1.63413279212084,1.61688523612092,1.61620850107451,1.64310322830515,1.65881340712211,1.65203676031582,1.6074645545981,1.47111772539579,1.37698150520177,1.37733253612678,1.37849859681901,1.39025340228578,1.42451758890211,1.47174794042452,1.57431952822135,1.57436596458314,1.43947939460656,1.37822569962305,1.37821427941262,1.40384768429823,1.439030143216,1.44271195618397,1.55475296842353,1.55803518460999,1.48801396680395,1.42491364628461,1.36571657198397,1.35908915778664,1.39279317617611,1.41699486022518,1.4732603866749,1.54395823613268,1.53745886796875,1.53476611263561,1.34076124781293,1.34449678586721,1.34081586791944,1.34342586881091,1.37346501985787,1.4337726174767,1.43662423570255,1.42990688782848,1.35387593372097,1.30170772554614,1.30016665853424,1.31726594256937,1.34930556058166,1.34739555554346,1.36141655750045,1.36604226137582,1.34621351380968,1.32273671588929,1.25457500558025,1.2608600987377
1.71734478714982,1.81586347427721,1.89350002561682,2.01964166292162,2.08145495269213,2.07941321092029,2.07858071287583,2.07597783302262,2.00777699888311,2.00876348104915,1.79217072570383,1.70135217671618,1.68429173119726,1.6963565186977,1.75478000312359,1.82369628711207,1.78197343078911,1.76571793406069,1.72287124417496,1.57120870856608,1.52103161659708,1.48575335497107,1.512345151023,1.53232486347188,1.57058263938575,1.56577769634213,1.56276479478888,1.61988220341188,1.58425661862239,1.55013685438629,1.55030164138722,1.50392663151254,1.51098452054585,1.61839671485906,1.59839246285758,1.60973077340771,1.43387396132216,1.37167659211129,1.36340707205719,1.40487607807397,1.40339408434421,1.40870256959261,1.74663003634936,1.76494537560265,1.85256008870759,1.75067168676404,1.5641983464895,1.4343598343567,1.42440770642979,1.37991996383759,1.49265128918871,1.58933004411784,1.70711008823568,1.3972816004899,1.39572826715657,1.73669008823568,1.47844999520953,1.43325110653051,1.38179876680556,1.32294670599496,1.32581508379419,1.31682739210911,1.31651482981776,1.34813634181435,1.4431510173778,1.36785422227876,1.33669984535909,1.3367093379257,1.3537896612784,1.38569109743429,1.50426131060409,1.52062617270739,1.64775398918393,1.62852610743094,1.34238389277873,1.328350043671,1.34027668536726,1.33082208325572,1.41096803606309,1.45356479219027,1.71851008823568,1.52571418993178,1.32208259894318,1.3329008339446,1.29448898348183,1.33068041506462,1.34095849508989,1.42934853901209,1.58389613665827,1.64483452563861,1.6531970125523,1.34823351394208,1.34736714258456,1.31317702698829,1.30221806048179,1.35532131592563,1.43306564760276,1.58488760616072,1.62971447446096,1.56517001231866,1.52486312637003,1.48815314177959,1.52968188564436,1.52868924213507,1.57147807672969,1.62113416160091,1.68184950346119,1.87182008823568,1.6542428013285,1.65191637483175,1.64133928542399,1.6548871479257,1.74671853824816,1.73327353162312,1.76650525093326,1.89090871714833,1.92358325539712,1.96865008046509,1.90285751009091,1.83120568497744,1.68372964416488,1.65770105069197,1.62418988822033,1.58150998127548,1.61390080391177,1.64747406933823,1.67093982695582,1.64131294049718,1.6093379435926,1.43085998392826,1.37190276433471,1.330273567718,1.3497592564381,1.40157816884495,1.41610188700543,1.45946381982549,1.57501485974125,1.57515149818373,1.38993359948072,1.36540859075626,1.37367204460303,1.37261420365739,1.42948761535727,1.45113348944014,1.57617661171697,1.58800267655861,1.58711843180245,1.41069035167289,1.38371406757001,1.32392994278908,1.41352243377339,1.42977879448338,1.46542501638195,1.63104005518186,1.58300409881936,1.58199297585275,1.29118995282495,1.34910409088125,1.33700850909531,1.33639811308955,1.36160218641426,1.44448923542564,1.45263582865998,1.41922687972207,1.38183268760252,1.31535004880612,1.29191252319016,1.33530632020271,1.35029598416099,1.31999073505486,1.35480495645349,1.36792269854463,1.33748896707813,1.31079867821987,1.2508167343053,1.27512052122463
1.76828857230929,1.80586099277743,1.84385694862556,2.01840292948702,2.05903483857406,2.06261396158929,2.06508913936744,2.06788881937517,2.03488795514855,2.03148431782618,1.7577220334155,1.69515714351475,1.69064923014561,1.7072606274695,1.78051127188165,1.80004571319071,1.78608151027908,1.77813869537053,1.75190124828073,1.56896640889055,1.51896514148026,1.49897529106003,1.51247449618933,1.54656165530202,1.57807398496481,1.58171711401978,1.58946573241663,1.6008100398677,1.59768867074778,1.55016851099885,1.55035442979002,1.51908670461259,1.51284847384493,1.56928736845821,1.57434812716054,1.54347620971126,1.48074084189612,1.43002688629483,1.41798970449869,1.43418736585983,1.45560788674825,1.49077434478512,1.69035415699418,1.75603740341363,1.77715591959622,1.7707272990374,1.55284448358262,1.44414128210569,1.41135077141353,1.40492764694693,1.45452507897939,1.48089795812842,1.50811095343939,1.52668918025648,1.54949160515496,1.57874385886017,1.44558647405986,1.40384867899965,1.38550599553692,1.33937776773438,1.33762797044851,1.33631439046288,1.33697535509008,1.36202778950255,1.40921990011913,1.38700313887167,1.35983330065883,1.36563341410219,1.37442244590778,1.42541863719424,1.48112518186524,1.53373636879465,1.60803222336552,1.59929870529137,1.41799792058621,1.3495791589544,1.35374471931742,1.36160248669825,1.39088325878002,1.48322871851539,1.59635697041166,1.56248919753597,1.31775922742831,1.3100745562,1.30262840890735,1.3189079292453,1.34207376328607,1.40189548623586,1.57726152434061,1.64618934625555,1.64903189330306,1.35703557677571,1.33265819725428,1.3095284550942,1.30591425423858,1.33655831924378,1.43226714833618,1.49300901328968,1.54647846582516,1.52884688056979,1.51854206497228,1.51117225607626,1.5267687105527,1.53138844475568,1.57171333491737,1.65493120555153,1.66620407700908,1.6632201403549,1.65316975640152,1.65086603404382,1.64655374404493,1.65676292955727,1.72794321890874,1.76544457597764,1.7995070756444,1.89300215522914,1.91782746097504,1.93246475184736,1.92261154887183,1.85614106862241,1.73352027697975,1.65577974622511,1.63475669280195,1.6066331214874,1.6091448233102,1.60696077265333,1.59802964477291,1.58673507965137,1.56297677902075,1.41016728622492,1.35515037073461,1.34680343555997,1.34884185250388,1.37755694360003,1.39396021184041,1.48473766366491,1.57404095008378,1.57408682234152,1.37683150049105,1.3669311673441,1.37010897752177,1.38078789539187,1.40685306952368,1.43746534722849,1.51533826151126,1.58591510364299,1.58561265006294,1.42323850068301,1.40858397737263,1.38726978255582,1.4068337785863,1.42420499443809,1.44174439782716,1.61219029394614,1.60232096148063,1.40737819964287,1.32207412427783,1.33226790746584,1.34553688030492,1.39300068475115,1.42384571225941,1.44938583686429,1.45221465106994,1.43165803722568,1.3538184924267,1.30371101726714,1.30171492199345,1.33970036939159,1.34314555435553,1.34664167505429,1.3518683640629,1.34836660843311,1.32865977860561,1.31241790373537,1.3131945964444,1.34994406243961
1.76788465824533,1.79498353670148,1.79288636623583,1.9938133031744,2.03794710025817,2.03754144925523,2.05906547953741,2.10586007134176,2.04132861620402,2.03716556179806,1.72737973202611,1.65855329679193,1.65832662798128,1.72596336505848,1.99622004616916,2.04262492630056,2.01182796618366,2.05233105183749,1.78259999451954,1.56631494746175,1.51656544338979,1.48975839219902,1.51035542137373,1.56482285168071,1.6779000252629,1.6984400000518,1.82761673114347,1.82812339674799,1.61385463737855,1.53352169506219,1.56128610478518,1.53431023692855,1.50594948823042,1.55712486087183,1.5858038274163,1.49843460154989,1.53853203613392,1.44434936883323,1.38609637686013,1.45620558688635,1.48494553906377,1.5356134068526,1.64548771544613,1.74050548255161,1.81711005838626,1.77848534898874,1.54109171125976,1.46035038362574,1.40071014674776,1.40056593218025,1.42301795964493,1.42267842938702,1.47534802460416,1.79123063970954,1.80015946428647,1.75198647515878,1.39074092026732,1.37895822997342,1.39092781420552,1.34260077634772,1.33566144157552,1.33341735100111,1.33549442357832,1.38125826397474,1.55519006617676,1.55575006617676,1.35202767326141,1.37434955359338,1.38935336318346,1.47573099272091,1.45421055711625,1.55224494986767,1.68287008823568,1.58141429262076,1.4680000217364,1.34483139016838,1.358297417491,1.37187849364366,1.37841852373265,1.50337998777185,1.68443673284343,1.6823833995101,1.30591328001202,1.27126743525003,1.27198913880843,1.29201669011143,1.34408549582872,1.37402169266457,1.57116386153627,1.7074233995101,1.70659673284343,1.36432898041327,1.26984166542526,1.27602431822075,1.28679762432982,1.29893713004124,1.43139363412429,1.44200969767268,1.58847006755608,1.48859845800676,1.44767341632063,1.46093941629706,1.52468128018569,1.53436114042958,1.57285943605368,1.76844006686022,1.79604006549331,1.65786135100198,1.64412299531312,1.61405704775609,1.63847137679793,1.65898623398321,1.70982551976028,1.80001000923122,1.8338200050332,1.89373919827529,1.90044725682508,2.00024005426386,1.96300003781521,1.86787208573157,1.78669003650104,1.65440612138727,1.64169815588272,1.60385493350304,1.64001976926578,1.60522132147444,1.56837997697985,1.53338164624646,1.53270831053404,1.38530999578215,1.33761024768641,1.34421840633845,1.34006225700621,1.34118863251998,1.38256868823217,1.51736002197283,1.64412073512805,1.63271939722548,1.3442456444078,1.33561518761354,1.33431322762407,1.38777570262202,1.38667720543906,1.425989889674,1.47354265862635,1.61286838858404,1.61510172119582,1.44387642414527,1.44380921877016,1.34684995159858,1.40079807886876,1.41689635237354,1.42221494492847,1.62147003696205,1.62693006313807,1.33632626028721,1.314313934049,1.29970722282351,1.36192414217199,1.63103006889238,1.59945006346115,1.47155997046191,1.53047105770009,1.54498839020876,1.32860664245115,1.29437290638713,1.29617881029902,1.34406967900778,1.33293650545365,1.51679008193267,1.44278425679684,1.34469291218071,1.32230776522088,1.290661921828,1.3131734889046,1.39462428572727
1.76666288066145,1.79272077962975,1.79307771063135,1.93190165552324,2.03223427736945,2.03303642143485,2.02909568496723,2.02618193988099,2.02467269459457,1.99305469059247,1.72130065190434,1.67670605790806,1.66867729185098,1.73376334020585,1.8229946899058,2.04585905293688,2.04827344073711,2.05009717243716,1.82137202827562,1.607513232279,1.54049255614037,1.53163120093255,1.5545760459614,1.57092044936974,1.64328814040397,1.73347841796976,1.76864945562057,1.73964532068302,1.58755044382663,1.54724444864311,1.55702263156342,1.52023367695799,1.52073096551761,1.52296402287306,1.52421647423108,1.52580961721861,1.52735084679767,1.450576276937,1.42387006591743,1.43572221241021,1.48556172406615,1.51118968479998,1.64393396732701,1.68644204549242,1.70045159441997,1.69686545242844,1.5401686658542,1.45866579239048,1.41834768734909,1.42300102068636,1.4239153604301,1.43106023899532,1.46931818275121,1.7635521849059,1.75946142082684,1.7533910486575,1.42058749311821,1.39077175743207,1.38660900044051,1.34612311399318,1.33570345114073,1.33428206488852,1.33355386454472,1.37309417584297,1.38287428850337,1.38146282619603,1.3680432578748,1.37221757511814,1.39696714934227,1.44417233216776,1.46997468816747,1.54029471123463,1.54784394271838,1.51147899514195,1.43538074477727,1.39900722254765,1.36863824248862,1.37010975584178,1.3866054128402,1.53846718204126,1.57252921904927,1.36584825939917,1.28841571190819,1.28211069168871,1.29071001046081,1.29891272643582,1.35116136415414,1.38029132930258,1.570637470473,1.58409301181486,1.5973447055997,1.32976919010151,1.27266484306422,1.2743742345317,1.28082212196855,1.29545941859026,1.39354040747705,1.4658740938104,1.53324953823375,1.51260547636102,1.45381194802983,1.4596748653011,1.49932774866478,1.51115578915735,1.57225967255097,1.67189300183045,1.65522241521389,1.6487272664883,1.63782870377818,1.62668213025484,1.63343470803206,1.65682872694418,1.71793369716756,1.76801680289903,1.80379528562732,1.88337286535531,1.9282044631898,1.95408794520452,1.94171693993279,1.89988516828993,1.73989813083023,1.65234556415001,1.64727288129294,1.63526240473669,1.63851916417677,1.61608745123491,1.60357605885801,1.58871784829343,1.56416901575991,1.364430097628,1.3417930248988,1.34412175111321,1.3470026953571,1.35079062229929,1.37317723271553,1.43558208593648,1.49969248226207,1.48154009065402,1.37093145667624,1.35454264838803,1.35730713379066,1.36698491157503,1.3723235193859,1.44660473051475,1.46104298214319,1.44628293993536,1.42978481086311,1.41533181180415,1.40010277216831,1.37887478421855,1.38848156044301,1.41255451171136,1.42160837626903,1.49584004309597,1.53205878456918,1.33891566165556,1.32677049040624,1.33470542236058,1.39037950004979,1.47233166182722,1.49230881610245,1.50492173575634,1.52808693140486,1.52668375806267,1.33877732904414,1.3256136208801,1.31343458199999,1.32641151431278,1.33291474385998,1.46420675824072,1.45602432788229,1.39947617243892,1.3340324448789,1.32721527479092,1.33021908638456,1.36763934327699
1.71373310232275,1.81378663736454,1.79544665389017,1.89080248054975,2.02205809336154,2.06013247263142,2.00772379719811,2.01842104446296,2.02503397272812,1.96964770820279,1.71560560874935,1.69189087115316,1.66500246722227,1.74531216334157,1.77344394856437,2.04911094898776,2.04882671397957,2.0496291610048,2.0120000500588,1.64540834918117,1.55394038387445,1.51273479923225,1.57475677367019,1.57470209464973,1.6184494967124,1.8000600559191,1.83151006278586,1.70975999491146,1.55972628361596,1.5229819089487,1.56256607111109,1.49251474405136,1.51782365943856,1.51700294140191,1.52305493012294,1.82304008823568,1.52955467444877,1.46158270868129,1.40754513973781,1.40517210111757,1.48586646384321,1.48899383903626,1.64200770357659,1.67866558441534,1.70388877805954,1.69202241155718,1.53988726770913,1.45754694437171,1.41273569378943,1.42634920681177,1.42450283517109,1.45139299809226,1.46093131570304,1.76798333479521,1.75573005975519,1.75574558991277,1.44144271249069,1.40237210427662,1.38373603516404,1.34891426540414,1.31726931835405,1.29688575024536,1.32964150527232,1.36507414853732,1.3828459523685,1.37836717003076,1.36251682372411,1.35827969230663,1.41712819154472,1.41817963068541,1.4842842495351,1.52504760258293,1.57239196138779,1.47620698817218,1.39931456219999,1.4301309680966,1.36453951084161,1.36815167408652,1.4058155568106,1.66099003413121,1.70663006754051,1.31232714002093,1.27857660936536,1.26181161953878,1.3065120895514,1.31211501000416,1.35840718328512,1.38522934184027,1.56924037929525,1.5702811474433,1.6230745787034,1.28939814222667,1.25357111719929,1.24901081370662,1.26073356792655,1.28617371881462,1.3583731744762,1.48798455536221,1.55303399591456,1.60397007535578,1.42937707849561,1.45839754107648,1.47057983783671,1.49829863221274,1.57213173902259,1.6998825937382,1.61433795912249,1.62344225683274,1.57927452159968,1.62343622427324,1.62854791913146,1.65542420483874,1.72698398057821,1.73686898804387,1.77668187807181,1.86796680631974,1.9806677381515,1.98831929915294,1.91402657632237,2.03886008823568,1.6931099635081,1.65111816702651,1.66931488750273,1.6323789520435,1.64017764820347,1.65322136984319,1.71994004660285,1.68247707072,1.63435004411784,1.3089592961648,1.282299646981,1.34438392900241,1.3542660257365,1.35360870821663,1.36748116672728,1.36695381896576,1.55030006600088,1.46105551759331,1.39810319994861,1.3502560337204,1.35819979687002,1.35945950944365,1.36780969125333,1.51032007140406,1.47960440532393,1.38167145344485,1.3904565379265,1.39938402725616,1.37107817241039,1.3597301445322,1.38269878167813,1.40157430755173,1.42234131708792,1.45863999770043,1.61616008823568,1.34039541127465,1.31541770089597,1.35137910954225,1.42384171163657,1.44736921725551,1.46209308986788,1.65851007505,1.61972005730353,1.52645370254548,1.34663605743193,1.34420361937243,1.28373827658172,1.31804578669219,1.33183410835751,1.47393201680381,1.53783506617676,1.53781506617676,1.34821619453433,1.32402593571069,1.33255515809216,1.34759934277082
1.71739834367389,1.79986373496191,1.82458713517246,1.90003264969531,1.96247905265905,2.0126387693811,2.01338936805069,2.01671927187546,1.98177241095355,1.95689225370404,1.78085348334362,1.7618844599051,1.74398685797271,1.76540745549414,1.78368548709146,2.05060112616526,2.05057747232506,2.05066699859738,1.75614072132434,1.6641857520558,1.55323764963608,1.55301881266672,1.56057928982054,1.57873671552476,1.61170301687435,1.77396941091006,1.78214551932151,1.68592481104736,1.57506175306766,1.53778942035523,1.53027783989797,1.49938379280984,1.51757046112651,1.51831033025457,1.53008845284046,1.58692596228338,1.50791223954442,1.48602945396888,1.48872516066843,1.5011267978679,1.50529654099183,1.53718031432271,1.66897936030799,1.68765799904292,1.70059022245423,1.6970590474781,1.51692841877292,1.45433031999809,1.41841097418521,1.42274631920515,1.42827888098401,1.45316135561044,1.52802106659919,1.74231228917696,1.73468777083354,1.70349636151457,1.4749531528963,1.41102264426834,1.40549803532767,1.34868023566374,1.33584757414952,1.3219509116414,1.3614168321768,1.37091360878954,1.37404092492224,1.36820662778621,1.36532551957885,1.36762155178289,1.38938537319525,1.4302486881924,1.46565019784104,1.5105261405621,1.52232329483261,1.49141284648804,1.40717770842836,1.39868351843542,1.39396489028756,1.43597511820889,1.47213800904642,1.63564068468665,1.64892919791046,1.31416292839459,1.28205818207008,1.26478039437308,1.28534414282175,1.31799758039885,1.36238121644986,1.39001902662271,1.5694408250332,1.57037698383021,1.5715660277431,1.2997010388344,1.28625228351338,1.25436412551141,1.25816457115214,1.28579426460842,1.3456551620223,1.48928762947629,1.54882577267612,1.54587042703784,1.45788128642807,1.45851776504217,1.47739813586128,1.49244379025487,1.54822239057816,1.63876076307583,1.62691935558076,1.60895858409145,1.59781707803557,1.61874532345609,1.64811388522178,1.65834977997955,1.70152506290853,1.76480394145987,1.78271933060881,1.9015484599876,1.98104241059428,1.98382526916283,1.90097600409825,1.87632057791687,1.74598297650443,1.66622919058891,1.64715267442346,1.63561487359801,1.63835076574234,1.65310694338293,1.67849899858984,1.68023446610239,1.55773553555921,1.33273558638799,1.33039539435474,1.34194829128671,1.34470223797587,1.34717485512325,1.36097027894661,1.38095701253743,1.48181951599976,1.46348964719431,1.38641129326864,1.35379634546902,1.35712491416375,1.35872597590626,1.36050065363374,1.40171160219604,1.39744804202264,1.39610461556328,1.3929138741904,1.39130571074404,1.37130947996704,1.36501803428439,1.37554521503273,1.40081224930924,1.40099394938903,1.40201799461617,1.39948271872139,1.34338869916375,1.32958329103256,1.35069170402027,1.41363314859701,1.42683794743122,1.45093683079211,1.48168737475533,1.51040924383551,1.51059979816318,1.35422192848807,1.32712340614608,1.31695653635426,1.31980583796479,1.36356576909088,1.43228061384297,1.4669776445625,1.39905483348235,1.33591346655936,1.33049739200586,1.38769668199698,1.42183108067534
1.7115676000262,1.78918132496073,1.85220059830832,1.90966280430196,1.93030703543601,2.01403458644691,2.02994686879916,2.01883038806037,1.95267953826213,1.9355171609155,1.81774287120678,1.78268484574476,1.70975714168412,1.79579192879629,1.79626702285451,2.05183852138348,2.05950641500133,2.05950152159952,1.70298996109833,1.68855001657903,1.55361331467811,1.55376828920734,1.5542032353764,1.58561657162627,1.60473826175019,1.75758644113446,1.79603266766002,1.66085999871038,1.59719019019682,1.55920746584539,1.51160576796062,1.48259669558919,1.51678578641053,1.50699714949477,1.54061411453846,1.82393008823568,1.49021888433131,1.48419140905371,1.49125155851012,1.50682289500672,1.50848600189135,1.56433999051958,1.69931000666315,1.76613846076026,1.73866240182504,1.73077866636446,1.49615225903807,1.45167201540923,1.39732632557829,1.40910484871991,1.4299900031638,1.45591330750412,1.7226799475453,1.74921222814994,1.72090147090033,1.67990873835938,1.50209999055967,1.42973265496835,1.42825220649749,1.34883480827831,1.35617519559813,1.30538288497581,1.41318002592713,1.48659510469352,1.49082501764892,1.36150536602609,1.32584998217542,1.3688756520018,1.37069393214824,1.44033974421631,1.44436772698577,1.4820671316231,1.57807005523952,1.50448199720768,1.41504379164695,1.35618895509013,1.38453998251569,1.47501418798665,1.60580465261904,1.60674349757097,1.72029008861524,1.31631003051969,1.28266269136751,1.23814997574475,1.27828359831024,1.33210451875097,1.36557452345226,1.39569702461703,1.56898661116917,1.57072572656691,1.57365932999889,1.31597431883681,1.31335630903949,1.22468765359851,1.23342025959834,1.28704870940978,1.33613980360968,1.49090234399894,1.58518005502378,1.54416322896064,1.45632213580704,1.41665996556925,1.48353616287576,1.48613949169916,1.5207745860637,1.65462273936718,1.73374008823568,1.58372144875172,1.58075980580059,1.61361968602597,1.6915450995007,1.66180967983275,1.66956500039519,1.78992206950642,1.78903991770199,1.94262003034527,2.00963171342875,2.00887838312027,1.85095380978097,1.84464604757709,1.81072635699004,1.67185519136059,1.64031935360626,1.61888611525819,1.61863067638029,1.65384684050548,1.67720579051643,1.759420088514,1.51802999510864,1.33492988224845,1.327107458697,1.28353883426994,1.3162142260147,1.29361471339009,1.35012782822279,1.39932583262231,1.49112625133873,1.46802327714227,1.37571279067586,1.3157407765954,1.32293405184056,1.34034652554491,1.35286649441762,1.4163283484763,1.38909324236296,1.57280008823568,1.49932342015026,1.38968044992717,1.37343386397192,1.33706245277312,1.33960307712031,1.42654373445911,1.37455602641286,1.40548890523647,1.39660273623145,1.3455388999307,1.30252996564588,1.35065738587615,1.40155793927167,1.3997930047742,1.4433254671984,1.44716485458158,1.5109790163205,1.51160441191569,1.36123129769806,1.27708994519469,1.31488419268313,1.32485126810363,1.39205140676395,1.39387708543673,1.5376800866424,1.31490888913178,1.31546837684796,1.31570765061326,1.45878019852124,1.4598985179689
1.69852438649473,1.75848515378795,1.82139739909423,1.93600532806579,1.94197191093276,2.01835081333838,2.02400537717002,2.0201796353722,1.98467722152327,1.90449537155266,1.79228306488984,1.75771127538549,1.74540971932836,1.76588050493444,1.79947091706583,1.8449344285264,1.84287673673763,1.84034571096397,1.75228015121914,1.64459320040804,1.56197858949883,1.554967479829,1.55444172958436,1.57826823690745,1.59890348910355,1.66013530477014,1.69431847794211,1.63716993948227,1.57491322602093,1.54077201930765,1.51078639844057,1.50382060543142,1.5197226414094,1.52095863221865,1.58988751925863,1.62864286748785,1.59266581172551,1.55697142526958,1.50963219870484,1.50887491078736,1.50897303979191,1.60670483988415,1.72185316771887,1.75786815107094,1.75121664334882,1.70597937361554,1.47567617193506,1.4504611874522,1.42548138571638,1.4306660637853,1.47180373351237,1.49777856492778,1.71344525684504,1.74242498586156,1.73469923818099,1.67908029458985,1.54164516258085,1.47910034429623,1.44824220797964,1.35550338066573,1.33532040165742,1.32214331379306,1.37212435176171,1.40615525072618,1.43660936585192,1.3745395138246,1.36470862669823,1.36866792897582,1.3739983663942,1.44868721895872,1.48152879381593,1.51262573391995,1.53108085801086,1.46428990898815,1.41541989271238,1.37638316677482,1.39122352741444,1.47373059133439,1.60167363129707,1.62748738151498,1.63956177295112,1.33135402392562,1.27385006191562,1.26776151553844,1.2814904783187,1.32411486877105,1.35475982597493,1.38655653986424,1.50989221509927,1.51991153433141,1.54070498960129,1.32271816145189,1.30644165986054,1.23199713704353,1.2386383678546,1.29625614545592,1.32478346015955,1.48049288071757,1.5217985570358,1.50639557326922,1.45760120078432,1.45791134989491,1.48513357839089,1.49389233541954,1.52994460263947,1.60742625969173,1.6381319219451,1.59664549579325,1.58874740814634,1.60309514892849,1.6273560231393,1.64560848444335,1.67263644036636,1.76736452362885,1.81314272978786,1.88619343027188,1.97227295728715,1.98205613123388,1.90175456502827,1.87186292862983,1.82750021910455,1.64746063762684,1.63527554212065,1.617058992805,1.61691217376012,1.63829099887066,1.66998195999642,1.68613456664418,1.48664920494328,1.34247946084026,1.33409838507112,1.32164331384241,1.32134483220762,1.3730149214505,1.40725731443337,1.43968879015804,1.48509588069675,1.47983430162196,1.41003917833077,1.35284532700676,1.34385525663011,1.35066075703969,1.37016421616256,1.41276430131491,1.41721957224925,1.49062802933754,1.49124622333882,1.38499565853744,1.36156669750634,1.35783236814297,1.36155138444021,1.41696216556808,1.41132709262503,1.40912193683576,1.40108441214386,1.36864063947566,1.3650514048908,1.35981829669113,1.37428328223831,1.38709268155631,1.43162706948862,1.45415741396692,1.4827939165697,1.48192173637895,1.3641210496826,1.32326053721917,1.31898823007058,1.32221085720707,1.3838575182503,1.39247030419575,1.39198932713081,1.34156637130334,1.33756335637403,1.33344886377061,1.41621934556911,1.45243531688399
1.69289448071785,1.72351097869435,1.79900029833169,1.95156970943707,1.95195488646233,2.03176640811091,2.0989121764624,2.09133146554556,2.07671653446341,1.88276001605013,1.77702416593116,1.73806531782858,1.7258907790407,1.71297428832931,1.80251366448323,1.85541598325567,1.82940518775788,1.83581962687566,1.78454000004263,1.60332968955294,1.57717301117892,1.55630212469943,1.5219998676562,1.57126633038365,1.58821436805077,1.61463734046765,1.76374008534035,1.60652598015002,1.56019690370352,1.52962639847436,1.50974100413385,1.49846335713494,1.59006721779489,1.51973528249729,1.67351999998543,1.775188392596,1.75640110304471,1.61433787992952,1.50977085066815,1.50950629893031,1.46704995808433,1.81121671652702,1.81260339132049,1.7749969912982,1.81111218997637,1.68100803638155,1.45075555369982,1.44963731413234,1.41972521093172,1.4394622617855,1.51703269017353,1.51703918958788,1.70291502579316,1.77249286900776,1.76490814830755,1.67774077458022,1.67198130170635,1.51968438587368,1.49491004012351,1.36142467766161,1.31637280728837,1.29422663729822,1.3280699717776,1.35980997304142,1.62987008823568,1.39571460051115,1.35996568468903,1.37163450241313,1.37731297574864,1.45787705667698,1.52715003522727,1.63370673284343,1.6372133995101,1.42408398127312,1.41596700620058,1.36167793429213,1.39834804560418,1.47294382462357,1.5970330153013,1.67198265483382,1.65868259193068,1.34581422063747,1.25968752197153,1.26145510376726,1.28382441323051,1.31596706753421,1.34504770210995,1.37672120164602,1.5027322450526,1.47876782425321,1.56913008292339,1.32698995867658,1.29874865900495,1.2283066621568,1.25257891368486,1.30210556338264,1.31206643877646,1.46895373226842,1.5556000825226,1.49294617720909,1.43654011587762,1.45696206618341,1.48770415799042,1.50009265749044,1.53660122369185,1.56896184643266,1.68897005131752,1.60613378366288,1.53660686699416,1.57761975033269,1.59252296558707,1.60611583917789,1.6754294343409,1.74948584023749,1.84112958638092,1.83970878176254,1.9522692431792,2.01770007198852,1.9351666032393,1.90985002752378,1.84708167600019,1.624035254121,1.60169825725688,1.5439785396068,1.5682613712503,1.62408037105577,1.66229763455743,1.73004007004233,1.44502705358012,1.36480185187819,1.33726423771417,1.32153900420492,1.32128417284485,1.45753269291731,1.44711555604259,1.52228177695689,1.5305808185481,1.48565513407685,1.44698000886955,1.37269822426113,1.32905292571658,1.36787550814678,1.38975509413727,1.40898651701782,1.43471209161306,1.49143225831147,1.49341138359302,1.37518835391098,1.31955634620311,1.34994019981689,1.37832911686204,1.46907973313352,1.46991278024031,1.52709098306209,1.49888540950038,1.37125742696312,1.37084137571396,1.32898378261023,1.36366424257176,1.34297951502961,1.40943322726971,1.46718747856572,1.4844369274419,1.48185944184522,1.36657845498684,1.33369606219987,1.28799442988574,1.30830540629713,1.37497038234873,1.41745111480132,1.39328391498436,1.34308728945772,1.33796213824252,1.32791267346796,1.38865041507958,1.44451173197294
1.68171219761729,1.71921078438228,1.7806696124826,1.84953133860897,1.98139731477196,2.03950526802529,2.04424890568919,2.04540079897398,1.96276110983638,1.83361548134873,1.77937200619395,1.73425456083197,1.73110476985251,1.78103338011777,1.83409922243424,1.8451572651854,1.84370223727355,1.84085794921952,1.81679982761524,1.60619267625028,1.57538863794825,1.54796990740239,1.54489026513194,1.59638879647253,1.61111159179682,1.62990917112295,1.63874011368145,1.61249724522189,1.57127181075899,1.53846128770604,1.53215268278996,1.51774988081336,1.58536714219064,1.58259455186468,1.7100913050357,1.76906802574521,1.76587449030044,1.62637645325836,1.51078148791212,1.51067920057891,1.51085278161411,1.57281919108392,1.7762999311291,1.79166608435292,1.80070081886436,1.72961496119772,1.46453825491705,1.45039209098753,1.43755851614258,1.44594327058747,1.48808229849378,1.55027393446622,1.68860706955869,1.76886080946318,1.766084136767,1.71597517138003,1.65071050100933,1.50478630689242,1.43757004821069,1.3554853146557,1.31560084252453,1.31601182227925,1.36942238720876,1.39131316536007,1.42450194263972,1.38922379930033,1.36538212598356,1.37181702207567,1.38530979108583,1.41167027949744,1.41666090438716,1.4375583760719,1.44154639447857,1.41555716145235,1.41348379528474,1.40881494585449,1.41133340154538,1.45737601088529,1.55791738668299,1.65060314941252,1.65293005250551,1.38864687618097,1.28292806468963,1.27359035986759,1.27685958450377,1.3126237823135,1.34252387220675,1.37784069830173,1.49285084531696,1.49336527718209,1.49433790713138,1.3773444219626,1.34095351633585,1.26441339837936,1.2554891780281,1.27877292225838,1.32507827505852,1.47057021394162,1.48067426526848,1.46816319966674,1.44277640455324,1.44751388846948,1.48918047166545,1.51612325325447,1.54417316000359,1.57056313497522,1.64546335840367,1.62698344649935,1.55188971820073,1.56904236698695,1.58220631325443,1.59103437175411,1.67890554608403,1.74736392162633,1.82437892421725,1.84517654341894,1.94749536200632,1.96161587996183,1.9532542502761,1.86349678308707,1.66432955584853,1.60390631816732,1.59917700748672,1.59452671816608,1.59445969939025,1.61605203786592,1.65942326154804,1.65733627891407,1.45987436651153,1.36326353253224,1.32979030705879,1.3269415698151,1.3421502336422,1.4342675753921,1.44056115081546,1.52340977976944,1.5262579171342,1.50348746206887,1.41762991660087,1.35157875073986,1.3433096790647,1.35097243957877,1.38588255153081,1.41025774021592,1.4536578424626,1.4749959927179,1.46542846855816,1.35805764188607,1.33073345365166,1.3371864881622,1.35295711598718,1.44943673816373,1.48865133726906,1.51757946884403,1.51087887638772,1.383714748515,1.34943286209661,1.33265034924751,1.33606763019762,1.34291790970493,1.43711730489152,1.45205596060912,1.48271039358468,1.48184987103042,1.36213618408336,1.33266948484704,1.32821552954042,1.3344276825326,1.35983816573537,1.4007500191072,1.38707228740053,1.35917687501962,1.34985279528203,1.33672219394567,1.3887922489921,1.44617009985395
1.67042251039511,1.71637300705571,1.75959740769653,1.80716066676155,2.0527771750396,2.07347537035079,2.04592088732436,2.04744406376243,1.93785001649922,1.77774676590717,1.7820346502074,1.69065994390395,1.69101994414009,1.93457004411784,1.98689701552507,2.04110081437669,2.0406756013391,2.05495459319809,1.99351255232168,1.61001788449152,1.57370790796921,1.53526206670772,1.53824928449324,1.6200575051102,1.63002105050208,1.64937275750321,1.66143579920143,1.61899533489136,1.5862057244713,1.55002265357474,1.56043689044318,1.49207993993257,1.59950885338881,1.58169538359839,1.86242007958866,1.80433372970372,1.79587377969089,1.63872268980269,1.49913507696071,1.47866357101968,1.51169097056463,1.50302864896397,1.75887470906697,1.79972220128941,1.87170008823568,1.80644004411784,1.4842459409062,1.45112835405802,1.41180814514358,1.46432055078745,1.4643591251537,1.58657969831399,1.67539600248617,1.82805585618992,1.81250454243018,1.75684264181122,1.63455667691695,1.491356735882,1.38840123318013,1.35146146803162,1.31294917160552,1.31437569932883,1.40581379013695,1.40819939953509,1.46796046556782,1.37801568663189,1.35121146527071,1.3713390667563,1.40557748800188,1.36535448256962,1.38584014073524,1.43185744458662,1.44398845296547,1.38984922056692,1.36048993918309,1.39709040524395,1.41940891705938,1.4409824580284,1.52330258324857,1.64472025116101,1.66409490939856,1.6657429112429,1.29963252445764,1.26753001213279,1.26788317414892,1.31016497941059,1.34095576364545,1.37965364771225,1.49262686486904,1.50868365862871,1.49456540136943,1.48124377780606,1.38117702338934,1.28043486586349,1.24296675541718,1.24344039429798,1.34149669662136,1.47103252767552,1.51348294450454,1.41651122719629,1.4140715495642,1.4309133379011,1.49119223822286,1.53761267653894,1.5498484352399,1.57200079616326,1.74942003012859,1.80721008312927,1.53089218222804,1.53264273957614,1.53354062557496,1.55012217503654,1.68231290005922,1.74484699677777,1.81023610958997,1.85117726791159,1.94581982843419,1.97255420576013,1.96012505378863,1.81655996683996,1.60063843712051,1.59248123888847,1.58357259434562,1.59299381145104,1.59309891548488,1.60658802914722,1.71416106968362,1.65602252133241,1.47415267148139,1.3639538596307,1.32364657654358,1.31239805090716,1.36690855080805,1.43041161529806,1.42606805635232,1.53928151410517,1.54369366995243,1.54434521990947,1.39929978219064,1.33322085034358,1.33102172641057,1.33579282711343,1.38313720547821,1.41293517447274,1.49763562321086,1.49573578281916,1.44547432148394,1.3522871029737,1.32785264180313,1.32079543945701,1.34205758285167,1.43459526012027,1.5812308904721,1.5869751557537,1.59842473444605,1.40248442462422,1.34324102040533,1.31794585992034,1.3190255936991,1.34536393648031,1.47406335028655,1.44563410735784,1.49711679784516,1.5114903857544,1.35318526066058,1.33296650326814,1.31908136420327,1.33940730177348,1.34067618485471,1.41621491716981,1.38425696173155,1.37274069390898,1.37428392782492,1.32599811169597,1.38857841787608,1.44805853609293
1.67027156149712,1.71214169412137,1.76100516667915,1.79574599810019,1.98285894237065,1.99201634514341,2.00250007221027,2.00280484258262,1.87665066976243,1.78769632174404,1.7627370917627,1.75201556892449,1.76775917893168,1.84578212033548,1.98908776811211,2.02432655339031,2.02779102928039,2.02869402408168,2.01115773416195,1.62003017645254,1.58271605804319,1.57534993258558,1.5992911649448,1.62923154097522,1.6376867806616,1.64754457203194,1.65225986972125,1.6347602873672,1.58751309521505,1.55815891117902,1.55925361304601,1.54623771001632,1.59805653563342,1.62323863095434,1.79300370262578,1.80194494033336,1.79915485668842,1.60875844240063,1.54307823113515,1.54000532621055,1.53541564665493,1.55921200039579,1.69809244158759,1.750490509989,1.75405404637791,1.76013215978213,1.51266140275091,1.4783343744815,1.47981108958187,1.4798745981402,1.48851871441821,1.5747927756581,1.6445786848548,1.82311449467258,1.81058054975818,1.73746414167494,1.60989223652738,1.46395978307701,1.38513225342623,1.35841118615768,1.35327454447281,1.36463268008188,1.41044117455393,1.41589355854149,1.42336382829684,1.41409742471597,1.39676256953147,1.3937585830676,1.40461970951323,1.40604675981555,1.40657286266094,1.43647428270513,1.43826465128512,1.39745887962749,1.40234558532113,1.40750755942991,1.4104337817247,1.45700970338381,1.50674738983585,1.58877328688621,1.60322545005305,1.6028215710206,1.30432013704666,1.28500882983934,1.27571802205253,1.31089976341043,1.33905629679723,1.39133256729963,1.47153606860898,1.50462040180594,1.50001604106682,1.47896890187135,1.39827359006634,1.28052785347686,1.2800440835233,1.27867308360499,1.31891094660661,1.46386502182027,1.47691430766451,1.45465694471156,1.4168743830924,1.43110793003368,1.46850018610293,1.50110146984403,1.5298132221125,1.58965679815249,1.71240942074366,1.74025081828087,1.53970997731535,1.53748753416929,1.53652329364895,1.5532998527975,1.64160197784299,1.6970324959658,1.78298133429789,1.84399556384411,1.91704891272077,1.9181854395326,1.92036827418041,1.8666061365367,1.59751252833525,1.58971810858678,1.58760496339208,1.59017054614089,1.63087651444899,1.65738216274798,1.68174110226094,1.67527526479002,1.42022063937395,1.34098696480761,1.33067417068444,1.3178921275754,1.36179930128002,1.40091310875596,1.45312258004433,1.47768241770439,1.47757499874671,1.44018932073766,1.37148133413473,1.33369468769218,1.33348823322855,1.33478556677453,1.36070922144401,1.39103475533953,1.45923144143368,1.45980464389375,1.45648572294221,1.34793958104021,1.32523487752479,1.3226850169903,1.33277266565938,1.40396535122961,1.57103044453611,1.59020075629351,1.594008403513,1.44671108863301,1.34653126872941,1.33881400100181,1.33799752555488,1.34921377012257,1.40629727446679,1.47646890964445,1.49855960571299,1.5019276217472,1.33792535185403,1.33195707376,1.33049941603246,1.3461554762856,1.34733710796313,1.38637077405189,1.38385176740306,1.37784055916486,1.3767930710085,1.37740016728567,1.42049682298344,1.47727631025398
1.66847575602444,1.70593847975131,1.76205319144861,1.78429782326764,1.96027299888458,1.98228610294718,2.00105835812466,2.00193069159416,1.83156897365108,1.80206943065878,1.74759615660962,1.70816993221014,1.78798506116637,1.78804505063698,1.98972101315737,2.02309844146832,2.03127374345662,2.03085055132463,2.01750639595977,1.62494836251732,1.60060721332144,1.54158991807605,1.6278576266824,1.67850469956513,1.67800602851305,1.58718993953689,1.65711659898018,1.66470582022594,1.5892920405369,1.55643814585349,1.62811005914914,1.49570993043098,1.59660302102072,1.65799451046989,1.7830468079026,1.85715006961691,1.80584997339649,1.58474319967938,1.54520834577679,1.54596504971776,1.5304551170045,1.57980787690041,1.66781000282806,1.73813976186401,1.65270993816812,1.78952008452342,1.53126062235199,1.47567068575639,1.48834454946098,1.47781106258948,1.49252058679469,1.56487988943129,1.61125733170397,1.85503007486016,1.81070400222728,1.72237620990914,1.57813851412725,1.43526378369375,1.3829036399867,1.36478802448228,1.34747921928954,1.37429053353162,1.52765733398095,1.51889693555278,1.43390956526839,1.43495348672726,1.39869939591704,1.39077588846642,1.40222699441595,1.40785750909873,1.40680499480718,1.43894375240736,1.44047657693284,1.39009363577301,1.41104162263143,1.41465144688829,1.39948621342359,1.47402285289239,1.48568551252023,1.57689466534663,1.60217195810751,1.60089867195617,1.3262601657597,1.29821966358018,1.26575700179868,1.31217809822389,1.33853920186401,1.40210194690278,1.44359859204389,1.71059673284343,1.7106233995101,1.47650868105332,1.41932126947711,1.26707254843109,1.28032516951382,1.27668861819243,1.29983761631001,1.45388164125192,1.51090004419906,1.51290003563234,1.37715994985989,1.4296527833954,1.43646682451976,1.46830496528203,1.51254919541715,1.61222310920095,1.69352916369922,1.85299008823568,1.54148188900822,1.54041875531721,1.5232045835696,1.55797030792868,1.60254333933822,1.65129371175568,1.76217001579748,1.83765933155846,1.91680036306068,1.91201888836637,1.92309941668203,1.92669444278586,1.5581765785526,1.50565067019682,1.51346990116264,1.54788651533449,1.8143007259222,1.82291957148831,1.75841709021157,1.68283106463316,1.32601165251601,1.33660936417866,1.33680369595061,1.30650321923287,1.35388952265297,1.3760126288048,1.47676899369862,1.47835172552464,1.47804544831009,1.40621139847553,1.33465311188574,1.27944786517099,1.32326689280723,1.28903383444247,1.32471998350559,1.35121996651162,1.45950294985705,1.46101528985512,1.46480086172691,1.33864060542342,1.28798930387581,1.29962819758148,1.30852679560247,1.36713793219618,1.55300501554915,1.64031004180061,1.69858008823568,1.51884004411784,1.34999311300935,1.33880730684916,1.33645607407965,1.35384233612726,1.35377869525264,1.49896381444936,1.49916673636188,1.50641600813077,1.32243156039883,1.32398211702436,1.32897393066393,1.35499978249658,1.35884825824359,1.38621824141289,1.34764525506405,1.31497709656879,1.32972013529122,1.37815623918225,1.45139623875742,1.50915387896891
1.66904916005221,1.68454070423105,1.75052136236785,1.80887008373357,1.95367887915297,1.9765134580678,1.99138493607087,1.94175138485313,1.83891428212723,1.80061939240219,1.79808434082327,1.8226784332869,1.83579237900459,1.85727622217164,1.94835180771643,1.99124428445266,1.98794111466335,1.9873500314293,1.71521560919915,1.63245782751257,1.60405421322804,1.59442147349369,1.62631273436298,1.67927719627426,1.67907877110675,1.66996484271254,1.66547936000588,1.62308966389082,1.58432364497057,1.55772861093904,1.55576992953672,1.55421345228487,1.59104804925669,1.64810898117975,1.76965899548991,1.78762161696658,1.78380332633883,1.56902954943997,1.54720383792617,1.54812310601364,1.55025606657903,1.59805285878339,1.63448239773245,1.66910983498194,1.7036897333516,1.72312074553856,1.57357742848323,1.49889484081463,1.48814621697795,1.48474258883574,1.49745426710249,1.55670983046994,1.60995136494017,1.70372130705402,1.7135188394567,1.68610799708113,1.60237324820903,1.42022163806074,1.3836702514976,1.38553791149007,1.38867197212702,1.39264937470693,1.50664036080939,1.51399242854004,1.47321367147931,1.43534921675627,1.399881865007,1.39868359980832,1.41357345784303,1.41530370740545,1.42087874642793,1.441781658022,1.4424504539816,1.41693515375831,1.41206844624252,1.41423047554049,1.41421073793973,1.47174148717146,1.50540188424082,1.58799746699985,1.60318219305109,1.60277468883345,1.31913282025889,1.30319882069763,1.30789509883488,1.31233870386226,1.34770483610226,1.42340329803732,1.47441287763172,1.55677595984052,1.55756804992886,1.45620024350104,1.37427040941775,1.28541438138359,1.28371605013337,1.28482847631807,1.34088097824853,1.42619080919105,1.47257382795612,1.45439382813787,1.44739356337407,1.43084846393186,1.43293192866107,1.44692615054377,1.52583221851025,1.58220702989578,1.6192092135688,1.58336258791012,1.54237656701405,1.54231678291924,1.54249624432254,1.55848239490691,1.58094386050956,1.67322166440422,1.68705366283717,1.70770754536286,1.72490173002188,1.74850116330664,1.77830217792493,1.72922849863462,1.56022666226718,1.5081277871243,1.51134682047578,1.54238569313932,1.79732999138647,1.80549319067232,1.77596872934937,1.69250482222759,1.32173334704229,1.31819797400629,1.31516609943668,1.31199522851579,1.3348527228607,1.35688120587535,1.43019979251822,1.45193929367515,1.42041424673976,1.3925811891409,1.32258924031906,1.29924630831323,1.30596766918113,1.30811614206059,1.3573478119928,1.39906626035629,1.45923391224557,1.46044746190287,1.46212034361565,1.33509579826527,1.30443918634953,1.30473975713798,1.30781670773762,1.39027779194991,1.47997928121047,1.58835570270418,1.6185644660448,1.46010122876334,1.39369591629896,1.33789216240861,1.33715849393251,1.34592809349448,1.35597674993879,1.46458260398926,1.49958241281473,1.50237531965094,1.33441117767357,1.32670635087333,1.32814713205659,1.35118615508445,1.36467695781862,1.37290393081886,1.34769310165301,1.34861310293104,1.34942821239156,1.36778172910189,1.44791570108925,1.49383065123341
1.6654064935807,1.68129569616026,1.74122061687415,1.82755848013835,1.94979821162821,1.97329559312348,2.03756007801301,1.90715571959156,1.84760809097757,1.79064323299312,1.79481409310875,1.85514186897304,1.86657780525964,1.8817912642578,1.92066592975587,1.99535955607696,1.98594733734416,1.98762354556074,1.6576399538635,1.63780691352266,1.60712952831702,1.58867846258183,1.62542539089898,1.70286276162553,1.76458687528402,1.7648168255305,1.76657887765003,1.58371658102196,1.57545322368221,1.56112772535389,1.51324996973351,1.55322796487532,1.58560914679987,1.63909814904131,1.74871482160834,1.79305374626024,1.77572324236987,1.54891758314639,1.48831476487868,1.48879311452485,1.55099707276156,1.62884679129318,1.59917435828133,1.61286899958047,1.75828666551945,1.75864878608175,1.64062887790081,1.51443551501278,1.49554410221391,1.46856326627844,1.52071438274011,1.54464302283128,1.60887496403958,1.69027528012864,1.73456647393629,1.65708670100131,1.62348447420998,1.40889756576163,1.36722561294113,1.4100122313227,1.43295119448631,1.39700701167082,1.49370826565309,1.7619675400103,1.77678255237133,1.43642703261908,1.40179313882261,1.39604964113013,1.4294101200718,1.46777373436712,1.62699006396503,1.6579800683885,1.45374256720772,1.4214736378862,1.41011229398822,1.38268435757407,1.43077119370847,1.46944464473844,1.52274992514326,1.68672694906419,1.70637695557751,1.68790625259255,1.3115654728262,1.29542060990495,1.31773048429824,1.3132930729211,1.3527567559013,1.44868989222926,1.50480483031612,1.55743995007378,1.55975468428203,1.44033825791714,1.33169980240533,1.28620172574211,1.25363750435672,1.28527226027398,1.3747835047472,1.39562660530544,1.56488008823568,1.40082804462435,1.46183383450932,1.38981149312291,1.42784466185535,1.43024741489558,1.53879947767511,1.55548603519883,1.69573008823568,1.48171784555181,1.48099700151724,1.52499964764871,1.54063525899977,1.56009389109651,1.56428498389458,1.69006095288283,1.65331147844544,1.63547164782802,1.63700519738709,1.6586004034842,1.85519008823568,1.69333000037163,1.5630732731602,1.50704007104726,1.50543151698487,1.53482651826402,1.77844583660427,1.82147004179769,1.85307006759697,1.70277739071531,1.31979904291294,1.28647548425994,1.2891075382641,1.27734682529405,1.27874639424426,1.33765616564959,1.41015144601613,1.55361008823568,1.33789981765489,1.37753526192835,1.31637117701389,1.29144204640344,1.30434099761202,1.31065457563553,1.38377432178014,1.43410864429604,1.48242640107938,1.55219007607281,1.4782346924341,1.33296399810743,1.31453122700851,1.291949993991,1.29452670888615,1.41412226223664,1.4398199902155,1.56207001012321,1.68343008070016,1.41363551564988,1.44982451870506,1.30152656442023,1.31638899276163,1.31719371917862,1.3590574951756,1.44421691991106,1.49804174778942,1.5232418895951,1.35809088651838,1.31731794829832,1.30958515673196,1.34752350191417,1.39810739201103,1.47923008401315,1.34601441738482,1.34777910760518,1.34979942765996,1.35872811037311,1.44420282620301,1.4800870542039
1.67305921715914,1.67591691747561,1.72044967504247,1.84278264991171,1.92755706134342,1.96343383540915,1.95141225274671,1.92417459979364,1.87241401638943,1.80699123061771,1.82199535179682,1.86146115147413,1.88137156882675,1.90710826386082,1.94901038365018,1.9926766764854,1.98893576033353,1.98387126364178,1.70813612508444,1.65950556783835,1.62803868113857,1.62338441031815,1.64038082553931,1.67641761790429,1.7314735471544,1.76053759489586,1.75285901617431,1.57386294557132,1.56904475508731,1.56337114819722,1.56493985737236,1.57618994304532,1.58477099036728,1.61998626877318,1.765263935633,1.7784401664884,1.76933328298425,1.57635644801927,1.4945964445024,1.50085605250922,1.53364327612639,1.54708913331066,1.56990645452993,1.59365454248921,1.75638989754751,1.75657931348073,1.65933065935841,1.51820276940265,1.50242340945144,1.49364780670227,1.50685998822817,1.55679217547095,1.59398562842902,1.70002263186031,1.71425546264379,1.68757591502087,1.61815306799435,1.47586653376525,1.43138940150974,1.40682057763918,1.40268992134373,1.39968879212508,1.47439017742337,1.74922665386683,1.75756445889595,1.44637707045671,1.42679033903443,1.42402015922044,1.42749287090919,1.44242278036407,1.47713864978048,1.48776503000059,1.47683031990993,1.42217793881331,1.39668155507672,1.38848278333198,1.44172856541158,1.49167492358162,1.51953897670488,1.61210928031398,1.66769667793791,1.67107006781006,1.35513758722479,1.30790693889406,1.31107378029774,1.32559466629864,1.36182189617491,1.44067737171279,1.4866963181068,1.55876821553004,1.55876713310282,1.4200095664322,1.33791707875043,1.29393606689321,1.28693556274518,1.29589886210836,1.37484852216655,1.42221832819432,1.4316819741047,1.40267146864714,1.40245582788068,1.40089144446017,1.43944824088343,1.44779221832605,1.51724735953,1.54920017936437,1.58918048094533,1.50173190510319,1.49503172793341,1.51203284420233,1.52489528830711,1.54287464627177,1.54754647963476,1.70064390563823,1.70619938856086,1.71165196855474,1.72743307891378,1.7422931332369,1.77081636633304,1.61202329591353,1.53920921816732,1.51100119463359,1.51440171375804,1.5266444877217,1.61585827589848,1.77964573578081,1.77177211594835,1.68073384435488,1.30310535380588,1.28809112803733,1.28892101795738,1.30259498685432,1.31271828746924,1.35807813828391,1.39925913440307,1.42146330621921,1.40351750889207,1.39051011107328,1.31880578469941,1.29852910510247,1.30667555674659,1.31721348631035,1.35458478320134,1.4527782521812,1.49654511134297,1.51346024600899,1.47205424527228,1.33480847954889,1.31850972011125,1.32040398259911,1.33479264660412,1.38436211854591,1.41304611538547,1.4967954020622,1.4970590384203,1.38885897903732,1.35428596039328,1.30697762448978,1.31110101690826,1.32626367691481,1.35563657147134,1.35217938840562,1.34893990630182,1.34738859487871,1.34129788290656,1.3160176426176,1.31322489431412,1.34983230421398,1.38839146733393,1.41070634892979,1.3511757591328,1.35010236245494,1.35610773155155,1.36099243157354,1.4649048243686,1.48455210311147
1.66033389620938,1.66526534483352,1.69967925831571,1.85755190996234,1.90110272464883,1.99795006071355,1.93212156024314,1.93194020486128,1.90849002453621,1.77962995471256,1.84109585150991,1.87025817766554,1.89628251205919,1.93160394602247,1.9568491856569,1.99452146854841,2.00218733017528,1.96900746387118,1.73863999325823,1.68234570747393,1.63668990715734,1.61758135444671,1.66183621034699,1.65612168584246,1.7079963459196,1.78517005245037,1.73721033440921,1.55790393307922,1.55703433845386,1.55363349292447,1.56592072245737,1.61090677177387,1.58398183587725,1.60402599508567,1.77303823117257,1.79737362446261,1.74851421593376,1.59936961703395,1.48931577455347,1.50701218975978,1.46594010475456,1.49453027668958,1.51085410473608,1.51198566573092,1.75562694418532,1.85864008823568,1.68808002211286,1.5340121857645,1.52059611389957,1.47161120882759,1.50030423393378,1.56576894151423,1.58255746084616,1.70650618604312,1.72657406515948,1.71629167973207,1.61394378279799,1.5200390135465,1.44903048722869,1.39817206363148,1.40099781969913,1.39887158832011,1.45557557939905,1.73082656258518,1.80418008684464,1.46751464163352,1.42925841470727,1.415965160971,1.40720746030104,1.43129876776891,1.4305475522626,1.50928051125066,1.73428008823568,1.42370509496874,1.37888766073248,1.37824082442416,1.46141737711681,1.51793314718803,1.51703357178704,1.57466998563595,1.66632017067398,1.67650552173977,1.38525255709512,1.30218403772343,1.30259590091082,1.34550514021984,1.37863430748334,1.43059303639651,1.47378634917376,1.56123948450403,1.58362238429496,1.38869998756989,1.34401556337897,1.30192826975203,1.28011476165367,1.31385950415305,1.37530091640587,1.46109399383891,1.46198747497098,1.34819577060959,1.40199524870307,1.39763504472896,1.45075797661028,1.47220671303235,1.49962234379577,1.54313160973429,1.66495008823568,1.51102676954972,1.48847330241003,1.486679353587,1.50756576736188,1.53824568935202,1.52377827886675,1.70706241638258,1.76142144174891,1.76954449211658,1.8552423859413,1.8352759352531,1.82530644588557,1.54067513334098,1.50419122847076,1.5035061136063,1.5173498932133,1.51767517482411,1.56061995630069,1.78680686057691,1.75754137946002,1.66225886350321,1.29704892936422,1.26039965161606,1.26279956734914,1.32391763856337,1.33365780866537,1.37287214716216,1.38291577098131,1.44753860599745,1.46139796358155,1.39704950645058,1.32185664793583,1.29159708162127,1.31977671439519,1.33633825208944,1.3375078486565,1.47827001667873,1.60285006768818,1.57268006466534,1.46505652412386,1.33755521848292,1.30614070765464,1.32836863523381,1.35629664645165,1.35498278273496,1.35439022015504,1.49691955577267,1.4977104648635,1.31617957440991,1.29554978015568,1.26082996932459,1.2982744881155,1.3376818784974,1.37908812498664,1.32306996003796,1.31865835587178,1.34713010396056,1.3365121364374,1.29976433739108,1.29923913290595,1.35276520564706,1.37855272392945,1.47377007813558,1.3510216162556,1.35070497535422,1.36377228808582,1.36341713151399,1.48527731751005,1.48912829240429
1.66824690551729,1.66720701357371,1.75015682162531,1.88059109181921,1.92134368108408,1.93224619573941,1.93188309354709,1.93184091382293,1.86719834487275,1.81496458816048,1.83552077316784,1.86409464791949,1.89582537753299,1.95117121414117,1.97007416856378,1.99623358975509,1.9988625453303,1.96449184920595,1.77666024169975,1.69082064363464,1.64347703879927,1.63645510154542,1.65507759708568,1.67090546804027,1.69973260805431,1.72433009721145,1.66275395161667,1.5813580431179,1.56331810698139,1.55791943751755,1.56204917502795,1.5791053769571,1.59176980130576,1.62313781704794,1.69965097325402,1.70064946194813,1.70003326599984,1.59662046418071,1.52417180812107,1.50657703518068,1.47718591411321,1.48456323924024,1.49598214112239,1.52414345118638,1.54215936242551,1.5487501625086,1.56015279130755,1.55283998122138,1.51476414414883,1.4803328127949,1.48858280492122,1.53282453626743,1.56280372201331,1.69457966882979,1.68381821215556,1.64122515641827,1.58187652921343,1.51964882827551,1.45649198613854,1.45442597843696,1.45468282785237,1.4546280768765,1.45480151460965,1.70988701152938,1.70971875369772,1.46345584950576,1.42476602890355,1.4123544135173,1.40890999371164,1.41767331346116,1.43799936471518,1.51767229687896,1.55235560367106,1.47965255018874,1.41354795454764,1.40490741241824,1.44617942707802,1.50014002893726,1.50457431989829,1.55401911851418,1.60617822999405,1.62385554665825,1.35517202219144,1.32397228397306,1.31981139806563,1.35438849317101,1.38799641126657,1.42945239908395,1.46630468664925,1.57355256167248,1.57823328829366,1.4287902950456,1.38145025665553,1.30266428791111,1.2979331903373,1.31396725018175,1.38308334315544,1.38537830363105,1.37175249366492,1.36434594291014,1.39420415583249,1.41436909307488,1.45215027282379,1.4711618603869,1.4855124215079,1.56431642010325,1.57121524359725,1.49993080703667,1.4870639862221,1.48678784574153,1.49723758474747,1.51383689935541,1.54956798643236,1.66469577522094,1.78008101527796,1.79596182688019,1.84566575308391,1.84270978247625,1.59739719595562,1.52406494955312,1.50380628702468,1.50356974186033,1.51873390699961,1.56104130906154,1.61885292402622,1.77958116608205,1.77169947133831,1.39565947005127,1.29911393186539,1.28492615043237,1.29288157860768,1.31840401391724,1.32566663835269,1.3979192026366,1.42479985833523,1.45297481300819,1.45681802978538,1.42402112238379,1.31315470265143,1.30328492230689,1.32053971389806,1.32500641242602,1.3493664651746,1.45120420237102,1.45971326072146,1.41750875479236,1.38925701710522,1.32952377308536,1.32151331568585,1.33969562953571,1.34117830272833,1.40608602733298,1.44447297219633,1.4967953935965,1.49705902995474,1.33071194574737,1.31793281465397,1.30119650006055,1.31765995100309,1.33596110231615,1.3661293469163,1.35587009010721,1.34846825602429,1.34841099546328,1.34050220411869,1.30341100638727,1.30299136415176,1.33177669966422,1.34698342593659,1.36088831617677,1.35745681103311,1.35599250997264,1.35944389358978,1.36150839441994,1.40357713363925,1.48994170849074
1.66731006661501,1.66709759112058,1.83188294774481,1.93069648198713,1.93161352042706,1.93355276298226,1.964369393403,1.96367479314636,1.8372529702349,1.79011499923127,1.8277955923534,1.85817719292237,1.89628941678231,1.96064967824485,1.98294785455912,2.1115983995101,2.10955173284343,1.9563351762629,1.95775254782051,1.6949366279506,1.66223930218384,1.61138747910384,1.64732678904889,1.68976421729789,1.69411840234375,1.77983005747889,1.60362124336707,1.60990882336333,1.57270184570079,1.54580578901848,1.52766840382747,1.54348152358538,1.59966040773738,1.64292167220914,1.69756155073337,1.57117991175942,1.69801660690693,1.59462707319723,1.5511075594668,1.50562244619576,1.45316198593076,1.46037226488662,1.46781409112884,1.54148491641432,1.5290542688518,1.52584352374113,1.58182574251012,1.57657231666425,1.50811609444005,1.45001640559359,1.44944301469859,1.50403605000126,1.53802125951576,1.80210008823568,1.67162819063077,1.59277997772705,1.54878099334837,1.51930337534172,1.45786191821302,1.45158537983762,1.45913757884401,1.45424307784088,1.42529231233304,1.71170937305576,1.71119979002893,1.46072078024015,1.41856620849766,1.37503443503595,1.40814455309421,1.41269287700616,1.44393638891829,1.52538012716106,1.73624006617676,1.73536006617676,1.43213106996788,1.39131333222049,1.43907808781852,1.48820392601025,1.49604434280124,1.52015757672909,1.58925765820464,1.66295006352577,1.33108684866948,1.33308938298386,1.31312254623785,1.3589084118483,1.39631103287958,1.42924803796935,1.45707390749565,1.62292396023369,1.60583616309058,1.47274003251824,1.42651002793389,1.30590474810625,1.2931911796062,1.31389249582368,1.38749420864138,1.39748619951767,1.33661188804224,1.34399744191612,1.38569216073677,1.43544524384223,1.45353476903877,1.47106425011909,1.47363414490198,1.57157095305506,1.6102300524127,1.46454950151517,1.44073818575364,1.48760160030932,1.49505954826479,1.49272034203535,1.57876312123341,1.63247000786452,1.79758057886635,1.85458806941388,1.84987466048952,1.86520919311831,1.53319299774242,1.51465493942269,1.47506454620628,1.47750570368766,1.51956150270384,1.59618001174487,1.73785995767436,1.88587007635265,1.84560005607837,1.33917995629793,1.30219509975144,1.2748699346539,1.30505995654382,1.31276271733014,1.30984902266715,1.45500967160956,1.47023931776927,1.46873736914668,1.49213833334039,1.62488008823568,1.29108050136689,1.25249761138011,1.3215448759378,1.31816916284821,1.3712491006843,1.43868985805717,1.47104318084195,1.37027305906579,1.36011666646685,1.27329034837411,1.27244377814861,1.3459566292982,1.31103811478846,1.47181004411793,1.49881489968248,1.56253617645144,1.5795739142649,1.35497066455752,1.34364288323498,1.25941994956248,1.33928552550455,1.33418772051526,1.42070002489386,1.44836354205286,1.48202342664705,1.52123005893934,1.37154675752359,1.30505088556104,1.29011718251862,1.30645684770992,1.33371458380787,1.36411365424944,1.4046600531927,1.32006458758896,1.29963483728622,1.34114988970993,1.3161760350214,1.49106785531363
1.68484442929488,1.67739163729808,1.82441163229514,1.88865946714062,1.93450301732556,1.93562927938971,1.95372418367236,1.86655125922731,1.82411395760196,1.81036179653616,1.81817808726091,1.850673814163,1.88171366495187,1.95527297985002,2.00728395503309,2.01981153091579,2.02833576362344,1.99859361754448,1.81505194994796,1.69240719832366,1.66101926952174,1.63323013992174,1.64758096931749,1.67522757571979,1.69759591307523,1.72672211956472,1.66276637963062,1.60314245625239,1.57076041972639,1.54617166990006,1.54447468633503,1.55132139759166,1.57656445989221,1.66331439381293,1.6985326387266,1.69907950164833,1.69902424295891,1.57853868919969,1.53050050095456,1.49803648173596,1.4586760289737,1.46394453322318,1.47299704296537,1.52059146000844,1.5427481113872,1.54822358089625,1.55923459589586,1.53633639488184,1.49391990099082,1.4765935012311,1.47205482896508,1.48533189645221,1.5385438797888,1.6117762868308,1.64783652675079,1.62721139011297,1.55378414057076,1.53352475574425,1.45591890015335,1.45583718632192,1.45651575787665,1.45633279459627,1.43909369096293,1.43486288445546,1.43198665892275,1.43010945280184,1.40311862621665,1.39380727491778,1.40877432703643,1.41731643282205,1.45689119255955,1.52415264964059,1.65527894359526,1.62196166223762,1.41752128150857,1.4066109556565,1.42183234218324,1.45964003868631,1.47515324692415,1.54376134685702,1.58032602110106,1.60609316419668,1.35249007753662,1.33415504149474,1.32393439141198,1.33882984193752,1.38786971378286,1.40731338235485,1.43568191636796,1.48609519532836,1.50193087198441,1.42146102170611,1.38016050710255,1.3328664488693,1.32647149189356,1.33102042809579,1.39065079435803,1.39392190991831,1.38999255107042,1.37903228362963,1.38157555789632,1.40181182879088,1.4299996373391,1.47235698937756,1.4894671598855,1.51444961108969,1.49693918686748,1.45218853374316,1.44468940632336,1.4814393876351,1.48931275882472,1.50334789271913,1.5520214875556,1.61365998016604,1.71465774966595,1.8069832933362,1.81563548547422,1.75752991566396,1.53273223424181,1.52307949404782,1.48799185904516,1.48421989801597,1.51083839968483,1.55911152058743,1.75672329400685,1.7839909053094,1.79308042948293,1.39566161872736,1.30220217468431,1.28260451254965,1.29167418059574,1.32367320932157,1.32500333622865,1.41974131292173,1.4692836159676,1.47499111615789,1.48349070727492,1.36696093281025,1.27452567781901,1.26705840970338,1.29968907411194,1.30664503168025,1.3511913772256,1.38466886404031,1.4161987456519,1.36289392632341,1.35896242054745,1.27962414853678,1.28202623084814,1.31157692894412,1.31327147439885,1.41097494233016,1.51710220244353,1.5462939037325,1.55646543118474,1.35637264687491,1.33190640086545,1.30443627022418,1.3177471041064,1.33288453680731,1.38811074307217,1.43465207003074,1.48418150256907,1.49873056173096,1.35384684563568,1.30701275641103,1.30751791329987,1.31613481657978,1.33095931853556,1.33435392369986,1.33818214279743,1.32195452955255,1.32177746695931,1.32072866386153,1.3188081241624,1.36776688158602
1.69708858296052,1.67032076623534,1.81667532948742,1.86248530687065,1.94033287907509,1.93837620984511,1.98798004171372,1.81855445376615,1.76992377232426,1.76849383342598,1.78779604843299,1.84202542041415,1.85520314359729,1.95630475174968,2.03891867682553,0.00452841468848241,2.13083173284343,2.1315583995101,1.78391999901234,1.69006798610213,1.66031122989007,1.62397378400883,1.64580002613886,1.6632633299664,1.70131878546787,2.0216983995101,2.02017173284343,1.59509724459056,1.56870930634835,1.51380809501484,1.54085067011167,1.57264341746038,1.56620201797135,1.70999384248312,1.69890530294803,1.79042058353483,1.7643495412796,1.56274483215503,1.51857897152602,1.49046001708429,1.44526942167013,1.47859751412886,1.48823846130624,1.49972556714049,1.55331227710327,1.79925008823568,1.65941004411784,1.49212908588257,1.48292172605548,1.48316094932699,1.46541404263489,1.46716729251387,1.53906895379469,1.57575000013404,1.84769556013588,1.86579457221764,1.55942145932297,1.54515162072943,1.45440536366807,1.45773603944167,1.45464992357908,1.6081828537576,1.59290727859593,1.40175530118414,1.39924639141088,1.42880202143848,1.39286789236239,1.37460566645251,1.40974721040768,1.42209457345311,1.48054663922014,1.52249227234307,1.72668008823568,1.59187000704487,1.410461353405,1.392741351632,1.4160834498505,1.41924292776751,1.46101275391232,1.56735519903484,1.56585248610776,1.68594008823568,1.37455438585397,1.33277793839318,1.31900828797534,1.31615393698584,1.38083934751018,1.37997512768734,1.40036735337684,1.47003725880845,1.54627006931299,1.36897373870945,1.33765764702954,1.34180413278681,1.31279636835639,1.33809285677004,1.39994125794403,1.42091799238492,1.3909989269109,1.37443017132178,1.35150481551748,1.35125873658824,1.40195242301159,1.47387181827026,1.50654448731996,1.55456008324966,1.46530672144268,1.43175990478593,1.43708682679356,1.47323234093154,1.48180532159194,1.5193261648863,1.52561697975607,1.58959977927089,1.67199750861145,1.79303671093804,1.82614287377114,1.71601215096599,1.53313452526671,1.53005425902847,1.49093106095622,1.46526237989663,1.5001941459252,1.51767001958839,1.81657006867976,1.77134319922589,1.80360368565815,1.76243004406225,1.30306277150042,1.26320560232248,1.27846989233044,1.33006031512587,1.34349472143251,1.39612711718998,1.4689200027329,1.5473510855954,1.54471516831356,1.31008995623393,1.27398560648192,1.25345828726272,1.29551633984217,1.28337022188381,1.33800609897512,1.33755604815955,1.48616008578836,1.3570656429058,1.35809220956481,1.26453394479862,1.29327300257271,1.30950385139543,1.31669899754644,1.36304665553993,1.52700873628539,1.52682902195937,1.5869700644733,1.35895231064845,1.3203917425192,1.2846338549829,1.28364561922667,1.33240033506219,1.36408313115722,1.41394035547318,1.48912481893926,1.50351125489751,1.34009395729786,1.30788926589838,1.30869185618222,1.32990428615188,1.32572016773686,1.33211046232454,1.33968684763144,1.32367153506247,1.32206034045359,1.30166342330995,1.29919294747065,1.30618563492385
