1.68519755564254,1.68419521181486,1.71499978179333,1.74051787685436,1.84030488016596,1.9097503790771,1.96055631168024,2.03736000026931,2.10806000000236,2.01954856454385,2.01270781487436,1.97914946479352,1.79309003209096,1.72105000001538,1.67029045648503,1.68258073374766,1.76281212127994,2.07730029564005,2.06405970903176,2.09067000032669,1.69813124425026,1.69076006541367,1.57628834460274,1.55359002831034,1.60561184684736,1.60661835186963,1.74428000026408,1.76650000014129,1.79527999955008,1.57791263571255,1.57593270071649,1.52399407325081,1.51671769854734,1.49903007006359,1.52936950226478,1.54055039401651,1.59150850538927,1.59149058224518,1.55206541069487,1.49187006090401,1.50768852391102,1.5236496210238,1.48560574764654,1.59567999968007,1.67005999980979,1.70408221581504,1.72569022001134,1.67821166320386,1.44786016856099,1.43253600353091,1.43313600281621,1.40938503152468,1.44109986640791,1.45202165798293,1.46774339453299,1.76124921691952,1.75861657158847,1.69362664318818,1.45951907985099,1.42062000040755,1.36812416841499,1.36033996182939,1.3409941314065,1.30896794074505,1.3990870332054,1.41826999747393,1.40516058426924,1.32593999935064,1.32734000186695,1.37214632160027,1.38457634489585,1.49171815931335,1.48875487135304,1.54092999947607,1.57068333858723,1.57133666106837,1.41521993418523,1.35708832629992,1.41843628107326,1.53806719480181,1.53642945577137,1.55189492271841,1.70963500002383,1.32945754890835,1.28657704655433,1.27163289840325,1.28793006142227,1.36635999871374,1.39270015054337,1.43294999960734,1.51174958825514,1.53827999992982,1.61588978100343,1.35909153109639,1.31668999564096,1.22959114131008,1.25832000613906,1.31233005019067,1.35437023880971,1.53392923450382,1.53750963975318,1.70450000000211,1.50641999960581,1.41765004437744,1.45388853816895,1.48812002176383,1.58517997799826,1.70877000000252,1.63653575470171,1.58190013409664,1.61615438141709,1.6133038877404,1.61351906263204,1.62335973733266,1.70422996031889,1.79579999838297,1.79967000171847,1.95817251856988,2.00864000052664,1.87920993440213,1.9099938201354,1.85121013472644,1.80975000571674,1.67254750469361,1.64343997436612,1.61583109228307,1.61650053713564,1.67889998404319,1.7140499996528,1.56005998945969,1.53610671174991,1.33635001292572,1.33025111454751,1.28225736970339,1.3227165946476,1.32283429315547,1.35575000006784,1.40662978812542,1.45006999979949,1.40986985473687,1.37624622353464,1.32276499579484,1.31922500491655,1.33805000011584,1.35184000068668,1.44123995902055,1.38071000083571,1.56794000000211,1.39144072485523,1.3728344752256,1.36018959958983,1.35817898333151,1.34061052658223,1.42881999041782,1.39245002777922,1.41753736034554,1.42790832185933,1.30892666460156,1.30183528823192,1.34634994854215,1.38215627626211,1.40151999682112,1.48974999814409,1.49958999998525,1.51992333075453,1.51997666942059,1.3583172525826,1.28044963129145,1.3316799990615,1.36346999483581,1.36697978349442,1.45131000017835,1.50926001104116,1.31395008299241,1.31318999431743,1.34278267606273,1.39955000018977
1.68758584649057,1.69157698873582,1.70106037713328,1.7362718069196,1.82747814998896,1.87118125608054,1.97873859416229,1.99091085060117,2.04385549164729,2.03572735192579,1.99297397353177,1.97783867592466,1.82306618638444,1.73917548912895,1.68438552001444,1.68336479797034,1.7540543315605,1.87671030121374,2.05492246958611,2.05503387934482,1.70454612527671,1.70212633286313,1.57894981065172,1.56333954418294,1.58562020653823,1.59217107191946,1.65300160018061,1.73365686016701,1.7325443322446,1.59414222811831,1.57311555409367,1.53003049309486,1.5184211674802,1.51861021860599,1.52506302256165,1.53113208335914,1.59216429880344,1.59215862867317,1.54714619780324,1.53436283365154,1.53130723120445,1.52802139735219,1.51185385242166,1.56080710105007,1.69407049496527,1.7128601505725,1.71741891487535,1.6746861213387,1.44180189489109,1.43432002663332,1.43527405408447,1.43737571422051,1.44594246462337,1.4682223087957,1.52709213964434,1.75802119568309,1.75224494795654,1.69471820833081,1.50400431679356,1.43933051792658,1.37061705753856,1.36879349245171,1.33259072114866,1.32975302800275,1.39376701487923,1.40689843641631,1.39987151020195,1.35038932903405,1.3454137956877,1.38339343248232,1.38941119008736,1.47691549725337,1.48677952464148,1.51250989829057,1.5418951001983,1.53118464357213,1.39598638596132,1.38568664216162,1.41824015618131,1.51905122324009,1.53394794926666,1.54938205399746,1.59604263331276,1.32325048107516,1.28515113527428,1.28161612209427,1.28573003270683,1.33304684567871,1.38323293639871,1.46306067959958,1.50453649266903,1.51392635382689,1.51794209064471,1.35302251900503,1.30396974720168,1.23387064805876,1.24175283171217,1.30455268304141,1.34588124653128,1.51868133962437,1.5200971144077,1.57603871231719,1.47824709008774,1.45117209051513,1.46086754699355,1.50202088785101,1.57006187672104,1.63779627384913,1.63669913688801,1.61277277201054,1.61613860295514,1.61573299225787,1.6154988905623,1.6336132641939,1.6951731121104,1.73581059101155,1.82426972238914,1.95701478462871,1.98535044989717,1.92673330403893,1.92435112249244,1.90728155941733,1.8364650864882,1.64675756142862,1.63111491314147,1.6146810784787,1.61487417064769,1.66619256542428,1.68121125990828,1.54393360879107,1.53416942964629,1.39075839212763,1.32518732608126,1.31013712661245,1.33048134315753,1.33730432696608,1.39072595151371,1.41664763323186,1.41881506921067,1.41476918089855,1.37537804977123,1.36835063594023,1.36532221806706,1.36054962604948,1.37418312686833,1.42520387064245,1.42348455616246,1.41989574222756,1.39152888478819,1.36168432785908,1.35835556974902,1.35560142987065,1.35031762614837,1.39864140617719,1.40216276862604,1.42457030262884,1.42804592682659,1.32979144047123,1.32968547994439,1.33144596362367,1.37503663722667,1.38569436262361,1.43113092860627,1.44021600971445,1.45094208017021,1.46586573845417,1.35537867598386,1.30050778649566,1.31978641117395,1.35081878532155,1.37222134404049,1.42820768535473,1.4274795555977,1.33325157909824,1.32346684657705,1.34368245240203,1.42361193776448
1.71038418449652,1.69660860281232,1.69632107261703,1.73118383574271,1.82474967025618,1.83484013539542,2.01391999961506,0.0046426100017621,2.08828318646766,2.03055977922559,1.98323726746069,1.95175853379104,1.82706999980224,1.76820999934157,1.68391405803701,1.68209925801183,1.74467969239678,1.84028005660484,2.06271995057816,2.04774004942501,1.72710534163468,1.7223272563921,1.58115883969061,1.55402002856453,1.5813099411362,1.55572333335152,1.60724997029718,1.73585886159259,1.73250743403678,1.62122994208517,1.57169232163299,1.53508109661965,1.49340973496529,1.51781869415879,1.51967301530244,1.52451481625934,1.80671999964427,1.77160500421774,1.54200941997896,1.61238771188918,1.53550893750121,1.53461720867227,1.49997982447937,1.52997999963242,1.72086999984998,1.80258837411541,1.79300151237029,1.67081347602566,1.43434348213291,1.39293167589679,1.43544307712908,1.43867302780483,1.456659977268,1.49164000008954,1.71281011087469,1.76442009080023,1.73371002139265,1.6958986611831,1.68511999983989,1.45856999995299,1.37489714457644,1.37727302091798,1.30186003235103,1.32252820715802,1.38991051023017,1.48437000000485,1.38977978317707,1.35640411637665,1.33909086922917,1.39705814668221,1.39386095033868,1.45458424434691,1.48484069623623,1.47904610151712,1.6146200002239,1.50966999993594,1.38175500347308,1.37941499640677,1.41839623782032,1.49792999945575,1.53037073213038,1.54696692172868,1.67077723848954,1.31595331783967,1.26763868717572,1.23371000055873,1.26762002529168,1.29842833341469,1.37532982473782,1.48476996607255,1.49419372799091,1.50925620312467,1.52203881792419,1.34644808461332,1.28907956512573,1.23052799622925,1.23023697147566,1.29361497682604,1.3378397786762,1.50673000391322,1.51392121781746,1.72785000000211,1.4165499961451,1.44678994159081,1.46893169077663,1.52015994135025,1.55223011411706,1.63982717513003,1.67193999929749,1.60684782475126,1.59057683434029,1.57601006545338,1.60012001902248,1.64438007291136,1.68345740320395,1.68307276029428,1.86829999969289,1.96010135641542,2.01502223625942,2.01356276374269,1.94220013619143,1.92279976891272,1.84163999171705,1.63486011837999,1.59917696274925,1.59688470566326,1.59872872765589,1.64118999980449,1.73272499989897,1.52962999980006,1.52831542906379,1.51941106694002,1.3178427234025,1.29111001878123,1.33726943140274,1.35748000045245,1.43574002742417,1.42059535920536,1.42741491565909,1.44332992248046,1.37502760339622,1.36973207988288,1.37181036367287,1.35491404832722,1.40362995093817,1.42515714475308,1.50644994507708,1.41521384722136,1.39192072091979,1.34940631783442,1.34206412033783,1.32540999155833,1.33755000907354,1.37534999994675,1.48156042085837,1.51240430146541,1.51083800903815,1.32904772458106,1.32902988902407,1.32426972785124,1.36750022058953,1.37773999188742,1.3883302515025,1.43224666998207,1.43067333077717,1.48582666820626,1.35187079449529,1.27821000070655,1.31246565466074,1.33990996333096,1.37883628598088,1.4286209178388,1.42642802936835,1.34916991338371,1.31199006097368,1.34559341230629,1.46876000258341
1.71645928742501,1.67359166689284,1.67363833296753,1.72411458488727,1.80013999999676,1.95327999998324,1.95212000040382,2.09423925449623,2.09418755892897,2.05734999980174,1.96692792150445,1.83012999893556,1.77868757718195,1.73890999997006,1.72580819088009,1.71661325885101,1.80271000000469,1.85771994262886,1.83034999975131,1.78748000001511,1.7303224711206,1.65186000017586,1.5734178696205,1.54164999596436,1.52386001271485,1.56017669420691,1.59083002986226,1.64319331840363,1.73449099227237,1.60685005751844,1.57102377939355,1.52454979125473,1.50333220589562,1.49994818263759,1.58771999935559,1.52218368441877,1.67521999999894,1.76497499614116,1.61536371649638,1.61461857112735,1.53544913556092,1.51004128211496,1.51141894370761,1.55733000025548,1.81314992908804,1.77589011267218,1.8451100123393,1.6828899544262,1.46382999981593,1.39489833640214,1.4347449440893,1.4582999746838,1.56722999945115,1.51887000047576,1.70459988912636,1.77657997491458,1.75934001737719,1.66160000036019,1.52073999999894,1.49654166649654,1.37759336321074,1.37827409883759,1.34451478142542,1.319170842828,1.32751997651432,1.36115999996852,1.63205000000211,1.40363999947988,1.36331839722828,1.36337984814369,1.37946573562596,1.45900146975805,1.45630428537205,1.63466413614388,1.6332082305628,1.41307731262445,1.42726019357964,1.36262772956884,1.45726999956359,1.47461673512831,1.52600903957191,1.59842999974636,1.66250327272095,1.66115046442298,1.26033843544466,1.2610329210496,1.29181995565103,1.30114166659578,1.34780000531572,1.37754927712239,1.46721171539351,1.46697995085932,1.514079748629,1.32101999987472,1.28955060441898,1.22940496856249,1.27342999963491,1.30110502352601,1.44758000000101,1.46774951108759,1.50535286339218,1.55545999987722,1.43651001163185,1.42004007194757,1.47187862365403,1.50113340732418,1.57178334335164,1.56951657359286,0.00465499000176102,1.58420969962206,1.5748903654069,1.53571165867417,1.56418315598881,1.60652000033559,1.67614986176303,1.71763999971264,1.84112000006936,1.95297970599047,2.01843292280157,2.01221207720054,1.94505717933373,1.91090962668361,1.70221000000106,1.62414988316642,1.59977960436217,1.5772759962538,1.57263373462519,1.68574833313891,1.73394500021452,1.76592999959762,1.47769271605754,1.45109000008413,1.34004997585385,1.3209968768327,1.32098315025046,1.44912333991435,1.44713657948008,1.52250295348598,1.51700704683458,1.47531000020042,1.37435674702457,1.37327195852863,1.32796131871147,1.36624016235577,1.38863004929678,1.40732006504504,1.48232145068053,1.49190158244677,1.35640000022426,1.33534186587159,1.33991087643049,1.34256095259939,1.37606999938909,1.46944035031494,1.46899922894249,1.52835998915549,1.51279791109253,1.37133999994922,1.32905250021165,1.32360125354631,1.35748246280309,1.36323962837593,1.37857974072747,1.46655000004894,1.51756371830034,1.48285325967811,1.33913181978341,1.32610024516114,1.31589377044599,1.37233999977235,1.38518229938142,1.41773988209443,1.41612973719403,1.37941999940082,1.3365316164594,1.35582029531957,1.38569000001121
1.73245610373117,1.73635701890834,1.71694505274225,1.72228019282179,1.75814957653314,1.81472500628707,2.05852000001941,1.93895868951641,1.93628052375663,1.93845050632837,1.94780231000778,1.94314876791749,1.77642031737436,1.69132340650741,1.69554366177029,1.71495855020002,1.9760600002749,2.0516457967097,2.05292871795048,2.02466981542199,1.73192949212347,1.7050702526264,1.58629850619242,1.56838620862762,1.57036372358738,1.58007998585106,1.63397391126027,1.64392666392383,1.7113000002531,1.5681672253604,1.57001571765891,1.56813998720495,1.52317004856352,1.51543434662399,1.51393720279082,1.60745000024123,1.84187666666825,1.84106333333492,1.74759006125939,1.58003000004992,1.53381725603996,1.53052728813415,1.47429000057103,1.49896000017719,1.79558754437362,1.80082927990845,1.85728004226789,1.83663999996239,1.5077100003813,1.40956998868663,1.43355745176654,1.43224957723452,1.49469999993557,1.58484500001222,1.63656000038915,1.83389003372385,1.80826995052377,1.76571994698317,1.64119000039403,1.49354833334219,1.37955078054778,1.35215581641122,1.35209937269141,1.30263007649682,1.36062999974877,1.44714992019355,1.4542400798234,1.37442028307043,1.35185282052504,1.36155155535081,1.37675163418767,1.39929000030518,1.5313600000025,1.63754919720355,1.63985843587116,1.41267089302996,1.35928945314121,1.36666264014831,1.40297000035116,1.47576180018357,1.52167396270843,1.61405981705286,1.66577148958545,1.66571557876319,1.31355700007251,1.27248847359038,1.27084986038258,1.34275019262917,1.36879226459711,1.37100079107559,1.47093097066893,1.47790637060775,1.45557667270746,1.45464332713147,1.27984105608205,1.28159877357209,1.24157000045543,1.2772415992797,1.34426995860795,1.47793048895337,1.49430574214039,1.52004999977904,1.41243550874714,1.41327441803245,1.45715002239046,1.50334669010403,1.53374986682062,1.67236000000106,1.83792000000211,1.59333026503717,1.56370792168308,1.5323583422434,1.57114684392175,1.63987000003776,1.65728999982297,1.79071000000106,1.81810000021645,1.94260005282321,1.95889444422826,1.957951979806,1.94942553189159,1.97217012212912,1.66312999994769,1.64019999842885,1.57160447503255,1.56004002717372,1.58362026894099,1.68638166700809,1.71013999986753,1.65376166669689,1.46445275376293,1.38535000021883,1.32286038274977,1.33620041528878,1.35299999957924,1.43553730346957,1.42697281274646,1.54580489592837,1.54606501062433,1.51679999992961,1.37359836928273,1.37131036512283,1.33725263695248,1.33431686255097,1.37454999956214,1.44029999969688,1.51213997082908,1.49316705092556,1.41065985464729,1.35420334314429,1.32827338961341,1.32051000629184,1.39639000034023,1.39750000010566,1.57417000024501,1.6029199774436,1.5024347222916,1.40272311085679,1.35338999966903,1.32208636472614,1.34270791058426,1.37594040302118,1.39951000003896,1.44039999994587,1.5103243299091,1.50713813495355,1.34747816095734,1.28687577714011,1.28752712212562,1.40051043441934,1.39230718714192,1.4171303609864,1.36942332389186,1.3358272470893,1.33452387494875,1.32235968525753,1.38453000000177
1.72773977322822,1.7076669630927,1.68962964268143,1.70982873165796,1.75088369550946,1.81678499406593,2.02878004819295,2.04230994598857,2.05209356386341,2.05298644194199,1.91405598212289,1.7975837413252,1.78396205243995,1.69645492132981,1.69582801051164,1.92992000000106,1.95525004952574,2.05050543431676,2.03039054819479,2.03356843623067,1.73293117788172,1.6961097473349,1.5892551791496,1.53819000008807,1.57879008259855,1.63249909881611,1.63546038019479,1.6132501196734,1.65547999960947,1.61712286999696,1.5983168852869,1.60629507605308,1.61922001881173,1.5059483454429,1.60305098440705,1.63075001537688,1.72969006352054,1.76748511222505,1.76303481491862,1.5315922207671,1.53240111552931,1.47720000070462,1.54809048230345,1.55526998792722,1.71427772997523,1.80708324751082,1.87201994506861,1.80441000033159,1.48156999921818,1.46494000065631,1.44849617659528,1.41167002270297,1.47193974632191,1.58830499977259,1.67586999940383,1.8226799656846,1.78927001354691,1.75198005323256,1.62177999960702,1.38113280859675,1.380822975771,1.33981002941614,1.31419004760517,1.33548995257195,1.39608999995775,1.49520999991081,1.68828000000211,1.36497967841713,1.35452415572573,1.34646326360499,1.36864584314775,1.35026692817875,1.35491307185856,1.42782030286614,1.3995296193923,1.41496894317808,1.37097806005173,1.37530211838455,1.45153001118412,1.47206352308648,1.51827482316615,1.62255014488437,1.67271338554775,1.67479857048457,1.31486287588007,1.26829657889495,1.26843508871772,1.33266979728295,1.36541770671821,1.49190323043155,1.49618819080437,1.5366801201259,1.51114162749693,1.5118980603313,1.44637981364837,1.45753018616624,1.29476569276237,1.27537257089376,1.32870004139201,1.42952984035368,1.44286138749994,1.44331775914149,1.42529091301982,1.43803771239816,1.49184999940582,1.52026993409115,1.54462013357862,1.56510000035554,1.73466000000106,1.55018549421717,1.55475896836807,1.55791602651336,1.55561743660546,1.52038000018985,1.62790000003639,1.72358,1.7969648943009,0.00467103000175963,1.92718907631403,1.93558171700272,1.93895177383949,1.92563800820279,1.62384999980487,1.57826026742407,1.57199922147483,1.53959002526202,1.60860964705194,1.50373997289657,1.49078002709544,1.65848833311873,1.44781668477215,1.44304999986101,1.31911090224905,1.31576828184024,1.42754645746543,1.42753418278965,1.41309956284825,1.53199676937887,1.53286332357521,1.45433999985887,1.36095252041575,1.32376479269518,1.33598275557567,1.33445681232556,1.30342007019309,1.3888400003325,1.44054849154014,1.44328235787702,1.4165101447331,1.35773659737587,1.32092068793702,1.29345005232573,1.33693997018625,1.45820999970535,1.49211000042134,1.5859400219257,1.50555506711435,1.40337643312728,1.40326005029044,1.31689175499018,1.33482823757378,1.3262316251415,1.4758864409086,1.4753894419106,1.49643538479831,1.51296753766328,1.32919567022228,1.28648710036052,1.30947000061112,1.35902551343258,1.3746728616229,1.37646187104279,1.37106653087515,1.34297166914183,1.35319061909957,1.38481526984377,1.45340887376826
1.72197216732361,1.71015317892665,1.69945450970249,1.70851368214378,1.75822970009627,1.79872071284569,1.97855289687887,1.99817082936769,2.00066736985886,1.99861959662651,1.91076865380894,1.80084075690215,1.77242996664799,1.76655321976345,1.78103584302158,1.8331049485338,1.97883324501602,2.02331018419513,2.02860078182828,2.03057916267821,1.73439519540586,1.66208135533811,1.58871152050775,1.57473035639574,1.60508938409442,1.63496685312777,1.63609346280459,1.63969130960445,1.64486978937356,1.61995664055898,1.59288106247423,1.5893572609562,1.57235371693126,1.55376233847734,1.60399079172015,1.64593637028574,1.74980595643337,1.75854108497528,1.63137524226061,1.54822569772224,1.54898662653591,1.54897464737967,1.54932577957782,1.56415178787313,1.71338184583639,1.76534491661294,1.7846418456191,1.69394312839174,1.49380142966046,1.49281002650073,1.48700572965253,1.48507291150603,1.4832605666023,1.55666925842667,1.64115630803669,1.79828333074618,1.79421054752884,1.73868788174526,1.49170925324343,1.38115592853633,1.38115143337333,1.37062941502266,1.35660615766411,1.36275609195261,1.43158366959667,1.47234964308778,1.45262041135694,1.39806838125036,1.39709119625826,1.40018854578741,1.40142421264716,1.40092403231413,1.39924550600451,1.42190304655365,1.42136053203962,1.41920750294393,1.41938495965366,1.41908139384956,1.46301372268417,1.47332010023516,1.51603061655611,1.61170381922255,1.60755936834249,1.60403125147988,1.32097294461894,1.29451013468586,1.28208562996925,1.324297602614,1.37687400185061,1.47043291826421,1.49974620653215,1.52712121879336,1.52093262562579,1.49877503045334,1.42840308472137,1.36831467670336,1.28688947530105,1.28084136517069,1.3779379159886,1.43464045679742,1.44278695144383,1.44286476740837,1.4312360849205,1.43544995245942,1.46246682530685,1.50018034683281,1.52164057979248,1.59213571830811,1.63316860452379,1.55333984101087,1.55587944973093,1.55822152323745,1.55845334276459,1.55955401985763,1.61631189370948,1.68481025347058,1.79433928044286,1.82354263614914,1.92699646409829,1.93225146353634,1.93575752312204,1.93261708576765,1.5986316155604,1.57089677624523,1.56853282092625,1.56340833328602,1.62015138644664,1.62588540356782,1.63146223428819,1.63759254754991,1.42676929186975,1.39194015547924,1.33732928641009,1.33396943101804,1.38251099098782,1.41830226096575,1.44442361051971,1.4734952914267,1.46182187290743,1.42682379271087,1.35902062507743,1.32478380868096,1.32646855531226,1.32749835702856,1.32696033343685,1.37063407910317,1.44060750032006,1.4415110638592,1.43809703894281,1.33198142152625,1.31360775790143,1.30808626447535,1.31773007690858,1.41418997717131,1.52200501808165,1.54824447008886,1.5296499102454,1.4672697022804,1.39948501435936,1.35166056260324,1.35220220083088,1.35178958798808,1.41287407482048,1.47849902720157,1.49809535135946,1.50615800051902,1.32514096407442,1.30962159286894,1.31719394209596,1.36256246012769,1.37303257520572,1.37471716391771,1.35950879036322,1.34596299783514,1.34917949211646,1.37878941837903,1.45377062201494
1.71617449420901,1.71129102216281,1.66843006435216,1.70562970939787,1.76478894387887,1.78514169511024,1.93136022611568,1.98249933803157,2.00877305434591,2.00240623404406,1.90439460603328,1.8028683185646,1.74792372704223,1.74024630043394,1.78858666463972,1.78849333569368,1.98582914457511,2.02558541631813,2.03227041927284,2.03169979039063,1.73665538408713,1.62539000980854,1.58850577617625,1.54192992423974,1.62921993773764,1.68233999996133,1.58813000054133,1.67226999793473,1.65586999715556,1.62273037534262,1.59059811049028,1.5854344589241,1.5584099996836,1.50238430071733,1.60498700323426,1.66090000000751,1.78317999953319,1.8038200001518,1.58608999979972,1.55430025636681,1.54876005427519,1.54703837364651,1.52970994665757,1.58042000044999,1.71246172983347,1.74072056938541,1.84497999987476,1.65560000000017,1.51372000059784,1.49810825141408,1.48897191672817,1.48457080403428,1.47987330727225,1.5213800002242,1.61171703997063,1.8061486499488,1.84373999961534,1.72319999967562,1.43575999999894,1.38086613722237,1.3809885793319,1.38071892667015,1.348779824423,1.36886742647342,1.47269004606267,1.5183499998734,1.43569282343312,1.39837710561307,1.39315679336707,1.40236277956261,1.40618008510274,1.40855821857028,1.39713826757036,1.44264123045329,1.44185911188757,1.38884011396289,1.41851898098112,1.41681721263383,1.47199001793948,1.47507086814357,1.51408597186558,1.61628260074507,1.60048821836781,1.60106332439326,1.32649868303,1.31479991136472,1.26729001606217,1.31404812700585,1.3877499375993,1.44427999971739,1.50258244262945,1.69418002556246,1.71090997419895,1.47747003313454,1.40943999996924,1.2678498433304,1.28377036660881,1.27554733221316,1.44215000014697,1.45711620836452,1.46099194739343,1.51274999989568,1.41923009886092,1.3783900007923,1.42936004673636,1.48396998330101,1.5121399997113,1.6119099998828,1.83089000000211,1.54378264067387,1.54079045029703,1.53936027441325,1.5390398300133,1.55890491670173,1.60029995454976,1.66116999998537,1.79714949935631,1.9214726604411,1.92062569208613,1.92680300882143,1.9321312785945,1.92847379113576,1.54651000021107,1.50480001273146,1.52082036864438,1.55470417660582,1.81373895014704,1.75724000010573,1.68247,1.6479199999413,1.39706848118751,1.36195999993297,1.33778372677201,1.32762589289211,1.35336999990993,1.41037967429405,1.47691000974676,1.49474998194541,1.4512500600244,1.40410000021016,1.34127218871881,1.279051299489,1.32336419517683,1.2878700069847,1.32534922478609,1.35226999994857,1.45868015150907,1.46665984820843,1.45246000000043,1.32331996111828,1.31034595407612,1.28596587729862,1.30747994072075,1.36780000013529,1.55211999967816,1.64107000000106,1.56568999998633,1.51713321984438,1.3957965035965,1.34865465448271,1.3506813645337,1.34908911589987,1.35442996011969,1.4809677986899,1.50094005056816,1.51847028183953,1.32123530298422,1.25031000028314,1.33535166155389,1.36714798430428,1.36998433366623,1.38648019315948,1.33466376704095,1.31281981224084,1.32311017454168,1.37291543871346,1.45368904918897
1.71240256758161,1.6926600269046,1.66261055855336,1.66297355022712,1.6813899994845,1.78482832826398,1.95244666490592,2.00004080131704,2.00056879503466,1.91019999973348,1.89495962912857,1.80721438800886,1.77882048673654,1.77229951349918,1.88280999374647,1.95893000000106,2.04414019854275,2.03098500139476,2.03457405758,2.0291526575004,1.739155341459,1.64328999036736,1.60996000004951,1.55285007622865,1.63764692439578,1.73247997511068,1.70971004236252,1.58667000013047,1.76556987353889,1.61346994563116,1.57685855712628,1.54979217350365,1.53182995430639,1.50108144806797,1.58132821687384,1.60259993846361,1.58631165900077,1.58835840229224,1.56725000045897,1.53349339382818,1.52602846779287,1.49518462898609,1.50265023229675,1.66529999962933,1.60320000037172,1.74943943051617,1.76260313746651,1.59602000025917,1.55747999975277,1.49299367166503,1.4908736159723,1.45999975734057,1.50923999971843,1.54552000009893,1.60983613157685,1.82536997192716,1.68042,1.61703000034159,1.56390000000106,1.43648000009395,1.39796668188684,1.38365000619658,1.41920831689862,1.41880177714065,1.48204998145236,1.74110000000106,1.42750021687943,1.4386469586563,1.40234251668821,1.40024535052755,1.40667591674477,1.47439803894231,1.47390996346321,1.63920000026143,1.42908965705776,1.40537994050969,1.42199572085967,1.40361953040229,1.43331988985969,1.48221015147004,1.5115383492113,1.60686998956995,1.57553002049115,1.60195861145829,1.34098499325625,1.29028166815543,1.29284839780062,1.31640189572419,1.39520001772574,1.51109456507391,1.50449600630598,1.5400100033604,1.69263000024281,1.50451000026696,1.34454356507507,1.28600975222013,1.2613801133337,1.30846000020797,1.35500000004163,1.45677837686075,1.46087604814637,1.56118999987756,1.40928237275197,1.41713738422946,1.4494399921093,1.47277001671733,1.48753999998745,1.68609000004982,1.71930999995229,1.52680390244141,1.52330325512096,1.52005263311486,1.52683525130077,1.52791941753611,1.59015166631553,1.58995819285347,1.7818300300939,1.95867999975637,1.94007000003212,1.87879031447492,1.87351033711668,1.6343199999945,1.5988899996744,1.54647998897422,1.50798961929725,1.63756000000483,1.80314098643356,1.8133200710625,1.76626000010423,1.51468,1.36525197483636,1.29163974983108,1.30206636638427,1.30170389711464,1.33682999981808,1.45320371276336,1.45133856626787,1.45042772090526,1.39677000000091,1.27197000040717,1.29638246063366,1.27370244168127,1.27213625984199,1.30487697289067,1.30274302636877,1.42682,1.50293166666884,1.50425833330407,1.37105999972325,1.28174006310259,1.29779673465606,1.2836662430954,1.29232005183738,1.45895228568863,1.45856142853669,1.70899999988642,1.66272000011675,1.52392678015668,1.38250003334585,1.30134999977357,1.32278209232609,1.31084989003184,1.36949009596204,1.50187492890072,1.50273000637775,1.50904804198547,1.3570599998155,1.30032999981433,1.33367829995916,1.35727010227729,1.37010112343637,1.37528980201565,1.33987618214311,1.32422005234775,1.34290999214103,1.40053993804365,1.44589314309802
1.71255323503105,1.71475050994322,1.66754869280345,1.66636186549741,1.70369499297144,1.80077333278048,1.9540333348836,2.04030999979472,2.04122199719041,1.88220858001187,1.88314613422629,1.87690340877916,1.80346832854273,1.80318165155795,1.85847000655894,1.88594982308888,1.98515003827004,1.99770030707227,1.98297474394274,1.98219758687517,1.74193452677183,1.66110999988469,1.64153124764946,1.62709191073027,1.63407124743527,1.68528000005525,1.72421494448888,1.73155976122916,1.77616012640336,1.57315028087431,1.56601467603874,1.54411683725417,1.51782976202486,1.49774425177658,1.58064172657588,1.71096000000106,1.78867793442171,1.80008006174479,1.54725999956347,1.53566658826169,1.51383485503232,1.49304740775165,1.60321999993456,1.51985166655311,1.5198983334075,1.57756004158799,1.76308828777909,1.63024999974002,1.57691036196809,1.53349768050406,1.49701086940802,1.47112104283934,1.60400995395114,1.58204000281407,1.61438702743304,1.60009979877784,1.61103000240471,1.66028999945378,1.43319999992188,1.40888633274456,1.41209992367034,1.41529663367104,1.43282167823386,1.43282816557051,1.49299997250026,1.86605999984972,1.78660999954561,1.40136630426198,1.39878026997602,1.42029866753911,1.41765347336849,1.45394999922371,1.47126199781579,1.65997000922865,1.67169999066133,1.44111996829678,1.37670037630418,1.43115213394983,1.44402010981749,1.52457043567801,1.50862857759227,1.50601791196422,1.68445494798042,1.68323497030011,1.34252498718955,1.30210004037409,1.31955135439469,1.33042325300769,1.42733999938379,1.47884000039182,1.49882314700707,1.53198999622532,1.61950000000106,1.38143000654285,1.34562630817252,1.2926149498531,1.27790880052995,1.27831287442458,1.38327837485055,1.51923999960385,1.43947687819259,1.42738017043059,1.38230020588278,1.41773312208667,1.43607650454496,1.45269445177994,1.54726999991168,1.60579000031601,1.68067999988388,1.48265675727499,1.4848004609281,1.48348504232468,1.50738070987641,1.56169000008345,1.5911501857293,1.67120052635644,1.65570947375211,1.92205000011459,1.81687999939488,1.90047001224806,1.87210657356184,1.85435358478384,1.54482430361505,1.52369000827022,1.5399999561993,1.56141000045463,1.58965058202447,1.8215500643214,1.83804994861399,1.32122070850525,1.32239852274626,1.25649000029926,1.28839999988757,1.32299998717846,1.27771000004938,1.35668000027273,1.40929000029249,1.32453005233015,1.33819994807379,1.39124003635783,1.30352782761772,1.30210908702047,1.29511717456042,1.33734994083961,1.38432022665424,1.47868999967535,1.60333000001356,1.5338100002091,1.34398000017641,1.33435643544392,1.30802396418806,1.28667789057355,1.31801991847597,1.29539008468337,1.45997628577574,1.55771999986443,1.51038999997815,1.40974,1.31620001426373,1.33896790918748,1.3338059077374,1.34644994741872,1.3584899423557,1.44695000028519,1.47183009747225,1.37835998589468,1.37319001418735,1.31834993355845,1.36003762994716,1.34638661211386,1.37034575813101,1.40967003501983,1.34612711128074,1.37707985476241,1.38429538474122,1.38304063383389,1.44493099953712
1.71405306705103,1.71616680361401,1.69721982301549,1.66529527109881,1.70615500755077,1.79962664374992,1.91803014898752,2.04059800258025,1.93570716932856,1.94319098426364,1.8767134686326,1.88246267181126,1.77801002043788,1.82906071631827,1.88842347591165,1.89782234191117,1.96600292652764,1.98998988954013,1.99138743403497,2.01924000021519,1.74414187557552,1.70074000002529,1.63106879766303,1.65170222795858,1.65510079759406,1.65416958685376,1.72435506493691,1.74009961548754,1.75486000015377,1.55991220421808,1.56161393757523,1.54434068601149,1.52553892215659,1.5272713621046,1.56553005690504,1.59920986522835,1.78345197901792,1.76518002481981,1.71692000000106,1.48436004692533,1.49614501207388,1.48803766165327,1.46783979874898,1.49368037232559,1.59926495598207,1.59732500208416,1.75844870482293,1.85800000000211,1.56611388158207,1.53998230873568,1.49903474354397,1.47177920903161,1.55480999995252,1.57223004304843,1.58767997681005,1.72088333319502,1.7214166661636,1.69670002895853,1.57947995510219,1.42272468354251,1.42348328235767,1.42295143585295,1.40207639955503,1.39962361435369,1.60168000000106,1.81685997480783,1.80631002580107,1.40413223870473,1.39745045338901,1.40876340078488,1.41420341369052,1.43516055018854,1.43203952875552,1.52396000024553,1.72046999985386,1.42286216056576,1.38303962481755,1.427806035903,1.46382018406312,1.47342720278747,1.49836798202833,1.54162995489644,1.66835171868965,1.66811836300005,1.35920999994569,1.31378327417634,1.31448820841509,1.33558670212491,1.39161211077047,1.43358000012397,1.49657356092778,1.50371016768873,1.56501999973076,1.39955999345609,1.35814012696289,1.29580511806426,1.28168836185496,1.3008399955176,1.37810592429377,1.47479999985672,1.43529268097515,1.42087982966134,1.37210982407131,1.40998738873209,1.4397567722836,1.45912539405185,1.47913000823065,1.66492997233686,1.64215002746536,1.49842993995783,1.48863798411261,1.48812975662068,1.50652577180453,1.53755000023603,1.55842005008691,1.70766999955992,1.76137063041204,1.81699216597018,1.85803000020008,1.80201997790978,1.84158322195768,1.85786264530671,1.54984569667342,1.50236977318415,1.52599028927612,1.61057999813347,1.58896939430782,1.81415997921895,1.66119000043726,1.33253018346979,1.32211995335114,1.32016853837698,1.2507500003905,1.29615847057995,1.30954997670816,1.34062193626522,1.42984004888388,1.47774000020177,1.39728781802725,1.39947845468691,1.3054519631892,1.30437993919239,1.29025776006235,1.31973451602836,1.37437977351238,1.43691000021539,1.60392999974748,1.57363000000482,1.40642999969865,1.33638353505384,1.32785484986333,1.32502345762609,1.32549889442619,1.35773778464331,1.35780565323724,1.49571166634455,1.49683833381498,1.31240047641048,1.26403000057342,1.34732168056072,1.32980876139874,1.29403000011206,1.31679997285001,1.32425002760769,1.46199902353314,1.48112402089117,1.41973999969585,1.30030006746237,1.35112589793394,1.35129694461088,1.37081471826289,1.42286996389151,1.34719290078657,1.36105195675117,1.3611560152101,1.38166101962966,1.44656193667325
1.71477410881905,1.71108580572331,1.70767498022915,1.71205177270163,1.72779710670019,1.82716150822162,1.92998633351254,1.93750157075834,1.93754055124708,1.93618049541284,1.87111161474019,1.87619403134082,1.81279472050567,1.82501811258103,1.88911704199948,1.90099326199805,1.94799074534022,1.94658154659709,1.94476319536503,1.9378086255774,1.74537053431568,1.72590657837473,1.66358918574925,1.65982502468467,1.65790682438862,1.66410238891853,1.6900005950585,1.7363918503392,1.73248925254769,1.56283485111292,1.56251079116775,1.55165039414606,1.54680534413805,1.55624698033932,1.59714268571234,1.60614851150298,1.71656130000669,1.72464039982849,1.6329055974416,1.55139343483425,1.49813925605604,1.49588280336171,1.47471200528185,1.48258184498978,1.54125477026365,1.56892880221664,1.78726523699299,1.80116804403074,1.56809848088381,1.51792430375485,1.51387650815264,1.51624139689763,1.53104078873657,1.55163418325407,1.57911666187619,1.69676326114061,1.69245270802341,1.6915284159753,1.56736733303017,1.42433406169862,1.42473511331559,1.42433453293897,1.41030050129583,1.47979058882428,1.52260818220032,1.72651649040083,1.72786717277114,1.41988335949233,1.40776922249382,1.40869562006653,1.41030661762283,1.4223305000688,1.44256355582437,1.56349409536023,1.59904283228641,1.42374905925558,1.4240438926223,1.42693597333147,1.45711647541665,1.4759330644837,1.48872716182953,1.52572832857022,1.59409538834891,1.616628097967,1.37074765353664,1.32722916099508,1.32339844455498,1.34264441806649,1.38828024967414,1.46280394988295,1.4934146657616,1.49687208843332,1.52804078874276,1.44318376770979,1.32871480648109,1.29809043679467,1.28672074598551,1.31010557620749,1.37820256201923,1.40676652929303,1.39781964199806,1.39173600736845,1.38183943217941,1.41620099581643,1.44558133234318,1.46533733610954,1.49482888402484,1.53527115165311,1.51323294845831,1.49653246663021,1.49262461044718,1.4912006640042,1.50776235948603,1.51566942557685,1.57228687837058,1.67394502642863,1.76238348520325,1.81765557591992,1.82018852138903,1.81788112676205,1.63197982058889,1.58885952772993,1.52674144391985,1.51049500069221,1.51740459543991,1.57377376069966,1.60028836366057,1.71530686309374,1.69350077135026,1.31163851380003,1.30898165209693,1.29658551786726,1.27938926223038,1.29290042235095,1.31830053048542,1.33477215116284,1.44175242356671,1.45329124990719,1.42582380427655,1.3964572817909,1.32595680567985,1.32393235560619,1.32160154694391,1.32280045628539,1.35091713774221,1.46082638042842,1.49925938462998,1.46198605249631,1.36701196667791,1.32948099288534,1.32897798065883,1.32798262274529,1.33338248380604,1.35910398197279,1.35881004620863,1.35784411792088,1.35489289496619,1.31347928960293,1.3003148328121,1.31401543704507,1.32654125073843,1.34615324057086,1.36562233982534,1.40451539528233,1.46463750175257,1.47260502154376,1.37807583147806,1.33551674449903,1.34176384644231,1.36074140854172,1.37075802831423,1.37085501337117,1.36870046059327,1.36500616098133,1.36374067221228,1.3791398992761,1.42397349116064
1.7130286002528,1.66981000599643,1.65776999555306,1.7162900939028,1.74437000003946,1.84943999985193,1.96964997433002,1.94461746757377,1.94155005759908,1.9120501324324,1.87087829949247,1.88086061674503,1.7991601944019,1.82067592644342,1.88908859627973,1.90311490665263,1.95242538236204,1.94991663433016,1.95458750760502,1.93085007439516,1.74705133850952,1.74199972563291,1.67230003854597,1.66069913922271,1.64098006900169,1.68254042473775,1.61498000027273,1.74001153384274,1.72897545848414,1.56488249404298,1.56186697125482,1.55815793535842,1.54189325087009,1.57200994962343,1.68491999977033,1.61302013045569,1.70290987819836,1.73109017107211,1.57206941290076,1.58314062591698,1.5036754896337,1.50257511606706,1.4626700705765,1.48120398699193,1.51565665760555,1.51224334157124,1.87908000008533,1.85602999991784,1.57072205506671,1.505579335943,1.51013248443817,1.51627679466527,1.48061000027013,1.53069999998891,1.57083000203586,1.70704277369084,1.68636975221445,1.6759800730696,1.55469005711235,1.42325084229594,1.43054609080752,1.43652148407928,1.3896300004077,1.59918000000211,1.46458999985524,1.72695289491947,1.73263037116746,1.44343000109853,1.40708668400311,1.40864023626235,1.40873160639757,1.41786236220761,1.46193989566577,1.60560999981335,1.69268000000106,1.39502001414101,1.41997638282143,1.41615969634878,1.44992989882774,1.47857114991126,1.48014813763539,1.51548993364819,1.56147000033913,1.66379499596753,1.39511000016156,1.33152024566424,1.29403002440367,1.35412994167871,1.38487610876823,1.48521616847395,1.48968089180325,1.48990991910895,1.61279003046832,1.5133899995747,1.31201182168051,1.3129506522665,1.27811006796872,1.34352999994167,1.37790599216174,1.41833019484638,1.39442838146994,1.38967001417046,1.36367999988309,1.42209795772871,1.4515223891057,1.47157199506574,1.51671000023977,1.56471265999442,1.49187811043252,1.46923372778102,1.46405592844395,1.46179337844136,1.5092662073423,1.50482962638818,1.58794026700666,1.64889833360535,1.76329063639317,1.86956996305782,1.82501765606104,1.82596331269236,1.6008016396473,1.54195999967503,1.51480996402174,1.50360007721816,1.48930947487119,1.55258606058288,1.61002000239901,1.75574833353079,1.75586166666614,1.2992029950916,1.2983278800138,1.25225994942651,1.26342988572929,1.28755261426007,1.33186711890692,1.32815371343501,1.52672666658815,1.52835333302433,1.63886993954649,1.39342036717503,1.32670335174946,1.32686587307557,1.31787582698075,1.3258467670469,1.33339999780888,1.48155004979658,1.6439099996723,1.42473000000056,1.33109999998184,1.27900417027522,1.29457363224756,1.29674160520448,1.33878015466843,1.50344909089867,1.50014027600131,1.34740564148796,1.35053659370877,1.31496979833248,1.28391001533636,1.25447000070848,1.3236872943848,1.37086999956146,1.38819999996292,1.47560152504613,1.46836096812752,1.48381997341591,1.32906379897493,1.32816690988754,1.33003905429969,1.36787503677057,1.36976775653332,1.37374188296011,1.41248999940155,1.34494666835801,1.34349333666537,1.37705110319287,1.40626000012704
1.73410700113598,1.71580576251034,1.70253840091923,1.66846005368368,1.83269002165632,1.9333489802649,1.93474060926815,1.93483032749679,1.96658000008827,1.95115999978058,1.8269362191017,1.79252696552854,1.79165379471361,1.83109999717639,1.8757537483364,1.95048000015716,1.98462999998629,2.11399000009021,2.05369000025766,1.94247004244087,1.75538093615344,1.7525201017507,1.69003997342353,1.61342013787694,1.61381987934506,1.66906366266815,1.72551002500072,1.60359986281431,1.61449013705468,1.60194996657585,1.55947202638821,1.54883569917205,1.52803985780422,1.53657020126637,1.60105000008328,1.64452999084535,1.55797005011193,1.57289994993244,1.71390999964212,1.59603995731666,1.50801789889122,1.50788480733364,1.50697659134086,1.46236009180714,1.4858495471371,1.54315046802605,1.52676885229722,1.52607068052396,1.57635464328877,1.5116589104159,1.50067438537507,1.45159473710552,1.45080497686016,1.5056002455662,1.53990000036811,1.65690999999146,1.67307000858218,1.60582019026561,1.52101333440151,1.52110666557015,1.46030667517856,1.46442183739407,1.43742003289754,1.46177999961335,1.42639000038007,1.71208999989502,1.44457951192417,1.4617952651316,1.42575997386453,1.37492424654101,1.40858835640322,1.41961093344936,1.44690003790372,1.52627975188045,1.73859646266734,1.4986,1.43494995783945,1.39103680670301,1.43791011378804,1.45282000020667,1.47183557861686,1.51937010780427,1.58993898122768,1.66453500363068,1.3318200001782,1.31630040450214,1.31475020655682,1.39025999950465,1.42821999965944,1.4600600292761,1.47096097710265,1.61172001298871,1.62279995654613,1.4744300004253,1.42774000000107,1.31185203075863,1.29466997312763,1.30935666211211,1.31134333745939,1.3354899999817,1.37475913660044,1.31516000019521,1.42452999975439,1.44496000016576,1.4544917728994,1.47127331949015,1.47293806292361,1.57109733988933,1.49383191672195,1.440110018391,1.4615833539211,1.48956001334521,1.49490705261858,1.49456281291672,1.57842968038375,1.65229166645152,1.79641999143728,1.85149332210593,1.84938669973956,1.53284000049468,1.58082060153705,1.50656000030165,1.47400552160947,1.48150997714795,1.50503048414131,1.54640822584767,1.73759000009685,1.7753150019731,1.79586000001479,1.33048999975644,1.2966883260086,1.27428911392825,1.2750912725971,1.26082966171327,1.31165005788204,1.45472999980672,1.47123999997456,1.48204000012509,1.62469006027835,1.28956508176357,1.29031726488244,1.2524628843304,1.32112232529216,1.31795837506337,1.36946999954551,1.47045995029086,1.61051999484973,1.37015254182412,1.36112000020341,1.27255588449861,1.29189204584076,1.3473299995193,1.30612858573727,1.47212000046891,1.49832089402194,1.56268003265281,1.58507996748121,1.3162764107438,1.30182014131933,1.29345986269559,1.32063893121131,1.33293666677892,1.41958666780873,1.41617332856594,1.48108977902636,1.52097000369751,1.36971000004458,1.289800251007,1.28895975234429,1.33249319618985,1.34331961112116,1.35110031587234,1.38894999944939,1.32045984924221,1.29784161864172,1.3109599176505,1.34458999961957
1.74899426941775,1.70701421675278,1.69993160172372,1.68379999868139,1.82111997834542,1.90013832747974,1.90005167267501,1.98023964561667,1.99274003749877,1.78388097527305,1.79107169955455,1.80335385945331,1.80046091202785,1.84534503100023,1.88572626478443,1.99019999956615,2.06490873734905,2.08034333849863,2.08047666139387,1.96510999977209,1.76859847457091,1.67255019618254,1.66652984125013,1.65705019203742,1.62444998433984,1.66424318712163,1.73154307517871,2.02744833333492,1.78491000014056,1.58511984515143,1.5561573468669,1.55309335437072,1.55170070243212,1.59907999974877,1.56257360086822,1.55478938399675,1.731,1.82196999449136,1.65761999997846,1.57816000343156,1.52205341778865,1.52955127444357,1.47119757018799,1.49070989161635,1.49874782304299,1.49353262232174,1.66569833333492,1.66697166666825,1.4889403205716,1.48645677546414,1.48034017941764,1.46049357724564,1.47452994650559,1.49678979664596,1.6291899992706,1.57543004047669,1.85488000000211,1.59718980973333,1.54485999986187,1.45293253655037,1.4555854645197,1.45253220521963,1.45074771451601,1.58274000428512,1.59903999517384,1.40798999999789,1.70204000000211,1.46132522197312,1.4374700222214,1.37395790911505,1.40972682670411,1.42205760541724,1.43001072491006,1.53624009997368,1.74332353768199,1.72683999965489,1.40559090118553,1.3998719320971,1.43211246885149,1.4271276060818,1.4633079128795,1.46685006461036,1.58819077974523,1.68126000016538,1.36879999392565,1.32218806062262,1.32586827031651,1.34621995057406,1.37562999636467,1.45029992044925,1.44762447944752,1.44496414462691,1.68538000000106,1.54332000000106,1.34152999977143,1.30336517228551,1.30405037496675,1.35776000020982,1.41300997590178,1.49700000001366,1.41288675333674,1.40585512527529,1.37628018276528,1.37759999288956,1.45623099449472,1.4782567472691,1.55881999998564,1.49153994135915,1.48508997945186,1.43154772912262,1.46037914448534,1.46062639154578,1.46216096264091,1.51515000188873,1.55135000003416,1.61981999991335,1.77843000826273,1.81990996699571,1.80015999970289,1.76402999971589,1.60542842033638,1.53356999976341,1.46805080788931,1.47104485379625,1.4822899751341,1.55293571387634,1.79992999636447,1.773295001332,1.85309999974505,1.29271058843449,1.29465228986386,1.29164031045362,1.2813678298473,1.29189389772639,1.3309400004553,1.41938000020865,1.43708771159453,1.58018402140986,1.58542493377665,1.31963999997315,1.28961886769967,1.25615425756344,1.25470285828116,1.31913950542733,1.32653998505293,1.33443999971784,1.5985000054822,1.37796751449619,1.33600000009539,1.29454594148953,1.28766228500859,1.28289736113018,1.30384139399597,1.34393999721142,1.48784973895235,1.59140999998452,1.55789999988569,1.39464000000126,1.33226999979402,1.31306928033782,1.31710795579889,1.33664333302941,1.36632387627097,1.39881000278634,1.48817003796668,1.53326999569781,1.39797999940918,1.31108040285799,1.29883961762442,1.33531559859666,1.33526954246038,1.3361511733902,1.33883372423794,1.33494000337475,1.2902682685241,1.32627087943379,1.32161810156234
1.76676615193001,1.72963255330053,1.72998770551393,1.69416996694994,1.74904789600295,1.86677999968395,1.93039017813702,1.97816031618767,1.82850000017646,1.78071319856582,1.77954106874242,1.76818909896546,1.80235449647317,1.84744535150696,1.86177065347804,1.96054473645551,2.06147943477357,2.11318999930413,2.12784047849966,2.13457952175213,1.77715266146679,1.71055999987843,1.67936996222334,1.64363287585077,1.65218695877055,1.66244267451925,1.73937684890122,2.02644166666825,1.82369009204029,1.5992601881524,1.55355283648143,1.51591515339549,1.51390145836911,1.55520997300738,1.56998311319652,1.64790975888249,1.79296002728933,1.80342997822353,1.68589000038153,1.52696997437664,1.51830993750244,1.46896104038808,1.46910189541744,1.44928514334953,1.42175000023537,1.47451983576398,1.48106016423664,1.50347768569355,1.50461796033105,1.49698472334818,1.47743330832114,1.46055676306337,1.52587002275136,1.50658993553675,1.57786000023924,1.60346995982549,1.68186000004551,1.7526399999566,1.56558546750771,1.50319999980171,1.48486452720155,1.45380796528808,1.46293008775898,1.61141999981296,1.55841010225747,1.58165988456961,1.40292420327226,1.45009999941321,1.3840701754133,1.37538914925388,1.41043507206965,1.41928470013153,1.4325699633669,1.5448160503244,1.68706000000106,1.6269,1.4042039822469,1.40212924887516,1.4086245367761,1.41946972949555,1.45495625960767,1.45212543645344,1.59556023929396,1.81045000000211,1.35238000566108,1.32004840015756,1.30029982969585,1.33592000739032,1.37786653754162,1.37678182439295,1.42537921490625,1.42968954402193,1.78358000000211,1.3566199835756,1.29014000001315,1.31705998796216,1.3802567603605,1.3783254808629,1.39945328162123,1.41806793461551,1.42103008819257,1.42248307840908,1.41612996780413,1.37855984187423,1.41232994883743,1.44679000054985,1.53659999957939,1.50640005183314,1.45666940515191,1.42497225343226,1.45976632595482,1.47889465373972,1.47036096947125,1.51556484426736,1.51180571703777,1.591239999924,1.72151999992261,1.80994003326558,1.76229000006075,1.72498021794264,1.64429469608508,1.72495000000211,1.50543061260717,1.46416003631854,1.46668882932398,1.48818999981464,1.75770571614253,1.75716091804622,1.81754000020754,1.31147001104393,1.30444951144576,1.26915002685408,1.28270197667477,1.29398611658482,1.36636034124954,1.37863001208253,1.44420228864535,1.58187104427537,1.55197000018251,1.28286932347341,1.28680442455127,1.2846733429122,1.28511862710305,1.29622988525023,1.29953998477653,1.36193000031452,1.43956000000106,1.36825994329419,1.28316000001384,1.26725618822135,1.28019747077121,1.28269526147226,1.31403004961811,1.34374000271384,1.53206166631548,1.53214833322792,1.48939000004503,1.30794999990889,1.27991171095891,1.27655219324635,1.29095877911844,1.30479997390166,1.36622343035544,1.4239199710221,1.49891013995395,1.46467000018837,1.3588745669807,1.29259964901292,1.32238027264075,1.36198000042509,1.33424705409472,1.33447507948048,1.3351263497129,1.3198000091315,1.30660091066625,1.27428001452543,1.32511445883644
1.79003583057495,1.7534183156867,1.71549958864068,1.70750870716089,1.75110121756184,1.91204631937194,1.91655390386694,1.92080858941903,1.86639713096531,1.77912771143112,1.77754441350916,1.77304090479208,1.7845123682108,1.83831184754526,1.85639553930781,1.95147136695003,2.05325303592757,2.08805252564368,2.1001495682229,2.07784372326194,1.7805105537035,1.73807861125639,1.69290932847305,1.68133433381688,1.69009729307093,1.6947187858434,1.72523008198623,1.86014546654095,1.84869596149879,1.57508497428528,1.55297100103141,1.52301312702454,1.51927158763272,1.53681951983061,1.57008774919352,1.65640791566318,1.71835546193515,1.72609864418263,1.62257123257482,1.54276780810925,1.51436233891954,1.48008774483587,1.46045553065847,1.45594107686711,1.47909576604485,1.48109970541472,1.48366324214791,1.50688543287974,1.50660609556692,1.50151256656385,1.47672778858808,1.47632845604168,1.49882636900784,1.53060259125429,1.55618618625263,1.56175163776173,1.5654022303555,1.56685834299539,1.56659639884665,1.53969081595888,1.54230180931578,1.54582845341097,1.54711889479826,1.54898475352255,1.54959408851788,1.56111867703525,1.40166410851044,1.38960684284919,1.38191400247368,1.38122690458866,1.40966283884453,1.4099548379855,1.42986363277209,1.54557911438053,1.54451798276098,1.54515543341975,1.40548406250166,1.406190871233,1.40825163476759,1.42804054110187,1.45817597180721,1.46151852570221,1.62017848594989,1.64749674979169,1.41173492799416,1.31955292003969,1.3063813957378,1.32247182282197,1.3659263621058,1.38042684962149,1.41385600671836,1.41798860386463,1.42181805076124,1.33895437787896,1.32305344252557,1.32364848540336,1.35498818367799,1.37950117218662,1.39424951239739,1.41692899000682,1.42093286820341,1.42237129338007,1.40594557538582,1.39631141288002,1.42531051781123,1.43120881293925,1.46020645359659,1.4643692483403,1.45262355869026,1.44984723750383,1.46007169064957,1.47495559540807,1.47524499851984,1.51228972942687,1.53156087954999,1.61508025498563,1.69018850843825,1.70639793749409,1.70998433037489,1.71893703063893,1.61956244863916,1.57334155299425,1.50171310134341,1.47643586922169,1.5280811643416,1.55855056546907,1.74863732836403,1.75137870553348,1.7782538003895,1.31528076557174,1.31485823176826,1.3138079651768,1.31304601537703,1.31700080264278,1.35740876625959,1.39272472611749,1.4789424238928,1.54786874954959,1.53469783782992,1.28708123964504,1.28805495283388,1.2871869919986,1.2866666331341,1.28665447595175,1.30892001602091,1.3285640770746,1.34618883674959,1.34317977909582,1.29560132186254,1.27367579011156,1.27756748835324,1.28838690130778,1.32260144116221,1.36105036426875,1.44787852159227,1.49300062853372,1.47838649762097,1.37845489904926,1.27809995009882,1.27710989148344,1.28513178645095,1.29014537021526,1.36375094145065,1.40737136984994,1.45064375968383,1.45169678987221,1.36612453966687,1.30599155011923,1.3141093583937,1.3146597952457,1.31408959004506,1.31372684807051,1.31320347398546,1.30877735689815,1.30512068951947,1.30168602577357,1.32063257459529
1.80517125192051,1.7920416586533,1.71295279966403,1.70227973438315,1.75323190354746,1.91713431268792,1.9150382092465,1.92851438524918,2.03886999995264,1.76067755957611,1.75726284886065,1.75390292188593,1.76119998719071,1.83012972128185,1.85121232046244,1.94958336451134,2.05246473304996,2.06343847075528,2.15977000000211,2.04706884516392,1.78708417758141,1.79769039681028,1.71438003106674,1.66658962516771,1.70183703850161,1.69959298924523,1.71362003804027,1.87194,2.09617000000211,1.55802165221934,1.55466948891034,1.53026916077711,1.51534531301159,1.51856622307337,1.57056064453985,1.66401029746182,1.70585996423897,1.73334904618349,1.56460000000552,1.56343999136165,1.5113077565312,1.4949201653964,1.44725998066706,1.43157998978402,1.5005999995699,1.55054999970461,1.69704,1.83891998312616,1.54355999926261,1.50186916201997,1.47673613220217,1.47591134692889,1.47521340213392,1.56124029950763,1.54935038130184,1.46840000846141,1.45660995650592,1.46782003502621,1.56885131849606,1.53613319377263,1.53979158383904,1.54860814597472,1.54482138562966,1.5165066699289,1.51745340303056,1.63325000000652,1.39984423138277,1.35018712688584,1.35141297444485,1.38214994470367,1.40737580334783,1.40212156927107,1.42785908153783,1.63992000000211,1.54111013137171,1.54418701595921,1.37541831968502,1.37449168005616,1.39049003180363,1.43699008707012,1.46086622614058,1.47469388663312,1.71322666000914,1.71325333957911,1.59317455882375,1.3171379482352,1.30158016546091,1.31610989488264,1.35103010545132,1.38412299987998,1.41090555572924,1.40951843009294,1.42461278967127,1.33217001001318,1.32136697257927,1.32291893666033,1.32951998949658,1.3806987118805,1.39020320466012,1.41151761505438,1.42552768792177,1.42846579426448,1.36935995478112,1.38770967734722,1.43854001975366,1.39907732523107,1.45604964548213,1.46831726222308,1.45315399479067,1.44884025938327,1.46001566299456,1.47206878740334,1.47805020594169,1.50927510751099,1.56145999981689,1.63368000027815,1.65806003767606,1.70043461543618,1.69929342409949,1.73040001954571,1.6049812848332,1.5311200000317,1.49621412479376,1.4612435024474,1.58478499994535,1.58052499980784,1.74333749589669,1.74142240329592,1.80010999962223,1.34096997042524,1.31411692483964,1.31296887084591,1.31267471365188,1.32573989788911,1.34805964866103,1.40741997556694,1.50538999984476,1.64770000011951,1.50511999998155,1.25805661254217,1.26027004401012,1.25497688832206,1.25666690776496,1.25871815635624,1.3194761508517,1.31917350967645,1.34699367771724,1.33771630822126,1.31501958135123,1.26407995998447,1.2745332746258,1.29855035088501,1.33675002897562,1.38675000040413,1.39489000015457,1.52612999944885,1.45212000681721,1.45639999272075,1.27765181755459,1.26351918056199,1.26451301001306,1.26365735339974,1.3613387579228,1.39179984127473,1.45088395497322,1.45404591129604,1.37367551467835,1.24582007972586,1.28180999992305,1.31663399134031,1.31484208310678,1.3150990324614,1.31327296127661,1.30018004459517,1.28109993817173,1.29666973007444,1.31568578787393
1.81488978462255,1.78976838915348,1.69229235089862,1.69259412462537,1.79270994105872,1.74080000069018,1.90702998248182,2.05841166956066,2.05833833049093,1.73105999969488,1.75195158757023,1.7445856361143,1.78879096467155,1.89621999973762,1.86009027257589,1.90959429605713,1.91101143740992,2.01507000790156,2.02582997481203,2.11499999992444,1.77241796085622,1.74849666823651,1.69913996926732,1.67695488549359,1.67741546694568,1.73767999988024,1.82461,2.15310000000211,1.95381000005253,1.61735999986728,1.59582534260133,1.5636599997611,1.5267399653298,1.56524999985565,1.57989004392622,1.60320167182719,1.60140827528845,1.73530098635799,1.72053002282849,1.50344663244426,1.50784845524278,1.4928931743172,1.49570447252949,1.44287003501999,1.51948995620412,1.56307000029759,1.86849001527557,1.84666001648022,1.50477984853397,1.46065001345802,1.46884559105975,1.46206299850224,1.52378000041422,1.53419005729014,1.54802924527648,1.79607000000211,1.72462000000106,1.5718699905353,1.5569696619622,1.4043800003571,1.45175791567498,1.42404001594321,1.43667998441078,1.5363799825122,1.57982077284061,1.55987000738986,1.37698999957101,1.34340993244215,1.31955000043429,1.35764863844812,1.40908707766702,1.42845009729014,1.43580022104116,1.53039051844832,1.77928525042792,1.62035000000106,1.40432424912859,1.39985578165459,1.41059882821324,1.46433584275639,1.46271215872188,1.4682960676575,1.59985999999894,1.73104666043678,1.58963279411795,1.31924149205219,1.29104990262657,1.35416333400662,1.36526994961923,1.38559969065307,1.43250132158071,1.46727999999353,1.4544499993764,1.32103992337853,1.30655999183643,1.32630267950226,1.36936983761255,1.33028005557662,1.36634974571384,1.4585799991662,1.45627781795246,1.46737000005059,1.35819677810991,1.42091581608695,1.42105299376788,1.40575276046041,1.47267244086966,1.47443767699007,1.44876728611315,1.47109013610119,1.4589357939802,1.45105660845068,1.45304647087817,1.49000017354173,1.5258699998766,1.57721999975407,1.68010996254682,1.79388000000719,1.8965941416724,1.89014585833077,1.58938008506576,1.51257978008355,1.47760171926697,1.46223630191575,1.51727253603117,1.65554999505705,1.58224114712947,1.5918488530819,1.57119000003968,1.32063999352077,1.31298224683679,1.28510008544291,1.31453819732249,1.33287004240201,1.39115428134266,1.44431999405881,1.64494000040211,1.61749001036117,1.60476000005542,1.27245026155743,1.26269504767329,1.25619320252773,1.24563970041305,1.26061510968087,1.31851045281738,1.35073999976929,1.37733999951019,1.32160322174959,1.3219372032319,1.25306690976464,1.27275677100342,1.27274708252672,1.32541018369502,1.35800999996551,1.43206999976082,1.48261000055328,1.54773999960542,1.40928000012629,1.28073302173623,1.26445088714111,1.2659910941323,1.30838999910255,1.32333000038481,1.40402802744951,1.52398005786489,1.4293000001679,1.29816999995629,1.26840992036642,1.23015000014001,1.33661991435993,1.30653951854624,1.28752000181084,1.32270880405311,1.2706837165814,1.28110630435025,1.25082973303497,1.30545968835965
1.82610527177914,1.81798985187113,1.69922619073,1.69983732430433,1.77460016931528,1.81064999984261,1.76658333772333,1.76743666229321,1.8499200000015,1.75522749026002,1.75808538027742,1.76052379534539,1.79281906064576,1.79940003597383,1.82735000018652,1.95486012779701,1.91171426728471,2.00110209672504,2.00400617283741,1.96650007710882,1.76108959217998,1.74980332678691,1.73264032686295,1.69744000074843,1.81426999765298,1.73268000008744,2.05662028468946,2.04661185524734,2.01463367358682,1.65795997699943,1.63375294663443,1.63162360994163,1.55818000022944,1.5859428755276,1.59098058726239,1.58600655888396,1.72757,1.83850999999457,1.79242500000733,1.52092519583339,1.51647235736167,1.49298204990354,1.47268219816386,1.49964489737918,1.50232986100307,1.72998000024596,1.85682998459212,1.81782000053121,1.50264819569303,1.51238195632171,1.49219005189095,1.46735702799144,1.49707999961485,1.56759999957443,1.65055000669807,1.64962999292766,1.62658999277362,1.55971000033516,1.51048999786314,1.45117666742384,1.46310002266997,1.50326477679895,1.54497108681096,1.57222983891617,1.58135938053628,1.39810833761737,1.399861662571,1.35434969714608,1.36637443304356,1.36002072482381,1.4093373892973,1.41954521257109,1.46899461547981,1.53785948187668,1.77202474957745,1.47602999999895,1.43079995423226,1.3740000092599,1.41218009465518,1.45114854942958,1.45756645807428,1.4827799809613,1.70467000026628,1.72875333971503,1.59062220588266,1.3148869746406,1.3331699577398,1.35161666527388,1.38918000004877,1.49644997187183,1.48277086729483,1.53501666666823,1.3790084675189,1.37947160067457,1.33244751275138,1.33107674465082,1.37794019552694,1.34389998145964,1.37611025380853,1.47966999157582,1.45526917816357,1.40974997937751,1.35926765949512,1.42287707075547,1.42600408524466,1.44686999980271,1.49341996519748,1.48030004437544,1.46770997716486,1.43396000393455,1.45728007679205,1.46855040031441,1.51213998193629,1.47912990619264,1.55528044133262,1.5376995591692,1.5882600108793,1.59682998880283,1.61832000040077,1.59321000022927,1.57492839107751,1.50964809024329,1.475450929253,1.47198754824565,1.51157857514139,1.63109000466444,1.71086997308472,1.68217005488817,1.73436999970648,1.31026358511711,1.31079082165137,1.30847209879621,1.27806000830169,1.37294000045868,1.38861142827383,1.42801000550674,1.49147000028711,1.61360998862097,1.57840000044716,1.30655073912017,1.26560862472631,1.2340420360487,1.23437735304594,1.30167013556474,1.3628145056628,1.36435670979083,1.43637997412825,1.31425997594528,1.26487666159343,1.24862315197203,1.29202818230024,1.30488996960354,1.31563972810711,1.38982002289836,1.49676000000106,1.54751999960014,1.49577000041142,1.27058684706092,1.26868365239317,1.26908577459761,1.2684390097345,1.27030816544006,1.38588999994572,1.40608215972871,1.53833994213828,1.34765999991448,1.24336242391997,1.20508666423946,1.20427333592808,1.24181999962071,1.27662633477572,1.28178696570294,1.29927996446226,1.2624016063891,1.26485052114245,1.26283804941227,1.33291999992777
1.83094138052399,1.83764241317825,1.7672053951711,1.71695000024295,1.76800987626923,1.77688373023853,1.84699565663565,1.84462173277459,1.76403000053434,1.84552999930178,1.77903810800696,1.77532908392883,1.82835017448238,1.8140226859965,1.93574002663304,1.93629998278553,2.02682033875049,2.05144994201559,2.00421172106208,1.96100992297506,1.75277614783602,1.73433011995841,1.72277649565863,1.67170000026059,1.78963000260314,1.81413000016528,2.07146582936881,2.05285470447853,2.01716772371773,1.64538995161959,1.63433614439816,1.60375596274213,1.59012006876494,1.60732899753707,1.60784096345351,1.65729995786843,1.96244998365705,1.94722150888057,1.79080500000021,1.52232770687268,1.51995658245994,1.50728028442445,1.47728792999399,1.49638509919534,1.51269019060668,1.70882999975509,1.81401000000106,1.58205016928847,1.57596979203948,1.59085003866512,1.50302926342079,1.48520000070235,1.52800039692338,1.53312999904676,1.67602998833819,1.62026999037931,1.6086400166709,1.51988000034983,1.49703997994702,1.45336333335728,1.46809442032176,1.49336522343526,1.54350537822666,1.59235002070854,1.63735001321895,1.67190178592221,1.69694999998346,1.37585000321456,1.33625000206537,1.36317647357563,1.40857030037319,1.41935269801875,1.46176538408475,1.56671942614674,1.71636999972969,1.67657641519337,1.41207539136117,1.39474988854507,1.4173993380995,1.43312218450109,1.43252839801417,1.43532222271515,1.57763000017167,1.68358000000106,1.58926044117669,1.32728005296507,1.28757989660111,1.31604006722262,1.41899999948655,1.45849005042152,1.47366793934141,1.5353233333349,1.36893987445407,1.36051704669334,1.36105897531793,1.34424674490287,1.36109290290238,1.35798704902299,1.39166000033147,1.46166000781552,1.45336937797827,1.39828997688868,1.35584560874658,1.38750967538964,1.45384304827833,1.53601000007097,1.56220333288085,1.56129666662352,1.47871037641405,1.45688089639779,1.45582360355709,1.45449409482571,1.4657142380111,1.50301992538883,1.50902999972923,1.58661999988899,1.77293999967018,1.66202000009282,1.64273989669615,1.65345010287434,1.56065427880323,1.50707130884579,1.51012530238071,1.51215719609349,1.51040803705412,1.57499000039089,1.65238023990858,1.71079997186719,1.32026322286324,1.31013936507229,1.31000851677926,1.27952002832039,1.34808999359584,1.35161022147099,1.38771429035976,1.44610000052627,1.52479905142253,1.51949268808777,1.51963829124764,1.29949616807188,1.26880942727583,1.2314106500005,1.26520678708358,1.29332986482601,1.36720874435405,1.40559997598357,1.44784002544078,1.30169001128168,1.26522331692328,1.34749994380086,1.32966310541457,1.37645000001131,1.34630992135614,1.37430997672028,1.44110030438208,1.41640222437666,1.41427744866036,1.23228515685099,1.24446045053575,1.22962930952104,1.25931423615056,1.25769531621188,1.30257554741577,1.392862073988,1.38575791993599,1.31521999995328,1.243076051477,1.23609101820051,1.22603384324663,1.26424588190795,1.26820898734145,1.26837991003497,1.2702964140459,1.22660667045436,1.23011983335845,1.27525013241215,1.29386386226956
1.82639358713295,1.82487186359744,1.76984106929911,1.75167805206576,1.76025361812289,1.77716778750697,1.84576847825351,1.84504640786266,1.82090406926895,1.81079168974652,1.78629138085709,1.78660125901179,1.79991018172353,1.81131661656386,1.90071973799635,1.97028715262375,2.01945230061524,2.04953857307692,2.03836423768384,1.78874293817948,1.74568969247529,1.73249444663405,1.72634027387306,1.7050712465923,1.7701293120315,1.83487813748236,2.07554842350799,2.06997889746068,2.04064390128661,1.63127394043976,1.63246083116485,1.60593632329291,1.60745052292505,1.61087394744073,1.61718086675072,1.62953233948308,1.95474026021577,1.95356382493507,1.63909092369447,1.54544654529389,1.53321511935997,1.49266503001367,1.48926315895647,1.5021173897808,1.55194486870686,1.59196953561824,1.59118611679988,1.56703091888621,1.55560944219467,1.54215356832716,1.52612538053589,1.52559966325299,1.52619868797049,1.59227149124849,1.65318286529704,1.63699683410475,1.63011245851449,1.56208444989093,1.4843600657661,1.47525511272222,1.47707800750599,1.51201552272163,1.54899669978717,1.6024646447044,1.65564809830771,1.66469081446834,1.66060251407529,1.38169212994884,1.35855527961105,1.36614268338557,1.40737399236123,1.41328843371634,1.43580940045866,1.56556947723166,1.69199284349076,1.67829525409866,1.41007275723413,1.40209070062462,1.42400548883521,1.43311884902312,1.4317444169588,1.45339603775455,1.56594078169772,1.58778137325555,1.42270607817516,1.33636136520111,1.29407607906964,1.30113973570998,1.38249906195274,1.38572732114171,1.41074621541187,1.4104485687326,1.38556904155154,1.35826391978499,1.35573576518001,1.35159780254869,1.37707171116252,1.38534340888553,1.40964353161929,1.44507827567542,1.44766803347362,1.38272312696707,1.37036196398859,1.3971562780211,1.45998623733931,1.50009169375866,1.51162909764584,1.48837191429272,1.46676869858035,1.46069741393153,1.45501538108857,1.45520504705938,1.46887074755457,1.47999021466986,1.52463256373538,1.62580630009212,1.72090568231478,1.70183742898907,1.68135392746658,1.67143420923036,1.54565919019493,1.51093319665443,1.51234803613268,1.51356657212375,1.51786216851068,1.60770414745426,1.64543002426814,1.66421347836112,1.32230413192329,1.32281704859376,1.32221375065243,1.31785645348825,1.32718734324846,1.34503277781391,1.4108525361573,1.46951875093457,1.52327431313672,1.521169988585,1.52053588056379,1.29609817820522,1.27165272063854,1.25034662748103,1.26731555388514,1.27144647061659,1.3562361423178,1.39448202128432,1.40881825340721,1.28767798020414,1.27663746965494,1.30830923808165,1.31766558968277,1.32279810429687,1.33145465907272,1.39720889470238,1.43201595213805,1.42490457126986,1.31170039560691,1.23228517617408,1.2320395025194,1.23138894999948,1.25942739696207,1.2583934249633,1.30214316448166,1.38258879871679,1.36952117641703,1.28228760694364,1.24009249616346,1.23650419084959,1.23531673439934,1.26650328875077,1.26842423150608,1.26843254654881,1.26879915440151,1.23728858615586,1.23338707076751,1.2510695635424,1.2910068639538
1.82115117135073,1.794110183504,1.77266939152095,1.74220003131004,1.70904000044389,1.77769958886365,1.84547119005466,1.87487333308814,1.87500666668405,1.78910123182064,1.78768574521036,1.78864082129963,1.75260000074969,1.80451982728379,1.86859999949778,1.97357711083168,2.01785197244622,2.06053999992712,2.11122999988531,1.71948987026517,1.72628758843344,1.69644001524606,1.729450306376,1.67921000034446,1.75202999977769,2.17300000000211,2.08571653797671,2.08615843144193,2.04198203997291,1.62447396453487,1.62855925460191,1.59768766175375,1.60884728129595,1.61640216518452,1.71004000014436,1.61095000030931,1.9429165859897,1.94988829602594,1.58594999994033,1.56915999998712,1.55169841353354,1.47958911867525,1.48414680096445,1.5210999712976,1.59061118440303,1.5916853567522,1.58930663684132,1.52828067666388,1.53187925288588,1.49028000099321,1.52551765572943,1.52386025520703,1.52475791473693,1.63085,1.74258,1.8142349984648,1.65708996240484,1.59676826074459,1.47191619673173,1.47377803374594,1.47966892947002,1.54349999947418,1.55446383227864,1.61015978400872,1.71490000059173,1.68945909046256,1.65772152648289,1.40047999532075,1.34520002469897,1.38179998066318,1.40631084397229,1.40603845700791,1.40909853292146,1.56446343264194,1.75218999997788,1.67977641527976,1.40670024315603,1.36740663946549,1.43018051663447,1.43490692848237,1.43209578064564,1.47796995006252,1.54279997625829,1.64031997229647,1.36508999988635,1.35891000108056,1.29019192494236,1.29157794213966,1.3541100007946,1.37493999999546,1.40798739808093,1.40746564681108,1.40683788767207,1.33674833474077,1.29982571441041,1.30185314305973,1.39849985618148,1.40517014410135,1.45082001137058,1.43999316974873,1.44491486843271,1.35482801106887,1.34743184244374,1.40561032266137,1.46677360535043,1.47849999992032,1.54526999975943,1.47169997592215,1.45487002407503,1.5197199993223,1.45344727171816,1.45145397155091,1.47118491220072,1.47094964873647,1.54093999862811,1.82024999936662,1.77502452742907,1.78853001765387,1.73410999983013,1.70440999997422,1.53100384580589,1.48926609720216,1.48095976418461,1.49574998833431,1.5267400488553,1.63939155072308,1.63893826796889,1.72344999982837,1.32354999218284,1.32512516671318,1.32435769546686,1.31317882063948,1.3060453030948,1.33932258247622,1.43303332765941,1.49885666653007,1.52371715608489,1.5760057108328,1.57252535699901,1.2892920942693,1.27368459626353,1.23731006860597,1.26755235897177,1.25451074855269,1.3436800438906,1.37780007541105,1.49929833333492,1.28463962734255,1.2657333515077,1.30157030153384,1.29765098106761,1.29577627544829,1.32199005099959,1.42031999988767,1.45801000002262,1.66820000000211,1.25747999992885,1.20977996937123,1.21022014074105,1.23203924108402,1.25915692207405,1.25673607066313,1.30194358194109,1.47546994159377,1.34734001758751,1.24259999971521,1.20926999386838,1.184569620538,1.23287451694369,1.26958228381407,1.28165190486146,1.29995995134088,1.27893012345307,1.24017377846649,1.23153003528204,1.23833020344925,1.28860726197415
1.81650351780273,1.81443274266895,1.7402902650738,1.73120971438372,1.74759995327543,1.75790000043986,1.8665800003399,1.93490000031677,1.96448999968639,1.72812960875138,1.74374903152333,1.74392063258293,1.74220304848874,1.7922700222634,1.80882001306633,1.86198000000035,1.88593999998522,2.03857000120543,2.03828999898637,1.74172016204814,1.73287448650433,1.70956975700269,1.71679728847707,1.71323250896929,1.83119666666603,1.83162333333291,2.00516999999894,2.08668504569769,2.07735998449164,1.62540383106127,1.62735659120921,1.601057966697,1.60990621829151,1.6299483253996,1.72641999985254,1.779,1.92692998553744,1.61117655811748,1.61320287363364,1.5854200000256,1.55660636337081,1.51092999953675,1.46908003373968,1.57144170696081,1.57252833122764,1.62076999959988,1.6683199999523,1.56350999954702,1.54556002861045,1.5272701961207,1.5380939300999,1.54981996800998,1.59695000000372,1.72159991691762,1.85075999972651,1.81441500209877,1.64087000720686,1.59724167547152,1.46311735672437,1.47249524157712,1.48271385688044,1.49402210671694,1.53443014878505,1.6188701945265,1.69376111975674,1.68675367884963,1.42258018063484,1.38518991848236,1.37520005593597,1.44352995025875,1.43382979731027,1.41567649528723,1.41058297366104,1.48537994019857,1.5845999997998,1.5640300002002,1.4646199998729,1.3713928617928,1.40529286806344,1.4054585800278,1.43202408537618,1.46076003068904,1.55844999526691,1.62262479176713,1.62212523574473,1.33402999949498,1.30575987531536,1.3048601880408,1.39634985091091,1.40301499839758,1.40402177949642,1.42747000093385,1.36707000043379,1.33522166480146,1.30050114388723,1.33737999966414,1.35395979083562,1.37825999996183,1.53655999983761,1.66714000000106,1.4454467787148,1.44010003630029,1.36110013039757,1.34405004760528,1.39364999955587,1.4079800000722,1.50170999969139,1.44339000039905,1.39637490200553,1.45767839839672,1.4523056745916,1.44643846824856,1.43486275774841,1.46910406061438,1.80301000054778,1.77361718249691,1.77491827256327,1.81678999971176,1.67611833341092,1.62723,1.51475204577599,1.48724159879744,1.47333886541865,1.47563092849038,1.54966000005728,1.67186999959915,1.5852401018489,1.57961989863861,1.70625000000211,1.3607499882677,1.32433227007158,1.31275171260344,1.31473499889056,1.33244717830581,1.43016667179993,1.49868333320774,1.51405014090657,1.57330153648445,1.57339237761567,1.27568248503606,1.2749382361614,1.26631011854457,1.25707844449693,1.29582833268392,1.29522166659218,1.41774999957677,1.50013166666825,1.28622937830097,1.27572671296652,1.28470002332558,1.2910703618769,1.28596159465023,1.34467997539709,1.36044007286713,1.49251993963115,1.47455006019506,1.23197999140564,1.2274280473145,1.23259890929802,1.23264612277017,1.25944525816089,1.26364285669837,1.28115883553323,1.4611500584094,1.39576999979478,1.20545980360416,1.19320789847267,1.19628546586702,1.28463993595656,1.28803006361964,1.3002604331477,1.31405999612782,1.60061000000211,1.26901160505587,1.23556388409616,1.30895923641524,1.29884079820108
1.81921493412084,1.76948000069718,1.71262478290281,1.72019528068359,1.73107998642531,1.74288995395825,1.79635999987585,1.85375000000148,1.76669999997923,1.74735349502661,1.74228906384867,1.68916046227432,1.73115001263323,1.77273999962914,1.83731996831295,1.78951000035673,1.90981000001338,1.95410752570504,1.96336247455961,1.79524021038988,1.78871949869295,1.78930422990843,1.72772000028645,1.92781215971145,2.11192000025453,2.14081999994555,2.11923999948235,1.84088833333236,1.84096166666553,1.66446999907548,1.62782015777548,1.61410280745021,1.68162999931531,1.62506163367866,1.72746000000721,1.85020889660585,1.96045994862982,1.91660999987026,1.61376056844334,1.65893994402929,1.55810966988025,1.55751792560011,1.50883832944398,1.5093116708912,1.52569000040405,1.64256891749578,1.63838197625632,1.63956886063302,1.52995996447114,1.51628988785417,1.54804006861185,1.57629154598801,1.73543000050202,1.70296831588036,1.81686000033969,1.85279999937551,1.62750717109904,1.58008006324401,1.54733997369262,1.47441709870667,1.48571579197162,1.49585247487722,1.52778985060062,1.56661999975191,1.59249000000038,1.68350616192086,1.40970776236191,1.42164205663591,1.39243011314791,1.46292994678431,1.443448615669,1.47160042266032,1.45746528242723,1.47116005975869,1.72705000000106,1.44014999999894,1.38579823427913,1.37223050361071,1.40229855169198,1.43670758266107,1.43444533833637,1.53526995392193,1.54540011072533,1.74146000000211,1.46071999999894,1.42684000000106,1.28827586465312,1.30489680902293,1.34726965843486,1.38730897222564,1.40055790678859,1.45994999899181,1.42616032025534,1.3579404621623,1.34698564440782,1.44693999993719,1.36015020955863,1.396849999582,1.47562000016239,1.90879000000211,1.45224207180511,1.45016617532131,1.44729995715632,1.332689969846,1.37773025014703,1.36067954387576,1.46591418672335,1.60707000000211,1.39595331828611,1.39623887417685,1.43244146631359,1.43286693721452,1.43925712935229,1.46163186273904,1.50413000002218,1.75805034243102,1.7450596580806,1.79813999961495,1.67871166666255,1.51826999991669,1.50045019901037,1.48680254548433,1.437814874487,1.48664922830106,1.51932582875284,1.59652005465443,1.65868999991029,1.56503999969228,1.54505000004373,1.34464968083569,1.32859982951058,1.30468490435429,1.30021482814664,1.38382998202613,1.45419000030419,1.46049000052194,1.50633761755085,1.57768501791107,1.38137,1.31692999977457,1.28099154444592,1.2647499181854,1.24855441332416,1.25718959298217,1.35707002366166,1.36675114167875,1.4100500001952,1.28856081917531,1.25495003675647,1.31529099651192,1.31480295711201,1.31270386731896,1.314859986694,1.34949992700069,1.54355221133703,1.53666778866403,1.48757,1.21171006091605,1.19101000025832,1.24353034688745,1.25814940721243,1.25170778049478,1.2813385951948,1.31274995077326,1.25413000026828,1.21560019538805,1.17742005623028,1.2018568504904,1.2122348177922,1.34186702396605,1.3256646873869,1.330359508077,1.49632,1.27165834060871,1.23779574950188,1.25036997293684,1.2724500676982
1.88557797860144,1.94047000000211,1.77191999973621,1.68983797427775,1.7004186527789,1.73301009050802,1.7687000000884,1.80307999948721,1.74811348747419,1.73942692486666,1.73950576951505,1.69613953865546,1.79208999970782,1.83751997626708,1.81514453131881,1.91373006826357,1.98442902383592,2.01061004335509,1.82112000017683,1.76698009752766,1.78880198427817,1.79012716426975,1.76860999954517,1.93038713130483,1.93030711008607,2.04773231524318,2.09184008192027,2.11063991831877,2.03581949288324,1.6382502846442,1.63152895533396,1.60380717451914,1.64486200447107,1.64895209339128,1.63313977953471,1.84629110339521,1.94681005101253,1.86768006446335,1.89006039930185,1.63822005551223,1.56202749160377,1.55922200620886,1.53073453916655,1.53735546098449,1.59655250685477,1.59566723784405,1.65034024504732,1.59543000069,1.5250000415153,1.54518999354892,1.55952150767146,1.57747483853554,1.67519997228534,1.70544176641508,1.6016199998866,1.62847581237566,1.62897704681095,1.60414997563231,1.53034002660328,1.47520305551008,1.48897985033165,1.49275059311337,1.50153425570523,1.53473000040515,1.6728098810447,1.70081016652443,1.45109000003888,1.43746234090602,1.38297387284146,1.38451601496767,1.43398771310956,1.41193008308024,1.45563752593745,1.51633000017192,1.82012000000211,1.60591172293511,1.38907167552372,1.33132000068753,1.42876931658123,1.42646345624517,1.43556282898736,1.5217300461494,1.53844991755842,1.57214999982705,1.5576699998092,1.28564965524358,1.29814428726174,1.30427320092196,1.35780268824154,1.38872386720542,1.39797722848235,1.41307609382805,1.41932400906305,1.34565235296447,1.34662141187545,1.37066019212238,1.3897768653599,1.44489998401109,1.56252000000106,1.70411000000106,1.4668794091381,1.47044360114993,1.40624997697615,1.36774035675004,1.35598975643067,1.37460013379924,1.46087581337027,1.51008999982058,1.39270290650135,1.43121493642542,1.43226017784323,1.43269755453798,1.47098700489901,1.47195321604173,1.48399473952019,1.52654261025543,1.72738999185564,1.72899000779034,1.75842000046953,1.47884235031827,1.47442650408423,1.4321108592794,1.43491427060346,1.48418102941078,1.51220303092842,1.61731994539589,1.71649360762119,1.71096128544985,1.37460000024363,1.35685068014278,1.33306670314947,1.29119998698635,1.34367988726762,1.36482664492208,1.36533691830259,1.49985994699849,1.50969028091431,1.5152744463569,1.29877998608741,1.28640457760838,1.2833875702899,1.22393000061743,1.25647663752918,1.2580591549597,1.37002993608908,1.37635889128286,1.45954999957035,1.30859996862449,1.30130416094201,1.28684941024771,1.31455538052402,1.31368430705603,1.34384912377844,1.51533000000106,1.59083999983775,1.64036999972689,1.54518000000106,1.34350980694346,1.25877999986875,1.22322002752016,1.26170594231249,1.27750504499599,1.28376244450622,1.29802026290214,1.30227554809059,1.2422599997395,1.21170511744423,1.20726498628475,1.21549519560503,1.32445131790702,1.32280831945581,1.34095495637452,1.63314000000211,1.25381005359786,1.23474482703799,1.21867007344255,1.29142986145973
1.88368905494404,1.81238294817976,1.73144827246437,1.69291381892574,1.69639337146666,1.72699596932252,1.73440437252963,1.75386021117312,1.74620768427725,1.74294444032685,1.73666585597367,1.7346068725239,1.75433984299108,1.78452956818091,1.81968737454451,1.95846031646958,1.97800891656692,2.00917724034339,1.85562064842624,1.78756833560764,1.78779712524823,1.78770487608811,1.82396836770476,1.9296274760081,1.97259051897744,2.04011096625758,2.07806674689523,2.08978872943736,2.07184776346743,1.64666957415997,1.64529760012,1.64155186060825,1.64416161880549,1.65115928978128,1.69214828073067,1.78216990683019,1.89879726211216,1.89633335296271,1.87848107504472,1.61233006778888,1.56857862557105,1.56519289499523,1.55870887966622,1.56711142430313,1.58492644107392,1.60270078117809,1.62082879780535,1.57747885294363,1.56216487212764,1.55851741849164,1.57014975208952,1.58399660448942,1.66955578421406,1.68102278063178,1.66754244658214,1.64998753268676,1.63901249242294,1.58438550892038,1.55502550587722,1.50088919145372,1.50159987590189,1.49880162219114,1.50089144974387,1.57663002260912,1.68548248339651,1.69308185110331,1.46638966302789,1.43456779607854,1.43076241112606,1.43620133001119,1.44095764390195,1.44698123029715,1.45774750738609,1.53516122756467,1.62390821917965,1.61045298348259,1.37175502252216,1.36116927226929,1.39735974553004,1.43325328641403,1.43694840398499,1.51264789015036,1.52214975003088,1.54003494158692,1.38388597901887,1.30939936495485,1.30019675124601,1.30757712458528,1.35872456918334,1.39338661878009,1.39732330610449,1.40536298652049,1.41055311916363,1.36757086536394,1.35526192020455,1.3620227596176,1.38416266827465,1.43528365121994,1.47775177295466,1.51486945785816,1.46242453581654,1.43873497363354,1.38741152782989,1.3801282143223,1.37048723423535,1.37884228919343,1.4325725179195,1.46574530362202,1.43245865823781,1.43200344215167,1.43210065902697,1.43259919551573,1.44904044362426,1.45960795941042,1.48457151764132,1.52350094249456,1.6641821869725,1.67507716890259,1.69406984801188,1.48809339878202,1.47132160587572,1.45956568050794,1.45630653955288,1.46617258882514,1.51966773609316,1.55311498119352,1.71220583582086,1.71086383921211,1.39851163921602,1.34464984743722,1.33578909992504,1.33540114158967,1.35005079895081,1.36141531426802,1.37711274286692,1.48702492968329,1.5121760465933,1.51384848389121,1.37873073284865,1.29655671173837,1.28718565127676,1.28517166550172,1.27377448690873,1.28067165663425,1.34931557937469,1.36450523504488,1.39879684060084,1.36182072482569,1.30591790028148,1.30939899228641,1.3121138902192,1.31088674958616,1.33978538716102,1.38570704130093,1.55366652737054,1.57869939162841,1.46829542820434,1.35078816560388,1.28966366152629,1.24332732025141,1.26306176240272,1.27186067676114,1.29052142326725,1.30009418279571,1.30150943428897,1.27351725057182,1.22222703379636,1.22542956564277,1.23191220512607,1.29359803614084,1.31930730733789,1.33882856826537,1.38539023987936,1.2660319281775,1.24345486530127,1.23394317082514,1.27575842820607
1.88087292203105,1.77895999937748,1.68919000002043,1.66693000419424,1.67509999662699,1.72270765334136,1.71047165721228,1.76060541499376,1.73552418159552,1.75223029932053,1.73463915616175,1.7313548052412,1.71007004897466,1.74715995918124,1.82478720437941,1.99326000028941,1.95872947342248,2.03881004691497,1.86641000144939,1.78649168863914,1.78656711064564,1.78484133071754,1.8794299999546,1.92765867542221,1.98049000000106,2.02975938953023,2.05385934519072,2.09201295653126,2.10117704302949,1.66180000767404,1.64679529166008,1.6390275830467,1.63116770307573,1.66131001835382,1.72113998276731,1.74366997769771,1.90569329349084,1.93895937959822,1.86722998874659,1.58997999123317,1.57633387663244,1.57576088643181,1.54303265865668,1.57687576611409,1.57365413801475,1.61013014662681,1.70650000000741,1.5622484832074,1.56777753072898,1.55604745015636,1.58012134273818,1.58895014837894,1.64452999937162,1.69018995884746,1.9130131870919,1.92174441477511,1.96974999972969,1.56545008186429,1.59150994095327,1.51010013966224,1.5042626126086,1.48607807499362,1.48661141096992,1.6218499998575,1.71683000002273,1.73437999981237,1.48806000000412,1.42381954160463,1.42694215557094,1.50200999953502,1.45590055806504,1.45256527197852,1.46010825953591,1.55479999998938,1.67998999972992,1.61491940183849,1.3646599925075,1.33927994291772,1.36268906121063,1.43993918007467,1.43827473892688,1.48572007196921,1.49534997836856,1.57964666641423,1.32579981413869,1.3188903386368,1.29197967292903,1.32079004893047,1.35909054547827,1.59629000000211,1.39778616633499,1.39054090336047,1.45077999915627,1.392830000194,1.32370075147421,1.34686000057856,1.37403308060418,1.4244098434141,1.42509017585467,1.67116623052652,1.45675807365378,1.41120333345538,1.37779007900481,1.40246985587265,1.35257238464353,1.39719824547815,1.39303984842512,1.56760999985657,1.432763993391,1.39728999976265,1.42672368401867,1.43247399192996,1.43370415503857,1.45152482227388,1.48528276207269,1.52055861037879,1.65427501109029,1.65141494089674,1.72254000015645,1.49728137981269,1.46962154960503,1.4696601458035,1.44913187731887,1.41664999950528,1.52649021085155,1.42001999999789,1.75318475828189,1.75148527412599,1.4191400000192,1.33804661230611,1.33842257466813,1.33745136805868,1.35730210213876,1.35793872271045,1.39774999830511,1.47178007264399,1.58918029029569,1.58277419181611,1.51941865908776,1.31325994103471,1.29155008028582,1.29726440030971,1.26122961110449,1.28564008191961,1.32733999980194,1.35434348382739,1.48886000046095,1.52980999941424,1.25314757590173,1.30871950186059,1.28057146029184,1.25888459478357,1.33331190742939,1.29557999961573,1.52257000039267,1.69287000000211,1.43098,1.35773015031585,1.31934000006136,1.23330827470438,1.26283727244459,1.26361939369182,1.31577026700223,1.33551488284711,1.33696541898648,1.32763000992613,1.21886275866487,1.22827707752262,1.24638992309283,1.26549986053073,1.31656905859837,1.33679492784709,1.59594999967004,1.29322999324944,1.25918983180223,1.22547003455237,1.26406003812939
1.87638303502101,1.80019000023717,1.65716017472668,1.64834983206365,1.72590201464694,1.71885368610806,1.7141548139784,1.74850797607967,1.74603219540721,1.77169993962836,1.71132579763003,1.67666997735234,1.66083975131643,1.73775004100301,1.78396000008082,1.81717999994854,1.97627016890384,2.05329989790185,1.86712999853881,1.79863999984874,1.81399863657303,1.82493994204142,1.90413526005352,1.89773658187347,1.88856815872973,2.14273968132278,2.17666999944532,2.14850000040426,2.04663000054323,1.76401321455805,1.749823853126,1.75348922355199,1.66217000002547,1.73402999983156,1.69750001161332,1.75522002256417,1.94347599497996,1.94366105129178,1.89961999971408,1.68554000000136,1.58444516244302,1.59211456709294,1.54385712699601,1.61374000015861,1.66505352857472,1.61878000775583,1.58185000011304,1.54707005030864,1.58973491315925,1.57114003699915,1.58777630952074,1.60134993112997,1.66454000049458,1.90066989634859,1.90396695469756,1.93217554736138,1.71999000034288,1.77479999951947,1.54091827666205,1.50940502518997,1.50652693239784,1.57704999976886,1.49947004792723,1.52303499976745,1.60195000022734,1.75760000004695,1.70758000000106,1.44524990119396,1.40583834551384,1.4056716545033,1.45887021703838,1.46189694849906,1.4983616662983,1.58166777145596,1.62309611166374,1.61703567308221,1.40236005422568,1.32490005820951,1.36712499895799,1.36882167165292,1.4204522145597,1.50917651169938,1.50744343765779,1.58031333362313,1.33672614616124,1.24846333329453,1.32295500590547,1.33404998768576,1.38664973570884,1.39625616128822,1.39761641507627,1.38247995853464,1.4117400007476,1.35885999985569,1.31616924906286,1.38454775845004,1.3849324664703,1.3887603007891,1.44744000022508,1.67835376947665,1.45150453640458,1.41445666648316,1.3668000156895,1.35657193809286,1.35508566154768,1.39527184087068,1.43506999998019,1.5899400001466,1.38102057837879,1.37844938408038,1.42117810963282,1.42812421347146,1.43388442327207,1.4571850813646,1.52050005174759,1.64032908613112,1.63936596137588,1.63818500072394,1.58978999991708,1.49356897453159,1.46899000063046,1.44656381711345,1.41281000031536,1.44504291739712,1.56427000022205,1.5774099998519,1.72421002301802,1.74223994445972,1.70255997637335,1.3639201000887,1.34312345963582,1.29191533973922,1.35741602827468,1.37909997804392,1.38607015546758,1.52473999985053,1.59197551731752,1.5513000005749,1.51286134091329,1.33054999998377,1.28637022931902,1.28051252467111,1.27885732198454,1.3016781434474,1.29627578866032,1.36110739074982,1.52373999968382,1.48903000044522,1.25287084167009,1.25178358881646,1.25643441200132,1.25497292047998,1.25654097074623,1.3989199997612,1.62831000000211,1.54844000012316,1.35004999984303,1.33418000009304,1.29908003564066,1.23238177132579,1.26791095924439,1.27244979861222,1.30228973311008,1.35647999958185,1.32620968798765,1.29125000058388,1.25690014870321,1.24852986666546,1.29045992832714,1.27194021099583,1.31509817375469,1.3102796406455,1.56185000021144,1.30139998393982,1.26506012914725,1.23950994632809,1.291759999721
1.8785285149649,1.88943000000211,1.65654779695666,1.63143976455559,1.64125027391642,1.73003982983552,1.7694774366008,1.89880000007652,1.9209305395221,1.68231414712166,1.68225449627703,1.62793000090467,1.6749202712003,1.72243999987824,1.73834999986932,1.77618999993443,1.96122003091418,2.0393100551874,1.83399003340396,1.85920995856531,1.8362725180552,1.84345225850993,1.87185000013531,1.93125003481845,1.94107996455945,2.15205031893302,2.1950283295409,2.19662167021124,2.08758166640587,1.76598673679819,1.74961897579903,1.75248411872225,1.75413163518813,1.6784649980351,1.68212500745658,1.9132510800321,1.93804354651608,1.92028003716163,1.64813500277026,1.61066994474029,1.57745520177188,1.57829577530535,1.5516202753546,1.65210999941493,1.65918646191685,1.7601,1.90961004420007,1.57744998293706,1.59219500595329,1.6087836999602,1.6113126966819,1.61408080399695,1.68878000003249,2.08265512955628,2.08231485533802,1.71971999995304,1.68819000018355,1.54207022810208,1.54279149550774,1.49816321296854,1.49654422329195,1.45050999578407,1.4853700434355,1.52473500025021,1.58168000806782,1.63229,1.50293666933475,1.42755073951201,1.42951465266673,1.47302597052618,1.46517508117927,1.46462984872367,1.49400833326939,1.57584321565388,1.58288942299471,1.39201729875403,1.3919226464427,1.37093999939258,1.31349935591245,1.37116426789742,1.38011643843063,1.39099994034629,1.6099700000147,1.61288999972505,1.32726373722523,1.25003666692713,1.32357499478115,1.37526000445175,1.39567026368151,1.54837000022558,1.56717069497421,1.61501999988581,1.38185004811772,1.3174795347233,1.35767000033194,1.29278739554424,1.33462000012255,1.37892979122865,1.65222999986792,1.54771000007704,1.44807190754936,1.37679998928813,1.34588995153921,1.33085004878909,1.40383999986701,1.42613999952512,1.47269000052557,1.4886899998466,1.41512004439263,1.36386003914515,1.41550957987992,1.45083995233922,1.41635010828044,1.47816000025782,1.50941994831204,1.55475974466187,1.68372959370218,1.69243186864247,1.54481000037107,1.50918006237398,1.46889680339666,1.43680633013336,1.44747906083961,1.4453079249579,1.54006017072465,1.6353100000255,1.63803000033522,1.69878018344651,1.69024984050811,1.35281012498911,1.34699636060237,1.29152452387996,1.3040401400115,1.34106027481097,1.37773673171141,1.45954000012727,1.49222833316635,1.4947016663629,1.44873971057189,1.38887027840172,1.28257566360883,1.25375971308268,1.28847009768841,1.30898610073109,1.31469996084576,1.35844912322539,1.47656000000106,1.38501999943366,1.36077000000106,1.24878451845884,1.25769065451669,1.26013337271568,1.3259699995476,1.35456816351093,1.39293999951686,1.533300000165,1.35484999971006,1.30053997423222,1.29152999028674,1.27812273806262,1.27541086972063,1.28161885547609,1.4211366447802,1.42668733962505,1.30477999954749,1.27269808958139,1.27014074056875,1.2708921034086,1.33290000002126,1.38901000000003,1.42643062412448,1.5369851359955,1.5400939189488,1.3098335910919,1.29554034705294,1.28579960614071,1.38558333333284
1.72237842913219,1.76018999974084,1.64982955742503,1.64635052600184,1.6891000093067,1.74054010800713,1.77664827117127,1.77919434515928,1.91340946040561,1.68130972771133,1.68131255826791,1.6730340682561,1.64220007246608,1.68158996225612,1.74239000006727,1.75842994515347,1.85866682151953,1.95859936420944,2.00850999970648,1.80380999937335,1.83226465838305,1.83435435674537,1.82792564859476,1.83788999340511,1.89506999062289,1.99486,2.04101,2.16448000014883,2.09046833334622,1.738779128263,1.74245276559269,1.74064977967137,1.69999000047143,1.7263900001705,1.8487225105953,1.90957109001819,1.90797664857198,1.93794198768767,1.65115499426386,1.59883797953789,1.5710889994279,1.56539908037621,1.58609998104089,1.61691439612772,1.66944996562909,1.90383162608526,1.92336906337305,1.61143001243996,1.5687400590078,1.60408098315018,1.61405252143239,1.66123181284836,1.72007993869582,2.07208001510993,1.87777678272719,1.88000336307432,1.84996999928224,1.56430000024934,1.52117000389265,1.49743221999251,1.49554349153858,1.46256000532062,1.52013997377623,1.55735000006267,1.59992001016329,1.77592000000211,1.506723330604,1.42656129932978,1.42624337756697,1.44402633765778,1.46341736405079,1.47661991695572,1.61100997385861,1.56523964481602,1.55073992187279,1.55442928077669,1.33024167010631,1.33140534041454,1.31168048829626,1.34873302785109,1.37386990189485,1.37326520124425,1.39957994944421,1.51630000000106,1.33989025452265,1.28636999987873,1.30116999992158,1.36494634888463,1.34724998896188,1.60795023142204,1.60759525159029,1.67612000000314,1.39702043036543,1.32246046531822,1.27608000008131,1.30307260492663,1.40246305491766,1.40221714845807,1.60263999975854,1.57749339544059,1.44673532200052,1.36837998393789,1.3208199597985,1.30599006561626,1.34163993567459,1.34013520388834,1.44671999965024,1.59181999999688,1.41994995526107,1.40233984504326,1.4146599399059,1.41188472815946,1.44245935240128,1.4130700505254,1.49272005783503,1.56510540737717,1.68829886488512,1.69546967251228,1.59221999957269,1.5231999372226,1.46852207045997,1.46691105188638,1.45948731414975,1.45846417379912,1.53144400893969,1.53980321851924,1.68793276592818,1.67655652187141,1.67445488643738,1.34644058799097,1.34877512764583,1.31978848688553,1.28827999685555,1.35059785305431,1.37462307693358,1.42105537106923,1.42890630726412,1.46774865910095,1.46069059930737,1.37926972140986,1.28064598030086,1.26565165148712,1.27249417180216,1.28174393427735,1.34581407990261,1.38566373951176,1.38583274877731,1.41779000089433,1.26133037204,1.25734983507361,1.27377632009128,1.28848903812951,1.28846464634926,1.35604273313462,1.41883000069519,1.58080999971395,1.33087999997398,1.27193751499034,1.27461918428624,1.26909127030409,1.27323048419231,1.28174006482767,1.47058999942941,1.42583601610538,1.53341000000211,1.27340623708487,1.26627990695977,1.28960637522061,1.43921833331374,1.43917166707455,1.4641109119654,1.53003715005947,1.54043730451841,1.31623642498571,1.28403894032258,1.28542977482851,1.30204001400085
1.66841366249565,1.66589102255838,1.64798774728569,1.64688286665101,1.67966705615722,1.72163668086367,1.76892862518068,1.77201883482345,1.74013829674835,1.68066864076406,1.67955807975338,1.67634813758403,1.66417836866821,1.6725845938231,1.70238074144778,1.7481654178883,1.85735916028995,1.98295507253612,1.99463169793446,1.8238252868205,1.82904696081505,1.83899872294655,1.85919888040046,1.86528187199276,1.88545553596532,1.97816740132718,2.01551510754705,2.00281083221637,1.99863842110618,1.76473530423287,1.76282639165732,1.75827969992505,1.75452516257033,1.78831414280717,1.84789703223677,1.91012131652724,1.91710947639845,1.92288540102949,1.63508391534922,1.59966657753731,1.56712749734742,1.56536864981234,1.59997072262451,1.62020656022517,1.66860829000617,1.91714977907135,1.91841792277904,1.61903403957738,1.59240427483472,1.60578587740419,1.61956616449134,1.6665114965951,1.7062030848164,1.94144905188461,1.91739886739434,1.90782005990323,1.88917874602004,1.6122786682942,1.53366746840586,1.51169899399657,1.49322260481477,1.49181805400637,1.50578581767914,1.57871619249048,1.61183862681536,1.64859991903452,1.48244433516885,1.43574285143687,1.43190310171674,1.44753368480619,1.4612724229435,1.51547426357572,1.59126886232047,1.57843741905947,1.5466950821369,1.54344455772643,1.37413222333897,1.33207003845542,1.31610005069432,1.34624214900073,1.3746958970891,1.37474119093912,1.38211404009558,1.37602966445951,1.32427228892635,1.31732000581076,1.32647865535389,1.36182080158785,1.36642461065732,1.60751173036671,1.60750522848509,1.60769612179762,1.39831315700326,1.34054301503722,1.33344298159367,1.34404714926604,1.39442222792597,1.41333928270143,1.58030154126308,1.57300716455211,1.44680049519123,1.35462146897514,1.33027857911351,1.33544166922589,1.34250044840064,1.35265985413794,1.48059097764792,1.51763555694094,1.47592409990341,1.41815870453141,1.4163288124038,1.41478636591336,1.4368783560264,1.43861206215963,1.48745192859489,1.5691070676327,1.59956782237694,1.60264951085519,1.55053567388148,1.49650385581486,1.46844520092593,1.46673627145401,1.46337023646196,1.48331380879454,1.52906408924541,1.53921631916959,1.67673824984375,1.67733770937923,1.67027296796513,1.35046357341951,1.35126689773211,1.31690624809952,1.29925897739479,1.34224651463247,1.39493088727019,1.41739400485487,1.42646458536082,1.46575869712432,1.46330376495243,1.34627537724024,1.28049967460866,1.2685146685234,1.27088679977555,1.27970697591647,1.34369879113343,1.37413256018741,1.38403931357086,1.38404774922531,1.30272296708275,1.30251493303267,1.3032750770327,1.30290434556736,1.30096067229496,1.35477493143397,1.39471271400245,1.43792638522299,1.31062125852948,1.2729254194564,1.27356684905486,1.27277196920415,1.27409668643457,1.2803351510556,1.394868657779,1.41145135903161,1.34449170413413,1.27166701664566,1.26910594217878,1.2870871664956,1.37862767722969,1.46413061746455,1.49116014456175,1.52604113888908,1.52298804597345,1.29426665182862,1.28357340749606,1.28425506794364,1.29460358642655
