1.43675189757401,1.44461219506617,1.40256202654283,1.37896978853975,1.3489360769514,1.37361897323378,1.41299251394144,1.41890823872561,1.53109675058404,1.53271858717869,1.48970128495701,1.48034410836634,1.45689729474951,1.45715490449422,1.52162421618472,1.52577613973572,1.5485155419356,1.60404597784779,1.65296000067019,1.52011119037938,1.54846511844079,1.6030246765283,1.6118653747313,1.64764857756265,1.71074319437494,2.0333682692082,2.03474358645741,2.03471970463775,1.83668760555553,1.80681299086466,1.85408992893318,1.88210219674327,1.89509038342702,1.93963811611393,2.14782999917715,2.04102881535437,2.04118885755274,2.04247090364783,2.05638309020114,1.59599871351124,1.55310262900166,1.55520829587014,1.55587237037653,1.55202102131264,1.6721287856342,1.88888999917715,1.70049542527763,1.56354204761818,1.56256211567969,1.48229053529819,1.47144946403145,1.50985860933082,1.55877364172464,1.58738107115038,1.68181239593068,1.78075438610701,1.76501001655484,1.74459856064247,1.43542079580297,1.42624352184745,1.41628933722236,1.47327169078132,1.50225492003474,1.52577954606568,1.71215999917715,1.55554484283058,1.52455526094548,1.50880420319103,1.51230471439789,1.49974480510068,1.59354653374484,1.65948381481676,1.66373999896404,1.80591818822899,1.78724181053151,1.5942375297058,1.59545750950959,1.5993090848939,1.61073686925531,1.74693756845592,1.6936591742544,1.71290939507944,1.73269629831972,1.72479792517968,1.72677877678724,1.69691400831915,1.72022218154594,1.72428256996671,1.80678511100007,1.80450229743517,1.92958449253443,1.9119856962203,1.91274739817244,1.77649903526585,1.70619030631153,1.65423479335655,1.65519812344022,1.62990218518861,1.66203044396353,1.84726759928051,1.8142979108569,1.63270925652523,1.60891920599621,1.5113861548168,1.51352227605928,1.62214999926686,1.63702078879379,1.65808985158845,1.88882999994649,1.84443850186929,1.82589505209855,1.58639665986926,1.52306289864148,1.50500005171799,1.44176453848075,1.40975121273115,1.46984206528964,1.54301125558904,1.65055000022797,1.57649499620309,1.53308548513622,1.43319439089455,1.41721907154676,1.36940318838825,1.35456443194034,1.42770395654496,1.42984560627688,1.43758739939007,1.40879073197976,1.31550788837965,1.31561801374975,1.31475485858205,1.36378647893193,1.41239648687316,1.42674194939101,1.54457217055618,1.53949721530086,1.62471999949133,1.32955130444467,1.32922193638038,1.39532984115448,1.40095552008821,1.41740787905707,1.43443890611177,1.4357204263088,1.47487511369128,1.47871053155661,1.36131544031895,1.30484999960559,1.39704676645856,1.39831679294625,1.42830032259861,1.43007213044645,1.64397217631448,1.62491812509773,1.45380628333525,1.44117804903863,1.44225636621613,1.42036379808732,1.5109021695081,1.58478683221745,1.59813406663157,1.7062835056982,1.69160841091284,1.60297000000082,1.42258060395254,1.48159704504355,1.47949679054223,1.48559608753699,1.51577726507095,1.5909479045934,1.54498134455113,1.52285902544274,1.5627902493304,1.58230816182308,1.63662359528247
1.45713331308002,1.45188715479206,1.40808664711954,1.39002101011089,1.38599980801065,1.40199058909396,1.42481661662469,1.46364592649209,1.52880062947448,1.52988103492167,1.47878094811469,1.47347958938943,1.46425900871695,1.48657460786577,1.53629145196398,1.54325586158907,1.55630714036064,1.60873601668628,1.61291318392808,1.54625773053438,1.55914979645122,1.60079912741412,1.60722441668398,1.681322711379,1.75253768323755,2.03453542785179,2.03478993501224,2.03597970608429,1.83498003185329,1.82898168074306,1.84792424510711,1.86398433296697,1.90636151826696,1.94151174431349,2.03980099826125,2.04257747688281,2.04253990448213,2.0463150947047,2.0488421727921,1.56748667362663,1.55499829426853,1.55607396979937,1.55632918613985,1.56529273226137,1.64486190645462,1.71719891008552,1.70180133711266,1.63096384365443,1.55428237872403,1.52513217439803,1.512775584936,1.51166772013189,1.53466631500855,1.60188363367966,1.71219100051403,1.72531074475631,1.59957996826236,1.49314387614441,1.43243747615142,1.42923873795696,1.46096333268848,1.47278149030339,1.48372336141669,1.54573473783512,1.60334996785542,1.55169134998272,1.53222435462419,1.52848797433816,1.51913407466477,1.53526862676981,1.59989347277389,1.66065081196063,1.70471699193502,1.73642880015483,1.6423299319747,1.59467469155747,1.59561447222948,1.59724277149251,1.61764569278944,1.72737213493435,1.70059225006869,1.70736249382776,1.73056873437553,1.72793402542142,1.71665394152541,1.70833613460305,1.71507608212086,1.72690980410167,1.77177351535577,1.80433288318212,1.84075560444178,1.84263770713283,1.84681016026573,1.75100122386058,1.68281393579294,1.65523697110761,1.65551622544022,1.66085347745954,1.67287352499193,1.83754273261221,1.82800221460277,1.6281119711605,1.59397103379141,1.53849788982217,1.53252891867838,1.6514095607187,1.68389485166092,1.71614272704554,1.82468118125579,1.82738132131021,1.81868549533467,1.58502266805854,1.52004612501975,1.50375623164556,1.45272492891752,1.46107171973766,1.47050167536187,1.54241765034587,1.61689563806412,1.59625855073212,1.52432755966844,1.43126522642905,1.42486586771916,1.36755458959187,1.36601040133752,1.42994804339855,1.43174728353373,1.43507812921809,1.41959265864473,1.31606018536759,1.31511324410507,1.31485953877553,1.34113936265023,1.39772187790522,1.45004445095507,1.50257380062005,1.48879172738808,1.43792219942679,1.34247150643539,1.34578284752403,1.4004052437006,1.40293030188593,1.42423580182918,1.44054046067463,1.44394665454885,1.4788303598551,1.48083904387005,1.3616600222962,1.34496681494747,1.39724641811031,1.39816227603746,1.43186799251299,1.48668233360395,1.62417016947705,1.61410239833028,1.51781333352983,1.43965408661053,1.44079945216121,1.45120976898497,1.50453107964014,1.5670240271698,1.59308531888031,1.67654099452936,1.68518171227271,1.64199627564156,1.44890851852328,1.48082134752376,1.48132068257484,1.49214274524697,1.51581057385852,1.51681819270228,1.51864623315257,1.52075876509085,1.54792895236891,1.56369339332569,1.64869280681822
1.63835999917715,1.452795809804,1.41940966073506,1.39490217177691,1.38215536753912,1.41447857539446,1.43827704674917,1.49673741927863,1.5266741785756,1.78084999917715,1.45542401379816,1.45742277707672,1.45138328937205,1.51428802695669,1.56096879212508,1.56503845779551,1.56581059457265,1.66173980369454,1.61826604892375,1.52988186382205,1.57863117917033,1.59865435697047,1.60435279923212,1.71946927059114,1.96634999958858,2.03676138770351,2.03650170880374,2.03965810581295,1.83251161053738,1.78584077368571,1.80245142378829,1.84936069885181,1.91812903500099,1.94171999788531,2.00744783946563,2.04700516481631,2.0433731154756,2.05720558498014,2.07554238094735,1.54777495241536,1.54761163092614,1.55641737381387,1.55593675956166,1.58191934465083,1.61992999870885,1.81519366124337,1.84868588779433,1.91094999917715,1.54714072127799,1.53283220735132,1.51495209154619,1.51426659487133,1.51623752042663,1.6161193715768,1.72204964170779,1.85705999917715,1.59490586651901,1.4194004203395,1.42508172740297,1.41977861136655,1.50083178538586,1.4724623460488,1.47122505540297,1.56763728180171,1.79437999917715,1.54870623827098,1.54121880930043,1.53688858196969,1.50967648753419,1.55880893893352,1.60664987891119,1.66187907855776,1.99377999917715,1.89786999958858,1.57573714983025,1.55544655025551,1.55970270373031,1.56208963725913,1.62502269354078,1.7905299996412,1.64071000023149,1.6986251775116,1.83946999944431,1.790479999841,1.67929967484074,1.65848411250844,1.70040777181797,1.72985858312881,1.74180915615609,1.80420072311262,1.83872823603423,1.83990806688456,1.85000205089972,1.71637999954094,1.63326507636772,1.59722175664946,1.64004603442075,1.67616911632893,1.69125000481684,1.91531666604953,1.9143033327162,1.62758681598896,1.58063991780636,1.55166528372391,1.52218197139358,1.72408752675231,1.72420736188474,1.74841999985563,1.82174503644471,1.83000902206309,1.80260116566108,1.58494069741621,1.5178332399761,1.50265553702206,1.44140190296859,1.4739407462023,1.47155084765074,1.54195920764101,1.69619999952106,1.74789999924467,1.51531944213026,1.43140653260248,1.43269316887785,1.36112516776657,1.36397967967842,1.43962164050018,1.44430843590368,1.48095000040578,1.5110800003652,1.31768125045618,1.31448545446611,1.31563356506186,1.31741082494101,1.37869359870829,1.47736995759613,1.56010999964003,1.4814905989663,1.39278841128513,1.33777072396958,1.34821827672033,1.41452158117552,1.40933737995332,1.43077878751111,1.62304999958858,1.77620999917587,1.7079501909926,1.48290371425004,1.36264788706922,1.32411259114362,1.3964422814546,1.37861122262507,1.43463728142478,1.54706000001691,1.71112999917715,1.59153952470436,1.56805000015494,1.43728974687933,1.40505999926153,1.46485329965134,1.49903933061885,1.54846267633176,1.5873898942966,1.66512572006975,1.73672110902425,1.74416833931012,1.43311187016904,1.47779554866429,1.4820878569218,1.50626277190399,1.5482577966005,1.50924426086717,1.49660161391291,1.48578952350919,1.53868919738914,1.55626109321416,1.65814263709744
1.53376684721694,1.45719946654404,1.44659686348205,1.44008925022806,1.43038481324094,1.44584659540826,1.45417782919129,1.49020691415539,1.50061573804871,1.49544802583732,1.47153539491556,1.46013633770919,1.45576883122184,1.49794055809099,1.53342060434532,1.54780052999662,1.57463147924867,1.63371836869562,1.62579626566598,1.55991330314331,1.58597425590784,1.59690394102132,1.61101019786531,1.6948091134397,1.76116521162595,1.99038462318816,1.99178918021547,1.99428618240291,1.86178491106264,1.80593201530306,1.80519100162102,1.83895875039018,1.86574817388193,1.9377452474233,1.95203271671339,1.95197641244821,1.95342438129551,1.9579326072363,1.96573773014783,1.56113687805343,1.55608760538186,1.56269956078371,1.56698247452564,1.57845763801348,1.65181267381145,1.8487029732284,1.86152469749213,1.87549299875042,1.53031136325275,1.52690641479085,1.51485969680596,1.5147333804259,1.51559860501241,1.6151216268791,1.74176047563233,1.76452893507594,1.58537627532731,1.42024008388808,1.42127526488413,1.42028453463617,1.47379491711569,1.47342186002446,1.48956619083492,1.57331603836755,1.60709924721556,1.55014685960359,1.54201283924992,1.54079339194711,1.54816405314142,1.56689273871052,1.58830050507545,1.66290475565857,1.70003533505904,1.7313617905705,1.56950348830879,1.55586417249173,1.55745412902976,1.57048934343768,1.61582251189118,1.72890702348467,1.668835214604,1.67302437886597,1.67374029105249,1.67339013907504,1.66809122899444,1.66436246321034,1.69228439014054,1.70557316658457,1.72144758844389,1.763858362861,1.82578220666386,1.83860736960714,1.8459403947936,1.77060242209582,1.62798785583672,1.62284123312952,1.62919449282761,1.64554163241412,1.6995972370909,1.85551492383196,1.85514291014958,1.62618340608895,1.59214031772419,1.56149416658777,1.56400169326745,1.72284212271584,1.72339678427914,1.76745709002851,1.82417917352856,1.82687649342148,1.69095597524523,1.58600925465858,1.52714925248253,1.48997761437851,1.45315084546198,1.46024725192812,1.47089138521094,1.51743707743498,1.60165102854891,1.63566240833524,1.52929095717781,1.43175206576466,1.43261016835473,1.38777518148001,1.38559314678356,1.44431411571745,1.44687548039183,1.45039963540662,1.43632186554606,1.3546819561317,1.3501899055196,1.34610024195769,1.33729496106967,1.38966415805574,1.45539026142301,1.47810894650509,1.47656320334141,1.37823395994633,1.34179393470941,1.34510011175005,1.38651063738936,1.40521605698777,1.41393793085976,1.53841373892799,1.71562728205308,1.70400342397527,1.48358435298869,1.34712690441628,1.34112713259761,1.37952081992292,1.42036479004241,1.43828661287051,1.50248115773066,1.62310195293249,1.58243346741569,1.52336784406875,1.43537568704165,1.43483380675844,1.45100828755096,1.47743904209573,1.56594593287685,1.5819794712197,1.62323246110285,1.72146881500416,1.72144350680337,1.47022622802645,1.47293602785042,1.48273544341283,1.48353038909712,1.49118017980782,1.48829107038178,1.48608768886448,1.48524597235241,1.52304462840217,1.55820056698446,1.65638271019901
1.84396999917715,1.46506842182908,1.45746319453752,1.45513765256619,1.40988134403607,1.46589674851607,1.4721953110626,1.48028067888504,1.5051790105665,1.48778335956776,1.48264334457906,1.46312344980845,1.4452840765131,1.48880943334012,1.51017056921879,1.53465085286319,1.58017763462574,1.6404659748126,1.64729205028832,1.53136999953038,1.59885327169767,1.59538429691391,1.61776070645643,1.67653320306141,1.71353170454335,1.99332309505489,1.99332347002781,2.00221755475383,2.00241908523038,1.80462223579732,1.75467136691113,1.82469551840743,1.82736738471682,1.90284481617405,1.9421407921674,1.94188673969423,1.9517555637539,1.95133424986432,1.97603642028185,1.58884833708767,1.53483198605753,1.56710717656521,1.57382073056744,1.5753846561073,1.67750028569034,2.02276999917715,1.92123738182847,1.8921053483499,1.52327020349375,1.52184421094698,1.50190532528997,1.50881507080174,1.5029766635607,1.61428081556645,1.81472168982529,1.81428830943245,1.57188675013387,1.40157084060628,1.44517071505338,1.41989467429536,1.47053602197223,1.47486114976214,1.5021772049045,1.57951666348626,1.67535999958004,1.55181411227816,1.54129425303272,1.53902949362075,1.55516038418591,1.58391827828564,1.57547878257501,1.66264378463844,1.6608402213221,1.89651999917715,1.53345212506947,1.50935676905104,1.55354657446951,1.58200533540569,1.6069749337783,1.81701999917715,1.66650343674967,1.67398726624563,1.67626533502813,1.67477881612692,1.65089861380917,1.61587901414954,1.61525899902462,1.61404438509485,1.70031947860797,1.72489840641835,1.80008316828909,1.83745981069982,1.88801999938286,1.88753999938286,1.6060767135801,1.6158183709891,1.62547525476476,1.62609545221134,1.70571698671321,1.85555925509544,1.85444325188304,1.62271997810335,1.61752402762146,1.5595018566761,1.56685293084131,1.72050046798262,1.7222708214446,1.80077000070327,1.89146841296652,1.90056158579921,1.63197987309047,1.58741062412511,1.53747594857157,1.48056543270964,1.44907457290247,1.45100288385435,1.47085096801062,1.47141979555819,1.56535088293572,1.74448999917715,1.54279964547101,1.43268355148217,1.43474015113264,1.38997662629141,1.38314168701315,1.46250879134464,1.45386830306271,1.45208236226055,1.42742134361644,1.36511387322808,1.36020155352312,1.35042689850237,1.32592910723997,1.39964722186043,1.42767666566934,1.50876000120062,1.47888591059054,1.36596076285647,1.32068253775432,1.34430855232535,1.36134999817941,1.40238373805555,1.40098398760091,1.48168000041171,1.72095703647679,1.70134369076656,1.48412700309896,1.32257004742006,1.3341527953631,1.37032866054406,1.44802896332939,1.45029971388702,1.45140496275581,1.89212999917715,1.57564490050534,1.48052481335027,1.43503676535167,1.43531588609016,1.43502371825398,1.46739760593288,1.58013110728714,1.57888648167512,1.56116680376854,1.72136875568715,1.7212743538044,1.46706059094031,1.469753219026,1.4829467454354,1.46868895092479,1.49432014565042,1.47598082721781,1.48142702243818,1.46845189793586,1.513461683042,1.56076450223583,1.65444833445854
1.59287771719334,1.47469532813274,1.44988791830629,1.44514266639925,1.43777127515476,1.47188471852434,1.4731656490902,1.47876441727515,1.49300492457685,1.48730502652387,1.47559895776235,1.46681639809916,1.46900258947761,1.47318354922745,1.50960742975834,1.55626224504184,1.5885049681941,1.64142395862573,1.64369406753184,1.57974297380365,1.58756148706729,1.59048170310025,1.59818849872921,1.67949141006908,1.7309362213914,1.96925655927975,1.9675965396921,1.9675273926964,1.96506740378112,1.79033659760207,1.77999836229076,1.82309064158533,1.82460152318612,1.94418196762934,1.9456588746915,1.94881187678531,1.9522448456603,1.95684331495422,1.96135616090546,1.62371525976505,1.5898477684102,1.57444353730841,1.57458065374263,1.57660325133213,1.67186480154315,1.94833838318731,1.93364492017933,1.92128265852859,1.60485910695292,1.53573661425047,1.51647363965298,1.51743467487102,1.51779695906381,1.5540523817011,1.55450464171923,1.55408549870765,1.5531060545857,1.51979374914054,1.48885888122669,1.4594877091004,1.46205967578764,1.47682474608228,1.50102633988591,1.56254502202407,1.60876041312476,1.55350197052681,1.54108470355325,1.53978815839226,1.55548547935873,1.58600920497374,1.61653481536863,1.66818119249781,1.6758898589353,1.69293801535384,1.53166152344372,1.51782301351424,1.54207060138437,1.55796556123682,1.58247013354304,1.65995735809988,1.66881217954264,1.67345786324518,1.67441690719286,1.6740941849085,1.62828653277197,1.6159740862028,1.61554604696474,1.61494222345891,1.68435475994748,1.71168836908476,1.8214993049958,1.82554284610709,1.82476886208344,1.80388238991126,1.62248355974696,1.62131726732033,1.62441374772476,1.62541272485118,1.70103411870459,1.71851718836004,1.66090580326749,1.59341724718425,1.58654717075049,1.56753313651446,1.57390960570997,1.69193869585528,1.70407253280031,1.70482492117908,1.69633344561268,1.68547134867893,1.62219501815255,1.58902098753337,1.53582622326667,1.48212709224451,1.45139793703755,1.45208468757654,1.48799145404538,1.50576206675616,1.56865430313026,1.57096813486629,1.51458670940901,1.43246127799436,1.43284693062465,1.4096723640105,1.39715814455787,1.4201073905896,1.4555009252186,1.45367407199154,1.42531191355754,1.38689820562741,1.36384686173866,1.36751922753188,1.36715677753523,1.37675189327816,1.43499196484018,1.48180510510206,1.48136113141661,1.39831786318981,1.33538660268501,1.35086733924924,1.40636197016357,1.43119374290378,1.4498045081966,1.53835507096082,1.68339817309704,1.68656420642455,1.48482130483487,1.36816201963443,1.36198827487368,1.36452169941276,1.4650160197125,1.48428441138687,1.5075829346178,1.59980627469456,1.58942951572687,1.47921985100079,1.43542843071016,1.43607424147881,1.43553215170622,1.47915395257115,1.53800858847046,1.57748594622984,1.61714295343787,1.65043765279245,1.50637263510686,1.46779736496494,1.46886987839282,1.46914129584645,1.46914788077452,1.49189238378134,1.48913007067149,1.48667139794292,1.48628904545846,1.51020549119261,1.5348980342697,1.60577030289404
1.88766999938286,1.48041003663982,1.41823437559687,1.41987828842266,1.42685857713838,1.47758057798369,1.47568157092203,1.47749841865156,1.52005765700518,1.48646556833837,1.46595171788952,1.46808456277045,1.47022883143068,1.45792776757402,1.50899646530501,1.57468048521719,1.59833155923856,1.65561279844748,1.65523418426616,1.56817888493727,1.5853116393115,1.58459407880659,1.58603003004727,1.68204304903424,1.74540828509356,1.97537070619002,1.97062018847853,1.97203197579054,1.96421140191817,1.78384435779195,1.75030075699079,1.82102945353623,1.8244334550777,2.00033233583491,1.99801565501393,1.98713794381122,1.97835635662329,1.97299874610893,1.96671677715256,1.65214888628128,1.61018730897303,1.57429919320172,1.54413092800232,1.57905958797691,1.66680331545208,2.08658999917715,2.03750052756475,2.03931999917715,1.63924000010606,1.56471812048215,1.51581720956935,1.51755282085275,1.51879237510819,1.55289948526327,1.48269000026978,1.533241207091,1.55201258399097,1.76422999917715,1.52337637512351,1.45507095316704,1.4583761664707,1.47857782539155,1.50098106522856,1.54630769494822,1.86549999917715,1.55490728389151,1.54097179762641,1.54000438076497,1.55412732977095,1.59048708574703,1.67417235485064,1.67105039012629,1.69058914616171,1.73029000107363,1.52857052357336,1.47005036429291,1.51625778500759,1.52799378585479,1.56237393902297,1.6497399997054,1.87143112340395,1.87468351888083,1.87444722134752,1.80583999958858,1.61350054405357,1.56080083736608,1.58290554129995,1.59710379041085,1.66796974163109,1.70234025086656,1.82934398680686,1.82645199788202,1.82496360671066,1.7814003583284,1.62306746253292,1.55773999895575,1.59595385178592,1.60230857461826,1.69497056114454,1.75100000043372,1.57854218844902,1.57753141406635,1.56531940121967,1.53386181106568,1.59049845519586,1.68270671752564,1.70392938665626,1.70539554506324,1.69074910870848,1.67899097623949,1.61403844477306,1.59286913636183,1.53398919735179,1.48479563630737,1.45144019438902,1.44054276866731,1.49149735209484,1.53071133967238,1.56947327939466,1.57374343893431,1.48965979505319,1.43191982407567,1.43134591337159,1.42598868001869,1.38111287650071,1.40011992134018,1.45910258739744,1.45897121031453,1.4225958521946,1.41373931401579,1.31829999793275,1.37020112895383,1.3738460712946,1.36518157980661,1.44335381588652,1.79100999917715,1.48302613776382,1.42972000112,1.31211999965364,1.37437384168424,1.481767711929,1.45992398325036,1.47582620065808,1.64405836973784,1.68037151987418,1.69027064174779,1.48528031797047,1.37748112729533,1.34998574148895,1.36112082670091,1.53006757261861,1.51134907378176,1.53035405634687,1.61394911563405,1.72711999917715,1.47908264604952,1.43575346905104,1.43854033537354,1.42078876868642,1.4894167474127,1.49265997341696,1.57639009939158,1.74403131908353,1.7648786796822,1.41728990347445,1.40689126207671,1.43777949322917,1.45050977383337,1.46319930869245,1.51559357699462,1.51359185814343,1.48625472000714,1.48587478799441,1.50373142767175,1.50013558981448,1.55136979676471
1.52329142349716,1.48074928708114,1.43692587125688,1.42557610983865,1.43207641447657,1.48457464034595,1.48712695020711,1.49447024280731,1.49929842036717,1.47156011527304,1.46762872046518,1.4687844243683,1.47005353636809,1.47540914688791,1.52190203824978,1.59184074627613,1.60647098182667,1.61572677303919,1.62516549363617,1.60203580169956,1.58369347610399,1.58219365452038,1.6020357444437,1.67713666710774,1.78508124490798,1.8885163305194,1.88832847138259,1.88897620104809,1.88994530857309,1.78280116455174,1.77213117998555,1.81760651010339,1.86892046042733,1.99450058975848,1.99161555232814,1.98533157156816,1.98056957243687,1.97816130589223,1.96696682930635,1.62132923767906,1.58864132828299,1.57455404262246,1.57425210658874,1.60451856101913,1.71235781338115,2.03217625606089,2.03473905929723,2.03282984754064,1.68885972215062,1.57306947528461,1.52219732931208,1.51864758579037,1.5189773140173,1.55223014206645,1.55163098030683,1.55122890501671,1.55103920819408,1.54999752320211,1.51842766266013,1.45754489180611,1.45851246904851,1.47928991366549,1.49797651683544,1.55717294292335,1.61940274772392,1.56611149095585,1.5421416361305,1.54190907183149,1.54627071396399,1.56887410728968,1.5960630689086,1.62433137089876,1.64824642922628,1.61010496229134,1.50948633328267,1.50336521735616,1.51028240550346,1.51606868937066,1.56232618226758,1.70755594706292,1.83432301682399,1.87804788355077,1.87635536175615,1.74312681616145,1.64857533221553,1.56714661546356,1.57513394302035,1.58288828423975,1.65121421701674,1.69248041322255,1.82825394273555,1.8269312449431,1.82610105077935,1.69290707536069,1.59687416819891,1.58844108531784,1.59243982982983,1.59598910324739,1.65744236960711,1.67618079030395,1.57616732646836,1.57639491818361,1.57254001374054,1.55392749715229,1.56303214390681,1.69424764777022,1.70319380258286,1.70375237427644,1.69665352021022,1.62995496738575,1.60017978717327,1.59704011611336,1.55594252587656,1.48244111029809,1.45496141539546,1.45303792012924,1.49402117046572,1.54258861953174,1.57047271006123,1.57169508982292,1.46673246284726,1.43135325761997,1.4300561015281,1.42814338614468,1.4290237342837,1.43713273444453,1.46157983595034,1.46162720767166,1.43438082975699,1.38584260943392,1.35186611727556,1.37204041197936,1.37204749592651,1.3697666035998,1.40958306850938,1.48226885582737,1.48369996587551,1.40140744273239,1.34959117576105,1.37562672376897,1.42875885434024,1.45087070762036,1.4530146544628,1.62959095766018,1.68320268934303,1.68637169882531,1.48455394286994,1.40466568052027,1.39081389487595,1.3916963287674,1.46259117747764,1.50122344427158,1.53227868694565,1.57521383981456,1.60548816228968,1.45792555703601,1.4339308812986,1.43546458205607,1.43425213225676,1.4578785710231,1.54031240495619,1.57602928452116,1.61016451479436,1.62991941976547,1.41409922206264,1.41067702220576,1.42616725024711,1.43747701122834,1.47420615616656,1.505788575662,1.50166157942706,1.48651343983857,1.48603116332306,1.49697157309623,1.49812484281614,1.56279589993588
1.51458551959073,1.48151077701893,1.45598183611266,1.40998282636795,1.44082782361624,1.48695281772569,1.48882544852246,1.53836815208089,1.86679999917715,1.4467972070871,1.43477563167793,1.4459614829206,1.44427301752064,1.50031911823221,1.53781878285886,1.63580862666766,1.61229304437285,1.57227999835335,1.89582999917715,1.62298722467179,1.57140479855465,1.5771163567943,1.62687274494518,1.67041463227084,1.8907488725266,1.89025089346238,1.88932529681504,1.89061157589174,1.89277946758989,1.78066577302043,1.75894323590954,1.81507523759155,1.9801699990466,2.02018999971913,0.00430481746774559,2.01162108865555,1.99565157382265,2.00469882807356,1.96762854272821,1.61406897533476,1.57717825843203,1.57529700485552,1.57402343623686,1.6344008707495,2.02062034829715,2.02313613187874,2.02977497642422,2.02450902244999,2.02819105549269,1.58467968333715,1.52724544444065,1.51518855538228,1.50493764157611,1.60925000076397,1.66828999958073,1.80669999917715,1.57545141113367,1.54897153049416,1.51410587048807,1.44485645905525,1.44411577811614,1.47884793800257,1.49549044302541,1.5680818762937,1.87652999917715,1.58715689497923,1.53444164542765,1.4854283255576,1.48721304171705,1.50818277679213,1.56120000424605,1.59681992619155,1.70547999982276,1.56102910844956,1.50015437285854,1.49263154822121,1.49533106496777,1.46611059328708,1.56251555723978,1.82896762500002,1.78957679318958,1.88209037912712,1.88348854810599,1.69208000013655,1.67659192047449,1.55970864855701,1.56526984753441,1.56061499179254,1.63731050805819,1.68282999435103,1.88632999917715,1.85542275527813,1.90988999917715,1.61216000028384,1.58518468570032,1.5840450480048,1.58759092515023,1.58900629210069,1.63960002493569,1.7112400011379,1.5735088008744,1.57586363621682,1.5776746694752,1.53553330715144,1.55128024298864,1.72402995907686,1.71967270541719,1.91470018217944,1.94056981658628,1.53077516077873,1.51863484023315,1.599444252288,1.60321831499885,1.48104761296728,1.45711980027891,1.45059793378305,1.49682400349451,1.55886228547374,1.7090001444727,1.7034262253676,1.43360451203255,1.4319782095281,1.39871556508776,1.36823259877139,1.43086633612309,1.45934292313886,1.46131999515832,1.47848000073571,1.51629000021345,1.3685437033416,1.34352002384968,1.37230439302081,1.3723948240514,1.35675734402061,1.35660856823875,1.77048999917715,1.48624279862124,1.37628464603335,1.32583094110642,1.37817513714742,1.40727097543267,1.44181316684478,1.44144892550088,1.61658110250016,1.73523986895566,1.69920893923596,1.49594637122539,1.42476863929687,1.38997057469632,1.39257825082599,1.41623103707055,1.49629869952387,1.53458625448021,1.54731984340843,1.66935999957586,1.45593744055758,1.43047873410538,1.42872204174612,1.43086196683866,1.43894043751167,1.58038529839817,1.57661996402007,1.57404756069179,1.68044000022798,1.38546914112478,1.41034829969747,1.41221152516514,1.41293870700121,1.48496959826213,1.52068831455824,1.47536277490658,1.47325435088971,1.46277264105932,1.45195163900475,1.47488099174158,1.5746272043353
1.52347650770311,1.4833617308862,1.45188094732916,1.42893385752329,1.43368688957677,1.49069911460722,1.49284108915304,1.53346101311907,1.52708289737055,1.46260990022858,1.44824141761593,1.4480656117089,1.44927404468113,1.50942142423794,1.55497755087283,1.62614895690086,1.61797997437152,1.60819811300345,1.59985222828778,1.59202229906799,1.57199900796053,1.57359642457071,1.62303613670795,1.65687588598353,1.70806554690008,1.88495398754975,1.88074713951321,1.87918547069944,1.81568059795016,1.78743518518435,1.79344105881852,1.81287322691367,1.91588801442064,1.91131117289608,1.90903518910155,1.97114602278697,1.96791584974817,1.9654584144065,1.96355328702538,1.59070869299926,1.57618372324669,1.57565732244497,1.57550308918735,1.62731327046493,1.74639669066832,1.9319185004568,1.93117563611471,1.85011931275056,1.615964278074,1.56245456096161,1.51656004365876,1.51177480937971,1.50789083161072,1.57144165735464,1.61213799728716,1.64884429744799,1.58987917303111,1.54881462687844,1.50111690063707,1.46660614683738,1.4710001447918,1.47777560496988,1.48846379562511,1.55016179499127,1.60825814628723,1.55665120891307,1.53039405154157,1.50906852902191,1.50257315656768,1.50566078981243,1.53451256112658,1.54881044099952,1.54845098082407,1.54962562876889,1.5088357047728,1.49531291569209,1.49723400312876,1.50603726693012,1.54382601398562,1.74713407877636,1.83261185151068,1.88306804187322,1.88464131273675,1.74335243155927,1.67772137006407,1.58198742422388,1.57941710070575,1.57807306552542,1.61273727955846,1.66183946020808,1.78796281413059,1.76956073378363,1.72955582825752,1.65160837051189,1.60585475093718,1.58696111345886,1.5883257483757,1.58931603934027,1.61574339443973,1.66269563926741,1.63709498243961,1.58653169653238,1.58060455319226,1.54728959676799,1.55649026341438,1.70783639638324,1.70800652517129,1.65606001810487,1.64632935500966,1.63604021259282,1.62431188755012,1.62103044304686,1.61481918768362,1.48098672582852,1.4805197344035,1.48610217022021,1.49982188685216,1.55311975149184,1.70585707339119,1.70439753711359,1.43235542144754,1.43112180107662,1.4007759403738,1.38998375561763,1.41208075125204,1.46048804381301,1.46148350798105,1.46701283492025,1.46749401460696,1.36762337546784,1.36678986718808,1.37096476220587,1.38731283239294,1.40181014532989,1.44792234635885,1.48423388174574,1.48581121629067,1.37715187651997,1.34552169274348,1.35915961582213,1.40202510741955,1.4425899945984,1.48154910670354,1.5926180620973,1.72280589784076,1.71262906509186,1.51735508369143,1.4777233931352,1.40832260224851,1.41004250576922,1.41448735115676,1.49041607305086,1.51166285842215,1.52660753482786,1.49222548636209,1.44227690686876,1.4289575178101,1.42941504310964,1.43032701353361,1.44969784783613,1.57828872283051,1.57653241140305,1.5751343821663,1.48145124725112,1.3927863027216,1.39823046531542,1.40312777302912,1.40772650404461,1.48356469080816,1.48319311275854,1.4713258859405,1.46951066073036,1.45836889650667,1.45533450095361,1.51335713842466,1.54700668993974
1.67680999917715,1.48697390896416,1.4485207558987,1.42215147229408,1.40891731092269,1.50077996948353,1.50218418809657,1.60716000028072,1.51676361551656,1.48435945546751,1.44856649657675,1.44899769944261,1.45055293534034,1.52319459583655,1.57491628736262,1.65621780742704,1.63147095546115,1.86214999917715,1.5505792995355,1.51178048959064,1.57074971050605,1.5716002087361,1.62030783735645,1.64957169901454,1.63807732769654,1.9063846227931,1.87938118267405,1.86529140237601,1.77870900405296,1.75099200008386,1.80365109931357,1.81005553182709,1.92335001597445,1.88868074091502,1.90013377905079,1.97763570213333,1.96820493874012,1.93938945143138,1.95864792684609,1.58222941540633,1.55064010941092,1.57612560609202,1.57715112440252,1.62148443320271,1.69755999982854,2.02785999917715,1.93065880431668,1.80466639923114,1.56247047533204,1.55067130914246,1.47247141745107,1.50843429463058,1.5071395141475,1.54227317045778,1.54297509594714,1.78274999917715,1.60020200081937,1.54857557888812,1.48967806613732,1.46230983340802,1.47719874259444,1.47696075410487,1.48029554189405,1.53220248965333,1.83507999917715,1.51961946958057,1.51884420299832,1.52028504046672,1.49863302088493,1.4957774465906,1.51080965857276,1.54835329811764,1.54548145164822,1.5512826873932,1.51880571653064,1.46528023943769,1.5014330186618,1.51123732703294,1.5341514574816,1.68938166019314,1.87381831789057,1.87936742883706,2.00406999917715,1.94540986299753,1.67884099103225,1.58617145721278,1.57844418368751,1.57568128701707,1.58884031926848,1.63814973846974,1.95965999917715,1.75465452647295,1.69032082409175,1.68486881290783,1.63946976607076,1.54464621997033,1.57230432978286,1.58085163324626,1.59777077533446,1.74096999926121,1.68749999984301,1.59373377234388,1.60930322564631,1.53688082452339,1.57337303911088,1.70744921361033,1.70783868595409,1.52608833394579,1.52772166728831,1.89307033630427,1.87537165844355,1.66267230228532,1.69702999991742,1.46575378044212,1.47918772481857,1.49903278690572,1.50449375898188,1.54643374925018,1.93948999917715,1.71284238900687,1.4235694422994,1.42897278680535,1.4028396478597,1.3623313106919,1.36485175339159,1.45948620159123,1.42674971360429,1.38403546078286,1.47865979491534,1.35086694594723,1.36674945822859,1.37842311542304,1.40609679144318,1.42283929819388,1.52380972993788,1.77397999917715,1.48417639203122,1.37879450333836,1.33718233421328,1.32919409984553,1.39644715628587,1.44313821100847,1.52050000056836,1.56869016951342,1.75655331675091,1.7590066823588,1.54846686617386,1.57392799052854,1.40599587490192,1.41266169935068,1.41336515819427,1.48469922170728,1.48895353050449,1.58599999974438,1.42371457118538,1.41596545150314,1.41721029525331,1.41938998357473,1.43056174279449,1.47151639304635,1.64423000018817,1.61018051548361,1.6632500005162,1.42692000041152,1.38192915997204,1.38247833749161,1.38610033296284,1.3915062333241,1.48202712370809,1.48183014486373,1.4047593783033,1.41552834585878,1.42129558819003,1.43599470230145,1.56856000087756,1.50336073431413
1.56423528405072,1.49201124631141,1.4588347620015,1.43388947419084,1.42396770573103,1.47351826209042,1.50352192015095,1.5602347065055,1.54190509632644,1.48582814233369,1.48691544628982,1.48581802176004,1.48455333940679,1.52415947475413,1.58270991161782,1.62880350926097,1.63025158631409,1.5874293834909,1.53513805593604,1.52473692871089,1.54902629129311,1.57127228688004,1.59371009396361,1.63005359496833,1.7004276439349,1.81852240744964,1.8135442661701,1.8046522771467,1.7905944640577,1.79490792515949,1.79630929146479,1.80634344277634,1.88342288203154,1.88752374075449,1.89463250706953,1.91609160487297,1.92968829555635,1.93241827676648,1.92570541693474,1.59683831607314,1.5912384802405,1.59182873141548,1.60200636648926,1.61942175126248,1.74611786094383,1.93161757023197,1.93099033732169,1.85052018453131,1.56208152785741,1.53058932880923,1.48892821858057,1.50861005921289,1.50838704842693,1.55105347988318,1.58528419713464,1.64964590230401,1.60780704572007,1.58217001450156,1.52491162074567,1.46828615229672,1.47256283363698,1.47368428343267,1.52538926961226,1.55082971110097,1.61646645509103,1.57937754194935,1.51669120512627,1.51195784910746,1.49727103948455,1.49637426657767,1.53500472519618,1.54897286690471,1.54860971331742,1.5497828555344,1.52673715698561,1.50057269471608,1.50419119499547,1.50833043175536,1.51979012709672,1.68775626261319,1.78234282456364,1.87331605063157,1.93041912048896,1.92635741574361,1.6976097593249,1.58208646604065,1.5786983249417,1.57600750453882,1.59505189480751,1.65127634987968,1.75653090889895,1.73997522969174,1.70603144599478,1.66984865101297,1.60400602507702,1.5561570716489,1.56591907365115,1.57331995691467,1.61993062197052,1.67135876145831,1.63697126249254,1.58662054782931,1.58119739123917,1.57674785335066,1.63675202850888,1.72425809343421,1.7328477257681,1.74066950119709,1.74645447023832,1.88256595565824,1.87816373844089,1.65752995274291,1.53910355117269,1.47451215155273,1.48476514666777,1.50538917513921,1.50967738803582,1.54228842615412,1.72241802357953,1.69211767836043,1.43219864294912,1.43255277546931,1.39656449935022,1.3769861994777,1.37747603470759,1.39267620378572,1.39648182317371,1.39160705653785,1.37876421542767,1.35686007849761,1.36149818210305,1.38608653032786,1.41570675092734,1.4498126308874,1.49668251546202,1.53632360855374,1.48149703364401,1.35214263744999,1.33538809374311,1.33275368546907,1.39416007583317,1.44223262061317,1.47672523375367,1.55891474125978,1.68910667011622,1.69021221197771,1.53734118083636,1.5012689288014,1.43644903758718,1.4340404776694,1.43790229428699,1.47997876848757,1.49069373719294,1.50364540119983,1.46461992053969,1.41599487816873,1.41669089174162,1.41773562170057,1.42866871355067,1.44276138355151,1.56132514223683,1.59555835826709,1.61052391639703,1.48141938466474,1.38130879847555,1.38177521665263,1.38273791354365,1.40178165333002,1.44458973284195,1.44782773786421,1.41021709505984,1.41409905080839,1.41575053537687,1.43643848537802,1.49267590286846,1.52011925313308
1.77865999917715,1.49765633500459,1.49158643997936,1.44775573216104,1.41399844349459,1.4485599993578,1.50430960127495,1.62510999958804,1.80628999917715,1.48636626307636,1.48946702097733,1.48608677451181,1.48329684902031,1.52590993004147,1.58893276311804,1.62609367514898,1.62905699049654,1.56349002735111,1.51937075801871,1.49258011708891,1.52638150306205,1.56050808993259,1.56511741150299,1.61446339727509,1.93185156141169,1.95162843735404,1.74207783003196,1.68100679437148,1.68307015984701,1.80247093516313,1.79039170246424,1.80231693914652,1.86863126845067,1.88769224612096,1.86296361823536,1.86282546315131,1.89832296141029,1.93683714114768,1.8746139614248,1.60364820107211,1.589467366994,1.59139350394662,1.62817748390008,1.6168732547064,1.99775057398105,2.02548178530212,2.0329406455881,2.07071999917715,1.56259096830674,1.48402187311242,1.47922975804349,1.50801514657163,1.5087404731266,1.55824947520821,1.61095250103919,1.83047999917715,1.63356343505228,1.62819695389501,1.5618500009441,1.45360100268763,1.46686518563207,1.47142313820788,1.55371000135393,1.57990942017354,1.73342999917715,1.626309999965,1.51317313017296,1.50381799856176,1.47505855783757,1.47509442087614,1.5887217390072,1.58268506147075,1.68505891196057,1.82218999917715,1.54039286099954,1.49383427554539,1.50616161513643,1.50727106766375,1.51215454254453,1.68630165789326,1.74929771423272,1.87243501699965,1.94041779551536,1.90626115581059,1.72050913195414,1.54751354238425,1.56934275638777,1.57373311201114,1.60285924758273,1.66523995508003,1.78480000049353,1.72803997124222,1.72040860589801,1.65214220986724,1.55881566167892,1.52053999855087,1.55750976326827,1.55103905364231,1.64758953500252,1.76387999917715,1.5111200002306,1.55630713044141,1.53927272565977,1.57150717499024,1.69240006216469,1.85159168122883,1.85136886493838,1.90110151522223,1.99663747931025,2.03883999963098,1.91399908568049,1.65812449476721,1.44632805746151,1.45400194198005,1.48848222283769,1.51789002983162,1.51700660500644,1.534659383424,1.94120999917715,1.67369060042247,1.45416588950888,1.43676459539342,1.39004565095753,1.37535955787625,1.37681831503793,1.38865073343029,1.40689250042453,1.43089163531805,1.36809113618787,1.33475323077674,1.34144060965691,1.39302868685473,1.41953751144866,1.47015028383401,1.47090998256402,1.71243999917715,1.47970484567554,1.34337052160321,1.31550569724863,1.32229506794354,1.39264601799682,1.4387090246306,1.43178113902663,1.5469940769205,1.68873095106915,1.69204706289708,1.52752092781179,1.44035875308557,1.43868568115518,1.42990783239106,1.4417018453749,1.47543782108245,1.4940248162756,1.5135157050858,1.50336012054758,1.38834590173849,1.38131149094759,1.3693473370514,1.42634379574864,1.43480937481033,1.52925885997544,1.57970523236229,1.80608991624243,1.7921900825233,1.34424094350231,1.37282464911301,1.3796914295772,1.41947095571234,1.44115497960557,1.45095456195723,1.39192917669187,1.40153017697992,1.38577108949856,1.43739569427161,1.4389959454866,1.53593794431586
1.55574947231141,1.50308303082042,1.46855619110794,1.46291482431874,1.46682963076866,1.47469319511585,1.50775740459255,1.57174168877291,1.60638370704146,1.50501726788028,1.49095504404627,1.49431425044304,1.49604333564039,1.53526437616126,1.56519346973664,1.62761440770801,1.62923247033803,1.58702232230313,1.53590227776675,1.53542442359595,1.54614628840084,1.55828373214938,1.56050613100068,1.63169210447202,1.68234178261634,1.69220797139721,1.68907503689326,1.68412107562975,1.68385591296077,1.73498392293582,1.79667702286039,1.79876556614921,1.81596007367779,1.83481643595665,1.83665702447537,1.83820023315066,1.83558406738856,1.83329236003233,1.83265113400036,1.59459326210272,1.59089022327435,1.59172656505447,1.59804260956689,1.68058258913437,1.83903362093606,2.03273976979993,2.03592840799292,2.03723636727002,1.55635680550037,1.51193351388126,1.50136865760631,1.50620017291556,1.50791387524825,1.55809911728826,1.59936319913419,1.66298480813947,1.63714609999074,1.61120793814461,1.51896239338366,1.47244768637846,1.47010294898333,1.46995972020693,1.52297473805754,1.53493511687868,1.53945734037221,1.51968557500735,1.50856986069539,1.50648207176958,1.48755778883978,1.49716503089078,1.57723042592374,1.57729357445966,1.68285612457169,1.71383705090513,1.54932122947233,1.54931081439372,1.56127203039016,1.56564368940395,1.56779502682061,1.64890087290115,1.75433311499066,1.87130302271952,1.93028262405008,1.92612750504674,1.6718788016374,1.55804681329068,1.56547167873774,1.56840333129044,1.57922178663853,1.63483664050074,1.70432915927028,1.70512006726999,1.70609719445467,1.68477606108376,1.56960893859928,1.57593849312934,1.58554575958665,1.59326693460649,1.59793458406426,1.58868091805151,1.58288327125823,1.57108733457964,1.5656226747198,1.57122108115363,1.69227590326746,1.85109830671456,1.85133442140994,1.92268605632194,1.9904963338976,1.99658633265509,1.9069199748392,1.658772592674,1.54643453620027,1.5346016257776,1.52445812978505,1.52061877132403,1.52108557111799,1.53093360351916,1.6660310073828,1.63519149226816,1.44908557874385,1.43930429557182,1.42526093839223,1.41919555633089,1.41727295741752,1.4142635238263,1.42261749521509,1.42572207110385,1.3810795030874,1.34309992810093,1.34203481724636,1.39665191299211,1.41896621946743,1.49599374930922,1.53050708492253,1.56543903785611,1.48316396792334,1.38719636396754,1.34582393689767,1.3590896167021,1.36865131745875,1.44235782423864,1.4695720732222,1.55167922774441,1.69019155317604,1.69129714205479,1.51861814212699,1.43989777826042,1.43798207428168,1.43529269769285,1.43885132353316,1.46930102627688,1.47611410047564,1.49309587717315,1.48793453530317,1.38124790124438,1.3799486688867,1.37590783557945,1.40511236322221,1.43758926160239,1.53667594253651,1.56582084429705,1.59335731258075,1.48226053799809,1.378614018632,1.37628727345595,1.37768041804051,1.39729419437756,1.4347518344483,1.45099003577348,1.44953939410578,1.44583967182597,1.44038293581326,1.4367097625852,1.4406552894238,1.5249595073052
1.80733999917715,1.5075799578641,1.45298436543899,1.45634598922941,1.47390771321587,1.49022079157826,1.51215214194606,1.52080147327468,1.78930999917715,1.52853891850672,1.48846458343497,1.49559907039866,1.49723096865445,1.5410806260626,1.54614227181931,1.62649252199179,1.64324539427211,1.71035905735521,1.53697459071342,1.53520879950378,1.5506647789715,1.5507433755254,1.54929477499646,1.64302974610593,1.67738466514858,1.69960249720795,1.67708610900232,1.65391298894645,1.66361809485208,1.66312698508625,1.80096959576293,1.79786419454942,1.79437846144313,1.64032100778472,1.66254899345418,1.84384820626641,1.83759901320345,1.83469595451943,1.83493154065066,1.58719034158928,1.55220101793,1.5786839797099,1.58888615966185,1.73332999964319,1.80624050891056,2.04504999917715,2.0367499145031,2.04592999917715,1.55015150380468,1.52137257834857,1.49793677371559,1.50757580553066,1.50860783411564,1.55767251362887,1.58658496495631,1.82158999917715,1.63884081312162,1.59299051814514,1.45687994883791,1.47211372023503,1.45201153121211,1.46866921739469,1.50359032206102,1.52590421110407,1.55986383420443,1.50418303553856,1.50690847503526,1.51934773895289,1.47603671549138,1.51083435087525,1.57110884308269,1.57279428439493,1.68065891196111,1.78235999941049,1.54751331486436,1.54814370209965,1.56349171486327,1.56777746969698,1.56932993502042,1.60736202551786,1.75711288122073,1.87071585013762,1.9574663918987,1.96353085895521,1.6168098986059,1.5313573759586,1.53128053603456,1.51038184290182,1.543519778271,1.60709108253368,1.70409713182143,1.70545936421622,1.70746879229441,1.7073698615286,1.53680101509466,1.609873321961,1.60866204527516,1.61055118845379,1.61772872367463,1.54367999933607,1.60424248581856,1.57563197816653,1.5532915142563,1.57103036339701,1.69213606368256,1.85083900564209,1.85113567189923,1.92847859037677,1.96157335082944,2.00722948502627,1.86814160548578,1.65962395286213,1.55667841710235,1.54006606606538,1.53025534864048,1.50696996596517,1.52581475363936,1.5269408836241,1.89950999917715,1.5922199994226,1.43896982869274,1.43978362590766,1.44234234928514,1.42117188324025,1.44997732803248,1.40669074516492,1.42329070483674,1.87283999917715,1.3946226250861,1.34373685334356,1.3264720255474,1.39940704024836,1.41905994403529,1.53673000107131,1.58330999971125,1.75256999917715,1.49064836659831,1.40676998139023,1.33040104395589,1.37628964865498,1.35336104539033,1.44512775797092,1.4993934385176,1.55740650954461,1.73066833086937,1.73294166869867,1.50988228043711,1.42735406846065,1.42830816707848,1.42359029030951,1.4246420213782,1.45865599376169,1.45706481668746,1.55935000039052,1.47420964861248,1.37033902337784,1.37140611059234,1.337187673559,1.33821467973571,1.44062278220866,1.54351106318857,1.55616810710158,1.82749999917715,1.43030999963424,1.38176966270754,1.35318105314078,1.37647030841523,1.37905042791221,1.42394923074196,1.51286999984248,1.76936999917715,1.45994832609331,1.43813462273177,1.43188097058157,1.44257242360976,1.51677219378292
1.51477195889306,1.51075724063167,1.47026109758674,1.46767790060191,1.47085166857307,1.49927064645443,1.51643990774951,1.53136123404934,1.59725680721196,1.53368993649169,1.52632372797398,1.51968044806122,1.50524008389712,1.54270154049143,1.55583136448802,1.64298338611366,1.65478632144405,1.67869581580662,1.63134972761721,1.57718436024574,1.54916910715748,1.5497939008789,1.54928031427638,1.65509819613061,1.66968562760592,1.66858545382665,1.66903822991118,1.66830424051331,1.66372684266854,1.66369938018186,1.7481986279684,1.75763414264547,1.77384699486354,1.78550586068331,1.80336915190762,1.83848127077287,1.83558150985085,1.83368520076626,1.75322475701947,1.59849085260234,1.56015188151853,1.57072278319036,1.57641998524468,1.64554114718098,1.68205758618619,2.03086097705078,2.03007113251151,2.02242256935967,1.55930043261885,1.50891046030251,1.50559025257417,1.50795377989813,1.5089651271154,1.55272935478328,1.59617470990228,1.63900147246457,1.63948986077088,1.59485803615383,1.4926030519323,1.47051206891072,1.47002895257306,1.46927751226199,1.48990488068683,1.53663055331851,1.54281565888916,1.50523258167576,1.50644122024253,1.49450688720346,1.49124933980718,1.51020418469362,1.55243336903628,1.56866025116071,1.59774059359618,1.59877911101419,1.57036885189762,1.56867876440224,1.56859084890686,1.56864584160864,1.56888151357309,1.60112132861376,1.76072296195223,1.87103505192939,1.95570288467379,1.95748831306197,1.5962201995938,1.53212100620782,1.53073670539636,1.52774361180694,1.5550651322158,1.60415214408376,1.60405602436173,1.60488069061044,1.5789442484449,1.57337973325215,1.56274375531854,1.6006920509213,1.60689951782768,1.60935125298877,1.61661715378453,1.61339512640647,1.60781160388972,1.58046266618383,1.56542520309066,1.61660226599356,1.72970870260183,1.84930242987089,1.85303014726605,1.94599775960343,1.99523322138517,1.99751051608658,1.90694188059106,1.65996150603068,1.56427378515747,1.54751332111535,1.52360526337393,1.51983994022359,1.52889727381091,1.53359016668501,1.66775416385845,1.63572497184459,1.43879036054987,1.43745187291209,1.43262865575207,1.4271987786293,1.43165913034918,1.42060014044033,1.42381398996895,1.43399325158304,1.39763614553382,1.39247959454783,1.40341142895342,1.40381687771283,1.40972290924138,1.50752441179965,1.61402774455103,1.64733075885838,1.50181535291742,1.44702681495103,1.41105107651349,1.38488800897138,1.39759285599822,1.44797050322569,1.48789802894587,1.56648363907034,1.61212022982966,1.63028719016496,1.50120322709077,1.43073671838802,1.42683862283482,1.42669947077258,1.4254720046456,1.45960360303668,1.49440580399692,1.51325128915835,1.45783159578172,1.38018005223458,1.37318968721255,1.35439174164995,1.35177300493682,1.42488883044528,1.47988426731699,1.53342705161297,1.53157058745353,1.46767218817936,1.37371650342213,1.36397784841924,1.37324693357422,1.37879818738375,1.45701290267853,1.54579509210752,1.58013051544943,1.47175098270988,1.44357264310596,1.43451754791852,1.43745251311741,1.48743828067531
1.51713739702808,1.51302866460103,1.47178593323867,1.46276461424856,1.45637379383536,1.50435748093791,1.52045124957972,1.55330415437177,1.78535999917715,1.54220312570442,1.560785823715,1.53683075178388,1.49176178292149,1.54426680616849,1.56754599181992,1.71789877702156,1.7199623233936,1.7648704570168,1.88831999917715,1.60076974617742,1.54626805666251,1.54819050984594,1.54791609424247,1.66510917691189,1.67046396172966,1.6687691631617,1.67014069955716,1.6741989969844,1.63079336800658,1.63376663059041,1.73438210346231,1.73300772693886,1.72933771594026,1.79043337706483,1.83068035621122,1.90053860775521,1.88354852946575,1.88279993131993,1.71026000000113,1.62653833468244,1.55640269069156,1.55654359201819,1.5561886335789,1.5689296220249,1.58120987560205,2.02088163583425,2.02163146758447,2.00627301126386,1.56441771372288,1.50286745908464,1.50279435688483,1.50918763039748,1.50968673465589,1.5438346363537,1.60547365485952,1.64803088465461,1.64061110919486,1.59599122042386,1.51709963439551,1.46926119627031,1.47081836185701,1.47044313223361,1.47194788141663,1.56058813730337,1.89383999917715,1.5040734089555,1.50620512926775,1.49261354680036,1.48051023430419,1.50992654314699,1.53604209787046,1.56522905395224,1.59700658117329,1.60002204454841,1.57128244083583,1.56781791891512,1.56840996630684,1.56819503270872,1.56894014604224,1.59654033698226,1.768596896325,1.87192885621395,1.98078499938286,1.98388499938286,1.57484113132252,1.53350321273963,1.53104525583002,1.52419767379922,1.57385716268443,1.60322169810664,1.60183230614773,1.60405100027492,1.54875904805873,1.53476327353137,1.53374139311662,1.59012092971908,1.59018698257923,1.53840999870861,1.63156843803828,1.68429000055506,1.60759835490846,1.58720839859247,1.5526711823159,1.64533103671904,1.77141849860052,1.84575959166776,1.85743855880751,1.95706860616285,2.03596999893245,2.07317999983327,1.91741968899125,1.65903059197762,1.58174633252811,1.5535129737221,1.48749348796421,1.4908577881124,1.53120006803455,1.5391753585274,1.90721999958858,1.96552999917715,1.40433990441014,1.42046428276642,1.41188649194027,1.39275467296308,1.44140618863952,1.4180368486004,1.42816348969794,1.45042034008943,1.40806795321809,1.37795848192878,1.42977947819528,1.41453605411256,1.40285683824536,1.47909999873724,1.67577156545956,1.76632999917617,1.51587236133251,1.48231108484109,1.43329935055226,1.36577229655723,1.41183925650644,1.45070715124681,1.47502840040449,1.57641174412642,1.59400999960252,1.67923000029991,1.49363701515052,1.43520557582029,1.40859389853034,1.43914148011825,1.41319236688682,1.45958004377081,1.62595000015363,1.68156999918279,1.43439096514027,1.39155567056901,1.37552309335242,1.35625320956473,1.34918564883705,1.40923025149441,1.45928899702085,1.53229666593052,1.52726343947345,1.50911050049431,1.35588577604068,1.35766123161549,1.36939604660861,1.37760979534074,1.4977800002601,1.60242000062949,1.68143999919924,1.48169356050973,1.45968696990868,1.4001799982333,1.43543197510218,1.44734771308746
1.51374904849248,1.51368291507619,1.49864000690575,1.46024462687904,1.45792716196175,1.51071641485871,1.52386285998139,1.54108891551567,1.65221139327865,1.61511070878008,1.56218521017918,1.56468016578009,1.56669040293485,1.5704455260801,1.57162749590994,1.71991960072199,1.72216992784634,1.78610028225222,1.80054482810994,1.61336121523788,1.61077001847,1.64014985867224,1.65236749453316,1.66390979955816,1.67024440832942,1.66932078627344,1.670256281277,1.67194924868049,1.66227205923492,1.66113108683216,1.73574200365349,1.73495655286849,1.75490556804891,1.80031536981199,1.85641424152516,1.89213298264323,1.88615618073369,1.88450655708407,1.67140087255425,1.59434135930563,1.55681275107483,1.55679830900554,1.55667677822892,1.5698782378318,1.57365206672764,1.56660408940584,1.56199974118848,1.56083376736745,1.560534588924,1.53521986606908,1.5303452573295,1.52383648262387,1.51494370830791,1.54303969738307,1.60588779340366,1.64199238136767,1.64184226671104,1.59995476861289,1.54639347080465,1.4837136631165,1.47980677645023,1.48261757949894,1.48721148959513,1.551181033831,1.60887424455072,1.57533773617109,1.54273189959504,1.49701655529293,1.48899601045438,1.50916462086996,1.52952019010471,1.56266786390928,1.59743863002985,1.59851658503875,1.57049075918036,1.56901893712602,1.5684146811315,1.56807273717684,1.57467579541723,1.66302982829306,1.79857625604898,1.87266159401387,1.89989185512523,1.88678217978854,1.57989188207335,1.5391798014811,1.52762263977067,1.52618600583353,1.5419121307686,1.60342559468929,1.60337275342666,1.60406524951294,1.58298674283037,1.53488544179902,1.53453831313854,1.58816661891836,1.58867891620309,1.59593234361113,1.63775864774895,1.65483027159694,1.60268730132189,1.59894689321225,1.59846994689858,1.65676732164299,1.75161878252286,1.86458566549901,1.86313831989636,1.94353478236669,1.99344701601392,2.0004399382793,1.84247772293381,1.65638036354674,1.5741855613237,1.52719130584113,1.52046581431803,1.51992288147437,1.53272221972048,1.53683934086895,1.7538122384146,1.73646121532382,1.44101438502052,1.42098514878136,1.41711513604129,1.40652892761001,1.43499321555963,1.42995335626256,1.4320100423767,1.43430445902297,1.4069717210663,1.40932208819521,1.4254136026388,1.44212299598768,1.4569167713346,1.51569450247406,1.66689301560643,1.6820196158304,1.5410813962636,1.49501879126074,1.43141901967007,1.41244881916698,1.41756147226305,1.4529700411043,1.48759498807607,1.51951398873806,1.53296291250232,1.52199679294456,1.4890970767809,1.43130160787523,1.41282191545269,1.41745501785505,1.42369338423604,1.4586422492512,1.60496742460973,1.61693400834532,1.46590739514779,1.38968863339181,1.37667016548569,1.36085101711984,1.35586154375558,1.41159251135219,1.44372675572809,1.53375464567247,1.53159884427664,1.45487569592775,1.3675965170477,1.3621799316531,1.36606634576807,1.3702472539059,1.44723793211549,1.57655524173494,1.61053926501892,1.49379567662327,1.45883775082657,1.45277091350393,1.44592438586345,1.45895561628749
1.76826826532723,1.6245753577042,1.59018999987684,1.45393934730739,1.45615127783024,1.51868856765983,1.5267826143634,1.52926559717749,1.74370000048354,1.83041999917715,1.55079192024898,1.56596756213377,1.56715287167268,1.57256469891774,1.58630772334641,1.73680637473362,1.72750138734865,1.83298022177104,1.84361977809158,1.61544785357985,1.60824694306804,1.65472858958781,1.7030007945548,1.66246729237441,1.72338115451127,1.73703978134072,1.73613598674991,1.73463412540685,1.70784999534638,1.65865646452504,1.73754285015581,1.73552424374553,1.78700638737555,1.81749699694342,1.87586975497001,1.93667999917428,1.92239145834554,1.92556999917715,1.60964000041027,1.53762926968837,1.52457770528396,1.53395998751145,1.53742563265756,1.69671000041586,2.00125999917715,1.56183379187832,1.56189893491711,1.56366552615893,1.89809999917715,1.54461154888492,1.53899695212627,1.52812451884489,1.50257486349882,1.5433653675246,1.60573256515895,1.68223724752012,1.64234017826342,1.61085955786014,1.57478122436085,1.49010319207324,1.47069056156555,1.48669235348035,1.49565471649226,1.54088174834034,1.81227999917715,1.62292123817835,1.55915683687963,1.50520576619253,1.46545132204307,1.50862919526011,1.52129260945585,1.56001462233942,1.61275054194331,1.6075457716833,1.56928174651608,1.55423377035892,1.56762887936489,1.56587116871943,1.58637249203253,1.76134802939287,1.88607852361621,1.88551192213914,1.93109999917715,1.84801234628007,1.58599362049583,1.54310953535325,1.52474324204278,1.51939763134381,1.5260625920274,1.63895010310815,1.72451000025266,1.61732874945283,1.62182582961467,1.5223034964851,1.51232866766024,1.5846621039818,1.58711301782237,1.59810376679061,1.64344008772729,1.76324999917715,1.56662041353896,1.59807441397378,1.59693816702133,1.67541789641665,1.7380315078666,1.87102852169173,1.86717169665844,1.934084627834,1.98910208069954,2.01387941881583,1.80735504074535,1.6521550480521,1.56097182279625,1.50640247329098,1.52206548547218,1.52022352531407,1.5335614020157,1.53392602562746,1.92337999917715,1.71324018695049,1.46562581758987,1.42694012983863,1.42634986183238,1.4014053979059,1.46455586053845,1.42487013234598,1.43436562043965,1.43644672707023,1.40382462060184,1.41055411422999,1.41966848362361,1.4613331058838,1.47728946528875,1.5458436898804,1.65489475884391,1.72375000062088,1.56918498586217,1.50988891336614,1.43027859551777,1.40586451194814,1.42479516567011,1.45598114476489,1.49973407985977,1.50121105656766,1.56965726187195,1.49467825393945,1.48327594394972,1.42819360610566,1.37456176957167,1.4084627697351,1.43070519757036,1.45731221691896,1.58413221622388,1.63817888336058,1.48694000035405,1.38836162949872,1.37607685975286,1.37431546207916,1.34081149590417,1.41443631105985,1.42193066895559,1.53509880000797,1.54649845322357,1.37785328378946,1.37288946991876,1.35743595524974,1.36278978577237,1.35043364414546,1.39508999966447,1.55601013748167,1.70366999917715,1.50707088014722,1.45854338426542,1.45828640280678,1.38755999910356,1.46536425691598
1.72242119758677,1.65985054679052,1.62457535805213,1.52752910061959,1.519927344806,1.52611116796511,1.57463012379217,1.61038876513727,1.70893288905778,1.74379451437075,1.69406624956922,1.67127482455985,1.66535186339007,1.65134511386185,1.66307891327682,1.70557275523229,1.72229287831358,1.78660999824753,1.78747854216165,1.7240560826855,1.68286583611823,1.68292321346771,1.6960988509074,1.70673609429016,1.73022849581082,1.73681508158654,1.73629076145796,1.73516233426995,1.73353570150894,1.73096228576285,1.73228406866694,1.73376781095624,1.78109660905866,1.78530992359083,1.87892315151274,1.88578887327906,1.88292284717507,1.8822132308292,1.68019070261183,1.55877523016068,1.52832856850221,1.53196541595291,1.53378480120719,1.65984885059747,1.80937114493847,1.80894560290324,1.80825348516939,1.80755685368439,1.80712402452724,1.61636823589492,1.60327308260582,1.60102160198357,1.59721171390449,1.59166794285802,1.59762177191131,1.65495532722012,1.64307892188918,1.62606846842997,1.58805342498803,1.50981067395425,1.51195518689546,1.51302119896116,1.51308051844404,1.57179637697183,1.64921826328273,1.63652715223205,1.57830088342087,1.51371594808504,1.48444779670457,1.49417819496834,1.53407354376992,1.55774898936642,1.59117000914392,1.58067260841329,1.57215463688954,1.57402953252473,1.57691480742251,1.57868081054085,1.59262551961055,1.75611171972437,1.88522961699584,1.88744832150181,1.92707583480417,1.85094789231518,1.56081483718938,1.53718533066298,1.52211799738726,1.52021961922386,1.53552801851569,1.65835247576168,1.67396939641342,1.61782226430865,1.5674008026646,1.51912598795874,1.51596531633911,1.54227509581099,1.55997934010067,1.57376753079465,1.63505272929315,1.63570767436606,1.62037300621956,1.59743098265457,1.59643189522738,1.64578232963222,1.7104388869326,1.80293377509585,1.861754413472,1.93392932151412,1.96415556021447,1.94827224073755,1.8070588882867,1.64709556061794,1.57163949885105,1.52117284713162,1.5210704160298,1.53007255577238,1.58286561444073,1.61073303125312,1.64228214338924,1.57453422867395,1.46700062006284,1.42804748916584,1.42791949320775,1.42884304476063,1.43654754203058,1.44278518678706,1.4496726595041,1.4542455277656,1.45787772633838,1.46235580515634,1.48470411853891,1.49217509083159,1.50633054807947,1.54298206707673,1.65829282961468,1.67960372498797,1.60090084467699,1.55687432849635,1.43241779840713,1.41886784010618,1.4296868372465,1.45998059180615,1.49201882375658,1.51858266245016,1.5370075485285,1.4765093549643,1.47589046023175,1.43612303884477,1.39016799495226,1.39670826189818,1.41868311794653,1.45566748250878,1.55672682434467,1.57615424382818,1.51662094071094,1.37989141139998,1.37645103661092,1.37556575635949,1.37910132524865,1.40784726207737,1.46843025419391,1.53511884050118,1.53475394584402,1.38071838283631,1.36757035605068,1.36255554304441,1.36648029193873,1.37043390422918,1.43274728482095,1.49149979496597,1.55135164302907,1.5210491864015,1.46697511588161,1.43589089703754,1.423425969766,1.43796873231373
1.79134000021813,1.74274440457825,1.73033920931508,1.53672667047674,1.50372751844682,1.54084925162428,1.60138266150095,1.67836424474772,1.67830645543488,1.80990963024349,1.77033746009982,1.67371808058992,1.67024908480278,1.62216446480009,1.69589990252194,1.67191725850212,1.71850838485735,1.78630851955425,1.78889569803663,1.7755110730785,1.68327136536951,1.6826929861504,1.65877282668132,1.7337090257069,1.74363752133163,1.78697004467647,1.78964895118501,1.89715000021788,1.77486000037313,1.72716577750948,1.70929391008929,1.72239843771279,1.77638010889589,1.77747872900538,1.88199061609098,1.89781283520869,1.87654577983726,1.84291763961716,1.85441219752573,1.58948201140868,1.5158880814266,1.5190561622243,1.51587741094147,1.62716045397812,2.05634380493492,2.05553017238355,2.0468177414102,2.06960579109796,1.95256664214259,1.63901000047778,1.60480748389607,1.6028794914399,1.60156607460342,1.58409952695307,1.58244439709663,2.06392999917715,1.76727983318853,1.76373427724662,1.61015872344477,1.50670472600203,1.52640370376896,1.5196127736369,1.51222988440639,1.59753756502195,1.67107695587791,1.79316999917715,1.59816077568343,1.52762633669639,1.4713722164212,1.48824202380044,1.55504811732014,1.55612592060422,1.75218999917715,1.55869832888086,1.56926128058489,1.57644725540377,1.57521906979344,1.58340880699047,1.62383019995687,1.75101480544255,1.90138067715798,1.89374229976695,1.94870999917715,1.8644054524907,1.54707884728526,1.4727210962686,1.49069940198087,1.47812090595903,1.54289298174877,1.70292999985105,1.76416999917715,1.61862882817258,1.50354000774508,1.50311193125133,1.45541325302269,1.45528785197409,1.50867297823901,1.51797438466116,1.63457049510323,1.63654682655097,1.66187784697767,1.59708181648361,1.59438794986064,1.62786853494292,1.67956896502813,1.76631021996337,1.85212193614749,1.93174551794485,1.97253934683687,1.90312065046809,1.80649103716501,1.64225661176552,1.58524003772895,1.52206781632279,1.52065676100063,1.54206619183235,1.61624981387161,1.76269799616472,1.77052121195217,1.51632000041181,1.46980785056163,1.432562700456,1.4089705109932,1.42865832454812,1.43059241923688,1.51302631575983,1.50719937593824,1.51682840231824,1.47705501286677,1.46939460474986,1.50615228564537,1.5064719200208,1.5309886004266,1.54027569422489,1.66134697802879,1.71222270665476,1.70926757774476,1.70652443997083,1.43514061039832,1.39905193777234,1.44028746679887,1.46486349384315,1.48259172880814,1.67152945962611,1.61498229701979,1.45466988841737,1.46663622507369,1.44242355464361,1.3828984144343,1.38162528126024,1.40947041920961,1.45374305727226,1.53627014757957,1.63717999970178,1.56080000003764,1.36273002865424,1.36200898521045,1.33405917112136,1.38639077522797,1.40194381020045,1.65776999917715,1.59919573119908,1.59482865353524,1.38390998147256,1.32319661016225,1.32246338796349,1.36966590930924,1.37259847881657,1.4773186419361,1.43323810375598,1.70422999917715,1.53473138242209,1.47762036131109,1.4053036592199,1.40851467050829,1.4268165532709
1.75362199812905,1.75125257326406,1.68152922790427,1.59670693500175,1.59297805942584,1.61241786118807,1.61969019108864,1.66360549272348,1.69655625645678,1.78082059743167,1.77575093033677,1.68029715974955,1.67685528600847,1.64584297938189,1.6616525014402,1.67351804124342,1.71469782634446,1.74034755491841,1.74632718107858,1.75984374723361,1.74151426395478,1.68157806178678,1.68100287005264,1.70406074946872,1.71502168607594,1.75628377382839,1.79248017329578,1.84416538049926,1.81549146152054,1.73323244637838,1.71501940385434,1.71778935754403,1.75029589909677,1.78221527024045,1.81299465545351,1.85366469020367,1.8524426211284,1.85004392411574,1.6865982540958,1.59166732185875,1.54233660706373,1.55523067568451,1.56379335241763,1.64867926680852,2.04471398079074,2.04739366998456,2.04456341011826,2.04234866456677,1.94443522131027,1.663106195783,1.61251587010461,1.60749195335434,1.60336225175075,1.6052175276214,1.61025742674283,1.76965550939744,1.76917133224217,1.65763696121919,1.58200638839079,1.54527541513094,1.56612901145003,1.58150630345688,1.59615642067626,1.60506257904944,1.64917683338476,1.69665053659293,1.61547827568407,1.53441345695195,1.52532220865545,1.51619567978475,1.53627945098305,1.54206699320567,1.54808914849551,1.5596317226519,1.57298873189627,1.57309660049339,1.5754986788351,1.58430045062671,1.62628392147744,1.72053550333383,1.78456302120962,1.80036422844349,1.85609669884127,1.85821658557786,1.5250533324354,1.51703128920595,1.51892999761783,1.52096584929906,1.52239088928056,1.63002330976829,1.66316759010165,1.6193888567796,1.50729098878087,1.47987900231685,1.45577659407097,1.45573710432693,1.49994481982144,1.52406489097784,1.58188038414887,1.61213340626189,1.60853267106159,1.59685019195442,1.59550125783533,1.61000442490222,1.6823923669492,1.80060202307526,1.83942983831614,1.88888186745335,1.91432511949287,1.90861981336108,1.72927262050815,1.63868000700898,1.56284721566275,1.55274038824446,1.5647409124617,1.60926328994611,1.64928771826422,1.76524634422678,1.76787321991801,1.57372191805155,1.46759791602035,1.43826340774894,1.43805500838484,1.42809528555343,1.42874516287848,1.49798034858216,1.49802835556054,1.49760221323516,1.47408521941351,1.47218505968829,1.4935551730428,1.50603973196619,1.51337140973156,1.55885625154828,1.64795454622741,1.71114144889275,1.70926222530827,1.70759474673816,1.44295416614625,1.43887372273799,1.45659205039813,1.47065063795065,1.49549480168296,1.6507640595608,1.63781096849974,1.51573737228498,1.47374299749441,1.44030445374467,1.39207657590177,1.40278591158032,1.4247847584249,1.4521718553838,1.47800857215864,1.48743309160448,1.45722302964424,1.36065105789002,1.3609100427048,1.34304176792146,1.39807717387181,1.41362672869838,1.50011619057209,1.60083633239627,1.59919573717153,1.43290505297953,1.36783790465252,1.37002158179134,1.37133553517441,1.37261025419315,1.42948006948586,1.44589528934411,1.55734358738969,1.54685660408573,1.47799501691514,1.40537355607455,1.40644192403344,1.41810891384954
1.87913358817204,1.75757649939452,1.64306999965706,1.60174242325331,1.58905390647661,1.64211340043441,1.63530560274346,1.65402774437983,1.71444664968698,1.79094522762612,1.81263827188875,1.68942030729349,1.69979789806379,1.60929195120535,1.63349859989353,1.67573255285842,1.71085475576155,1.73459720719375,1.74106077145804,1.82379000119668,1.79198000000551,1.68031799490662,1.67961501440781,1.68909256712255,1.69429968182075,1.73739070683675,1.79506157228823,1.96291895476563,1.9673510440001,1.740025030835,1.68911307501971,1.68840032271959,1.68862548704503,1.78724522018817,1.76314969392739,1.85561982135845,1.8540462770413,1.8547839116703,1.61577984535115,1.59417962759307,1.52987049651054,1.56337198050105,1.58148730074778,1.66823953538495,2.04206506006594,2.05144028457612,2.04282392614458,2.01920446299149,1.91976369304003,1.68532050746876,1.63377072529418,1.61292533396896,1.58555081163645,1.6070490758716,1.62594767536614,1.96299999917715,1.76928186743268,1.61803863458731,1.55311069864238,1.52104194293045,1.58562705169459,1.59253731435641,1.61984177458293,1.61727000802882,1.63285317685428,1.85916999917715,1.6374832632619,1.54249222393896,1.53459053410726,1.50077327471213,1.52192707929992,1.52841185404711,1.53630933813881,1.56111065235103,1.6294200013694,1.57391609471178,1.57435081709781,1.58478113117234,1.62966159074556,1.69866999928455,1.75937076450645,1.78500044446833,1.85214439931811,1.8832688662168,1.51080896310497,1.51389939633013,1.5169670589625,1.52220337262377,1.51449176821247,1.59193885992871,1.73285999917715,1.62000929829596,1.51103599103881,1.43540252455642,1.42767680616212,1.4289191198669,1.49043076851758,1.53155102724768,1.54397745005972,1.61414857233049,1.60784618057452,1.59670211637622,1.58966025572119,1.60257810902138,1.68493085513806,1.82156249046786,1.83087946510689,1.85917040068665,1.92219953118404,1.92335547937077,1.65748090748534,1.63707527281124,1.55478893367129,1.53347341224274,1.58307810540982,1.63711000057566,1.68294100119993,1.9910183327162,1.99029166604953,1.91214999958858,1.46691973156748,1.44693760048201,1.44663351500445,1.4276307213864,1.41222567653651,1.49681900136641,1.49747000970926,1.49624470910556,1.47267238600148,1.43269089176604,1.4792016876132,1.50465743997832,1.50291700034145,1.5859600525489,1.63321515651113,1.71525897331947,1.71314604952704,1.75961999992862,1.4470769679125,1.43427097239282,1.48165099724343,1.47762566682431,1.52991918314608,1.69940999967642,1.64811904398957,1.63617134815237,1.47930942927759,1.43794687110362,1.38268606908833,1.4155763972124,1.4539821846184,1.45169454850538,1.4686274315132,1.50565533140213,1.40705999990984,1.35823606950314,1.35972283103399,1.33141232890883,1.41433814669954,1.43351635997728,1.46461907301413,1.60134739321337,1.72820374507916,1.71235956559527,1.3657923613443,1.37459640094369,1.37158207601002,1.3530159483423,1.40612802771038,1.45548999516911,1.71439999917715,1.55670900686418,1.47829551520764,1.39218124966449,1.36119337122378,1.36304662743382
1.86936843390545,1.76319261209154,1.69512883488187,1.61018265762954,1.60986259340843,1.62787576821642,1.63214319999749,1.63491045398056,1.71108682127108,1.75591014749982,1.7505017281673,1.68116893152454,1.6705041691709,1.62852810462465,1.63177050082928,1.66390899864724,1.70723384293474,1.72235865335796,1.72898610102742,1.78225365768824,1.77072568535475,1.67903046998134,1.67930208755994,1.68895399406536,1.69736731364034,1.77132043939457,1.79671515040087,1.87117565241396,1.85323478626895,1.73286731031115,1.6882574789573,1.68726258202048,1.69518639941678,1.7637138317803,1.80392002860392,1.85277525126667,1.85363726239656,1.75068448634209,1.61252053114337,1.60333844986896,1.594209757943,1.63373471039065,1.66503839583403,1.72661544618592,2.04043919825144,2.03687265963673,2.03385156131579,2.01763782356303,1.90839144155856,1.68527638438519,1.63325036528718,1.63145397414575,1.62901042766692,1.6266920824021,1.63114816794913,1.76874847805622,1.76879905884552,1.61899368755236,1.56386657938187,1.56144300352551,1.59249279818574,1.59382980798974,1.60534077039378,1.6114488320196,1.64646011037311,1.70172984183788,1.6668228637581,1.62218771861495,1.52782884864341,1.51607077103205,1.51854227821241,1.52444961974351,1.55364617317,1.57253687733958,1.57819992853528,1.57579896489903,1.57542057784791,1.58212867454747,1.61108740169608,1.64409205057466,1.64736531847503,1.65426016462463,1.66739684496346,1.67893519196042,1.5437846588176,1.51558453845275,1.51705562413868,1.51758343599832,1.51691797427818,1.58876096332255,1.62663289319441,1.62033918292095,1.51627290578404,1.43201204513864,1.42938325531535,1.42913528558932,1.4808233207592,1.50763229719943,1.53656621017949,1.61140609350745,1.60773792682664,1.59620373043762,1.59644683131916,1.59884942499563,1.6796396289183,1.79300921631803,1.79870119338437,1.80265936358872,1.79977097763284,1.79750904873644,1.6491367577205,1.63731525474222,1.63510082188041,1.66882614722568,1.68286820880778,1.69232289716285,1.7183919377352,1.92376279006131,1.9262801584726,1.60042161524192,1.46413435852295,1.45110061793553,1.43990225935694,1.43492234386299,1.44602103638026,1.49789428369666,1.4979752552595,1.49751858273764,1.47521449480269,1.46061801450194,1.49225443538333,1.50413444084022,1.51276314526612,1.57971020606338,1.63353592679918,1.71351171840287,1.71276020376515,1.71272369461484,1.45436659095871,1.45271842003171,1.47173554620036,1.47417935481729,1.49953550216282,1.59005597696813,1.63984598850063,1.62967605242737,1.48593937861059,1.47243442423246,1.42790639901397,1.42081227326582,1.43272618814015,1.4497284679379,1.47916233577094,1.48912844058685,1.45508567633352,1.37100019713614,1.36482438539469,1.35255129025871,1.387898365971,1.40597718645054,1.44357274653808,1.60083674474291,1.72195436088384,1.71736709985798,1.39071031442266,1.38315663069523,1.36818400078021,1.3660492695601,1.38408212890561,1.46269491234354,1.5868989464915,1.5644426186401,1.51920998677198,1.43272999229798,1.39574183683801,1.40161857280114
1.87911340857944,1.79106987469421,1.85231999944355,1.61004581101046,1.60899247922685,1.62214969768036,1.62021383804132,1.61713915817004,1.70820059893696,1.76137341728228,1.74214636551732,1.67405035316533,1.65624246671795,1.6240104931218,1.63278759074341,1.65494259544282,1.70402008799283,1.70875756565444,1.7205336716886,1.80120760878879,1.7567908271651,1.66957556942077,1.64564132127547,1.6895373588791,1.69946903737123,1.80854380551775,1.80309555289326,1.93303999937606,1.82515282850182,1.72741290708384,1.67471555291999,1.68335950418217,1.70201030403906,1.75098994803591,1.87610999958665,1.97006999917715,1.8548271970628,1.70732127598348,1.60919777778705,1.61271451469118,1.58624705578985,1.67723195346634,1.86109000053407,2.03059153478435,2.04604782823729,2.03802164648617,2.01836764518275,1.99518949509233,1.86546085499047,1.68535256058514,1.60374173075738,1.63046172908239,1.62781226387565,1.62327340763978,1.66145946688093,1.99549999917715,1.76783623214623,1.61995063246819,1.56545502554701,1.55865551169591,1.59919682182359,1.59848151329808,1.59885183384235,1.59887179457429,1.66562857792575,1.87284999917715,1.71668901735925,1.83826999917715,1.5202525286277,1.51454056361264,1.51405162923055,1.52092517654281,1.56917971979041,1.58231163209773,1.57999587225556,1.53869829458374,1.56905616909361,1.57883426017028,1.60032111195503,1.63339990660294,1.53271000025803,1.57221660010114,1.532889999825,1.69610845273619,1.57470000101464,1.46076226878305,1.47087591851936,1.47224411534851,1.50169863301019,1.58597183664749,1.77136999917715,1.62009266932521,1.52174560349309,1.43108604178158,1.42841175852582,1.42876534126976,1.47068354512399,1.46639912712343,1.52967086822352,1.65332007536254,1.61972049685137,1.59526955866355,1.59621072713425,1.57632312355683,1.67277979368719,1.79000915223745,1.79561602388496,1.80942745467604,1.78990387299991,1.79597328844854,1.6433854347676,1.63997927905396,1.63152328543483,1.73365756542834,1.73192239603516,1.79965601194719,1.81670844957109,1.92578197060349,1.93256045641442,1.55392982270666,1.4616036105455,1.45813837989384,1.40924278466129,1.40864798821464,1.47081962477861,1.54061999942374,1.56863477879862,1.73542999917715,1.4779978790985,1.41898999953093,1.50261429353065,1.50249159587962,1.53356686448199,1.56893137081963,1.63380393570637,1.73925981958238,1.71272406541355,1.71318989840144,1.45558221847893,1.4502141645594,1.46957268108851,1.46510759918742,1.46106314582997,1.56323000004099,1.66435996259683,1.61662664366727,1.49528793308692,1.5195094056474,1.43672718538044,1.40116219344045,1.41223152302484,1.44826935646481,1.5136618596387,1.52649301686241,1.57032000022305,1.38545439324618,1.37480694522748,1.33783254969989,1.35497852495575,1.39443587913776,1.42692091081641,1.6008209784691,1.76879688855979,1.77595311020593,1.40747072438324,1.39622480600459,1.36744922632681,1.36482865678959,1.37226364134807,1.46939833961062,1.66271999917715,1.58361289308314,1.58106947084409,1.45381516621519,1.38956596605879,1.40836230603669
1.74446420706361,1.76510882821508,1.79101254933229,1.61692000675968,1.61324548547917,1.61667052426609,1.61885983850422,1.62278521779132,1.68767187164499,1.72335906333436,1.73325757671338,1.66905018285383,1.6588931410201,1.62989653181409,1.63633774319565,1.65510992869593,1.70096662676957,1.70537414592671,1.74623620086017,1.76673214181976,1.72457203198408,1.66661868544292,1.66495466132092,1.69535856999942,1.6990715936453,1.76751064508823,1.79841771832254,1.85828574273233,1.84675376752517,1.72409740235786,1.67681109087992,1.68102720092354,1.71276426138519,1.72794627423856,1.77960753830504,1.85696286530954,1.85569571294967,1.72828059115816,1.67457788771135,1.6653709214363,1.7003397092942,1.73026450587718,1.83136912963948,1.96864637053119,2.02783143193428,2.01741449340121,2.01122680108063,1.99377549912125,1.80214419648476,1.71081292844454,1.65044402787252,1.65123696494888,1.65179658457399,1.69441578250582,1.72481115537094,1.76363485323823,1.76550217523575,1.68489370314803,1.61237216527348,1.60070903609173,1.60314204919071,1.61563466098312,1.62627375865664,1.63764605441608,1.70408958494554,1.73836069167933,1.70736913884795,1.64031713073761,1.52862754032758,1.51467470480403,1.51495056739181,1.51836270178092,1.53803806832793,1.54878989876643,1.56224829472606,1.5547508689026,1.56426643525119,1.56795104275738,1.57955670697421,1.61688363337211,1.59740222772531,1.58098213109406,1.57318769264748,1.56152117722783,1.53156602602047,1.46483652305746,1.46896536455305,1.47080726549709,1.51144180361395,1.56888138375014,1.61828362157923,1.61941668778148,1.53262604705989,1.48395911515391,1.46208130453837,1.44960952048389,1.47456696242245,1.47829377532305,1.5211482960331,1.63638455054849,1.62527303657374,1.5943741519465,1.59594286550678,1.59724545348674,1.65040667763177,1.70833548025982,1.79302406694898,1.80189650997853,1.79639596107608,1.7556006760016,1.66218472904878,1.66465036830046,1.67900600863545,1.72066654781539,1.7588631545075,1.80090053252198,1.8263429341102,1.92035122335866,1.92567928475915,1.53254028961032,1.46572374930081,1.46329235113755,1.44852861102852,1.47593437240451,1.4822811142419,1.56864191204915,1.60083713824263,1.63244787186455,1.48801019987312,1.48161369220519,1.49127995513766,1.50028768482726,1.51427439671731,1.54226844494476,1.61887696601982,1.64568641081906,1.64040758501002,1.57444617994131,1.45560868123096,1.45456571786053,1.4573055890974,1.45928297688429,1.46041481227355,1.53659629377208,1.58092857475806,1.59960549215266,1.47993294260808,1.47689557951942,1.43491868528,1.43344234318308,1.44074761657666,1.44673974284439,1.51866609501462,1.52199719660499,1.50124320537955,1.40030846995742,1.37559300362866,1.37521271565717,1.38553355044914,1.39604993509474,1.482691278987,1.60125850633965,1.60164088872398,1.48815786987099,1.41241454899344,1.38306851694936,1.36758024768001,1.3679685573341,1.38587991549603,1.47738821948207,1.56500941847657,1.58477413043489,1.58361499319367,1.46389660116655,1.40187891809907,1.41372114636099
1.71639957516392,1.74058303755501,1.86247999917715,1.62420174783212,1.55660096403414,1.59358370591892,1.60436542244131,1.6269026152761,1.66340001990759,1.70745021542954,1.77246000105791,1.66610318610277,1.66197769492873,1.59142221361919,1.63953511883668,1.65600210408406,1.69625922903581,1.70238695090684,1.86929958986183,1.83909158301123,1.65166686425281,1.64997860021535,1.63602599278351,1.70464081075145,1.70008325180205,1.72678999926267,1.79538538526498,1.86645196935957,1.86884872276306,1.72126751287249,1.65945006617993,1.6803771145892,1.74548695981572,1.69921250178335,1.69928464925469,1.98706999917715,1.85455551591142,1.74586512873482,1.68621577196171,1.65084067838147,1.80670131657123,1.8040696959032,1.80797292611815,1.91114381551129,2.04231999917715,1.97676445917599,1.9783910618741,1.97775141840124,1.75292830990195,1.73551861119646,1.64911006799121,1.65084322718522,1.65177698621569,1.74042000000247,1.9902792195918,2.01036525451735,1.93063732192791,1.92824415007163,1.62317930049802,1.59970829028477,1.60645274871813,1.62285106277841,1.67052710522449,1.64908903749595,2.09315921768406,2.10394078108166,1.69113564377463,1.59148999936401,1.54448357460628,1.51432038118176,1.50028994168707,1.50691388545073,1.48520256868726,1.52673358568472,1.58026880192387,1.50376202406227,1.52386059281871,1.52411294019954,1.5641084563439,1.62769307425563,1.83888999917715,1.80726253247099,1.81259999917715,1.50429172378283,1.50437528942119,1.43253887542957,1.43287977613287,1.4330286317047,1.51736890401223,1.54745128664454,1.71256999917715,1.62034169311979,1.54204095298739,1.51231957929736,1.47809819598113,1.42873290914118,1.47750955185448,1.48540675788387,1.51241770062242,1.87770999917715,1.65248749719217,1.59240674455583,1.58536280654233,1.59855904792837,1.63718881778444,1.65384000065418,1.79189671406385,1.88697999958858,1.98277999917715,1.71548637466166,1.66144566185689,1.66898871235143,1.69523484783685,1.71000270806253,1.81092734547145,1.80026488823324,1.83710740685388,1.91181854112217,2.00039999917715,1.50999999914951,1.46956232034522,1.46613417118522,1.43918603844761,1.49839479019646,1.49918385789803,1.99681999917715,1.86649180736188,1.84820993889897,1.50898344995656,1.46817717399053,1.44370119746772,1.49771727792772,1.50285135194859,1.52599228324315,1.59906063101883,1.67032858718708,1.63772342907662,1.51282999979182,1.45647247812064,1.41699690026585,1.38360999883222,1.43043686163036,1.4341408072448,1.50835918573258,1.56177103964419,1.64588999970902,1.47029800943805,1.45168896073862,1.41053097678535,1.43118728332853,1.44597691622997,1.44505146002629,1.62642166604953,1.6243083327162,1.47168791058863,1.42960821797754,1.37689165263197,1.35847006346272,1.39678330260074,1.39774948083658,1.59484139113298,1.60324115195921,1.73889999917715,1.42920999906814,1.41690805621238,1.35283095074485,1.36796043000716,1.3686460882952,1.40637843380356,1.48550588020654,1.55363811928113,1.58567535932077,1.71966999917715,1.47554970749713,1.39077480181381,1.42041738335114
1.70302291539731,1.69338293494899,1.67639701625728,1.59509358993429,1.57205595010228,1.58204417096118,1.5945962357426,1.65214135182256,1.67598156696579,1.72134365802385,1.72750518872104,1.6646780995429,1.63868387294085,1.61096907755013,1.6235422183007,1.66793365451293,1.69230993731046,1.72869566948813,1.84798019482804,1.84128923180803,1.64980622225989,1.64759543859067,1.642194422729,1.67341017398296,1.68746782875106,1.76358707322789,1.79451137609286,1.86743375723784,1.86823645403286,1.7251849895112,1.66746611006892,1.68108857834201,1.68442696919378,1.70084920298418,1.69887229166465,1.85337520718895,1.85305592147525,1.7481486523319,1.71815594527779,1.73150028228531,1.79795621467529,1.80146442732354,1.80547647492588,1.97340782412085,2.0248800412777,2.01267967171771,1.97749787527335,1.87152042548716,1.76372508064493,1.73241848433461,1.72572355866995,1.72607660538031,1.72608511494243,1.78383770114333,1.99509036852535,1.99822584355316,1.93336805132409,1.91732870145405,1.70079479990741,1.63056732407726,1.62119151145603,1.63200825560631,1.65755188135939,1.65934184686248,1.66286028094436,1.65431148020176,1.64953837266002,1.62414024669784,1.53613753108957,1.51523341834469,1.51489261388129,1.51411302334067,1.51494041288388,1.5365218416005,1.54442692321141,1.52422608679129,1.52394782954844,1.52386117794718,1.54114100961216,1.62951803255681,1.77279777504451,1.77264358349513,1.77332451722142,1.56477730176791,1.49645944801062,1.43276313430737,1.43285885796747,1.43311684343727,1.49165457819958,1.57489752586293,1.62613471654345,1.62099581389381,1.55991440705269,1.47877150727098,1.46953804918574,1.46210326771445,1.47925024124742,1.4948573378835,1.51474211988206,1.6976287948295,1.65401119695681,1.59032955352757,1.58818006142582,1.59541774656675,1.61470413409817,1.70803895109656,1.79151243105655,1.85148773775549,1.8641254348671,1.71555341869801,1.66715038497266,1.67364623480341,1.69737920922669,1.71163157142765,1.81162832254969,1.83543024422383,1.85623719044044,1.95166814684629,1.96853408763033,1.55461923593746,1.52097409885846,1.51586182377422,1.50648932469145,1.51354989605803,1.5610680891414,1.89208796671521,1.88242042318938,1.83905877850227,1.51085115952666,1.49286948198334,1.48016164335228,1.49498516978519,1.51189007812173,1.52599937670318,1.5799723253835,1.63715159284969,1.63591142366198,1.55332364601987,1.43304400030519,1.42750601005825,1.42575854321163,1.42759818843065,1.4417933453332,1.49516363154835,1.5100640313959,1.4893308800724,1.46022324642949,1.43926703280807,1.41777999842631,1.42423947522788,1.44141007857983,1.44295086771525,1.51208141302089,1.5458742461152,1.45590851637444,1.44079253362141,1.37965167258882,1.37835652725557,1.39903881197643,1.40880862357459,1.50409793835226,1.61030058820812,1.61399827246224,1.49111800568113,1.4216643303416,1.41999031574729,1.41897480612562,1.41783819995616,1.41995686361695,1.45751695718543,1.57701334266567,1.58805597050028,1.59783277584869,1.45068535896001,1.40587196209335,1.42176731883149
1.79475999917604,1.68540777193298,1.63609045356028,1.55487000018993,1.51655015562753,1.54448490694975,1.58551214547724,1.68214019864169,1.69201899313074,1.92148999917715,1.73557647857996,1.66412264528663,1.59030863183945,1.56939234554757,1.60214992611003,1.68456156989346,1.68983781266575,1.75753995449606,1.85695018431139,1.84376201183321,1.59357876595884,1.61305410783899,1.61046687667213,1.65384474089882,1.67727655488935,1.79916627082933,1.7959727547492,1.9165733327162,1.91730666604953,1.73023116450321,1.65773296821347,1.68181396088577,1.68118054622974,1.70486855497058,1.69544571974489,2.00293999917715,1.85123870092109,1.75079471461569,1.69428226981992,1.74430849905804,1.7803711564363,1.79903732964598,1.80306724216532,2.03269999888447,2.06680000035138,2.02789999911845,1.97408791960739,1.82553286786545,1.77453182191853,1.70417135594466,1.72439419422191,1.7253194760008,1.72462978929321,2.15168999917715,1.99721716507535,2.00156657212953,1.93591705536634,1.8999898489997,1.75132160855099,1.6470085553715,1.60721025001121,1.64223122630319,1.65600407568419,1.70184220350364,1.66669121135394,1.64520212155004,1.64711045675377,1.64529390279205,1.52458352600091,1.50408195556971,1.5143437118469,1.51450415993391,1.51605313574621,1.62055000010727,1.55417675521002,1.52484181591587,1.52422755413518,1.50203184158568,1.53095125186208,1.63098889017557,1.77499613842289,1.77406380125417,1.77504638187994,1.78276893090629,1.48816980164767,1.42091845420705,1.42297258347616,1.42537630955161,1.45859559496994,1.60601000100453,1.71255999917715,1.62077153901966,1.57917818021581,1.45784999953326,1.41602137475009,1.45511586239155,1.47962408169525,1.50803694563989,1.51763651413271,1.91386999917715,1.65629554968054,1.59028837930436,1.58325360277952,1.59308365882042,1.61076865817875,1.7768749911608,1.78891249241242,1.82508124059924,2.03909999917715,1.71602263766617,1.65416174719344,1.6778617574899,1.70081945381103,1.7156815466621,1.8119224082029,1.86058552715307,1.86731017002597,2.06208876429745,2.04587123446828,1.58655609750287,1.53194902169556,1.52041873594912,1.48913175373918,1.52648846935134,1.9573783327162,1.95749166604953,1.8873185880845,1.82538626096527,1.51283638078547,1.55373907347311,1.45055067936357,1.49288570363163,1.52103051989732,1.52630302437359,1.555191991746,1.6607200013168,1.63231504765834,1.58252149645818,1.41955854660045,1.42826615857794,1.42602161993932,1.42536791119897,1.4490098114654,1.47571415565585,1.55451000022892,1.41774189672431,1.41795545003901,1.38312203272056,1.3998666511148,1.39979685439655,1.43755980089942,1.44116686436733,1.43963899966485,1.73583999917715,1.4477302396031,1.44810339016587,1.38451265911098,1.37841609173062,1.39966934518538,1.4328822069902,1.43316632775692,1.61419974186668,1.738520352035,1.76363964672916,1.42439490800964,1.42433466549939,1.41803672083323,1.41380641541883,1.44316730900969,1.40427146741983,1.5853300937677,1.58992937097666,1.62371987694782,1.42780917439051,1.37933084886935,1.42251374616941
1.67960585069957,1.68185545313941,1.65971670886709,1.56890128583839,1.54649913801721,1.54711114601382,1.57825451078172,1.63457449440974,1.6671621939076,1.79613968221154,1.76550217781615,1.65765569502836,1.59823352130793,1.58212242837571,1.61374988070331,1.65412260543584,1.67320749635293,1.72123110956629,1.74219304445398,1.76584336065757,1.61359703040564,1.61386395293395,1.61305640626194,1.64882723719634,1.69619424110888,1.77794833670037,1.78242560520453,1.83862490314986,1.80596746814782,1.72125830668206,1.68392648739507,1.68273471258565,1.68228629931377,1.68684310249595,1.70445001067063,1.84918440278585,1.85011306940506,1.79084491052494,1.7640700089926,1.75831042653749,1.77400568677674,1.79634557338416,1.80095774365866,1.8429965934189,1.95679927713109,1.95718775588603,1.96098342781245,1.87205293420575,1.860969910488,1.84932573380037,1.86181480292422,1.87053500733388,1.87480796594403,2.02153419975521,2.01777244945698,1.99720412466859,1.93925729001745,1.85141593266844,1.76426204372192,1.71837871133117,1.70043099889318,1.69967555686954,1.69995128421873,1.70080841059444,1.68352920570666,1.67643960201128,1.672623173841,1.66734645041379,1.52866549795255,1.50494629722136,1.51003519424684,1.51320777398676,1.51488312129832,1.57877557288927,1.56511012528009,1.54755368870944,1.53256075170237,1.53139203508285,1.56380549847875,1.63472493144855,1.64705887045046,1.65607093097126,1.65653312472129,1.62825676078283,1.49139383832773,1.42080521676039,1.42232639185369,1.42413079993598,1.4524641486927,1.56442515725751,1.63249015253676,1.61940828181898,1.55556694666928,1.50218634379841,1.44027358307065,1.44454386586297,1.47939204131318,1.50999865422271,1.51177110273344,1.59183078224293,1.59168978271989,1.5902441399351,1.58804426270608,1.59093732771508,1.59518662566191,1.71497696158985,1.75529772359539,1.78477684163884,1.81889202431481,1.72433515044345,1.66329318779361,1.68140856258139,1.69646780212869,1.70900569306878,1.84904848277513,1.86189995120426,1.87336541841661,1.92097426706269,1.92793086050262,1.58576967796664,1.55472295279613,1.55964924782812,1.56185459802948,1.60419096540403,1.89110170997234,1.9085666694181,1.88857484421459,1.87178807291451,1.51791946207632,1.50734687691562,1.49010401148459,1.49100898225544,1.50345274069458,1.55253103600879,1.57097510622187,1.61894919418396,1.62441775451702,1.59405818956321,1.46140108657683,1.42635259340508,1.42380122976856,1.42356924632208,1.44826846460051,1.47282873832096,1.47059317172006,1.41766719566894,1.4184342364121,1.38905093675651,1.39382193626761,1.41119092153198,1.4310396480686,1.47017601748726,1.48576022711903,1.50502443561312,1.42733237779842,1.41810852136832,1.38998808669636,1.38395219459133,1.39810950017038,1.45150397040412,1.4578521314543,1.61634411719546,1.68074794312334,1.66148974542058,1.42436317639801,1.42332242815821,1.42016013551247,1.41766504598236,1.45254239987858,1.47728486136968,1.5904609914524,1.59269502765628,1.61487320412782,1.41325523946505,1.4002573921627,1.41059453173789
1.63323329498756,1.68856786258753,1.73459756919149,1.60298664753258,1.54586559224132,1.54897841274085,1.57333418625962,1.57295237381677,1.63592169609909,1.88262479828016,1.88995520048557,1.64657020027462,1.6066050841297,1.56635318222848,1.61946391774301,1.61894710168369,1.66479151405845,1.68198921425445,1.72132214752448,1.80059999773988,1.61163791403208,1.61381873760307,1.58237143726847,1.64150348096922,1.72015823206491,1.75857051264721,1.77394006266839,1.90038999970954,1.74529955533737,1.71165644773798,1.68471043452685,1.67450111612905,1.65276330597126,1.66591222812731,1.70972392147062,1.95309802555813,1.95694711835361,1.98618550589405,1.77298920847773,1.70873166120935,1.708138337645,1.79291290140567,1.79925352123543,0.00381067744651539,1.95731529393543,1.9520533170885,1.95698398572723,1.90231389845023,1.88837477986663,1.83125754534163,1.94887999917715,1.93646040646107,2.03296252274403,2.03234171669295,2.08076999963959,1.97215299062143,1.94373669042428,1.81003149651369,1.77526187610779,1.7279927853398,1.70223631981904,1.75087448778563,1.8027399995886,2.08289999917715,1.8625900993867,1.8634925399945,1.78588507893932,1.75769138311127,1.53509200262055,1.5028984162948,1.47142386668493,1.49109349460501,1.49142248119502,1.59042028160628,1.60557923752279,1.55846623063165,1.53383107230372,1.53039093190547,1.5925481355673,1.638097560659,1.49554000082353,1.65452701319955,1.65568802717255,1.61730102261946,1.49499132860551,1.41881771996987,1.42093552307449,1.4002406123086,1.44245373845672,1.52763407544944,1.84121999917715,1.63023964358337,1.52747241565668,1.54992821254259,1.43209715169056,1.40762323706594,1.47950272097799,1.52222287454474,1.50925547407493,1.59063400689951,1.56230081298791,1.56233503304457,1.52340232758829,1.55035726016028,1.58637921901611,1.67593543581298,1.73237961537832,1.7352518842414,1.92071999917715,1.73355429531728,1.65461060188702,1.68508911224174,1.69132633013237,1.70592642582157,1.86624655757917,1.86218118032468,1.88236075470464,1.91419069588968,1.93999520436441,1.58537210072664,1.54942364130617,1.56186326615668,1.5635032849666,1.84790071067088,1.84499407469203,1.94212586368341,1.93738600057621,2.01135999917715,1.52386894599366,1.47308133923452,1.48919710572648,1.49032768253225,1.49258507295318,1.58361860205429,1.58544485652548,1.61273883655172,1.62888017457161,1.71408999917715,1.48886858601337,1.40961031084342,1.4234408603217,1.42206684492686,1.44715473774428,1.48473013389282,1.46894498493263,1.41699082555564,1.41980998638065,1.35567028049939,1.38253115710994,1.42613761491641,1.42128058524992,1.48384506228197,1.53271504949399,1.53009901570439,1.40923593022656,1.40832506141673,1.39567587229746,1.37521362658038,1.3948907329673,1.47618856133306,1.48316888316446,1.61757475438489,1.72020000027661,1.64117440300176,1.3812032546649,1.37089818791594,1.38878055638283,1.39303922477241,1.45756959869262,1.51789890094379,1.60941555026104,1.59899844950303,1.62734873837424,1.3557396574553,1.34590335984727,1.37064500588497
1.67589486507709,1.69988664947792,1.71293021536742,1.59905879698698,1.56890645289587,1.57141333236015,1.57373403765548,1.57849516709212,1.63025989532658,1.67610797312916,1.70918871599475,1.63273095838326,1.59864729376064,1.58590278970003,1.59734185358599,1.63039394643851,1.65994189009486,1.71292708834152,1.72937387259276,1.73603168304186,1.61353333444926,1.61440758753241,1.61416485681535,1.64499921162286,1.70513283770121,1.73968804467237,1.76829348953823,1.78131345133362,1.75858190762541,1.7105934082088,1.6718107672448,1.67044725935889,1.66295031703856,1.66900675785986,1.75574288603072,1.95894081130748,1.95958326002981,1.97956604389388,1.81906805085372,1.80866725598766,1.78463077790005,1.78756950833744,1.80402305702324,1.85057900603902,1.95567073830621,1.95446545831816,1.95579556602129,1.93988236696536,1.87900850322038,1.87592020846858,1.89837525224236,1.90769591463411,1.92195344804385,1.93102501420905,1.93421826922122,1.95013854051301,1.94883045673908,1.85132831751816,1.78256872659987,1.73871629082076,1.73584261001274,1.78246548481646,1.83368407344635,1.90810080859112,1.89350074107388,1.88618783735228,1.79504107473352,1.7858778876753,1.53054093338952,1.51332390917436,1.48994405003921,1.49057683776804,1.49109264091918,1.55003967689448,1.56116561824939,1.55847865310128,1.53525198931405,1.53488404114414,1.56879081709794,1.64033290955409,1.64577328834244,1.65128758402616,1.55562610509491,1.52099559700641,1.47035531215359,1.4279068805985,1.4271967214757,1.46635322894193,1.47326842296664,1.53075300375455,1.65327319323474,1.64484328891751,1.58438200145994,1.52106563729533,1.43027337894001,1.41521362126773,1.48041503194775,1.50206137524765,1.54057607175801,1.57396101367443,1.56310405163329,1.56265014813461,1.54203496878675,1.55612572646861,1.60696918253336,1.67796253985644,1.7290424677958,1.77864599415815,1.80832057627906,1.77817066484577,1.69139117943106,1.68898538926773,1.69071120383175,1.70604520545478,1.82736363693423,1.86092811632666,1.89316864209243,1.91264871318394,1.66198927489072,1.61481872972425,1.61487385045789,1.64085295872033,1.65088974286278,1.85159201005888,1.88107960223383,1.8844161829676,1.88313521109791,1.8834007259517,1.55730047248193,1.49382586726994,1.49033077441919,1.48961270147468,1.49641294344399,1.5735989512812,1.59205844367016,1.61903702611219,1.63103696326171,1.63211665488928,1.47409758521027,1.41384800746681,1.41801332330848,1.41979156042018,1.44975108603163,1.48005329384398,1.47618278060029,1.44981623207567,1.42370718789934,1.41075829515052,1.41053775052868,1.41916357041318,1.4308636439067,1.49938974224403,1.53112163591587,1.53025013863385,1.41045048979381,1.41129154721578,1.4005197518836,1.40267136094666,1.40507123068853,1.45568194106796,1.55047018760553,1.61813168446927,1.66796879614624,1.65358904849963,1.3782522145789,1.37507449274707,1.38637442254641,1.38912719482374,1.43129739617408,1.49630467891536,1.56387765384287,1.54282069717029,1.52196561952047,1.35291757511274,1.34980329287779,1.37072705410015
