0.824889095603427,0.825262918313877,0.82615447266052,0.827625777632238,0.829369493664481,0.829343193598325,0.829468828212752,0.828571318080958,0.828183755636741,0.828663634469267,0.829857817896827,0.831076994414722,0.832648224257637,0.834398129347771,0.83587891586474,0.836065068548015,0.836142427722555,0.836433632719178,0.836666358686258,0.835728756864162,0.833291576862529,0.831914177871778,0.830024045285202,0.828925429733613,0.821995654734389,0.817773734879288,0.815709685420118,0.812802959311366,0.81011817008142,0.807986079265912,0.803683755237537,0.802302323585076,0.799692232717614,0.800463928624326,0.801364044656216,0.808256373118492,0.820118196404222,0.819469361358945,0.817741489351994,0.801797985163767,0.801305962638433,0.801475907703946,0.801950929993759,0.802439726478783,0.803120095907214,0.803620989487947,0.834000597257032,0.836479451352811,0.836979590657715,0.835451033615172,0.834521567739381,0.836267762325743,0.83818935373255,0.776870497932537,0.771188569071326,0.771017065524627,0.770773249699438,0.770251850963012,0.769125340456991,0.76753305407715,0.764084138039798,0.763539368924602,0.7634366653716,0.763961378012501,0.765794856419866,0.769050971127684,0.769507209240017,0.77071258515784,0.771303503023135,0.771984631930229,0.772034567529668,0.781220194897281,0.785638449310298,0.785336995665485,0.784969237560952,0.783990547365228,0.784046565471725,0.783925654453804,0.784221358637809,0.784650249970986,0.78473979256364,0.783779884319977,0.782499762451229,0.781944163050576,0.781388690330996,0.780482334238467,0.778881439004429,0.77647279653439,0.773460286264897,0.772061985096715,0.765875129125283,0.765603463542558,0.764339543003576,0.763746575022412,0.763035320560241,0.76251537262259,0.761916646818804,0.760315397336002,0.759725090916043,0.758704465901734,0.759049368800767,0.759445270531566,0.736911003847504,0.736203067281234,0.734589073230874,0.732900028362994,0.731829023123944,0.731195838746324,0.731459929253562,0.722464328959576,0.721744305369979,0.722976887801217,0.72439263174914,0.724763370573148,0.724538727326075,0.723732316529138,0.722268628323228,0.720489689114636,0.718907755460087,0.71791916856692,0.716841311733059,0.715711221087207,0.714680053108987,0.712300752424285,0.710218303326897,0.708647178707082,0.707719932893879,0.706753730112811,0.706395567687899,0.704941527126693,0.703791439910336,0.703306249065585,0.704422744079069,0.707486315768329,0.710288226579257,0.711243175118976,0.7115156290782,0.711489468158555,0.711602100460214,0.711824990986272,0.711642474614811,0.711422101655598,0.71062923423051,0.70960202372263,0.708397479771066,0.701011159067214,0.693713279722684,0.693936242206321,0.692964193045146,0.692663639506968,0.691297768616452,0.690466950676517,0.688980950750219,0.687845531634171,0.686279059655335,0.685547992554731,0.669079017249898,0.668984903803917,0.668449042852872,0.666935440309526,0.662978866405447,0.661863504701017,0.660645524217586,0.660627345247249,0.660628516791071,0.663256931761942,0.666598661224317
0.825221049755636,0.826462478104701,0.826317034026279,0.828654283971056,0.829499425158056,0.830206514269125,0.829895776811259,0.829143169082288,0.828235399591422,0.828878579514545,0.829845006050211,0.851057497792658,0.87404762793915,0.874453621562753,0.875472225315126,0.877202716958079,0.940132166755226,0.890435996846835,0.837952922359736,0.836711059358451,0.831034289753588,0.831179958852232,0.829210414688422,0.827526499019048,0.822681607708862,0.815634427529233,0.812325465227171,0.811255365508763,0.810357601469532,0.808274921905749,0.807383226553057,0.805615222502157,0.798183547514444,0.801299732659286,0.802116426895523,0.811250257697077,0.820198612199186,0.82051093865632,0.820571908835067,0.80172808125802,0.800830681205812,0.801751898124362,0.801930471100744,0.803122882904401,0.804329542354359,0.804219137078118,0.850062296542242,0.814487897703898,0.78223497908625,0.789425654977005,0.780601461904831,0.799868252216967,0.837424427081634,0.77859352776555,0.770164727003922,0.770478271141284,0.771174462351639,0.770966385937564,0.769904808838686,0.769319853142383,0.761241929811154,0.762573324919723,0.76054783891241,0.760965913988443,0.759504620599628,0.779533457072462,1.0119128891235,0.771342267459925,0.770956243987736,0.772792086418546,0.772758551124048,0.781675378575668,1.29227409360768,0.879339824653902,1.29772765978546,0.875313619149789,0.970357083332997,0.787735754424981,0.786614327051773,0.786270265508532,0.786424791463707,0.785641579600427,0.783865014353521,0.783899894636032,0.783351200646923,0.781780319958002,0.780249924143631,0.777941746659664,0.773064018830695,0.77277099714408,0.764010477849696,0.765197272839307,0.764403418840564,0.76346691828713,0.763268308779053,0.762738376152625,0.763174022236516,0.766163089049551,0.777421396926483,0.766948538367331,0.759749505065366,0.759722948959117,0.736498695259017,0.736304064218808,0.734653418456631,0.732149077579211,0.731802203167099,0.730826915158082,0.731372700221336,0.72529625389834,0.72079312039997,0.722271923082416,0.725677987499194,0.724535510408208,0.725920255256777,0.724103552077899,0.723275213002167,0.720172557797215,0.719025384582581,0.71802412840319,0.717086656850605,0.715591291596661,0.715148043503314,0.712592235706155,0.709467564537889,0.708892144536515,0.706560271137809,0.707145468965461,0.705514896871714,0.705786230194004,0.704305280089756,0.704665098661476,0.704470263498633,0.705695094347504,0.799562813655085,0.711679605392701,0.711590255046637,0.710799137318689,0.711552522915866,0.711109213086038,0.712113237860263,0.710979336671083,0.711386932869952,0.708903217719338,0.707102675308253,0.701956764423035,0.694154738112439,0.69337523738258,0.693972223933569,0.692285193068824,0.693229579519924,0.690773920478635,0.691117750842847,0.688669922691379,0.687395129736455,0.685227784718787,0.669185423472572,0.669062923573957,0.668936537498138,0.667892088360173,0.661835197731718,0.661069576209549,0.65963519279865,0.660126767128003,0.659864078626875,0.660787475113658,0.659839247781828
0.827356257153936,0.82748146311575,0.828679677450343,0.829035607953506,0.830740295498057,0.830454673801579,0.831233620308238,0.829569147945952,0.829285421541065,0.871638609311101,0.935233351979594,0.895635442580388,0.872947098339595,0.873759300968919,0.873952810889921,0.87898212274742,0.880310851684718,0.922698144249882,0.960619888326211,0.882302582765738,0.833291201427628,0.832668109453754,0.827072785141168,0.825217082100765,0.907151909516771,0.813318244479973,0.811137147908602,0.811297129213694,0.810138578285541,0.809187331146978,0.807538529809232,0.806649923042924,0.805503070830689,0.804141591137106,0.993101770652162,0.815156007146697,0.821562701151963,0.820633147669364,0.820785289293229,0.802251775657553,0.801919411815409,0.801988209327641,0.802855421531967,0.803150289578842,0.804214429448515,0.804535971952716,0.804862945368151,0.806991191762437,0.810725004967644,0.790083420347881,0.780750079273296,0.7821906870386,0.781079924300036,0.780513575369419,0.846282925541074,0.776643924284782,0.773464310162381,0.772373730752734,0.770188642651615,0.769085502410863,0.767501321366167,0.765476600793974,0.759662605793579,0.760155007819695,0.760168300146734,0.791001249994766,0.810540448030155,0.772417519356979,0.770421661253251,0.776072099816058,0.778826025177192,0.782023982916055,0.781773861867289,0.813799204026934,0.811887723928404,0.811017883935032,0.78917555614966,0.787893225359452,0.787880703132956,0.788168655999625,0.788374833353425,0.788826855961472,0.788925574416836,0.786589875149144,0.784952045424584,0.783720845713238,0.78251862739175,0.777519444391896,0.773228072158538,0.772645812640598,0.77133505824902,0.767765454032412,0.764178805940985,0.763495408681754,0.763629086394663,0.765540547397699,0.820840482493212,0.790544365895727,0.807336279008975,0.807058477995753,0.807008557617634,0.783095066634894,0.73664873831998,0.737401027356085,0.727558703153044,0.729290672333205,0.729102885243365,0.729915052027196,0.72933095831105,0.727648046103049,0.718983439027067,0.721008269764768,0.719850735580926,0.724183759330752,0.724808443046273,0.725765491645452,0.718758670834726,0.718812557455795,0.718436657117718,0.717788026211783,0.716194790290003,0.714706548434271,0.714677260213909,0.712525421603026,0.711657952158742,0.708588946719718,0.708279750730036,0.706453865240788,0.707239183246826,0.705005799940421,0.705842427777173,0.704265408053426,0.705452244376356,0.704300219369209,0.703418220586086,0.702674009845896,0.701725800587237,0.709351606966477,0.709521767382692,0.710514497532152,0.710784252322196,0.71136659279445,0.710044067346566,0.709385190981048,0.706048255070457,0.702743817964311,0.694021193982751,0.693576065284338,0.69218134433354,0.692958262116076,0.690348515624094,0.692289524680868,0.691045483341768,0.689733463477488,0.687407161331589,0.684439746136096,0.683455702545093,0.681822782681281,1.20048467908838,0.726711759901091,0.970661082798989,0.665356880696771,0.66305249693928,0.660670659577578,0.659550766812341,0.661441651640312,0.661895337494657
0.829231067302565,0.829822128005302,0.830157207233551,0.830900990563045,0.830375713686734,0.83168898576673,0.831911282283657,0.834609513606503,0.91967657041476,0.907336169827075,0.932448614268753,0.933584716053231,0.941669229292583,0.919730602326618,0.941221209549439,0.912944723176484,0.996297575732584,0.986364113657706,1.06893581925998,0.909323000370987,0.869568459208052,0.888864822946148,0.90802050957676,0.821698674651842,0.809104751578499,0.809486661419317,0.810429405887172,0.809796155611487,0.810222905770522,0.808571972217115,0.808809359216332,0.806857663662002,0.806021907984844,0.805583710656731,0.806697610184555,0.811170625750576,0.819954738295655,0.820376553447551,0.871287342232675,0.803203915864847,0.802419194443367,0.802810862620286,0.80212513192472,0.803231179106668,0.803819308443729,0.804292222818568,0.804963326110326,0.805665871484301,0.794891943282705,0.795040202684711,1.15768523911882,0.785256267426335,0.781656651906406,0.781996945513404,0.78105600631639,0.779662883217597,0.779118232725195,0.776604889956397,0.775783711184483,0.776280698068901,0.775874155100624,0.775797593927579,1.01529373166952,0.924386049964818,1.0568495374653,0.844291662526453,0.770948748163863,0.774705124647797,0.778638030100016,0.779282730863746,0.77969210715965,0.785649844885153,0.948201970735756,0.815122907501087,0.809405529625404,0.810272380207397,0.801393227186364,0.79389896440144,0.788008171342187,0.789130621940418,0.791968428172387,0.79105420660508,0.791093052947069,0.788305726056845,0.786320931354006,0.784659057377969,0.783350104938485,0.777396592136088,0.773930239597294,0.772475677201557,0.770847897132649,0.770023670410844,0.770351852347518,0.771958953962984,0.891140349758694,0.771523557319113,0.770856672662096,0.770719515238393,0.768856095967766,0.806520608258221,0.913921885497978,0.816231715747347,0.866016175720114,0.739017607368811,0.727933849621728,0.727818145593581,0.728372772218683,0.729564202560425,0.72929716025815,0.728671805983452,0.719453570413614,0.721153596614117,0.722859839317095,0.724200206364236,0.72756142381221,0.72690955199785,0.727967203546105,0.729519614294254,0.728793441826426,0.72900753498265,1.09607468067793,0.722535624739212,0.712879898575136,0.712872483843318,0.708744549230678,0.708483061409064,0.706516081533177,0.707468914382576,0.705410381142146,0.705856405576729,0.703193059740111,0.704422968708478,0.702852148259063,0.703877465568901,0.703355856782904,0.703368143107863,0.703756105732039,0.706354006610859,0.707721086935519,0.708921473541582,0.71070952887531,0.710686119497618,0.711609040950701,0.710785723796995,0.70335152089514,0.70185870432032,0.692298227515073,0.692266524394516,0.693653161593099,0.692091966688917,0.693816346867749,0.692098850578277,0.693375299493759,0.690090407471201,0.680601187240771,0.681460019767615,0.680520404551165,0.680328109291241,0.6794652887019,0.678880439210261,0.678437494117559,0.669440592090809,0.660252868732249,0.659669447598991,0.660451840881791,0.662356537944078,0.663887175887542
0.830541098623134,0.829991693401106,0.831911206414373,0.831190461194679,0.832853171566371,0.832432938542046,0.833549088520862,0.838396368231878,0.844658986207956,0.896625486974773,0.938440009656055,0.935705548583376,0.944571883769197,0.899606917788022,0.865433967048444,0.899024826157711,0.970109037389292,0.972258038640675,0.974309757293377,0.951152331814534,0.951422807692936,0.938914444556145,1.04995888289756,0.819363958150729,0.809079977025491,0.810141348541829,0.809265501043476,0.809799766706674,0.808323735283843,0.808642530018065,0.807417375352059,0.80714638873085,0.806250232523522,0.805651486142471,0.804847943492202,0.804689217444547,0.804781238183719,0.805045815321271,0.805193927779683,0.804387268790508,0.804328651104332,0.803164031529288,0.802953664681622,0.803258169651428,0.803735604148623,0.804736997668212,0.804832746849956,0.805834672446624,0.841670196654027,0.795840678946656,0.795990033485309,0.78805276366974,0.784906418169986,0.78420986455087,0.783178332963481,0.781262813508107,0.779714699664997,0.77713150836688,0.776083512782679,0.776456693564075,0.774918366762245,0.775901118439401,0.775489894502743,0.896662571040556,1.01841663527246,0.947011321513871,0.99257668067905,0.78767798897715,0.784202045472912,0.785597905848903,0.788084817865506,0.789376865774317,0.814863685563025,0.815716288898303,0.86584728504467,0.839921335467162,1.03556036273561,0.893109208818424,1.05651790167894,0.800439214666491,0.798331855265705,0.795791791031139,0.793160215751646,0.79027740489373,0.785573356658531,0.785690703647986,0.784003280552194,0.777332884195661,0.774548207950818,0.773244213417362,0.771035342466121,0.771497023795066,0.771852805010359,0.772590019505523,0.773084385647573,0.772613809589031,0.772540586274037,0.772543628895912,0.805844135703315,0.806049478674906,0.805087674088738,0.795832118784797,0.740118555472598,0.74031472072721,0.740465564554386,0.736173553368338,0.734502314167368,0.731968866100252,0.729613491148547,0.728397266605725,0.723306044084144,0.723517913513647,0.722883070255459,0.726071400435066,0.728049617342189,0.728846202937676,0.729761722720029,0.730168462406484,0.729193005739885,0.729824589943583,0.730752047801183,0.728297075682247,0.726812855813435,0.7196392679067,0.707956167897545,0.707973765328185,0.708883734470926,0.70712206826693,0.707060221369831,0.705231122616417,0.705241347328264,0.704071197653993,0.703963200872799,0.703853342689221,0.703602759515987,0.703990734377903,0.703805403711273,0.705445127099503,0.704674293167321,0.709009836114696,0.709943545378971,0.711763584363421,0.712646087131725,0.711952137791657,0.702744922562073,0.700746446111489,0.689668770219463,0.692408114293107,0.691001102691833,0.692880707883391,0.691826349941997,0.693031298535354,0.692437649141362,0.690979115212065,0.680181763419878,0.680796311213578,0.679952122811521,0.680125667892757,0.679309122328365,0.678753989500313,0.678306018983746,0.674157362393265,0.67383780428125,0.669398356863102,0.667187222707374,0.665754023031684,0.664391355107111
0.829152725952691,0.829402386858784,0.830393782295179,0.831156667979903,0.832255502986124,0.832897760788232,0.85169592079592,0.861996008617106,0.86641351029296,0.867142694389945,0.867449861842221,0.86919555732412,0.870674933885892,0.869383582916278,0.867128088262649,0.88758258338284,0.896961913721612,0.906635606407122,0.920428700387385,0.949820597633621,0.948436379087696,0.931590455747813,0.924516837725637,0.818354370923806,0.813801624667969,0.811834168968291,0.810393369153623,0.809687798939239,0.809157573433127,0.808462396758841,0.808028068237468,0.807322901361002,0.806796354662852,0.805975659164998,0.805241434860835,0.805065004867821,0.805241408828242,0.805456897442899,0.805510764515505,0.805298675127296,0.804592968246962,0.803818484980083,0.8031236620652,0.803592050263843,0.80430925795192,0.804960308984072,0.805631028327325,0.805945038634485,0.823967885195821,0.797314249538819,0.797168307116374,0.791485597328555,0.787174884946866,0.785704203242307,0.784344570592295,0.781982350855274,0.781054098074366,0.780240480840802,0.779588090947453,0.779143122852038,0.777775037338672,0.777450967328078,0.777333329164834,0.871008775981028,0.950201471811285,0.937183559575546,0.925982182596264,0.796855648001735,0.795992120407881,0.79599873932602,0.795557435429359,0.794488559458872,0.816724175301391,0.817147355542848,0.823557975510752,0.823783098645256,0.824136757390293,0.824754368703646,0.812257796680595,0.802213179903912,0.800833074899206,0.797863199028257,0.792187079774062,0.791210460496551,0.78921037071759,0.787795147180871,0.784270019036524,0.778525989378649,0.77466864966824,0.773703533734301,0.772534045977431,0.772419524671421,0.772731457340678,0.773037863426801,0.773496091812987,0.773304676293631,0.773593400211158,0.773570591346824,0.806374941794352,0.806547781420746,0.805857903192947,0.790828082707648,0.741840793095009,0.740988565322202,0.739701946134707,0.737320836673388,0.735571286458562,0.733055891578496,0.731053439966021,0.728267046591953,0.725811612054019,0.724777492686603,0.725137103028863,0.726604300644328,0.728375263999064,0.728956097407369,0.730998556489662,0.73092161467313,0.730182784344458,0.730342643198629,0.730393104652442,0.729436426759152,0.727948360885403,0.720377742687202,0.715555269648882,0.711987701408588,0.707969458926808,0.707543410395705,0.706400415573652,0.705773479476061,0.704783291247255,0.704826896542399,0.704530702854661,0.704721504154655,0.704767793195046,0.704895638447572,0.705090957345873,0.706151049401868,0.707264394279528,0.709084128022723,0.710993501401846,0.712065044628557,0.71306823113351,0.712876822528874,0.700347393501717,0.700249458102914,0.698292032180169,0.695244767644844,0.693898927940735,0.693007487876578,0.69339199861462,0.692607048525183,0.693087787311612,0.692691319534036,0.680208105667317,0.680609804703127,0.6806343782715,0.680053922677866,0.679404951792139,0.678618313483039,0.677612953861834,0.675479923926205,0.673989960705719,0.671261758520162,0.668752477450773,0.667541847918625,0.66726190661575
0.825915001716969,0.827483496956684,0.829916528119519,0.830609084064895,0.833013412874128,0.833656199575276,1.05665608325439,0.942927319595477,0.932729876093398,0.868421959171597,0.856257938115371,0.870489404854499,0.873328667013998,0.870317145103162,0.86624430400764,0.866492767135456,0.865816301424145,0.871502769968769,0.872762869833441,0.948442674814161,0.945938202918359,0.924510585451922,0.913413257154263,0.818833725928094,0.815579944975158,0.814420953475403,0.809089661773894,0.809787917903632,0.808930118049565,0.808629017686885,0.80798215545592,0.80775442016388,0.807130136489521,0.80644243758154,0.804758967421658,0.805534521541285,0.805549781144284,0.806027678525835,0.80607669381325,0.806077927083295,0.805631118196276,0.804020044981902,0.802920908266314,0.803769495878249,0.80475682947493,0.805250574573042,0.805702171794884,0.805965424788138,0.838850499651682,0.799781036211578,0.797416523499669,0.795961108809456,0.789060135603251,0.786575999014096,0.785902293316983,0.788767391855452,1.05632444747331,0.788253509057875,0.786679459661049,0.781554989771261,0.779103107910979,0.778773281308095,0.778987006094554,0.847046442200093,0.968010088536344,0.926317734053406,0.910617962123906,0.796558309934321,0.794526170949891,0.795066419517869,0.794335194708285,0.803607508439258,0.817418415529081,0.819311709598645,0.822117261256596,0.823011531178516,0.823517807050582,0.823983545151925,0.808089523211477,0.805399894931769,0.80361215384546,0.798292456252334,0.792626249116906,0.7929385074792,0.792104554730231,0.790492723595529,0.783311957999829,0.779908526601773,0.774271037032375,0.773632607849708,0.772703772991635,0.773259689941905,0.773470278576269,0.774097196970809,0.77410541212573,0.774488321682858,0.773721118431385,0.774553840234468,0.805069549582149,0.806922184598923,0.910712441317301,0.784730144702184,0.74441988807162,0.74259949439987,0.739046392281649,0.738263249206889,0.736508539434528,0.734439005372492,0.731769827659604,0.729797415347197,0.725317175420809,0.726043929812468,0.724749421992316,0.727712573601784,0.740202380102259,0.737941177743902,0.733822804771801,0.732397910113437,0.730106244360576,0.730778833534356,0.731087671289069,0.730922357001665,0.731792513230741,0.732242171437503,0.739796567732726,0.725155442335993,0.709179280723204,0.707743470750249,0.706488579098303,0.705562068415579,0.704710530972844,0.705091002603788,0.70536336645961,0.705404743397515,0.705671840167964,0.705940541809218,0.705170522611126,0.707340288750877,0.708042590711308,0.710177083658748,0.71198655763605,0.712823123497512,0.71372388764112,0.713456505008198,0.699859901236365,0.699360167779341,0.69869213652854,0.696161454761593,0.694076867848494,0.694129515924603,0.692479532928481,0.693395293751503,0.691823546719394,0.693221428108179,0.68102906414532,0.680898507003707,0.680310594030117,0.680317528325932,0.678895414445712,0.679103846662227,0.677912720422566,0.676993351129335,0.673905756271616,0.673508813937968,0.667684214589709,0.668642196986186,0.668161140643594
0.82429538255527,0.824962919380939,0.823719852247506,0.825256793619813,0.82595154657862,0.834928736481106,0.948339717873523,0.947847545957111,0.892333456767145,0.870589481131894,0.872778833367391,0.870174103714654,0.868439915278579,0.868405759460172,0.867623885545214,0.867295561470451,0.867422306318264,0.870357852994449,1.01320258383077,0.955244533322085,0.879509830744129,0.897434968404318,0.822081965773862,0.820693266455207,0.817796289816424,0.81681228265352,0.817721915118715,0.810068247490958,0.808138862915487,0.808512821242511,0.807642830678941,0.807829144661345,0.808500795512089,0.80694075241551,0.806218430933702,0.806041971212574,0.805946391204339,0.806715569439999,0.806966478609911,0.807165331430858,0.805694587939077,0.804054484183905,0.803754635491413,0.804096136002928,0.804265024870381,0.805417918561025,0.806650010396988,0.805997484873818,0.80611070836355,0.803215600825563,0.803995740858214,0.797797806898678,0.795317413150276,0.79417474483951,0.79223984075725,0.790647686487804,0.790126204097111,0.788827364346319,0.786715585815231,0.784696139811437,0.778976000658368,0.779715986338742,0.78151053209242,0.824403619187476,0.797047912030492,0.798798705477252,0.798358081698466,0.797562770217529,0.798308040623264,0.798768774341371,0.798411343053908,0.810492808864309,0.81554095937334,0.820893150764068,0.822833832774905,0.823221331057785,0.822982461536432,0.823351032875033,0.808327835356136,0.807953371514318,0.808640885257769,0.798926648349517,0.798864760403882,0.796031173678952,0.793990578297106,0.792503120686334,0.785347267319905,0.779580252360955,0.773627737029458,0.773966052394393,0.773687323480635,0.774569962376609,0.774950191297298,0.775368868065309,0.775635825326092,0.775309261717623,0.77609540213783,0.775379364252622,0.775518695263075,0.807873496546194,0.923169864528878,0.777231347780318,0.74573681020975,0.744172981417345,0.741990548672888,0.739187894128948,0.737880255883015,0.734740301635328,0.733508741159339,0.730464642645469,0.727476824624308,0.727721108944375,0.727464325471178,0.728630468605494,0.74128975701023,0.739279795930412,0.739150690772395,0.735090196341016,0.730398850187506,0.731329952334113,0.731286805417645,0.731673519322842,0.732427020266625,0.734482567907964,0.737164697239353,0.738077117806944,0.859591653662322,0.752429103195654,0.760482432077982,0.740081661498282,0.706110511674704,0.705863082413236,0.706250458946927,0.70592377068022,0.706168653224853,0.707681917321822,0.710198047978287,0.709624235087231,0.710960785835033,0.711153808976977,0.712309628871514,0.713136282987388,0.714340012165409,0.713864059343056,0.699644611807437,0.699407146140082,0.696199885717,0.695703436659268,0.695805342674028,0.693554601360514,0.69452193154804,0.692588076265154,0.694276161068443,0.692459425566468,0.691709428767422,0.681379764667435,0.681118464401169,0.680425842281545,0.680255441919785,0.679911906209434,0.680416594669727,0.679282794931844,0.679002832578109,0.674235831897026,0.668513833009088,0.669824465040574,0.670323223228171
0.824279064365315,0.824035099212101,0.822743389791013,0.823886960692877,0.823757076636629,0.836156649174752,0.837738682303679,0.951800691348448,1.09895806955233,0.871057644848929,0.872944595691845,0.869640771565711,0.868179300948574,0.868010267106011,0.868079282480088,0.867662705731352,0.867468980868101,0.868855237536949,1.0674526703496,0.9814073985046,1.0364263006132,0.908475515731001,0.822630343479604,0.82156173103899,0.818551329364983,0.818399632579738,0.81928149451681,0.810351227440165,0.810494717845846,0.809407871523754,0.807908563676588,0.808356524717408,0.80770668485585,0.807928631336564,0.806870067034878,0.807458451030389,0.806946920827136,0.807952508786758,1.00002006152972,0.809115768123395,0.796902799930514,0.803560907962657,0.803961409353338,0.804544843656042,0.80503204292598,0.805428003368003,0.805873218941092,0.805600864233356,0.804721021700334,0.804335330100591,0.803504944499286,0.801411222720594,0.799006738570005,0.79490390963219,0.79302915562791,0.791031047487657,0.791166385351731,0.789687045405179,0.790948943385587,0.795187207478014,1.02554680460139,0.99700915897811,0.997185751565074,0.843001356696986,0.799765110705876,0.800213481831598,0.801032540030485,0.802719314923961,0.804450834091922,0.806769928254565,0.972825927481047,0.819318594654518,0.815829646451318,0.821162963669336,0.823013043059479,0.823047302459044,0.823573897848531,0.822873294981711,0.806603993790421,0.807965999914455,0.809531868886522,0.799641107942991,0.800047379678435,0.79780010414553,0.796660623129435,0.793407692316679,0.783345449830476,0.778706475846915,0.775076738674918,0.774995204034799,0.775374975475754,0.776064014573892,0.777329676606618,0.77729996411261,0.777483832188024,0.776664819012069,0.776576137520087,0.776254957155516,0.776241170223051,0.807058376043415,0.868693213435032,0.770333440230097,0.747815615795508,0.74738554557986,0.749298692374838,0.740266250252607,0.735999893619782,0.735498768819178,0.733297333701726,0.733002618717012,0.732149895730621,0.731011362493495,0.729797345162148,0.72986294134335,0.740355612380539,0.739750919248727,0.740176224864988,0.741705831167073,0.741929798996589,0.741778906385845,0.909454935768913,0.736132206007683,0.734636537033412,0.735474936191249,0.736275039232559,0.738666483186956,0.740864036253928,0.74799702912683,1.04258919887353,0.748192732668655,0.750669978909136,0.729660439457957,0.705699802127408,0.70599881964278,0.706537492766945,0.708623824700151,0.710864455468655,0.711018057284268,0.712421128151545,0.712191049150334,0.713290315632942,0.716896785360068,0.935526114217456,0.796489464107206,0.755043473683862,0.715429459644758,0.696862832055204,0.695873873588145,0.693149308437788,0.6943300456044,0.692284811545289,0.694129370414999,0.692454359976616,0.693548304911835,0.692577235670265,0.683473536944894,0.681368237335835,0.681782683803063,0.680649808264758,0.681593509132077,0.681647824768182,0.681972742863587,0.683268765767298,0.675429536333746,0.673461173626421,0.67142792828094,0.670834958149405
0.847594467164485,0.83309582902802,0.821659498300638,0.823823860200259,0.825755471756592,0.858513771780532,0.877139128352955,0.953675631335017,0.96264730664728,0.869558725675045,0.866978177943113,0.867597936446443,0.867003584307999,0.867558565850211,0.867666777388774,0.867646073557162,0.867824479466798,0.868359541001779,0.859073368543678,0.875287699872895,0.83754800754,0.916161180729652,0.948406466401439,0.839443325101289,0.819064276889445,0.818525310518714,0.819139518677665,0.81113954999126,0.810757324086871,0.810079629258484,0.809365547749812,0.809041640490094,0.808865420633765,0.808864397582488,0.809467448474609,0.80895251197687,0.809305995640576,0.80981078372059,0.810736064146164,0.810357271323886,0.797091331526527,0.804157841446659,0.80539640647313,0.805462898678037,0.805363058973665,0.805677804455241,0.805682932631848,0.805371117532937,0.804989739027665,0.80457819438399,0.804903477058795,0.804280821536331,0.805638024565712,0.805472554917526,0.803669657584219,0.797333989074018,0.792129385139412,0.794861546888272,0.797590013234633,0.800919225761515,0.999006752610715,0.997264260214304,0.996632619736554,0.862084303239773,0.802199238851372,0.80419597659776,0.807809991362838,0.809456266338154,0.808830463671574,0.808423115485198,0.808808525011611,0.822023098929327,0.822215360434765,0.822074824434867,0.82255951054758,0.82342085285597,0.823826051730633,0.822525432862324,0.816143542651176,0.816811365282085,0.816182748840498,0.800826132104839,0.802865364717758,0.798460569886825,0.797704094227845,0.795689527428585,0.792090124572693,0.778435305900145,0.77603482012572,0.775896051083553,0.776023774015235,0.777284618067086,0.778336477868587,0.778745399477834,0.944401826809982,0.960845273134091,1.01497130801299,0.833015953627931,0.799766186978859,0.804187789943804,0.770880133017681,0.766759380773008,0.749403975308362,0.74802947994884,0.747025680913267,0.741518279172427,0.736429948444554,0.735966261458879,0.736192418731568,0.734574627576642,0.734769509165255,0.733114571106402,0.73374918438803,0.732160426481935,0.734035247636722,0.736801471160858,0.7419935905948,0.741026761645603,0.74252062458475,0.742356948252843,0.743379537275076,0.737133312002794,0.735419290184587,0.737332133068183,0.736807345440157,0.739505540708005,0.741167542049327,0.741512344222849,0.742301487887384,0.745836571594652,0.887182829458387,0.817763783523564,0.801046332987769,0.724154715847079,0.724525330971667,0.723237060344148,0.722522086766061,0.723114397673117,0.72295255928925,0.724523973105256,0.724347634804235,0.726482605841226,1.08915638980037,0.853543289463823,0.912579681796531,0.73095927470757,0.698851323326353,0.696562906154943,0.695671073484411,0.694104729132133,0.694692380156082,0.693578895308412,0.695695733411826,0.692977035698152,0.692582258363224,0.684769031294334,0.683914148019015,0.683082209909985,0.683013683203469,0.682548680288102,0.683118389099207,0.683000469139628,0.68359460186559,0.677735537799441,0.672458986337132,0.672226050159984,0.671183154062793
0.848843992356431,0.8500184456139,0.868111647806303,0.881597584457692,0.895467690875053,0.911186374003982,0.924280604041666,0.954664101316785,0.956068498854624,0.867962308191297,0.86707683856622,0.866911152695088,0.86680302136325,0.867237000775101,0.867432640102133,0.867338673420433,0.873535765299503,0.880330281489749,0.886599504874651,0.89298953483628,0.903990954326086,0.923077232643142,0.933260082213436,0.854017486002445,0.817812800298262,0.817496472001798,0.816661115560728,0.813461362086536,0.811738537071645,0.810971568009814,0.810350740772752,0.810180278293147,0.810014740447198,0.810089004334789,0.810121268730006,0.810197785591517,0.81049376133754,0.811114300517857,0.811606644137071,0.81096235168026,0.810323300964863,0.809877618241966,0.807746033107383,0.806727097693565,0.80626415190384,0.806071046046656,0.805781082678596,0.805641149372878,0.805100093001286,0.80531224615147,0.805122771267079,0.805699587901708,0.806231378783951,0.806258647565604,0.805521732332126,0.806629861798087,0.806504035574399,0.80683959572161,0.806718385243232,0.805879982730452,0.997214695871507,0.996854144579159,0.996648018655271,0.878588427660068,0.857477548306693,0.813492036068023,0.813068711938916,0.812165707604261,0.810527661967065,0.809501081998024,0.808874872853241,0.823573332461285,0.823366802174682,0.823022064832227,0.823367837046411,0.823289766993725,0.823112554814775,0.821265791856167,0.818244709563493,0.817258994533578,0.817080874293032,0.800658253015688,0.801262194841256,0.800131046226518,0.799625786454343,0.798057167040981,0.795886144617682,0.777332845306717,0.776428691510119,0.776457077553459,0.777041922185965,0.778306241693712,0.779533767515949,0.780110670895741,0.960848227644856,0.973479491932002,0.992067301765331,0.862965192506194,0.808455418132993,0.807466386113563,0.764302269351489,0.760983957050777,0.749800983474578,0.748386888376671,0.746906881240689,0.744566367775841,0.736151453898441,0.736931102771287,0.736562835930002,0.735929387142723,0.73502181022043,0.734646118281218,0.733886296500986,0.733246132559681,0.733914707283121,0.73590370595502,0.738118678348236,0.73971572864241,0.741144821646473,0.741688176609221,0.742323914529485,0.740873112733892,0.742022634467632,0.740703546654351,0.7409948865398,0.740854504413257,0.74151777243158,0.742115222944391,0.742895379968179,0.744027265608918,0.847356179966333,0.831577367317737,0.8177654251849,0.723353843202591,0.723384015856902,0.723032949898087,0.72313758085523,0.72372568301013,0.724516408075108,0.725942131009049,0.726768260003929,0.727872095582837,0.782747671343719,0.824018762674949,0.849972658262635,0.745659094521985,0.697736059485741,0.696629387588928,0.695398909929366,0.694592611650005,0.693697283839958,0.69385985146124,0.693396996490041,0.692505621119502,0.690684061426012,0.687589869170028,0.685958150236773,0.684659268279425,0.683715037672764,0.683396740193091,0.683515452468401,0.683378981016141,0.68308864880939,0.680203347878114,0.677013426229181,0.674400263802057,0.671774309624268
0.84956246602766,0.850818772753667,1.08620851619076,0.947359304394847,0.96788747080887,0.925921208258508,1.11352240760482,0.954510705516647,0.96831819472277,0.867419022520413,0.866595107570491,0.866430761608601,0.865865916542225,0.866765560171327,0.867652607516,0.867189164338382,0.899876588859363,0.889668699275323,0.909308860448018,0.899044616233561,1.03610387693398,0.977857028550102,1.03064094186965,0.865926386255591,0.817134645727174,0.816713510105266,0.816338113416761,0.813727517628446,0.811646187503443,0.811280096121242,0.811042394982501,0.811125608399753,0.811274212499095,0.811145801133306,0.810984023399976,0.811159817066571,0.811048593628103,0.812257454711235,0.813233143468588,0.812045076282678,0.823806221974229,0.810605645963829,0.809086228177222,0.808092985854644,0.806937354912456,0.806727649084654,0.805812332470101,0.806003268644438,0.805358006494752,0.806142070615009,0.805579345885859,0.80702255356806,0.80771041855394,0.807024034749182,0.806302019175644,0.806976065954466,0.80648034243984,0.806440483726333,0.806990123287535,0.805956639224201,0.996630386860348,0.996463508534085,1.00975215967121,0.895715097626622,0.932753270626246,0.814031247262744,0.812839218391291,0.812819753832117,0.812068030729349,0.810361004886838,0.809878415325168,0.823764456437692,0.823908006887834,0.823969539725588,0.823635989310368,0.823875640297266,0.823056498828696,0.821530968763144,0.818737650732211,0.817233182698019,0.816630816234092,0.80159867205213,0.801355355571167,0.801487352368007,0.801945688829275,0.800515790796197,0.940371681460224,0.777388463844026,0.775966458593925,0.776674265426724,0.777164811076318,0.779188488376448,0.781107973448479,0.781444214600645,1.0061345256576,1.00758966454727,1.0101969023946,0.892493680243017,0.821528569394846,0.812484644242894,0.75273448186929,0.751374052465646,0.751113841374755,0.748940524532584,0.746614477155274,0.746261345344633,0.736131098350863,0.737200844274227,0.738025128050395,0.736904897109386,0.735709728543844,0.735636029939834,0.734667029304901,0.73245757226172,0.73362092339606,0.733748512188799,0.7363339861266,0.73879007547817,0.740457608086084,0.741333291893899,0.742637488084351,0.742626442013714,0.743736493668983,0.743068594247509,0.743909180346426,0.741802198235367,0.741736036946089,0.742712313377322,0.742355259533358,0.743399632043997,1.17696617494669,0.855422657637811,0.906606552902136,0.722187753013929,0.722417888203015,0.722315531047306,0.723612241649328,0.723589228558753,0.725446988720954,0.727497737971683,0.728966269068811,0.729375187999892,0.729307705435768,0.798560393219622,0.891087840766786,0.76010037669564,0.697604420684701,0.696510169367485,0.695493374220483,0.694262818885552,0.69349992270401,0.693481139608009,0.693902304902463,0.691934888426074,0.690361744825825,0.688697126656635,0.687673314481569,0.685533434611095,0.683584919053862,0.684043143627065,0.683727243326068,0.684252370379709,0.684015888688519,0.683762918984215,0.731389551632873,0.67640383729071,0.670943542917179
0.851661348881026,0.852391142892396,0.924977632606581,0.931284109151249,0.939451221399319,0.89838383765899,0.851093094534648,0.851649785401724,0.852039499422127,0.864364812803339,0.865450726283876,0.86625469654508,0.866022674987286,0.866592692378132,0.865788963156815,0.866864287716379,0.901182767432266,0.870778141485649,0.844826664337897,0.845070834880019,0.844484483382845,0.949698922568461,1.02121643006866,0.874230706090371,0.816031140904726,0.816268219242319,0.815433869997695,0.813538945091028,0.810804088396346,0.811546780181774,0.811432670280167,0.811999086136396,0.812014893554269,0.812064573011911,0.811985694312767,0.811893620752134,0.812382591089401,0.812938709393974,0.813777355848673,0.81333222076045,0.814138527026337,0.812304484409492,0.811534231443939,0.809843396313308,0.808521604884178,0.808094700992771,0.806997661802616,0.807889425637992,0.806750683136761,0.809277096512203,0.810744483296232,0.810042787818723,0.808944542925627,0.811138724926711,0.813073137278267,0.807688089618655,0.805703162131991,0.805775898347501,0.805450600343686,0.805800766999582,0.821794696859334,0.820969147263905,0.819890567431986,0.820203479258898,0.81419322579258,0.81601626256292,0.817498302299223,0.817119549412654,0.817972981033953,0.820910764024227,0.822763813683316,0.823810203615998,0.823617593599583,0.82432198374697,0.82445512355178,0.823882091390399,0.823898694314705,0.821875772716842,0.820318325775523,0.815718814503822,0.803768244205629,0.802450868848518,0.80284445388336,0.800671537189809,0.793836095851465,0.79447833416776,0.785919509326712,0.778471896206852,0.775350386804736,0.77682581937564,0.777541692876786,0.779668129861609,0.781687844414003,0.782821358735719,0.992927677317446,1.00878141506389,1.030803192094,0.92257990150803,0.823215858645287,0.818358780764378,0.752853716925923,0.751461250957774,0.751237210318476,0.749610245584435,0.748565451941649,0.748054408869239,0.747919141887504,0.740375272137843,0.738981673446464,0.738238809047887,0.735629877607854,0.737376983692898,0.727205544762296,0.729144575932278,0.727752772984213,0.729886275797556,0.728311084843195,0.737650642610974,0.739001885120427,0.739744393692422,0.742525835457072,0.743321525737345,0.744825248910043,0.744429078288674,0.744438308575854,0.740391882119649,0.740163454549679,0.737224830830512,0.734490680110073,0.732196152114926,0.712900593536927,0.720976595403661,0.720161936893072,0.720647990539033,0.71989484254431,0.720579470040838,0.719434742019361,0.721615108785133,0.734162657139126,0.731077354424507,0.731592484726513,0.73148225678672,0.732478627624041,0.772747624027607,0.976252830552222,0.77382912965939,0.798628434939894,0.707121760216632,0.693337918315209,0.693563310721946,0.693199402758341,0.693353394163134,0.692700866684011,0.691933509024404,0.690593696228594,0.689032770685865,0.688327932727211,0.685141617586788,0.684273888541324,0.683669356040808,0.685197508923818,0.684082573128138,0.685376620740421,0.683666392753477,0.683631842873507,0.678729901841694,0.671151811875925
0.858134984489757,0.854642005503033,1.07022551396364,0.903917642513018,0.846374530362689,0.849893396754792,0.851428874360951,0.851780486946237,0.85233478050707,0.863054059319676,0.864448148468513,0.867074339894122,0.866778292694226,0.866600791351199,0.866035852263975,0.862449762237732,0.84511877360618,0.845633818820951,0.8447447061006,0.845912306463866,0.844373847009561,0.920359670127917,1.03083539477633,0.883790155508754,0.817016625880462,0.816507106858736,0.814857940219533,0.813460582418681,0.812015819380049,0.812391032197608,0.812243504310779,0.813541178577505,0.814199048396985,0.813495535120841,0.81198538494669,0.81285454552002,0.812783177987843,0.81395876035328,0.814617582989967,0.814259402214521,0.814011935330614,0.813077923028638,0.812107004262303,0.811463684665152,0.810367984716955,0.810301562703404,0.809462514331686,0.809715120161196,0.811158197805358,0.81146881689758,0.812105326695453,0.812761670151772,0.815057350059694,0.813960575778472,0.815038054812874,0.809133825617381,0.802375203086902,0.805008525100416,0.804410498764456,0.805843439748029,0.805756695780889,0.820770739666915,0.820225940068739,0.820055519162527,0.819956893824208,0.818008100672559,0.818361849205903,0.817588720160466,0.817928611911828,0.820891542211191,0.823272295011537,0.825223379317172,0.828043891016764,0.82592514494875,0.82454413120105,0.825219881008848,0.824185548494291,0.823749876769405,0.817954882343443,0.813433553443967,0.803206548007603,0.80238773310415,0.802656645609529,0.797316481973589,0.794259559997346,0.793809693153322,0.783129909868245,0.780822343781218,0.776092674347454,0.777831792997547,1.00815435027124,0.783588921542366,0.784160282488856,0.784785841497231,1.00920935727393,1.00924392023367,1.01594009993913,0.965257151139335,1.02078414627181,0.825103313043872,0.751275352861725,0.751603703255469,0.750511698179853,0.750287685623161,0.750192418780839,0.7493566098323,0.749783771840671,0.742485982769316,0.74115190522682,0.741578782707876,0.742223276266663,0.739523734294599,0.727213037608932,0.728089733991433,0.72791466504219,0.728607404570537,0.728242553297979,0.734873914892333,0.733237576997231,0.737043175492226,0.740022742127928,0.743401788429806,0.744827931005504,0.745011763876537,0.744832276904988,0.736805990721358,0.735066793759074,0.732769871029534,0.728257834108405,0.729006613484106,0.712752859057206,0.721655790018092,0.720514901100744,0.720644851435271,0.720078105697249,0.720189386654369,0.719570752366762,0.720373946164842,0.72014011017733,0.723978221861922,0.733592364841107,0.731631165576388,0.733649651957699,0.733693173159046,0.733762223030125,0.731732005650812,0.729758512567914,0.717771916365527,0.692545081746124,0.693174204818087,0.693385693853557,0.693609088331177,0.69316819865578,0.692099819608666,0.692185296898205,0.688731728473643,0.684333545321957,0.684254633619429,0.682407555773685,0.683937988808895,0.683588926218296,0.684458032974028,0.683578633379352,0.683888602313057,0.683608647870357,0.681188471881063,0.673514795533251
0.850634767223743,0.852017139181189,0.846067877090137,0.84843106026679,0.84852321956575,0.849907379599032,0.850757070927648,0.851804603275636,0.852524497160296,0.860196300950073,0.861083679440565,0.870395160701766,0.878978235490845,0.86854414913544,0.884893261184379,0.859888670588797,0.845967306847838,0.846992235938601,0.845943907477341,0.848853572427979,0.851952284831527,0.889091824584371,0.910646720918432,0.894818100108858,1.01400403696532,0.818299372832272,0.813108709552066,0.814041337330677,0.812272150240328,0.814010183244461,0.814485417449675,0.815512308571948,0.816694348762886,0.815280307035893,0.814451360293207,0.813986353228502,0.814279451291866,0.814785624698675,0.815806040588471,0.815187567605968,0.814724488645638,0.814412772667101,0.814199096728471,0.813418754584023,0.813245516169853,0.813371956779513,0.814930455026104,0.814790534013739,0.815320808786543,0.814315815781724,0.814099222991689,0.814675327892007,0.815629358480886,0.815003419141297,0.815728249223872,0.809561130598459,0.808548780937117,0.807940827537418,0.807391561160736,0.807896848246368,0.807282123892902,0.820893755934809,1.13503267284996,0.943946948837334,1.09791710168393,0.881270940667349,0.818919379665522,0.881306836881652,0.936850282780891,0.934971335587249,0.949586612505226,0.826359473749179,0.82529169543241,0.826246540771405,0.826915828354902,0.826241115153523,0.825844735279437,0.825644299391103,0.81594108265603,0.810783032460611,0.802869958401355,0.801551511687449,0.797482755503165,0.796246047226985,0.794141126126326,0.791345572169102,0.781404012234593,0.780659807528238,0.777679192115175,0.780122446327266,0.78265140647161,0.783802088503033,0.783864593977615,0.787963246327938,0.789125033452499,0.889258263567863,1.04006177684018,0.938967735284685,0.91348154687923,0.831214865455222,0.846907608645214,0.753491151627631,0.75007021953553,0.750115145517475,0.749863872401571,0.749413142133119,0.748648868132985,0.746778258732448,0.746603767585038,0.74433247027715,0.743309035713757,0.74511624309759,1.13544721757631,0.738212106747515,0.735317225532395,0.736811065781602,0.736485776866243,0.734818653424105,0.733378944207725,0.73443142074747,0.733063218765382,0.732474496298983,0.732555752123996,0.732635832015041,0.732500059745605,0.731615914615556,0.730795117917597,0.731235198308223,0.727265023019056,0.728716653062243,0.721997083689206,0.722676336790377,0.721641988430911,0.721526465928146,0.721273444343359,0.720735691980656,0.72011811703849,0.720374150232691,0.720224512987946,0.720172259636652,0.718667774529244,0.728269177008456,0.73419657754018,0.73370570548327,0.733561312522124,0.732089853832584,0.727044277382618,0.729128371738894,0.999393638387677,0.69726890218727,0.696218534576857,0.694679852541193,0.692574450638381,0.691870440372682,0.691692062437705,0.68900696872093,0.682234184448842,0.682916308454013,0.683608948512673,0.683072887081472,0.68413332973333,0.683462405330777,0.684532963253623,0.683503311707477,0.683438529563487,0.682885465447242,0.683668129952997
0.851450230865608,0.851010681654488,0.849623598258,0.849141536917332,0.849557389791649,0.850664128255014,0.851349403943248,0.852180859296886,0.853049419345745,0.856435669281908,0.866099803683128,0.872802070609969,0.876083864280861,0.864228845786414,0.85796898310895,0.856836130385248,0.850522768693214,0.849659992173419,0.850703032836569,0.850968239255469,0.851992847355951,0.859062477875529,0.862289050024223,0.853385618376946,0.849143637098337,0.820781447828438,0.81985655586887,0.817895543750263,0.818021104244466,0.816918667088418,0.816908286327863,0.817487757755577,0.817836658790062,0.816783709393735,0.815557601751272,0.81503782887363,0.815023663714288,0.815621968381039,0.816034260141675,0.815729468489013,0.815715400783946,0.81560195561034,0.815261733610069,0.814679254160268,0.814524589151875,0.814867310147399,0.815722986469792,0.815901687242918,0.816522721650943,0.816084823024692,0.815762637492478,0.815096014921913,0.814377761779308,0.8140903070354,0.813448658631938,0.81130507514296,0.81012908706172,0.809964189755298,0.810077981156671,0.810974429013554,0.813058515240879,0.821098231682287,0.877763230839491,0.882698010742261,0.894312689382998,0.905878569913984,0.915955644640642,0.925148470721241,0.93354795133407,0.933499712462491,0.943352174271083,0.828656281934481,0.827536532601041,0.827738545861143,0.827835601119061,0.827838654546113,0.827608145932373,0.827308290111183,0.815837956535671,0.808917712683862,0.801914832049712,0.801352610683666,0.800899422215656,0.795727499905085,0.791509984497109,0.789902924026686,0.783729790491798,0.78343988036724,0.783436352913936,0.782494887786718,0.783549397316802,0.784717734197116,0.786445699695067,0.789590007623578,0.791091366573361,0.838815465880616,0.856027059643016,0.856365612993698,0.837512680704168,0.809450189853728,0.798014482337842,0.756229934184127,0.749547921103799,0.749869423752555,0.749744118175541,0.749755569115897,0.749329371923059,0.748310797271772,0.746898342004215,0.745454020318967,0.745271532721459,0.746891871247144,0.748650362599269,0.740601262979904,0.736766471480373,0.736868586937622,0.736547278471542,0.735719827929723,0.734806871858429,0.734782084454281,0.734111752060883,0.73372463276696,0.733459900833329,0.733320686552954,0.732813333597853,0.732401366535383,0.731463566459351,0.730379088249479,0.728800061656737,0.728155777244834,0.726991699689564,0.724716033349223,0.723522724674844,0.722466137856995,0.721636711078659,0.72131431605607,0.720935378213782,0.720697611637969,0.720500804378894,0.719848451853944,0.718397634900152,0.726399923821347,0.734409962183937,0.733274024061954,0.732546341103869,0.730982356363411,0.729123091003079,0.730528472111035,0.734299244489839,0.698321242453847,0.697873463150421,0.696325216995868,0.692982853053123,0.691358267835435,0.689854523512601,0.688061274434164,0.683380105225277,0.683057808904201,0.682788209846371,0.682919578057049,0.682540190679199,0.683128932294138,0.683128699723624,0.683439615144671,0.683340602846705,0.683411724107213,0.68397032043884
0.852079391014306,0.93076865705164,1.02098374187794,0.963517498277007,1.02399917092292,0.851559783832443,0.852107484684484,0.852253348211264,0.853183345396164,0.853502491112228,0.869291892523976,0.871816541158255,0.904513341962167,0.860026256054015,0.855080885407987,0.85444787143647,0.852230460858137,0.852107657998517,0.852459945197922,0.852654020227702,0.852972995398847,0.857053848262554,0.865615274568835,0.849887519219092,0.825309443627257,0.824240364646363,0.819613190954992,0.81860167444791,0.818634177142095,0.818815002295125,0.81914008530054,0.819433059409031,0.82062533403714,0.817870276949553,0.816247009930321,0.815557811432269,0.815532590025364,0.816193880654846,0.816949705595896,0.815923324438682,0.81633738466921,0.816680851896271,0.816655187969553,0.815425780380996,0.815201715419836,0.815648959990588,0.816997730646105,0.81735273053702,0.81859716450406,0.817897665606283,0.816563879783111,0.816378170639835,0.811626970299999,0.813735261726273,0.811644839954811,0.812008051724579,0.809785085182891,0.810747311717353,0.811509528673911,0.813218420816806,0.813929374459268,0.821519586492065,0.866526798283469,0.87728089311642,0.835928519481057,0.93960727064685,0.996399704258933,0.933191457024535,0.930466476963124,0.932161316679873,1.05135912286212,0.831494495866005,0.828203696283654,0.828830908525562,0.829241345071898,0.829267072183874,0.829405939452147,0.827898992553811,0.816251180406298,0.807263622287252,0.801940164241378,0.801904350264209,0.802049942528725,0.795078173833107,0.78523586222519,0.786934589510579,0.785498953418938,0.784523688978465,0.7828323312759,0.782468103231367,0.783385744958971,0.784738990213278,0.786961523916109,0.793425976026316,0.794767596938129,0.832260288497298,0.854209665465002,0.855339238251414,0.759919440864161,0.795723541537745,0.7605045072114,0.758170258550016,0.749419346078018,0.749868423498526,0.749608583418058,0.750430781556633,0.750325127631127,0.748676783614372,0.746665538690387,0.745268923643568,0.74542461394148,0.748188078301385,0.749850958467067,0.744759612623069,0.73778927906986,0.737185450632856,0.737142383492107,0.736679121993047,0.73534277888233,0.735314840724041,0.734820313948084,0.734803422375862,0.734462428485661,0.733875243548946,0.732971885685839,0.732835364516541,0.731471382687083,0.730220333566925,0.728489296070943,0.728945974077319,0.728613903204756,0.72668649066204,0.724285174184644,0.722832793698632,0.72136065760155,0.72196831081756,0.72134910262208,0.721066055566491,0.720896267694463,0.720086550194943,0.718449715101102,0.724580476439469,0.73367532736329,0.732099760490487,0.73281393030381,0.730890965834186,0.727645368768366,0.72935328799906,0.738079531935379,0.700136137852366,0.700783974471936,0.69986553523306,0.692485768181071,0.691164207576328,0.689388377479369,0.688458996637107,0.681552549403397,0.682580325530187,0.683118478608705,0.681924930106699,0.682162484574616,0.681977850800798,0.683387795461572,0.682972642060997,0.684365536311302,0.683309739176065,0.683653062998311
1.01973396629608,0.960630227599457,1.02075036855052,0.92584452471023,0.851347781762242,0.852112336915263,0.851887983497689,0.852058975275983,0.852699490572769,0.851354422094461,0.88738460684608,0.877802516921862,0.926638734754206,0.856527931253582,0.853180915253747,0.853681679486592,0.853431279113858,0.853782644723718,0.854491518563923,0.853824402512568,0.854337338926221,0.855273088209153,0.970154417022337,0.847157193871702,0.836275471391541,0.825676756871238,0.822839606180132,0.821693809426744,0.82268366425094,0.820955885323773,0.82100007927184,0.821016524134389,0.821286776416715,0.821310788174285,0.897180466181494,0.876153383221756,0.897215203239832,0.827005079051423,0.826884327768246,0.825174871528085,0.82054066441531,0.81943212532605,0.820915672401901,0.823844680937133,0.877154531958669,0.837660302862466,0.826401496704931,0.824442607732168,0.822644455558971,0.820554962851767,0.821484437949323,0.819610739232368,0.818934934447263,0.816256100040579,0.815179116954218,0.814504065175869,0.814548487950791,0.816323144261235,0.817324965255601,0.81624644458199,0.816171630368923,0.821268441970933,1.12666808148268,1.02057498583406,1.12489014522235,0.991615938315255,0.896640897672803,0.935605399655238,0.938470853922762,0.91143633141088,0.834678694583008,0.833165419774377,0.834320718981332,0.83249578210826,0.831594348845158,0.830067771228367,0.828803048478099,0.827969698274964,0.802452375744339,0.80533059348188,0.803708964537543,0.802819461883928,0.793612789145132,0.794400900831124,0.786910760979084,0.787683477225513,0.787988904637661,0.786341893680535,0.787535142318488,0.791133174067409,0.79298825705442,0.794747592781829,0.795437338152234,0.795496991884049,0.797494308820227,0.818300432070625,0.859864233563458,0.866974218352358,0.936179076349019,0.842182145928445,0.760565920603347,0.759398399302344,0.750100783042805,0.750781094158606,0.750218766430011,0.752126520490881,0.752919498301085,0.754357015393528,0.755249570992408,0.754879848761238,0.751620980249202,0.751000692707094,0.750971084372768,0.7521632060915,1.01476864168281,0.746185665909787,0.741453967052579,0.738417882327448,0.737050026603625,0.736123366588333,0.735928664569822,0.736495843565757,0.735203742921901,0.735429709052192,0.734714416752372,0.735761887143831,1.15660742283031,0.73459488195571,0.731847211303508,0.729916012578576,0.730002790215971,0.728000374509476,0.728234852157024,0.726263153017942,0.726494898640405,0.723487232719458,0.721770490940085,0.721219273505227,0.721456017984556,0.720546374038459,0.719500303344947,0.721125710583817,0.719059172472397,0.72875930999122,0.731988189530659,0.73203411963487,1.02232256780744,0.725199671359684,0.701326221122413,0.701125666674705,0.701805690948241,0.701189697188411,0.701225241507012,0.692979996735055,0.688894028420002,0.687609768366636,0.685895209138994,0.683455688884447,0.680616779053744,0.681564362775889,0.680214009295561,0.6816035497163,0.680772782273294,0.682641192231625,0.683238408101979,0.682954482372509,0.682312607454777
0.896974814982731,0.878415943396158,0.85792789188896,0.860006002472537,0.85414766014124,0.853192910157058,0.852620520051397,0.851079651923311,0.847483526485278,0.848112020613124,0.936051204209564,0.870692294019481,0.827868270413861,0.828931159936941,0.827881886931192,0.846104919114593,0.847828759171729,0.844499056470752,0.843270996419641,0.842171141662775,0.841149966480154,0.845854972583238,0.882648631426553,0.845207695415777,0.832187101859816,0.831390966334451,0.830913795382921,0.83218160233121,0.83113982496784,0.820885454399853,0.821674095516324,0.821393076475411,0.821385947857172,0.821784604528062,0.911651362469631,0.850751621004247,0.827399994614414,0.827333334290757,0.82787972326268,0.827604464709885,0.828191242984724,0.829532269164432,0.828415935976704,0.828563471298559,0.828625518298407,0.846016166025924,1.17818217281066,0.942526026308304,1.00580526348858,0.829744788500769,0.822624015257142,0.820933749696784,0.820098639385759,0.817908844197439,0.816182860713617,0.817025452264519,0.818401911134533,0.819053584064319,0.8184640786209,0.819083005835305,0.818949675622297,0.820794834788195,0.821562086854215,1.00423560492867,1.0702267574163,1.07933196087704,1.13794369805612,1.09309313243422,1.32440591595245,0.889500512345741,0.836608103254519,0.840586317322441,0.844595889324357,0.833938416116842,0.833177573512194,0.831624624901172,0.827506046432994,0.827279320007351,0.825324719126498,0.807464928641264,0.801868107220568,0.802969437058401,0.795004540440151,0.793722307524093,0.792676239330516,0.792022123112531,0.793232838380683,0.792381388710286,0.791266671923147,0.791555312091879,0.792700673460368,0.794533539885764,0.795406559711441,0.79650944206245,0.797688862853346,0.797946711397639,0.798269286331721,0.870584736688077,0.916462705264293,0.878432570249195,0.93623544630396,0.76045357812167,0.75158091486592,0.752644235406895,0.75514497974043,0.755161915210676,0.754435293378099,0.755942878928772,0.756654984177369,0.75654299353789,0.755641214498151,0.754148151168688,0.751782654935256,0.754153071299691,0.75495967845212,0.756421912535759,0.791956475655095,0.762138583101217,0.764604745888142,0.743480190378207,0.740583982042938,0.739133007765806,0.736852217730889,0.737070688421012,0.736884265882117,0.738459216304712,0.740163155401023,0.741457941711453,0.986266388719873,0.738026814241741,0.73594028304852,0.737051280893198,0.735949130833007,0.736767335113087,0.735326704616327,0.73576111532195,0.841141649708163,0.738360753176374,0.740977906102253,0.721577925305755,0.721083618402621,0.721545405525889,0.72099784898181,0.725512467334911,0.801154665408285,0.724845712712649,0.716037446163831,0.716919036793534,0.700800173453005,0.701337323086419,0.701794911966221,0.701852424720056,0.70179563729621,0.695192846963322,0.688746863523817,0.687125700637213,0.686670398643962,0.684339959171406,0.680471682303733,0.680853466614516,0.680957807840741,0.680551537755823,0.681459295723628,0.681099204019527,0.682643638482046,0.68156403017271,0.682392375125109
0.863610330587572,0.864356179463255,0.861021939963096,0.861387929349519,0.8542248839799,0.854640822083369,0.853528837806031,0.852570391993629,0.846214068728386,0.846491659555961,0.84355141195255,0.842749190570116,0.827838111607667,0.831954435050087,0.834423026136949,0.843396906367348,0.842927125735251,0.843531887971025,0.842834816763574,0.842090949029969,0.840702016675336,0.841802147800363,0.84221018744059,0.84120332057621,0.833092349147262,0.832289627661305,0.831493526251198,0.832484978331014,0.832042933436477,0.822063162685833,0.821975417115554,0.822177173489966,0.822120695482699,0.823349696390521,0.824753877571878,0.826453850799514,0.82716674944352,0.827936267579837,0.827776152546067,0.828619630789303,0.828509769006483,0.831168050072244,0.835538264135944,0.836157195062117,0.872408638015009,0.870836283448679,0.869964106408694,0.869495224217895,0.870886343377853,0.840575615162765,0.823176529803385,0.821594640521072,0.820834147486725,0.8184323848525,0.816813994290442,0.817954652118707,0.821971301019307,0.821148731909148,0.821997224756757,0.821275409880205,0.820214406916194,0.821938018444595,0.829783789274975,0.99717443795928,1.13324552448175,1.0853760311067,1.0942613197297,1.09178287418879,0.838349446771381,0.848340584147409,0.847408408043782,0.847786151966185,0.846622586254582,0.836844721668722,0.834158283932011,0.833345180188032,0.832851242860005,0.834120205386115,1.04282871360431,0.812618088311861,0.811542064965079,0.803785193477695,0.795230380722102,0.793144390640832,0.791469534175731,0.830792755412313,1.0981197679946,0.851579517368747,0.79480065978199,0.794331395948313,0.79442439563299,0.795271177664176,0.796388287763559,0.796795577262164,0.798352445038996,0.797896066395185,0.79809797812099,0.878853025327105,0.910119955383631,0.856095267965108,0.771117995551356,0.77140306614216,1.04374071200228,0.759574449750858,0.757340483305291,0.757745434641216,0.759638071791901,0.758122150871721,0.758689631654576,0.757939839744332,0.75802983321493,0.756880542330463,0.757309971410331,0.756683546670819,0.75730254281628,0.757680656608711,0.758413093125289,0.759560053082815,0.748138949824271,0.747760012459909,0.747104778146408,0.742500369375347,0.736499817582151,0.739576225703147,0.742674846129704,0.741743233449433,0.742227528148459,0.741612960156336,0.740711695092917,0.74008763019446,0.740824370136322,0.738538473033631,0.737585025039746,0.737321991219115,0.737398669184169,0.736496262984052,0.736430506769923,0.73731142394908,0.751262143104921,0.722399490739835,0.722321392153966,0.721893560394329,0.720932283911371,0.722304019244792,0.720794432766457,0.720104491989447,0.719129091110061,0.71876695509865,0.700880063859968,0.70145851024036,0.702331909320111,0.702541115135297,0.702701911341024,0.698356707306459,0.687111803978031,0.686849213322394,0.686247750738539,0.68483162770224,0.68287381023022,0.682110464346777,0.680377456943638,0.680936348556932,0.680156478991139,0.679364451920066,0.676752982119838,0.678903004190655,0.67990285383334
0.864964950160523,0.864565529080159,0.86253767000508,0.86111119853391,0.858850967839336,0.857095253626738,0.854270278974889,0.85165526312835,0.847837193161958,0.845945150244551,0.844248988012662,0.843113888755328,0.832533133473908,0.835523468630554,0.837962431658062,0.842595403748055,0.843401343385322,0.843801924923525,0.8433409100371,0.842665886188598,0.841826499737405,0.842219584781859,0.841893897790077,0.841575838445072,0.838070665122613,0.834574129412859,0.833102545038174,0.833393052769526,0.828364003833887,0.823846961398841,0.822847378295717,0.82258969745453,0.823012249127011,0.824572241491179,0.825600453892072,0.827387204935342,0.828002866939773,0.828341816003372,0.828787614130629,0.829698142989626,0.831132617076895,0.833410606918435,0.83579502112778,0.836773610816602,0.871497509085831,0.870309105971967,0.8691644541377,0.868502939398531,0.867675911174157,0.851885448230238,0.845331294990118,0.838975748171779,0.833792265755549,0.829560719748571,0.825906943837319,0.823631654830955,0.822902217968572,0.823022585443943,0.82347646833806,0.823541427865066,0.824037262904854,0.824687007985979,0.827966609212336,0.989709671978613,1.00179215834306,1.03240132800754,1.09166817996378,1.0888969884567,0.934565761141383,0.849764658777579,0.84829413133595,0.847324330047612,0.845873487476241,0.839817573753658,0.838521915730481,0.83552664628839,0.834350897096659,0.834659168886127,0.820814519773649,0.813856974650007,0.813420487708026,0.80527477939524,0.798940878559999,0.798679371356897,0.79848859579416,0.856072769272804,0.921195698384987,0.888463105033302,0.870523476108723,0.852632377490868,0.833807181673095,0.796223253697916,0.795942630225004,0.796683257791368,0.797436356712672,0.797802892107061,0.84543695696048,0.888126392557639,0.895331256034331,0.83392312064952,0.771302629742335,0.771176431638297,0.770380534787601,0.762029895346407,0.759844914613202,0.759751516447992,0.759803094957442,0.75997009509965,0.759637723547777,0.759540069979834,0.758932280316657,0.758854590944886,0.758467807643582,0.758641260887274,0.75847147081814,0.759075269583181,0.759428556734184,0.759386501303784,0.749989523472715,0.748853325015569,0.74679117382972,0.745388437163331,0.745363039525611,0.744423260803897,0.744118415033457,0.743380922007103,0.742918093982518,0.741775958109888,0.740884260030788,0.740635154950057,0.740605488695506,0.739324383686491,0.738074987237899,0.737846595378108,0.737396125085599,0.73711742064272,0.737240412971572,0.737614695370217,0.72849354823245,0.723528361923327,0.723415195949629,0.722933672400758,0.722129315039405,0.72225433338157,0.72183279648232,0.721424748801583,0.720553330849424,0.720266715413168,0.707484093693242,0.704194163997043,0.702895102404007,0.703090039531211,0.703155866440033,0.701312655933477,0.686786410821222,0.686277489103857,0.686124067772461,0.685114030564006,0.683972609035187,0.682468338958868,0.681049205048243,0.680690024616513,0.679890427580039,0.678523411527575,0.677004474388846,0.677435197342027,0.677606876530623
0.865929927045384,0.866392234516032,0.991093531755613,0.866693043400769,0.866667541815788,0.860883877045608,0.854961357144387,0.85774119644681,0.903344546524156,0.937033726429899,0.98602673009197,0.916903782175521,0.829898301115721,0.900211238213698,1.13960494775784,0.848415551371053,0.845225546691666,0.844633656903805,0.843360647540261,0.843050558442325,0.841626744882451,0.842485023110077,0.842197307313357,0.841942570102832,0.839587887464006,0.841499835867703,0.881671210879277,0.834524458336482,0.821239890987437,0.821906439127695,0.82249783779625,0.82206924924602,0.82246937662356,0.825890205748458,0.923343559466371,0.829581898566793,0.828485276419622,0.828627192819385,0.827806747410464,0.830972867766541,0.83130766130995,0.835130032297631,0.83686943091786,0.838062517815544,0.872070165491271,0.870217467568667,0.86847415701118,0.867920148701644,0.866320970094598,0.858630602786738,0.862836193073095,0.868819530502331,1.02841791063717,0.937522315624575,1.0299778270874,0.823986103548029,0.823488859580182,0.824500628398191,0.82530041484884,0.82546671064793,0.824843054202737,0.825466745257376,0.827773859757861,0.979368644287586,0.955857502866088,1.0017783818029,1.13174395135423,1.08107846729038,1.06942258045067,0.852564404383802,0.8477552961743,0.847686253708252,0.84570991493964,0.842845522242223,0.840394473274073,0.840984349276538,1.08761796826334,0.921725171924166,0.81734764225369,0.815633152820981,0.815326851144707,0.807185461512332,0.799529062429607,0.798599485797357,0.799198612106405,0.879080939502934,0.992300317514548,0.905132516029147,0.944296038231193,0.885235408409151,0.954705716886963,0.797274626629311,0.794810873638206,0.795768482388584,0.797493658281636,0.797245280306998,0.900458876039034,0.89424600474892,0.990614502294051,0.810828225044244,0.77114145394579,0.770839660376438,0.770268780561071,0.766033093890938,0.760347377883799,0.761359790196938,0.761805434455419,0.761333824259405,0.761864469214486,0.760832754171226,0.761015387159006,0.760145103280722,0.760550713309627,0.759660849940302,0.759606518736564,0.760311869793464,0.761161997912441,0.762810814009654,0.796306096086653,0.753855380022966,0.747017719686648,0.746612984269397,0.746718890033143,0.745995213666903,0.745884220598616,0.745005009425932,0.74373348430932,0.742615687715014,0.740058171395302,0.741397145060231,0.741376605237988,0.740155436488238,0.738293006076203,0.738174391792425,0.737554506280796,0.737762654569644,0.737682361556531,0.737654460072088,0.725770114782273,0.725277868222892,0.724844023262758,0.723774548012958,0.722081374376976,0.722627411602443,0.721984952350629,0.723170955847433,0.775599534287032,0.762938297944728,0.779159774099787,0.729534442701708,0.703029121859923,0.703536563055616,0.703030596693028,0.703070277241205,0.686802495602526,0.685918273057801,0.686229102627096,0.685162970665445,0.684516110502407,0.683253173546305,0.679467551427424,0.680032760317671,0.679020242347742,0.677905462058309,0.67570427695899,0.675946072674767,0.676540018938635
0.868822809741654,0.868022328994801,0.868401301372054,0.867012465982254,0.866038892259682,0.864210255884963,0.863790951517233,0.866370053250482,0.98289092649882,0.991204102182746,0.995663410795404,0.947535713119666,0.836250426515302,0.929715528658618,1.13998571454187,0.856108548399258,0.846125472360606,0.845472939519817,0.845650882619924,0.845454785151009,0.847975315606682,0.847221781196017,0.847321485205208,0.844555327671407,0.844206549812951,0.843205065009903,0.891550304629532,0.836202236378283,0.820709005246583,0.820428133533654,0.819261129892184,0.820641208804198,0.82037180906366,0.825842983234495,0.918378627567723,0.832562643319925,0.829091900861893,0.828914855503656,0.830541999438608,0.833382917461227,0.836812131335693,0.836683709707885,0.839308356799074,0.839087337144529,0.840683694308555,0.841695846920959,0.843477741600478,0.842931712402193,0.843331137740072,0.848935443185949,0.890837334304523,0.873088401306263,1.03135350144007,0.906707020388625,0.823867807841416,0.824583728399639,0.824817546644224,0.825671236754831,0.826878060843022,0.827859355800931,0.829995761442722,0.833158069937499,1.03038315970873,0.98722516464333,0.995614758467117,0.939572829866808,0.866539300887728,0.866393021846927,0.866899149388997,0.854981248342096,0.851851908554081,0.84943687826302,0.847525306172444,0.844662160904608,0.841775918053584,0.842854066845808,1.11598553173959,1.112103988415,1.27186928096798,0.853765171020717,0.811116419115107,0.808937702029886,0.808201098635587,0.805454891479301,0.802113865446469,0.90262124178208,0.925540192374689,0.881963984696688,0.807784733282431,0.808306321308187,0.802195119709767,0.797923537487121,0.792091190294816,0.794622024404011,0.795343159111533,0.796466105691814,0.92862624756454,0.847311410081784,0.770232634288219,0.771568937652061,0.771234964430484,0.771612052950262,0.769744247713908,0.768864128703589,0.76698394146007,0.765193190338773,0.762418161731431,0.763859896695717,0.762510528423289,0.763333821512276,0.762077553110937,0.762778667503175,0.761654375180983,0.761627543993542,0.760036739761913,0.76135680177543,0.762131061836409,0.762720799053373,0.796482320367134,0.754789011772848,0.747919392637004,0.74734496312629,0.747589405496826,0.747014375365072,0.746514059080229,0.746071764442849,0.746105913546063,0.743998481207912,0.740431460698272,0.742569614061497,0.743497845375827,0.741449606020892,0.739062747122457,0.73912364597944,0.738203951695788,0.73830317965265,0.738624795825739,0.738375154444111,0.725867240076364,0.726750559703418,0.726142499757001,0.724915575698303,0.722585916691544,0.72368293471281,0.722885841516638,0.725340801528525,0.727637326668464,0.750877112709004,0.778538738294335,0.746018059519222,0.704813818807337,0.70442565444314,0.704678771482275,0.70380434364485,0.694196317496869,0.694677758719088,0.694366396215012,0.693383808013946,0.690971044585769,0.6918816451055,0.690524895497054,0.68581324359249,0.678200292253521,0.678169026188822,0.673397779096252,0.675605860033713,0.676008769350887
0.869530402453546,0.869146119737567,0.868675500974703,0.867605376442166,0.867175824501066,0.86563378501434,0.865040161495922,0.867455459157697,0.999359622436384,0.999533889103942,1.00017387931971,0.998120398091934,0.992693261218106,0.958641674792021,1.18109319800748,0.86841236021333,0.886352169126511,0.855470437176339,0.852963503337287,0.851941417708193,0.849917590943223,0.847561061902082,0.846745338903965,0.844637377950567,0.844101048288165,0.843474057080428,0.843116256979987,0.839137242708169,0.834960403367726,0.839695645657436,0.936548657872758,0.831390670646247,0.826963537152216,0.829704215318811,0.911108128822432,0.83532623852004,0.83427647802893,0.835028240550809,0.836308050260691,0.836682945048626,0.836579864412038,0.837896858559471,0.837371854120189,0.839792189721113,0.840833799003911,0.841987238975297,0.842412837885132,0.842755176502004,0.842649874091297,0.842344298078968,0.842694064757025,0.861388484467593,0.891402807687438,0.868658215559513,0.824773202552818,0.826202525943562,0.826431758097771,0.826753923680671,0.827439764488158,0.82945238243328,0.83385398827468,0.835216309941702,0.83733985996498,0.846680095967245,0.843972752420322,0.866285001930897,0.867067631662412,0.865730949770365,0.865841384947549,0.857701667640503,0.859103951541294,0.852131914776258,0.846975155069262,0.846474616453979,0.846592907141161,0.846854239856198,1.10515398106608,1.10888535916682,1.2291066894179,0.869187415896971,0.816295312883788,0.814518797343575,0.813055677880902,0.814293576774827,1.22157118750214,0.933157350668991,1.13857933328652,0.857411640429242,0.808124934053023,0.808604269051791,0.808422123652245,0.799453460317714,0.792439091621286,0.793976917091164,0.795550519481735,0.795827372200284,0.831725187539147,0.815137668479995,0.771867505097222,0.772928696380117,0.773690575804608,0.772902227266318,0.773109170984149,0.770138915691997,0.768972491188402,0.767192784539149,0.76824998408147,0.765831340106266,0.764825817950213,0.764932919542062,0.765782762388389,0.764111498701831,0.764653405012831,0.762830804539339,0.762264032169309,0.76249433220068,0.762365976427983,0.76330704481233,0.797856124404381,0.757552185090865,0.747958008152481,0.747619427666218,0.748095478558663,0.748125799643299,0.74798266929472,0.747982054749698,0.747187340248326,0.747069939609201,0.747038265286922,0.745871409324079,0.744943224797492,0.743751864556249,0.741262456452372,0.741223333767134,0.740679963629188,0.739646555496689,0.737297616981751,0.739930161016938,0.730874567816271,0.728540802092494,0.727948610148126,0.727441022109558,0.728064988916644,0.727395270552291,0.728440982908669,0.728250810901839,0.729072836289192,0.733554702412073,0.735135244533537,0.754984810684425,0.78654485994468,0.741431829757808,0.705597600627923,0.706317873634541,0.706203281656474,0.699296443217145,0.695516503510736,0.694348595273553,0.692228954465614,0.692284669052996,0.691003454727367,0.690242024489337,0.688082416878824,0.684266392966731,0.67388285356189,0.675362137448739,0.677970809274596
0.869472267851326,0.869355365687085,0.867876982511635,0.869047456150568,1.08824439140239,0.872233041560108,0.869558134268079,0.870543135566719,0.999688089110124,0.999682202940966,1.09696825486619,1.00123568705836,1.00468748094815,0.935028221192913,0.861154814132875,0.860910749770793,0.859872460262143,0.858381377249213,0.857967580759875,0.859093119783124,1.14705446991416,0.855860959937773,0.853631683511939,0.854957809707763,0.853341384600904,0.853924878688064,0.935784053155408,0.848404708117549,0.845275355088105,0.841848385464471,0.838921500523831,0.843529920702528,1.07131254235718,0.841425172467538,0.837571047491067,0.839217390067015,0.842588626648234,0.842596401037787,0.841505398653827,0.839206858910508,0.838921180701017,0.83824337141716,0.838526243611121,0.839446543438537,0.841256760395218,0.841976848569832,0.843625126002696,0.842819159476683,0.842476316091577,0.841998066809482,0.841980740211009,0.839115195078142,0.834723303609638,0.832391356644188,0.829884953827546,0.828848933042854,0.828952444399427,0.829899650184206,1.18364495109347,0.834220715875679,0.833071103087367,0.836824872099234,0.838819814928196,0.849891199556433,0.85152777898495,0.865174097265868,1.13368770551557,0.863482640274755,0.862617841125183,0.859318224289502,0.857657903410778,0.854853000136395,0.853805770792576,0.851954412549012,0.851036614027127,0.849814258731216,1.17828350596599,1.07582093847984,1.04754531138405,0.882990007315563,0.817459188198664,0.815729122677364,0.814362196552499,0.81535269097323,0.962001704073785,0.889026095367234,0.814811899952741,0.814838733438521,0.808845156783883,0.809510619557497,0.956704743678481,0.799952929604045,0.793668441340993,0.794204450428443,0.794545234458968,0.795901599319288,0.832778165928213,0.805132649272943,0.774885590447965,0.774729554510494,0.774935566039336,0.774735930522993,0.774458432073647,0.772273356073228,0.769353880433228,0.769520106679409,0.768534216939383,0.768638613966857,0.769520232162805,0.767580679734681,0.76627916370984,0.766255947221094,0.765179588083176,0.764948130308768,0.764240110133884,0.764047388344323,0.764037119547604,0.764528174217647,0.76542282334438,0.766356124922459,0.800876181187461,0.757724431901106,0.74908898371994,0.749006511886145,0.749724634501544,0.7496475254369,0.749920516305589,0.748824429170319,0.74844220848389,0.747843822705157,0.747955769377888,0.746842648008978,0.747025958154809,0.743750552165764,0.741537325946554,0.741568722499433,0.742400901082797,0.741672948903885,0.730349366883746,0.729347456367864,0.728970405277447,0.728455107696871,0.7282258630478,0.728484317076324,0.729963905224599,0.729550192179258,0.73069457998164,0.731622219280952,0.783221576700756,0.78575859623372,0.787665295574726,0.787838662761543,0.786184619449518,0.735235781709833,0.706468869907016,0.701866735046979,0.698758230390739,0.697126250689784,0.697234156695946,0.694871017406389,0.693282330777326,0.692920934351392,0.69192610135597,0.693061642041403,0.980904943592391,0.682114955320099,0.678602957613634
0.870012494545785,0.870985140813521,0.872608066755838,0.874446881395199,0.876516547599319,0.876028258081009,0.875350268281679,0.87410083614017,0.933307253947766,0.961545995237428,1.03244319187496,0.961837199726875,0.936664968044573,0.911175223752694,0.861611841791755,0.860878698601169,0.8599360553554,0.859111798482416,0.858912473463212,0.859200136553819,0.858588589327241,0.857388024501364,0.856563937419997,0.855882793711697,0.85482135457895,0.853995497703952,0.85256533252804,0.850829400809243,0.850772326398966,0.85051602206709,0.849254390404398,0.847250180506143,0.847906161428864,0.843429149019244,0.842854417739799,0.84153771257723,0.842210870606094,0.842408522476881,0.841721677930688,0.840773474173568,0.839982737308533,0.839455081794944,0.838841299571082,0.839607490054756,0.840185487420353,0.841827026706784,0.842919701996134,0.84263040121048,0.841962549583587,0.841541841198942,0.840144798018053,0.837594054288792,0.834613990673351,0.832524647784164,0.830546748364157,0.830277310723194,0.830512428138129,0.831551189766725,0.833354243802778,0.833583052578688,0.832880082320467,0.840021256958838,0.8438890284485,0.850965051546161,0.850808363505385,0.863191728578575,0.862239462243207,0.862049761261411,0.861182395591084,0.859659047165934,0.858304881264108,0.856128742846535,0.854485112958576,0.852840296914566,0.85206915945222,0.851476606440911,0.992884006156634,0.992667540568436,0.992898441442145,0.896559835449142,0.817420943061799,0.816636888935561,0.816314426992796,0.816841257089482,0.818440788456525,0.818877908384697,0.815032987829573,0.815642420534778,0.810213174103121,0.810477014208322,0.810220251888274,0.800083857786594,0.79369695772817,0.793867219410143,0.794292514889477,0.794351398996118,0.784596715142948,0.782582212645859,0.77557779595808,0.775654220050737,0.775699372892486,0.775289857784263,0.774992553576543,0.773032364064158,0.771713430286635,0.770595589843293,0.770392823495551,0.769779840299709,0.769690636617597,0.768816440971597,0.76824494812618,0.767368121892943,0.766959123515784,0.765898633320047,0.765613559785227,0.765038727178349,0.765146055919749,0.765434684130438,0.765966367457673,0.765644612949507,0.771312206239129,0.766129574062973,0.763439552343772,0.759696082499065,0.75348062233749,0.751882480064353,0.751144507755962,0.750700263664578,0.749922198976078,0.749791461052836,0.749467829728195,0.748979159422529,0.748073805421479,0.745403138124779,0.744151769953366,0.742596876985393,0.742485770961388,0.742322449090325,0.730208380360979,0.729952909213595,0.729813300299602,0.729077556633369,0.728229947238245,0.728571009199509,0.729672074705756,0.730305565719263,0.730419119189399,0.730728855782433,0.784164075326856,0.786355229171694,0.788149523064739,0.788462421600763,0.787419386776656,0.750492018087666,0.734325013963772,0.721712360555839,0.698903784516692,0.698007680691261,0.697427869133217,0.695943482445409,0.695234103409863,0.694184881083338,0.694149632578868,0.693557120245409,0.693287009506508,0.685009666271871,0.684617317135209
0.868578599818515,0.936697037948358,1.01246561542837,0.881434304080942,0.880011709950244,0.877719789145103,0.876194694153607,0.875892384485134,0.87535136220773,0.932382476850625,1.14662150097775,0.932278107126993,0.864188677792412,0.86413036180231,0.862957017285959,0.860924597009513,0.859743748890741,0.903697463118601,1.02284765779719,0.859648410992059,0.859172306841576,0.85859603460912,0.858325216905274,0.857323700292857,0.855641711149084,0.854379046355305,0.851996880430363,0.851891692991432,0.852481214934144,0.851426475619578,0.85006714176392,0.84945341790586,0.848685385410032,0.846053379050228,0.843629359627033,0.842917269364535,0.842862012023014,0.843042493845621,0.842414255733672,0.842073718139921,0.841612999546273,0.840227566647251,0.838848489521878,0.839204886632994,0.838873168158666,0.841410743391528,0.843973150265101,0.842452007075455,0.841399563321886,0.842697951089501,0.888078357907284,0.890178912320409,0.893507896600386,0.865646120932889,0.831416003641306,0.831047487100852,0.831490062927216,0.832636592955576,0.834767396241438,0.83398536257193,0.833340753077768,0.843375045881941,1.40363923131581,0.850188625096369,0.849370053516866,0.861292783953658,0.860544352954232,0.861107313514669,0.860119614751539,0.86010188160129,0.859874877109886,0.857342205928449,0.855184319499363,0.853987736421514,0.852493292888049,0.852590811609943,0.992973615954251,0.992569620420148,0.99303611262803,0.909833077246304,0.817871737766219,0.817168846203186,0.816755920561793,0.817451095340358,0.819843346921796,0.819974429120416,0.815144878381908,0.81682185511818,0.809662051807192,0.810835049553669,0.80988797454227,0.800378472201417,0.793504846591439,0.793969282796917,0.794088798884136,0.793908900853558,0.780440838279762,0.781978428103669,0.776395844410653,0.77676551753784,0.775816146004159,0.776329413874082,0.775568595273409,0.774347034825206,0.771931635301959,0.772060097213541,0.770864120648146,0.771234098347622,0.770588331961657,0.770141265626916,0.769375440497337,0.768552265320184,0.768070130802408,0.766855818826427,0.765899998095047,0.765954278391476,0.764959928413415,0.766301350581509,0.766154897171421,0.765793043600535,0.779462935326575,0.779802755321302,0.963125580884417,0.763671169303197,0.754293638074057,0.752698671086408,0.752597851896292,0.751901279335645,0.750782005173455,0.751734585482112,0.751022758413464,0.751393260739063,0.750208493115958,0.752654651239326,0.917919017870512,0.752103383686492,0.749838138344041,0.744664912245297,0.73070655399137,0.730541780980735,0.731292984709891,0.730214725164346,0.726342015309146,0.727707308922219,0.730385435788397,0.731033424313912,0.730666230238919,0.730539260882158,0.782441199394832,0.740956710571979,0.716685640544884,0.739754721789016,0.786894763443582,0.787507227495572,0.787751950634275,0.741748848856307,0.699901956045876,0.698791083871617,0.696990593998973,0.697279181284049,0.695404164965704,0.696265851304535,0.6946681115957,0.694489409364905,0.69286647045801,0.687615196934642,0.684416068282428
0.980440763287786,0.980705112677648,1.14243920529416,0.881472237977652,0.879513300387979,0.879394923466563,0.877971739155696,0.87786641514165,0.875795254745813,0.878810907791169,0.869433122169699,0.869576509544529,0.864890968639795,0.865064915714639,0.860348680672791,0.860243108261353,0.859739376553099,0.921946536544186,1.09871855482155,0.860888498866976,0.860102174623315,0.859608621573083,0.859151576307579,0.859224320952446,0.860506509473798,0.856448673417308,0.852316463695057,0.852242600275803,0.852400695763074,0.851612484450193,0.851174848339675,0.850971512111826,0.851835408945553,0.847900341647195,0.845950123785813,0.844089637307828,0.843753653331755,0.844537986667675,0.842786458679084,0.843311291722824,0.842516023872314,0.84122979601053,0.839662834821581,0.840014827389899,0.839917504682019,0.841612944713372,0.841399704616685,0.842128397169228,0.841391947705482,0.844628698186728,0.90350766268757,0.901563148026426,0.8497153558271,0.931017744884298,1.0214279127371,1.01796599147496,1.02469618488604,0.932697513077425,0.846198665366783,0.846878037355765,0.848225669146995,0.850249831225939,0.850414260794383,0.851151004673291,0.853761330893133,0.860221022004589,0.859764261701526,0.860807476170337,0.861153381650013,0.860166185421976,0.859118353281443,0.857708002007961,0.856730534489308,0.854905554742922,0.854143894056729,0.853448853855481,1.07922574058642,1.01736514045684,1.03785606375757,0.922861664341654,0.949726612415581,0.917033636196327,1.15813663226529,0.824475319591556,0.821923728319383,0.821584500197008,0.821730112652129,0.820898556675074,0.817833867820146,0.813930402371129,0.810329393517765,0.800249957328007,0.79404277257866,0.794102267200189,0.794165041516264,0.793442484534137,0.781780854185406,0.78143061552874,0.779254853607596,0.77833140240879,0.778138767600532,0.777088064467673,0.777236270345842,0.775056872068621,0.774261498188321,0.772975230259643,0.773071000100872,0.772390573109764,0.772981673019615,0.770703215752526,0.769143267713017,0.76880106918706,0.768847701335905,0.766897287827954,0.767233716655568,0.765869161014687,0.767001977086499,0.766441771113268,0.769311494443742,0.765962540635841,0.779080451591513,0.779794664262144,0.779284702199568,0.770323404338357,0.758713856817144,0.75723226502611,0.757345423245769,0.75701006441563,0.756148100622701,0.754671103717026,0.754391752715807,0.754270972710657,0.75521439928639,0.75331279578064,0.753079927619463,0.752395972433386,0.746616311993675,0.752460541675704,0.910377988692923,0.749631098691624,0.733347705644538,0.731448901029595,0.725376570656316,0.724865284206033,0.721550949932867,0.720158767315796,0.720399254929581,0.720979517029884,0.721772821552173,0.721474140129934,0.717200312496537,0.717580996583377,0.715517051049532,0.787686307986613,0.788113539598463,0.757183173533306,0.700213155452663,0.699147054731681,0.69760006471192,0.698116389597876,0.699368446814722,0.696877375927335,0.698164807790875,0.694277962018108,0.694318925782596,0.69054955115463,0.6917604988799
0.981590517831342,0.981088661203139,1.09096196238941,0.882541662735288,0.881756813392658,0.881453081631738,0.880863998901863,0.880502605458412,0.881232507210751,0.879991785347997,0.869392871429476,0.868981983392888,0.869034885395944,0.911781156041135,1.05838411448891,0.97417892373074,0.941217453072968,0.939178377303101,0.937119908757592,0.863183616966828,0.85988387689447,0.860495508822935,0.860293704310621,0.860582411689813,0.860772199005152,0.861365976924415,0.869229910814619,0.870793698017897,0.871688480207078,0.85790854549821,0.851704310349838,0.852468356582505,0.852892977271838,0.854198133002597,1.29102124732359,0.851425586015036,0.848709240036152,0.846638381887015,0.84673646851785,0.845212003230238,0.843007457804605,0.841535959413957,0.840403870687338,0.840282849341032,0.84162157588256,0.842746508464619,0.842761512657393,0.842756670583674,0.841955596541376,0.847363404360354,0.850667101260022,0.918952578170645,0.961759286189889,0.970444756742085,1.35047617318746,1.01253686990024,1.00348141190004,1.01191668404245,1.08619930410864,1.06184933316363,1.08799566457309,0.863158826233096,0.861977591195392,0.863281024502422,0.861312540307134,0.861336567316912,0.86028938662538,0.862211247425742,0.862967205260609,0.861386754050339,0.859679417914558,0.858914856314164,0.857179445134417,0.856388700165503,0.85515611889133,0.854166958422559,1.0445698014499,0.943417781427863,0.842161753543588,0.90631553795629,0.948060461222811,0.898461007821242,0.827557545335418,0.824841567422448,0.823581029506553,0.822512146469066,0.822678220641815,0.822382925499989,0.820919193272743,0.822578876698983,0.924044760646835,0.800246765105714,0.795463215518072,0.796383147510319,0.931483480358927,0.792600573768376,0.783029909101509,0.78275297066264,0.780800327346014,0.780142673269861,0.778703060539145,0.778543113054078,0.777359958243094,0.776612587644059,0.775081434577246,0.774819088039547,0.77315458641636,0.773629524040716,0.772717317688419,0.772287435436153,0.781859246473089,0.783200082104387,0.824097413025263,0.773109640837698,0.766581405730173,0.766457764711245,0.765503127043786,0.766636254229317,0.765793609268412,0.765756751331722,0.779144931030084,0.780596836603432,0.811163663745758,0.784635922630114,0.839902621594003,0.764431825476876,0.761573789733656,0.758931592416146,0.757105742879922,0.757393579829598,0.756247386872548,0.757220697727214,0.75644877768759,0.759522020895823,0.913697110135245,0.756749457552284,0.745943398643407,0.757042337491902,0.76850285114386,0.769743670258601,0.939975560943932,0.760672001189441,0.725358077559632,0.725330226349888,0.721107424150924,0.720525494575986,0.720166281363519,0.721297206429844,0.722293488597364,0.7218861448051,0.722541997151495,0.718802953062905,0.716145128595005,0.809020886082331,0.877260160789836,0.775399526562241,0.700945339727516,0.700271180621168,0.701899475006377,0.700411494124386,0.698230249143346,0.699326463940746,0.69672933680664,0.696245178281717,0.690874293333961,0.692406766800909,0.690800989334914
0.929647856451799,0.923547718472232,0.918698954194782,0.884506703369645,0.884944557846189,0.883874940540571,0.883630800724683,0.882736723949947,0.882512095016725,0.880221714426066,0.878452431292149,0.876443494444182,0.873733439327582,0.936959111632204,1.06589045700891,0.997074076302302,0.996770487662544,0.96111981357221,0.867751956893199,0.865736537773078,0.863193925622359,0.861812645840636,0.860826433383067,0.861257930711186,0.860834628641289,0.861902755594807,0.87026963144175,0.870761062774122,0.872229012486592,0.868260295641103,0.868432652091405,0.866894048936189,0.868310264357015,0.856330382221643,0.856199715337738,0.855148292422189,0.853522241636398,0.852407908883247,0.851284835822585,0.849253327776687,0.849657352160705,0.848762230287494,0.847260786664299,0.848616508095227,0.848370077203101,0.845773749459073,0.843299908746208,0.844507039617669,0.845214488556383,0.89006892435687,0.939424724076382,0.955561679083985,1.00170171459683,0.976043836936526,0.908222356126283,0.982305620709298,1.0254241184429,1.01706433843497,1.02799037514973,1.04494753806382,1.26132142070675,0.86399669838683,0.86407651804083,0.86417359581052,0.863579641096591,0.864554603446789,0.866753002452227,0.863807222193426,0.861904971053081,0.861494199324381,0.861283902080306,0.859805412717117,0.859540218450099,0.85687923483563,0.855504488503542,0.85355055148127,0.850155200845261,0.849154480352188,0.847912227595561,0.887883621821118,0.942417775110402,0.880195046430396,0.830403751077676,0.832194363296288,0.832511781985167,0.83097627088985,0.828169118052655,0.825170141223893,0.822715567794749,0.823703530933424,0.924179871520609,0.800811668839657,0.796871610148035,0.797684138067637,0.937228873395398,0.792330937219422,0.787893559227989,0.785014165047698,0.783287199359842,0.781449124575074,0.780571824144058,0.779323206631949,0.778741271605697,0.776889351122383,0.777234665406141,0.775747785228023,0.776143233160479,0.774533955869792,0.773856820085949,0.773681892392098,0.783611946099367,0.784264061239714,0.784815867450636,0.785775585188096,0.78558002874053,0.765900731320326,0.767411701265968,0.765491539074412,0.766289921944263,0.764709663228911,0.785324110466567,0.771286847552156,0.766531596517814,0.766378530224784,0.770188598162855,0.766361999630921,0.767746021809356,0.760709260775976,0.757506978564916,0.759224058850512,0.761527029530387,0.760251235466208,0.761443617356129,0.761069385444345,0.762107169776837,0.76337108533271,0.762645176938976,0.763605370032556,0.769604304694035,0.770667635984841,0.772449335779738,0.774277454069782,0.992327953829638,0.73692525760753,0.720524336313603,0.720435589427701,0.720414796047552,0.721049873281003,0.721424292067793,0.722513131637323,0.723910220534117,0.723943610830954,0.881084463410148,0.869625964508712,0.876219898136436,0.793641768022791,0.712425679865502,0.705959217838514,0.702911606020663,0.701503471229651,0.702345149666941,0.699859542716795,0.700440110406832,0.696283009956701,0.694771621080879,0.691675187050556,0.693065284766122
0.889171076129812,0.888379403504319,0.886806138755943,0.886093560492872,0.885769553473309,0.885348258103683,0.884916842872619,0.88412905615507,0.883706679069178,0.884425960578979,0.90159889331788,0.910974134273326,0.919413511480451,0.961108764375903,0.997781534577377,0.997335897620507,0.997108392291689,0.98288916543103,0.952224252390509,0.867932003986602,0.863235900640065,0.863156301439218,0.862910660529028,0.863336080082451,0.863347582396344,0.864451265353377,0.867047590895531,0.869448408330671,0.870534402571346,0.869566846931538,0.868410579827618,0.864155584910922,0.860259866450108,0.858697116645304,0.857910067018239,0.85681961526909,0.854131223504712,0.853515046387613,0.850973884943397,0.849923875150704,0.849732917590578,0.849300368948095,0.848812198708556,0.849272409037534,0.849288807800084,0.848109281174733,0.84789065905073,0.846452191866166,0.846365810392855,0.91111201405723,0.955449460701272,0.968983683715537,0.990158255823456,0.982234783381607,0.971088671749862,0.960978114861873,0.948535053117002,0.935912050746481,0.923929143933647,0.911904293920306,0.900603772039578,0.864951224898921,0.865084711063403,0.865315598340564,0.864934125867789,0.865920209574881,0.866445800888623,0.865108041896273,0.86315165616598,0.862490444801831,0.861446459165164,0.860621446231969,0.859341952950374,0.857433234061002,0.855283971901216,0.853507806601335,0.851321640399942,0.849960016662415,0.848367054381884,0.847771388653222,0.846990249366043,0.847007279163473,0.837570037386934,0.836503321379165,0.833726310743936,0.831483811531288,0.82949977545977,0.827577082884097,0.824936417693883,0.824767635655246,0.805887840133898,0.801109261366018,0.799940152812869,0.799446986296707,0.872221245160789,0.792189190521264,0.787940829527653,0.786369790241261,0.784586924850172,0.782433156379267,0.78108341046473,0.780602748908151,0.777521944103362,0.776590504387578,0.776586292264566,0.77640223634931,0.775846994045771,0.775518978692551,0.775090411248307,0.775029311246869,0.784588797207683,0.784928448742926,0.785555543782025,0.78589243439458,0.785639559651229,0.765377309083038,0.764908399940983,0.764744823843424,0.763859702455375,0.763301031930005,0.762397118628845,0.763042539904551,0.764888238688252,0.764826786194826,0.764943839552424,0.766290788980882,0.766735378720967,0.764624345726725,0.763992478107891,0.764073196291141,0.762648161604468,0.762309319449645,0.762569433793035,0.762576777097409,0.762850879574427,0.763606905225985,0.763459505422022,0.763494942471366,0.770869640697611,0.77069906674157,0.77243194078163,0.775078787047527,0.77529229231237,0.749553774255606,0.72026682206899,0.72058914488087,0.720660091697632,0.721112056799441,0.721642044745623,0.722539520493013,0.723300518751461,0.723471792332953,0.862820556704587,0.864688180670066,0.868795371748038,0.811915129988981,0.773361581672817,0.708091898858235,0.702476180949022,0.702337945625418,0.701822857013145,0.701196172614186,0.699785162328763,0.698077170313396,0.694686958549946,0.69083519595136,0.689231020043372
0.89037668110697,0.888778157838276,0.885419703722377,0.886480047802932,0.887223045023234,0.886403780928316,0.886703504960281,0.884968814008888,0.883560070103531,0.884820199681773,1.04751767506493,0.933103383621665,0.931198790365129,0.98212897282604,0.998265091594484,1.01823645586676,1.03827154403351,1.05441930825549,1.07863616587879,0.869868504001834,0.863690569353142,0.864303716876113,0.865100453701497,0.864904782467959,0.865727593097688,0.865093266106714,0.863983790193729,0.869636832169742,0.871018695623587,0.870452698884294,0.857417768856546,0.860235957207453,0.858697682082809,0.85956815106248,0.860016466388168,0.860069586665991,0.861737216795485,0.857465984959652,0.849849971176957,0.849622061764077,0.849701145891743,0.850386500059685,0.849762157086512,0.85054439418896,0.851485668658714,0.849545686606001,0.848908405347173,0.847564333674453,0.847598715363134,0.936047037155545,0.961645476834865,0.983431612607889,1.00545703163027,1.00632014578677,1.08533643691627,0.938855072300437,0.901195151212818,0.880563016555686,0.862567116489358,0.863070970004435,0.863564017733038,0.865994328316616,0.866081561851725,0.866890955558258,0.865538301070269,0.86737642616371,0.868873981915308,0.866055597651724,0.864468952861117,0.863000338959571,0.862589233933642,0.861129282790007,0.860941885710826,0.857409687745011,0.855971911487873,0.853487203807076,0.852237835180475,0.850284698911811,0.84954328046404,0.847714039068293,0.846905834126731,0.846447560658666,0.839458459702651,0.837700878719894,0.834918754181361,0.832144638243951,0.831406414348189,0.830302825791831,0.824074394824505,0.824930736626235,0.803367733024384,0.801837083289027,0.800018257765492,0.800518777101004,0.934512782661257,0.792469314341539,0.789785960961816,0.787509971186036,0.786132815710384,0.858766577591987,1.04845116837582,0.820310160591584,0.772163077976156,0.77507952734275,0.777291442215543,0.776502618439406,0.776581353182613,0.775439346516999,0.775301479018058,0.774892086725759,0.785288518796939,0.785632497114561,0.785724131159783,0.78570036518292,0.785122508053005,0.76491811888768,0.763714425039331,0.763786552613694,0.763558808927445,0.762227371299768,0.760614458152908,0.760838270095313,0.761256540253738,0.76239673214894,0.76421261690533,0.76522042516334,0.76787213822614,0.767121306044354,0.769267057097994,0.766767705959455,0.76413105550275,0.76347459980256,0.765559794277359,0.764016638478845,0.763813815124558,0.763483679178957,0.763878285058268,0.763687758678524,0.772222820925543,0.768990444581512,0.781036911950828,0.777714254082705,0.774667135923149,0.759466368969309,0.719758041438915,0.720311458919769,0.720550236097765,0.720639548997994,0.721471931005273,0.722332403954073,0.723136663975104,0.723202361359525,0.858132880823361,0.86290611239767,0.873280751491727,0.831823695812449,0.881528986075238,0.712199131220148,0.702752436930334,0.702742657848262,0.702975794508836,0.701768975775916,0.701913278342377,0.700524229556338,0.701823805790551,0.690403115254472,0.68749397230771
