0.440496742879296,0.440114436638489,0.443010222611531,0.441794378485115,0.4415287859284,0.440592319439498,0.440434250513011,0.4387873928603,0.437373962575774,0.428903489927875,0.424977498916502,0.424847000151611,0.422475047248906,0.427151865661097,0.427392645072375,0.428420093094546,0.429714971684205,0.428406308013748,0.428705903769765,0.429343693508036,0.428473395406966,0.423128460078749,0.618691887332772,0.418371688197928,0.419062780248619,0.404295282692028,0.406776597235733,0.614980024576467,0.4267346372156,0.42661976154228,0.430836158255805,0.438302158016197,0.440552802207876,0.439969233787412,0.438776364795661,0.406848279655885,0.404744676326055,0.40531997369804,0.403919409488926,0.408297551150486,0.406880444844414,0.408123859132426,0.40525840033714,0.405660005691066,0.403163068055789,0.398426514293473,0.398518414832128,0.397362306055839,0.39606467045002,0.394191737472216,0.39623560545192,0.39351810652387,0.392437356189278,0.392753494042254,0.393678932466517,0.393058603830591,0.392805877349288,0.391108474400316,0.390785903509635,0.392197495783387,0.390494578802096,0.387955366919038,0.409677897241095,0.390684812917113,0.392966703291935,0.391817027553352,0.390223472213062,0.390172007911414,0.390217958180742,0.390635186626239,0.392327994548278,0.392907886947196,0.632326251247738,0.63182631231745,0.72374247406476,0.552271692024724,0.451670929374448,0.647272954854707,0.646884215576193,0.366253973720872,0.365895561620115,0.366026060385006,0.368001921966104,0.365157600294709,0.370649576484776,0.370275541292447,0.369056021144485,0.367542419272825,0.371185356625139,0.37114492038813,0.373118024953069,0.37916691840739,0.375967860656784,0.376411740258491,0.376329029773701,0.376658952707475,0.375512952990438,0.377721322934335,0.375206924196714,0.373544443452432,0.383502785821167,0.38308831439183,0.384859237771726,0.385264519147198,0.385240625007147,0.386330565395605,0.390449547538155,0.390991760716224,0.558064182976195,0.380574834659596,0.383878659024269,0.383841898808807,0.375833685870346,0.374460691822829,0.368162747908752,0.425994837879421,0.380599647805033,0.52338091968752,0.362667095697139,0.363095352207274,0.361710411089732,0.361858370956968,0.360373258252291,0.358923067752304,0.35480500461514,0.355775474303345,0.358361555461117,0.345262971686515,0.34553132125939,0.34808339921786,0.349773450123739,0.350034447653521,0.344173031298058,0.345849297123138,0.34345712610193,0.34356373072677,0.343313761261627,0.355089896284973,0.355287482443083,0.352376073378469,0.574263490925042,0.332311428773762,0.331604713631499,0.325295741652783,0.323291390904701,0.317780115601517,0.44419573956019,0.447053846312383,0.445091769812083,0.43766069225638,0.358082177823604,0.35870526347569,0.359325592111616,0.359476308995011,0.46364556956129,0.421734328907341,0.554960701785791,0.311498713784397,0.31043818156831,0.309122165854759,0.307063593788871,0.318173449906963,0.319698998848648,0.32007487205175,0.320289000306818,0.320465449341037,0.316646981959891
0.440636431698053,0.438187282342878,0.437153401283001,0.443963231197391,0.441976341551654,0.443443993153986,0.44197726055704,0.4409681926426,0.441262274366299,0.443655364392894,0.421431057129777,0.422186479557527,0.424924196604082,0.427820901582511,0.425914884410791,0.427394483083148,0.429299581249481,0.429326232405692,0.428506479600882,0.428507398606269,0.42869119968358,0.628180617948977,0.717057628882941,0.42017293875558,0.419772252407041,0.418540785189054,0.418151126905154,0.427325557679156,0.427539685934224,0.426601381434549,0.431346206245345,0.432210071308709,0.434304484584673,0.437757187821969,0.438065973631852,0.713687636130436,0.714680161947917,0.402987538026957,0.409787258882095,0.409041945513597,0.407793017193266,0.407370274715449,0.407116629228759,0.406418185134976,0.404865066031694,0.398845580749743,0.398207791011472,0.399976876380595,0.396649157875871,0.395708096360036,0.3988143345666,0.396717164274476,0.39068297490634,0.390498254823642,0.391330873703863,0.391139720583459,0.392433680167732,0.39312569122381,0.39186573483884,0.391870329865772,0.389998315893355,0.391124097491888,0.391941093280537,0.391147991631938,0.392742465977615,0.389450588682967,0.392897777887944,0.387400287665557,0.390364999042591,0.384340918733708,0.384797664410827,0.38597399130562,0.440280776613455,0.439676990074487,0.714259257480874,0.569666625981482,0.451623141094347,0.450154570486628,0.375068154383344,0.375286877665345,0.379541872605105,0.715793077471038,0.715917143198224,0.720500223060985,0.379277199053777,0.36789899336281,0.36495174308812,0.370741477023432,0.370272784276287,0.373932263725559,0.381986426933348,0.381437780717573,0.380898324555664,0.382202393199189,0.376175555874145,0.378538318722984,0.377892257936235,0.378191853692252,0.383330012808495,0.383091990413376,0.383549655095882,0.384229719081934,0.384205824941884,0.386782716045791,0.386790068088883,0.39021060613765,0.391211403003611,0.393144990336927,0.392301343392068,0.407068840948658,0.380220098580384,0.384401573089221,0.385112883258416,0.687436247263424,0.383583658295184,0.38154806136396,0.380794476946983,0.523744845820597,0.368205022156533,0.369214090070973,0.364767942010809,0.364510620502573,0.364287302193639,0.359552586442096,0.362917065162282,0.361243556353361,0.361575317297908,0.361375893129025,0.360322712956031,0.359946839752929,0.34872118895613,0.546247611715841,0.343866083498948,0.344442299876319,0.343931332881393,0.343640008173855,0.35542717126184,0.356228543958918,0.355905973068236,0.355208447979839,0.351992848132275,0.336356890485387,0.532794291862027,0.323658993059324,0.930162111950186,0.483162486955609,0.414143344414377,0.413844667663746,0.40943619882443,0.353224315350261,0.353216963307169,0.358362474466504,0.358744780707312,0.36497839424433,0.422281137112343,0.546454387927816,0.458356693561653,0.457335678577187,0.311466548595867,0.303815828752777,0.303950922544601,0.317491547910137,0.319759653204161,0.319596070245354,0.320261430145221,0.319890151969052,0.319598827261514
0.439332363054528,0.439032767298511,0.438834262135014,0.438722143477854,0.444038589639089,0.443223431861212,0.441244813263954,0.440738441295961,0.44368844858681,0.443175643581111,0.433902879230747,0.431015364306184,0.430719444571712,0.426569216246019,0.424263431731147,0.424503292137038,0.424473883964669,0.428110388279276,0.428735311942135,0.427874203894931,0.4266730638547,0.425684214058765,0.422234267837628,0.42118200667002,0.421810606354425,0.41821361927144,0.417326779073412,0.427016771869273,0.426502128852801,0.425812874812883,0.433905636246907,0.434245668239933,0.434381681037144,0.432903920375559,0.444132328188517,0.492876373891521,0.492225718077838,0.411001264997737,0.409832290146036,0.409370949441985,0.407565103857399,0.409523504336153,0.407713063724635,0.40756234684124,0.406760055138775,0.403405685477841,0.4023488292833,0.396955186669594,0.395020680330891,0.399044085913239,0.399576190032056,0.398914506153735,0.395693392273851,0.391327197682317,0.392673540573624,0.391622198411402,0.393315925338827,0.395855137221885,0.391677338734595,0.392492496512472,0.393626549159484,0.393671580423425,0.392912481974128,0.391796809434848,0.390161898852162,0.392990597431986,0.392508119604043,0.389255759541017,0.385385827858224,0.386209256684579,0.384544018924137,0.385178132640862,0.442415626126428,0.441057336165096,0.439651257923664,0.593463351460999,0.61593762818926,0.615764855176587,0.646080085862955,0.574922417787204,0.378583349986926,0.656472198774146,0.714270285545513,0.715461316526491,0.380247668741981,0.379667776343064,0.380203556483426,0.386348026497949,0.379982076185266,0.383431103401016,0.37997840016372,0.384418115186179,0.389855870058439,0.389636227771051,0.38844060176314,0.386682544458656,0.386699086555614,0.386547450666832,0.383398938212486,0.383226165199814,0.383461430578772,0.382456038685879,0.384412601153859,0.386698167550227,0.3871512372058,0.390831853778963,0.39262391428275,0.391893305000436,0.39205780696463,0.40660658123922,0.392152464519446,0.386522637521395,0.387201782502061,0.387169617313531,0.384695654812919,0.382746444388031,0.380742093639949,0.380596890788873,0.382996413853174,0.382930245465342,0.364487645367909,0.365380918603643,0.364487645367909,0.361919944317867,0.364807459242431,0.364769780021582,0.361810582676867,0.36201000684575,0.36122241922947,0.360566249383468,0.3592925079177,0.352740918516932,0.465565371813809,0.342189817673867,0.342434273106691,0.459973224036607,0.355598106263739,0.357153982383181,0.357120898189265,0.356333310572985,0.354124940629088,0.352054421493174,0.439138452917965,0.343241159836089,0.80132582780332,0.416393988606056,0.39382781133914,0.404026014113767,0.413683841721098,0.415001695445422,0.414803190281925,0.365935078851737,0.36697539294932,0.366219051516183,0.420909981075599,0.545559276681309,0.471000369669909,0.415469469187179,0.536339814643366,0.313748438970689,0.313992894403514,0.319347019785597,0.319494060647446,0.319250524220008,0.318571379239342,0.318856270909175,0.306902767846223
0.43976429558621,0.439608983675882,0.440109841611556,0.443376905760767,0.443217917828893,0.443166453527246,0.442424816180294,0.441317414689492,0.441776917382771,0.442305345480041,0.567830453219141,0.432087843592296,0.43110450782868,0.424120066890844,0.423916966700415,0.424144880036281,0.422290327166208,0.42759942128435,0.427838362684855,0.427048018052416,0.426237455301472,0.425665833951033,0.421535823743845,0.420492752630102,0.420895276989414,0.418901954305971,0.417465548886782,0.429392400793524,0.433985589715537,0.434321945687017,0.434091275334992,0.433323905837216,0.432997658924988,0.43329357865946,0.442095812251906,0.4415287859284,0.860591566177019,0.410244004559214,0.409625513934061,0.409278129897942,0.410175998160609,0.412291548560464,0.412060878208438,0.409794610925188,0.409104437879883,0.407095492104869,0.406017498786437,0.405411874236695,0.396700622177518,0.398898883062163,0.39808556329506,0.39926005217908,0.39032272479481,0.390315372751717,0.391092851308745,0.393327872408852,0.395537161358136,0.395800915904078,0.394788171968092,0.392080782099294,0.393059522835978,0.395681445203826,0.391624955427562,0.39205780696463,0.390920078296072,0.392551312857211,0.392600939148086,0.391485266608805,0.386775364002698,0.384869346830978,0.384654299570524,0.386998682311632,0.440887320168583,0.441282492484803,0.442667433602345,0.602015615588302,0.709792891302205,0.676554304481198,0.572464078378163,0.573656028364528,0.57958453211321,0.491866386971694,0.495781349918429,0.38734882336391,0.378955547168482,0.390359485010272,0.615426661194334,0.387152156211187,0.612402214467174,0.61245643578498,0.390339266891768,0.390985327678518,0.3904054352796,0.390904455204501,0.392682730627489,0.390985327678518,0.388927674618016,0.385916093966267,0.382860401055964,0.382817207802796,0.382522207073711,0.384033970934598,0.385088989118365,0.384891402960256,0.387300116078423,0.390470684662046,0.391040468001711,0.390896184156022,0.39999433748294,0.536040218887348,0.396465356798559,0.385982262354099,0.388193389314156,0.387542733500474,0.388465414908577,0.380649274095907,0.380556454551865,0.385241544012534,0.382277751640886,0.3843482707768,0.364015276599218,0.36458597894427,0.364518891551052,0.365260528898004,0.366005842266502,0.366183210306107,0.363675244606192,0.360907200381881,0.361070783340688,0.553051008592525,0.59270241500093,0.618427213781444,0.338697597204949,0.338753656533529,0.337262110791146,0.526766535531597,0.355463931477302,0.356558466892692,0.356761567083121,0.356312173449094,0.357570291823291,0.351884405496661,0.607707934952639,0.346373130193476,0.346215061266988,0.606297261684273,0.404325609869785,0.451608437008162,0.414963097219186,0.415252583915952,0.41493001302527,0.515358002662874,0.365436977932223,0.365398379705987,0.424301110951996,0.4786988777931,0.563588324354792,0.477491304715164,0.539883499413931,0.311522607924447,0.312672283663031,0.31850521085151,0.319477518550488,0.318734043192763,0.318348060930409,0.317395052344549,0.302812274870656
0.441637228564014,0.440229312311808,0.441858708862174,0.444194820554803,0.444726005668234,0.443452264202465,0.442712464866286,0.443621361193592,0.569367030225465,0.56739024963898,0.56736084146661,0.644913868027414,0.872828122899031,0.873410772314108,0.423103646933311,0.429603772032432,0.425092374589822,0.425844120996026,0.426608733477641,0.426811833668071,0.427040666009323,0.640554106473586,0.630916496984759,0.419729059153873,0.419936754371235,0.417902076445397,0.419287017562939,0.424398525522971,0.434572834157548,0.437147887250681,0.435007523705389,0.437169024374572,0.437593604863162,0.438073325674945,0.440136492767766,0.442421140158748,0.441645499612493,0.41498607235385,0.41521582370049,0.413715087904241,0.414696585657085,0.412585630284162,0.414277519200814,0.408006226442947,0.408222192708788,0.407259994069062,0.406555116937573,0.405603027357099,0.402859796278226,0.398429271309632,0.397747369312807,0.401763422852063,0.394866287425949,0.395225618532093,0.395207238424362,0.396015963164533,0.394852502345151,0.395715448403128,0.395095119767202,0.393271813080272,0.394963701996925,0.395108904848001,0.393498807410752,0.391248163219073,0.392617481245044,0.392959351248843,0.397065467315981,0.397572758289361,0.396804469786199,0.384782041319255,0.388872534294822,0.393094445040667,0.441355093910341,0.441272383425551,0.664531876014254,0.568342339219453,0.39688166623867,0.402837740148948,0.402447162859661,0.491609065463458,0.663134068821301,0.579862990745336,0.394374619544141,0.394852502345151,0.393672499428811,0.39323505286481,0.387681503313844,0.386495067359798,0.616136133352756,0.48590663703987,0.390583722324592,0.395639170956044,0.392993354448145,0.39164149752452,0.393673418434198,0.393614602089458,0.391603818303671,0.395314762054589,0.395407581598632,0.38177229867828,0.38202594416497,0.384164469699489,0.384062460101581,0.385562276892443,0.385730454878183,0.396012287142987,0.39286928872096,0.393055846814431,0.400109213156259,0.399185612742769,0.396573799434173,0.397362306055839,0.386763416932673,0.389189591153185,0.390519391947533,0.389321927928849,0.390722492137962,0.384562399031868,0.386031888644973,0.386176172490663,0.386915971826842,0.364426991012396,0.370596274172356,0.365965406029493,0.36470361163375,0.364146694369496,0.357605214027981,0.358106990969041,0.365821122183804,0.369491629697714,0.62541165471928,0.625377651519977,0.335695206607066,0.337196861408701,0.464837519547655,0.347002648883268,0.354715861092644,0.354496218805257,0.35548323059042,0.355584321182941,0.383774811415589,0.383624094532193,0.344243794712823,0.344597611786647,0.803934884095757,0.406651612503161,0.460183676270129,0.396379889297609,0.39578713082328,0.414258220087697,0.414306008367798,0.437757187821969,0.477635588560853,0.431479462026395,0.420046116012235,0.435092991206339,0.4415903592893,0.51068210325607,0.497929065506813,0.468406936469044,0.500528931745384,0.318284649558736,0.31931669260784,0.319004230776411,0.318804806607528,0.31609465972257,0.303031917158044
0.446439950714163,0.441871574937586,0.442326482603932,0.442889832905892,0.442715221882446,0.442651810510773,0.453625653831655,0.453152366057578,0.567900297628519,0.45131803130601,0.446276367755356,0.443764726033894,0.44198277458936,0.873792159549529,0.893532395252782,0.441553599073837,0.649415156410772,0.689295395160429,0.69203954524469,0.682661095274872,0.443647093344415,0.443587357994289,0.880898828203778,0.438771769768728,0.437872063495289,0.433215463201602,0.431616393828993,0.431652235039068,0.436551452754806,0.435319985536819,0.43494319332833,0.435190405777314,0.437529274486103,0.437139616202202,0.437747078762717,0.439898470372648,0.710235851898526,0.659686879616324,0.41604844258071,0.414018359681805,0.413145304564576,0.41600065430061,0.416157804221711,0.4150715398548,0.407099168126415,0.4062729822839,0.412229975199565,0.412662826736633,0.409968302943247,0.406898824952145,0.404672993905903,0.403823832928724,0.394245039784637,0.394277204973166,0.394264338897754,0.393770833005173,0.393511673486164,0.393701907601181,0.394800119038117,0.39430293712399,0.394477548147436,0.394545554546041,0.394986677131588,0.395774264747868,0.39584594716802,0.397565406246269,0.398115890472816,0.39747166769684,0.396947834626502,0.399475099439535,0.554937726651127,0.395776102758641,0.396100511660096,0.423135812121841,0.45333616713489,0.449060035071238,0.610129514146217,0.405694008890368,0.402996728080823,0.490702007146926,0.489747160550293,0.490450199671009,0.395196210359724,0.396111539724735,0.394159572283687,0.396985513847351,0.54975821229249,0.393198292649348,0.405491827705326,0.406113075346639,0.400962969160371,0.396798036748493,0.396824687904703,0.393549352707013,0.394828608205101,0.391647011556839,0.396365185211425,0.396438705642349,0.395755884640137,0.39612624381092,0.394462844061251,0.396509469057114,0.397952307514009,0.396587584514971,0.396673971021308,0.399421797127114,0.399089117177181,0.399141500484214,0.401649466184129,0.403313784939185,0.395929576658196,0.3960113681376,0.465766633993465,0.395155774122715,0.393101797083759,0.38838729945072,0.386688058490975,0.390319048773264,0.388093217727022,0.38664946026474,0.386520799510622,0.390337428880995,0.690450584931332,0.370544809870708,0.36963131851647,0.356805679341676,0.358315605191789,0.357228421819492,0.356244167050489,0.371102646140349,0.370970309364684,0.370656928527868,0.618797572952226,0.550784741309274,0.377083533196064,0.384570670080347,0.377651478524957,0.377263658251829,0.377018283813619,0.382488203874408,0.382859482050577,0.364695340585271,0.34345712610193,0.344217143556613,0.40534111082193,0.39530924802227,0.408755215832991,0.396408378464593,0.39607018448234,0.397187695032393,0.397059953283662,0.397258458447158,0.390580046303046,0.508792628181308,0.44175302324272,0.440572101320994,0.406305147472429,0.499770752301474,0.496652567024885,0.412105909472379,0.403181448163521,0.466959502985216,0.316872138279598,0.3207209328385,0.321290716178166,0.338185711204637,0.302627554787958
0.450329181510074,0.440976463691079,0.44475908986215,0.442229068032957,0.439960962738934,0.442081108165721,0.45639002203442,0.456425863244495,0.456395536066739,0.451931007898843,0.445064199650487,0.44531968314795,0.44354967877344,0.443820785362474,0.443580924956583,0.441144641676819,0.440481119787725,0.449277839347852,0.450237280971418,0.746527374613677,0.443429289067801,0.444103839021534,0.441796216495889,0.43943069663089,0.439359933216125,0.434821884617305,0.432556536339441,0.431580552618917,0.432318513944322,0.43407289522726,0.434266805363824,0.436916297893269,0.437052310690479,0.435522166721861,0.436191202643275,0.438179930299785,0.45434523504933,0.507760585132204,0.418877141160534,0.421049669894356,0.415625700102894,0.41554666563965,0.41509543399485,0.421793145252081,0.418980988769215,0.414192051699865,0.414789405201127,0.414302332346251,0.412386206115279,0.407572455900492,0.40590170410773,0.408685371423613,0.407453904205626,0.392605534175018,0.392870207726347,0.392971298318868,0.3998261594972,0.393702826606568,0.394133840132863,0.394728436617966,0.394511551346738,0.394634698068537,0.39553072832043,0.395273406812194,0.396269608651223,0.396774142608443,0.395990231013709,0.39999433748294,0.399512778660384,0.399251781130601,0.393599898003273,0.395604248751355,0.410178755176768,0.451552377679582,0.720746516504583,0.411911999335816,0.403337679079235,0.405104007432199,0.403981901855212,0.724050340869256,0.414624903236933,0.412207000064901,0.673028999818364,0.393423448969054,0.397062710299822,0.397013084008948,0.413735306022746,0.396783332662308,0.405492746710712,0.405079194286762,0.401647628173356,0.405395332139737,0.405074599259829,0.402137458044391,0.402122753958207,0.403624408759841,0.3973034897111,0.39569890630617,0.394615398955419,0.399125877392643,0.399106578279525,0.400054991838452,0.399074413090996,0.40198306513945,0.402278065868535,0.399992499472167,0.399410769062476,0.402310231057064,0.400537469666395,0.402006040274114,0.395283515871447,0.395084091702564,0.468593494562515,0.391088256281812,0.391538568921225,0.395855137221885,0.390870452005198,0.389334794004261,0.387002358333178,0.387497702236532,0.38664946026474,0.389332036988101,0.381345880178917,0.38082204710858,0.358482864172143,0.353568023364834,0.35548323059042,0.357307456282736,0.356950882192752,0.37179098117488,0.371933427009797,0.37080856441665,0.370656009522482,0.377531088819318,0.378039298798084,0.382739092344938,0.380821128103193,0.378849861549028,0.376929140291123,0.380437902856999,0.380696143370621,0.364214700768101,0.363805743371083,0.595475054252173,0.601416424076267,0.395739342543179,0.395153936111942,0.395215509472841,0.395093281756429,0.396107863703189,0.398287744480103,0.396709812231384,0.390669189825542,0.389909172370859,0.444215957678694,0.441135451622954,0.4567263780059,0.490216772302824,0.498152383815747,0.400579743914177,0.429302338265641,0.410770594645711,0.423142245159547,0.382358624114904,0.386541017629126,0.388118030872459,0.304753214247066
0.450119648281939,0.44870437998664,0.445956553880834,0.454044720287925,0.82232142486461,0.678773702489734,0.458017580574013,0.457191394731498,0.456713511930488,0.456563714052479,0.444640538167284,0.444479712224636,0.444021128536744,0.443834570443273,0.444519229456258,0.444165412382434,0.443909928884971,0.45019684473441,0.450093916131115,0.449848541692904,0.449314599563315,0.448259581379547,0.439487674964856,0.438220366536794,0.43926527566131,0.437676315347952,0.431897609477279,0.431716565416127,0.431502437161059,0.433898284203814,0.434954221392969,0.437455754055178,0.437589928841616,0.438960165872973,0.440452630620742,0.453272755763217,0.455547294094947,0.508794466192081,0.493436967177321,0.888979642567777,0.425094212600595,0.424749585580636,0.422760857924126,0.422024734609493,0.423201980509673,0.42292260287216,0.418226485346851,0.417745845529682,0.412980802600382,0.412734509156785,0.412500162783212,0.408655963251243,0.408359124511385,0.402875419369797,0.403348707143874,0.402335044202501,0.400830632384707,0.399178260699677,0.399447529277938,0.397116931617629,0.39550959119654,0.394057562685779,0.393843434430711,0.395714529397742,0.396168518058701,0.395125446944959,0.397373334120478,0.398215143054565,0.400194680657209,0.400214898775713,0.403004999129302,0.410697993220173,0.411909242319656,0.411425845486327,0.412051688154572,0.695678806575457,0.405137091626115,0.405249210283275,0.406847360650498,0.424558432460232,0.425155785961494,0.424821268000787,0.424629195874997,0.515410385969908,0.406004632711025,0.406156268599807,0.406023012818756,0.416226729625703,0.405820831633713,0.404913773317181,0.405009349877383,0.405994523651773,0.405741797170469,0.404854956972442,0.40341395652632,0.404322852853625,0.396503955024795,0.399905193960444,0.402172380249081,0.401151365264615,0.401888407584634,0.402461866945846,0.405280456466418,0.403956169704389,0.40237548043951,0.403004999129302,0.402780761814982,0.400940913031094,0.406315256531681,0.39340598786671,0.394137516154409,0.413717844920401,0.709410585061397,0.707681016923897,0.587125890315299,0.402155838152123,0.394228497687679,0.390798769585047,0.388575695554964,0.387703559443121,0.387527110408902,0.389765807530556,0.381017795255916,0.380583105708075,0.386194552598394,0.358753051755791,0.357499528408526,0.357788096099905,0.37056318997844,0.371494142435022,0.371768925045603,0.370543890865322,0.369033965015208,0.387186159410489,0.387011548387044,0.447570327339629,0.375702268100068,0.384261884270464,0.390499173829029,0.43503141784544,0.399459476347963,0.399439258229459,0.396874314195577,0.464888983849302,0.465467957242834,0.393953715077098,0.481980646028497,0.393016329582809,0.396117972762441,0.396306368866685,0.396208035290323,0.396591260536518,0.389781430622128,0.389832894923775,0.387066688710237,0.443472482320969,0.443842841491752,0.496805121919054,0.462044662177907,0.454220250316758,0.453287459849402,0.453076088610494,0.391016573861661,0.40885171139858,0.399280270297585,0.387118153011884,0.303807557704298
0.448529768963195,0.46129659179325,0.459363004459933,0.457298918361725,0.719121714981149,0.710242284936232,0.458704077597771,0.459028486499226,0.458103967080349,0.457659168473256,0.457154634516036,0.444875803546242,0.443573572913491,0.444878560562402,0.444598263919502,0.446206523345977,0.443953122138139,0.451224292756581,0.451970525130465,0.451914465801885,0.450964214232185,0.449861407768316,0.444764603894469,0.441757618269653,0.439204621305797,0.43923311047278,0.431127482963344,0.430009053407904,0.434224531116042,0.432220180367961,0.438805772968031,0.439667800020622,0.440062053331455,0.439300197865999,0.438655056084636,0.460521870252382,0.461014457139577,0.461190906173796,0.505766343443375,0.425441596636713,0.425492141932974,0.447943443526571,0.581224037722828,0.424672389128165,0.425253200532469,0.42409709175618,0.4216892976434,0.421280340246382,0.421140651427625,0.416818569094646,0.4153518364977,0.408523626475579,0.411936812481253,0.402940668752243,0.402169623232921,0.402038205462643,0.40066153539358,0.399417202100182,0.398858446825155,0.395551865444321,0.39525594570985,0.394740383687991,0.394826770194327,0.39452166040599,0.395998502062188,0.394340616344839,0.397038816159771,0.398946671342264,0.399495317558039,0.403039002328604,0.403495748005723,0.403528832199639,0.41170798014,0.410785298731896,1.02853244852729,0.929711799310773,0.469763388419603,0.456302716522697,0.426278810543867,0.425684214058765,0.425758653495076,0.425681457042605,0.42480196888767,0.406176486718311,0.4065532789268,0.406579011077623,0.407713063724635,0.407904216845039,0.404150998846339,0.42005806308226,0.421585450034719,0.405817155612167,0.405419226279788,0.406017498786437,0.405208774046266,0.406074477120403,0.406676425648598,0.404461622666995,0.403865188171119,0.403938708602044,0.405596594319393,0.405592918297847,0.406338231666345,0.405828183676806,0.405316297676493,0.404627962641962,0.40337903432163,0.406237141073824,0.407748904934711,0.422112959126603,0.419844853832579,0.414323469470142,0.412379773077573,0.411939569497413,0.413069946122878,0.402705403373284,0.402734811545654,0.390240933315406,0.388040834419988,0.388019697296097,0.388027049339189,0.39164149752452,0.35657500898965,0.386793744110429,0.386816719245093,0.38634251246563,0.355531018870521,0.355134008543528,0.3548077616313,0.369790306448345,0.36918835792015,0.368602032483526,0.387544571511247,0.387488512182667,0.389823704869909,0.445073389704352,0.377306851504998,0.381119804853824,0.372932385864985,0.372358926503773,0.400857283540917,0.398436623352725,0.397142663768452,0.396448814701601,0.464107829270729,0.442084784187268,0.448454410521497,0.446053968451809,0.446001585144775,0.445683609281026,0.545455429072628,0.485859767765155,0.389158344970042,0.439890199324169,0.450927454016723,0.442876047825094,0.441600468348552,0.45607756020299,0.395801834909465,0.406667235594733,0.452008204351314,0.44139277313119,0.418337684998625,0.349321299473552,0.38530403637882,0.397251106404066,0.304672341773049
0.46227625153532,0.462616283528346,0.45975358174922,0.459232505695042,0.78153688481458,0.790221485717547,0.457404603981179,0.458513843482754,0.457082033090497,0.456903746045505,0.457463420325919,0.444162655366274,0.446473034908079,0.449343088730298,0.448511388855463,0.443946689100433,0.447327709917577,0.447340575992989,0.452494358200803,0.452674483256568,0.451881381607969,0.449627061394744,0.444465927143838,0.442797932367236,0.443054334870086,0.442496498600445,0.431922422622716,0.433790760573587,0.434290699503874,0.437579819782363,0.438075163685718,0.43830951005929,0.440481119787725,0.440172333977842,0.439058499449334,0.454430702550279,0.466047849641751,0.465645325282439,0.463827532627829,0.657009816925282,0.426009541965606,0.426251240382271,0.43362993463094,0.428580000031807,0.423917885705801,0.423070562739395,0.422924440882933,0.421808768343652,0.419910103215025,0.419487360737208,0.416791917938435,0.417349754208076,0.413386083975854,0.413694869785737,0.409688925305733,0.410010577191029,0.408523626475579,0.398199519962993,0.394091565885082,0.394260662876208,0.393829649349913,0.398355750878708,0.397972525632513,0.397598490440185,0.398127837542842,0.402591446705351,0.402931478698377,0.402613502834628,0.404372479144499,0.407931787006636,0.403883568278851,0.403532508221186,0.407740633886232,0.40773052482698,0.408749701800672,0.410518787169795,0.415375730637751,0.419209821110468,0.419841177811033,0.424809320930762,0.425222873354713,0.424888355394006,0.424337871167458,0.405363166951208,0.405295160552603,0.405750068218949,0.408864577473991,0.410400235474929,0.410404830501862,0.421401648957407,0.421796821273627,0.421522957668433,0.404789707589996,0.403717228303884,0.404033366156859,0.408545682604856,0.405778557385932,0.406593715163808,0.403259563621378,0.406310661504749,0.406647936481615,0.406105723303546,0.403173177115042,0.407182797616591,0.406701238794035,0.408503408357074,0.408702832525957,0.408610012981915,0.40848870427089,0.419335724848426,0.418727343282525,0.429702105608794,0.415136789237246,0.413631458414065,0.722821630667429,0.402709998400217,0.412531408966355,0.390107677534355,0.390661837782449,0.386466578192815,0.390368675064138,0.395748532597045,0.357176957517845,0.386697248544841,0.387230271669044,0.386421546928874,0.354986048676292,0.355169849753603,0.354809599642073,0.369623966473378,0.368960444584284,0.368074523391642,0.387529867425062,0.386633837173168,0.390222553207675,0.445107392903655,0.444701192522796,0.443829056410953,0.403457149779488,0.488532235429264,0.400551254747193,0.40012759326399,0.397309003743419,0.401886569573861,0.493175969647539,0.494072918904819,0.441660203698678,0.443623199204365,0.4460751055757,0.460744269555929,0.492567588081638,0.502843906314122,0.474173695269692,0.467111138873998,0.400374805712974,0.4412484892855,0.479357804655262,0.39609407862239,0.391464129484914,0.451380523672296,0.45271951452051,0.413246395157097,0.415306805233759,0.34948488243236,0.408370152576024,0.410173241144449,0.396196088220298
0.630870546715431,0.759149913598042,0.648079841584104,0.631501903415996,0.470386474071689,0.470648390606858,0.470200834983604,0.455381873125366,0.455596920385821,0.454731217311684,0.454459191717263,0.796698635682004,0.448403865225236,0.44915285461528,0.448242120277202,0.455235751268904,0.447969175677394,0.446987677924551,0.451540430609556,0.452261849838004,0.451193046573438,0.451815213220137,0.451987067227423,0.451577190825019,0.447608006560477,0.446070510548767,0.438802096946485,0.437597280884708,0.437502623329893,0.438878374393569,0.439052985417015,0.438544775438249,0.439589684562764,0.44004734924527,0.439390260393881,0.466550545588198,0.467285749897444,0.465824531332818,0.464370664811284,0.67426598106867,0.717779967116775,0.435624176319769,0.434479095608119,0.432958141693366,0.430025595504862,0.424829539049266,0.426267782479229,0.424144880036281,0.422411635877234,0.420625089405766,0.419587532324343,0.421200386777751,0.420266677305009,0.418879898176694,0.413180226769265,0.407774637085534,0.407340866543079,0.74243963865427,0.650633757553347,0.39393441596398,0.393186345579323,0.391817946558739,0.398805144512734,0.405449553457544,0.404504815920163,0.404577417345701,0.402377318450283,0.402403050601107,0.403395576418589,0.407083545034843,0.403375358300084,0.406371315860261,0.408933502877983,0.408936259894143,0.409705467402691,0.409499610196103,0.415679921420701,0.420280462385807,0.421639671352526,0.423314099166833,0.423018179432362,0.420346630773639,0.41986323394031,0.421213252853163,0.418844056966618,0.408860901452445,0.40932408016727,0.410629067816182,0.410768756634938,0.413271208302534,0.422396012785662,0.423273662929825,0.423163382283438,0.421901587887694,0.412985397627315,0.408450106044654,0.408893066640975,0.406417266129589,0.405569024157797,0.406422780161909,0.405694008890368,0.406118589378958,0.40786378060803,0.407278374176793,0.407429091060189,0.408003469426787,0.409041945513597,0.409184391348513,0.409651246084885,0.430947357907579,0.43177446275548,0.430328867282426,0.41257552122491,0.630725343864355,0.724608177138897,0.56458728320998,0.480240049826357,0.38911607072226,0.390767523401904,0.393919711877795,0.393853543489963,0.356860819664869,0.357721008706687,0.357346973514358,0.385977667327166,0.343067467818029,0.36268547580487,0.354236140280861,0.39178026733789,0.391330873703863,0.369734247119765,0.369194790957856,0.388291722890518,0.426629870601532,0.457004836638027,0.442276856313058,0.492655812598747,0.443135207344103,0.403039921333991,0.489265601727737,0.403392819402429,0.409885592458457,0.432499558005474,0.431846145175632,0.609281272174425,0.493966314279978,0.440246773414153,0.444984246181856,0.444340023405879,0.541874065081214,0.425307421850276,0.424446313803072,0.474056981585599,0.476602626506363,0.399797670330216,0.39965246747914,0.396971728766552,0.397229050274788,0.39676954758151,0.396913831427199,0.451124121169446,0.433591336404704,0.399782047238645,0.400142297350175,0.434570996146774,0.336161142338051,0.396028829239945
0.475656969963595,0.475378511331468,0.47455048747818,0.473055265714251,0.472316385383459,0.47203057470824,0.471100541257044,0.466933770834393,0.458795978136427,0.456381750985941,0.457371519787263,0.463678653755206,0.462776190465607,0.448043615113706,0.454769815537919,0.45605366606294,0.454902152313583,0.456462623459958,0.456202544935562,0.455307433689055,0.453349033210301,0.456265037301848,0.454461948733422,0.450200520755956,0.448029830032907,0.447173317012636,0.438581535653711,0.438550289470568,0.438124789976592,0.439816678893244,0.438561317535207,0.437569710723111,0.438550289470568,0.438851723237359,0.435019470775414,0.46600557539397,0.465700465605633,0.46592010789302,0.461145874909854,0.448522416920102,0.44242573518568,0.438510772238946,0.435054392980104,0.434117007485815,0.432065787463019,0.425312935882595,0.424732124478291,0.424143961030894,0.424617248804971,0.421146165459944,0.420166505717874,0.42454280936866,0.42227102805309,0.420856678763179,0.421076321050566,0.415053159747069,0.416124720027795,0.623399032922719,0.395776102758641,0.396127162816306,0.395902925501986,0.396400107416114,0.399275675270652,0.405376952032006,0.407550399771214,0.407004510571599,0.408625636073487,0.411750254387782,0.411651001806033,0.408637583143512,0.415046726709363,0.412952313433399,0.406477001479715,0.407680898536106,0.413046051982828,0.415027427596245,0.416305764088947,0.421057940942835,0.421254608095558,0.420458749430799,0.420049792033781,0.419803498590184,0.423192790455808,0.426041707154135,0.421269312181743,0.409114546939135,0.411301779759142,0.412657312704314,0.4111473868542,0.418369850187154,0.421604749147836,0.423393133630077,0.424181640251743,0.422731449751756,0.42199348842635,0.408165214374821,0.409934299743944,0.408800247096932,0.404706997105206,0.404394535273776,0.404657370814332,0.406778435246506,0.408663315294335,0.407638624288324,0.40856865773952,0.408721212633689,0.409579563664733,0.411434116534806,0.411756687425488,0.41810150061428,0.430384926611006,0.430063274725711,0.429697510581861,0.432605243624928,0.433363423068838,0.802767747254829,0.416464752020821,0.399196640807408,0.39048538874823,0.393143152326154,0.393658714348013,0.356131129387942,0.35704737775834,0.356395802939271,0.371506089505047,0.37151344154814,0.349690739638948,0.363166115622039,0.382719793231821,0.368534945090307,0.368753668372308,0.476311301798824,0.476186317066252,0.484428876378285,0.450143542421989,0.489105694790476,0.488390708599734,0.480011217485104,0.454828631882659,0.467158008148713,0.419255771379796,0.409746822645087,0.432642922845777,0.447984798768966,0.492402167112057,0.493088664135816,0.492816638541395,0.496737115520448,0.444079025876097,0.424459179878484,0.425294555774864,0.425128215799897,0.424225752510298,0.458173811489728,0.491301198658961,0.501169478499815,0.395929576658196,0.396940482583409,0.396453409728534,0.492810205503689,0.404387183230684,0.451030382620017,0.421598316110131,0.447594221479679,0.334434331216709,0.334575858046239,0.428394360943722
0.477293718557054,0.475611019694267,0.475310504932863,0.475734166416066,0.474124068978817,0.472686744554242,0.472864112593847,0.46869090913349,0.566189109598749,0.463343216789113,0.463010536839179,0.463874401902543,0.463102437377835,0.460398723530583,0.459672709275203,0.454787276640264,0.459947491885783,0.458146241328131,0.45703332580501,0.455112604547105,0.453813130930513,0.456532467869336,0.450270365165334,0.451058871787,0.45033285753162,0.447864409063327,0.444693840479704,0.438757065682543,0.439604388648949,0.437898714651499,0.437254491875522,0.437314227225648,0.434287942487715,0.433227410271628,0.432855213090072,0.436184769605569,0.464851304628454,0.463572049130366,0.635883721099101,0.448594099340254,0.441708910984166,0.438902268533619,0.435476216452533,0.43242052354223,0.432579511474105,0.424062169551491,0.42415315108476,0.422547648674444,0.422187398562914,0.425402998410478,0.424811158941535,0.424929710636401,0.425358886151923,0.42521552131162,0.425403917415865,0.584299029746249,0.413857533739158,0.413565290026232,0.396451571717761,0.394961863986151,0.398779412361911,0.39956975699435,0.398886016986751,0.408072394830779,0.408838845323168,0.408873767527857,0.412286953533531,0.412171158854825,0.42123530898244,0.423047587604731,0.414175509602907,0.414193889710638,0.412862250905516,0.412820895663121,0.411768634495513,0.413606645268628,0.413938406213175,0.421456789280601,0.420085633243857,0.420280462385807,0.429265578050179,0.429160811436111,0.428943007159497,0.425453543706739,0.425210007279301,0.420044278001462,0.412198729016422,0.412154616757867,0.413317158571862,0.418374445214087,0.419806255606344,0.424523510255543,0.423510766319556,0.422113878131989,0.420795105402279,0.410030795309533,0.409922352673919,0.410210920365298,0.618173568294754,0.619702793257985,0.408925231829504,0.409459173959094,0.413046051982828,0.413664542607981,0.40786929464035,0.412093962402354,0.411258586505973,0.410071231546541,0.412077420305396,0.418241189433036,0.418220052309146,0.428095684193091,0.427931182228897,0.433058313280501,0.433950667510848,0.432587782522584,0.417837746068338,0.418927686456795,0.400091752053915,0.392919834017221,0.405523073888469,0.415217661711263,0.390794174558114,0.390823582730484,0.364762427978489,0.358712615518782,0.361901564210136,0.383973316579085,0.370905978987625,0.369227875151772,0.46443315717757,0.473285936066277,0.46586129154828,0.50465158990948,0.481595582771529,0.489751755577226,0.480213398670147,0.456226439075613,0.454942588550592,0.444351970475905,0.409203690461631,0.478649251502226,0.438726738504787,0.449186857814583,0.448348724902043,0.496045104464371,0.554536121297202,0.494324726380735,0.481534928416016,0.441441480416677,0.443285005222112,0.424977498916502,0.424724772435199,0.481107590911267,0.483002580018348,0.413836396615267,0.393558542760878,0.393778185048266,0.405572700179343,0.405822669644487,0.405449553457544,0.403609704673656,0.45854968469283,0.422736044778689,0.359436791763389,0.345614950749566,0.425785304651286
0.476097173543756,0.47622951031942,0.476212968222462,0.475632156818158,0.473725220641052,0.476203778168597,0.475287529798199,0.470905712115094,0.468425316576775,0.468041172325194,0.462136562716563,0.465867724585986,0.458025851622492,0.460497057106945,0.460285685868036,0.459901541616456,0.459378627551504,0.457973468315458,0.455558322159585,0.454654939864599,0.478595030184419,0.478049140984804,0.477558392108382,0.450020395700191,0.449728151987265,0.444279369050367,0.443662716435987,0.439631958810546,0.437264600934774,0.43674260587521,0.437094584938261,0.436505502485478,0.432293700798885,0.432765150562189,0.437197513541556,0.437801300080524,0.43646230923231,0.456425863244495,0.454413241447935,0.445952877859288,0.442482713519647,0.438559479524433,0.438486878098895,0.437163510342253,0.432515181097046,0.432760555535256,0.433436024494376,0.430599054866074,0.430895893605932,0.423564068631977,0.427672022709888,0.425710865214975,0.426439636486515,0.42578162862974,0.427942210293536,0.427894422013435,0.427592069241258,0.463236612164272,0.498940890437413,0.399550457881232,0.399046842929399,0.399893246890418,0.532528699305312,0.557673605686908,0.409110870917589,0.407806802274064,0.411299941748368,0.411514070003436,0.422940063974504,0.423429893845539,0.420637036475791,0.420243702170345,0.421295963337953,0.410814706904266,0.411911080330429,0.412958746471105,0.419326534794561,0.420465182468505,0.42266895738547,0.425527064137663,0.432379168299835,0.432400305423726,0.428476152423126,0.43051450637051,0.425793575699765,0.426159339843615,0.411116140671057,0.424045627454533,0.423916047695028,0.419298964632964,0.419457952564838,0.422901465748269,0.422542134642125,0.421336399574962,0.417176981195403,0.416397664627602,0.415802149137113,0.415892211664996,0.42177476514435,0.556221577176148,0.418014195102557,0.413878670863049,0.412618714478078,0.413848343685292,0.418200753196028,0.413818935512922,0.411833883877958,0.418199834190641,0.417875425289187,0.417034535360487,0.417805580879808,0.44567717624332,0.440363487098246,0.43334963798804,0.433315634788737,0.432459121768466,0.415863722498012,0.415023751574699,0.397575515305521,0.394460087045091,0.406032202872622,0.423251606800547,0.419480927699502,0.47452107930581,0.476938063472456,0.41625154277114,0.398039613025732,0.45036226570399,0.368356658045315,0.465741820848028,0.470674122757681,0.471921213067239,0.465664624395557,0.534578081317335,0.533799683754921,0.516049094713565,0.517490095159687,0.457840212534407,0.457327407528708,0.46227349451916,0.485003254744884,0.485961777363063,0.447379174219225,0.454920532421315,0.643977401538512,0.553875356424267,0.55558286843249,0.554768629660001,0.483560416287989,0.44301573664385,0.424427014689954,0.424726610445972,0.468774538623667,0.521650432544633,0.499137557590136,0.415877507578811,0.392687325654422,0.457824589442836,0.404063693334616,0.404769489471492,0.403799019783287,0.462759648368649,0.442241934108369,0.359141791034304,0.374722608357998,0.354282090550189,0.352655451015983
0.478157583620418,0.476905898283927,0.47586926020789,0.47555679837646,0.475972188811184,0.477154948743684,0.477407675224987,0.477016178930314,0.470199915978217,0.467820611032421,0.469704572074863,0.465310807321732,0.46978268753272,0.468799351769104,0.466072662787188,0.461088896575888,0.457688576645625,0.458278578103795,0.462392965219413,0.467193849358788,0.478708067846966,0.478644656475293,0.477750464234173,0.453222210466956,0.451733421740733,0.442093974241133,0.443665473452146,0.443899819825718,0.445351848336479,0.444660756285788,0.446366430283238,0.441322928721812,0.440104327579236,0.433345042961107,0.436862995580849,0.438406005624878,0.448566529178657,0.454914099383609,0.455601515412754,0.454439892604145,0.448585828291775,0.445123015995226,0.443757373990802,0.436720549745932,0.437669882310246,0.703041877732555,0.434654625636951,0.436967762194916,0.432736661395206,0.431071423634764,0.426946927459894,0.428256510135739,0.427251118242845,0.429226060818557,0.431478543021009,0.430497045268166,0.428884190814757,0.430489693225073,0.612103537716542,0.397556216192403,0.397984472702539,0.399789399281737,0.597893876429592,0.55754494493279,0.558254417091213,0.408580604809545,0.409645732052565,0.41549336332723,0.416491403177031,0.421950295173182,0.42146230331292,0.420360415854438,0.422658848326218,0.42219383160062,0.427693159833779,0.419822797703302,0.427649966580611,0.426726366167121,0.429578039881608,0.431645802001362,0.431312203046042,0.433332176885695,0.433836710842915,0.434337568778589,0.4289770103588,0.430911516697503,0.429879473648399,0.425472842819856,0.421877693747644,0.417186171249269,0.417619941791724,0.420759264192204,0.422175451492889,0.421390620892769,0.417435221709026,0.416255218792686,0.416784565895343,0.415897725697315,0.424351656248256,0.438285615919239,0.427562661068888,0.423749707720061,0.42194294313009,0.421375916806584,0.422549486685217,0.424404958560677,0.424376469393694,0.41865933688392,0.417409489558202,0.457784153205827,0.446700948243945,0.444524743488577,0.466027631523247,0.429515547515322,0.431430754740908,0.426174962935186,0.413991708525595,0.388735602492225,0.391194860906653,0.39043208643581,0.442250205156848,0.479546200759506,0.479412944978455,0.482397874473994,0.478125418431888,0.492965517414017,0.49504430759841,0.493077636071177,0.503995420063479,0.466910795699729,0.516283441087137,0.463298185525172,0.505812293712702,0.533013015144028,0.495659122202017,0.520866520949899,0.455479287696341,0.456466299481504,0.458282254125341,0.462115425592672,0.488773014840542,0.532557188472295,0.531194303484031,0.491573224253382,0.520534760005352,0.552544636624532,0.553674094244611,0.555108661653027,0.481554227529134,0.481286796961646,0.443231702909691,0.464582036050192,0.459784827932363,0.53905088053371,0.487045284713814,0.485754082145701,0.470106177428789,0.456876175883909,0.420849326720086,0.405197745981627,0.406453107339665,0.46653124647508,0.450854852591185,0.50434464211037,0.502881585534971,0.357939731988687,0.35831284817563
0.47670739312043,0.482605569691356,0.481842795220513,0.48007095283523,0.479771357079213,0.478519671742721,0.478855108708815,0.47861892432447,0.477780791411929,0.473088349908167,0.470964528459833,0.470215539069789,0.469773497478855,0.469471144706678,0.46801819719053,0.466636932094535,0.465956868108482,0.46356561609266,0.464137237443098,0.465349405547968,0.479247524008875,0.47816769267967,0.477192627964533,0.452128594056953,0.450850257564252,0.44349637646102,0.442816312474967,0.453724906413403,0.444406191793711,0.444221471711014,0.448206279067126,0.448164923824731,0.447794564653949,0.447880032154898,0.707870332033527,0.755096180837938,0.447963661645075,0.448304612643488,0.453131228933687,0.456403807115218,0.446437193698003,0.446617318753769,0.446836961041156,0.437201189563102,0.708489741664067,0.443050658848539,0.436907107839403,0.437696533466456,0.437196594536169,0.432368140235196,0.429031231676607,0.430464880079636,0.429302338265641,0.428412741051453,0.431736783534632,0.431842469154086,0.431763434690842,0.434902757091322,0.434862320854313,0.75193755932434,0.432224775394893,0.431194570356563,0.597407722580103,0.42832819255589,0.555774940558281,0.431953668805859,0.424541890363274,0.41526361198059,0.417719194373472,0.420907224059439,0.420441288328455,0.423087104836353,0.42311743201411,0.424285487860424,0.424463774905416,0.426562783208313,0.426605976461482,0.426157501832842,0.431927017649649,0.434773177331817,0.435149969540306,0.433943315467756,0.434407413187967,0.43567472161603,0.436799584209176,0.435633366373635,0.434593052276052,0.432260616604969,0.431318636083748,0.430827887207326,0.430620191989964,0.428878676782438,0.428432959169958,0.414894171815194,0.41546671217102,0.416066822688442,0.737050591067497,0.420659092605069,0.424196344337928,0.427391726066988,0.434817289590372,0.427563580074274,0.427835605668695,0.423300314086035,0.424404958560677,0.424500535120879,0.42443344772766,0.422492508351251,0.421103891212163,0.444365755556703,0.444333590368173,0.446660512006937,0.435886092854938,0.450924697000563,0.424679741171257,0.480062681786751,0.48596269636845,0.415060511790161,0.483780977580763,0.488814370082937,0.474620331887558,0.480308056224962,0.480564458727812,0.47121909295191,0.492287291438738,0.492957246365538,0.494490147350316,0.505805860674997,0.503716042425965,0.463191580900331,0.516396478749684,0.513035676051043,0.500290909350266,0.494966192140552,0.539188731341693,0.514512517707241,0.500301018409518,0.455850565872511,0.467223257531158,0.487571874800312,0.487799788136178,0.521754280153313,0.530561108772693,0.548151790876788,0.569017808178573,0.553798159971796,0.584394606306451,0.547915606492442,0.480624194077938,0.466837275268804,0.480423850903668,0.48012976917997,0.568661234088589,0.482087250653337,0.542227882155039,0.56822562553536,0.463237531169659,0.463200770954197,0.429315204341053,0.418624414679231,0.413160008650761,0.460055015516011,0.496293235918741,0.498743304279303,0.501570164848354,0.383544141063563,0.359606807759902
0.489165430140602,0.483860931049393,0.485783490318071,0.479003987581437,0.478814672471806,0.478860622741134,0.47839468701015,0.47659527446327,0.476954605569414,0.479275094170472,0.473815283168934,0.475985054886596,0.470683312811547,0.469836908850527,0.468663338971894,0.464851304628454,0.469243231370811,0.467861047269429,0.465662786384784,0.464559060915528,0.463039945011549,0.475819633917016,0.4711308684348,0.451026706598471,0.451146177298723,0.45504184113234,0.453231400520822,0.456128105499251,0.456267794318008,0.454963725674483,0.453935358646925,0.450402701940998,0.449930333172308,0.447843271939436,0.446805714858013,0.45436912918938,0.454225764349077,0.453817725957446,0.455680549875997,0.457117874300573,0.456259523269529,0.446244202566826,0.446297504879247,0.442663757580799,0.446622832786088,0.44425179888877,0.44237518988942,0.43797315408781,0.437307794187942,0.436421872995301,0.432673250023533,0.433696103018772,0.433463594655973,0.428225263952596,0.432865322149324,0.431650397028295,0.433866119015285,0.436000968528258,0.436166389497838,0.438791068881846,0.432382844321381,0.431296579954471,0.431119211914865,0.432161364023221,0.430011810424063,0.430417091799535,0.429918990880021,0.427713377952283,0.417806499885195,0.419809012622503,0.423356373414615,0.426208047129102,0.424749585580636,0.427218953054315,0.429220546786237,0.439872738221824,0.438483202077349,0.436002806539031,0.434592133270665,0.435210623895818,0.436900674801697,0.436130548287762,0.435992697479779,0.43889951151746,0.435417400107794,0.436185688610956,0.43463624552922,0.433545386135376,0.43272747134134,0.433180540996913,0.431571362565051,0.430893136589772,0.428282242286562,0.428951278207976,0.430240642765316,0.555945875560181,0.43065603320004,0.431813060981716,0.431666939125253,0.429972293192441,0.428377818846764,0.514460134400207,0.590152175053233,0.425403917415865,0.425494898949134,0.424271702779626,0.42202565361488,0.422129501223561,0.421457708285987,0.441460779529795,0.491778162454585,0.491144967743247,0.43575743210082,0.467978679958908,0.428702227748219,0.469885616136015,0.468827840936087,0.49066616593685,0.48458786431016,0.483741460349141,0.489275710786989,0.47328777407705,0.467363865355301,0.469690786994065,0.493935068096835,0.491822274713139,0.52921108985984,0.502132596144927,0.500484819486829,0.463384572031508,0.50793519615565,0.508613422130929,0.509608704964571,0.526723342278429,0.524128990072178,0.514622798353628,0.51426990028519,0.517789690915705,0.514941693222764,0.486731903876998,0.522690746642215,0.532405552583513,0.530076792933977,0.549313413685396,0.573364703656989,0.554458005839344,0.542183769896484,0.588489694308951,0.607026032955813,0.503773020759932,0.567688007384224,0.572490729534373,0.590445337771545,0.587824334409083,0.564093777317398,0.551895818821622,0.596664247222378,0.533374184260945,0.53669363171719,0.525969757861452,0.520714885061117,0.571454091458336,0.571216988068605,0.499002463798312,0.498029237093948,0.49501489942604,0.570501082872476
0.488638840054105,0.488224368624767,0.487304444232823,0.478354250773141,0.47856286499589,0.482446581759481,0.482656114987616,0.480532293539282,0.62885792491887,0.481818901080463,0.478766884191705,0.477141163662885,0.476098092549143,0.468154209987741,0.465816260284339,0.46639247666171,0.469455521615106,0.469325022850215,0.467187416321082,0.465024996646513,0.463410304182332,0.471874343792525,0.472779564098284,0.470840462732648,0.59709617975406,0.456963481395632,0.457087547122817,0.457906380922239,0.455502262831005,0.456904665050892,0.456468137492277,0.452258173816458,0.448555501114018,0.447479345806359,0.456072046170671,0.453726744424176,0.459424577820832,0.455564755197291,0.457650897424776,0.457722579844928,0.460091775731473,0.460570577537869,0.559666009364965,0.453553971411504,0.452316990161197,0.44444662803072,0.441299953587148,0.43810916688502,0.437250815853976,0.435885173849551,0.432974683790324,0.437252653864749,0.435593849142013,0.434538830958245,0.431995943053641,0.437937312877734,0.435191324782701,0.434405575177194,0.440529827073212,0.43940128845852,0.438204743445222,0.43113667301721,0.435365935806147,0.428508317611655,0.432698063168971,0.431504275171833,0.429066153881296,0.433946991489302,0.429653398323306,0.428306136426613,0.428044219891444,0.426722690145574,0.428287756318882,0.428836402534656,0.430522777418989,0.430951033929125,0.438853561248132,0.438148684116642,0.438691816300098,0.439580494508899,0.439182565176519,0.441521433885308,0.440662163848877,0.440392895270616,0.439524435180319,0.436184769605569,0.433810059686705,0.433961695575487,0.43376870444431,0.433260494465544,0.432309323890457,0.431320474094521,0.434822803622691,0.43390747425768,0.437224164697766,0.669480720020866,0.66748280231049,0.434100465388857,0.434129873561227,0.43360328347473,0.428685685651261,0.92438156806874,0.926642321319671,0.716828796541689,0.42401438127139,0.421760980063551,0.420286895423513,0.421598316110131,0.470063903181007,0.454595204514473,0.497816027844267,0.443904414852651,0.492627323431764,0.495200538514124,0.469901239227586,0.470728344075488,0.469345240968719,0.480555268673946,0.482775585687869,0.459828940190917,0.459492584219438,0.516210839661599,0.515194419704067,0.54729160183497,0.545549167622057,0.545149400278905,0.497886791259032,0.492076839205216,0.517778662851066,0.558199276768019,0.508347829574214,0.551270895158763,0.551011735639754,0.521145898587412,0.720775924676953,0.513928949286777,0.705507569184688,0.608908155987482,0.541377802172473,0.542321620704468,0.552596100926179,0.530869894582576,0.593810735497118,0.548001992998779,0.61467767180429,0.682806298125948,0.621956194465824,0.594273914211943,0.590464636884662,0.567681574346518,0.574177104418706,0.574815813162363,0.518863089207204,0.550219552996542,0.548360405099536,0.551878357719278,0.580042196795715,0.534517426961822,0.536598055156988,0.535528332887035,0.555744613380525,0.564295039497055,0.571524854873101,0.504261012620194,0.496311616026472,0.495462455049293,0.539556333496316
0.493092340157362,0.490929001477406,0.491116478576263,0.488614026908668,0.594168228592489,0.482113901809547,0.484847942834556,0.629884453935655,0.485093317272766,0.48186485134979,0.481907125597572,0.47889646395121,0.477279014470869,0.472230917882509,0.465870481602146,0.470698935903118,0.471095027224724,0.469033698142676,0.467487931082487,0.461631109753956,0.475751627518411,0.475322452002888,0.470096068369536,0.469915024308385,0.456297202490377,0.455262402425114,0.459563347634202,0.461126575796736,0.460115669871523,0.458144403317358,0.457127064354439,0.45803963670329,0.447292787712888,0.456542576928588,0.455428742400081,0.459012863407655,0.462376423122455,0.464103234243796,0.463144711625617,0.460313256029633,0.457512127611406,0.463100599367062,0.45957988973116,0.455513290895644,0.454390266313271,0.453058627508149,0.444985165187243,0.437400613731985,0.437155239293774,0.436652543347327,0.437507218356825,0.436161794470905,0.434447849424976,0.434372490983278,0.437401532737371,0.438537423395156,0.441274221436324,0.442070080101083,0.441263193371685,0.438835181140401,0.438071487664172,0.441025170976567,0.441030685008886,0.439759700559277,0.43920370230041,0.438276425865374,0.439978423841278,0.431654073049841,0.428446744250756,0.426999310766928,0.425789899678219,0.425471004809083,0.429111185145237,0.429317961357213,0.430130362118929,0.440175090994001,0.43892616267367,0.438404167614105,0.439282736763654,0.439065851492427,0.443088338069388,0.442751982097908,0.441650094639426,0.439697208192992,0.440119950670808,0.440052863277589,0.432290024777339,0.432734823384433,0.432043731333742,0.433711726110343,0.433983751704764,0.43786379244681,0.435800625353988,0.434788800423389,0.432903920375559,0.451663577331355,0.6765405194004,0.433729187212688,0.432966412741845,0.431959182838178,0.437296766123304,0.438542018422089,0.650131980612287,0.649267196543536,0.648741525462425,0.433612473528595,0.432967331747232,0.43522348997123,0.467924458641101,0.501669417430102,0.499662309665861,0.491922446300274,0.496027643362026,0.491715670088299,0.472414718959821,0.471460791368574,0.479314611402094,0.478447070317183,0.491180808953322,0.491463862612382,0.494187794578138,0.53933117717661,0.551544758763957,0.546291723974395,0.545909417733588,0.54641854671774,0.546201661446513,0.491003440913717,0.558429028114659,0.55698986567931,0.555817214806063,0.548395327304225,0.669917247579481,0.805519249382182,0.763061200523231,0.805646072125527,0.659301816359356,0.606934132417157,0.540463391812849,0.632785753941016,0.629296290488258,0.577863235024188,0.633235147575043,0.633259041715093,0.606445221551509,0.628318468756961,0.628569357227491,0.676193135364281,0.67067542702339,0.654073594715231,0.58625559221423,0.621723686103025,0.620990319804552,0.549845517804213,0.599636310642505,0.559681632456536,0.598505934017039,0.524437775882061,0.599833896800615,0.555660983890348,0.556126000615946,0.564758218211879,0.571137953605361,0.523907509774017,0.581451951058694,0.540592971572353,0.518301576916017
0.494578371867425,0.493810083364263,0.492398491090511,0.491623769549643,0.492708195905781,0.489792191814234,0.491155995807885,0.489459511864301,0.482312406973044,0.481759165730336,0.480410984828257,0.47783409372435,0.47601354405358,0.475275582728174,0.472343955545056,0.470734777113194,0.470670446736135,0.470267003371436,0.475216766383434,0.615105009309039,0.479243847987329,0.478334951660023,0.478081306173334,0.476279136610295,0.565479637440327,0.581666079313762,0.545894713647403,0.460229626539457,0.45983904925017,0.457797019281239,0.459509126316396,0.457685819629466,0.457674791564827,0.457065490993539,0.459843644277102,0.45986845742254,0.458989888272991,0.463777906336955,0.463848669751719,0.464843952585361,0.465069108905068,0.465424763989665,0.465942164022297,0.454420593491027,0.454082399508774,0.455996687728973,0.555684878030398,0.434981791554566,0.435951342237384,0.441446994448997,0.442995518525346,0.441512243831442,0.441907416147662,0.441424938319719,0.44195612343315,0.441008628879609,0.441445156438224,0.440309265780439,0.440344187985128,0.437742483735784,0.438892159474367,0.441325685737971,0.44447879321925,0.443574491918877,0.441661122704065,0.440760497425238,0.441423100308946,0.441369797996526,0.426074791348051,0.425594151530882,0.425370833221949,0.424742233537543,0.425491222927588,0.42942272797128,0.429567930822356,0.43839497756024,0.438908701571325,0.438393139549467,0.43856315554598,0.443886953750307,0.443757373990802,0.442069161095696,0.443211484791187,0.443645255333642,0.443478915358675,0.443758292996189,0.432742175427525,0.431947235768153,0.432608919646474,0.433550900167696,0.43847493102887,0.438864589312771,0.437622094030145,0.444793093061452,0.436305159311208,0.438766255736409,0.451406255823119,0.449814538493602,0.704440603930895,0.68861716918515,0.761818705240605,0.672195461932756,0.514410508109333,0.523489362323134,0.464053607952922,0.497714937251745,0.432608919646474,0.438537423395156,0.440599671482591,0.513158822772842,0.497435559614232,0.497566058379123,0.497861059108208,0.497694719133241,0.501747532887959,0.4765658662909,0.494298075224525,0.494586642915904,0.491252491373474,0.521337970713203,0.495081067813872,0.535202085974807,0.558349993651415,0.571398032129756,0.585751977262396,0.585284203520638,0.548761091448075,0.558735975913769,0.55959800296636,0.561915734551257,0.566235059868077,0.564871255874426,0.602972300195708,0.734155724099841,0.735694139116938,0.805125915076735,0.81063719037992,0.812067162761403,0.606843150883888,0.685720464206721,0.680121883391814,0.632865707409647,0.580244377980758,0.597681586185298,0.615547050899973,0.687484035543525,0.701023741903675,0.675468959119674,0.680369095840798,0.685110244630047,0.680350715733066,0.635478439723629,0.603047658637406,0.605581356488145,0.603945526900073,0.622589389177162,0.650224800156329,0.598245855492644,0.599116153593714,0.554775062697707,0.561765017667862,0.561913896540484,0.57902118181125,0.586088333233876,0.581269987992156,0.589599852815912,0.573762632989369
0.494918403860451,0.493820192423515,0.494152872373449,0.493661204491641,0.493021576742597,0.493314739460909,0.493618930243859,0.492793663406731,0.481493573173621,0.480534131550055,0.479856824580162,0.476952767558641,0.475929914563403,0.475517281144839,0.470272517403756,0.470198077967444,0.469430708469669,0.473772089915766,0.477869015929039,0.479610531136565,0.480576405797837,0.480966983087124,0.481214195536108,0.479805360278515,0.57666669001089,0.576591331569192,0.583495819038398,0.463102437377835,0.463343216789113,0.462762405384809,0.461777231610419,0.458202300656711,0.458343827486241,0.456912936099371,0.458510167461208,0.459291322039781,0.46224960037911,0.464509434624654,0.466136074158861,0.465853939505188,0.465012130571101,0.465282318154749,0.465929297946885,0.572589982116121,0.555216185283254,0.456110644396906,0.457015864702665,0.457153715510649,0.45212675604618,0.447163207953384,0.44251671671895,0.442002992707864,0.441791621468956,0.444570693757905,0.44341090896007,0.443615847161272,0.439283655769041,0.439392098404654,0.449570083060778,0.450524929657411,0.450429353097209,0.450240037987578,0.446617318753769,0.446769873647937,0.447074064430888,0.443035035756968,0.440128221719287,0.441253084312433,0.711047333654856,0.829432688545791,0.425095131605981,0.425204493246982,0.426984606680743,0.428164609597083,0.429409861895868,0.434235559180681,0.440253206451859,0.467918025603396,0.467936405711127,0.444061564773753,0.445545758473043,0.444929105858663,0.444652485237309,0.444082701897643,0.443707747699928,0.442658243548479,0.441042632078912,0.440011508035194,0.436117682212351,0.445560462559228,0.438066892637239,0.439107206734822,0.439547410314983,0.446176196168221,0.446749655529433,0.452817848096871,0.450617749201453,0.450004772608619,0.450254742073763,0.672665073685287,0.673341461649793,0.690475398076769,0.52284973457409,0.48895773492324,0.464078421098359,0.503710528393646,0.437793948037431,0.436925487947134,0.513667032751608,0.512932747447749,0.51315147072975,0.509711633567866,0.543971235373338,0.519835396906182,0.478076711146401,0.477370915009525,0.478827538547218,0.555799753703718,0.555433989559868,0.564925477192233,0.564295958502441,0.556351156935653,0.558421676071566,0.60982440435788,0.584784264590351,0.585213440105874,0.58835368151174,0.587805954301352,0.559759747914394,0.56189367842198,0.591027068181236,0.588289351134681,0.603811352113635,0.725081464912974,0.79658743603023,0.806789314826404,0.672766164277808,0.81186773859252,0.62526737087359,0.680643878451378,0.689314694273547,0.670831657939105,0.689483791264674,0.690075630733617,0.736090230438545,0.697277875948067,0.676001063238491,0.679572318170652,0.684437532687087,0.683087513774234,0.68231187322798,0.673302863423558,0.602309697312,0.603469482109836,0.667039841714169,0.636091416316463,0.648146928977323,0.688915845935781,0.678193810090816,0.679689950860132,0.680266167237503,0.637796171308527,0.648060542470987,0.643174190830661,0.61708822293323,0.613822996794791,0.574580547783405
0.494128059228012,0.495584682765705,0.493686017637078,0.594273914211943,0.634673391005005,0.493787108229599,0.494383542725475,0.492648460555655,0.490881213197305,0.47861616730831,0.476557595242421,0.475699244211377,0.475032046300736,0.474303275029196,0.47166756758055,0.470214620064402,0.470849652786514,0.478469126446461,0.479170327556404,0.480603975959434,0.479834768450885,0.479703350680607,0.48052218448003,0.618446512894561,0.617232506778919,0.507655818518137,0.507444447279228,0.659976366313089,0.4640140907213,0.464261303170284,0.463676815744433,0.463148387647163,0.459344624352202,0.458200462645938,0.464597659141764,0.464990074441824,0.465477147296699,0.467387759495352,0.466664502256131,0.465900808779902,0.46504980979195,0.469228527284626,0.47359472187616,0.472298005275728,0.799815901953207,0.5872352519563,0.460987805983366,0.514144915552618,0.44870437998664,0.445173561291487,0.44366455444676,0.44660353367297,0.447846947960982,0.444962190052579,0.449708852874148,0.449215346981566,0.449053602033532,0.449154692626054,0.449979040457795,0.450756519014823,0.451238077837379,0.450590179039856,0.450318153445435,0.448728274126691,0.448949754424851,0.450481736404242,0.593273117345982,0.555080172486044,0.554682243153664,0.556074536314299,0.87844232680551,0.742468127821253,0.439135695901805,0.438288372935399,0.437008198431925,0.434766744294111,0.441315576678719,0.467591778691168,0.467189254331856,0.444231580770266,0.445000788278814,0.44520756449079,0.445236053657773,0.443625956220524,0.443795053211651,0.79667290353118,0.43937188028615,0.439327768027595,0.453984065932413,0.441438723400518,0.444604696957208,0.442672028629278,0.532023246342705,0.531392808647527,0.45145404410322,0.451805104160885,0.450077374034157,0.449672092658685,0.67431928338109,0.679890294034401,0.713394473412124,0.686678986824901,0.676570846578156,0.488916379680845,0.499722964021373,0.502974405079013,0.45686790483543,0.463788015396207,0.529272663220739,0.522077770049381,0.509637194131554,0.519204959211003,0.518181187210378,0.534206803141166,0.476155989888496,0.475902344401806,0.519957624622594,0.573645919305276,0.514430726227838,0.531579366740998,0.583264229680985,0.554375295354554,0.553312006122307,0.611428068757423,0.598021618178324,0.607038899031225,0.590216505430292,0.620811113754174,0.552931537892272,0.617772881946215,0.587028475744324,0.627406815413496,0.62872191212166,0.794039034093307,0.79474299221941,0.80872565917588,0.66619343775315,0.654505527246913,0.656331590950003,0.658557421996245,0.671413388348796,0.670492544951466,0.71681776847705,0.789569910898478,0.751531358943482,0.744931062257227,0.774954968236056,0.742789779706548,0.744240889211922,0.70370264260549,0.701154240668566,0.704893673586468,0.704657489202123,0.689948807990272,0.676076421680188,0.675936732861431,0.701519085807029,0.67769111414437,0.672141240614949,0.679192768946004,0.679502473761274,0.64895657272288,0.648394141426307,0.616179326605924,0.617091898954776,0.626680801158116,0.579870342788429
0.501815539286565,0.500766954140502,0.501617953128455,0.498790173554018,0.51076481374086,0.492699924857302,0.492477525553755,0.492435251305973,0.492333241708065,0.582257918782705,0.475740599453772,0.475357374207578,0.474591842720575,0.474301437018423,0.473499145315958,0.807111885717086,0.476642143737985,0.477150353716751,0.48102396142109,0.480032354608995,0.479285203229724,0.486135469381123,0.485960858357677,0.494455225145626,0.494668434395308,0.509401009747209,0.510413753683195,0.647979669996969,0.462882795090448,0.463119898480179,0.463050973076188,0.464264060186443,0.465770310015011,0.465989952302398,0.464887145838529,0.468601765610994,0.467133195003275,0.46872307432202,0.46961726656314,0.468757996526709,0.46891790346397,0.476439043547556,0.476085226473731,0.473619535021597,0.559830511329159,0.561742042533198,0.466729751638577,0.466089204884146,0.45546366460477,0.831223830044192,0.445724964523421,0.445395960595034,0.4502795552192,0.449819133520534,0.450262094116855,0.448366186004387,0.448986514640314,0.451932845909616,0.45238315854903,0.451048762727748,0.451618546067414,0.449924819139989,0.454715594220112,0.453339843156436,0.454465624754969,0.454674238977717,0.45156616276038,0.553418610747148,0.553438828865652,0.786647473769226,0.721452312641459,0.459141524161773,0.440342349974355,0.438798420924938,0.438345351269366,0.437752592795036,0.469513418954459,0.467923539635715,0.466939284866712,0.461193663189955,0.449359630827256,0.444339104400493,0.451201317621917,0.453195559310746,0.45103497764695,0.451021192566152,0.800279999673418,0.453398659501176,0.452840823231535,0.45608307423531,0.806115683878057,0.445336225244908,0.450807064311084,0.454616341638364,0.753251737027117,0.447857057020234,0.45705721994506,0.680044686939343,0.768067022863809,0.770488602057387,0.461439956633553,0.461744147416503,0.461147712920627,0.485584066149188,0.500993029465596,0.502079293832506,0.47267387847883,0.520917985251546,0.53235316927648,0.518975207864364,0.522579546990442,0.518003819170773,0.491869143987854,0.511004674146752,0.556210549111509,0.601852951634882,0.566122022205531,0.573767228016301,0.572995263491593,0.532217156479269,0.614201627014053,0.613015191060007,0.61038775465984,0.596478608134294,0.597171538195758,0.606870721045485,0.622131724494657,0.622209839952514,0.590337814141317,0.611556729511541,0.583189790244674,0.62894063540366,0.624727914711681,0.680887414878816,0.858703010107644,0.809173214799134,0.671595351415334,0.660567286776646,0.71359849260794,0.667759422931844,0.666453516277546,0.707115828611164,0.831735716044504,0.778419618543378,0.784804867969178,0.72642780780428,0.733460956027604,0.734195241331463,0.718863474467527,0.749399266446669,0.768418082921474,0.768035776680666,0.746063276893465,0.731269128180665,0.730338175724082,0.743754735362433,0.713818134895327,0.721293324709584,0.689113432093891,0.689225550751051,0.689341345429757,0.717525402624699,0.678841708888339,0.694380251964251,0.693193816010206,0.685550448210208,0.644411172080967
0.507668684593548,0.501946957056842,0.501433233045757,0.501173154521361,0.509250292863814,0.507445366284615,0.507151284560917,0.497140558885147,0.495536894485604,0.566296633228976,0.706730765354196,0.707029442104827,0.474666282156886,0.473761061851127,0.478631790399881,0.476793779626767,0.474831703126467,0.48218007019738,0.481228899622293,0.479296231294362,0.479029719732261,0.487876984588649,0.487769460958421,0.611289298944053,0.495552517577176,0.494623403131366,0.511420983586862,0.510548847475019,0.588769071946464,0.461011700123417,0.464329309568889,0.464290711342654,0.465297022240934,0.465657272352464,0.468666095988053,0.470329495737722,0.468804865801423,0.469731223231073,0.46998303070699,0.469717438150275,0.48478545046827,0.484050246159024,0.702088869146695,0.482296783881472,0.481801439978118,0.624045093709469,0.461640299807822,0.462835006810347,0.46070659033508,0.45621908703252,0.452910667640914,0.452842661242308,0.448573881221749,0.449850379703677,0.450590179039856,0.453685389181781,0.455841375818645,0.455840456813258,0.45333616713489,0.450965133237572,0.451930088893457,0.454617260643751,0.455656655735947,0.454971996722962,0.455038165110794,0.45531938075908,0.459713145512211,0.456878013894682,0.454762463494827,0.554768629660001,0.455052869196979,0.444964947068738,0.440699843069726,0.440506851938549,0.439117315794074,0.439666881015235,0.543716670881262,0.46735099927989,0.465475309285926,0.463466363510912,0.462812031675683,0.460091775731473,0.454518008062002,0.456386346012874,0.450582826996764,0.450163760540494,0.454314907871573,0.455040003121567,0.454384752280952,0.457081114085111,0.456628963434925,0.454466543760355,0.456458947438412,0.81020985287517,0.457415632045818,0.609511023521064,0.468895847334693,0.68477572666934,0.684795944787845,0.489224246485342,0.480059924770592,0.461029161225761,0.461101762651299,0.495142641174771,0.483379372226837,0.498252555402881,0.507334166632841,0.51696074805703,0.516531572541508,0.516330310361852,0.539420320699106,0.584681335987057,0.585503845808026,0.549376825057069,0.565841725562631,0.565233343996729,0.571206879009353,0.57274253701029,0.591590418483195,0.610527443478597,0.617885919608761,0.615487315549847,0.688671390502957,0.688557433835024,0.670526548150768,0.688520673619562,0.660291585160679,0.637725407893762,0.589734027602349,0.658640132481035,0.619382060378077,0.636686931806952,0.653772160948441,0.936006986208691,0.929142015971107,0.822500630914989,0.740301113119751,0.713721639329738,0.706000156071883,0.706969706754701,0.681746684915247,0.789105813178267,0.790108448055001,0.788363256825928,0.747378373601629,0.734117125873606,0.736372365092218,0.729592862355584,0.764966298689564,0.808997684770301,0.787099624419412,0.787792554480876,0.791242500702013,0.789392542858873,0.73030141550862,0.728494650918648,0.723457582394927,0.726198056457641,0.722154432756789,0.721101252583794,0.736848409882454,0.701029255935994,0.695036421810253,0.705200621385578,0.691238172547612,0.688505969533377,0.630070093023739
0.508413997962046,0.666401132970512,0.502057237703229,0.509520480447461,0.508129106292214,0.507328652600522,0.506535550951923,0.49638697446817,0.496532177319246,0.585932102318161,0.583386457397397,0.707079987401088,0.48531939259786,0.480451421065265,0.480346654451198,0.481409943683444,0.481332747230974,0.48217731318122,0.481852904279765,0.480815347198342,0.481647966078563,0.4882289636517,0.488913622664685,0.495055335663048,0.495668312255882,0.494635350201392,0.493379069837968,0.614003121850556,0.602412625915295,0.602146114353193,0.602893265732464,0.468477699883809,0.468555815341666,0.46849332297538,0.468033820282102,0.468922498490903,0.470221972107495,0.469438979518148,0.469439898523535,0.469318589812509,0.486109737230299,0.48534328673791,0.484550185089311,0.483554902255669,0.482792127784827,0.483524575077913,0.584382659236426,0.613964523624321,0.462407669305597,0.463289914476693,0.457432174142776,0.456580256149437,0.452279310940349,0.451845540397893,0.451099308024009,0.456207139962495,0.457529588713751,0.457731769898794,0.457249292070851,0.45243370384529,0.454654939864599,0.45498578180376,0.456619773381059,0.454724784273978,0.454166028998951,0.454314907871573,0.456379912975168,0.45652879184779,0.457933951083836,0.45737243879265,0.445447424896681,0.44509544583363,0.443928308992702,0.443326360464507,0.442185874779789,0.441327523748744,0.464322876531183,0.46636858252166,0.465929297946885,0.466035902571726,0.463214556034995,0.462899337187406,0.457184961693792,0.457525912692205,0.456794384404505,0.457007593654186,0.510752866670835,0.456556362009387,0.457013107686506,0.456919369137077,0.456589446203303,0.459808722072413,0.458663641360763,0.458358531572426,0.535816900578414,0.473096620956646,0.473816202174321,0.472407366916728,0.486414847018636,0.482868405231911,0.48156066056684,0.477376429041844,0.475292124825132,0.477500494769029,0.492035483962821,0.499269894365801,0.50583710685814,0.498604534465933,0.513384898097935,0.51738257152946,0.57784117889491,0.582381065504504,0.622606850279507,0.619043866395824,0.618085343777644,0.611444610854381,0.597950854763559,0.589757002737013,0.590408577556082,0.584776912547259,0.582525349350193,0.603441911948239,0.689943293957953,0.701921610166341,0.719353304338562,0.698103142785195,0.697929450767136,0.685788470605327,0.658249555191748,0.657434397413872,0.653982613181962,0.654240853695585,0.699372289224031,0.720091265663967,0.92438156806874,0.755348907319241,0.824809172446021,0.743516712967315,0.761935418924698,0.942338933322071,0.936834091056593,0.8923689344334,0.892268762846265,0.758476282649696,0.756246775581908,0.757230111345524,0.841530475454432,0.744322680691326,0.745679132641884,0.809100613373596,0.811875090635612,0.789716032754941,0.790998045269188,0.771656657903702,0.761471321204486,0.721773964526754,0.72239153614652,0.726453539955104,0.721875974124662,0.751735378139298,0.746567810850685,0.699833629928083,0.701439132338399,0.702110925275972,0.694136715536814,0.693920749270973,0.640676334189998
0.51337295102791,0.512384101231974,0.512563307282353,0.510977103985155,0.507172421684807,0.508238467933214,0.506924290230437,0.501546270708303,0.500698028736511,0.495122423056267,0.513078869304212,0.896597278216951,0.483501599943249,0.48167553624016,0.481153541180595,0.482521940201179,0.482095521701816,0.48164612806779,0.482113901809547,0.481013852361838,0.487985427224263,0.48783379133548,0.486495719492653,0.493240300024598,0.494417545924778,0.4945048514365,0.624434751993369,0.631210578708457,0.586654440551995,0.59359385022589,0.46740430159231,0.46606163472255,0.468014521168984,0.4698387468613,0.47009514936415,0.472241026941761,0.471946945218063,0.472304438313434,0.47236968769588,0.47096544746522,0.48789260768022,0.488279508947961,0.486063786960971,0.488346596341179,0.486256778092148,0.487101344042394,0.631692137531013,0.474920846648963,0.462716455115481,0.465898970769129,0.459185636420327,0.460857307218475,0.451163638401068,0.451472424210951,0.453741448510361,0.457066409998926,0.462744944282464,0.458878688621217,0.458558874746695,0.458452270121855,0.459206773544218,0.459914407691867,0.459311540158286,0.45350434512063,0.453408768560428,0.453127552912141,0.465958706119255,0.463906567091073,0.464484621479217,0.463710818943736,0.444847314379259,0.44520480747463,0.442768524194866,0.443375067749994,0.443778511114693,0.444482469240796,0.467470469980142,0.465171118502975,0.466140669185794,0.469655864789375,0.463767797277702,0.469663216832468,0.468313197919615,0.460299470948835,0.458727052732435,0.462921393316683,0.462800084605658,0.45997506204738,0.46025535869028,0.463317484638289,0.462571252264405,0.460747945577475,0.460875687326206,0.461434442601233,0.690873327409149,0.475955646714226,0.476486831827657,0.471407489056154,0.471979110406593,0.481760084735723,0.481223385589973,0.481108509916654,0.479582960974968,0.483034745206878,0.487194163586437,0.474005517283952,0.558269121177398,0.557567920067454,0.601704072762259,0.584082144475021,0.534578081317335,0.581233227776694,0.621452579513991,0.616864904624296,0.616274903166126,0.597540059355768,0.597484919032574,0.618577011659453,0.572109342298952,0.6088180934596,0.628226568218305,0.684806972852483,0.689159382363219,0.72057374349191,0.702675194583318,0.75911315338258,0.727197015312829,0.739133976278823,0.677989790895001,0.670391454358944,0.719880813430446,0.719061979631023,0.720041639373093,0.753385911813555,0.762232257664556,0.774594718124526,0.773933034246204,0.797386051711149,0.872390676335029,0.936861661218189,0.913215652622068,0.898883763618705,0.782099316111153,0.781446822286698,0.777032839415063,0.766989029545377,0.764911158366371,0.7734615844829,0.822694541051552,0.823255134337352,0.824653860535693,0.86363990704423,0.848485508219899,0.771406688438558,0.767767427107791,0.76443878959768,0.747267173949856,0.746028354688776,0.827309786102844,0.790743480777112,0.741888235422335,0.741631832919486,0.695704538726281,0.713727153362057,0.676031390416247,0.699384236294056,0.638908167826261
0.514329635635316,0.513717578047869,0.512601905508588,0.508932317000065,0.508366209681945,0.507658575534296,0.506857202837218,0.501026113659512,0.504340966088824,0.514012578776954,0.902289597581287,0.895590048313284,0.480888867629266,0.480541483593148,0.48259637963749,0.482712174316196,0.481147108142889,0.481361236397957,0.482576161518986,0.483177191041794,0.488556129569315,0.489135102962846,0.48767388439822,0.485312040554767,0.493491188495128,0.492285453427965,0.621651084677487,0.535253550276455,0.534671819866764,0.533772113593324,0.606294504668113,0.610595449877202,0.469434384491215,0.470871708915791,0.469431627475056,0.471928565110332,0.471682271666734,0.470133747590385,0.471825636507038,0.475734166416066,0.488062623676733,0.48772442969448,0.486571996939737,0.488585537741684,0.489000928176408,0.488275832926415,0.486537074735048,0.484854375872261,0.62569195136218,0.464390882929788,0.465968815178507,0.463447064397794,0.462433401456421,0.4562751463611,0.457186799704565,0.463924947198804,0.464007657683594,0.464036146850577,0.457832860491315,0.462112668576513,0.460737836518223,0.461131170823669,0.459488908197891,0.467254503714301,0.453017272265754,0.467015562313796,0.466588224809047,0.472741884877435,0.466970531049855,0.465138953314446,0.446484062972718,0.447470155752494,0.446439031708777,0.445079822742058,0.446087971651112,0.446077862591859,0.455625409552804,0.467771903746933,0.466978802098334,0.467459441915503,0.471016911766867,0.471145572520985,0.468910551420878,0.459870295433313,0.465929297946885,0.465785014101196,0.464784217235235,0.463410304182332,0.465413735925027,0.465008454549555,0.464923906053992,0.458297877216913,0.470011519873973,0.471383594916103,0.474959444875198,0.476681660969607,0.476688094007313,0.47037268899089,0.467302291994402,0.51426990028519,0.514480352518712,0.48882172212603,0.488772095835156,0.485702617844054,0.476356333062765,0.549341902852379,0.500777063199755,0.556380565108022,0.583515118151515,0.568362557337957,0.594046000876077,0.586502804663214,0.623061757945853,0.661370497484497,0.64130309586363,0.617137849224104,0.617297756161365,0.616840091478859,0.655947446698422,0.603085337858255,0.612402214467174,0.678859169990684,0.719773289800218,0.72001039318995,0.759834572611028,0.758585644290696,0.748077736700799,0.74852069729712,0.740226673683439,0.750219938256865,0.756556480397177,0.74688946273598,0.752103899299307,0.788261247228021,0.790812406181104,0.821939118623802,0.84054070665311,0.840644554261791,0.918397923996865,0.910206828986479,0.911259090154087,0.828373994340477,0.794899223135125,0.796052574895254,0.787889050046465,0.782736186844038,0.789827232406714,0.800440825616065,0.800677010000411,0.842555166460444,0.898466535173208,0.883937060011736,0.852574163184693,0.885254913736059,0.870826529167109,0.834382451557789,0.744685687819016,0.832642774361036,0.779441552533229,0.801125484629051,0.807537385211062,0.777680738212585,0.758599429371495,0.675637137105414,0.676802435935569,0.654459576977585,0.638560783790143
0.523316589310461,0.522585980028148,0.517084813784215,0.511931031576402,0.5118354550162,0.511428335629955,0.618346341307427,0.514205569908131,0.511588242567216,0.51056998459891,0.510398130591624,0.759623201372119,0.605276246699808,0.482270132725262,0.482112982804161,0.481604772825395,0.482209478369749,0.483113779670122,0.489666288076276,0.489719590388696,0.488276751931801,0.487821844265455,0.487094911004688,0.485069423132716,0.492245936196343,0.491781838476131,0.643156729728316,0.534977848660487,0.535316042642741,0.533765680555618,0.606137354747012,0.609085524027088,0.468956501690205,0.469452764598946,0.472692258586561,0.474670877183819,0.472124313257669,0.473684784404043,0.473912697739909,0.477101646431263,0.476911412316246,0.4858156555066,0.488875943443837,0.489554169419116,0.489351988234073,0.4885092602946,0.485267928296212,0.484316757721125,0.482469556894145,0.47253510866546,0.469552936186081,0.4637337940784,0.463971816473518,0.463837641687081,0.464412020053679,0.464074745076813,0.465703222621792,0.465441306086623,0.463510475769466,0.46025260167412,0.45980688406164,0.466325389268492,0.467847262188631,0.468062309449085,0.467260936752007,0.468345363108145,0.467766389714614,0.474242620673683,0.474867544336542,0.474058819596372,0.445881195439136,0.445866491352951,0.442696841774715,0.446488657999651,0.446538284290525,0.644689630713094,0.45378464176353,0.469690786994065,0.469636565676258,0.473638834134715,0.473934753869187,0.472478130331493,0.475434570660048,0.475569664451872,0.466600171879072,0.466068067760256,0.465065432883521,0.46745760390473,0.466297819106895,0.465292427214001,0.466555140615131,0.468963853733298,0.471991976482004,0.472014032611282,0.471740169006088,0.474713151431601,0.475804010825444,0.485106183348178,0.512295876714865,0.483136754804786,0.486787963205578,0.49905392809996,0.502844825319509,0.484362707990453,0.543498866604648,0.56158397360671,0.561027975347843,0.577501146901884,0.565139605447301,0.588047652718017,0.590986631944227,0.603558625632332,0.655682773147093,0.658784416326724,0.657817622660066,0.661186696407186,0.660547987663528,0.660183142525065,0.670461298768323,0.660581990862831,0.714170113958378,0.736834624801656,0.720733650429171,0.762620077937683,0.764543556211748,0.761539327603092,0.819956824004998,0.778274415692301,0.761883035617664,0.761863736504546,0.877653820183843,0.77819997625599,0.838423318242482,0.806721308427799,0.81246049706685,0.901186791117418,0.854046409813957,0.837869157994388,0.85523376477339,0.858096466552516,0.856978956002462,0.952117150635042,0.911371208811247,0.803521331671806,0.850340980095358,0.792667878056563,0.868084217093621,0.818248392991388,0.848691365426488,0.858679115967593,0.910691144825195,0.9110394478667,0.903744383108207,0.904947361159211,0.849576367613742,0.849789576863424,0.789676515523319,0.785552938353836,0.792904981446295,0.804200476652472,0.804868593568499,0.784901363534767,0.750153769869032,0.745818821460641,0.707606577487585,0.661119609013967,0.65876419820822
0.523462711166924,0.522978395328208,0.521514419747422,0.516024281568128,0.512075315422091,0.510646262045994,0.669509209187849,0.514177999746534,0.512303228757957,0.512062449346679,0.511970548808024,0.760767363078383,0.622794327378364,0.790570707764439,0.488300646071852,0.488683871318046,0.487592092918816,0.485644720504701,0.484206477074739,0.489124993903594,0.488410926718239,0.490117519721076,0.487974399159624,0.488932921777803,0.494643621249871,0.491961963531896,0.491882010063266,0.53397337577298,0.533939372573678,0.545191674526686,0.545020739524786,0.736661851788983,0.740875491486349,0.472829190389158,0.475218604394207,0.47384836736285,0.474005517283952,0.473979785133128,0.477771601358064,0.479257633068127,0.481624071938512,0.485395670044944,0.48809295085449,0.488608512876348,0.491075123333868,0.490381274267018,0.489342798180208,0.487184054527184,0.487236437834218,0.473592883865387,0.474888681460433,0.465253828987766,0.468546625287801,0.463916676150325,0.464213514890183,0.463663030663635,0.465006616538782,0.468170752084699,0.465960544130028,0.46659281983598,0.466157211282752,0.466952150942124,0.468488727948448,0.467651514041294,0.475515443134065,0.475403324476905,0.476554838226262,0.473619535021597,0.473887884594472,0.473457790073563,0.610047722666814,0.472227241860963,0.511628678804224,0.444133247193904,0.641798439766985,0.453368332323419,0.454187166122842,0.46014324003312,0.462966424580624,0.473761980856514,0.471412084083087,0.471142815504825,0.475877531256369,0.474623088903718,0.472375201728199,0.465978005232373,0.469240474354652,0.468222216386346,0.467343647236797,0.46569311356254,0.466686558385409,0.471956135271929,0.471517769702541,0.470777051360975,0.470453561464907,0.469849774925939,0.484698144956547,0.486008646637778,0.482221425439775,0.480815347198342,0.52534575320398,0.495732642632941,0.504667213001052,0.554114297824772,0.540685791116395,0.558996054438165,0.518489054014875,0.577827393814112,0.56553753477968,0.605940687594289,0.639283122023977,0.609762830996981,0.673040946888389,0.674170404508468,0.698719795399575,0.699150808925871,0.660990029254462,0.660581071857444,0.675144550218219,0.661614033911935,0.701836142665392,0.718811091160493,0.720088508647808,0.768064265847649,0.765912874237718,0.781085653169781,0.781730794951144,0.806509937188891,0.94744860327133,0.898146721298686,1.07921559559593,1.13866605405232,0.801161325839127,0.819803350105443,0.812953083954044,0.869553706706727,0.879073683506075,0.90781741498143,0.897769010084811,0.87535630671745,0.929298246886822,0.85029502982603,0.857666372031607,0.827480721104743,0.850496292005686,0.885287078924589,0.943671491132579,0.946281466430402,0.942099991921566,0.943478500001402,0.908306325847078,0.899892831533145,0.900651010977055,0.902081902363925,0.858085438487877,0.788382555939046,0.788141776527768,0.788268599271113,0.787265964394379,0.809078557244318,0.818288829228396,0.819200482571861,0.764242122444957,0.740060333708473,0.714202279146908,0.705308145015805,0.713357713196661
0.522862600649502,0.522937959091199,0.522986666376687,0.520944636407756,0.520499837800663,0.653386178686087,0.522925093015787,0.51670710257034,0.515274373172697,0.513912407189819,0.513226829171448,0.512467730722151,0.71022941886082,0.813597306730021,0.487374288642202,0.487885255637128,0.485966372389996,0.48528722740933,0.484901245146976,0.491909580224862,0.492230313104771,0.491194594034121,0.489786677781915,0.492453631413704,0.493806407342717,0.492384706009713,0.492499581683032,0.631926483904585,0.545655772246898,0.545738482731688,0.545024415546333,0.543977668411044,0.710728438785721,0.698776773733542,0.484297458608008,0.476030086150537,0.474697528340029,0.479080265028521,0.484628300547168,0.483400509350728,0.485438863298112,0.487988184240422,0.489944746708403,0.490825153868725,0.49086926612728,0.490123952758782,0.488657220161836,0.488183013382372,0.488316269163423,0.475719462329881,0.475321532997502,0.47525260759351,0.468233244450985,0.46347739157555,0.462898418182019,0.463096923345516,0.466804191074888,0.469829556807435,0.468507108056179,0.473377836604933,0.472705124661973,0.470245866247545,0.468349039129691,0.478367116848553,0.478957118306723,0.478658441556092,0.478556431958184,0.478269702277578,0.475577016494965,0.476693608039632,0.480149068293088,0.480759287869762,0.760723250819829,0.761407909832814,0.45843205200335,0.643719161024889,0.463402952139239,0.461078787516636,0.461436280612006,0.46692366177514,0.470134666595772,0.470870789910404,0.474851921244971,0.478786183304823,0.478337708676183,0.47667798494806,0.469005208975693,0.468199241251682,0.467535719362588,0.465779500068877,0.774018501747154,0.472563597832443,0.481114023948973,0.471515931691768,0.469958217561553,0.469801067640452,0.464570088980167,0.489201271350678,0.480316327273441,0.483850821990141,0.54325533017721,0.527262798440338,0.60691483330404,0.556799631564292,0.605805593802465,0.575480254056844,0.54866091986094,0.547110557773818,0.604497849137394,0.605437991647842,0.585615045459799,0.662937401668577,0.666545416816202,0.660346725483872,0.69840090053044,0.680328659603789,0.683790552894951,0.659929497038375,0.702224881943905,0.672491381667228,0.721266673553374,0.787256774340513,0.788168427683978,0.76852836356786,0.77483917355735,0.793165059970691,0.791081674759365,0.816580398214786,0.836004496065063,0.841702329461719,0.847150193393231,0.831654843570487,0.816077702268339,0.828037638368997,0.920475795175871,0.841070053755767,0.914051028518448,0.914511450217114,0.909156405829644,0.904680849597109,0.897757982020173,0.955039587764294,0.895571668205553,0.844548489143887,0.94848707935814,0.844794782587484,0.942201082514087,0.938699671991304,0.940114940286602,0.923673933921091,0.933442961180196,0.885855943258868,0.901032398212477,0.840290737187967,0.810371597823205,0.794973662571436,0.787655622678279,0.786981072724546,0.815356283039892,0.818214389792085,0.816587750257879,0.806489719070386,0.772019665031392,0.793567584330003,0.752073572121551,0.807354503139137,0.698904515482274
0.525692218234712,0.526615818648202,0.523359782563629,0.521080649204967,0.519791284647627,0.654857506309965,0.687870936811266,0.515949842131817,0.513584322266818,0.513692764902432,0.513842562780441,0.512023851120444,0.773919249165406,0.676206920445079,0.725348895480462,0.487012200519898,0.486889972803486,0.485834954619718,0.488250100775591,0.491525435973281,0.491006197929876,0.491033768091473,0.491587009334181,0.491980343639627,0.494361486596198,0.493028009780303,0.495856708360126,0.628795432552584,0.545213730655964,0.545711831575478,0.54496100417466,0.543941827200968,0.691498251072008,0.485686994752482,0.485225654048431,0.47900582559221,0.480180314476231,0.480311732246508,0.479353209628329,0.486046325858626,0.48620807080666,0.490369327196992,0.489253654657712,0.490139575850353,0.490853643035708,0.491364610030634,0.488756472743584,0.491784595492291,0.487635286171984,0.475083510602383,0.47460654680676,0.47480688998103,0.47433176419618,0.461473959832855,0.462596984415228,0.472126151268442,0.475540256279502,0.473080997865075,0.472583815950947,0.473494550289026,0.471937755164197,0.473409082788076,0.482462204851053,0.481515629302898,0.479388131833018,0.479674861513624,0.481160893223687,0.479863257617868,0.480010298479717,0.479102321157799,0.481907125597572,0.481734352584899,0.481624990943899,0.47301023445031,0.548718817200293,0.615012189764997,0.765145504739943,0.461984007822395,0.57383707242568,0.466670935293837,0.469555693202241,0.479353209628329,0.479323801455959,0.479154704464833,0.480023164555129,0.480784101015199,0.812373191555127,0.755673316220696,0.704928595791157,0.477969187516174,0.712357835336087,0.47942489204848,0.54025202057394,0.540361382214941,0.476144042818471,0.473636996123942,0.472102257128391,0.474931874713602,0.485111697380497,0.545170537402795,0.544945381083089,0.603415260792029,0.609667254436779,0.597006117226178,0.596233233696083,0.619827777990557,0.546832099141691,0.547774079662912,0.548365919131855,0.613076764420907,0.700879458057985,0.672096209351008,0.66327835266699,0.835743498535281,0.775361168616915,0.69080899703209,0.711060199730268,0.704924919769611,0.702355380708797,0.730181025802981,0.726249520759288,0.787402896196976,0.740003355374506,0.786017036074047,0.786751321377907,0.792107284770763,0.812092894912227,0.834631502017546,0.834372342498537,0.845221201086847,0.831792694378471,0.83064761366682,0.917051581105558,0.837524530974429,0.926596371050343,0.931715231053468,0.931880652023048,1.01316667846405,1.00285543802687,0.940087370125005,0.962051598863727,1.0188920820223,0.920512555391333,0.866813232644013,0.862082192914015,0.93735792412693,0.933810563334819,0.939581917162399,0.938120698597773,0.918601943192681,0.921716452447724,0.899197144455521,0.872768387548904,0.841003885367935,0.821028384285724,0.880918127316895,0.807059502410052,0.80898206167873,0.816845071766115,0.816857937841526,0.809277981413201,0.810526909733533,0.779344137962254,0.789156358474527,0.787912025181129,0.73276802596614,0.700422712380866
0.527737924225189,0.527069807309161,0.52643201757089,0.520753483287352,0.52542846368877,0.525851206166586,0.52486235637065,0.514509760691082,0.513230505192994,0.513939977351416,0.51441418413088,0.513786503451861,0.51253481811537,0.727156579075821,0.712116136919422,0.793409515403515,0.66608407611215,0.907151136076176,0.490883051208078,0.490019186144714,0.492349783805024,0.491957368504963,0.49117621392639,0.493089583141202,0.494373433666223,0.495998235189656,0.497426369560367,0.618305905070418,0.543987777470296,0.5441789305907,0.544306672339431,0.607015923896561,0.691526740238991,0.49546061703852,0.484888379071564,0.492076839205216,0.482867486226524,0.479854067564003,0.479606855115019,0.488745444678945,0.488807937045231,0.489977830902319,0.490835262927977,0.491965639553443,0.490549452252758,0.495939418844917,0.492257883266368,0.492147602619981,0.488440334890608,0.648482365943416,0.826085670927949,0.477725651088736,0.802883541933535,0.477935184316871,0.4767368012928,0.476266270534883,0.478678659674596,0.478656603545319,0.479901855844104,0.479617883179658,0.482952034722088,0.482419930603271,0.483911476345654,0.481502763227487,0.479381698795312,0.482503560093448,0.482274727752195,0.48469998296732,0.480392604720525,0.484961899502489,0.484044732126704,0.481522981345991,0.480520346469257,0.487744647812984,0.489009199224887,0.592650950699282,0.488638840054105,0.574574114745699,0.768355590555188,0.534090089457073,0.480638898164123,0.480362277542769,0.479609612131178,0.47928612223511,0.480944926957846,0.481495411184394,0.48124819873541,0.480288757111844,0.658414976161328,0.477653049663198,0.803873310734857,0.780099560390004,0.539197002390172,0.53952600631856,0.484460122561428,0.471388189943036,0.471462629379347,0.486214503844366,0.483393157307635,0.560808333060456,0.598952570634906,0.59065487099968,0.610615667995706,0.564477002563593,0.59942953443053,0.582092497813125,0.625508150284868,0.647454917921245,0.612214737368316,0.59685080531585,0.698474420961365,0.651673152645544,0.717780886122162,0.81797544839158,0.779222829251229,0.709113746321539,0.727568293488998,0.718641994169366,0.725241371850235,0.731116573286496,0.731064189979462,0.743134406726507,0.768525606551701,0.778189867196738,0.809050987082722,0.809538978942984,0.860301160474867,0.832236573980178,0.85791909851291,0.863555358548667,0.845007072831779,0.847368916675232,0.875765264114468,0.876406729874285,0.947108571278304,0.880379590160373,1.02027059010214,1.02195236995954,1.01502306934489,1.05242658857778,0.958081495593799,0.959680564966409,0.952402042304874,0.952953445536809,0.888581713235397,0.904403309970369,0.921808352986379,0.922626267780415,1.0068255412968,0.961123403423304,0.952925875375212,0.900212645407667,0.892553654516098,0.867031036920627,0.827500020217861,0.82742282376539,0.903392404045156,0.819666418302846,0.816218310092483,0.857592851600682,0.848878842525345,0.828859229184579,0.805929125784586,0.783929974841176,0.771243105479751,0.764035346232982,0.748878190392491
