2.2357313681101,2.23609221248159,2.23683520166264,2.23711281522639,2.23801763384359,2.23837532006731,2.23890665733219,2.23932575614897,2.23996804414566,2.24082274801425,2.24130527377372,2.24192695249383,2.24308383652466,2.24416266990843,2.24376528595854,2.24421747237014,2.24498267140199,2.2453572886625,2.24606225824794,2.24685780509191,2.24807287166676,2.2488927728098,2.24961687320181,2.25095367280584,2.2522536994041,2.25358250304342,2.25473389643524,2.25634196942209,2.25789000583215,2.25987542083144,2.26187875249967,2.30393806383747,2.30470747193151,2.30595983202466,2.30672596663182,2.30724060030229,2.307817111821,2.30770088468864,2.30584964627765,2.30545803803322,2.3047756862192,2.30439614009363,2.3037746902271,2.30325432287916,2.30295873910834,2.30289259780749,2.30240755385246,2.30248319494019,2.30251078687843,2.30298022161895,2.30327730764378,2.3039798752026,2.30430361026132,2.30479628426478,2.30528461299019,2.30567841475601,2.30631712082635,2.30718417514465,2.30799905319456,2.30880184627998,2.31006939168094,2.31083753897332,2.31164958955663,2.31208338485779,2.31306986708101,2.3135916764775,2.31313076695283,2.31281771427571,2.31327634626852,2.31320381923359,2.31538826743522,2.31548069915792,2.27573538653077,2.27466113276012,2.27428995505937,2.27391487669429,2.27365458807818,2.27431682301363,2.27365568840841,2.27376049989249,2.27356228951796,2.27365633359008,2.27374148097475,2.27419612709846,2.27435901968611,2.27459872460821,2.27444894982963,2.27502546995491,2.27522239828889,2.27555074040819,2.27553173869735,2.27630252148032,2.27679131271362,2.27737261202157,2.27777432574003,2.27860237016782,2.27963099185937,2.28046818322306,2.28197969233532,2.28336277591652,2.32306610270173,2.32373674967144,2.32462039465837,2.32588740613396,2.32682534216625,2.32762318590334,2.32697508205944,2.32715636911935,2.32706127986119,2.3267795278876,2.32717845505362,2.3265236764485,2.32532555867516,2.32312375650858,2.32230803961818,2.32233784000003,2.32106930826717,2.32055883914618,2.32039895911168,2.32037422096602,2.32042093859234,2.32035606309003,2.32059642579081,2.32070479076899,2.32134300771696,2.32172077977851,2.32217075720147,2.32309690815943,2.32405868927714,2.3246185713598,2.32547766306413,2.32615912885558,2.32692018124723,2.32757204381521,2.32817305405952,2.32841841796745,2.32870702062544,2.32884667784668,2.32771380334961,2.32731091619569,2.28878443069969,2.2879286883755,2.28741422051874,2.28710679585506,2.28607006487326,2.28523254246655,2.28498936738699,2.28447041069343,2.2843361172008,2.28432133379241,2.28387422668444,2.28388588023226,2.28379464385528,2.28381995690928,2.28344216205783,2.2839473662806,2.28320436768057,2.28361012226501,2.2830109097045,2.28307539638211,2.28278439243436,2.28260555087966,2.28258176085663,2.28259879982058,2.28207447276526,2.28183944780029,2.28199069597098,2.28211151726353,2.28187870595025,2.28227220968995,2.28225773286269,2.2820756181757,2.2821739895442,2.28233988035415,2.28251217641471,2.28250843457877
2.23561511714039,2.23596155643356,2.23695466019822,2.23735962924107,2.2379560282262,2.23819113630889,2.23879940658613,2.23961956931538,2.2404066906449,2.24073032747594,2.24090258571505,2.24176229258918,2.24215767951246,2.24301765454594,2.24359236273814,2.24429670604959,2.24519806349876,2.24592770724655,2.24635564439247,2.24760070356322,2.24795933162542,2.24891732786583,2.24981750764739,2.25117817778467,2.25256897833479,2.25364750099192,2.25516779978939,2.25666660291664,2.25802190444375,2.26050347499656,2.26249670614506,2.30363192218417,2.30398930846184,2.30558111484522,2.30598530897842,2.30681451732322,2.30743322013141,2.30719850993977,2.30615001882514,2.30511953459073,2.30456909490937,2.30426639237067,2.30364367613964,2.30344990854231,2.30323574029556,2.3023063940148,2.30244058536987,2.30222301824173,2.30228109293125,2.30257253427324,2.30301263793251,2.30347455164397,2.30400647889564,2.30434192968862,2.30499082136994,2.30559886835816,2.30627068100846,2.30722664715849,2.30830805006958,2.30909650740676,2.31060452517486,2.31126858045818,2.31165014921525,2.31206990366111,2.31282266757531,2.31424846327867,2.31426701563179,2.31271186098446,2.31233793682863,2.31279589629729,2.31370125319315,2.27603413729895,2.27560305801653,2.27446354992732,2.27390586862371,2.27422008064505,2.27351281038146,2.27367353734147,2.27365504664194,2.27352889282322,2.2737738694208,2.27359891978112,2.27409509237427,2.27428821515837,2.27435141010288,2.27420868197914,2.27471078531618,2.27482700816834,2.27521821488548,2.27557045404834,2.27611408139823,2.27640669285924,2.27683028269623,2.27715810985185,2.27802112392856,2.27854659348715,2.27959849569314,2.28042644657485,2.28144468523061,2.32212113274703,2.32291867155759,2.32304883945735,2.32387227267586,2.32530430073278,2.32619150801539,2.32634368119668,2.32626794006798,2.32612449899025,2.32638621414535,2.3258946210797,2.32571592767491,2.32525003937683,2.32417821481076,2.32290938699095,2.3218775849066,2.32143089357719,2.32038480093865,2.32069266601307,2.32027283683961,2.31994763110132,2.32015852506993,2.32019687153886,2.32015126789493,2.32054766596391,2.32112217915179,2.32146608512723,2.32208152651126,2.3228306135793,2.32368719161627,2.3245778561216,2.32513155392284,2.32623797156313,2.32663488858219,2.32730551757537,2.32783257483117,2.32808021889759,2.32815080929798,2.32832081229693,2.32843013137466,2.28983120420137,2.28888902913313,2.28783777824736,2.28732179090908,2.2870321042323,2.2862197085317,2.28547595674683,2.28487099309611,2.28442084553454,2.28499293877033,2.28438011193371,2.28404599093336,2.28371644648296,2.28390589523075,2.28358736899445,2.2836526442047,2.28370857357361,2.28364152184321,2.2832153436667,2.28294239272354,2.28321283860351,2.28239377760817,2.28279887731345,2.28269979338885,2.28220708428341,2.28252717166136,2.28229392164533,2.28201474419249,2.28193205055656,2.28215382867513,2.28195532846899,2.28205982402187,2.28190763375835,2.28214577785872,2.28208411588238,2.2824598936956,2.28250448022003
2.23613358405244,2.23606461606524,2.2366828540749,2.23831084769585,2.2389694891652,2.2385426130716,2.23911159921836,2.2394537650631,2.23991455772585,2.24056031719985,2.24112341872182,2.2417250983071,2.24246115482081,2.24299320973514,2.24378517288139,2.24429758157913,2.2450560599037,2.2456132602734,2.24620576791947,2.24699403154095,2.24814440835641,2.24915205357362,2.24993739420616,2.25138225025807,2.25254285016767,2.25382009039786,2.25585075076955,2.25716446088153,2.25901660432611,2.26079425078672,2.29975994695401,2.30478823900467,2.30464688744977,2.30513894276351,2.3058208759518,2.30689293125083,2.3079688420933,2.3085380185532,2.30717338166019,2.30690573131031,2.30491285366122,2.30376791929661,2.30326651178259,2.30331516511161,2.30259126569216,2.30220096038241,2.30230789800539,2.3023676334028,2.30225570731726,2.30258792253194,2.30277300484433,2.30350437773634,2.30394656101421,2.30431691986895,2.30482937786938,2.30557659211813,2.3064710990867,2.30735412327367,2.30812168125776,2.30912694086729,2.31087732823519,2.31127759389071,2.31170039636331,2.31205517487793,2.31265550045049,2.31312983950354,2.31226937406601,2.31346257480487,2.31290905869219,2.31311947597799,2.31384888954719,2.31472494523755,2.27505437709479,2.2743332367587,2.27373847515595,2.27366416349286,2.2736320868454,2.27347870236787,2.27343662443634,2.27351238204709,2.27374559348927,2.27375220481223,2.27372531069512,2.27413653514646,2.27464577644578,2.27461953934209,2.27451485999341,2.27494448401162,2.27564589411018,2.27599590975047,2.27630037719544,2.2768300941687,2.27695077166935,2.27763786154378,2.27819804098406,2.27882718737856,2.27979656999959,2.28068236343667,2.28148948907158,2.3223161393993,2.32222404897668,2.322716704439,2.32387050540262,2.32437802114056,2.32570341252049,2.3258263792181,2.3260311586153,2.32706392882244,2.32584964136239,2.3258335331325,2.32549397684816,2.325074277497,2.32352130011876,2.32253025828166,2.32213904267811,2.32165222779242,2.32077381107279,2.32038132481077,2.32016920370828,2.32038807227813,2.32004028931463,2.31974777336353,2.31997999397861,2.32007055097204,2.32082726403194,2.32129198691834,2.32230452336286,2.32263455341666,2.32335753692608,2.32422470062263,2.32519458174564,2.32577605131696,2.32646738461653,2.32705997294987,2.3276155615236,2.3279443288519,2.32815933232793,2.32827883354286,2.3281439336142,2.32442659216493,2.3236175236359,2.28784343136228,2.287190616697,2.28697375592571,2.28639403588275,2.28525475407617,2.28453354430521,2.28483349077592,2.28440108735096,2.2843284413007,2.28378568636955,2.28371216840166,2.28363848742886,2.28385925802672,2.28365903014214,2.28365782929189,2.28321162931095,2.28307395060095,2.28301010634082,2.28316348515823,2.28245008261048,2.28287084626684,2.28259281379688,2.28256062440541,2.28262868376606,2.28272531929925,2.28220883151282,2.28228264170711,2.2823206406408,2.28216910089984,2.28234585659512,2.28221439122504,2.28190231936297,2.28183028917241,2.28217526964598,2.28235950454031
2.23582724168667,2.23623125956165,2.23686602105025,2.23783402673436,2.2385372848453,2.23900527724947,2.23952060480201,2.23978782182428,2.24016159134671,2.24076478601085,2.24132023939797,2.24190726172636,2.2424540468431,2.24312215772705,2.24364506696589,2.24432388059891,2.24503254651856,2.24573916511246,2.24636819835266,2.24719233635933,2.24814408778355,2.24918991473192,2.25021229490965,2.25147742352238,2.2527864946633,2.25425151918415,2.25607927502959,2.25786453715795,2.25972999129145,2.26120130994819,2.30239427682224,2.304011461609,2.30452197795568,2.30518962337544,2.30600985393389,2.30675597737707,2.307328347799,2.30745581479315,2.3067376846053,2.30601729458758,2.30499488577327,2.30402526409859,2.30348451438873,2.30309127584912,2.30266556745952,2.3023581101559,2.30233185080017,2.30238652821072,2.30251450566503,2.30284800157555,2.30318223680502,2.30365354331333,2.30394468295997,2.30442931289263,2.30497157745573,2.30569295707753,2.30652815730558,2.30742001554099,2.30819781766168,2.30926602710752,2.310504774848,2.31126091190004,2.3117926386179,2.31230861980994,2.31279091321282,2.31307805636645,2.31311398973086,2.3134511071691,2.31327034504165,2.31348439913064,2.31382756040074,2.31435284729818,2.27515086882736,2.27472939355956,2.27419074198669,2.27380698566326,2.27352462040543,2.27342894813448,2.27353525755576,2.27358457134576,2.2737228339586,2.27377922804474,2.27400054211393,2.27421477572642,2.27455849234696,2.27468567739805,2.27488122408255,2.27519818950927,2.27563096925002,2.27588327651623,2.27633748236312,2.27677249193772,2.27720204330335,2.27784160345454,2.27830711892841,2.27901494247185,2.28009783135456,2.28126055379881,2.28207222686243,2.30394908479102,2.32372976886903,2.32358345033109,2.32428160888457,2.32524252494755,2.32608791613265,2.32644513817864,2.32662289425163,2.32681527280689,2.32620527715399,2.32581109683178,2.32499341207115,2.32427717517695,2.32337441821205,2.32262367778942,2.32199118784997,2.32146640347663,2.32087669113772,2.3204144343843,2.32021023671105,2.32014114498472,2.32001709753211,2.31997622939609,2.32012002979807,2.32044383214861,2.32095958503596,2.32148990299015,2.32213843638516,2.32275280603987,2.3234046639162,2.32422567333016,2.32511359456745,2.32587326590397,2.32646673110057,2.32714664962854,2.32767367658553,2.32801265289401,2.32810087443476,2.32805300712019,2.32777318479416,2.32714567580185,2.30556423000503,2.28750488492949,2.28711291050297,2.28671286566958,2.28612928179463,2.28544774046762,2.28511595536937,2.28518614337101,2.28472150799206,2.28437939272723,2.28410302147117,2.28396912000886,2.2840194655154,2.28393113878874,2.28386040680654,2.28367940292223,2.28339685465497,2.283251598337,2.28317015209194,2.28306165755564,2.28283353709965,2.2827875759062,2.28280226863935,2.28265945600976,2.28267156787753,2.28259016293699,2.28244292484534,2.28240834044543,2.28240189761923,2.28236863907711,2.28229839738658,2.28218730333154,2.28202266796813,2.28201134567284,2.28210410913865,2.28227141431831
2.23575048134008,2.23608598364317,2.23680039220666,2.23755811992641,2.23841435389375,2.23934737924221,2.24025956271001,2.23991639155782,2.24028997625862,2.24087700559892,2.24162830716616,2.24195970028842,2.24248565727502,2.24321455131699,2.24350559860449,2.24415426253766,2.24513733730876,2.24580897539459,2.24642075310756,2.24716887320362,2.2480854768409,2.24920308714832,2.25027259146416,2.2515600030412,2.25294478256645,2.25431862986478,2.25603449872885,2.25775437273363,2.25954753048246,2.26195730385854,2.30427210419147,2.30550309516739,2.30520330763935,2.30529354974485,2.30613413020584,2.30646958106937,2.30691522929027,2.3070186183104,2.30615176151122,2.30528685588941,2.30485585485157,2.30373874065645,2.30336698551394,2.30281061921089,2.3024268464766,2.30214672061015,2.30209798274886,2.30221961341925,2.30242025957263,2.30295661233026,2.30333990832408,2.30379521302196,2.30365164842358,2.30428360283264,2.30482846248847,2.30550410762079,2.30640041722139,2.3074249182973,2.3078340941197,2.30906220833638,2.31046363893768,2.31127291261879,2.31177475085114,2.3123552305341,2.3129958857688,2.31290674505031,2.31341657365187,2.31361056048636,2.31349716886786,2.31451760915845,2.31488273744644,2.31550847887857,2.27479891216429,2.27430040784246,2.27385494182447,2.2735074617021,2.27322040499463,2.27320977615746,2.27367633794505,2.27356263589318,2.27364032921051,2.2736764003434,2.27408114918287,2.27423971434981,2.27445269222717,2.27478065524767,2.27487830366713,2.27542554769711,2.27557904849827,2.27561645651855,2.27621415371918,2.27675145149733,2.2771439852468,2.27822869121485,2.27823597394742,2.27865892107115,2.27990772330123,2.28161264684973,2.28305338676414,2.28418564128344,2.32555646812001,2.32395341234021,2.32451658592638,2.3260318685076,2.32661694760972,2.32693966543604,2.3269364555043,2.3271155785165,2.32616001659497,2.32595209635088,2.32422608057577,2.32338768253579,2.32293324755729,2.32231003268597,2.32160193843921,2.32105869814473,2.3207205302378,2.31991180217415,2.31998300415614,2.31968812086829,2.31976958425557,2.31976617792556,2.31993768677689,2.32036990821596,2.32093058475652,2.32130457045176,2.32187471127381,2.32253672099942,2.32315790923015,2.32386053643719,2.32505768502586,2.32575627543319,2.32633784095169,2.32689716311325,2.32772412654954,2.32787698325491,2.32808109761699,2.32820973411363,2.32846836594451,2.32925528430072,2.2889311843591,2.2876920228484,2.2868836938515,2.28664820352098,2.28587493745211,2.28536185489537,2.28518782680272,2.28611986664105,2.28470818774203,2.28438291449617,2.28409226433023,2.28405277025215,2.28434457820632,2.28398836771024,2.28399365177089,2.28378368390479,2.28329477866312,2.28332480653943,2.28322654954217,2.28302324062838,2.28291345339553,2.2825840890368,2.28304530919757,2.28254957150173,2.28267118602057,2.28247935581456,2.28242089773432,2.28247304579007,2.28236062296035,2.28258122653285,2.28214145521946,2.28218722785838,2.28184644760115,2.28206072418932,2.28181166560531,2.28228498739825
2.23568945850808,2.23633667303715,2.23649820053132,2.23719752766871,2.23819386745645,2.23901686612301,2.23915728347556,2.23956992695885,2.24012240198448,2.24140073172063,2.24214473576317,2.24260061385302,2.24283255306775,2.24299005945912,2.24381761595505,2.2447242184289,2.24533363267142,2.24602468719058,2.24660290633026,2.2475012428032,2.24865228989729,2.24935422048791,2.25056608587874,2.25251623974729,2.25306136699436,2.25450138327066,2.25579385098454,2.25794567418734,2.26000928796375,2.26599929067873,2.30384809045835,2.3054385460103,2.30288981013207,2.30474222837986,2.30627957486747,2.30720410463434,2.30597753273144,2.30543472040455,2.30488875776974,2.30438860662821,2.30404712823937,2.30323135011952,2.30246324876133,2.30230298494022,2.3023231023818,2.30199750247994,2.30193747132306,2.3022293142824,2.30224182434309,2.30250930396383,2.30287608235206,2.30329869969123,2.30362611170539,2.30442887347528,2.30467479257899,2.30526959375395,2.30616243947605,2.30725565492907,2.30857303399103,2.31046829478609,2.309813539976,2.30975774483114,2.31155939972483,2.31202823686952,2.31278085098474,2.31365771742302,2.31360351582563,2.31365383677612,2.31395599291587,2.31469576438445,2.31563604415153,2.27916261059909,2.27553041890433,2.27480929691751,2.27377935748918,2.27335808594928,2.27286568487294,2.27310662626387,2.27324958669153,2.27297658441983,2.27343638795084,2.27361673585055,2.27401704338596,2.27428453260872,2.27427307076222,2.27494146787205,2.27505668242457,2.27565890199359,2.27552564610584,2.27570821259547,2.27628323548619,2.27661726417847,2.27696408127132,2.27773110428603,2.27853786090888,2.2793716615927,2.28016674263323,2.28173473447838,2.28299251319738,2.28406506508088,2.32422727927054,2.32484827858708,2.32660586296428,2.32741104581824,2.32738387712603,2.3279078772527,2.32773983660499,2.32706785420927,2.32657391918239,2.32537300095657,2.32376034262502,2.32291890538648,2.32263495290946,2.32175356248416,2.32086562492968,2.32047642848139,2.31988729796066,2.31941146121554,2.31933990230533,2.31942577080952,2.31954010763477,2.31960515821616,2.3200865522592,2.32034244141791,2.32052743011416,2.32124546564967,2.32167408334525,2.32225601088481,2.32307588146739,2.32406010493985,2.32491389128398,2.32548915563099,2.32609650503139,2.32698486094795,2.32735481341382,2.32774153939605,2.32823432470903,2.32827809455746,2.32844156853198,2.32823318821154,2.28864189038767,2.28742526785616,2.28676696760901,2.28631461248518,2.28588698330622,2.28526995334916,2.28514019691765,2.28446474907985,2.28438049726586,2.28424191377115,2.28387554769004,2.28369423831957,2.28399890176378,2.28351716264696,2.28360550768309,2.28377079362786,2.28334208075298,2.28315515711077,2.28308866026523,2.28303476340428,2.28277032264517,2.28251246815823,2.28229339667299,2.28238776666801,2.28229867990172,2.28249402214902,2.28226387970965,2.28212717500039,2.2826000786201,2.28228496035623,2.28191954345975,2.28202301163215,2.28201111025808,2.28197361898722,2.28209155663666,2.28230316133462
2.2357413818564,2.23603373049806,2.23652300024735,2.2374070940525,2.23833730527216,2.23867279871322,2.23906775394265,2.23956056996507,2.24047640244057,2.24125092387958,2.24154774330643,2.24203482105523,2.24257954558426,2.24290763594037,2.24414061800628,2.24462379277008,2.24553641286785,2.24624528046408,2.24751537682881,2.24764834648016,2.24873111655149,2.2496309123352,2.25067257972401,2.25262869005203,2.25352529458549,2.2551590955037,2.25667709257963,2.25812373218825,2.26014482621198,2.30241040487973,2.30315354921749,2.3066526416772,2.306114179381,2.30740782953447,2.30792610252911,2.30610002510528,2.30554939190053,2.30492867678005,2.30461817694011,2.30474401046614,2.30456167562622,2.30378801039516,2.30324364148742,2.30223019692275,2.30212585940857,2.30196997248827,2.30213034565264,2.30253628683272,2.30236577059876,2.30239481825736,2.30286846168244,2.30340675394745,2.30405634622175,2.30452603033316,2.30487531734168,2.30527612742192,2.306347842485,2.30708564922339,2.30836196726943,2.3099727339724,2.31073960240005,2.31000408579482,2.31172924137617,2.31189429017699,2.31271317143031,2.31363172456438,2.31298757885686,2.31309427766273,2.31384418391158,2.31449757063727,2.31424150567815,2.27625485967614,2.27476534806952,2.27397999592001,2.27347200382082,2.27331032927365,2.27305327071039,2.27302769712762,2.27331742012197,2.27332091813854,2.27339562609369,2.27362847853705,2.27381033398987,2.27431607162221,2.27406687422946,2.27462827175141,2.2749902271008,2.27505068390859,2.27515225400381,2.27626819708083,2.27612618851903,2.27659667030407,2.2770071220558,2.27776217254701,2.27865245267754,2.27942363247751,2.28058898912565,2.2821256868565,2.28349469971764,2.28475482878051,2.32540353661953,2.32624433129812,2.32770077168541,2.32822867495213,2.32796832424128,2.3283983086197,2.32819238876602,2.32631969210449,2.32591814185443,2.32412799251558,2.32278465630837,2.32177978038542,2.32137486227467,2.32124712201522,2.32036120634234,2.31971856802504,2.3194938909569,2.3193658699414,2.31899935038722,2.31893170908476,2.31911509336478,2.31921036354298,2.31969266122664,2.32002586033341,2.32021952197491,2.32095874496841,2.32162723643073,2.32239989666434,2.32309335362361,2.32387893756977,2.32490714631043,2.32547781708693,2.32662201766512,2.32709862022771,2.3274279592239,2.32722167245423,2.32688533175536,2.32671290692181,2.32724033756314,2.32696884607169,2.28738125753354,2.28717519151333,2.28650316082295,2.28603266668238,2.28572419604994,2.28527950178261,2.28625707488857,2.28448992585618,2.28431117534733,2.28422107680897,2.28400818240699,2.28377209012955,2.28386769663433,2.28324973904393,2.28336334535158,2.2830572832777,2.28311952561064,2.28283156985434,2.28296330937608,2.2826108653371,2.2828586577594,2.28273992916283,2.28248864070304,2.28214436013359,2.28215067994306,2.28229555036786,2.28223095824117,2.28243436555419,2.28262920656137,2.28188308740507,2.28179699772747,2.28189664620426,2.28169064978074,2.28174349927645,2.28189317747306,2.28239582688608
2.23563858194491,2.23623006618847,2.23705457324824,2.23717264135037,2.23812142949832,2.2388188272986,2.23909478795501,2.2397497174777,2.24048805317301,2.24130243352744,2.24183995395835,2.24212840386348,2.2425904830123,2.24320023990178,2.24400819852823,2.2450588452878,2.24526536289138,2.24607878348298,2.24700166985386,2.24794024219105,2.24899910820061,2.24982594799711,2.25081815990803,2.25257230054605,2.25365255025217,2.25512366529385,2.25697211268691,2.25802162835521,2.30354657274914,2.30382871871937,2.30424070337375,2.30588236422568,2.30666875384179,2.30758437751817,2.30765754998215,2.30697537293335,2.305963829215,2.30457823822745,2.30446930452184,2.3039854829087,2.30404877125551,2.30358447191705,2.30244601260777,2.30190653368428,2.30166233470968,2.30161391764692,2.30160839911627,2.30193317830644,2.30192965854761,2.30232492594983,2.30267780772826,2.30317758669119,2.30377623227493,2.30439231739357,2.30472338536123,2.30531716201509,2.30614528924182,2.3069881854524,2.30837210556555,2.3092246907963,2.30991073851036,2.3114351283476,2.31205118281007,2.31318791234221,2.31231080288318,2.31327911420667,2.31344363150866,2.31282004895965,2.31360947491474,2.31350897678086,2.31392452817703,2.27534878995361,2.27465181723223,2.27396621934384,2.27389981043672,2.27347888788798,2.27334125617832,2.27345113410148,2.27367555839517,2.27318233984356,2.27343871217267,2.27349412846581,2.27373733577012,2.27436187424744,2.27406553348706,2.27431232545175,2.27472709485604,2.27506489377603,2.27513112417401,2.27562237430304,2.27603512490676,2.27648330574588,2.27659256973909,2.27757253404578,2.27834643484799,2.27960023379075,2.28091375504966,2.2820298887835,2.28388483329893,2.32610026876471,2.32757837170764,2.32759473639617,2.32753413423757,2.32774888196255,2.32823794823769,2.32769845727405,2.32740595127472,2.32660448358662,2.32767939691072,2.32750884993707,2.32306961834732,2.32120099862594,2.32052705212584,2.32042753712112,2.32018796168982,2.32005076345188,2.31952867242937,2.31902977978905,2.31873624708004,2.3188030002647,2.31916733596588,2.31917213739517,2.3193413362104,2.31990513613978,2.32022094966435,2.32102482071471,2.32199408852859,2.32274303525296,2.32330350720157,2.32408555937341,2.32497239338396,2.32573546054615,2.32643509994187,2.32738962044371,2.32805498359076,2.32837508689851,2.32752012838735,2.32672493722985,2.32738975483924,2.28867946951115,2.28771802111727,2.28692080940981,2.28654569537679,2.28603136704891,2.28548675708251,2.28517053029678,2.28484525083366,2.2842655362583,2.2840635279999,2.28400244042395,2.28396225527383,2.28384703239986,2.28371763793673,2.28321250537764,2.2833682229935,2.28344162847959,2.28287758953584,2.28306959468202,2.28298880190463,2.28272598410748,2.28280443080981,2.28295308040699,2.28301963395218,2.28295437796396,2.2824116825708,2.28239258540581,2.28223345069269,2.28230078577939,2.28246245917855,2.28169449885305,2.2818444692418,2.28164054115746,2.28196167111955,2.2818904830315,2.28166312454224,2.28184587600542
2.23581411813595,2.23628255955309,2.23689147261328,2.23728697493965,2.23812636285101,2.23880079761971,2.23922333732546,2.23978885573744,2.24057660988564,2.24130146750122,2.24189819987552,2.24229216789631,2.24277723437284,2.24328199769982,2.24406763682701,2.24492133940887,2.2456397846055,2.2463354758666,2.24722896437829,2.24812169315228,2.24906647311711,2.25000806220126,2.25118474772483,2.25246487191685,2.2538909339293,2.25553711806627,2.25732834488295,2.25824307575427,2.28261613660334,2.30329986602681,2.30411721367285,2.30535511813687,2.30643359925792,2.30709122822389,2.30695839981373,2.30651353879969,2.30574503006772,2.30487200923112,2.3043427701615,2.30392323208398,2.30368089536722,2.30320857905855,2.30264634587721,2.30224544136055,2.30195074850722,2.30182501642246,2.30184799158881,2.3020368643224,2.30219467611153,2.3024869077399,2.30289990479328,2.30335966998162,2.30390859250043,2.30440732871317,2.30490546584717,2.30554206751485,2.3063118206246,2.30725036670361,2.30830102283139,2.30926486434127,2.3102127962719,2.31103793012525,2.31195992316486,2.31279590876955,2.31319682101317,2.3132986096647,2.31336569454722,2.31302002095534,2.31335553864636,2.31363626056322,2.29547714508527,2.27513505053282,2.27485991850395,2.27412386936035,2.27367801645453,2.27338198543186,2.27338823474112,2.27352787439282,2.27358931386374,2.27357996654797,2.2736713856363,2.27365833179451,2.27384555894166,2.27410536366435,2.27426320559,2.27448257738286,2.27488345147138,2.27512251253112,2.27536381316072,2.27569709722633,2.27609194783985,2.27651477372671,2.27701283953716,2.27777817320139,2.2787828109743,2.27997101722863,2.28137872770915,2.28265193399674,2.28375596547423,2.32633435787569,2.32685696774951,2.32711808417498,2.32745840163289,2.32779195705136,2.32804089771575,2.32779023979561,2.32725749547854,2.32680925283526,2.32666126861523,2.32558970392892,2.32354459730481,2.32167640432713,2.32077967935264,2.32037854353477,2.32010283658663,2.31989114030849,2.31965286195687,2.31924620267941,2.31908545013193,2.31899712068654,2.31914127383181,2.31937360296133,2.31962156048872,2.32009192489175,2.32083659973206,2.32151153843593,2.32219856996456,2.32290909919601,2.32367017842982,2.32451890510028,2.32525344937139,2.32592798993263,2.32675453468574,2.32753246907762,2.32804889412324,2.3280307376863,2.32747295812508,2.3270577750562,2.32771501413253,2.28904304617443,2.28837030548111,2.28760663900652,2.28687624510563,2.28619646400431,2.2856532187147,2.28514979823112,2.28481420237793,2.28448908809006,2.2844662183637,2.28429341907703,2.2840771993098,2.28385113794464,2.28359146211521,2.2834677565314,2.28347828998586,2.2833795340337,2.2832050028227,2.28309584779721,2.28304030501176,2.28290526370294,2.28288410511165,2.28297123533896,2.2830055815226,2.28269036244421,2.28245894532376,2.28242515750166,2.2822924892695,2.2823137282317,2.28222550261786,2.28202630939128,2.28201563034042,2.28195472643344,2.28206460466113,2.28204315293474,2.28205051417792,2.28226737784815
2.235873296727,2.23629168773568,2.23687516381805,2.23702025292887,2.23824498404618,2.23908496230568,2.23916367631152,2.23965092740225,2.24066766753269,2.2414928897504,2.24207979850567,2.24243804255746,2.24285424428691,2.24316209660606,2.24396477074883,2.24498826111163,2.24594981841247,2.24645401461148,2.2473743714318,2.24829416037797,2.24907231461907,2.25003977524446,2.2514780030467,2.25232509796968,2.25373013046006,2.25536523956982,2.25783375466415,2.25882561297638,2.25996816550688,2.30230715093579,2.3041849618484,2.30524762556121,2.30657927966981,2.30705931792315,2.30634626114771,2.30613642127458,2.30548627807565,2.304657575081,2.30395356263947,2.30355158327692,2.3033707071689,2.30281258685435,2.30250661279314,2.30238743208328,2.30187582142134,2.30181797266422,2.30171366235918,2.30212409612167,2.30208751572848,2.30250096595992,2.3028178823809,2.30342432157223,2.30383081605978,2.30437549527067,2.30471784126244,2.30554101348604,2.30612264176218,2.30725171491447,2.30817406676353,2.30912334036353,2.3105177204929,2.31031704256227,2.31183444730371,2.31257766217548,2.31416984910539,2.31303381218635,2.31350220988775,2.31248599685612,2.31328485313118,2.31396015649983,2.27620126959236,2.2749139643685,2.27503143930101,2.27370551172914,2.27321548306869,2.2730713947125,2.27327804132677,2.27371272551084,2.27345071211698,2.27386592746261,2.27388776201306,2.2736005048842,2.27377159106002,2.27391372244438,2.27430590019809,2.27441520423967,2.27512394698218,2.27510496173054,2.27543647421342,2.27563600972157,2.27604916078042,2.27642910984437,2.27716292493949,2.27777009921691,2.278930089399,2.27972618602764,2.28115006508082,2.2823474569327,2.28361163603882,2.32708984454908,2.32751490173184,2.32731330876742,2.32758308405812,2.32767899786366,2.32800437369268,2.32784302382538,2.3267624887941,2.32649408149008,2.32632152749623,2.32463177724544,2.3234136795175,2.32101802680751,2.32027922050141,2.32005918436374,2.31969255325631,2.31961776657623,2.31968834088491,2.31907047912003,2.31911647431401,2.31880257840203,2.31880251691758,2.31938718702977,2.31946435603994,2.31981705489809,2.32132232240072,2.32178357845059,2.32216906159417,2.32283179976016,2.32373032169749,2.32485703836707,2.32533891827639,2.32580072574547,2.32668966726041,2.32770369241176,2.32819961094907,2.32834308337395,2.32785734286457,2.32721405827307,2.32940187114936,2.28904041857972,2.28790674071138,2.28737613953318,2.28673367027778,2.28620027960896,2.28576256857505,2.28503547410076,2.28459339335363,2.28444491743392,2.28482536510617,2.28462904178893,2.2840677519458,2.28384282694905,2.28316931042962,2.28356615949013,2.28353901589135,2.28335488792583,2.2833257774703,2.28301910565449,2.2830477210608,2.28289873778353,2.2827641088996,2.28293832179609,2.283284289069,2.28220464083647,2.28228303164295,2.28238986207752,2.28219516693387,2.28225268714199,2.28210433343736,2.28198710575045,2.28222711353828,2.28194071547725,2.28225650510064,2.28205053237585,2.28213871996832,2.28262627236804
2.23594890159339,2.23631925815942,2.23697108177258,2.23742238015519,2.23817925616277,2.23895858451656,2.2394538411434,2.24013529073279,2.2415899955128,2.24145216089316,2.24220355952803,2.24255892097272,2.24297359741191,2.24342062445241,2.24415721796824,2.24546487568918,2.24594244541682,2.24637862258425,2.2474096529833,2.24863718552221,2.24879260351334,2.25027388848825,2.25149228955901,2.25264137218518,2.25356510982061,2.25546686810771,2.25737710574223,2.25912781466792,2.30060602625032,2.30230976602166,2.30423295950731,2.3052361826269,2.30692958431771,2.3066826578051,2.30595649504495,2.30559469267253,2.30501055347952,2.30412110578195,2.30368008975174,2.30317376598338,2.30280332945914,2.30248846021822,2.30199655206858,2.3018186461023,2.30170667849229,2.30143363600415,2.30174378857415,2.30212517751159,2.30237763741418,2.30236424969795,2.30287150840592,2.30312848418345,2.30364617453161,2.3042289190625,2.30467576149455,2.30531262548846,2.30647121963864,2.30705524269225,2.30806668993921,2.30929094170857,2.31029223372941,2.31078463628751,2.31144117479767,2.31249848209448,2.31344431321354,2.31352120537835,2.31377407813221,2.31220669191418,2.3127058963207,2.31305068147048,2.27514765668169,2.27455119654411,2.27387545931078,2.27330611482496,2.27283415041488,2.27264651775008,2.27348122528386,2.27310341793396,2.2732502775388,2.27349367348891,2.27375442705056,2.27392632731361,2.27399840636347,2.27367165382888,2.27407781239935,2.27453884582014,2.27476893281654,2.27498941628881,2.27559228845691,2.27578303584027,2.27647850941584,2.27673135355821,2.2772677777943,2.27784908232783,2.27887913348789,2.27970026617642,2.28110887212407,2.28208996027795,2.28360646409818,2.3264538249556,2.32672824865968,2.32818452559313,2.32788855530413,2.32872636859618,2.32815462123804,2.32731752727659,2.32685186178175,2.32650207741157,2.32533935090025,2.32416110817355,2.32271904627831,2.32369799711387,2.32147903202921,2.3202829923923,2.31951931601225,2.31942316122136,2.31923602504594,2.31890563459336,2.3190711159704,2.31883210798628,2.31889155886949,2.31917520424535,2.31930446330298,2.31993601588496,2.32035271530431,2.32132506642914,2.32204435218884,2.32306758697879,2.3235221648752,2.3244048701258,2.32531776504901,2.32591690359172,2.32602411543644,2.32736529527397,2.32749331324407,2.32712891473452,2.32741236503159,2.32749305770648,2.28999787243992,2.28918413952903,2.28850159937885,2.28784587133243,2.28671645716125,2.28591855744771,2.28535750202399,2.28463486318155,2.28456702432752,2.28435870110915,2.28472823745402,2.28382868379344,2.28398247324804,2.28414732514677,2.2836525199068,2.28336822332149,2.28412039475157,2.28352380909831,2.28331217949823,2.28292088144884,2.28290529849459,2.28298082586168,2.28248039105945,2.28277172328551,2.28289054793192,2.28245459878308,2.28236795886013,2.28229835177718,2.28196444355568,2.2821645289484,2.28238351207754,2.28225657623605,2.2827266803914,2.2822289480655,2.28195899820075,2.28196939188302,2.28218421555868,2.28253647285595
2.23609018311411,2.23642009549021,2.23718387821306,2.2378892493945,2.23841688104311,2.23911324651896,2.23946028324804,2.23978203489781,2.24075900088559,2.24141939314176,2.24262248530645,2.24252611317508,2.24309785024598,2.24340580709669,2.24439505860786,2.2450483172884,2.24589547669515,2.24652274994942,2.24721413712323,2.24824121232835,2.24909431160402,2.25057368350389,2.25154153535712,2.25269914286914,2.25370969462781,2.25541565826833,2.25730745980938,2.25925130444349,2.29997445221821,2.30171632561408,2.30332774420823,2.30454062679538,2.30620450426669,2.30636000923108,2.30694649492783,2.30654572633794,2.30490061928888,2.30423626980369,2.3040611523503,2.30289759201095,2.30217190035674,2.30201261612017,2.30162353933513,2.30154736333208,2.30143271989725,2.30144239082774,2.30151900263091,2.30179033361007,2.30184007135574,2.30235365397402,2.30276829855352,2.30337840079795,2.30349539755181,2.30439948627659,2.30473636372053,2.30569125356106,2.30678231380182,2.30725232077966,2.30835657135854,2.30897221476212,2.3102149982841,2.31106131430497,2.31175602876979,2.31199170494937,2.31271622929202,2.31316022443808,2.31294567566905,2.31243664985539,2.3123790355859,2.31263246123662,2.27515487523683,2.27444765967298,2.27464460759191,2.2731966222669,2.27275874598182,2.27252228421251,2.27239627217969,2.27283915982721,2.27301672438418,2.27354385278007,2.27346538681134,2.27379658499265,2.27395837990254,2.27417027880018,2.27404129678219,2.27485436696009,2.27480088274624,2.27531047636609,2.27527452714143,2.27570462379788,2.276178514478,2.27699837547114,2.27776818176808,2.27869477972309,2.27938848503125,2.28002626585906,2.28125162089605,2.28280115226327,2.28418357727916,2.32839050725962,2.32854915590588,2.32864718699621,2.32831297357778,2.32848962504286,2.32772936777628,2.32801037934769,2.32677791240278,2.32587876492024,2.32463334642345,2.32383812257787,2.32329559315715,2.32195919360756,2.32161460078315,2.31988998026632,2.31942642929861,2.31944587243429,2.31953238908398,2.3187472985151,2.31890631982801,2.3188709737476,2.31933668912833,2.31946612294032,2.31954897354598,2.319812111859,2.32003225054771,2.32124460492835,2.32198686984639,2.32272729812059,2.32384088522215,2.32444927433751,2.32535162026905,2.3259951895392,2.32635069502149,2.32678347531617,2.32715321975671,2.32670928209507,2.32719062839107,2.32745164993953,2.28937321959486,2.28822862208934,2.2877532958199,2.28763522986149,2.28661062524417,2.28579271480071,2.28546726392649,2.2850230110111,2.28454036245894,2.28441460725815,2.28415480434906,2.28400547311695,2.28388947225801,2.28390332128121,2.28370394012762,2.28327052557466,2.28358885158158,2.28347519651089,2.28305542007333,2.28297837500851,2.28296863250984,2.2827904977224,2.28269996718819,2.28257979692552,2.28264354840513,2.28273364897377,2.28280268521465,2.28205147824571,2.28252043540922,2.28212900852374,2.28221457778634,2.28190091327222,2.28203346821677,2.28191285794365,2.28208347322149,2.2823594487382,2.2826315143708,2.28282193059448
2.23633500685939,2.23716863335442,2.2372699783837,2.23820368405313,2.23858879852836,2.23903434812114,2.23954146204969,2.24016382099298,2.24095197245214,2.2415638502584,2.24225943643056,2.24262960569951,2.2433038668288,2.243869502678,2.24501011989469,2.24525725178931,2.24588916595479,2.24682885859875,2.24764718059762,2.24840864935689,2.24930598768423,2.25042069094034,2.25187768250544,2.25311605708518,2.25422263784651,2.2560104611604,2.25754157372877,2.2594756982819,2.30160255702853,2.30174999407817,2.30288606500415,2.30476856424237,2.30528203021141,2.30574295363701,2.30573599386407,2.30554604966376,2.30503303145649,2.30393472966053,2.30343928253209,2.30268509543975,2.30206416997983,2.30183107765258,2.30158323013651,2.30153772150811,2.3014013173722,2.30142684964203,2.30188110295965,2.30196742576865,2.30202432190086,2.30260372889663,2.30285062517845,2.30305568516838,2.30367555260636,2.30427585317151,2.30502862456699,2.30563700442904,2.30665172808967,2.30768789313987,2.30842253651516,2.30930224760995,2.31030166393757,2.31126603911697,2.31166898089014,2.31230178741566,2.31260906221324,2.31315028672033,2.3135238556442,2.31312309621314,2.31268706758166,2.27538006091063,2.27461835903969,2.27402192551862,2.27416350226805,2.27361078683702,2.27284809690861,2.27269647198923,2.27267059206099,2.27288871514895,2.27305690532459,2.27328056843002,2.27351472112646,2.2736444068231,2.27411784107913,2.27408698442399,2.27439456620798,2.27477988929773,2.27540664531233,2.27496509343235,2.27576065518409,2.2756815445411,2.2762464518586,2.27671760767266,2.27737532842794,2.27827910350647,2.27965188002567,2.28030709542729,2.28171403915871,2.28356464788195,2.32841347168123,2.32837447888835,2.32844391536112,2.32836532542697,2.32829597987977,2.32853576084374,2.32845264705451,2.32758285467329,2.32649643614423,2.32516979235538,2.32457131370791,2.32355910307921,2.32356312445382,2.32213198919315,2.32127954072277,2.3202307901201,2.31935714135601,2.3192628070322,2.31900462872536,2.31888954042638,2.31920736859139,2.31897627990413,2.31932516904355,2.31921024571658,2.32019570142274,2.32057782389467,2.32100389635224,2.3216052357526,2.32223688909529,2.32316803666618,2.32332919478405,2.32500837117677,2.32615152057043,2.32608699959177,2.32661859478731,2.3268821918447,2.3268148762331,2.32707033120322,2.32699203137538,2.32719792197785,2.28863290642008,2.28819019522464,2.28745329911752,2.2869596240658,2.28604293092192,2.28537555712248,2.28541766145502,2.28493112124142,2.2847004715545,2.28432961699248,2.28401877235562,2.28391180772519,2.28346960638975,2.28381491470616,2.2837519703578,2.28361290006885,2.28352857797198,2.28328130703894,2.28306812323159,2.28296188237881,2.28246707743151,2.28262207511151,2.2825944799014,2.28294390047569,2.28269455659301,2.28238236720616,2.28223976838512,2.28220501450923,2.28214885716175,2.28214894232807,2.28211958533795,2.2823292676815,2.28209912820285,2.28184674335441,2.28172088752463,2.2825530139433,2.28255301871269,2.28244208544506
2.23640602125697,2.23714949748362,2.23763991075691,2.23821558831368,2.23857574753241,2.23909931684646,2.23975226271273,2.24055892603044,2.24127175613216,2.2418307591425,2.24233693961336,2.24271086510191,2.2432575694256,2.24395330703233,2.24480882320734,2.24557016153462,2.24617579772739,2.24693820735605,2.24772234359609,2.2485830654135,2.24951374230335,2.25057518566006,2.25190983329542,2.25326653249937,2.25466179589173,2.25616087544386,2.25709912361583,2.27927261955312,2.30206838489647,2.30236096612239,2.30319189843484,2.30446868671524,2.30541111599575,2.30578948632959,2.30583110945934,2.3058437314961,2.30490049322091,2.30407332917876,2.30350614385031,2.30318092275946,2.3024532457328,2.30194454333498,2.30166277347351,2.30154610783723,2.30168282777805,2.30183547938201,2.30215580756108,2.30235812546576,2.30227272610721,2.30255070122014,2.302886018329,2.30326919687048,2.30380243832285,2.30446190010669,2.30517456054349,2.30585833352062,2.30674812012501,2.30770809672276,2.30864220397802,2.30967880119704,2.31059592548667,2.31131925642361,2.31189593979565,2.31237020958083,2.31290203859384,2.31314085649892,2.3133479635106,2.31334230626916,2.31354599019743,2.27589937629263,2.27537532990096,2.27460459218164,2.27412626210962,2.27345037104292,2.27304166646071,2.27293798271655,2.27285677966843,2.27298762462165,2.27321283616046,2.27343670282641,2.27355302542841,2.27361145244445,2.27384510521354,2.27405599864002,2.27429395066286,2.27471902006316,2.27517090058424,2.27537019244885,2.27577911986989,2.2761507595611,2.27657565236272,2.27705991653618,2.27765642633842,2.27846795501822,2.27954094152886,2.28070833517668,2.28211904114371,2.28339191084393,2.32765284518805,2.32756751199945,2.32789690661903,2.32822736230261,2.32843982444743,2.32843234201548,2.32818148450326,2.32762520447345,2.32661219540144,2.32541330233905,2.32459404461534,2.32362112393217,2.32289057437248,2.32205972449751,2.32142206644637,2.32048160020934,2.31970919903456,2.31935975552108,2.31912887341865,2.31903588390277,2.31905985206055,2.31911068196696,2.31926168642473,2.3194451990995,2.31993847780094,2.3204654789232,2.32116656703449,2.32181211060929,2.32247399935417,2.32328229754701,2.32403594865702,2.32507865868047,2.32591354410554,2.32632868286846,2.32676425275592,2.32701091339853,2.32729211052105,2.32731238470106,2.32694416269279,2.32690507155142,2.30827133069867,2.28806109673396,2.28766190820783,2.28702549242857,2.28629233158422,2.28578980398315,2.28528298649121,2.28493256814781,2.284633270321,2.28442853313167,2.28416865222825,2.28402599611163,2.28384906130921,2.28388892777212,2.28383919487974,2.28377809143969,2.28362611677526,2.28344053370006,2.28324925074861,2.28309772800453,2.28285812787636,2.28278500741171,2.28281427564074,2.28283914953001,2.28280245305185,2.28251666297356,2.28236455154906,2.28234655082326,2.28225904459617,2.28214226911649,2.2822508244625,2.2823430124603,2.28241542715953,2.28227714009544,2.28233715014978,2.2826154106852,2.28270432314693,2.28269200237998
2.23641770522022,2.23724697871562,2.23807637459582,2.23831512341366,2.23852970241917,2.23893797965638,2.23989540047076,2.24096901182741,2.24181276210658,2.24210636510045,2.24254924469701,2.2425836890677,2.24310301649704,2.24380004939174,2.24476620952594,2.2459913768841,2.24630463950032,2.2470479948473,2.24763848849608,2.24872585013665,2.24956956844725,2.25060550264978,2.25188284984756,2.2533741460296,2.25458813676043,2.25627961395906,2.25714347760889,2.30221820617897,2.30266609186253,2.30303560598125,2.30332907936887,2.30450907351368,2.30578688830946,2.30600741865448,2.30566161697848,2.30701746947021,2.30442555470084,2.30386891811973,2.3031301023218,2.30397057065661,2.30245442244557,2.30169891666274,2.30143961319874,2.30114403587813,2.30184631064804,2.3019013227016,2.30246149988074,2.30285498081451,2.30207382436857,2.30226255400905,2.30276436582211,2.30318313891877,2.30365221725652,2.30448389956817,2.30514378341248,2.30581070449418,2.30651360909779,2.30773109289332,2.30845012355677,2.31017462850095,2.31074212747655,2.31150326739333,2.31180770732265,2.3122591830777,2.31312406155486,2.31334226389225,2.31372431411595,2.3140863365502,2.31516682789109,2.27589395265852,2.27519121787466,2.27396064996974,2.27397118092862,2.27296102491187,2.27306615652846,2.27308916797989,2.27286897967411,2.27284592730405,2.27345012043118,2.27345535484416,2.27378798004446,2.27313170339349,2.27371589648168,2.27376865640366,2.27406581734576,2.27441340388685,2.27525906046158,2.27535952817252,2.2758720379175,2.27640998838829,2.27687069476664,2.27722473666041,2.27777114307183,2.27826008753808,2.27892487952783,2.2800367131713,2.28157107404766,2.28335755636085,2.32803035574421,2.32742312238349,2.32810192786414,2.32839636118017,2.32859381387559,2.32824132472553,2.32791198850623,2.32785232296155,2.32668979509646,2.32504195585914,2.32456372520959,2.32320491360065,2.32213656085539,2.32155605653666,2.32170144035124,2.32032174482106,2.31949992824731,2.31907543851806,2.31899101482722,2.31879533076463,2.31876533562314,2.31887801876436,2.31903010759291,2.31912514273565,2.31947878528516,2.31997196186574,2.32116628511868,2.32183483952709,2.32229732844914,2.32330986044298,2.32416049942996,2.32521763763709,2.32579256682286,2.32635944077165,2.32671529893965,2.32679664408191,2.3277815005068,2.32796413752692,2.32679145021319,2.32658703534627,2.32616704823811,2.28809842264675,2.28768756971528,2.28685050489653,2.2862416695888,2.28618446402457,2.2850655595965,2.2847175985161,2.28451838707164,2.28432586048013,2.28424031196772,2.28394350382856,2.28399804612631,2.28387283249546,2.2839217534208,2.28386061820718,2.2837051811563,2.28349754515034,2.28327994901061,2.28327707505519,2.28291273018089,2.28286648029862,2.2828094375922,2.28286347095778,2.28289344969913,2.28260889639879,2.28208189714915,2.28263999475384,2.28214790793445,2.2819621022668,2.28219054348877,2.28237583400691,2.28279146334018,2.2824477336795,2.28264767035464,2.28273959845711,2.28292531397614,2.28273182772086
2.23652012383634,2.237092627143,2.23774384220269,2.2383593208791,2.23845515282144,2.23918921107165,2.24017612352589,2.24096718225078,2.24148156394308,2.24210321703951,2.24244451944512,2.24287535360633,2.24331451644141,2.24386281139948,2.24483924983963,2.24560602734577,2.24608723193445,2.24699880662801,2.24766127187145,2.24895851751828,2.24981191666306,2.2507345440533,2.25197651880555,2.25363401946252,2.25540423894858,2.2566989527728,2.25832987403219,2.25944136019434,2.30253155241546,2.30386384849473,2.30432848835467,2.30502621697738,2.30560997521169,2.30581687203709,2.305434289261,2.30496378835039,2.30398878986741,2.30312023430105,2.30287199480187,2.30232100187995,2.30196526355381,2.30164032634102,2.30190682305306,2.30191317542668,2.30208906695459,2.30174120259769,2.30173537643942,2.30170509107678,2.30181943718821,2.30215538600795,2.30255087098346,2.3028604013843,2.30385475843556,2.30442950518868,2.30511016225897,2.30584146677303,2.30697165282765,2.3077202052144,2.30867998984545,2.30967898045664,2.31126318140432,2.31189232015239,2.31247010513736,2.31262425024616,2.31335485350457,2.31463003271804,2.31332526175933,2.31358950111082,2.31489902577416,2.27500401634437,2.27410307117428,2.27380569254154,2.27376522138845,2.27336194323102,2.27363948982803,2.27321434529786,2.27298338561221,2.27299325438575,2.27308681141403,2.2732308948001,2.27334739719021,2.27351621804747,2.27364403821771,2.27402837008611,2.27394543756084,2.27458847665942,2.27447636315611,2.27505380430219,2.27533474096375,2.27634586383558,2.27668469359484,2.27681902077343,2.27763194326182,2.27817156122854,2.27911420863198,2.28009923315486,2.28184279133198,2.28338471287673,2.32782730921452,2.32759445882329,2.32786840033068,2.3284901510903,2.32850242118309,2.32877629500134,2.32861729422108,2.32745647830291,2.32655315577602,2.32649091768015,2.32488760737397,2.32367267053452,2.32213856907468,2.3218009461891,2.32052667458396,2.31988251688063,2.3194014743289,2.31884104931315,2.31887709274597,2.31896649979939,2.31896118337015,2.3191058176271,2.31898014361096,2.31949724107478,2.319933707075,2.32094616001183,2.32123817850745,2.32196094365442,2.32237587154989,2.32346353394311,2.32434106044688,2.3249339229585,2.32559913153578,2.32645021916993,2.3268703491606,2.32733665842054,2.32796861581444,2.32763180168373,2.32639147610918,2.32595494730912,2.32627645509749,2.28806340455163,2.28765594671881,2.28692479531676,2.28644399500196,2.28682728729813,2.28480155169731,2.28479369231508,2.28463610025677,2.28422059302019,2.28435917643068,2.28431641672966,2.28401152790429,2.28414921333403,2.28392494493824,2.28365659620696,2.28335003005176,2.2833589591471,2.28354053321115,2.2840543920028,2.28317732048694,2.28264298150857,2.28301407347822,2.28298276518335,2.28315089656331,2.28256517007238,2.28233502867664,2.28216403342556,2.28226972674338,2.28224554155081,2.28219951931986,2.2823706913776,2.28250904952344,2.28240769941328,2.28224642808991,2.28284949526284,2.28266041737322,2.2828694881988
2.23642766589354,2.23791032512239,2.23793839420339,2.23799065284373,2.23870655086055,2.23912764666788,2.23980100196532,2.24075278519483,2.24131636234796,2.24187182337211,2.24235344599787,2.24274143501381,2.24332413108557,2.24395706453223,2.244854748343,2.24583330097492,2.24621424078069,2.24705986840548,2.24814544382131,2.24887068129117,2.24987064049675,2.2508955296057,2.25268790267786,2.25412464539992,2.25573587717542,2.25756406066074,2.25900701267084,2.30198100354658,2.30314620027362,2.30359026139589,2.30446549424919,2.30515676603637,2.30614565344422,2.30562966358924,2.30566661255672,2.30438496744523,2.30394151517268,2.30288204209599,2.30217409612639,2.30180335642962,2.30176443573661,2.30192091746369,2.30233063274145,2.30161759347829,2.30130253281945,2.30117604135153,2.30131832035892,2.30140532178454,2.30168021819449,2.30186186067137,2.30232408349243,2.30296862819589,2.3032482581475,2.30450668263871,2.30525420560651,2.30624036113802,2.30701487678828,2.30802180120005,2.30879709365938,2.31043640517438,2.31121334982703,2.3119938136342,2.31233095486108,2.31311542593376,2.3134574087244,2.31281283866182,2.31297002310186,2.31372280312558,2.31485816210388,2.27418129026249,2.2738566249982,2.27330130037523,2.27331549170255,2.2752891225973,2.27388135400024,2.27282133940124,2.27288179722748,2.27289321175113,2.27288917344571,2.27312305863431,2.27325699557964,2.27346905975694,2.27379663352484,2.27369646434495,2.2740809539879,2.27433104150283,2.27449948371067,2.27493779166769,2.27549687743257,2.27590284868491,2.27670231885454,2.27685469528044,2.27736127654246,2.27817528690134,2.27968769435135,2.28048668956141,2.28183607720134,2.28339484211882,2.32812307852602,2.32808711005457,2.32801904441601,2.32799693411835,2.328501169264,2.32829750506374,2.32759592106193,2.32681101595296,2.32561767013675,2.3248148997976,2.32420672570732,2.32353201385213,2.32250866974339,2.32209587377828,2.32068969619931,2.31984192650304,2.31930391573632,2.31905380418892,2.31871150201268,2.31877634322588,2.31924244095682,2.31963414161643,2.3190804636741,2.3197892984594,2.32029204263225,2.32009312476887,2.3210804956857,2.32196904828563,2.32244059535978,2.32345705148995,2.32405392931539,2.32509420845905,2.32556437321155,2.32668625073849,2.32705046639038,2.3271683732212,2.32777018277503,2.32817421969551,2.32802856894593,2.3272047647064,2.2912274917649,2.28802883168146,2.28684290797507,2.2865348323077,2.28640879936435,2.28561255761934,2.28527610229679,2.2847955178052,2.28434501855717,2.28412649376154,2.28428364560049,2.28381653066167,2.28383581603769,2.28377980869841,2.28361846391825,2.28362535346376,2.28369050547483,2.28342165526564,2.28342201959298,2.28460778482539,2.28354125538561,2.28297273400178,2.28287319496026,2.28332205393334,2.28282696187579,2.28250386140643,2.28220814364225,2.28259448053636,2.28272724837943,2.28235595839121,2.2820238652456,2.28214249023092,2.28225294506486,2.28231408882016,2.28250336866142,2.28237562154132,2.282265062694,2.28281444426216
2.2363897992967,2.23703350428378,2.23731273781935,2.23796758859198,2.23873941471616,2.23919759388625,2.23992183316432,2.24079294053254,2.24110221211673,2.2419970071179,2.24250797354979,2.24302866824686,2.24332413711795,2.24430828804942,2.24507713762869,2.24580864834367,2.24623615134921,2.24731746390651,2.24834745321247,2.24918457830637,2.25021220956302,2.25112703569184,2.25276578985534,2.2540864098219,2.25575715019827,2.25727543377434,2.30031577606793,2.30459487377819,2.3034235685557,2.30388391408078,2.3059209765445,2.30511133099507,2.30532989167869,2.30529246129699,2.30506613828292,2.30388793500535,2.30353312562763,2.3023818671094,2.3022918964443,2.30168143454898,2.30159614264108,2.30173531383811,2.30200525877123,2.30309438761309,2.30159985477397,2.30086273790565,2.30163891839625,2.30158877182414,2.30194111937617,2.30201795467169,2.30261166396448,2.30302065610607,2.30337110151683,2.30451087224293,2.30518804200468,2.30617225660277,2.30725483768889,2.30794096147029,2.30932327513603,2.31036000977676,2.3113379356026,2.31191727902836,2.31267927065432,2.31368736805712,2.31386761221015,2.31298213963149,2.31298180478711,2.31371945192565,2.3151225632794,2.27400603812748,2.27394612365757,2.27349809210467,2.2732526078193,2.27296560815093,2.27281714362657,2.27253435319258,2.273169783657,2.27286694736656,2.27248799097894,2.27299703393794,2.27325381868516,2.27360113639863,2.27387355795456,2.27391694746183,2.27422916315141,2.27418042878164,2.27422977433317,2.27467905409784,2.27517390336224,2.27614489949289,2.27663742093777,2.27692324298717,2.27772908826559,2.27866691670937,2.28029211222994,2.28079274782495,2.28306159999743,2.28387736811736,2.32831182974302,2.32828166777779,2.32810536930231,2.32799260558574,2.32813350314066,2.32812181958694,2.32739840157083,2.32655650498572,2.32576688795766,2.32542983264659,2.32496926519788,2.32362495680913,2.32214909668982,2.32134455478198,2.32039515513466,2.31990543274347,2.31936797720535,2.31968659903253,2.31891804309892,2.31907592076833,2.3190517196886,2.31923620473325,2.31958864996705,2.31995425048356,2.32021009873248,2.32064298914962,2.32121905204524,2.32199452939795,2.32264902597811,2.3235104965706,2.32479253702395,2.32544907023958,2.32582883420427,2.32631003970296,2.32671026083508,2.3269147245492,2.32753859253328,2.32788185491048,2.32724592981471,2.32625749403649,2.32608746321342,2.28800621682207,2.28741339768657,2.28717456451623,2.28683585864926,2.2855116480064,2.28507598387882,2.28459585353092,2.28466228594051,2.28409183375151,2.28406162308752,2.28386590435474,2.28364128820039,2.28382789688714,2.28392948842504,2.28391552428828,2.28405541466427,2.28383258031261,2.28366656624264,2.28356598063331,2.2833658462647,2.28343377842004,2.28328138385988,2.28288675914411,2.28282272270947,2.28250614896368,2.28264896190761,2.28252515254573,2.2825847689778,2.28230791820356,2.28229058800577,2.28230076990043,2.28227184677789,2.28240080158169,2.28250430953144,2.28228808090076,2.28194989733222,2.28244254653993
2.23633223266108,2.23694846039032,2.23754610093459,2.23815140110899,2.23878317041158,2.23928451648585,2.23998447195059,2.24065374413949,2.2412632028545,2.24186660916121,2.24246357971582,2.24307005994562,2.24371760306282,2.24442105689231,2.24514650948851,2.24579481159845,2.24646038540589,2.24730416494065,2.24836699703749,2.24936469323972,2.25045623003772,2.25160198529967,2.2530302931556,2.25472295176229,2.25634205074506,2.2575211656357,2.28100548065354,2.30292865134911,2.30316757881403,2.30416971131185,2.30508428905244,2.3052958955661,2.30546256982798,2.30544381365561,2.30481286031488,2.30387753628451,2.30318252307622,2.30251503536715,2.30221141531711,2.30189911303435,2.30172932133555,2.30169026665668,2.30177282490007,2.30188789324369,2.30147527227484,2.30128135655396,2.30152418260495,2.30174141657398,2.3020134202164,2.30228395408799,2.30269960239776,2.30330776852134,2.30389171230256,2.30463310137693,2.30531978251352,2.3063333269086,2.30732300101933,2.30832719261454,2.30937412518668,2.31049347650001,2.31131458306275,2.31228114291854,2.31291881836568,2.31367131367652,2.31379098154173,2.31343948843404,2.31337567017994,2.3136171748268,2.29818644299052,2.27501808606075,2.27449565493942,2.27373747155357,2.2734491803135,2.27310084219806,2.27293118178361,2.27291096682806,2.27303797050035,2.27289079756005,2.27301186240749,2.2731657148592,2.27339361083402,2.27355943233309,2.27389528306943,2.27413296020297,2.27434442272438,2.27442336408965,2.27466036221398,2.27498737113231,2.27549757908221,2.27604972493482,2.27668265113967,2.2771212247146,2.277888651708,2.27901109872181,2.28032709481748,2.28158207024629,2.28321829521719,2.28407884911323,2.32755595400724,2.32781049243679,2.32811686028997,2.32829598329637,2.32832470625766,2.32821275489502,2.32759497907399,2.32693914030598,2.32616504291489,2.32521722440017,2.32433951473149,2.32342311659144,2.32232906571397,2.32144082131904,2.32075994634136,2.32009378508602,2.31978872719008,2.31984113494146,2.31933084055929,2.31916713086598,2.31924483092928,2.3193205754803,2.31961055348879,2.31996450574395,2.32039577651327,2.32090093768557,2.32151088629926,2.32232406785504,2.32305269172573,2.32395095903128,2.32490157307244,2.32550900590248,2.32600101285586,2.32653759334908,2.32689206755283,2.32730658736619,2.32731110494904,2.32717313095587,2.32655636062188,2.32610570604362,2.32617492024577,2.28812623338201,2.28788797969737,2.28755479780249,2.28687304335018,2.28579684505374,2.28511603859871,2.28473779566227,2.28456848425147,2.28430697074971,2.2842168068108,2.28403960415971,2.28393084098323,2.28383057089798,2.28387306588715,2.28388294929192,2.2839977209488,2.28411987551886,2.28377216790061,2.28355180836695,2.28334098949621,2.28325691729868,2.28317629422288,2.28306784981509,2.28296192799518,2.28282547058051,2.2825774767008,2.28260276143946,2.28265822872585,2.28272305934905,2.28266724455769,2.28251376033343,2.2824640922653,2.28252941434212,2.28245685842678,2.28230828573197,2.28233364546148,2.28256528878907
2.23629571627162,2.2369259414724,2.23773377979755,2.23834948068551,2.23892584578715,2.23919158112628,2.24006084584926,2.24058797387168,2.24142096266032,2.24172336934697,2.24244845264668,2.24305516357313,2.24403407795018,2.24453446170187,2.24523013156142,2.24578403838132,2.24648513015399,2.24704320093901,2.24846406826144,2.24946495517661,2.25078078160557,2.25181721579437,2.25294023943733,2.2549267537953,2.25672964460802,2.25842758800909,2.25959510568849,2.30145356740351,2.30272617105787,2.30480229401022,2.30496094148873,2.30523331932547,2.30556171872568,2.30595694482227,2.30476139746139,2.30342414550675,2.30270765860679,2.30209985829001,2.30202746342934,2.30180700276132,2.30160004792338,2.30138013570085,2.30135327923079,2.30108663833709,2.30096502220113,2.30114882135533,2.30127273541671,2.3017143282766,2.30194854326896,2.30224399378136,2.3024979936078,2.30340825475424,2.30420273966132,2.30454428117389,2.30511708119228,2.30620364297242,2.30739725023716,2.30832327988741,2.30938696969051,2.31056365125922,2.31116265860684,2.31258928961671,2.31299828742173,2.31384023281236,2.31403112724734,2.31314782740495,2.31336599133924,2.31325980838228,2.27706349392668,2.27607563748212,2.2746223547807,2.27305487174963,2.27356969504166,2.27314357745804,2.27287600328245,2.27320330643658,2.273030482646,2.27266868919803,2.27327076789977,2.27337963186983,2.27330442437101,2.27349251794614,2.27372356555682,2.27448304161655,2.27436897056241,2.27458240346238,2.27476098945755,2.27521414160575,2.2755411600263,2.275963158236,2.27675117849334,2.27707930575438,2.27768364550771,2.27909128185429,2.27991121997862,2.28095255857154,2.28275560503402,2.28380258754384,2.32733748952471,2.32805723692591,2.32877743463866,2.32885470255988,2.32844801642469,2.32848859497943,2.32752173919558,2.32719811480732,2.32648959535061,2.32473973061379,2.32350309307476,2.32321993708407,2.32205819293813,2.32117011037842,2.3208622931626,2.31977496742613,2.31960361530983,2.32042347501671,2.31913840080683,2.31889047200623,2.31918658508993,2.31906029590301,2.31931696122908,2.31975739628285,2.32026873000608,2.32087703030499,2.32138807656002,2.32252678699097,2.32309432079875,2.32408960594116,2.32517980642553,2.32542245112061,2.32595458035829,2.32665272440558,2.32675065145086,2.32771503885764,2.32695366906245,2.32697516928299,2.32633799169851,2.32637976099937,2.32716186343302,2.28756171524523,2.28747950700185,2.28752917664293,2.28698310161949,2.28560080039228,2.2848706130307,2.28464701923509,2.28445811529367,2.28429386285746,2.28429143111208,2.28411588811047,2.28401471908758,2.2836777533328,2.28365062920202,2.2837259989198,2.28376364571048,2.28483002701987,2.28362792535715,2.28343648972111,2.28312691181902,2.28293311814243,2.28308696592711,2.2830668808265,2.28315094919812,2.28305780943196,2.28224984147013,2.2824683816563,2.28271429728908,2.28309986167573,2.28309971765858,2.282503204228,2.28246399461694,2.28270593786201,2.28237699284546,2.28209372062277,2.2823872757144,2.2824273089807
2.23618523023762,2.23695184897836,2.23837184477856,2.23913040893483,2.23920494684125,2.23960211376844,2.23993562965456,2.24064349338541,2.24139552239857,2.24210267524137,2.24271015665956,2.24315420599914,2.24417992637604,2.24493238574384,2.24544935755825,2.24593960507211,2.24658893034032,2.2475132573024,2.24877698600504,2.24953768951584,2.25065316785572,2.25162243959129,2.25278401786798,2.25472813556021,2.25630943145326,2.25788616068312,2.30080010590198,2.30180757777249,2.30300713411488,2.30430536973064,2.30466212546869,2.30538421447211,2.305244553936,2.30497621970633,2.30492342886604,2.30379960087941,2.30318287468968,2.30207230581159,2.30187336055858,2.30146605992072,2.30121694131557,2.30140754367881,2.30106409333691,2.3006489342758,2.30039504177439,2.30062996384119,2.30096163563987,2.30123836186022,2.30171177984791,2.30213251202941,2.30264465113229,2.30330209244606,2.30402954353902,2.30453570942086,2.3054378265382,2.30626651019508,2.30709976818408,2.30844288383318,2.30923194684006,2.31065674245491,2.31009607671876,2.31285153711489,2.31253453945362,2.31193723988028,2.31341446022491,2.31297817961823,2.31332016701193,2.31464692727759,2.3160293377673,2.27475295001044,2.27484245545714,2.27315583405979,2.27280571149441,2.27258622626031,2.2723435764621,2.27255960925793,2.27263405160383,2.27274497494244,2.2730263065902,2.27321037548821,2.27339348736934,2.27353798236028,2.27381372946958,2.27381537223494,2.27423040712917,2.27475987883193,2.27525982590072,2.27539196645057,2.27595164877046,2.27621918804006,2.27661245400242,2.27709356642078,2.27908095503348,2.27925856783089,2.28037740470597,2.28167466411131,2.28311532349461,2.32751601682839,2.32763047942866,2.32804574290401,2.32886595091932,2.33060512463087,2.32966974339321,2.33041399895111,2.3288829724673,2.32811022603043,2.32776983568385,2.32512415215119,2.3235276502689,2.3225993421502,2.321894093927,2.32097148048653,2.32038444935607,2.32006566005675,2.32013214403088,2.31928562481207,2.31890359372753,2.31912610386987,2.31915482193345,2.31933678312495,2.31948272402317,2.31985846846092,2.32052733708852,2.32114822844924,2.32193704273684,2.32233636816859,2.32296632989699,2.32404457642717,2.32469556310592,2.32541240570326,2.32575355359846,2.32632421498939,2.32659583931018,2.3265950894768,2.3265883811776,2.3261948744729,2.32638913441735,2.32675976956217,2.32682071513287,2.28761413265368,2.28716898863116,2.28704701877187,2.28642822697862,2.28554013005758,2.28533926275711,2.28525500265098,2.28464354668617,2.28449743623888,2.28423910234034,2.28402483297178,2.28403329573057,2.28382952300717,2.28376460194127,2.28385798698063,2.28398477502653,2.28400152173434,2.28363168393572,2.28315031653646,2.28338225198984,2.28312656393625,2.28296660307582,2.28358252513908,2.28319051305153,2.28302320685845,2.28270037734849,2.28258351631795,2.28282978900969,2.28306847037068,2.28282260226272,2.28228697733931,2.28265820251406,2.28244434638841,2.28286406693157,2.28266843829344,2.28295534912405,2.28373160947625
2.23639955789806,2.23737012225559,2.23799622656714,2.23854479395193,2.23906555218178,2.23967577149888,2.24013498340072,2.24062854892753,2.24164483249209,2.24202604774488,2.24261043449229,2.24308349049213,2.24398706235631,2.2444757952266,2.24523077047528,2.24576762928585,2.24674305867285,2.24811614337528,2.24885107255263,2.24967878545237,2.25102883493636,2.25195694128068,2.25339102582508,2.25478278296587,2.25655693394774,2.25860566409935,2.26029393448001,2.3028129091934,2.30372697400594,2.30410777358349,2.3046956603977,2.30515104577522,2.30496857487251,2.3042517559764,2.30400914368187,2.30310377463493,2.30288421402565,2.3019884541095,2.30140379578975,2.30144744334353,2.30165160587049,2.30233126961678,2.30259868654902,2.30091924506281,2.30053805463754,2.30068007451607,2.30092972507392,2.30125355049962,2.30136863721795,2.30166352103851,2.30258060467531,2.30329676455057,2.30395652937006,2.30444480487854,2.30530321050396,2.30638970138901,2.30757012658164,2.30863697747656,2.309645272714,2.31101219613999,2.31206036706643,2.31245836162215,2.30907900895721,2.31181974129382,2.31068929839812,2.31241468468615,2.3127545307908,2.31513100656694,2.27448472993589,2.2738056484129,2.2733261343699,2.27310557528406,2.27317410568002,2.27274020164582,2.27241156614614,2.27240847653301,2.27270783987523,2.272966339787,2.27317597744937,2.27346694577168,2.27339304910699,2.27365887927525,2.27347382076839,2.2739157846226,2.27398382803822,2.27464062622963,2.27472669073056,2.27537519923115,2.27551238534015,2.27602316127664,2.27645663599683,2.27721605884502,2.27812887709162,2.27885806273548,2.28035847744125,2.28131284990985,2.2822062555867,2.32778155748671,2.32792260924873,2.32821190215098,2.32926301904957,2.32972922727504,2.32934931389271,2.32916181915862,2.32902012764906,2.32818012672444,2.3266275647407,2.32500707199969,2.32385506427209,2.32309280815468,2.32268649375905,2.32131655973573,2.32039693136615,2.31993100319793,2.31982424059799,2.31958291293149,2.31908561195616,2.31895759993137,2.31903019504704,2.31957668807633,2.31967328866762,2.31975108920028,2.32023182499664,2.32107839225958,2.3218611475496,2.32238962377436,2.32288476017763,2.32391617688445,2.32500296281637,2.32571214893397,2.32638556751485,2.32673664324718,2.32708332602287,2.32572492599025,2.32564077679636,2.32577985726066,2.32658537754983,2.32696571597097,2.28858198326579,2.28772767230023,2.28713810939727,2.28669148222198,2.28598475770932,2.2858051547518,2.28598497273365,2.28508907983864,2.28486438589558,2.28492085394004,2.28459764909715,2.28401564013242,2.28398631048107,2.28390720568513,2.28400098693056,2.28397002460138,2.28398630126716,2.28375639565055,2.2834744173435,2.28306012064658,2.28297163680426,2.28312403946852,2.2833092109072,2.28321766489024,2.2829224388359,2.28298867807979,2.28281345859647,2.28287371785094,2.28293262419535,2.28243674393422,2.28235883832761,2.28244230851228,2.28231194525156,2.28189400004117,2.28255955500542,2.28287555080391,2.28328499237211,2.28363668006237
2.23659228442033,2.23724521960246,2.23804065635452,2.23870979680062,2.23902370588383,2.23962548392868,2.23993975635009,2.24077179257024,2.24134606853823,2.242146474022,2.24269238065415,2.24319375482758,2.24377597606486,2.24443755454748,2.2455590383452,2.24640576575715,2.2473629343737,2.24819848629295,2.24898778208163,2.24977305048145,2.25075219734507,2.25239127627226,2.25375289270135,2.25590526637197,2.2566865588977,2.25841980193528,2.30275239123469,2.30263046744254,2.30349341980762,2.30403594578713,2.30469797979917,2.30513316634599,2.30491272127193,2.30486652832653,2.30377120778542,2.30253713538239,2.30200025047113,2.30186091802211,2.30148396682477,2.30215508243371,2.30116938043578,2.30197920815374,2.30168608969242,2.30092497456026,2.30066781538554,2.30074273048734,2.3010262709525,2.30126204826366,2.30144987630656,2.30203342243376,2.30258971966194,2.30318227221552,2.30380784664217,2.30431735655136,2.30509954617728,2.30643055379826,2.30764322262029,2.30934587435219,2.3097501014217,2.31105406029936,2.31149620949526,2.31148625986836,2.3076452881512,2.3074482188654,2.30850609168819,2.30966696704273,2.30997783482097,2.27523101809691,2.27447599550782,2.2745053694482,2.27325292980146,2.27266788260258,2.27263243074044,2.27261035066986,2.27231829187786,2.27215233383215,2.27254223575524,2.27303081109538,2.27328900459564,2.27325075384677,2.27331134199589,2.27352932908441,2.27395066274334,2.2738989078646,2.27385497417617,2.27407079150009,2.27466306932435,2.27524824736603,2.27537543265596,2.27618117370295,2.27689242043297,2.27690571322095,2.27770535098459,2.27846057929341,2.27969493260142,2.28105436834635,2.28243860169095,2.32734232010635,2.32837573682765,2.32881341876518,2.32939365968077,2.33007415941851,2.33008341580253,2.32991530029391,2.33049183049999,2.32787034915221,2.32706982295107,2.32519785855574,2.32408270085422,2.32400266526999,2.32318397226564,2.32150339426561,2.32126071757174,2.32020531010419,2.31980446107782,2.3193986963084,2.3193673482036,2.31912605209572,2.31944258823699,2.31949601012514,2.31970331731082,2.32028765562327,2.32059561650068,2.32160021608095,2.32217988404503,2.32307584817771,2.32363408045096,2.32429800029061,2.32534013898721,2.32583667319906,2.32663982535637,2.3272268610577,2.32763152201966,2.32784864260401,2.32788536128792,2.32619400262858,2.32675135391702,2.32713349983387,2.28783314329257,2.28764661569146,2.28757516428165,2.28691276124764,2.28643831243956,2.28637405107979,2.28527418986885,2.2849382002035,2.28459314656163,2.2850579901255,2.28428512143603,2.28418068423838,2.28436798987865,2.2842366469522,2.28417026933795,2.28391128322982,2.28388779401714,2.28392293573856,2.28327444127319,2.28300763105225,2.28349862657504,2.28322170024866,2.28316773386598,2.28309500075304,2.28308250477421,2.28303229440181,2.28311956629502,2.28309520457663,2.2834235447059,2.28280143899705,2.28281599222267,2.28293024392172,2.28265008344354,2.28239689452576,2.28291500045847,2.28295870294204,2.28311733668026,2.28313434707815
2.23670785295623,2.23729860891725,2.23798056629973,2.23860657451511,2.23910896182345,2.2395659459238,2.24004977901531,2.24076161883524,2.24145925858213,2.2421428505052,2.24272547319386,2.24326841539162,2.24390425506575,2.2447689963162,2.24563649820306,2.24638757497931,2.24728082211647,2.24806848456214,2.24901012401345,2.25000609510964,2.25120156649679,2.25270910715949,2.25419277467181,2.25575250881824,2.25665078144771,2.27954728434874,2.30164023856721,2.3021873235438,2.30300585866581,2.30395999637379,2.30488371329599,2.30504880045504,2.30498522523192,2.30471759223921,2.30387376357657,2.30302421839396,2.30228225732393,2.30186430884506,2.30167160322357,2.30165288899124,2.30132041888364,2.30128638997237,2.30106714445963,2.30079965623982,2.30074371645055,2.30086065126675,2.30113250855195,2.30147896792988,2.30182721725727,2.30237688812375,2.30302256908813,2.30364762695698,2.30420154198615,2.30486043271564,2.30571944570197,2.30678791895871,2.30792877649396,2.30916761310857,2.31006046857283,2.31089600431495,2.31126286918381,2.31116805885092,2.3098059153308,2.30837474453705,2.30813861476527,2.30859969934276,2.30915676070145,2.27572631764804,2.27523089175988,2.2745742777086,2.27353791602572,2.27287149601726,2.27268437248755,2.27254143019071,2.2725111976792,2.2725333056136,2.27273036956248,2.27300154940192,2.27324542041648,2.2734611045721,2.27350642880928,2.27362914431899,2.2737537927641,2.27392745592994,2.27403043002807,2.27435635180533,2.27484372501239,2.27533014811571,2.27568228692944,2.27628204268921,2.27677748331561,2.2771762258054,2.27782521778734,2.27887269116867,2.28026114182746,2.28192004816262,2.28274823257292,2.30903679457672,2.32806555402101,2.32839823375228,2.32915877593813,2.32975110769615,2.32998502969095,2.32994591241122,2.32983388124139,2.32859737369539,2.32720299818802,2.32560872537127,2.32463507871408,2.32384612897688,2.32296882664421,2.32198853868203,2.32134349563105,2.32053472106362,2.31994271774265,2.31960060280098,2.31963851101306,2.31957793470957,2.31970741562363,2.31994643122193,2.32026590772037,2.32075113648144,2.32117146340343,2.32178679698994,2.3224164417636,2.32327833131811,2.32406851139941,2.32478146990304,2.32556903916353,2.32612913790533,2.32684329751835,2.32748953432713,2.32797257810303,2.32834176366949,2.32807939406302,2.32703650214983,2.32703649610457,2.32701933549142,2.28885825734563,2.2887993237291,2.2880579922083,2.28714429369242,2.28651409659637,2.2859733969525,2.28536413312642,2.28497664295557,2.2847186564979,2.28461887828269,2.28421836738172,2.28406419405579,2.28406988915153,2.28421405881568,2.28412145681541,2.28408649855576,2.2839246360029,2.28380493444604,2.28346542934914,2.2833681340752,2.28341857506842,2.28336691628114,2.2832479961616,2.28318335149223,2.28320154584235,2.28323488576885,2.28320702101966,2.28311037425286,2.28314805704712,2.28299067092373,2.28299058870023,2.28303368341032,2.28305116956099,2.28294146637185,2.28297764386038,2.28307981529357,2.28318590442347,2.28342652362617
2.23665968130165,2.2373654271906,2.23791579139437,2.23868262148891,2.23919229876596,2.23951143337185,2.23990880246463,2.24077372324289,2.24156983166761,2.24224954448825,2.24276915017326,2.24327121495984,2.2437552422917,2.24512898708779,2.24577587830817,2.2462498343865,2.24726307393353,2.24778445600326,2.24900783670822,2.25010145092747,2.25142187803947,2.25290934941518,2.25416280030555,2.25563727540925,2.25706951960667,2.30006883779504,2.3004145716409,2.30207818303338,2.30280638258572,2.30388911191041,2.30559835086821,2.30493458719358,2.30503784192227,2.30500755266509,2.30379625115369,2.30330457037901,2.30204174439596,2.30154747875715,2.30148129055426,2.30139931465796,2.30096963619118,2.30069094774167,2.30034534285367,2.30033078697632,2.30050786716265,2.30067098032428,2.3010498273763,2.3015175727984,2.30190867821587,2.3024350376962,2.30338209693261,2.30398783011844,2.30439591405149,2.30500348250456,2.30602261752562,2.30687966525323,2.30799224756724,2.30914770216939,2.31029497850022,2.31100569717887,2.31127273063933,2.31187234572073,2.31173070900749,2.30757461221221,2.30739384366018,2.30789867025659,2.30916629917483,2.27585983697402,2.27497036637332,2.2741070943698,2.27314308587767,2.27269293861302,2.27277296028777,2.27239876852866,2.27260506760399,2.27264652356953,2.27283408297987,2.27284388579579,2.27327321630834,2.27363076775891,2.2737130321202,2.27346718308677,2.27364012230519,2.27373496861904,2.27412724812749,2.27419797337664,2.2751848388543,2.27523001854574,2.27591626633126,2.27618520513357,2.27694565790563,2.27704189884129,2.27765615529718,2.27859801547034,2.28002595055827,2.28271350058726,2.28319112919377,2.28446574073596,2.32755739656919,2.32781898992441,2.32916369068365,2.32963364736725,2.32979313947741,2.32973588597275,2.32998668344666,2.32927436079125,2.3272781207422,2.32520189467798,2.32476538448728,2.323581439732,2.32262782019835,2.32194721223747,2.32137233431704,2.32046343917229,2.31961171130969,2.31924735437422,2.31979504003376,2.319666280868,2.31964670348442,2.32014726367383,2.32045013627326,2.32109075956288,2.32134734078343,2.32175807401791,2.32221612027542,2.32333440548381,2.32437759191028,2.32496109965162,2.32581242743636,2.32603341631195,2.32686717442364,2.32761643687113,2.32808821775018,2.32920236496579,2.32906625998603,2.3273584397693,2.32816513212171,2.32759537914533,2.28889772344661,2.28949596564102,2.28781997819788,2.28678291076635,2.2863744435762,2.28570456312744,2.28514883543527,2.28485064304996,2.2845617333333,2.2843875106807,2.28382199221431,2.28364753465665,2.28359444039087,2.28424249698822,2.2840130123702,2.28417173741444,2.28393299412141,2.28368411145034,2.28342342555312,2.28337698407882,2.28342313079249,2.28341985932807,2.28322456113029,2.28307023123099,2.28323147828924,2.28340994790052,2.28327581585595,2.28290687201594,2.28298720950549,2.28291513459621,2.28306308619704,2.28303613286116,2.28351914907312,2.28322348109108,2.28296402377846,2.28300667458309,2.28313445901851,2.28372103926589
2.2367712451626,2.23727825848853,2.2381027701597,2.23885347939308,2.23928131323534,2.23970731263893,2.24005874809915,2.24114302558067,2.24165144173849,2.24247779048053,2.24266929940531,2.24331176828633,2.24382013179482,2.24475628629656,2.24583073895741,2.24628215352644,2.24709886315107,2.24813927868798,2.2491945637821,2.25034530137123,2.25213450329111,2.25346248001914,2.25524894253166,2.25612649707171,2.25830891948823,2.29976459817051,2.30019830087306,2.30173695307604,2.30288093286699,2.3039309939808,2.30489259342845,2.30533855432613,2.30420259728613,2.30420779565744,2.30323301254917,2.30317627018064,2.30283565079618,2.30204039779486,2.30150831670127,2.30118873879649,2.30091766084266,2.30031458194296,2.30021979125171,2.30009890818999,2.30040170734431,2.30054931029371,2.30118396667855,2.30170013887103,2.30184433773632,2.30293814271933,2.3035479495681,2.30439765932414,2.30464077426699,2.30551965987852,2.3061967740462,2.30722870986253,2.30792853108638,2.30917806290937,2.31012396520999,2.31102349031673,2.31122339048116,2.31163025603357,2.31191670517034,2.31215169901121,2.31076391770273,2.30750616812243,2.30776089344977,2.30859393249017,2.27414767705205,2.27337071893751,2.272875811185,2.27279973353218,2.27267563829894,2.27284101448183,2.27284885692452,2.27306367206781,2.27284508748637,2.27318184528457,2.27324200076153,2.2738312468061,2.27348583037343,2.27357958281032,2.27351894401623,2.2738051017579,2.27393942273729,2.27444933924686,2.27460334917374,2.27530086016941,2.27586021936334,2.27632156452791,2.2763497789865,2.27735600017417,2.27806734343459,2.27889331629594,2.27986251950987,2.28185958298639,2.28280835421524,2.32791534429523,2.32776927535889,2.32826471965066,2.32927447917698,2.32899135632184,2.3292358771067,2.32895762927032,2.32856521061678,2.3271308736956,2.32620080625243,2.32511439967537,2.32498982198352,2.32352485895184,2.32285474334753,2.32195809576224,2.3215263775125,2.32021661551485,2.31999728020165,2.31949155641786,2.32002208998373,2.3203108945232,2.31998023475519,2.32022977702575,2.32055904094978,2.32116810906628,2.32160185195439,2.32164690874641,2.32291965489001,2.32380726047099,2.32490055066799,2.32545650952658,2.32636071260722,2.32669454521628,2.32705896560985,2.32794237407778,2.32839344776905,2.32929122112061,2.32869427318837,2.3283575659875,2.32748176008521,2.32806802898845,2.28877674719474,2.28812026523757,2.28767819386315,2.28733969795742,2.2868225318296,2.28628864879128,2.28593188742692,2.28514130862004,2.28453569583384,2.28438290373939,2.28264695916874,2.28291195371605,2.28342943158271,2.28381949872829,2.28380372510724,2.28398693427089,2.28384430665698,2.28390925680323,2.28353496080022,2.28361662051267,2.28366507194606,2.28370158253988,2.28338409497343,2.28346171539094,2.28353392510489,2.28358019838703,2.28329994796548,2.28309732548157,2.28321384554344,2.2831637541762,2.28303531236566,2.28336248493068,2.28298514022419,2.28298874173146,2.28345587118159,2.28322262906398,2.28306389611057,2.28331701008887
2.23681319621232,2.23752764823451,2.23847100580613,2.23887727357029,2.23929581201283,2.2396190269443,2.24054442847128,2.24140124124645,2.24199227345687,2.24233579058629,2.24284345416977,2.24339056258876,2.2441202884207,2.24477374352591,2.24566430537525,2.24625963288184,2.24723189651306,2.24848496268141,2.24941845604706,2.25059152712024,2.25169759058008,2.25315058195492,2.25547644910511,2.25669885280534,2.25759538944582,2.29841131670342,2.29865654504855,2.29938249291726,2.30262053743131,2.30404501693218,2.30460583924741,2.30427724440295,2.30373618245775,2.30426489990342,2.30374940793828,2.30312783260251,2.30336764609382,2.30180814822691,2.30138753833086,2.30105297484728,2.3002781476421,2.30029580602787,2.30064206203016,2.30079599071123,2.30027065827221,2.3003492583787,2.30091846415099,2.3019353229512,2.3025960937432,2.30243655933269,2.30347130447569,2.30463727610336,2.30507618941263,2.30528843610389,2.30596466617379,2.3070055773139,2.30777143065311,2.30865305010329,2.31038075019211,2.3109752389811,2.31169742559828,2.31179403557269,2.31217341933383,2.31167413306772,2.30794640264714,2.30646953457552,2.30642380805438,2.27573546565717,2.27427706234093,2.27306147087887,2.27270881378743,2.27278057549694,2.27307787280486,2.27325781259412,2.27287058099887,2.27331110850553,2.27284769176328,2.27275158829181,2.27321750018424,2.27376785877355,2.27353572587652,2.27351589981189,2.27386788804132,2.27475041977909,2.27446715060916,2.27433251914174,2.27493710785398,2.2749205723115,2.27599580946575,2.27589885476981,2.27668623512815,2.27689523860837,2.27784597053466,2.27904907257741,2.28031013246128,2.28169208141269,2.28285525680202,2.28443673578838,2.32803973940745,2.32937716712944,2.32963011590095,2.32883601452142,2.32974015686139,2.32923586025589,2.32812821503671,2.32704563512825,2.32621082324966,2.32552380478537,2.32558079676472,2.32469878620926,2.32264612810703,2.32196749459274,2.32143173204253,2.32123654236704,2.32026964548117,2.31990887993447,2.3198884909877,2.31995201036931,2.32009327231401,2.32025875812119,2.3207917345057,2.3214093003545,2.32159257666557,2.32203262011479,2.32321823513265,2.32370276632747,2.32503168632442,2.32536380739129,2.32616550828343,2.32664331435916,2.32720525425197,2.32781945148247,2.32852196280623,2.32873279278127,2.32851028977278,2.32889561072283,2.32723414954878,2.28977980886339,2.2885836803085,2.28774678146058,2.28729379868989,2.28743513001186,2.28733007440513,2.28708377258074,2.28614200002582,2.28549721579162,2.28452954479474,2.28349610329911,2.28060936482189,2.28051170444565,2.28167552241991,2.28321840526195,2.2838137944646,2.28411013599004,2.28459689776702,2.28402684804239,2.28405460762668,2.28359689013792,2.28378701078006,2.28383283080809,2.28347887834934,2.28354731309561,2.28362024500581,2.28328131692321,2.28334477248331,2.28308309059331,2.28351392160868,2.28322842547551,2.28338089454523,2.28326490789515,2.28345364141326,2.28295420208886,2.2832093841065,2.28260370194885,2.28303246891669,2.28321437400238
2.23718016698483,2.23761915935161,2.23843673083976,2.23898139096122,2.23969944844905,2.23985938171795,2.24052679513639,2.24142729591451,2.24199104982786,2.24245197735825,2.24288671225629,2.24347767673973,2.24423451073358,2.2450287268846,2.24544474583069,2.2461579967407,2.24729614988507,2.24856551874035,2.24951561081473,2.25054425767853,2.25197976715267,2.25365305197566,2.25510549255629,2.25681389385104,2.25854953737163,2.29680553482495,2.29778204535826,2.29892281066401,2.30269023722657,2.30227715299291,2.3038602333818,2.30266113214818,2.30386202205135,2.30293074666587,2.30327862593882,2.30306440198045,2.30193564425584,2.30162049974107,2.30128846357768,2.29996663359274,2.29920291517566,2.29986635010644,2.2998536363956,2.30017891879431,2.30031469518207,2.30057126211646,2.30117706503982,2.30176388833335,2.3017353549429,2.30219963311855,2.30334871709721,2.30425665045365,2.30531000112037,2.30551960844732,2.30591609637859,2.30638747953223,2.3065394129965,2.30812580924968,2.30972236172544,2.31098582487761,2.31160731327556,2.31222790345649,2.31254202600699,2.31232898951808,2.3117514220609,2.30767484566331,2.27521283393032,2.27485303959842,2.27452094438713,2.27300688478919,2.27293996303356,2.27269188483962,2.27242743717076,2.27240200012069,2.27320503890493,2.27312507674609,2.27313731692862,2.27299810846467,2.27305310055905,2.2736273032481,2.27350826839231,2.27368968786555,2.27390490382472,2.27431478035722,2.27421590430363,2.27449788024778,2.27453286373734,2.27503940950533,2.27549082967404,2.2762781390525,2.27612997278472,2.27707345700034,2.27758005933906,2.2789703076049,2.2804921662445,2.28155255860214,2.28259814444895,2.3299446473278,2.32838194350648,2.32988312173362,2.33099617055559,2.33175939008469,2.33021644689328,2.33006559751038,2.32894780806645,2.32780825040903,2.32618116711014,2.32539339678372,2.32525056451877,2.32404344429218,2.32267644017901,2.32194470590363,2.32206179972221,2.32110421402077,2.32081743985835,2.3205935762392,2.3203304000593,2.32024869536187,2.32041196703399,2.32059061111712,2.32107295734008,2.32168022174248,2.32217316153349,2.32254066886405,2.32319662239265,2.3238151758132,2.32513825321475,2.32579271725803,2.32626295737032,2.32750571164748,2.32788453803216,2.32795841844901,2.32861239852636,2.32881484815415,2.32905793689215,2.32934080180084,2.3280637494541,2.28912105742171,2.28864030020985,2.28791641722414,2.28718986686616,2.28752020211346,2.28661528634392,2.2859821960402,2.28528083000453,2.28430335251697,2.28111087633557,2.2797504253005,2.27902184006562,2.2795476063528,2.2796325865936,2.28246573983829,2.28353715202531,2.2845417373884,2.28459975497291,2.28425848711267,2.28366016938842,2.28381963367051,2.28385540460558,2.28415317801798,2.28365058541808,2.28337140149395,2.28330742523133,2.28302600245392,2.28324400371686,2.28321553937891,2.28319863027991,2.28350576577876,2.28328864942304,2.28333119777106,2.28341119206102,2.28337249043768,2.28314742187133,2.28295504265042,2.28332600837735,2.28367420634247
2.23717703079501,2.2379162057918,2.23859857234442,2.23915353044661,2.23965635241694,2.24004652579915,2.24070858684096,2.24149033262654,2.2421437977753,2.24264493661957,2.2431691346836,2.24400339437336,2.24444100368605,2.24514631904902,2.24591665426969,2.24658713631808,2.24753381370212,2.24866743723209,2.24964375763744,2.25069968955871,2.25205466286079,2.25370228295541,2.25539294887617,2.2570813969824,2.25825396103001,2.2974519704223,2.29859793191085,2.29955682014876,2.30074268223923,2.30123159497023,2.30206783837311,2.30233636400778,2.30288185895912,2.30283903265549,2.30301327801066,2.30259315132082,2.30186553465938,2.30148875501398,2.30119902927024,2.30042701939854,2.2999893892831,2.30004332986151,2.3000609668204,2.3001962646977,2.30052100478712,2.30090757897786,2.30135221378564,2.30189659398357,2.30243364039787,2.30308127624966,2.30355176226755,2.30399546929569,2.30477756063912,2.30525590500957,2.30568411419181,2.30605196843531,2.30667333554923,2.30785204582379,2.30946983195571,2.31069070321246,2.31167665110843,2.31229683635293,2.31282237874562,2.31259968386472,2.31203486595157,2.31067494297964,2.27551102753926,2.27528634642041,2.27471485639089,2.27354220057664,2.2730109734315,2.27264145658127,2.27255409408254,2.27270001336725,2.2730528629192,2.27319310600275,2.27325502548554,2.27313157092224,2.27322337379513,2.27342068259253,2.27360366083844,2.27377426250678,2.27398482052518,2.27414000926963,2.27433891150485,2.27451478043114,2.27488505648386,2.27528923174111,2.27586614303798,2.27638762773831,2.27679843218784,2.27748112008158,2.27830660297428,2.27938657901085,2.28083572247333,2.28195997942498,2.28276980442677,2.32974159408496,2.32954720474716,2.33015857911909,2.33095020816315,2.33129457286282,2.33058503964306,2.33001218858047,2.32926320779399,2.32788964962945,2.32663064064069,2.32590091360347,2.32531170917875,2.32405397706813,2.32310877965513,2.32248466399578,2.32211577292165,2.32149514783122,2.32120709275079,2.32112915956963,2.32097001803601,2.32077500079204,2.32091016228318,2.32131786408145,2.32183126091345,2.32210831247784,2.32255975312568,2.32301253817659,2.32361345313716,2.32438122100689,2.32528553950781,2.32610422854254,2.32674577745964,2.32743750017211,2.32792095566819,2.32844217234519,2.32881488417626,2.3290004191273,2.32912092787195,2.32902999496934,2.32830790739422,2.30758462812418,2.28868069619515,2.28823470921405,2.28758637023651,2.28731965300478,2.28680683662182,2.28619068453321,2.28566289117022,2.28448040582614,2.28105207249151,2.27928288198383,2.27869118703619,2.27886352503295,2.27958412512545,2.28139692057435,2.28303061088141,2.28387547017051,2.28417086454616,2.28403454524715,2.28397276948475,2.28382364451113,2.2838252257022,2.2838778649852,2.28372331612074,2.28361305545921,2.28362700821703,2.28340375083782,2.28337912923659,2.28330710089796,2.28331342870473,2.28339105240864,2.28339225441159,2.28336016362454,2.28341258156571,2.28337369729679,2.28334913790358,2.28327972945718,2.28347123589196,2.28361192733351
2.23715532447297,2.23827041413263,2.2388447634368,2.23943413068905,2.2396502353663,2.24005314187733,2.24065246716224,2.24179405399405,2.2423306125181,2.24289657035416,2.24306038477115,2.24496273998468,2.24434658053715,2.24518131371858,2.24650243445315,2.24668312048638,2.24761813539852,2.24888123155191,2.24978915553064,2.25059355127919,2.25183973815594,2.2533823805388,2.25493581781642,2.25682417573443,2.25819591046278,2.29774267330586,2.30039959650567,2.30060493128937,2.29954590629282,2.29981188904792,2.30047754673179,2.30166980454892,2.30217503327758,2.30251290135608,2.30312059395424,2.30232561728357,2.30128780371459,2.30113920588877,2.30145856202447,2.30036168336353,2.30019090674435,2.30005770118591,2.30005325853809,2.2998464825611,2.30057399214637,2.30101276288703,2.30132140265557,2.30188330780423,2.30288314717373,2.30401393641373,2.30360823079561,2.30329933899824,2.30433780359059,2.30497618183693,2.30527147121078,2.30541184345721,2.30599492879013,2.30708777010719,2.30932536892045,2.31049094203419,2.31170496691306,2.31224957654778,2.31383722710975,2.3139219693902,2.31420735222799,2.3125843890127,2.27522207580525,2.27511980571966,2.2746856821069,2.27318100240275,2.27292164790355,2.272441658903,2.27243263676612,2.27278092194302,2.27301022971957,2.27331651495162,2.27344463421117,2.27304482322837,2.2731430707984,2.27326132434429,2.27352597231308,2.27388972708214,2.2738904579456,2.27403568859562,2.27420939026638,2.27448421435925,2.27490015637921,2.27553053024297,2.27598574442435,2.27679561965395,2.27694966858834,2.27793493168353,2.27845730264821,2.27914872004787,2.28055947284955,2.28166802446057,2.28259349604195,2.33077391441043,2.33088731759517,2.33104016362231,2.33143802897545,2.33175448513491,2.3305102174865,2.32978891898119,2.32995663993209,2.32758864405582,2.32636350794622,2.32598639489455,2.32588912649543,2.32345813036278,2.32308825189741,2.32246738589606,2.32230984917118,2.3212431778887,2.32128710186081,2.32143180662897,2.32155023954104,2.32065944515283,2.32103273170415,2.3216403107278,2.32270444489723,2.32208363755392,2.32279629718115,2.32308376191016,2.3236862629319,2.32457620289994,2.32531435762968,2.32636562871303,2.32695553345825,2.32734129192492,2.32763692378171,2.32871860332246,2.3288530992441,2.32905560962003,2.32955010079754,2.32972159845914,2.32800641364231,2.32670296800692,2.2890468062044,2.28843252799842,2.28747296222629,2.28729088498387,2.28713895702576,2.28618602720446,2.28662138937226,2.28687854466004,2.27927955102706,2.27751528414755,2.27757178475454,2.27753231586051,2.27833850371305,2.28044155657862,2.28317117974123,2.28373204100909,2.28399983360683,2.28372504018835,2.28418567776745,2.28367566737157,2.28356019774419,2.28379579759812,2.28359740478617,2.28370059285951,2.28404941306467,2.2835439882896,2.28344756468889,2.28326836431414,2.2832300186646,2.28332633521186,2.28336819441811,2.28329478502979,2.28332948377293,2.28338107501191,2.28334146244148,2.28342634442781,2.28338475902433,2.2835152371143
2.23753602497778,2.23853168963588,2.23943213105777,2.23945631880384,2.23999977030274,2.24027736165968,2.24100889537983,2.24166436819959,2.24234917136841,2.24271851741764,2.24333646867486,2.24403474347608,2.24469849264099,2.24550339700398,2.24678496589226,2.24742493291708,2.24790606370343,2.24975542227644,2.2498834094831,2.25105928492629,2.25275555973405,2.25358571151294,2.25479407666357,2.25634146293715,2.2581883123996,2.29887924013626,2.30005744429067,2.30032427665148,2.30073534224015,2.29992489889923,2.30026663581062,2.30161499348357,2.30180274353294,2.30196893336973,2.30297159391836,2.3026472059686,2.30172469910808,2.30072139479867,2.30040912667669,2.3000207965636,2.30003184361362,2.30016896981158,2.30023258627394,2.30026708820251,2.30064331058784,2.30071385950558,2.30142703842217,2.30201199866561,2.30296789441335,2.30408380541355,2.30480018748566,2.30362130055857,2.30451200729354,2.30660211752469,2.30628060415444,2.30805210640895,2.30701159678672,2.30742110195018,2.31131832044838,2.31217256367776,2.31213934481217,2.31275631187624,2.31359273104605,2.31429216391311,2.31571109130339,2.2764610862384,2.27507889564424,2.27459836198481,2.27357746206907,2.27322324566018,2.27341375174315,2.27307434917886,2.27285979175306,2.27259588407104,2.27256588548173,2.2728822963745,2.27281882482947,2.27273190835872,2.27311270986974,2.27327363763673,2.27338671812334,2.27384545480226,2.27380435401322,2.27412087899662,2.27441723650669,2.27449044454692,2.27524260126381,2.27578527331241,2.27671640205523,2.27676785385337,2.277164143108,2.27778017040956,2.27907298622653,2.2794597130829,2.28072775192119,2.28177103724301,2.28382547774493,2.33147910068577,2.33138428201653,2.33183792764178,2.33162934372077,2.33171780107084,2.33077800553064,2.33065522427006,2.32950279949868,2.3280855945927,2.32703821426636,2.32787559107092,2.32545423838811,2.32377520066149,2.3229409528807,2.32292715113593,2.32278653334005,2.3221230847111,2.32187562701509,2.3214948175725,2.32168374765074,2.3213450078697,2.32126692969418,2.32169040057975,2.3220856234387,2.32253435782628,2.32307755007978,2.3245671216963,2.32429136775879,2.32500916643935,2.32548570571944,2.32623322645925,2.32701678679811,2.32769279473358,2.3282925381251,2.32887170289239,2.3288177497537,2.3285887382471,2.32915244983797,2.32941893440217,2.32994701568401,2.29004634381948,2.28861544523987,2.28860405194999,2.28753404644456,2.28732934796331,2.28711802467632,2.28787789747792,2.28568448599972,2.28586483129995,2.2836530533473,2.27634270536539,2.27659978940041,2.2770672661351,2.27774366310171,2.28309726239223,2.28390866421312,2.28376541346737,2.28400292572797,2.28439730214224,2.2842787633739,2.28339146079884,2.28334926534228,2.28349638372717,2.28360783262378,2.28350982623649,2.28355199898188,2.28352528086857,2.28355787195266,2.28367207526469,2.28356941862221,2.28341914894608,2.28343313111209,2.28365360718165,2.28361936025401,2.28352167324638,2.28291014989865,2.28278887905476,2.28319909884747,2.28362405040162
2.23804922723096,2.23900240658399,2.23952214665005,2.23972830352957,2.24000013384359,2.24050341050557,2.24081367420671,2.24173171327995,2.24226734155771,2.24281938071315,2.24377189232381,2.24417423851269,2.24460285019234,2.24588382838497,2.24663519167658,2.24712815440963,2.24828485822708,2.249239631483,2.25011587391371,2.25194801439862,2.2534308379867,2.25445232306337,2.25619365673639,2.25613368700975,2.25875236134717,2.2999427804159,2.29996578560409,2.30734975100617,2.30143986165708,2.30245806637648,2.301303915368,2.30335784909753,2.30309170233161,2.30240431542497,2.30208339252292,2.30182966654344,2.30183334731998,2.30121495265208,2.30014161389058,2.30002116965965,2.29995043736899,2.29992198416381,2.30025972788036,2.30058022269187,2.30093186464745,2.30069833404309,2.30145138930377,2.30166517232004,2.30243079508904,2.30329472878006,2.30415362369907,2.30500540887809,2.30569238256563,2.3058832090445,2.3070237988683,2.30836270311269,2.30910191835628,2.31006975381337,2.31159381448041,2.3123214617952,2.31272134713202,2.31287603747721,2.31321780791666,2.31440344041144,2.3155559184532,2.27614518587411,2.27491797400761,2.27373529525956,2.27305082316669,2.27266115966476,2.27247595294406,2.27253301946302,2.27297167594418,2.27242419815089,2.27231648881418,2.27254918462424,2.27243865008989,2.2727882084672,2.27297296340162,2.27332458426454,2.27318069537718,2.27371687873552,2.27370514622778,2.27450850259636,2.27475166799687,2.27485512631873,2.27495159842143,2.27559377379285,2.27675959411697,2.27696947208409,2.27704003538503,2.27774156778497,2.27901775241272,2.2799140662051,2.28098891923416,2.28150215891143,2.28225028878099,2.32991412656714,2.33101213696637,2.33126743871507,2.33142874521279,2.33176695050277,2.33094253397616,2.33074733985929,2.33008673896639,2.33029535939214,2.32763499010715,2.32627825599685,2.32472434549855,2.32444545135247,2.32368625161713,2.32337262760561,2.3230351321977,2.32228381497058,2.32219756210496,2.32131540208706,2.32189449755925,2.3216800634628,2.3215108798493,2.32173321516016,2.32215036383957,2.32245691605771,2.32325743890997,2.32379532772084,2.32434367257481,2.32586705036788,2.32603652949003,2.32662293901739,2.32813970881746,2.32864631802748,2.32855943936589,2.32922384003896,2.32918930077316,2.32926203908365,2.32984979434693,2.33032340177092,2.33069446927373,2.2906893913217,2.28859080128814,2.28804308127469,2.28753147485796,2.28703038597959,2.28746776786242,2.28633940512824,2.28391827340102,2.28167691807847,2.27736533894976,2.27648241725054,2.27696661182603,2.27644653331589,2.2770958959718,2.27894539543036,2.27942534413056,2.28340744523578,2.28426587617457,2.28436110667678,2.28400384552411,2.28400678160582,2.28372855412106,2.28391684128334,2.2833328854135,2.28347464735419,2.28362352132034,2.28360985804265,2.28331143742916,2.28362113604753,2.28372061500326,2.28336128570821,2.28338829586226,2.28397080860321,2.28377862034204,2.28337805957344,2.28357065661442,2.28264752889679,2.2825056091198,2.28378502122138
