2.22826680111964,2.22891333207546,2.22920000023987,2.23250264313715,2.2304967072054,2.23077403932452,2.2315166173533,2.23249486922365,2.23281508287397,2.23320826634584,2.2336798598155,2.23420014535099,2.23455009652648,2.23515804612563,2.23540527025747,2.23604195772747,2.23682298690826,2.23733684584196,2.23817032029098,2.23859574788445,2.23885246617736,2.23942869677744,2.23976566836796,2.24032932886687,2.24173842584795,2.24204360849838,2.24221600794817,2.2423274612894,2.24308145656547,2.24323894947331,2.24444291503641,2.24472315291236,2.24507883414536,2.24581482533799,2.24620291062312,2.24668840786078,2.24716389017076,2.24758056026013,2.24843691459138,2.24880843440986,2.24945299957657,2.24971844435098,2.24987643266698,2.25059185400464,2.25128082066908,2.25170504485096,2.25211129022419,2.25236253170378,2.25283180378414,2.25320676325827,2.25413581651569,2.25443453076154,2.25453293117461,2.25585344051249,2.25601683778698,2.25705165329481,2.25710710351367,2.25752821072083,2.25809407580927,2.25846599956462,2.25897043002283,2.25954794646655,2.26037300409859,2.26049125314589,2.26119378143132,2.26158081797644,2.26218390850886,2.26229432777547,2.26310543437357,2.26394769162491,2.26473234178745,2.26497066971,2.26530392959295,2.26558342133559,2.26615724517082,2.26730652824617,2.26781197463769,2.26828617913165,2.26899235003608,2.26964686766395,2.27080049335761,2.27113844635258,2.2714888197775,2.27227954062511,2.27351018538129,2.27452491988086,2.27526747916063,2.27539376000558,2.27657954422282,2.27837500173135,2.2796417489561,2.28131622999083,2.28134468042044,2.28308498092879,2.28484917978396,2.28687208266872,2.28846777748165,2.28911386527866,2.36214964198949,2.36169852690304,2.36266940492494,2.36262681527463,2.36335865568213,2.36473943731347,2.36503951764816,2.36457560023972,2.36444040041454,2.36514746512596,2.36552104217301,2.3665332401924,2.37074274817333,2.37069722603883,2.37082426940351,2.37164754879114,2.37137993836814,2.37239974180241,2.3722756041488,2.37249265910492,2.37201358282865,2.37178542492904,2.37165741452661,2.37258168261759,2.37272975034671,2.37453176822641,2.37359429829513,2.35781626190271,2.31726779589282,2.2897054000367,2.28908296177383,2.28865196247136,2.28907165700283,2.28870505896155,2.28870453663427,2.28818196576333,2.28763774332718,2.28841376681205,2.28884512005485,2.28909458752157,2.28900234890853,2.28891156090722,2.28926118631583,2.28920551488038,2.28916162646101,2.28959600467323,2.2900264822998,2.29002783103014,2.29016765076821,2.28998471723749,2.29087662621958,2.29081956929673,2.29148484065488,2.29174209299261,2.29246449504226,2.29206483476928,2.29273396683383,2.29233188432565,2.29265760850247,2.29268051931209,2.29337079727304,2.29308727920896,2.29361376865134,2.29382802171373,2.29402573345891,2.2946711957482,2.29481847763159,2.29520062948891,2.29528889531254,2.29580519875213,2.2957348041553,2.29669085630181,2.29634799497472,2.29670938484328,2.29716234108721,2.29731058685834,2.29803523920293,2.2979562328447
2.22877455730872,2.22895904862224,2.22934011548614,2.23087292337389,2.23060911635995,2.23070636554919,2.23140337647475,2.23208155901039,2.23235000423052,2.23249008672122,2.23383598050351,2.23418925525816,2.23476407728489,2.23489998673172,2.23485932468225,2.23606741402605,2.23669643869744,2.23718334249015,2.23764825681508,2.23838515805555,2.23871753321225,2.23932355800307,2.24010254401577,2.24027615888997,2.2411284936033,2.24138783089905,2.2420787840068,2.24290736909418,2.24319100656259,2.24405209432577,2.24405647515054,2.24446925713403,2.24452414117621,2.2448996041235,2.2457341749514,2.2465978819273,2.24701462344144,2.2476122792235,2.24811747495638,2.24866084262859,2.24904840887869,2.24950382668066,2.24988532937211,2.25054321386929,2.25077998213871,2.25169227325549,2.25178519885846,2.25218375729042,2.25199263025568,2.25295761711694,2.25401450082052,2.25421881497648,2.25451674612552,2.25520416243361,2.25624716516653,2.25631030175483,2.25673211810658,2.25707361991447,2.25785085460621,2.25852510847879,2.2587561803899,2.25928791150155,2.25967389482967,2.26037647048188,2.26089275398903,2.26193932523199,2.26203561477324,2.26251179400406,2.26289988080114,2.26419571480172,2.26452707206163,2.26489814990978,2.26527738987811,2.26576446560201,2.26709022985854,2.26738223261068,2.26789561546131,2.2683728352274,2.26912304413239,2.26970929941326,2.27044440782115,2.2713516499589,2.27199079091398,2.2729375875565,2.27430183244828,2.27515401386235,2.2762149371741,2.27609542369576,2.27763610127681,2.27970112745856,2.2811006390564,2.28259842668875,2.28324713981371,2.2852214545627,2.28604287099883,2.28768685080509,2.28971272499887,2.2915730154091,2.36068528872385,2.36215873869265,2.36201325496026,2.36275680992397,2.36479645050207,2.36561262883005,2.36585748463994,2.36548249792832,2.36508737847399,2.36511958910525,2.36564693067193,2.36710718150101,2.36923360452734,2.36960169858772,2.3695350637549,2.37042435961148,2.3703733054941,2.37113170075134,2.37124314629171,2.37131752936021,2.3708901947216,2.3712850213534,2.37100362486258,2.3713111975483,2.3717966804403,2.36940456301917,2.37087718815358,2.36846334242647,2.30844954398131,2.28960073674954,2.28893115938739,2.28861339271267,2.2887626520781,2.2884117717422,2.28793898762863,2.28873592147486,2.28792817124888,2.28849214775661,2.28860230734376,2.28892704409016,2.28875566239965,2.28921609927678,2.28889966479453,2.28913633768772,2.28922497416529,2.28915553362612,2.28961564699481,2.28984861833111,2.29009900819197,2.29047535140318,2.29047857630524,2.29084493585077,2.29079809714667,2.29166894008504,2.29225493356114,2.29242630400381,2.2920144872214,2.29249622569106,2.29239366411123,2.29268713040102,2.29309281153028,2.29318709781535,2.29314556904053,2.29358035535861,2.29386794115178,2.29430697448365,2.29450563342075,2.29452786648501,2.29507020827021,2.29536481124163,2.29558469785001,2.29600402022815,2.29643391901799,2.29649524704736,2.29655963634855,2.29724279041377,2.29751665219845,2.29830431332381
2.22907703657379,2.22893953793522,2.22910020717374,2.2299382949154,2.23004118043071,2.23066856543866,2.23102300374874,2.23157891617239,2.2321486953136,2.23313164631501,2.23360616276046,2.23398475444344,2.23450485777195,2.23447950637624,2.23563955751923,2.23617056350987,2.23689313979388,2.23748359066941,2.23790111246672,2.23850351865238,2.23880518611382,2.2391245768233,2.23944789011844,2.24009614102334,2.24041219969491,2.2413631565792,2.24188093460249,2.24251421109153,2.24322708448054,2.24321019197206,2.24434685488111,2.24434373054603,2.24430835441741,2.24445573604948,2.24535816045959,2.24590112125963,2.24666455003299,2.24744347961591,2.24799254831161,2.248121031076,2.24892446418891,2.24942068035338,2.25000388483131,2.25022452828011,2.2506567247137,2.2510692768827,2.25143466178894,2.25157800369433,2.25224542135185,2.25278153712586,2.25371931205193,2.2539321270941,2.25421962777245,2.25513708436293,2.25528956463658,2.25611473017956,2.2563449211307,2.25663935423807,2.25774170851314,2.25823017065349,2.25863719137566,2.25903759893666,2.25972407564916,2.25987053484372,2.26057173528046,2.26123448787747,2.26178274549494,2.26210150103964,2.26317304154447,2.26374763972887,2.2644465729148,2.26480900202459,2.26526987034052,2.26552079432715,2.26643047640128,2.26776319676807,2.2680591367437,2.2684306725205,2.26920700774225,2.27011419435878,2.27112481932793,2.27201247918214,2.27242435089196,2.27388856556785,2.27483394849602,2.27601637691021,2.27724400082216,2.2776022315434,2.2789674848954,2.28118077084763,2.28254696243405,2.2837050243965,2.28497475102218,2.28641010269324,2.36152685072821,2.35969375615397,2.35940515667929,2.35887936957882,2.36125071266006,2.36269736040693,2.3627489060941,2.36306766264284,2.3642245771093,2.36526669167895,2.36522173589739,2.36539032556379,2.36528529837351,2.3654505821077,2.36575688907281,2.36692399241067,2.3679954843952,2.36853572926047,2.36886612590545,2.36946964188518,2.36999066644371,2.37017831786998,2.37007363064202,2.36996625979821,2.36969166542881,2.37032871858204,2.37079769227128,2.36994576626986,2.36837916861519,2.37139038868516,2.36813156623799,2.28961097727343,2.28631467169355,2.28908315179324,2.2895051684196,2.28888499267523,2.28838917110402,2.28813008544245,2.28802446306766,2.28823169142629,2.287634105093,2.28855935552148,2.28850592345163,2.28851076243327,2.28864910830455,2.28851764830387,2.28910515646374,2.28888938762166,2.28896095492675,2.28904079175406,2.28953242333343,2.28985827874052,2.29016038193968,2.29034205286434,2.29074959326452,2.29069915758967,2.29129578102464,2.29126434447044,2.29174597055626,2.29160765978481,2.29188545653443,2.29184496201628,2.29223801384017,2.29230087268815,2.29262678177207,2.29299862435872,2.29328396760359,2.29355505028839,2.2942137516619,2.29410437395127,2.29369958342984,2.29477824553808,2.29475538294461,2.29519575096155,2.29526683267276,2.2967165526562,2.29612840949207,2.29632225040338,2.29644532962977,2.29685689612639,2.29759286702731,2.29811674502558
2.22801465836257,2.22848956973749,2.22908630719861,2.22955991198735,2.23009090115677,2.23031450084274,2.2307779334682,2.2310351039473,2.23177548381455,2.23268581418014,2.23326647086805,2.23363915428757,2.23401259677086,2.23486662752308,2.23543562227258,2.2362081031286,2.23706255207642,2.23889811068431,2.23760973853536,2.23830305659309,2.23865610110421,2.23890706663989,2.23937342414514,2.23971980902799,2.24013424678345,2.2413448256975,2.2415244565844,2.24196499390884,2.24234426403306,2.24320189200268,2.24548059019627,2.24451687545831,2.24418304039498,2.24443706326146,2.24499569597251,2.24559127081241,2.24638513307785,2.24709230977458,2.2476404827338,2.24803538378407,2.24977994816535,2.24929868352711,2.24958542114875,2.24958972936223,2.2500273005037,2.25075013891183,2.25107450964727,2.25154191508766,2.25182936551415,2.2526973130314,2.25307671574976,2.25359910588804,2.25413091412333,2.25471870010962,2.25517854173517,2.25559240712509,2.25606498973286,2.25640913822842,2.25734473184735,2.25773905836714,2.2582145518033,2.25868338950159,2.25884267625735,2.25994051029908,2.26063499631995,2.26130236968174,2.26159112973959,2.26205874366776,2.26267580259948,2.26363902952208,2.26427059913673,2.26469065556968,2.26513083683511,2.26556917840774,2.26664406731048,2.26792666196089,2.268377912893,2.26851890542317,2.26945782573236,2.27035336575569,2.27186046913181,2.27296228876091,2.27316401792283,2.27343176505147,2.27512077810108,2.27660050558157,2.27812122325695,2.27853029928457,2.28085172032766,2.28236112989512,2.35881676583037,2.35842750425403,2.35994286962778,2.36103048775529,2.36145478392179,2.36120700021195,2.36035073663474,2.36132511108994,2.36189021273933,2.36287918171208,2.36338222996205,2.36356623428866,2.36461001823607,2.36522128601113,2.36585655631107,2.36476021113482,2.36494656366335,2.36513856547985,2.36577188298112,2.36635622756166,2.36780130997604,2.36786044841715,2.3683107340152,2.36896701979337,2.36816405210382,2.36856715131345,2.36873541845868,2.36872431420156,2.36841682942425,2.36904555081531,2.36957410020919,2.36909616331318,2.36879486668328,2.36757670397305,2.36732944609818,2.3637212413156,2.28447232716093,2.28842590842475,2.28909594051635,2.28927738531032,2.28825784790113,2.28778899224072,2.28722632659158,2.28770028988575,2.28750965343638,2.28782826450452,2.28796508278335,2.28826930147495,2.28803126565415,2.28847615256303,2.28840987035811,2.28871838965388,2.28866695080445,2.28898009677782,2.28938273009435,2.29041140587418,2.29000042131588,2.29021749769351,2.29007570818672,2.29058793762331,2.29059745611458,2.29099294167193,2.2910195368245,2.2919187374136,2.29155496524763,2.29224584398299,2.2920273227496,2.29213577068647,2.29227568438007,2.29296322218555,2.29293264764023,2.29303685248516,2.29319255681504,2.29325767178171,2.29369843626654,2.29395865351603,2.29445856839314,2.29451176331033,2.29576601433381,2.29622964537461,2.29644981001925,2.2963252981013,2.29636146082525,2.29729357586805,2.29722664173088,2.29827136797174
2.22767007377511,2.22809915648554,2.22842612671493,2.22949781759375,2.22962637236181,2.23030339234516,2.23041987533143,2.2308030891711,2.23104749363341,2.23250575242367,2.232929334193,2.23332452843891,2.23357711778987,2.23419670435079,2.23499241183299,2.23637334445755,2.23650009792302,2.23664144703194,2.23727918062902,2.23762599569374,2.23810995774574,2.23846875201682,2.23878086060779,2.23932918887081,2.23978078756536,2.24040928044365,2.24102902135721,2.2411607003721,2.24230212241266,2.24265606996045,2.24359330505662,2.24389697754291,2.24412603133036,2.24441556148528,2.24505021718559,2.24568925899853,2.2461629754302,2.24669769471765,2.24728842410642,2.24773335073175,2.24784295987179,2.24837470464237,2.24859668766987,2.24907892353923,2.24973431209162,2.2503838966524,2.25085700063981,2.25153873579944,2.25219379273355,2.25225777632035,2.25302504035545,2.25329005510185,2.25367731239977,2.25473352704719,2.25466364290877,2.25532085710996,2.25576793049208,2.25620401207824,2.25695391897579,2.25783452521535,2.25841922337393,2.25852771346908,2.25859848235348,2.25912086844124,2.26052167948683,2.26090493500211,2.26143421494281,2.2618364801629,2.26251049722719,2.26306770326877,2.26364576150125,2.26472493822494,2.26552665660915,2.26608293813189,2.26727708954014,2.26815428269125,2.26884734170534,2.26914261265767,2.27014563560991,2.27149233882051,2.27275513749189,2.27422419514658,2.27452506902864,2.2752858624946,2.2765191965535,2.27792864462178,2.27927097308903,2.2813672273436,2.2824017262202,2.35792405075057,2.35808610752507,2.35788264255786,2.35886730731835,2.35992283438229,2.36085810983706,2.36110975598205,2.36056154065289,2.36167434714397,2.36174942124026,2.36283365698114,2.36357383525388,2.36376205968307,2.36434612119393,2.36547870560572,2.36621316780505,2.36465023500523,2.36444686429929,2.36430860551101,2.36519177958267,2.36533023463467,2.36601382967099,2.3663537086635,2.36632003764596,2.36768225635719,2.36777951178486,2.36712366919548,2.36761375028894,2.36746365494013,2.36844378741229,2.36818123117142,2.36848994276649,2.36801231719974,2.36739366015135,2.36702289808344,2.36471809873431,2.36464377091176,2.28453922874614,2.28758823270548,2.28802306813636,2.28806307103848,2.28749977139321,2.28749069456379,2.28733623006141,2.28723767217248,2.28754586040641,2.28756718203983,2.28768679052769,2.28737054624055,2.28789423610697,2.28766515392136,2.2885019340103,2.28848080310947,2.28875252330329,2.28907018297672,2.2891297403116,2.28943400384106,2.28956378257664,2.28927735117463,2.29005485713053,2.28992007413846,2.2904962780124,2.29049680582979,2.29077671384164,2.29043840079268,2.2913301864627,2.29145448265015,2.29183871596145,2.29199421009042,2.29178232327529,2.29243222050958,2.29242632240863,2.29271868197749,2.2926513103512,2.29320962726472,2.29338566975678,2.29402927596355,2.29425948792608,2.29480994741215,2.29501435974748,2.29605561182979,2.29640057187196,2.29619291581626,2.29618602804375,2.29634310996457,2.29752668419315,2.29860830814967
2.22722007451904,2.2276082156666,2.22793824364891,2.22940183499302,2.22998904964223,2.2293311640932,2.23017312816127,2.23075315473942,2.23143285902045,2.23258254772692,2.23268511410929,2.23315562178831,2.2334611228609,2.23431638892088,2.23469605937791,2.23501267391111,2.23570755449914,2.23609812208527,2.23640631570761,2.23672516290942,2.2378238290317,2.23817356134761,2.23828617045001,2.23870982812997,2.23986144635642,2.24084330126362,2.24090564459704,2.24110625872374,2.24184767047344,2.24252041619431,2.24289605285663,2.24353019450664,2.24404289149521,2.24423072235182,2.24527021658195,2.24591998484448,2.24594532161814,2.24602998710009,2.2466186632037,2.24690363599556,2.2474487619692,2.2478637092538,2.248049297442,2.24909039438342,2.24926628065145,2.24934277043558,2.25019973532169,2.25058362766688,2.25204232969805,2.25222239454363,2.25251848995271,2.25286924947788,2.25288412236546,2.2542796547667,2.25452678803349,2.25518965213526,2.25572247921558,2.25617755422854,2.25692841842764,2.25751243299089,2.25860795502982,2.25855202972928,2.25860242366212,2.25967809467343,2.2603488415025,2.2610293978574,2.26133487399128,2.26158359017241,2.26299450281159,2.26328257768543,2.26433369590804,2.26500891731384,2.26536346892406,2.26594467593966,2.2673783600976,2.26816849851468,2.26956256334194,2.26979386805572,2.27138226018012,2.27347087155298,2.27362209516407,2.27523909343119,2.27540996949618,2.27677415779945,2.27863442375701,2.28069435430319,2.31678709391115,2.35548260052486,2.35025623856468,2.35777858031908,2.35794747785797,2.35757270272616,2.35890123555079,2.35926359513347,2.36046877699273,2.36119354041072,2.36052750262294,2.36088700878338,2.36133893887991,2.36244819165422,2.36389369107711,2.36338362355671,2.36334811328013,2.36325347987548,2.36362606917595,2.36331606567505,2.36371984447657,2.36391221337971,2.36378497287542,2.3645620111602,2.36489625847731,2.36548152977658,2.36569243108691,2.36688746985475,2.36638774896321,2.3668096036274,2.36680900181014,2.36677967649666,2.36713315502455,2.36690975999076,2.36719458975798,2.36706440786417,2.36662031825723,2.36746464294758,2.36653421596698,2.36503229929398,2.28464400990825,2.28714124481529,2.28771121785992,2.28724729712866,2.28724060323627,2.28732309255809,2.28717155072651,2.28709744414391,2.28806753933574,2.28760254901258,2.28745076101624,2.28742705132307,2.2875693897917,2.28807377132736,2.28818278495161,2.28841239782124,2.28846906156141,2.28908644402993,2.28983618580451,2.28930349802466,2.28922313124992,2.28923160483013,2.28931666285095,2.28985468529441,2.28989183598837,2.29032535398821,2.29029574574127,2.2909050677381,2.29081680879136,2.29155963285237,2.29165360625117,2.29196559767065,2.29220647099267,2.29203798543388,2.29242175628076,2.29254453885739,2.29293567729599,2.29344026421176,2.29338857950845,2.29357473965557,2.29414173565072,2.29458151466592,2.29522489983379,2.29582086040486,2.2959413697209,2.29600616292199,2.29605672936303,2.29690151271347,2.29685288116067,2.29880242726717
2.2270562035212,2.22740959138223,2.22776488141128,2.22833437219091,2.22887889678022,2.22969730580441,2.22983530427001,2.23022476065723,2.23072071999936,2.23215559256751,2.23242401750345,2.23319580371636,2.23415209451635,2.23423541476268,2.23458199205102,2.23501823704763,2.23551228497354,2.23574288524586,2.23675305291257,2.23713781180869,2.23771910741164,2.23798207678482,2.23826632581351,2.23866544160078,2.23959518380191,2.24069559785908,2.24084916559186,2.24118544678577,2.24135016508371,2.24191991264381,2.24288074849156,2.24316059986917,2.24348167135663,2.24406540523411,2.24473685419289,2.24594050949057,2.24566453733011,2.24575960735343,2.2461344752252,2.24675233131456,2.24720174833873,2.24747710885668,2.24775769630342,2.24859521383648,2.24953240493922,2.2493275884691,2.25029495666241,2.2513358178938,2.25156622713185,2.25195592189187,2.25231137960575,2.25284692785331,2.25354631343604,2.25414767960358,2.25448405084264,2.2552859312532,2.25556436444803,2.25626543555991,2.25686955996771,2.25736473796555,2.25821056057825,2.25846536033261,2.2588335546236,2.25935396342883,2.26023811397864,2.26103395081145,2.26151101556392,2.26194520295293,2.26257019820427,2.26377831142703,2.26460987454808,2.26567740478572,2.26608274389417,2.26680773034506,2.26795958111173,2.26946250408331,2.27034824285734,2.27072204970953,2.27192281224565,2.27353608384795,2.27434581128463,2.27616220715742,2.27670822397444,2.27733412688489,2.27972573826826,2.35536539007269,2.35501227626835,2.35561810315091,2.35671416550175,2.35753087838167,2.35764643041169,2.35754068214369,2.35866887950694,2.35937748443411,2.36011864467237,2.36246272325775,2.3606520747958,2.36036839344308,2.36092848898914,2.36152931446415,2.36223728197661,2.36247557264753,2.36220194543947,2.36300698933638,2.36265705944042,2.36296833892319,2.36312928205372,2.36341096411341,2.36382246824448,2.36353512890025,2.36438073058912,2.36454639729114,2.3648552053595,2.36557958931053,2.36533081794187,2.36603970374962,2.36621376289743,2.36621291944048,2.36590974803737,2.36560185389449,2.36626349947489,2.36629666634674,2.36675444264097,2.3678233495348,2.36708464501957,2.28889699029441,2.28806979578625,2.28817179680194,2.28783885433258,2.28769307301466,2.28704611803911,2.28754417895829,2.28829308617416,2.28791155681396,2.28818337363181,2.28748921261006,2.28745794513316,2.28723483218724,2.28784805612687,2.28764330291812,2.28819916926716,2.28809642691841,2.28826395559303,2.2886722096671,2.28928850474557,2.28900708214949,2.28911342551475,2.28908758723211,2.2898656549585,2.28947947696887,2.28979696019862,2.29013067433331,2.29077933853676,2.29052043224825,2.291129145627,2.29103778212565,2.29147747932218,2.29168229795431,2.29185379904367,2.29191016453906,2.29209423588379,2.29241105848033,2.29249536373571,2.29311172370472,2.29326850837033,2.29388446590807,2.29391098424716,2.29429807949648,2.29459560905095,2.29523366934751,2.29541952757897,2.29577145634608,2.2961563948217,2.29658570271277,2.29684700556977,2.29733146190256
2.22707649089774,2.22696024051337,2.22724231979249,2.22734911605588,2.22862723148657,2.22905403470291,2.22964751480253,2.22999216759265,2.23109978301653,2.23161503633892,2.23247503299299,2.23303832978956,2.23329156785011,2.23418485521253,2.23414656451163,2.23492947010779,2.23529645971993,2.23586889115337,2.23646915130577,2.23730994374246,2.23779387698759,2.23802705594515,2.23825647540228,2.23904098911975,2.23977493396367,2.2400849206185,2.24042763596923,2.24070244026309,2.24100764132486,2.24209150098072,2.24253619100416,2.24289024254778,2.24320206603745,2.24394283898315,2.24410647261934,2.24472202114775,2.24505917902948,2.2451485768148,2.24608278319241,2.24648696454772,2.24683744673277,2.24725025589897,2.24758258353975,2.24865441710669,2.24915231637519,2.24960603877457,2.25009244891112,2.25081337990883,2.25095069263227,2.25174060268527,2.25210719462948,2.25264240309479,2.2533980628476,2.25385563066815,2.25448886613402,2.25489134966183,2.25533687691756,2.25543807057554,2.25648684242914,2.25716611478074,2.25825550371369,2.25838274166577,2.25852626033317,2.25942709091985,2.26028253042782,2.26076940300146,2.26173763363914,2.26239295805023,2.26308240593336,2.2642339821606,2.26501825849749,2.26623383246196,2.26618518741442,2.26703372504404,2.26872824104773,2.26956980225148,2.27081986661273,2.27125229505234,2.27298117136972,2.27465574652187,2.27569328095893,2.27689259915718,2.27756338770901,2.35513235798973,2.35522011061656,2.35515695188285,2.35479545263058,2.35534294794416,2.35605073138486,2.3573274043633,2.35771921225554,2.35766565037852,2.35853238345533,2.35868868748453,2.3597323823518,2.35981013520136,2.35981310680019,2.35959931360283,2.36043856064154,2.36108529662529,2.36111464622877,2.36175846616387,2.36236127599823,2.3624216203842,2.36247584345088,2.3619918580786,2.36234118163983,2.36264962100183,2.36274004860628,2.36313946310138,2.36369267272607,2.3637378426488,2.36352152844789,2.3640579629717,2.36380226593792,2.36685103913879,2.36542349596786,2.36474017692737,2.36438815130615,2.36496067602695,2.36534298977856,2.36524005614791,2.36493176482285,2.36673634071008,2.36883160739179,2.28928804580112,2.28786715174027,2.28788567605386,2.28787405287263,2.28761644900659,2.28745446336525,2.28730467532728,2.2875823416987,2.28702376135107,2.28689130869262,2.28747099875856,2.28736289443493,2.28763659719142,2.28814319484061,2.28839668446734,2.28761786654637,2.28792974382454,2.28801257075138,2.2887580685787,2.28889265079539,2.2888654626419,2.28892498599068,2.28908138792384,2.28923052928119,2.28963103612621,2.28967643506052,2.29007732188226,2.29047832329207,2.29120587538099,2.29120491760755,2.29151623370008,2.29143303444707,2.29200056692665,2.29204292321206,2.29181047052165,2.29231821985395,2.29225463317118,2.29246882663267,2.29269246643516,2.29314773990804,2.29312246276344,2.29352326067639,2.2936994131163,2.29490997904042,2.29538814147413,2.29557203935228,2.29573522665773,2.29597570485858,2.29669481385337,2.29644659580841,2.29706756921724
2.22564645345035,2.22643086738809,2.22667176696653,2.22806589371923,2.22896663042797,2.22889342597121,2.22931624527989,2.22995833620399,2.23060433001825,2.23208959291553,2.23295525229073,2.23327750133684,2.23421440818644,2.23399742217104,2.23460602394999,2.23458354828044,2.23520344415418,2.23558769262522,2.23678542397038,2.23687542567803,2.2374968141925,2.23782050460657,2.23829680972143,2.23873494587434,2.23973747084048,2.2399715899027,2.24032767601236,2.2403980988274,2.24110672947749,2.24125350255733,2.24235806849487,2.24261684053464,2.24301443888165,2.24401494447461,2.24399945430177,2.24435512975314,2.24469333447447,2.24503500621471,2.24586230024555,2.24622706095533,2.24665570993003,2.24700661985343,2.24743475370752,2.24780297139726,2.24864161695418,2.24923566478815,2.24989340082491,2.25067013657768,2.25092635858322,2.25116806369382,2.25170299643827,2.25230456724705,2.25273602142561,2.25316843786983,2.25410925342103,2.25479925202696,2.25523412073167,2.25593154619191,2.25653644867655,2.25724793587398,2.25789130917158,2.25839138735832,2.25869707966705,2.25913367944194,2.26034626594322,2.26089436637501,2.26217111519631,2.26253454197134,2.26330342913746,2.26530743205714,2.26579619798949,2.2672378289607,2.26757751686891,2.26815103822548,2.26896678537852,2.27058211451227,2.27124428364074,2.27203872742863,2.2742565283333,2.27527107947744,2.35424373611717,2.35332405446606,2.35399471038945,2.3543423676567,2.35507903625207,2.35523865785744,2.35484347058145,2.35552605759104,2.35641391166265,2.35695454521454,2.35757339620162,2.35762793696399,2.35834399347826,2.35820661211505,2.35863381423322,2.35896308181725,2.35917696750333,2.35949674887694,2.35960814837245,2.36005131335947,2.36126864870571,2.36120144927626,2.36162336784477,2.36205103825892,2.36119789276437,2.36146207922625,2.36152894418223,2.36165708752096,2.36203404330313,2.36216226479744,2.36304803139219,2.36283449884029,2.36286991411201,2.36269757146615,2.3632294312491,2.36414040542031,2.36412545013349,2.36342013368558,2.36398559981987,2.36363869562405,2.36485332366872,2.36426377925703,2.36474178950844,2.36501584980527,2.36206985576393,2.28897251096096,2.28862283741934,2.28803303853869,2.28670133006955,2.28704656607658,2.2868165961128,2.28692570217766,2.28634166071093,2.286496118695,2.28667414038742,2.28743675136737,2.28714078051571,2.28684669157481,2.28755408459515,2.28774852895585,2.28782967686256,2.28764270624862,2.28760970352465,2.28838403150201,2.28851499884798,2.28860891114805,2.28872523675116,2.28878426999721,2.28927248445392,2.28937593913944,2.28946073117737,2.2896554977408,2.29002544613892,2.28991975413829,2.29093154936953,2.29059626996578,2.29086593106663,2.29102176136566,2.29119520895898,2.29203651925176,2.29190913299712,2.2920924940707,2.29220204513884,2.29257084150507,2.29301915683426,2.29310199502602,2.29332480040183,2.29351855801919,2.29415189840188,2.29445902430548,2.29548859093471,2.29546710386663,2.29578178364909,2.29581094725177,2.29635429626049,2.29663649168453
2.22579309687992,2.2261147611697,2.22643253278775,2.22708034461472,2.22811388023892,2.22857085359784,2.22919189253832,2.22954701196781,2.23069599029432,2.23103199210456,2.23191389191004,2.23282498260087,2.23377974328427,2.23381099212821,2.23433759168592,2.23448098400043,2.23508224720269,2.23547926717707,2.23615002898037,2.23734262938537,2.23716878507194,2.23780253047259,2.23824277687775,2.23903502341208,2.23997336272486,2.24058258407536,2.24025521857416,2.24029450558757,2.24073682023243,2.24141440639788,2.2416091832585,2.24229168963249,2.24264496452487,2.24341796927805,2.24355932301019,2.24394306459745,2.24437870842039,2.24461825366702,2.2452343859734,2.24592079660675,2.24622041548547,2.2468349052984,2.24733792437827,2.24789799582268,2.24849632091196,2.24914133959219,2.24944966897037,2.24952299082227,2.25060096435332,2.25114537674555,2.25160987010392,2.25212304887428,2.25260275681151,2.25273034414569,2.25382032344477,2.25469108311121,2.25526811336085,2.25523191294607,2.25600253472098,2.25703679212078,2.25779233199321,2.25853837903063,2.2584843891494,2.25936802046488,2.26079928553977,2.26224447409614,2.26288698009429,2.26257761041512,2.26368804574841,2.26452661486443,2.26549079880131,2.26792589141191,2.26899943883835,2.26873038218298,2.27116596004983,2.27087722562009,2.30985847541361,2.34969057717116,2.34968781833967,2.35098634700528,2.35342092812747,2.35309396047857,2.35409516260531,2.35448686474264,2.35487639807784,2.3557778568856,2.35509603793733,2.35585965539282,2.35669991983863,2.35701545871906,2.3567130981272,2.35718376807357,2.35754958802503,2.35766757067688,2.35794297766505,2.35832600734988,2.3583164137989,2.3580803214345,2.35862131495835,2.35880998219336,2.3594783462203,2.35986721335544,2.36018943396841,2.36004279200485,2.36007484604249,2.36033811639621,2.36068784912437,2.36119207280194,2.36142201847327,2.3616064326162,2.3618128043675,2.36185433866678,2.36162200980619,2.36186315862503,2.36262937304318,2.36338819291143,2.36317274729715,2.36295973167606,2.36238043607283,2.36245311004572,2.36191540497927,2.36245268820162,2.3618094352968,2.36086188584189,2.36101205515951,2.28885684316458,2.28921228654947,2.28886764910799,2.28777581975946,2.28699896180649,2.28696063366825,2.28684980862562,2.28667548248601,2.28635341809998,2.28639534268807,2.28675959982595,2.28676651947373,2.28666742297889,2.2865343339187,2.28719811137211,2.28712819356155,2.28748121331502,2.28772285081418,2.28782723294299,2.28819811205588,2.28857574395706,2.28859096848838,2.2885676653972,2.28885295504797,2.28890565392083,2.28919387499755,2.28933406701634,2.28917915927165,2.28988540955975,2.2897253822608,2.29010988299304,2.29038723551116,2.29029695155506,2.29123095876693,2.29133245038943,2.2917746329467,2.29180031253073,2.29187780958098,2.29258199472564,2.29268174162359,2.29303571972457,2.29315882950321,2.29322762429638,2.29370867161734,2.29423265177764,2.29483825939166,2.29518345569842,2.29498958861584,2.29597004715297,2.29618767866677,2.29759345212306
2.22659588492638,2.22616916896297,2.22629267252328,2.22696445384318,2.22814026483458,2.22852297571878,2.22892971596321,2.22941327354679,2.23016927051341,2.23089404571309,2.23173309203397,2.23247167547952,2.23292744836147,2.23317661428281,2.23427509103404,2.23510470834109,2.23544365868558,2.23611929666086,2.23614654123601,2.2368066059148,2.23745326023014,2.23762474395689,2.23807063696028,2.23816365485487,2.23921644669719,2.24069168014719,2.24014657973234,2.23954613752706,2.24106020698239,2.24096469770562,2.24228562907225,2.24225542080612,2.24258295084456,2.24306354464557,2.24362553583326,2.24399227244835,2.24429874210488,2.24451580371167,2.24527384990462,2.24575814507365,2.24625444906453,2.24665882776742,2.24716579883334,2.24744313415664,2.24823296394666,2.24869972201826,2.24945465103113,2.25004786165822,2.25079714398787,2.25091769974493,2.25164913441414,2.25209016115431,2.25256415879612,2.25297711317004,2.25373734948719,2.25463605452543,2.25557294788462,2.2559492833842,2.2562390238871,2.25721691490801,2.25811134690412,2.25908968525204,2.25923055501041,2.25999398438659,2.26119011707415,2.26245969179784,2.2635291937318,2.26310142425113,2.26437313695679,2.26503657263356,2.26696670456445,2.26904022119099,2.27128943108151,2.27070139790982,2.27221186204357,2.35148616646874,2.35075045994803,2.35028419662499,2.35071913041839,2.35139301222708,2.35292312202799,2.35293593339515,2.35427025738725,2.35438306423192,2.35499792085286,2.3552188031384,2.35538946815205,2.35622337876726,2.35804791974721,2.35569253877406,2.3562729364162,2.35650202525619,2.35679475099339,2.35671028816593,2.3572903043194,2.35783298240029,2.35750871242042,2.35739874566934,2.35757519227099,2.35803650227828,2.35828724415945,2.35885994902578,2.35904842631247,2.36008585577092,2.35774702601164,2.35935932948642,2.3595559957726,2.35998783895782,2.3615193185091,2.36062960343635,2.36075570174001,2.36097344516534,2.36131083592683,2.36131360519191,2.36184713636402,2.36366903275392,2.36240469788191,2.36141667873178,2.36174567663323,2.36162976197754,2.36316010099538,2.36168296027607,2.36095199871683,2.36288584125839,2.28995433734326,2.28856562515215,2.28877731843136,2.28821507796242,2.28759294371518,2.28780634374421,2.28795828954946,2.28726971572047,2.28663769038081,2.28629490375213,2.28594790840481,2.2864457364415,2.28662616054402,2.28663483717462,2.28674908440486,2.28671580102159,2.28716015214583,2.28724311842937,2.2874456009578,2.28756582299228,2.28775722318569,2.28839102126221,2.28834329055149,2.28860734656012,2.28867519602182,2.28905180326929,2.28885128296585,2.28910874539033,2.28930233695535,2.28962818841832,2.28992155660601,2.29009267121466,2.29033432747334,2.29056002937982,2.29086584780122,2.29148951598381,2.29146237605092,2.29170412652846,2.29174060287529,2.29230862470751,2.29295997722819,2.29298828404056,2.29318469610816,2.29324420199827,2.2934542765831,2.29396696002215,2.29517911198235,2.2952315322453,2.29552723464607,2.29592037230367,2.29670709936168,2.29776564095733
2.22435668648457,2.22532583769888,2.22602950682709,2.22711599232477,2.22828800315449,2.22864449270513,2.22903254131347,2.22934531305403,2.23088044302096,2.23117796842062,2.23169900190216,2.23227461336447,2.23278614215998,2.23376806945132,2.23419228575894,2.23437953341592,2.23526149532766,2.23654880089961,2.23579198845305,2.23693264036955,2.2371277498477,2.23757507606928,2.23773065421591,2.23794986835959,2.23869346960839,2.2401749425948,2.23979812696662,2.23952913145904,2.2404623397864,2.24110668320528,2.24159145494211,2.24193459508395,2.24230873432795,2.24240454127622,2.24332300224249,2.24383167802897,2.24428109099561,2.24509311177006,2.24482558546261,2.24559740382993,2.24596500557005,2.24654969062933,2.24704877065097,2.24711767599365,2.24798828016656,2.24834369190279,2.24958505959047,2.25124679873662,2.250497953448,2.2512276891711,2.25161423679283,2.25210850809742,2.25229234007571,2.25268533370006,2.25438938583554,2.25512200058485,2.25630331407261,2.25649484541734,2.25698447001353,2.25737893589833,2.25871133686651,2.25956023013507,2.25949307137214,2.26043968091537,2.26203439602699,2.2629396158946,2.26436019964084,2.26467115306406,2.26554027585741,2.26585816624786,2.35414399638126,2.35238287880488,2.35226737523808,2.35257828519359,2.35286544745592,2.35210209812912,2.35118275380373,2.35132281171844,2.3512790429491,2.35267775476244,2.35335157516091,2.35339835562393,2.35461075368629,2.35491731539981,2.35479072765145,2.35549863061562,2.3552430609684,2.35538022794608,2.35535429767873,2.3555690730257,2.35556554075832,2.35586147329353,2.35606073063762,2.35623853802763,2.35576456144034,2.35624664909955,2.35649590683501,2.35656686014479,2.35667211500151,2.35742080933236,2.35838479786022,2.35791691047331,2.35813148944912,2.35737746048222,2.35539356663933,2.35678316083467,2.35833273978427,2.35923500082379,2.35986037896677,2.36022597142059,2.35965197552625,2.36000862388595,2.36029558091277,2.36050713907796,2.36096731194466,2.36087038104551,2.36109181734798,2.36120667947959,2.36118220391227,2.36128019931482,2.3604346849469,2.36045843025288,2.36053426531018,2.3617906479492,2.28913134853333,2.2884992151153,2.28839142825118,2.28742152267298,2.28740269876074,2.28727881262777,2.2878933146272,2.28720632071492,2.28723071037899,2.28599652902162,2.28610137538593,2.28662595422786,2.28663783305405,2.28684672472656,2.28654688590127,2.28687571519755,2.28674604551396,2.28703068483731,2.28734346421836,2.2872450532097,2.2878466730354,2.28781085476092,2.28806603991344,2.28796006448887,2.28872149778617,2.28872762162347,2.28920004673369,2.28909839603284,2.28902573387515,2.28989296138562,2.28954989287793,2.29046015660639,2.29031749108504,2.29037395407139,2.29108541081565,2.2909651392469,2.2915651314306,2.29160700369717,2.2918677847033,2.292293419674,2.2928115393655,2.29367230187408,2.29323601149127,2.29316310438386,2.29338255659072,2.29411462194844,2.29522657317557,2.29533144099803,2.29549562456921,2.29654782763303,2.29711605024644,2.29780528643575
2.22433443302367,2.22515155502396,2.22554329534821,2.2274136548432,2.22772913782562,2.22856475875638,2.22880567396031,2.22938585825708,2.2302317210321,2.23100116899522,2.2316530612659,2.2323156039567,2.23314047845658,2.23356094425235,2.23371814730814,2.23436161605672,2.23488292372686,2.23531028990247,2.23647203540336,2.23671714928289,2.23737608212309,2.23748560137705,2.23767744313051,2.23804586122965,2.23907105112947,2.23940056552541,2.23967748325022,2.24007965098118,2.24106058732753,2.24093689513076,2.24118541498747,2.24153610601736,2.24186461690661,2.24249081913046,2.2430433813917,2.24386309324458,2.24398607683577,2.24407430738122,2.244266731882,2.24561998614548,2.24591021368935,2.24643868720116,2.2474808390207,2.24739332993236,2.24824190132776,2.24880926546775,2.24943916208949,2.24959462656117,2.25001470130015,2.25098899232766,2.25167734828482,2.25251199804026,2.25271039886803,2.2540019005675,2.25453238026104,2.25662368820583,2.25691072469201,2.25638073156718,2.25625793260308,2.25723465385087,2.25876952495809,2.25994409060038,2.26022072520922,2.26122135003372,2.26287785692245,2.26435585887654,2.26519183362878,2.26591305620149,2.26703267084974,2.35286757091425,2.35297724484245,2.35217133958012,2.35320565426154,2.35265882994433,2.35260696119305,2.35274842986512,2.35176948804369,2.35227216217672,2.3520367724462,2.35359934743547,2.35420563526959,2.35390054092708,2.35485993997787,2.35468426866793,2.35484155973909,2.35625355650075,2.35509945212346,2.3544528851971,2.35521128540488,2.35490421939839,2.35501162142179,2.35499537057238,2.35521935918734,2.35524559980825,2.3551470549549,2.35580588275767,2.35564475223711,2.35576145998357,2.35575927275972,2.35626550226978,2.35665207162087,2.35662796157364,2.35620491862727,2.35493426318999,2.35452278504955,2.35724069406869,2.35754444781293,2.35831585672858,2.35824441481173,2.35868650473313,2.35871548115428,2.35912488536542,2.35951475384416,2.35926364868029,2.36062341914959,2.35997478116731,2.36005189172387,2.35999580338368,2.36115540722002,2.36015147123705,2.35884653578018,2.35907071680447,2.35924633654097,2.36045838617067,2.35838841122231,2.28800531022361,2.28793016082308,2.28706285886978,2.28707627575187,2.28700163339839,2.28630892700361,2.28690575726261,2.28743240353266,2.28620653818132,2.28621346323595,2.28646453063252,2.28650463058106,2.28681163456243,2.28649590565291,2.28625796092699,2.28657817832035,2.28676509711185,2.28681429813816,2.2873760767606,2.28727911645818,2.28756526395594,2.28779326715281,2.28815430599031,2.28804432432587,2.2887945253286,2.28880979072549,2.28901196917836,2.28924176912595,2.28928806729869,2.2896791939732,2.28994058582528,2.29008999693384,2.29020961906005,2.29046285616714,2.29095830169625,2.29125188587223,2.29151588195154,2.29183569459326,2.29216697457823,2.29254102801559,2.29282215296495,2.29309731000281,2.29331227482892,2.29349858558672,2.29407071218173,2.29482025112458,2.2952059217841,2.29567346653113,2.29644551724203,2.29695327451775,2.29791279178482
2.22427769161086,2.22503189675349,2.22580186959994,2.22668249357509,2.22779552367206,2.22797941316325,2.22865595209241,2.22911634065621,2.230055285082,2.23098628389763,2.23163361506561,2.23205818057813,2.23271919150671,2.2334669339947,2.23404212991466,2.23398254601914,2.23444680167087,2.23503174474813,2.23618256392125,2.23662886293547,2.23717683628839,2.23766370784124,2.23832442083491,2.23820869830252,2.23844044509579,2.23881704697437,2.23914813492941,2.23962180972024,2.24031326518074,2.24093266799352,2.24077258593172,2.24127952541156,2.241471368608,2.24200301382227,2.24260368953817,2.2433084319732,2.24365145419126,2.24368454075087,2.24387213869938,2.24479877907811,2.24515995501808,2.24602428246384,2.24640932942287,2.24717636657103,2.24784766872667,2.24893079835689,2.24955176228616,2.24954158080997,2.25029939615232,2.2515322989075,2.25231788661996,2.25334987152747,2.25301689559189,2.25420874953988,2.25526453118283,2.25633413403424,2.25746175302342,2.25732348203049,2.25856789807439,2.25850412566482,2.25935576234201,2.26035442126038,2.26124054341353,2.26264138255886,2.26273602209273,2.35219039379569,2.35154558882661,2.35222941422239,2.35466943076164,2.35284090256017,2.35235950041296,2.35167420697379,2.3522806638027,2.35237942558103,2.35247149051893,2.35289537370913,2.35223149142116,2.35318534880271,2.35225688608283,2.3543679278982,2.3547474751664,2.35421135209125,2.35465620804164,2.35488616356931,2.35356039223967,2.35393184788329,2.35397095402981,2.35402160988311,2.35394212389958,2.3539900857723,2.35383771691455,2.35420163300236,2.3542629262154,2.35468095159223,2.35404455617281,2.3544703558327,2.35456007433916,2.35451867703294,2.35509095641946,2.35506234473681,2.35528311696653,2.35545295987437,2.35567775538751,2.35592745108038,2.35438538220002,2.35565719084328,2.35655421012449,2.3573645977894,2.35746932878945,2.35762485849913,2.35813053444825,2.35817500413464,2.3582736126554,2.3584026768131,2.360539981146,2.35901391053915,2.35894629562575,2.35880206188993,2.35909865045428,2.36061155478359,2.35741187739159,2.35808766934761,2.35803902619314,2.35875884725726,2.35732952454147,2.28763868613761,2.2876776246094,2.28684248842039,2.28667380409462,2.28639114243399,2.2861005299597,2.28627507652088,2.28636670203449,2.28576006415597,2.28616863307143,2.28589021460822,2.28615454693157,2.28630957942448,2.28645280291897,2.28658789801626,2.2864116940855,2.2866750132969,2.28701443888886,2.2867359475614,2.28725940832748,2.28756648434676,2.28787681638707,2.28808545965484,2.28828900565522,2.28789592681208,2.28888196373978,2.28893368754538,2.28902911389693,2.28964388847547,2.28940526918152,2.2898694639834,2.28992556580145,2.28999703449899,2.29069188274099,2.29025132933194,2.29082622080596,2.29113756415353,2.29142622763181,2.29214494549231,2.29219832495338,2.29259602333405,2.29292112437957,2.2932294262495,2.29357256316542,2.29416220298849,2.29430334884967,2.295193400082,2.29579047490676,2.29646875684898,2.29702170255526,2.2984573372118
2.22499103938982,2.22527285271052,2.22561586586326,2.22686945373335,2.22761635814783,2.22827644135425,2.2283602988746,2.22864519163043,2.22978486411638,2.23065002771185,2.2309794955626,2.23172347502447,2.23202902668075,2.23284503526416,2.23300841353122,2.23401277532831,2.23405369914149,2.23435589027536,2.23560411591774,2.23635753703961,2.2375394280925,2.23742300291874,2.23746808470381,2.23776518622673,2.23845674778722,2.23808841755775,2.23877876095537,2.2389407491279,2.23986272272666,2.24047352926285,2.24103305321227,2.24124959599905,2.24163698702055,2.2419777938466,2.24246033799261,2.24328956937495,2.24380444852055,2.24441407992839,2.2442504184394,2.24455000266252,2.24543495370614,2.24604538084931,2.24632080867737,2.24734333917983,2.24804487010451,2.24872122800786,2.24976668549476,2.24946899911822,2.25077551221236,2.25158957439325,2.25276122892937,2.25480627103296,2.25608211639887,2.25541543219346,2.25693955793224,2.25711979893592,2.25837404557428,2.26012271482735,2.25911176788349,2.26062664700465,2.26231145661849,2.30722700332753,2.35143673079954,2.35316252958114,2.35166267650639,2.3522138292974,2.35157198924853,2.35237271920964,2.35243811669065,2.35217410595184,2.35222509737023,2.35165499353543,2.35217109099647,2.35261548577146,2.35257274389298,2.35260636206121,2.35240119345753,2.35262331599565,2.35292025348788,2.35392170920085,2.35377446994075,2.35341327530736,2.35323972003416,2.35284254081583,2.35285673788924,2.35283851806718,2.3531459895009,2.35302620937936,2.35354841771663,2.35296481959141,2.35402223747424,2.35346498672914,2.35326101437182,2.35299042050974,2.35336781411869,2.35308511810348,2.3536791517466,2.35389322345342,2.35451448574713,2.35427016572074,2.35437397440023,2.35452870488617,2.35447548916663,2.35518425638914,2.35429030464105,2.35506148628778,2.35542207469457,2.35679272008616,2.35619319902237,2.35701036726207,2.35729352010274,2.35731209167616,2.35722052790868,2.35735430010108,2.35790853278535,2.35771269548299,2.35808884066104,2.35850154906798,2.35875229627947,2.35912772469607,2.35767168833695,2.3577446884572,2.3586439883488,2.35718554502176,2.28874023610828,2.28755786472128,2.28753662249704,2.28698212614008,2.28592755341854,2.28618477086438,2.28552803278334,2.28610121413256,2.28607631032869,2.28587795840879,2.2855708162992,2.2862325341254,2.28593108334831,2.28566812258692,2.28618069778423,2.2858908912024,2.28633822287551,2.28657541148113,2.28688683611131,2.28697387256688,2.2871640314381,2.28758516240538,2.28755963407922,2.28798442509086,2.28814359020094,2.28852712939444,2.28858637826541,2.28884650403712,2.28929343652517,2.28897705622736,2.2895340389079,2.28939606064381,2.28972458980789,2.29002492935162,2.28983276774131,2.29059286118753,2.29061788185062,2.29105123081074,2.29118000687835,2.29182771939272,2.29232363607476,2.29266078278338,2.29285418219482,2.29306328455029,2.29359093519476,2.29420290664182,2.2948957386372,2.29542857881352,2.29596731729923,2.29679232658357,2.29822606707041,2.29877022800471
2.22470162443597,2.22511923074985,2.22586090943816,2.22666908074627,2.22728644432032,2.2273634795725,2.22820660341912,2.22898823748901,2.23007708094939,2.23024709817487,2.23088488959337,2.23171969564107,2.2322172373348,2.23333753892934,2.23190033621735,2.23242374623618,2.23336824883035,2.23504222243215,2.23590771591944,2.23674101271399,2.23710179406847,2.23724433709732,2.23727190278172,2.23787165461681,2.23844178179737,2.23846470884554,2.23872052343685,2.23927859668249,2.23952386834576,2.24035826281934,2.24089282984444,2.24122273274289,2.24151750273435,2.24198279988649,2.24265197292038,2.24287750655088,2.24372489469328,2.24493916126497,2.24490588672407,2.24471817912986,2.24540811905009,2.24654652250732,2.24716554264897,2.24775250963885,2.24850314342483,2.24848504217029,2.25026684993942,2.25036356432457,2.25126428225056,2.25221485669685,2.25392395123136,2.25577330357504,2.25564387668197,2.2558903579837,2.25685951490876,2.2563759016768,2.30523973404711,2.35192833408049,2.35420802032194,2.35430100467531,2.35172757883786,2.35077493967885,2.35054482538213,2.35247732000631,2.35257872539947,2.35317652956327,2.35164939975754,2.35212110635411,2.35226257854619,2.35222795997954,2.35258893677912,2.35196216446274,2.35264101540922,2.3523703520798,2.35253825426643,2.35312317214579,2.35264317453462,2.35289738119555,2.35256204369103,2.35338246376236,2.35286639273921,2.35265058331983,2.35189584159111,2.3520100556092,2.35195243546571,2.35259796814904,2.35237547735411,2.352458814671,2.35198609390309,2.3523316034658,2.35277725470726,2.35270478279267,2.35277247200158,2.35273820747728,2.35303344505837,2.35302970517828,2.35315301799844,2.35379543241883,2.35303888982561,2.35317956368816,2.35364366799076,2.35366130087227,2.35384056637318,2.35366304562969,2.35279998048219,2.35226781226698,2.35359282669807,2.3536082533521,2.35546260889715,2.35581617419496,2.35647792862685,2.35638675254001,2.35633854077719,2.35665670992725,2.35672367511206,2.35690668848063,2.35701004420134,2.35705845022905,2.35644878882312,2.35667987096517,2.35698075952182,2.35693492240446,2.35667940219857,2.35691149587284,2.35768889831533,2.28720074180393,2.28745108381356,2.28730819620224,2.28614655128895,2.28665166731656,2.28670729806775,2.28621832612731,2.28662141144396,2.28536393350624,2.2858721058143,2.2857117380106,2.28571564612936,2.28562841645048,2.28549704088491,2.28617321156009,2.28617534208715,2.2863684442925,2.28660924028303,2.28730043751199,2.28720858747962,2.28677107102158,2.28736137585023,2.287376671052,2.28844531200323,2.28837227947874,2.28844743493704,2.28853099210942,2.28861958142085,2.28907025489087,2.2889706124083,2.28951534817761,2.28961554645601,2.28967153485586,2.29022592225193,2.2902308291014,2.29082180740575,2.29102817771019,2.29140701040257,2.29228509143111,2.29227805538366,2.2924190556057,2.29279712105562,2.29298880115279,2.29440392410377,2.29548076946916,2.29540799557772,2.2957007353545,2.29622149402761,2.29696752356412,2.29881291845743,2.29984962450418
2.22416816300202,2.22499085041448,2.22523694496337,2.22671922627029,2.22675644087687,2.22782940834586,2.22785184246272,2.22809755296085,2.22926396042902,2.23008104952073,2.23068907250747,2.23196098158783,2.23307497584691,2.23397663381921,2.23163748554911,2.23038585372846,2.23218692705611,2.23572975215362,2.23595111674755,2.23633736387135,2.23694184382433,2.23706661747057,2.23722842389672,2.23832451299705,2.23874362814724,2.23836467702709,2.2385947084621,2.23868391676196,2.239121573896,2.24017132719096,2.24081795738634,2.24107208923515,2.2416176258033,2.24239865555618,2.24279103770864,2.24340365704189,2.24351604260315,2.24334137545997,2.24394815696383,2.24459498387885,2.24581946576572,2.24709523575702,2.24739510149866,2.24765134518685,2.24903633342271,2.24962786346393,2.2511540936498,2.2504871371156,2.25201164213688,2.25319232851021,2.25552033565259,2.2571187650724,2.25807725219658,2.25813677412242,2.34692139177595,2.35208437405858,2.35201648247082,2.35297912137662,2.35308626334846,2.35354339694865,2.35055447448229,2.3506017861217,2.35135082701857,2.35243390396844,2.35318249230626,2.35188421286964,2.35137510729908,2.35186750250829,2.35216540411127,2.35239881804406,2.35250433858055,2.35187650425094,2.35196188552903,2.35236505500047,2.35222365647546,2.35213995920979,2.35231235309878,2.35235725029979,2.35222513418159,2.3527288941334,2.35308938663283,2.35207319747658,2.35155402947372,2.35140199803759,2.35241231491945,2.35171762963539,2.35170145413675,2.35156058754915,2.351912387732,2.35127690573075,2.35160069857887,2.35160482935264,2.35187765078387,2.35155926575059,2.35235144473832,2.35209205866285,2.35227736325136,2.35245322189766,2.35205678719143,2.35285060047615,2.35289886840945,2.35277390138714,2.3527994153827,2.35325103056795,2.35349662120902,2.35161119285092,2.352867140488,2.35366436843576,2.35430918817204,2.35545950380078,2.35533214872994,2.35563692401504,2.35613062532104,2.35587982045826,2.35667341092942,2.35595162019355,2.35619482573124,2.3561637055605,2.35608878896621,2.35567299291076,2.35633363172261,2.35627625558815,2.35666434127638,2.35674955000777,2.35658518003426,2.28726850023333,2.2871791668246,2.28631859707596,2.28586673097201,2.28569065250873,2.28583296747839,2.28571454200937,2.28526747741795,2.28555403502881,2.28537348470269,2.28560230488674,2.28559172389633,2.28551510320922,2.28574356538773,2.28624520210794,2.28606507538823,2.28621194570023,2.28629210978135,2.28755773843368,2.28663138371779,2.28728836583179,2.28716878203829,2.28734363568052,2.28763999547571,2.28803879619897,2.28794968024624,2.28829937736662,2.28854116831714,2.28874830620668,2.2892076269288,2.28929025694019,2.2895033902043,2.28968505313944,2.29032816169053,2.29078800891809,2.29086313688616,2.29115942724391,2.29142936832997,2.29222317509183,2.2923972205656,2.29280923259243,2.29290237694719,2.29330400033988,2.29393929685022,2.29484286454099,2.29518471205795,2.29583127921865,2.29613637979452,2.29719485455094,2.29910357032048,2.37662176097178
2.22471040626709,2.22515773291339,2.22596636917276,2.225938014456,2.22664007905585,2.22707524188728,2.2275178543738,2.2276980124349,2.22915917343327,2.23046540616768,2.23139598411818,2.23180573649296,2.2339098477647,2.23622672078032,2.22768453108446,2.22808554369364,2.22901188977251,2.2275969630191,2.23596932940239,2.23599137855381,2.23665878165949,2.2369412991381,2.23736800670176,2.23781795192761,2.23809546481863,2.23806292737033,2.23843530658346,2.23894835749513,2.23948153210298,2.23997543344007,2.2403805483033,2.24082657313906,2.24103547785111,2.24192400466153,2.24188182215051,2.24345455716608,2.24339275187609,2.24359847398861,2.24418688283543,2.24501540957595,2.24617016077413,2.24792357175921,2.24816417246933,2.24989307786314,2.25055968397195,2.25182453669153,2.25311738924741,2.25568897274506,2.25510369823426,2.25490975975268,2.25605119238154,2.25770041376897,2.25858955591973,2.34627813993942,2.34827411507618,2.35139053760511,2.35138535374278,2.35197526802543,2.35272932458635,2.35295179333817,2.3506895527245,2.35060776988947,2.35150426366819,2.35256649750972,2.35265054466138,2.35185630857749,2.35141237299618,2.3519048155061,2.35328953561621,2.35188025645413,2.35171923394276,2.35123590386801,2.3513312702698,2.35238717863324,2.35163210591515,2.35163794179941,2.3520399789901,2.35307604524642,2.35200516956191,2.35227094454891,2.35162857013439,2.35123257189642,2.35083488128772,2.35122260171739,2.35103497734689,2.35098763890056,2.35088788669184,2.35119071060625,2.3515981659131,2.35068721451897,2.35057963799678,2.35054593344959,2.35042430615939,2.35089860484545,2.35108754062931,2.35140579796238,2.3512928365897,2.35125952179518,2.35106038876695,2.3514551838364,2.3520015211439,2.35180849345196,2.3520091479503,2.35233887821886,2.35387518729219,2.35285777880037,2.35286210555974,2.35321761338956,2.35409456491972,2.35423957611415,2.35433288601424,2.35451669652803,2.35483835781735,2.35495393005027,2.3561421286278,2.35598300449227,2.35546662903334,2.35538697519444,2.35483565362776,2.35509616742288,2.3553408920107,2.35564439810663,2.35633599802054,2.35751075393128,2.2875813899811,2.28744514817271,2.28706689927317,2.28648241172741,2.28612099009336,2.28594944295925,2.28590028382911,2.28533573088368,2.28496508966355,2.28558708129173,2.28540211340965,2.28519515456532,2.2855779432847,2.28600792202263,2.28555896432022,2.28591026741193,2.28594232539591,2.28607618885124,2.28639947197656,2.28675053685679,2.28735254923314,2.28730181911252,2.28725541305094,2.28709592988197,2.28785563774772,2.28716577822392,2.28796704976003,2.2880786699312,2.28823017658839,2.28865675005719,2.2887197174432,2.28933018420695,2.28952548381952,2.2895679063,2.29023464703241,2.29032389792622,2.2906711308508,2.29100839206862,2.29139342190901,2.29202386523375,2.2927430735021,2.29233860359247,2.29280568635178,2.29293878126426,2.29384204728136,2.29474713895702,2.29559683084554,2.29629523288023,2.29685463166788,2.29778881039972,2.29829710449759,2.37694652695953
2.22501398849053,2.22522220273949,2.22600887341309,2.22590935717334,2.2258773876875,2.22691153372999,2.22729114730581,2.22760534727248,2.22886895669779,2.23019334831257,2.23099310572154,2.23099667369048,2.23456338076451,2.2223451476508,2.22455195188463,2.22802111982039,2.22773498898407,2.22721157246497,2.23467096713088,2.23562177175793,2.2364510500027,2.23666457585256,2.23684579968861,2.23745363307849,2.23760156727503,2.23788906684001,2.23831480036185,2.23853192271257,2.23944637911274,2.239762292678,2.24032008138489,2.24063982672191,2.24116964561176,2.24199083131045,2.24196353682095,2.24285752252973,2.24322726372154,2.24356771464879,2.24405088403732,2.24551988904791,2.2469839277646,2.24874901141477,2.24894904231463,2.25072309470315,2.34724937089645,2.34847079272473,2.34842052957117,2.35027063006431,2.35165994417665,2.35158458506111,2.35181841479441,2.35071941710955,2.35063156458752,2.35081973854799,2.3507931530664,2.35083935329864,2.35079193637357,2.35132190779896,2.35183125854361,2.35219543900011,2.35113802470986,2.35071150619822,2.35148450409792,2.35292244038882,2.35314265328792,2.35188408823532,2.35122035083833,2.35099928349105,2.35106547545994,2.35106973259886,2.3500032185691,2.35011901347178,2.34996613792576,2.35114766683374,2.35097541228815,2.35123181174621,2.35104012213775,2.35097589310758,2.35143994246645,2.35266924935378,2.35027190446959,2.35023879059526,2.35042426784173,2.35038855315082,2.35043130706514,2.34992004943032,2.35007335624983,2.35004142601088,2.35022709071091,2.34955750142491,2.34922598836468,2.34943414795891,2.34965595198655,2.35007569683698,2.35036809818269,2.3505916046537,2.35052621965001,2.35030338112272,2.3506047765662,2.34995068611894,2.35006709025897,2.35040216625995,2.35062289710313,2.35143547193683,2.35264062686002,2.35236155005073,2.35236923920114,2.35270668073863,2.35348145184843,2.35346610678683,2.3531376553645,2.35355230241523,2.35379640594554,2.35423365267866,2.35480893156749,2.35481093129112,2.35453305880966,2.35385907739226,2.35396565364458,2.35417258040449,2.35468528387545,2.35472665054142,2.35517779824582,2.3559010247271,2.28817214117847,2.28693265589566,2.28671488283957,2.28598789283109,2.28686485277332,2.28542705841446,2.28513854269947,2.28499469903006,2.28463813959144,2.28520016572226,2.28484025166778,2.28526230895916,2.28554224628094,2.28619337551769,2.28563573979065,2.28556378534281,2.28584539371138,2.28586766980242,2.28575449959863,2.28631767620673,2.28663210099572,2.28715461394262,2.28690844224705,2.2870754526461,2.28723565150906,2.28756664804671,2.28742760360812,2.28795273985456,2.28828088989782,2.28833796528723,2.28895522472769,2.28936584749844,2.28959679215827,2.29000896353223,2.28983190612907,2.29034568085181,2.29064501199492,2.29112581566254,2.29197175198023,2.29176249503935,2.2925483793522,2.29349468714145,2.2929567787647,2.29287395661988,2.29341067756214,2.29445388853299,2.29588862974045,2.29688955073588,2.29720211397591,2.29861232233736,2.29885427399708,2.37743807228323
2.22378393619806,2.22448366480261,2.22506902008596,2.22564726126299,2.2263233532822,2.2264384948213,2.22727955085232,2.22816511468532,2.22899894003094,2.23007147459869,2.23097450875456,2.22732561332408,2.22262891302711,2.22242235968893,2.22130211000175,2.23268716906695,2.2274053331426,2.22665013139782,2.23394485160779,2.23475926649682,2.23586457520535,2.23645673237001,2.2369026051885,2.237426230385,2.23756999416201,2.23796009915794,2.23828895061019,2.23861720219166,2.23908225691987,2.23916373954126,2.23991504100903,2.24048234193724,2.24094087216183,2.24298602422514,2.24221314844897,2.24243522476148,2.24290221435588,2.24311726668172,2.24379746871434,2.24569826382844,2.24773071603152,2.24966088763059,2.24977016308507,2.34456181669857,2.34596262851587,2.34734215732182,2.34753708233989,2.3487712098072,2.35003542895067,2.35087178935886,2.35130668666151,2.35046804623665,2.35069101627117,2.35065025794983,2.35123702664316,2.35095816743993,2.3507235614142,2.35097546349339,2.35153889590404,2.35162945021942,2.35099001188006,2.35056253108389,2.35102339344607,2.35340377311832,2.35332605884327,2.35322959379492,2.35091016891369,2.34940245332441,2.34993694968268,2.3510127163557,2.3488400404936,2.34895676306129,2.34911371510084,2.35031585068209,2.35007038164833,2.34982075674596,2.3500519952323,2.3499792803758,2.34996848139417,2.34906874931031,2.34893544939766,2.34925713999054,2.34903333461812,2.35029025923079,2.34967007956024,2.34979547504023,2.34922690067172,2.34905718393821,2.34863097639074,2.34894539199259,2.3483617974755,2.34862288842666,2.34855255619446,2.34969696558076,2.35037204025569,2.35016543942102,2.34973420015988,2.35021235267135,2.34918338278955,2.34954622721039,2.34906974531902,2.34941391531637,2.34948082209428,2.35005057198107,2.35148699929211,2.35195189121211,2.35175451496559,2.35175263365353,2.35260751561103,2.35184699515926,2.3523485257979,2.35253580209422,2.35298780451833,2.35375327338533,2.35455907329054,2.35488706338041,2.35387649566254,2.35379431026405,2.35278673027661,2.35379135978265,2.35431212518892,2.35400804809292,2.35388875929396,2.35329618584968,2.28708519076088,2.28643920333798,2.28641528860618,2.28596079907986,2.28607671458952,2.285038710905,2.28471236257591,2.28469003499586,2.28477068319415,2.28469611740861,2.28519781474748,2.28482844271276,2.28519127921005,2.28534742309388,2.2854568280748,2.28574092615956,2.2858764265961,2.28574896353777,2.28580976102948,2.2858396048399,2.28657763069295,2.28643912784773,2.28671063143725,2.28664664724591,2.2871308209248,2.28724181109611,2.28783097631899,2.2878942554064,2.28818073865485,2.28837721144988,2.28840969154018,2.2892646853787,2.28961996090064,2.29006944631058,2.28968768351576,2.28959433894555,2.29034604440246,2.29055759433958,2.29074377379545,2.29119799619744,2.29248228286425,2.29238084964799,2.29279476719956,2.29296796768304,2.29426786081315,2.29533904799249,2.29603088715647,2.29767189690537,2.29845381457765,2.29856763916047,2.37667494829306,2.3768363050151
2.2235167561073,2.22408696570594,2.22450011352498,2.22572877332229,2.22574287454023,2.22655685431876,2.22716807911967,2.22786346810079,2.2293436507439,2.23044459707262,2.23257251313067,2.22445340987002,2.22023639028971,2.22234559632004,2.21996954854077,2.22068381922038,2.22313596025782,2.22337925235622,2.23410781090939,2.23529903602693,2.23585747523252,2.23640710943556,2.23707199876065,2.23739366086458,2.23783226081603,2.23858406242385,2.23840573482741,2.23869779595864,2.23875942289617,2.23910861508266,2.23985966905981,2.24026724748864,2.24085270885664,2.24250305106025,2.24168253634935,2.24224598178582,2.24299857214405,2.24379530040699,2.24615706577107,2.24888937258442,2.24955860904553,2.25062064195488,2.25109460334907,2.34076135887074,2.34615326663317,2.34695090401653,2.34699924874683,2.34858792562548,2.3496915277852,2.35063443281237,2.35099312426256,2.35021922295909,2.35069213023894,2.35088064011328,2.35101739077628,2.35134596957799,2.35093729436282,2.35118767422924,2.35085494036072,2.35117807170856,2.35089102637779,2.3503050804854,2.35049497992003,2.35168951273277,2.35245784762346,2.35063425114848,2.35017208572301,2.34947357325083,2.34874583366419,2.3480688662061,2.34844597368767,2.34792890329083,2.34769854358015,2.34784993815148,2.34825613282181,2.34890090580623,2.3492187061986,2.35018648642653,2.34855454439786,2.34873824089655,2.34828047025608,2.34879635955995,2.34923308474517,2.35019897137789,2.34907125843734,2.34876699007198,2.34839404507325,2.34798532910577,2.3480457429691,2.34804357498883,2.34805906215272,2.34800395189843,2.34843202139703,2.34806588469668,2.34819677088231,2.34835371970133,2.34843475465712,2.34826217142297,2.34808367492818,2.34861978063295,2.34852927517815,2.34850502856779,2.34867092835706,2.34866797525486,2.34963923078298,2.35096739224571,2.35091974429575,2.35135481227996,2.35079472613459,2.3511954263329,2.35112485181917,2.35162253959633,2.35175581699731,2.35226881882623,2.35266012950438,2.35252187235897,2.35246738943326,2.3518074345614,2.35233640173319,2.35298529331744,2.35426097575222,2.35334947660732,2.35349794243982,2.35257463549644,2.28637776645773,2.28672342475147,2.28624688158791,2.28563586911752,2.28545075065333,2.28472665813886,2.28437125549498,2.28453547279813,2.28441781843137,2.28504594488352,2.2847956360731,2.28511501380748,2.28505848213879,2.28500309720787,2.28519775816858,2.2849983321698,2.28554444816192,2.28557079710611,2.28544235348283,2.28600644028686,2.28583530078231,2.28630974155615,2.2863720380904,2.28662238045374,2.2870375481346,2.28751610138383,2.28747635476285,2.28776766187209,2.28793902723576,2.28858089012542,2.28875552157409,2.28922576415946,2.28940418486922,2.28978346441415,2.28957356827397,2.28986423103047,2.28983498394424,2.29032927514468,2.29045699197272,2.29109508454209,2.29152546138105,2.29225777988071,2.29282987729765,2.293180704913,2.29431223004682,2.2954522870522,2.2963806432981,2.29820249533077,2.29894658358268,2.29912892857521,2.37443738779524,2.37683858977905
2.22326293993277,2.22365068733233,2.22412475777208,2.22494261665213,2.22572809156408,2.22655811342748,2.22699169817853,2.22759733956818,2.22798454392695,2.23078769750789,2.2324414413725,2.22240317911029,2.21813805154905,2.22018845538947,2.21945518511308,2.22031667288171,2.22180000661508,2.2218545370076,2.23398933244062,2.234965210869,2.23597222402966,2.23620734962225,2.23652379256917,2.23733672450988,2.23731188035006,2.23754080229126,2.2379433124896,2.23838897741291,2.23868637538552,2.23901764647206,2.23939467953248,2.24006252307723,2.24059260465554,2.24278477324933,2.24204829395893,2.24232920262968,2.24292143642827,2.24340595236841,2.24613253777456,2.24730815935655,2.33695794408643,2.33596747750721,2.34087878904202,2.3428912781927,2.3449603159274,2.34698127837907,2.34701801488536,2.34892644312809,2.35017583002158,2.35083905719851,2.35108680433869,2.35015935454471,2.35079922741921,2.35087849155416,2.3515701498987,2.35183482358154,2.35162350908645,2.35250698040848,2.35154727631471,2.35121855072688,2.35089524348346,2.34998513088739,2.35043420951651,2.35156068330524,2.35040049862581,2.35352616218783,2.35059048910764,2.34937428107507,2.35035448895116,2.34965653055999,2.34696465381719,2.34649480527296,2.34653216749918,2.3466359735791,2.34787884202048,2.34798338824396,2.34795553495694,2.34858211215964,2.34795346505436,2.34773266155584,2.34812021291832,2.34861437300118,2.34965698226954,2.34877464454878,2.34781493452409,2.34765168823617,2.34737854028244,2.34743648252431,2.34701220835293,2.34746794195814,2.34771950816969,2.34726199236029,2.34680139379616,2.34728970389132,2.34684698402436,2.34725054897642,2.34716526223171,2.34752009500963,2.34692065884139,2.34732631217738,2.34802006307156,2.34785431192929,2.34766591857427,2.34806315775803,2.34846194217446,2.34940224150557,2.34976014386967,2.34998508260482,2.35001609481049,2.35019714888738,2.35081563063913,2.35078048118203,2.35105691862018,2.35111782980357,2.35150551116104,2.3517390381272,2.35164685722563,2.35149689455997,2.35171538196598,2.35349097830427,2.35406064358934,2.35230150962379,2.35107920742258,2.28785007597347,2.28650926400729,2.28627854090466,2.28600313149403,2.28573959253875,2.28483549513757,2.28461223993092,2.28462751235665,2.28443445270256,2.28454561978448,2.28438054659261,2.28499080023017,2.28492103234833,2.28499720919097,2.28510723757817,2.28458154152912,2.28534760952107,2.28538666746809,2.28547576615975,2.285616799178,2.28593143048767,2.28622667150942,2.2859324628466,2.28630753175703,2.28628201417555,2.28671315548997,2.28716939696879,2.28745590234928,2.2876147020162,2.2880604405282,2.28869257318767,2.28916404794675,2.28889482991972,2.2891413504547,2.28908681797922,2.28970100645417,2.28957502184483,2.29006932547288,2.29026443450433,2.29052406512987,2.29137837397518,2.29170498864577,2.29275863564295,2.29314552221173,2.29382197975388,2.29443037480763,2.29620942631713,2.29675862985577,2.29852556897574,2.29919304234004,2.30029934290228,2.37591438861649,2.37651448344468
2.22303290212786,2.22335119193293,2.22362045048878,2.22455109697553,2.22538628481892,2.22653205905681,2.22673181879442,2.22669886233791,2.22817591608623,2.22925324600963,2.22159277303515,2.22225961844807,2.21614578822745,2.21900741955941,2.21948644749406,2.22005834497837,2.22129680231562,2.22193416926344,2.23377643144807,2.23479553571303,2.23552182038492,2.23603386949693,2.23663151597261,2.23693233974819,2.23718320695421,2.2372278629937,2.23760949728916,2.23765404025451,2.23865326534892,2.23911682520581,2.23977877310908,2.23985102256506,2.240166922692,2.24079906449218,2.24103668008145,2.24221176335878,2.2430085233565,2.24413658628013,2.24516311654613,2.24581154219401,2.33542897366959,2.33552404570672,2.33684441668938,2.34405619980408,2.34555248326991,2.34704504784944,2.34724368703417,2.34933044330195,2.3509853020575,2.35199633738602,2.35180339931799,2.3505205771487,2.35135644586237,2.35166570192417,2.35266097276643,2.35286968790173,2.35202980512193,2.35380072622428,2.35197483841189,2.35188296650202,2.35020233942928,2.3493772573222,2.34992167529946,2.35105752680955,2.35220554744137,2.35308375200319,2.35027954747617,2.3486203075796,2.34854749406193,2.34675654157931,2.34543412775604,2.34550463738022,2.34571608891663,2.34658160533454,2.34527352274497,2.34508803035744,2.34580531203727,2.34643570864412,2.34662766340742,2.34777503661932,2.34845002167395,2.34790836359085,2.348266388493,2.34685750219958,2.34751320543783,2.34640987936093,2.34648625459361,2.34652032767481,2.34716131527673,2.34653767499187,2.34647877387808,2.34637454522318,2.34633403355212,2.34618845195327,2.34657747205844,2.34569819151107,2.34588938935579,2.34572237173162,2.34587839521129,2.34646561618776,2.34712093245506,2.3469752534486,2.34760393751245,2.34717787997758,2.34778511515724,2.34803468505194,2.34876342967209,2.34977987208409,2.34866444910999,2.34945732656964,2.34995426452232,2.35008170879011,2.35012928132036,2.35091272118943,2.3508031495918,2.35105265162715,2.35094732841055,2.35119129447238,2.35105729139282,2.35117260044338,2.35169236080027,2.35124111119926,2.3520010125913,2.28735086051757,2.28607052408549,2.28555153622056,2.28554076485802,2.28530081880104,2.28473183192579,2.28434761992861,2.28415318945341,2.28435742621022,2.28433739187156,2.28422746664971,2.28422178476195,2.28471081324404,2.28486257834641,2.28520391589284,2.28556086691244,2.28515165297467,2.28545062621263,2.28545287684403,2.28530410344989,2.28600711002931,2.28582205955091,2.28662887141769,2.28624275418915,2.28629454135779,2.28634552161944,2.28684442680465,2.28707221573878,2.28734860163561,2.28756720144505,2.2883611652111,2.28842239129216,2.28872753968305,2.28901781500638,2.28931036003887,2.28940001966046,2.28973671232086,2.29011212469051,2.29031400489585,2.29049783151225,2.29115533794199,2.29201010933641,2.29251919720161,2.29317060353226,2.29357412079974,2.29561330166599,2.2964345314653,2.29785421143003,2.29894005537856,2.29993497456033,2.37048479059745,2.3753971297186,2.37617930365685
2.22245582455461,2.22289440936616,2.2234698962934,2.2241055949057,2.22527187291524,2.22642527953762,2.22657175824094,2.22688519267625,2.22690776948165,2.22835568467531,2.22619226976918,2.22327351969991,2.21859837636939,2.21728554520674,2.21931202683159,2.22038163320375,2.22171214534857,2.22166373208347,2.22317564471666,2.23447075207711,2.23532121431477,2.23575928000407,2.23625421575421,2.23697135592919,2.2369381781739,2.23721876705639,2.23746393415512,2.23779007563381,2.23867273106558,2.23966592318395,2.23945092366135,2.23954546434671,2.23962224964859,2.24017903303856,2.24075672953212,2.24159933446356,2.24270445896142,2.24342068789836,2.24488187254378,2.24660051833915,2.33534321822434,2.33503774858866,2.34017348250977,2.34631762245331,2.34436057229868,2.34697122206072,2.34718955055968,2.35018297664678,2.35175273987207,2.35292111805229,2.35199165695963,2.35051361122923,2.35207590209143,2.35304756908205,2.35404859598152,2.35318154272606,2.35179468989549,2.35470177822328,2.35059929349504,2.34967291157646,2.34852002683655,2.34860624793818,2.34927346353472,2.35100448146604,2.35184260407893,2.3503621974939,2.34966704377603,2.34886900469092,2.34895716551782,2.34598934902051,2.34567765521956,2.3453939578013,2.34641996683668,2.34631545649722,2.34542363450561,2.34374364054805,2.34422244026705,2.34449833728794,2.34551074959447,2.34694468877925,2.34743668051913,2.34652175045871,2.34576121062798,2.34608170938722,2.34571628748992,2.34567580117764,2.34541595033786,2.34514516041391,2.34558180041633,2.34558326243246,2.34675001420339,2.34579980554955,2.34545931078525,2.34502391396878,2.34697170211643,2.34485581676234,2.34482849820582,2.3449479691208,2.34483435782136,2.34538757669405,2.34537269745734,2.34579175519077,2.34592709448768,2.34663647987061,2.34654670559138,2.34703698852745,2.34760354054468,2.34800389756014,2.34864663072563,2.34853317085053,2.34897397913051,2.34912717910296,2.34940505955688,2.34976542016086,2.35061190876734,2.35001990193459,2.35008070659156,2.35009726481688,2.34917355744494,2.34986075094176,2.35080916955177,2.3498585487565,2.35035372942479,2.28695942161051,2.28579686056733,2.28547536262121,2.28524377848895,2.28498055805634,2.28431097162672,2.28397230017569,2.28431482739976,2.28418094493307,2.28430606252552,2.28346899096518,2.28438875620219,2.28412508739398,2.28464247713843,2.28516967643173,2.2857137660118,2.28563733148287,2.28598268372702,2.28548368885201,2.28534446269898,2.2856152834289,2.28609853156909,2.28606299126291,2.28613718177933,2.28580792006902,2.28625611514598,2.28635928389974,2.28687075881452,2.28695607152745,2.28691083296225,2.28775681405087,2.28794381364589,2.28835775844826,2.28904659733574,2.28988940401153,2.28946706387264,2.28950391810312,2.29024714831367,2.29031676599955,2.29035064812655,2.29173150883059,2.29204247996722,2.29263854746997,2.29339444054591,2.29432316341835,2.29559176134272,2.29720447681978,2.29799669092008,2.33357287787888,2.37032509017664,2.37250078155767,2.37427064027437,2.3749590212487
2.22172320749529,2.22250950154397,2.22284372644398,2.22405364285322,2.2245221321923,2.22598888535668,2.22635088663844,2.22680589680794,2.2274500917075,2.22766064849445,2.22734381045777,2.22549592946037,2.21669725563643,2.21955292648021,2.22017386731214,2.21987616462193,2.22302572237157,2.22299704303945,2.23400035754113,2.23435151483649,2.23520064563494,2.23571547425424,2.2364106844874,2.2363716381143,2.23683849474394,2.23722223000839,2.23741937541909,2.23769413332708,2.23918906359901,2.23870556455725,2.2389795514662,2.23918781110396,2.23930337735884,2.24030502356207,2.24096160017145,2.24194647561464,2.24276740727213,2.24393928832422,2.24507472196959,2.24618543090519,2.24671309144754,2.29836197632156,2.3381150739153,2.33871323209916,2.34665549444045,2.34388822732644,2.34426710305088,2.35275214543984,2.35271511161063,2.3513948780566,2.34913527505639,2.34946942961318,2.35066374255632,2.35337081777498,2.3523038970424,2.34955001080684,2.34901417031403,2.34867081010668,2.34776321588984,2.34876393144931,2.3486290836792,2.34855350944626,2.34968714885414,2.35172468747803,2.34094111485012,2.26403238357691,2.30950939191401,2.34876556788779,2.34883978848117,2.34677057302626,2.34550696124965,2.34568939032425,2.34672960313926,2.34648920535884,2.34402871652354,2.34353680349001,2.34341660323445,2.34404033577471,2.34508265612016,2.34456966215088,2.3452762863435,2.34495014017281,2.34454717059422,2.34486443401626,2.34532444119297,2.34526203836739,2.34483330724364,2.34427626895525,2.34458107824555,2.34518301995098,2.34499262174183,2.34453455739001,2.34402902702948,2.34369532449365,2.34395103495023,2.34397313639798,2.34397083154411,2.34420830941664,2.34438066764853,2.34440067299808,2.34458300814797,2.34471294359571,2.34489909566969,2.34521836628037,2.34655123413962,2.34648371507825,2.34667652161159,2.34697518708219,2.34738939531973,2.34805567696982,2.34809368557672,2.34857694600015,2.34855875618741,2.35061629140075,2.35004572687172,2.34961605871497,2.34911128477993,2.34951323007302,2.34859126350884,2.34810973180148,2.34799745958639,2.34799228933117,2.34898063526421,2.28794707889687,2.28536586279685,2.28479491333336,2.28481483597911,2.28470302745199,2.28382739947887,2.28372060734965,2.28407620693932,2.28413264112169,2.28444472994468,2.28444917495815,2.28403241687703,2.28435449753752,2.2843292924965,2.28393951917508,2.28553790036278,2.28557948352163,2.285094518134,2.28531802100522,2.28540370279442,2.28624585781997,2.2856700618535,2.28625216043197,2.28606096790545,2.28637687741085,2.28627713678423,2.28652927070109,2.28665536768171,2.28692515720155,2.28694111205048,2.28751475033186,2.28759870783712,2.2886620129883,2.28879912663431,2.28904545427666,2.2892290119813,2.2891648419462,2.290085643187,2.29028634820121,2.29051488282514,2.29108078261987,2.29206369501329,2.29265413105827,2.29354103969062,2.29379347567569,2.29546881643024,2.29684521185288,2.36903075801996,2.36983715017007,2.37200182385948,2.37208604101812,2.37305485137131,2.37398528920977
2.22184124939592,2.22234904064885,2.22303676998281,2.22373851844906,2.22495387545488,2.22546921327759,2.22602103429589,2.22673310982444,2.22668258150583,2.22732744615597,2.22783760392934,2.22727324004025,2.22764428816084,2.22282797383978,2.21677687763282,2.21858918473984,2.22671181087728,2.23097066347664,2.2324424402091,2.23351614153649,2.23474826210652,2.23548412482507,2.23586436008959,2.23624539434254,2.236914562648,2.23712461783126,2.23713920475112,2.23730540177496,2.23814359217053,2.23825939056685,2.23846001980109,2.23900068015102,2.23954250606763,2.24007635854023,2.24093688027227,2.24160981266278,2.24250857714951,2.24362509215717,2.2443464966692,2.24507609802923,2.24634019824336,2.27927701467135,2.33785145990028,2.24645250276791,2.24803676122317,2.33539835687697,2.29628910498123,2.24951799571095,2.34603955149283,2.34675842920854,2.34817719679794,2.34897639055626,2.35059060391241,2.25269191079441,2.25414448985631,2.3477696454631,2.34795345661054,2.34857267023759,2.25640604098413,2.25740743781225,2.25810420524639,2.25869071728706,2.25889617670058,2.25987933570778,2.26091212001293,2.26231810628764,2.26307471182185,2.26402200875455,2.26493767770454,2.26621715154052,2.34745928524524,2.34618427701929,2.34633377667705,2.34448565603437,2.34424683443735,2.34390095956024,2.34328628661998,2.34406910340824,2.34474031820056,2.34351917708775,2.34442949541827,2.34376297628047,2.3431126758096,2.3442383049831,2.34450699553653,2.34500002294193,2.34417960236332,2.34405543593851,2.34404543787933,2.34437465367663,2.34478124340168,2.34363251733608,2.34284782595786,2.34299132250408,2.34286130716083,2.34289239714886,2.34288643845228,2.3427999102078,2.34318187200413,2.34321743650351,2.34406563440866,2.34396487093167,2.34417307192505,2.34486112372309,2.34585570899855,2.34602297750327,2.34579018475956,2.3459690065937,2.34668283608,2.34727214242537,2.348001528723,2.34818089114035,2.34884957168167,2.34935339798792,2.34977342637722,2.3501889520449,2.34744380942999,2.34610140258537,2.34777074650511,2.34680152886273,2.34739205068839,2.34663201706267,2.34801621789174,2.28663066196771,2.28525974629274,2.28474992130718,2.28453130524689,2.28407498072701,2.28359368439969,2.28315049491705,2.28325323636908,2.28345738558929,2.2836015758599,2.28377424977782,2.28429481834437,2.28430156387522,2.28453060707211,2.28436308298952,2.28534315529724,2.28541137370872,2.2851198450364,2.28516540265335,2.28532217121245,2.28521905854242,2.28560923648667,2.28546975638032,2.28589163497111,2.2859838511329,2.28621287454254,2.28646475857594,2.28680817359549,2.28689300738242,2.28729137867412,2.28720096500053,2.28793389317,2.28821433938157,2.2885389738056,2.28872908181228,2.28884948653689,2.28936140294526,2.28994531653516,2.29039634302633,2.29051009047832,2.29152914964862,2.29225886678135,2.29318410481309,2.29406121276267,2.29444499292714,2.2958893197333,2.29710374086425,2.36940649383348,2.36989348178175,2.3718457675872,2.37267645512514,2.37286120164624,2.37353114587418
2.22190737893967,2.22227518952868,2.22256927544894,2.22366971470783,2.22404711560079,2.22499268906509,2.22560755566915,2.22605331580076,2.22679137648353,2.22706636886268,2.22790110471268,2.22776018156234,2.22878456354618,2.22755131201725,2.22847830890055,2.22984467445686,2.22892799173844,2.23044840528331,2.23201695062573,2.2337030110698,2.2359900754449,2.23558044466793,2.23534160116533,2.23577481919052,2.23649061502921,2.23677616898453,2.23690859807149,2.23661681560639,2.23749343469822,2.2376677030234,2.23857531418555,2.23881736166779,2.23928575441342,2.23980917896415,2.24053270237551,2.24135817878047,2.24200078164804,2.24249649306762,2.24377923741564,2.24497857563807,2.24467415494322,2.24455057006261,2.24451148417592,2.24508231401107,2.24695994637663,2.2471559732869,2.24749513665729,2.24803095833585,2.24816436066909,2.24941728352643,2.25052105167066,2.25083775506505,2.25073980520473,2.25159524954582,2.25304257527631,2.2539200678256,2.25448073348758,2.25474196287339,2.25515077744825,2.25633542555228,2.25741234995369,2.25812462540326,2.25813866623882,2.2593222830788,2.26000643908561,2.26120322932298,2.26238867211904,2.26276809571079,2.26354822368685,2.26515308827901,2.26714382623513,2.30597252799777,2.34448182254476,2.3446670871314,2.34432147631873,2.34444577671402,2.34304511777481,2.34569350198376,2.34332951587341,2.34240186775806,2.34251661364482,2.34251966467656,2.34252761209685,2.34295936584187,2.34354386412894,2.34363890907984,2.34328898513748,2.34297168918217,2.34278703922536,2.34334431895947,2.34278771202207,2.34242661135529,2.34215425240408,2.34180046887705,2.34186029877204,2.34228689657133,2.34207176221766,2.34184258054239,2.34196056699925,2.34230864772535,2.34281957144995,2.34288983857969,2.34323284153809,2.34345153644782,2.34476320301033,2.34409333660961,2.34461355343472,2.34507999740425,2.34560335867323,2.34750263164831,2.34800201265652,2.34783022525581,2.34801441710862,2.3484944720778,2.34577880473875,2.34382095334387,2.34437943936659,2.34353044455106,2.34665661444348,2.34543138416272,2.34572559188748,2.34408578171741,2.34108285085647,2.28632688587663,2.28583554897465,2.28467711126397,2.28440344175391,2.28420620442994,2.28354663785995,2.28326047089622,2.28310724417937,2.28324969514982,2.28302944377761,2.28372517424275,2.28374343053898,2.28474073126555,2.28500778722715,2.28654005872828,2.28518710825898,2.28491051579529,2.28503759013425,2.28505213477792,2.28502437406602,2.2855141975387,2.28498101792349,2.2856517463415,2.28565773361976,2.28588539270245,2.28614969347442,2.28696542822662,2.28668221758497,2.28689440720802,2.28696183684403,2.28768972449264,2.28778890430893,2.28825457162468,2.28835379534104,2.28822251130612,2.28915089756941,2.28946413177686,2.29013954588913,2.29057020205772,2.29131213356623,2.29204567138037,2.29271055615516,2.29341520346656,2.2948160625125,2.29533404167219,2.29675011057143,2.36898026251434,2.3697147512099,2.36955462127568,2.37071892707679,2.37149114828644,2.37223795332502,2.37257698756293
2.221353642931,2.22203908471429,2.22280634712562,2.22348454156436,2.2239801708055,2.22453713046838,2.22532256393527,2.22596841219966,2.22696538437235,2.22744838217158,2.22790268580053,2.22799932579518,2.22842449069204,2.22802790648825,2.22841723181193,2.22912167162714,2.22949491350187,2.23088195383386,2.23202750723158,2.23377132230504,2.23588671895474,2.23558087620003,2.23551434259902,2.23615540882521,2.23590542288328,2.23679182438454,2.23696505955348,2.23733401905828,2.23733016647676,2.23761614657948,2.23783191225061,2.23841036788419,2.23867510723448,2.23957833480732,2.24070999487335,2.24164928548623,2.24171106065333,2.24191614126147,2.24230665563838,2.24287404230365,2.24372183994753,2.24416930485797,2.24384635115453,2.24439939601459,2.245658389069,2.24568114776161,2.24677520072068,2.2469723474104,2.24748524243642,2.24892975264514,2.24964287465233,2.250343431664,2.25027306661712,2.25091772033143,2.25191201652635,2.25321903318466,2.25386503695134,2.25370264856739,2.25419988313587,2.25504932331142,2.25595771708562,2.25726567960243,2.25718487952438,2.25838571588978,2.2593295290169,2.26036899073054,2.26160357936098,2.26176676979498,2.26273202191773,2.26411745752683,2.26534107505726,2.26621025576607,2.26708938647966,2.26932671943179,2.27044553416065,2.33843887104949,2.3395042476958,2.34751859329077,2.34418600195247,2.34120723989948,2.34186840634553,2.34170309052053,2.34169926242775,2.34204989797726,2.3419590476457,2.34266563232077,2.34226345915707,2.34227631185363,2.34169314526423,2.3419719901115,2.34170757183738,2.34129489693216,2.34101567426385,2.34082583538817,2.34119525353607,2.34246010001435,2.34150166030655,2.34119956551102,2.34115638510073,2.34163382904004,2.3415983036709,2.34180969747298,2.34208629574231,2.3426590456688,2.34303862712229,2.34287327194497,2.34366580645602,2.34423516684386,2.34515093871754,2.34617217343231,2.34648456797041,2.34681847510366,2.34752597732692,2.3468132847967,2.34490091126913,2.34227125168968,2.34298416684583,2.34304944062337,2.34329879106991,2.34376970964942,2.34283258175795,2.34414534486283,2.34613245587184,2.28588150712398,2.2851592722518,2.28409228329253,2.28419191709695,2.28413086196603,2.28329938581648,2.28301490733605,2.28298449372936,2.28306858402568,2.28330792121604,2.28340091502183,2.28391277426828,2.28393166736559,2.28436319463786,2.28460796536172,2.28427463011381,2.28452700219025,2.28471532241457,2.28485653029633,2.28506899240487,2.28539241651902,2.28564113303057,2.28534966628259,2.28565748187423,2.28568462751299,2.2859543027649,2.28593438136659,2.28661808812443,2.28667222521508,2.28704087852786,2.28742870144055,2.28830048576964,2.28840734780977,2.28845208587015,2.28878603826531,2.28897268959114,2.28943061228673,2.2901836209982,2.29082123068075,2.29130471703136,2.29245795297783,2.2929700532088,2.29428682462872,2.29539132771117,2.29599719702513,2.29707190898733,2.36727902917084,2.36958287404862,2.36937903709795,2.37057132894276,2.37128074521225,2.37162975073835,2.3719556910272
2.2214728558981,2.22196438371076,2.22261028402143,2.22327828817715,2.22390250738321,2.2249278585945,2.22525713237539,2.22565755153735,2.22633300648802,2.22688502251487,2.2274753628449,2.22757993201508,2.22772079412929,2.22794227391501,2.22905706543055,2.22962181496237,2.23025272303709,2.23093369900495,2.23250852248597,2.23351521030446,2.23501449531685,2.23517731264472,2.23598750305645,2.23617491057083,2.23658611258661,2.23698881745936,2.23696257550669,2.23650814994123,2.23718677235414,2.23751788133659,2.2377216548556,2.23838520992981,2.23878307935104,2.23955158328358,2.24022976088521,2.24087354033286,2.24120733414701,2.24134156022596,2.24163382532912,2.24199120264504,2.24328835013651,2.2438860797398,2.243764192908,2.24377654885644,2.24440936690746,2.24501277209399,2.24609512610528,2.24605518501571,2.24661447012598,2.24784648328039,2.24857621970211,2.24957532144346,2.24920985602442,2.25008441906888,2.25089817598023,2.25157244759535,2.25310515379174,2.2536713160939,2.2538334374543,2.25475152834914,2.25549023288945,2.25637970626342,2.25638781778948,2.25712854538301,2.25864977380302,2.25963679010696,2.26076466805479,2.26113946969341,2.26180693031112,2.26324906933684,2.2646962589553,2.26582819258814,2.26645141554218,2.26894249475911,2.27050705965607,2.27231017180477,2.2738772758991,2.27374158524982,2.34131399722492,2.34067319003958,2.34082798593003,2.34071578119276,2.34095872173543,2.34109554659978,2.34201154953037,2.34146543834006,2.34120755154169,2.34092016771821,2.34120844892773,2.34077482023726,2.34042633263507,2.34027924478572,2.34009712026566,2.34036613732109,2.34011643534125,2.34042671461095,2.3403337562928,2.34044110599223,2.34080028186303,2.34089412250104,2.34058311413835,2.34081351654782,2.34093186379695,2.34135605384018,2.34236384624215,2.34284038135077,2.34306875941215,2.34372125833518,2.34418704370605,2.34502006094397,2.34557880497115,2.34593411825727,2.34626093072422,2.34701862777815,2.34746086277275,2.34114622230759,2.3419470654467,2.34249623772749,2.34188383020596,2.34053312774002,2.34285105696727,2.33819553606727,2.28787845184859,2.28636691810535,2.28487906266264,2.28430200868667,2.28416306416057,2.28401096188214,2.28342293439251,2.28297406692549,2.28331310176559,2.2830692609571,2.28275972109503,2.2827435382703,2.28285305907101,2.28383130824111,2.28379511667735,2.28370437447754,2.28391539762714,2.28405147139936,2.28449100415329,2.28473548255606,2.28490378297107,2.28715515493564,2.28523020834625,2.285609302947,2.28548243954125,2.28562913237802,2.2857772448534,2.28617276708133,2.28654310419405,2.28658281767959,2.28609916995802,2.28742559578073,2.28737589279415,2.28801658872484,2.28827086814597,2.28848404236716,2.28921584829791,2.28917496097487,2.29012903837748,2.29079128761149,2.29195566138469,2.29236733832929,2.29374601471613,2.29408681291342,2.29559683919577,2.29603340700459,2.367814310084,2.36751043355955,2.36882557641592,2.36916919960801,2.36979198914948,2.37029060994826,2.37094207475236,2.37132526527108
2.22074278054962,2.22152839700398,2.2221717073523,2.2228113911514,2.22387978555552,2.22486617571927,2.22506806387596,2.22549743463615,2.22599808803414,2.22662773146496,2.22700440282997,2.22742919625777,2.22737697468004,2.2281367018791,2.22928701378055,2.23014411350166,2.23052045845559,2.23112224415421,2.2323694583011,2.23333281056822,2.23379026702264,2.23432010972891,2.23435141923807,2.2356651915385,2.2363716276998,2.23759237496185,2.23733214166799,2.23702248920734,2.23731409942737,2.2377362304012,2.23793884437408,2.23852268470346,2.23968988928405,2.23958691458945,2.23989088154247,2.24067659515882,2.24103029538563,2.24137437561817,2.24170223722739,2.24208251935323,2.24267397092364,2.24341689908982,2.2434074985888,2.24341861693947,2.24405228528555,2.24441764587873,2.24547365457352,2.24545109544512,2.24619011665421,2.24763632854666,2.24809047276305,2.24904761659774,2.24912356072989,2.24948579433811,2.25010048678718,2.25097591544351,2.2521194565257,2.25210378535292,2.25277373339978,2.25437183869336,2.25461548333375,2.25561431815456,2.2557125348072,2.2569441769254,2.25785702468038,2.25884301683444,2.25966105320117,2.25985694766033,2.26140854736191,2.26209747219962,2.26383622095175,2.26520423435418,2.2657299610126,2.26760514382063,2.26954909702109,2.27211028960566,2.27380138081801,2.2736662165742,2.34077799938506,2.34074074867038,2.34056320272065,2.33991555301343,2.33959449724421,2.33987924228197,2.3399287595256,2.34015651289414,2.3401863964687,2.34006653562467,2.3399419253229,2.3401688659951,2.33967064981978,2.33934910014066,2.33944793153077,2.33961513747248,2.33938320682646,2.33939385149984,2.33932003810595,2.33915784386745,2.33983199183878,2.33962020386047,2.33992759870738,2.34008563535978,2.34041176028973,2.3410956779266,2.34185788623837,2.3420056483037,2.34223846219173,2.34245203233884,2.34307556835372,2.34297518572875,2.34418178266496,2.34484912725821,2.3456279472991,2.34586859878264,2.34685259606605,2.34314379580058,2.34160962382921,2.34010759643328,2.34043678389791,2.33926826287428,2.34026097654903,2.33915247376427,2.28722221460558,2.28716511887074,2.28478315969155,2.28436568095615,2.28403761704053,2.28390132806229,2.28343930193455,2.28325662376776,2.28299030794699,2.28290574436267,2.28291431030618,2.28267364264799,2.28306982795369,2.28324355584546,2.28340477596332,2.28338898923597,2.28348471917942,2.2839399157821,2.28423719706505,2.28458909267806,2.28494787146168,2.2853239015821,2.28586009150931,2.2852895925045,2.28555468345005,2.28545210137416,2.28589136931761,2.28582399911912,2.28675575105627,2.28654609735873,2.28673594146602,2.28684082150819,2.2877066736553,2.2877471965478,2.28813368054144,2.28841744836419,2.28875536841126,2.28950241012932,2.28977713587597,2.29076023260767,2.29079580970306,2.29233935435674,2.29356089899587,2.29496477762105,2.29582567951645,2.29635908579073,2.36828298673807,2.36903213645356,2.36899759792279,2.36897169437473,2.36920107390181,2.36937763515166,2.37014078524403,2.37036730173748
2.22068057911365,2.22140757389993,2.22202715988603,2.2227287393298,2.22380331894459,2.22442377757857,2.22472260605186,2.22488426406674,2.22575423592884,2.22605603904802,2.2268737617114,2.22744021621122,2.2279577224237,2.22851736880673,2.22950465716117,2.23002442574668,2.23082066176228,2.23132134137494,2.23266478276002,2.23317156435479,2.23378370651742,2.23383100674879,2.23373745275659,2.23576590632193,2.2379171228408,2.2374345976241,2.23777637552091,2.23892326193565,2.23907314054748,2.23796417451464,2.23787767227639,2.23828566456737,2.23857376484206,2.23914946987177,2.23969831398136,2.24050589509528,2.24071831769365,2.24105189784962,2.24117107292203,2.24165434792909,2.24215364682611,2.24294089282396,2.24328455535781,2.24338457199726,2.24394071117602,2.2442485686319,2.24501209604253,2.2451195546266,2.24595911124262,2.24643707335985,2.24756830970934,2.24840948063739,2.24870285653088,2.24910842486019,2.24979989022184,2.25069861792952,2.25150726104947,2.25159738474492,2.25285646091766,2.25356170172776,2.2541606740623,2.25487262729762,2.25547890725335,2.2561619517341,2.25715760234005,2.25798000307913,2.25879887392322,2.25930146255683,2.26073616742617,2.26175335020007,2.26311296125047,2.26443326052252,2.26502887439987,2.26625399042051,2.26896454328958,2.27191762359291,2.27364937063046,2.27345939279069,2.34018081691127,2.34088386057992,2.33998782811877,2.33885287520262,2.33860576391786,2.33877095037851,2.33925070717813,2.33969585542127,2.33962815886656,2.33968836615489,2.33931493125285,2.33924714851934,2.33827908241644,2.33837801364391,2.33838909100876,2.33857667887396,2.33815742342013,2.33838196018719,2.33843349008779,2.33859735189589,2.33868162312377,2.33907685948309,2.33917281477071,2.33944577989761,2.33967535159568,2.3403907166171,2.34137644983215,2.3412182582243,2.3415419338059,2.34202866996072,2.34211392865721,2.34266952760056,2.34372127036557,2.34410852193975,2.3442252796513,2.34494849360385,2.34316033902505,2.34165274938123,2.34084175343142,2.34005749137688,2.33932045874348,2.33931680175852,2.34031357084523,2.33987857105775,2.28645096178517,2.2853608394963,2.28449957863444,2.28437093959114,2.28384056967084,2.28333770153432,2.28384113081895,2.28281492214115,2.28317164484696,2.28289068931535,2.28273839807241,2.28298942094852,2.28278318415898,2.28300222675695,2.28313864730096,2.28320393887857,2.28370781418832,2.28388185220443,2.28432654050031,2.28459651805675,2.28485165259594,2.28568656464472,2.28503149854369,2.28586497845288,2.28550787489919,2.28572009020348,2.28553266591472,2.28624916679376,2.28620927449336,2.28660301882831,2.2866923760385,2.2869641475012,2.28771027890817,2.28822479224797,2.28815666653788,2.28803381170243,2.28895234662555,2.28933468883186,2.29044534204762,2.29121468919433,2.29217419235843,2.2927890331327,2.29425121199284,2.29497949482096,2.32054345233222,2.36024606660519,2.36772326534818,2.36812455421184,2.36849065537951,2.36877340405735,2.36872572118686,2.3693315784914,2.36935640439925,2.36969597254852
2.220931049754,2.22129860333213,2.22192371972811,2.22245554612942,2.22365617158753,2.22403629947358,2.22450246137207,2.22491363348636,2.22644140207455,2.22617818339183,2.22730153609228,2.22775698349618,2.22862605012251,2.22864102338905,2.22949716662604,2.23119663493532,2.23107534925771,2.23206289112105,2.23275530324506,2.23338691654668,2.23255658720229,2.2336135768739,2.23454024644921,2.23602593971541,2.23632061275353,2.2366252334432,2.23749884994234,2.2383200422792,2.2377339411536,2.23734214568178,2.23748476709045,2.23796147501472,2.23846186600019,2.23874163943556,2.23993719043115,2.24039802146524,2.24052966848258,2.24069349448076,2.24097731093786,2.24185781192998,2.24220329229137,2.24252337123919,2.2428991273473,2.2430233052823,2.24437677438874,2.24431309929447,2.244768371827,2.24517693520116,2.24561552838189,2.24632069980321,2.24708663913307,2.24782854465965,2.24830692956395,2.24899185700982,2.24959411392081,2.25057708344777,2.25089280977025,2.25087314435139,2.25187829052555,2.25329869667999,2.2536190002835,2.25440145274098,2.2550035678629,2.25686728783712,2.25669079244716,2.25770611577941,2.25810230587573,2.25848467236691,2.2596003977553,2.26113817856131,2.26230723558222,2.26354242256877,2.26403738541579,2.26593570439092,2.26859002045613,2.27228059317064,2.27329302957968,2.27310624023704,2.27481018873933,2.34036010068781,2.33800353388111,2.33749022475626,2.33719951152155,2.3384068923561,2.33821354977086,2.33933941057385,2.33903502872867,2.33940575442524,2.3385302078256,2.33776674935322,2.33748432235404,2.337529271375,2.33803852787604,2.33812586725229,2.33788892063025,2.33786330736448,2.33777712191068,2.337999901002,2.33825469135088,2.33826149760646,2.33855058595981,2.33893684348784,2.33926189005874,2.33967839726255,2.34035900642618,2.34064309301612,2.34093381556378,2.34128852696277,2.34155629190419,2.34195750829131,2.34320656552744,2.3434764965844,2.34434156529138,2.34446513907305,2.34582661470431,2.34166323546248,2.34056067455931,2.33926525204867,2.33924105490726,2.33946809911437,2.33973538758337,2.34043234214972,2.28599914015726,2.28462911208256,2.28391495126945,2.28411685423208,2.28344790355956,2.28279495819377,2.28260134254328,2.28247026726985,2.2827007114689,2.28258774743729,2.28240525383533,2.28255149188994,2.28310187228824,2.28290697221694,2.28303982204929,2.28329557589045,2.28397859119365,2.28424195578398,2.28441244247179,2.2845204835795,2.28488414047527,2.28511394450072,2.28549929523116,2.28527090575466,2.28544372500966,2.28529530379218,2.28593465588131,2.28587091708767,2.28654776871114,2.28651282319681,2.28687492530115,2.28666938382823,2.28784878497747,2.28776832388137,2.28817434167408,2.28864938854694,2.28860796958969,2.28985919904346,2.29153915661667,2.2919568133665,2.29243800347247,2.29332353064635,2.2940019308011,2.29594862342791,2.33552385273026,2.36164328540933,2.36779353544394,2.36768308327528,2.36807792446983,2.36841836791889,2.36883327659529,2.36863047262711,2.36895282488209,2.36887201879523
