2.24214494371277,2.24410500922797,2.24331498282133,2.24420501257059,2.24487503496609,2.24591506972926,2.24581506638665,2.24663509379607,2.24747512187401,2.24816514493804,2.24846515496588,2.24885516800207,2.24951519006331,2.24974519775132,2.25113524421363,2.25156525858687,2.25254529134447,2.25225528165089,2.252795299701,2.2548353678903,2.25622541435261,2.25266529535561,2.25307530906032,2.25496537223569,2.25602540766739,2.25794547184555,2.25917551295968,2.25777546616311,2.25844548855861,2.25881550092628,2.26054555875347,2.26069556376739,2.26410567775048,2.26237561992328,2.2646156947978,2.26356565970037,2.26407567674769,2.26477570014598,2.26543572220722,2.26697577368346,2.26783580242993,2.2687458328477,2.26911584521537,2.26952585892008,2.26768579741601,2.26889583786162,2.26999587463036,2.27136592042415,2.27123591607875,2.27169593145477,2.27211594549374,2.2722559501734,2.27293597290316,2.27371599897554,2.27371599897554,2.27440602203957,2.27493603975542,2.27511604577212,2.27610607886398,2.27601607585563,2.27693610660767,2.27770613234578,2.27899617546548,2.27929618549332,2.27971619953229,2.28070623262416,2.28019621557683,2.28202627674664,2.28207627841795,2.28236628811153,2.282346287443,2.2834063228747,2.2838963392535,2.2845163599777,2.28422635028412,2.28517638203894,2.28597640877984,2.28581640343166,2.28873650103594,2.28867649903038,2.28836648866828,2.28972653412781,2.29021655050661,2.28989653981025,2.28978653613338,2.29015654850104,2.29065656521411,2.29043655786036,2.29129658660683,2.29227661936443,2.29276663574323,2.29252662772096,2.29304664510254,2.29323665145351,2.293676666161,2.29296664242845,2.29385667217771,2.29437668955929,2.29369666682953,2.29454669524173,2.29416668253981,2.2942466852139,2.29578673669013,2.29578673669013,2.29542672465672,2.2963367550745,2.2965167610912,2.29726678616079,2.29776680287386,2.29723678515801,2.29764679886272,2.29729678716358,2.29894684231668,2.29751679451733,2.2987368352972,2.29913684866765,2.30024688577065,2.29999687741412,2.30023688543639,2.30067690014388,2.3012669198653,2.30167693357001,2.30330698805459,2.30225695295716,2.30247696031091,2.30296697668971,2.30314698270641,2.30345699306851,2.30504704621605,2.30463703251134,2.30485703986508,2.30555706326337,2.30627708733018,2.30707711407108,2.30665710003211,2.3062470863274,2.30790714181477,2.30836715719078,2.30786714047772,2.30826715384817,2.30831715551948,2.30925718694004,2.31053722972548,2.31039722504582,2.31071723574218,2.31170726883404,2.31272730292869,2.31217728454432,2.31238729156381,2.31341732599272,2.31278730493426,2.31341732599272,2.31413735005953,2.31605741423769,2.31525738749679,2.31564740053298,2.31692744331842,2.31751746303983,2.31687744164711,2.31712745000364,2.31792747674454,2.31830748944647,2.31903751384754,2.32182760710643,2.32005754794219,2.31909751585311,2.32043756064412,2.32154759774712,2.32502771407003,2.3223776254908,2.32301764688352,2.32426768866618,2.32425768833192,2.32484770805333,2.32473770437646,2.3263777591953
2.24229494872669,2.24230494906095,2.24344498716673,2.24397500488258,2.24401500621962,2.24496503797444,2.24491503630313,2.24633508376823,2.24686510148408,2.248355151289,2.2487951659965,2.24915517802991,2.24938518571791,2.24949518939479,2.25007520878194,2.25129524956181,2.25133525089886,2.25237528566203,2.25253529101021,2.255015373907,2.25539538660893,2.25585540198494,2.25639542003505,2.25635541869801,2.25707544276482,2.25733545145561,2.2588355015948,2.25644542170636,2.2563054170267,2.25773546482606,2.26018554672007,2.26047555641364,2.26146558950551,2.26199560722135,2.26229561724919,2.26250562426868,2.26417568009031,2.26444568911536,2.26528571719331,2.26638575396204,2.26726578337703,2.26900584153849,2.2709659070537,2.27059589468603,2.26758579407339,2.26877583385048,2.26950585825155,2.27064589635734,2.27011587864149,2.27091590538239,2.27183593613443,2.27220594850209,2.2728759708976,2.27288597123186,2.27345599028475,2.27529605178882,2.27439602170531,2.27555606047961,2.27577606783336,2.27656609424,2.27717611462994,2.27850615908668,2.27790613903101,2.27903617680253,2.27966619786099,2.28044622393337,2.28039622226206,2.28085623763808,2.28126625134279,2.28166626471324,2.28233628710874,2.28279630248476,2.28330631953208,2.28428635228969,2.28511638003337,2.28602641045115,2.28582640376592,2.28681643685778,2.28775646827834,2.28795647496357,2.28862649735907,2.28822648398862,2.28781647028391,2.28920651674622,2.28943652443423,2.29009654649548,2.29100657691325,2.29173660131432,2.29205661201068,2.29197660933659,2.29211661401625,2.29204661167642,2.29234662170426,2.29354666181561,2.29301664409976,2.29294664175993,2.29324665178777,2.29297664276272,2.29419668354259,2.29487670627235,2.29386667251197,2.29489670694088,2.2944766929019,2.29615674905779,2.29515671563167,2.29551672766507,2.29646675941989,2.29641675774859,2.29658676343103,2.29712678148114,2.29742679150897,2.29789680721925,2.29784680554795,2.29769680053403,2.29830682092396,2.2986068309518,2.2995868637094,2.30037689011604,2.30025688610491,2.30142692521347,2.3003868904503,2.30151692822183,2.30176693657836,2.30207694694046,2.30196694326358,2.30247696031091,2.30307698036658,2.30317698370919,2.303667000088,2.30391700844453,2.30481703852804,2.3051370492244,2.30529705457258,2.30653709602097,2.30565706660598,2.3088271725668,2.30699711139699,2.30875717022697,2.30761713212119,2.30785714014346,2.30945719362526,2.30924718660577,2.30989720833276,2.30994721000406,2.31094724343019,2.31045722705139,2.31096724409871,2.31227728788693,2.31160726549143,2.31432735641049,2.31281730593704,2.31397734471135,2.31401734604839,2.31452736309572,2.31525738749679,2.31515738415418,2.31543739351349,2.31671743629893,2.31728745535182,2.31721745301199,2.31759746571392,2.31804748075568,2.31938752554669,2.31847749512891,2.31929752253833,2.32001754660514,2.32141759340172,2.32087757535161,2.32138759239894,2.32497771239873,2.32312765056039,2.32322765390301,2.32609774983599,2.32527772242656,2.32543772777474,2.32737779262143
2.24120491229221,2.24167492800249,2.24277496477123,2.24278496510549,2.24425501424189,2.24437501825303,2.24472502995217,2.24519504566245,2.24666509479885,2.24782513357316,2.24913517736138,2.24882516699928,2.2486151599798,2.24899517268172,2.24923518070399,2.25004520777916,2.25093523752841,2.25192527062027,2.25238528599629,2.25494537156717,2.25515537858666,2.25529538326631,2.25572539763955,2.25585540198494,2.25620541368409,2.25952552465882,2.25435535184576,2.25605540867017,2.25628541635818,2.25846548922713,2.25899550694298,2.25935551897638,2.26164559552221,2.26179560053613,2.26299564064748,2.26308564365583,2.26330565100958,2.26331565134384,2.26521571485348,2.26633575229074,2.26751579173357,2.26940585490894,2.271015908725,2.26607574359995,2.26760579474192,2.26934585290337,2.26898584086997,2.26942585557747,2.26959586125991,2.27043588933785,2.27134591975563,2.27206594382244,2.27229595151044,2.27304597658004,2.27353599295884,2.2741660140173,2.27505604376655,2.27552605947683,2.27598607485285,2.2766960985854,2.27694610694193,2.27799614203936,2.2783461537385,2.27852615975521,2.27947619151002,2.28258629546527,2.28040622259632,2.2800762115657,2.28110624599461,2.28192627340403,2.28255629446249,2.28251629312545,2.28299630916999,2.28379633591089,2.28357632855714,2.28823648432288,2.28528638571581,2.28663643084108,2.28578640242887,2.28636642181603,2.28673643418369,2.28791647362652,2.28821648365436,2.28840649000532,2.28976653546485,2.29071656721967,2.29014654816678,2.29054656153723,2.29110658025586,2.29167659930875,2.2918966066625,2.29205661201068,2.29139658994944,2.29246662571539,2.29351666081282,2.29163659797171,2.29333665479612,2.29332665446186,2.29324665178777,2.29518671663445,2.29512671462889,2.29387667284623,2.29406667919719,2.29488670660662,2.29464669858435,2.29496670928071,2.29646675941989,2.29555672900212,2.29623675173188,2.29667676643938,2.29783680521368,2.29727678649505,2.29768680019977,2.2982968205897,2.29930685435009,2.29880683763703,2.29899684398799,2.30006687975394,2.29976686972611,2.30012688175951,2.30089690749763,2.3001568827623,2.30135692287365,2.30128692053382,2.30161693156444,2.30181693824966,2.3044670268289,2.3030969810351,2.30308698070084,2.30339699106294,2.30409701446123,2.30454702950299,2.30462703217708,2.30552706226059,2.3059370759653,2.30515704989292,2.30637709067279,2.30661709869507,2.30714711641091,2.30724711975352,2.30798714448886,2.30871716888993,2.30939719161969,2.30999721167537,2.31010721535224,2.31040722538008,2.31080723875053,2.31185727384796,2.31261729925182,2.31262729958608,2.31349732866681,2.31523738682827,2.31335732398715,2.31440735908458,2.31572740320707,2.316337423597,2.31776747139636,2.31656743128501,2.3157974055469,2.31717745167495,2.31754746404261,2.3171374503379,2.31776747139636,2.31866750147987,2.31918751886146,2.32169760276103,2.32184760777495,2.32190760978052,2.32105758136831,2.32263763418159,2.3242876893347,2.32377767228738,2.32532772409787,2.32621775384712,2.32687777590836,2.32825782203642
2.24122491296073,2.24157492465988,2.24137491797465,2.24271496276566,2.24247495474339,2.24405500755667,2.24531504967358,2.24511504298836,2.24589506906074,2.24731511652583,2.24778513223611,2.24776513156759,2.24849515596866,2.24902517368451,2.24935518471513,2.24970519641427,2.25045522148387,2.2513752522359,2.25357532577338,2.25496537223569,2.25547538928302,2.25448535619115,2.25696543908794,2.25625541535539,2.25592540432477,2.25722544777874,2.2543453515115,2.25556539229137,2.2559954066646,2.25611541067574,2.25836548588452,2.25896550594019,2.26060556075904,2.26326564967253,2.2615455921796,2.2621656129038,2.26417568009031,2.26388567039673,2.26547572354427,2.26664576265284,2.26780580142714,2.2672757837113,2.26486570315433,2.26605574293142,2.26869583117639,2.26891583853014,2.2688758371931,2.26933585256911,2.26995587329331,2.27044588967211,2.27092590571665,2.27169593145477,2.27210594515948,2.27289597156612,2.2728759708976,2.27382600265242,2.27431601903122,2.27553605981109,2.27605607719268,2.27592607284728,2.27654609357148,2.27916618114793,2.27759612866891,2.2780361433764,2.27899617546548,2.27912617981088,2.28050622593893,2.28031621958797,2.28096624131495,2.28210627942073,2.28248629212266,2.2826062961338,2.28307631184408,2.28364633089697,2.28377633524236,2.28465636465735,2.28520638304172,2.2850563780278,2.28775646827834,2.28634642114751,2.28666643184386,2.28756646192738,2.29098657624473,2.28835648833402,2.28926651875179,2.29051656053445,2.29106657891882,2.29131658727535,2.2910965799216,2.29129658660683,2.29206661234494,2.29320665045072,2.2930066437655,2.2936266644897,2.29273663474045,2.2930066437655,2.29295664209419,2.29291664075715,2.29329665345908,2.2933666557989,2.29500671061775,2.29371666749805,2.2938066705064,2.29449669357043,2.29497670961497,2.29497670961497,2.29505671228906,2.29626675273467,2.29579673702439,2.2966467654366,2.29711678114687,2.29706677947557,2.29722678482375,2.29861683128606,2.29932685501861,2.29850682760919,2.29898684365373,2.29946685969827,2.29859683061754,2.30023688543639,2.30003687875116,2.3002068844336,2.30028688710769,2.30135692287365,2.30237695696829,2.30250696131369,2.3024269586396,2.30248696064517,2.3027369690017,2.30232695529699,2.3034069913972,2.3038470061047,2.30466703351412,2.3048270388623,2.30560706493468,2.30612708231626,2.30565706660598,2.30755713011562,2.30669710136916,2.30664709969785,2.30992720933554,2.30803714616016,2.30837715752505,2.3089571769122,2.30955719696787,2.30977720432162,2.31124725345803,2.31169726849978,2.31408734838822,2.31260729891756,2.31266730092312,2.31263729992034,2.31272730292869,2.31373733668908,2.31448736175867,2.31423735340214,2.31451736276146,2.31483737345782,2.31595741089508,2.31670743596467,2.31808748209272,2.31858749880579,2.31844749412613,2.31954753089487,2.31981753991992,2.31972753691157,2.32153759741285,2.32336765858266,2.32294764454369,2.32448769601992,2.32484770805333,2.32644776153513,2.32769780331779,2.32936785913942,2.33020788721736,2.32916785245419
2.24034488354574,2.24023487986887,2.24178493167936,2.24248495507765,2.2423949520693,2.24391500287701,2.24451502293268,2.24662509346181,2.24537505167915,2.24592507006352,2.24724511418601,2.2478151332389,2.24800513958986,2.24842515362883,2.24918517903269,2.25014521112177,2.25138525257016,2.25114524454789,2.25193527095453,2.25207527563419,2.25329531641406,2.25400534014661,2.25491537056439,2.25492537089865,2.25551539062006,2.25665542872584,2.25381533379565,2.25463536120507,2.25546538894876,2.25740545379544,2.25952552465882,2.25863549490957,2.26002554137189,2.26096557279244,2.26136558616289,2.26197560655283,2.26278563362799,2.26401567474213,2.26534571919887,2.26673576566119,2.26935585323764,2.26358566036889,2.2653657198674,2.266345752625,2.2689258388644,2.26820581479759,2.26854582616247,2.26884583619031,2.26921584855798,2.26955585992286,2.27061589535455,2.27218594783357,2.2723859545188,2.27222594917062,2.27295597357169,2.27270596521516,2.27342598928197,2.27632608621773,2.2742960183627,2.27524605011751,2.27620608220659,2.27824615039589,2.27856616109225,2.27825615073015,2.27856616109225,2.27917618148219,2.27911617947662,2.27948619184429,2.28023621691388,2.28110624599461,2.28162626337619,2.28175626772159,2.2824762917884,2.28298630883572,2.2834063228747,2.28418634894707,2.28490637301388,2.28625641813915,2.28596640844558,2.28693644086892,2.28752646059033,2.28726645189954,2.28861649702481,2.2899865428186,2.28987653914173,2.29051656053445,2.2909665755762,2.29085657189933,2.29168659964301,2.29190660699676,2.29165659864023,2.29384667184344,2.29299664343124,2.2923866230413,2.29319665011646,2.29326665245629,2.293676666161,2.29184660499119,2.29431668755372,2.29439669022781,2.29320665045072,2.29374666850083,2.29341665747021,2.29406667919719,2.29414668187128,2.29545672565951,2.29514671529741,2.29577673635587,2.29600674404388,2.29629675373745,2.29704677880705,2.29648676008842,2.29640675741433,2.29699677713574,2.29723678515801,2.29782680487942,2.29846682627214,2.29866683295737,2.29908684699634,2.29906684632782,2.29905684599356,2.30016688309656,2.30005687941968,2.30045689279013,2.30093690883467,2.30112691518564,2.30158693056165,2.30174693590984,2.30270696799892,2.3022469526229,2.30205694627193,2.30332698872311,2.30350699473982,2.30399701111862,2.30412701546401,2.30525705323553,2.3051370492244,2.30551706192633,2.30652709568671,2.30651709535245,2.30729712142483,2.30816715050556,2.30836715719078,2.30884717323532,2.30871716888993,2.30954719663361,2.30998721134111,2.30998721134111,2.31164726682848,2.31100724543576,2.31156726415439,2.31244729356938,2.31372733635482,2.31343732666124,2.31374733702334,2.31513738348565,2.31441735941884,2.31441735941884,2.3164674279424,2.3154873951848,2.31753746370835,2.31773747039358,2.31787747507324,2.31939752588095,2.32027755529594,2.31973753724583,2.32176760510086,2.32323765423727,2.3249077100589,2.32507771574134,2.3255777324544,2.32659776654905,2.32933785813663,2.3316179343482,2.33402801490516,2.33490804432015
2.24000487218086,2.24094490360142,2.24105490727829,2.24144492031448,2.24250495574617,2.24236495106651,2.24335498415838,2.24459502560677,2.2451050426541,2.24552505669307,2.24692510348965,2.24800513958986,2.24802514025838,2.24798513892134,2.24988520243098,2.24908517569008,2.25010520978472,2.25193527095453,2.25093523752841,2.2519952729601,2.25250529000742,2.25330531674833,2.25375533179008,2.25508537624683,2.25494537156717,2.25429534984019,2.25436535218002,2.25416534549479,2.25555539195711,2.25721544744448,2.25970553067553,2.25906550928281,2.2593255179736,2.2596355283357,2.26132558482585,2.26177559986761,2.26250562426868,2.26388567039673,2.26545572287575,2.26742578872521,2.26994587295905,2.26448569045241,2.26568573056376,2.26632575195648,2.26758579407339,2.267455789728,2.2679458061068,2.26890583819588,2.26862582883656,2.26913584588389,2.27103590939353,2.26969586460252,2.27124591641301,2.27219594816783,2.2729259725689,2.27299597490873,2.27368599797276,2.27445602371088,2.27490603875263,2.27498604142672,2.27541605579996,2.27604607685841,2.27678610159375,2.27859616209503,2.27752612632908,2.27898617513122,2.27918618181645,2.27953619351559,2.27933618683037,2.28024621724814,2.28208627875221,2.28701644354301,2.2824762917884,2.28267629847363,2.28306631150981,2.28381633657941,2.28397634192759,2.28595640811132,2.28522638371024,2.28623641747063,2.28656642850125,2.28823648432288,2.28836648866828,2.28868649936464,2.28977653579911,2.29063656454558,2.29156659563188,2.29195660866807,2.29201661067364,2.2934966601443,2.2933166541276,2.29340665713595,2.29474670192696,2.29421668421111,2.29289664008863,2.29237662270704,2.29298664309698,2.29195660866807,2.29223661802738,2.29212661435051,2.29384667184344,2.29463669825008,2.29325665212203,2.29413668153702,2.29373666816657,2.29440669056208,2.29454669524173,2.29466669925287,2.29519671696871,2.29588674003274,2.29579673702439,2.29704677880705,2.2971867834867,2.29677676978199,2.29724678549227,2.298116814573,2.29745679251176,2.29776680287386,2.29803681189891,2.29880683763703,2.29884683897407,2.29924685234452,2.29992687507429,2.30049689412718,2.30380700476765,2.30039689078457,2.30259696432204,2.30154692922461,2.30173693557557,2.30202694526915,2.30261696499056,2.3029169750184,2.30334698939164,2.30364699941947,2.30548706092354,2.30523705256701,2.30499704454474,2.30455702983725,2.30563706593746,2.30616708365331,2.30645709334688,2.30761713212119,2.30954719663361,2.3085171622047,2.30855716354175,2.30959719830492,2.30973720298458,2.3092671872743,2.31033722304025,2.31070723540792,2.31129725512933,2.31212728287302,2.31288730827687,2.31265730058886,2.31318731830471,2.31387734136873,2.31418735173083,2.31418735173083,2.31568740187002,2.31662743329058,2.31667743496189,2.31656743128501,2.32200761312313,2.32162760042121,2.32436769200879,2.32259763284455,2.32483770771907,2.32630775685547,2.4133306655969,2.32750779696682,2.42826116464895,2.42276098080526,2.42731113289413,2.42707112487186,2.42707112487186,2.43207129200248
2.24010487552347,2.24012487619199,2.24082489959028,2.2412849149663,2.24137491797465,2.24237495140078,2.2441750115678,2.24420501257059,2.24523504699949,2.24485503429757,2.2451050426541,2.24669509580164,2.24647508844789,2.24800513958986,2.24780513290464,2.24901517335025,2.2505252238237,2.25067522883762,2.25064522783483,2.25131525023034,2.25305530839179,2.25304530805753,2.25313531106588,2.25329531641406,2.25406534215218,2.25491537056439,2.25512537758387,2.25614541167852,2.25636541903227,2.2588355015948,2.25820548053634,2.26098557346097,2.2602555490599,2.26096557279244,2.26041555440808,2.26217561323806,2.26161559451943,2.26181560120465,2.26559572755541,2.26232561825198,2.2626556292826,2.2681258121235,2.26490570449138,2.26609574426847,2.26643575563335,2.26703577568903,2.26779580109288,2.26786580343271,2.26885583652457,2.26917584722093,2.27022588231837,2.27054589301473,2.2701658803128,2.27187593747147,2.27216594716505,2.27272596588368,2.27315598025691,2.27374599997833,2.2744760243794,2.27499604176098,2.27548605813978,2.27585607050745,2.27634608688625,2.27777613468561,2.2777261330143,2.27807614471345,2.27988620521474,2.2794061891702,2.27936618783315,2.28080623596677,2.27977620153786,2.28182627006142,2.28158626203915,2.28336632153765,2.28307631184408,2.28375633457384,2.28449635930917,2.28554639440661,2.28602641045115,2.28646642515864,2.28731645357085,2.28742645724772,2.28893650772117,2.28937652242867,2.29039655652331,2.29170660031154,2.29283663808306,2.29354666181561,2.29399667685736,2.29382667117492,2.2950467119548,2.29591674103552,2.29641675774859,2.29488670660662,2.29360666382117,2.29327665279055,2.29310664710811,2.29216661568755,2.29219661669034,2.29281663741454,2.29421668421111,2.29270663373766,2.2936266644897,2.29347665947578,2.2939866765231,2.29492670794366,2.29421668421111,2.29470670058991,2.29498670994923,2.29597674304109,2.2960267447124,2.29609674705223,2.29624675206615,2.29630675407171,2.29751679451733,2.2974967938488,2.29708678014409,2.2976767998655,2.29784680554795,2.29807681323596,2.29879683730277,2.29952686170384,2.2997168680548,2.29986687306872,2.29963686538071,2.30066689980962,2.30054689579848,2.30132692187086,2.30190694125801,2.30170693457279,2.30168693390427,2.30295697635545,2.30318698404346,2.30331698838885,2.30440702482333,2.30452702883446,2.30455702983725,2.30518705089571,2.30599707797087,2.30621708532462,2.30726712042205,2.30708711440534,2.30731712209335,2.30905718025481,2.3096271993077,2.30855716354175,2.3087771708955,2.31098724476723,2.31015721702355,2.31125725379229,2.31176727083961,2.31269730192591,2.3119772778591,2.31348732833255,2.31292730961392,2.31387734136873,2.31456736443276,2.31505738081156,2.31789747574176,2.31735745769165,2.31764746738523,2.31809748242698,2.32199761278887,2.32256763184176,2.3233576582484,2.32911785078288,2.32525772175804,2.32876783908374,2.4151107250954,2.41435069969154,2.42842116999713,2.42482104966308,2.42544107038727,2.42690111918942,2.42707112487186,2.42792115328406
2.23853482304445,2.24176493101084,2.23965486048171,2.24117491128942,2.2415949253284,2.24312497647037,2.2427049624314,2.24345498750099,2.24445502092712,2.24467502828086,2.24506504131705,2.24629508243119,2.24655509112198,2.24699510582947,2.24757512521663,2.24929518270956,2.249465188392,2.2497251970828,2.25015521145603,2.25033521747273,2.25133525089886,2.25210527663697,2.2532353144085,2.25355532510486,2.25455535853098,2.25478536621899,2.25523538126075,2.25682543440829,2.25778546649737,2.26015554571728,2.26082556811279,2.25776546582884,2.25894550527167,2.2591455119569,2.26023554839137,2.26008554337745,2.26107557646932,2.26055555908773,2.26099557379523,2.26188560354448,2.26396567307082,2.26400567440787,2.26516571318217,2.26570573123228,2.26628575061943,2.26664576265284,2.267455789728,2.26695577301494,2.26820581479759,2.26891583853014,2.27039588800081,2.27039588800081,2.27100590839074,2.27109591139909,2.27161592878068,2.27214594649653,2.27338598794492,2.27330598527083,2.27343598961623,2.27491603908689,2.27512604610638,2.27630608554921,2.27614608020103,2.27734612031238,2.27867616476912,2.27742612298647,2.27808614504771,2.27853616008947,2.27981620287491,2.28012621323701,2.281006242652,2.28168626538176,2.28165626437898,2.28182627006142,2.28328631886356,2.28359632922566,2.28427635195543,2.28522638371024,2.28552639373808,2.28618641579933,2.28754646125886,2.28870650003316,2.28930652008884,2.28978653613338,2.29157659596614,2.29174660164858,2.29274663507471,2.29458669657878,2.29645675908563,2.29670676744216,2.2997168680548,2.37642943217287,2.37664943952662,2.29791680788777,2.29476670259548,2.29405667886293,2.2938066705064,2.29258662972653,2.29186660565972,2.29342665780447,2.2922066170246,2.29327665279055,2.29348665981004,2.29319665011646,2.29329665345908,2.29378666983788,2.29372666783231,2.29369666682953,2.29466669925287,2.29495670894644,2.29606674604944,2.29586673936422,2.29649676042268,2.29595674237257,2.29692677479591,2.29647675975415,2.29876683629998,2.29836682292953,2.29746679284602,2.2978068042109,2.29828682025544,2.29902684499077,2.29888684031112,2.29907684666208,2.29945685936401,2.29987687340298,2.3003868904503,2.30127692019956,2.30123691886251,2.30136692320791,2.3016269318987,2.30184693925245,2.30279697100727,2.30369700109078,2.30331698838885,2.30372700209356,2.30422701880663,2.30530705490684,2.30483703919656,2.30561706526894,2.30638709100706,2.30821715217687,2.30723711941926,2.30787714081198,2.30727712075631,2.30852716253896,2.30840715852783,2.30971720231605,2.31078723808201,2.31113724978115,2.31158726482291,2.31151726248308,2.31126725412655,2.31314731696766,2.31297731128522,2.31484737379208,2.31439735875032,2.3161574175803,2.31663743362484,2.31809748242698,2.31883750716232,2.31861749980857,2.32251763017046,2.41940086849348,2.41861084208684,2.41913085946842,2.42026089723995,2.41605075651596,2.41505072308983,2.4155507398029,2.4248410503316,2.42539106871597,2.4267511141755,2.42691111952368,2.42757114158492,2.42783115027571
2.23854482337872,2.23916484410291,2.24015487719478,2.24043488655409,2.2417749313451,2.24304497379628,2.242574958086,2.24291496945088,2.24376499786309,2.24449502226416,2.24504504064853,2.24469502894939,2.24643508711084,2.24671509647016,2.2475051228768,2.2489251703419,2.24775513123333,2.25000520644211,2.25045522148387,2.25151525691556,2.25037521880978,2.25138525257016,2.25219527964533,2.25238528599629,2.25378533279286,2.25485536855882,2.2551953799237,2.25642542103784,2.25802547451964,2.25662542772306,2.25753545814084,2.25857549290401,2.25847548956139,2.26041555440808,2.25982553468666,2.2610555758008,2.26240562092607,2.26179560053613,2.26178560020187,2.26210561089823,2.26386566972821,2.26500570783399,2.2647957008145,2.26525571619052,2.26562572855819,2.26632575195648,2.26655575964449,2.2684358224856,2.2680758104522,2.26965586326547,2.26920584822372,2.27004587630166,2.27030588499246,2.27120591507597,2.27148592443528,2.27269596488089,2.27253595953272,2.27313597958839,2.2738560036552,2.27402600933764,2.27555606047961,2.27565606382223,2.27654609357148,2.27750612566056,2.2767461002567,2.27947619151002,2.27872616644043,2.27890617245713,2.27942618983872,2.2795861951869,2.28085623763808,2.28163626371045,2.28170626605028,2.28254629412823,2.28308631217834,2.28427635195543,2.28519638270746,2.28597640877984,2.28640642315307,2.28774646794408,2.28832648733123,2.28898650939248,2.2906065635428,2.29071656721967,2.29204661167642,2.29404667852867,2.29526671930854,2.29586673936422,2.29956686304088,2.37475937635124,2.3758794137885,2.37585941311998,2.3772994612536,2.37851950203347,2.29719678382097,2.29372666783231,2.29129658660683,2.29112658092438,2.29138658961518,2.29134658827813,2.29219661669034,2.29249662671818,2.29284663841732,2.29285663875158,2.29334665513038,2.29611674772075,2.29477670292974,2.29422668454537,2.29385667217771,2.2942966868852,2.29481670426679,2.29634675540876,2.29606674604944,2.29639675708006,2.29594674203831,2.29617674972632,2.29629675373745,2.29696677613296,2.29725678582653,2.29729678716358,2.2989168413139,2.29976686972611,2.29837682326379,2.29888684031112,2.29968686705202,2.29968686705202,2.30005687941968,2.30208694727472,2.30160693123018,2.30143692554774,2.30176693657836,2.30157693022739,2.30196694326358,2.30277697033874,2.30326698671755,2.30330698805459,2.30404701278992,2.30456703017151,2.30576707028286,2.30695711005995,2.30612708231626,2.3065570966895,2.30985720699571,2.30888717457237,2.30814714983704,2.30915718359742,2.31069723507366,2.30960719863918,2.31023721969764,2.31071723574218,2.31124725345803,2.31076723741349,2.31266730092312,2.31296731095096,2.31341732599272,2.31385734070021,2.31516738448844,2.31723745368052,2.31723745368052,2.31796747808159,2.32042756030986,2.32303764755204,2.41456070671103,2.41773081267185,2.41913085946842,2.41916086047121,2.4178208156802,2.42163094303374,2.42238096810333,2.42481104932881,2.42465104398064,2.42445103729541,2.42536106771318,2.42669111216993,2.42787115161276,2.4275511409164
2.23794480332304,2.23862482605281,2.23909484176308,2.24100490560698,2.24078489825324,2.24160492566266,2.24260495908878,2.24383500020292,2.24326498115003,2.2433749848269,2.24432501658172,2.24476503128921,2.24570506270977,2.24678509880999,2.24735511786288,2.24827514861492,2.24918517903269,2.25041522014682,2.24953519073183,2.24985520142819,2.25084523452006,2.25162526059243,2.25160525992391,2.25284530137231,2.2529253040464,2.25423534783462,2.25867549624662,2.25496537223569,2.25540538694319,2.25600540699886,2.25714544510465,2.25847548956139,2.25908550995133,2.25947552298752,2.25864549524383,2.2604855567479,2.26111557780636,2.2612355818175,2.26228561691493,2.26291563797339,2.26374566571707,2.26392567173378,2.26406567641343,2.26512571184513,2.26563572889245,2.26582573524341,2.26686577000658,2.26818581412907,2.26909584454684,2.26838582081429,2.2692358492265,2.26949585791729,2.26984586961644,2.27041588866933,2.27125591674727,2.27142592242972,2.27275596688646,2.27300597524299,2.27312597925413,2.27313597958839,2.27505604376655,2.27540605546569,2.27572606616205,2.27620608220659,2.27639608855756,2.2770561106188,2.27888617178861,2.27886617112009,2.27954619384985,2.27986620454621,2.27992620655178,2.28068623195564,2.28254629412823,2.28280630281902,2.28285630449033,2.28390633958776,2.28460636298605,2.28539638939269,2.2872764522338,2.28759646293016,2.28846649201089,2.29001654382139,2.2907365678882,2.29180660365415,2.29464669858435,2.29476670259548,2.29797680989334,2.29812681490726,2.37366933991677,2.37895951674097,2.37659943785531,2.37627942715895,2.37670944153219,2.37821949200564,2.37959953813369,2.29115658192717,2.2910965799216,2.29337665613317,2.29147659262353,2.29107657925308,2.29165659864023,2.29182660432267,2.2920766126792,2.29250662705244,2.29273663474045,2.29307664610533,2.2933666557989,2.29350666047856,2.29427668621668,2.29355666214987,2.29397667618884,2.29439669022781,2.29519671696871,2.29573673501882,2.29606674604944,2.29650676075694,2.29594674203831,2.29655676242824,2.29712678148114,2.29766679953124,2.29703677847278,2.29771680120255,2.29875683596572,2.29800681089613,2.29832682159249,2.29906684632782,2.29946685969827,2.29969686738628,2.30023688543639,2.30050689446144,2.30080690448928,2.30185693958671,2.3019869439321,2.30234695596551,2.30265696632761,2.30266696666187,2.30320698471198,2.30423701914089,2.30511704855588,2.30480703819378,2.30471703518543,2.30552706226059,2.30715711674517,2.30661709869507,2.30676710370898,2.30739712476744,2.30872716922419,2.30859716487879,2.31004721334667,2.31075723707922,2.31061723239957,2.31164726682848,2.31224728688415,2.31294731028244,2.31256729758051,2.31358733167516,2.31631742292848,2.31581740621542,2.31884750749658,2.32149759607581,2.40737046637719,2.41479071439904,2.41938086782495,2.41837083406457,2.41790081835429,2.41745080331253,2.4197808811954,2.42114092665494,2.42291098581918,2.42315099384145,2.424971054677,2.4246610443149,2.42456104097228,2.42824116398043,2.42776114793589,2.42498105501126
2.23798480466009,2.23832481602497,2.23837481769627,2.23927484777979,2.24053488989671,2.24113490995238,2.24154492365709,2.24193493669328,2.24308497513332,2.24327498148429,2.24416501123354,2.244795032292,2.24544505401898,2.24615507775153,2.24672509680442,2.25114524454789,2.24964519440871,2.25109524287659,2.24869516265389,2.24967519541149,2.250575225495,2.25198527262584,2.25099523953398,2.25196527195732,2.25293530438066,2.25435535184576,2.25487536922734,2.25662542772306,2.25538538627467,2.25567539596824,2.25634541836375,2.25844548855861,2.26136558616289,2.25866549591236,2.2590155076115,2.26019554705433,2.26078556677574,2.26095557245818,2.26166559619073,2.2620356085584,2.26266562961686,2.26313564532714,2.2634556560235,2.26424568243014,2.26480570114877,2.26528571719331,2.26587573691472,2.26604574259716,2.26740578805669,2.26808581078646,2.26867583050787,2.2690558432098,2.26976586694235,2.27070589836291,2.27118591440745,2.27187593747147,2.2723859545188,2.27249595819567,2.27339598827918,2.27415601368304,2.27498604142672,2.27565606382223,2.27526605078604,2.27634608688625,2.27707611128732,2.27779613535413,2.27788613836249,2.27922618315349,2.27939618883593,2.2799462072203,2.28033622025649,2.28258629546527,2.28223628376613,2.28231628644022,2.28339632254044,2.28436635496378,2.28514638103615,2.28675643485222,2.286786435855,2.28749645958755,2.28975653513059,2.29064656487984,2.29219661669034,2.29357666281839,2.29660676409955,2.29810681423874,2.29799681056187,2.37519939105874,2.37363933891398,2.37947953412255,2.37650943484696,2.37793948264632,2.38043956621164,2.37673944253497,2.37513938905317,2.2907365678882,2.29037655585479,2.29062656421132,2.2901665488353,2.29142659095222,2.29103657791603,2.29116658226143,2.2917166006458,2.29195660866807,2.29229662003295,2.29266663240062,2.29433668822225,2.29323665145351,2.29323665145351,2.29410668053424,2.29352666114709,2.29386667251197,2.29439669022781,2.29486670593809,2.29511671429462,2.29581673769291,2.29537672298542,2.29619675039484,2.29666676610512,2.2968267714533,2.29740679084045,2.29734678883488,2.29755679585437,2.29797680989334,2.29832682159249,2.29875683596572,2.29890684097964,2.29973686872332,2.30009688075673,2.30093690883467,2.30110691451711,2.30130692120234,2.30168693390427,2.30208694727472,2.30166693323574,2.302786970673,2.30308698070084,2.30404701278992,2.30324698604902,2.30410701479549,2.3054470595865,2.30532705557536,2.3060670803107,2.30597707730234,2.30670710170342,2.30768713446102,2.30809714816573,2.30951719563083,2.3101172156865,2.30907718092333,2.30961719897344,2.31096724409871,2.31208728153597,2.31261729925182,2.31323731997601,2.31563740019872,2.31810748276124,2.31896751150771,2.3219376107833,2.41600075484465,2.4156007414742,2.41520072810375,2.41822082905065,2.41817082737934,2.41732079896714,2.41834083306178,2.41909085813138,2.4214609373513,2.42228096476072,2.42377101456565,2.42439103528984,2.4260010891059,2.42468104498342,2.42397102125087,2.43198128899413,2.4253310667104
2.23747478761276,2.23766479396373,2.23806480733418,2.23899483842047,2.24008487485495,2.24086490092733,2.24106490761255,2.24248495507765,2.24183493335067,2.24335498415838,2.24422501323911,2.24407500822519,2.2451550443254,2.24507504165131,2.24698510549521,2.24798513892134,2.24735511786288,2.24813514393526,2.24826514828065,2.24917517869843,2.25019521279308,2.25067522883762,2.25213527763976,2.25146525524425,2.25269529635839,2.25336531875389,2.2535953264419,2.25462536087081,2.25530538360058,2.25592540432477,2.25708544309908,2.25714544510465,2.25830548387895,2.2587054972494,2.26238562025754,2.25995553903206,2.25969553034127,2.26038555340529,2.26219561390658,2.26175559919908,2.26202560822414,2.26241562126033,2.26333565201236,2.26457569346076,2.26432568510423,2.26525571619052,2.26555572621836,2.26651575830744,2.26674576599545,2.26769579775027,2.26818581412907,2.26868583084213,2.26917584722093,2.26976586694235,2.27149592476954,2.27122591574449,2.27191593880852,2.27280596855777,2.2737259993098,2.27427601769417,2.27399600833486,2.27595607385006,2.27575606716484,2.27562606281944,2.27604607685841,2.2790961788081,2.27755612733186,2.27822614972737,2.27957619485264,2.28139625568818,2.28082623663529,2.28186627139846,2.28405634460168,2.28261629646806,2.28365633123123,2.28476636833423,2.28544639106399,2.2862964194762,2.28794647462931,2.2890565117323,2.29001654382139,2.29165659864023,2.29339665680169,2.2950467119548,2.30155692955887,2.3458384096677,2.35954886793988,2.37963953947074,2.3779194819778,2.37751946860735,2.37882951239557,2.37923952610029,2.37927952743733,2.37941953211699,2.37321932487501,2.29054656153723,2.2896765324565,2.29065656521411,2.29014654816678,2.2907365678882,2.29134658827813,2.2915365946291,2.2914065902837,2.29219661669034,2.29210661368199,2.29277663607749,2.29325665212203,2.29401667752589,2.29325665212203,2.29325665212203,2.29404667852867,2.29418668320833,2.29475670226122,2.29464669858435,2.29418668320833,2.29566673267899,2.29680677078478,2.29618675006058,2.29698677680148,2.29652676142546,2.29710678081261,2.29831682125823,2.29791680788777,2.29814681557578,2.29928685368157,2.2976767998655,2.29818681691283,2.29856682961476,2.29926685301304,2.30006687975394,2.30167693357001,2.30041689145309,2.30217695028307,2.30119691752547,2.30158693056165,2.30181693824966,2.30283697234431,2.30360699808243,2.30358699741391,2.30411701512975,2.30572706894581,2.3044670268289,2.3057570699486,2.307227119085,2.30674710304046,2.30710711507387,2.30787714081198,2.30806714716295,2.30904717992055,2.30989720833276,2.31054723005974,2.31187727451648,2.31245729390364,2.31365733401499,2.31543739351349,2.31651742961371,2.40248030292344,2.41527073044358,2.4112405957363,2.41339066760246,2.41416069334058,2.41729079796435,2.41833083272752,2.41787081735151,2.41827083072196,2.4176408096635,2.41900085512303,2.42296098749048,2.42298098815901,2.42236096743481,2.42330099885537,2.42277098113952,2.42247097111168,2.42450103896672,2.42580108242068,2.42491105267143
2.23664475986908,2.23829481502218,2.23836481736201,2.23874483006394,2.23952485613632,2.24003487318364,2.24103490660977,2.24182493301641,2.24219494538407,2.24298497179071,2.24359499218065,2.24455502426973,2.24469502894939,2.24503504031427,2.2455950590329,2.24752512354532,2.24782513357316,2.24777513190185,2.24869516265389,2.24827514861492,2.24958519240314,2.25140525323869,2.25099523953398,2.25240528666481,2.25273529769543,2.25271529702691,2.25286530204083,2.2542153471661,2.2540853428207,2.25498537290422,2.25626541568966,2.25743545479822,2.25696543908794,2.25820548053634,2.25878549992349,2.25991553769501,2.25933551830786,2.26024554872563,2.26100557412949,2.26138558683142,2.26196560621857,2.26372566504855,2.26256562627425,2.26337565334941,2.26472569847468,2.26503570883677,2.26539572087018,2.26638575396204,2.26645575630187,2.26719578103721,2.26779580109288,2.26837582048003,2.2688758371931,2.26902584220701,2.27010587830723,2.27103590939353,2.27210594515948,2.27155592677511,2.27263596287533,2.27364599663571,2.27471603240167,2.27505604376655,2.27541605579996,2.27571606582779,2.27653609323722,2.27741612265221,2.2774961253263,2.27915618081366,2.27926618449054,2.28127625167705,2.28051622627319,2.28159626237341,2.28299630916999,2.28375633457384,2.28421634994986,2.28534638772138,2.28658642916978,2.28683643752631,2.28876650203873,2.28925651841753,2.29204661167642,2.29246662571539,2.29641675774859,2.35153860019661,2.34833849323301,2.36241896387286,2.37539939774396,2.3804495665459,2.37741946526474,2.37875951005574,2.37928952777159,2.37864950637887,2.37957953746517,2.37474937601698,2.38046956721442,2.29087657256785,2.29013654783252,2.28966653212224,2.2914065902837,2.2904765591974,2.29058656287428,2.2904765591974,2.29154659496336,2.29165659864023,2.29054656153723,2.29306664577107,2.29295664209419,2.29312664777663,2.29284663841732,2.2930066437655,2.29310664710811,2.29404667852867,2.29403667819441,2.29386667251197,2.29420668387685,2.29564673201047,2.29568673334752,2.29555672900212,2.29641675774859,2.29562673134195,2.2963867567458,2.29812681490726,2.29750679418306,2.29735678916914,2.2979868102276,2.29901684465651,2.29875683596572,2.29897684331947,2.29885683930833,2.29930685435009,2.29993687540855,2.29979687072889,2.30086690649484,2.30067690014388,2.30160693123018,2.30086690649484,2.30330698805459,2.30319698437772,2.30520705156423,2.3030969810351,2.30441702515759,2.30504704621605,2.3070471130683,2.30543705925224,2.30560706493468,2.30751712877858,2.30726712042205,2.30804714649442,2.3079771441546,2.31007721434946,2.31124725345803,2.31310731563062,2.3142473537364,2.31536739117366,2.31565740086724,2.3190475141818,2.40255030526327,2.40310032364764,2.41448070403694,2.41722079562452,2.41600075484465,2.41569074448255,2.42020089523438,2.41828083105622,2.41783081601446,2.41677078058277,2.42542106971875,2.41789081802003,2.41967087751853,2.42162094269948,2.42043090292239,2.41956087384166,2.42300098882753,2.42640110247635,2.42856117467679,2.42504105701682
2.23709477491083,2.23798480466009,2.23783479964617,2.23843481970184,2.23869482839263,2.23945485379649,2.24009487518921,2.24180493234788,2.24143491998022,2.24207494137294,2.24227494805816,2.24395500421405,2.24441501959007,2.24468502861512,2.24536505134489,2.24619507908857,2.24658509212476,2.24712511017487,2.24853515730571,2.24966519507723,2.25053522415796,2.25077523218023,2.25139525290443,2.25185526828044,2.25298530605196,2.25280530003526,2.25262529401856,2.25375533179008,2.25473536454768,2.25474536488195,2.25574539830807,2.25620541368409,2.25690543708238,2.25729545011856,2.2579054705085,2.25769546348902,2.25849549022992,2.25955552566161,2.26008554337745,2.26115557914341,2.26278563362799,2.26245562259737,2.26231561791771,2.26343565535497,2.26417568009031,2.26516571318217,2.26514571251365,2.26612574527125,2.26662576198431,2.26702577535476,2.26671576499267,2.26818581412907,2.26906584354406,2.26983586928218,2.27201594215113,2.27122591574449,2.27166593045199,2.27228595117618,2.27240595518732,2.27339598827918,2.27407601100895,2.27493603975542,2.27633608655199,2.27592607284728,2.27616608086955,2.27685610393358,2.27763613000595,2.27844615708112,2.27948619184429,2.27995620755456,2.28090623930938,2.2818562710642,2.28298630883572,2.28343632387748,2.28519638270746,2.28624641780489,2.28812648064601,2.28908651273509,2.29054656153723,2.29071656721967,2.29448669323617,2.29451669423895,2.35712878704865,2.35297864833023,2.37561940509771,2.36029889300947,2.37602941880242,2.37749946793883,2.37739946459621,2.3780994879945,2.37736946359343,2.37813948933155,2.3793895311142,2.37291931484717,2.37312932186666,2.29083657123081,2.29045655852888,2.29025655184366,2.29124658493552,2.29065656521411,2.29051656053445,2.29149659329205,2.29131658727535,2.29095657524194,2.29192660766528,2.29178660298563,2.29199661000511,2.29246662571539,2.29297664276272,2.29285663875158,2.29319665011646,2.29314664844516,2.29406667919719,2.2950467119548,2.29454669524173,2.29467669958713,2.29590674070126,2.29569673368178,2.29538672331968,2.29778680354238,2.29663676510233,2.29688677345887,2.29654676209398,2.29734678883488,2.29739679050619,2.29866683295737,2.29843682526936,2.29823681858414,2.29897684331947,2.29962686504645,2.29992687507429,2.29985687273446,2.3003868904503,2.30084690582632,2.30367700042226,2.30249696097943,2.30259696432204,2.30228695395994,2.302556962985,2.30326698671755,2.30383700577044,2.30414701613254,2.30453702916872,2.30521705189849,2.30625708666166,2.30693710939143,2.30803714616016,2.30774713646659,2.30934718994839,2.30998721134111,2.31093724309593,2.31176727083961,2.31397734471135,2.31860749947431,2.41050057100096,2.40597041958061,2.41293065222645,2.41235063283929,2.41330066459411,2.41484071607035,2.41521072843801,2.41550073813159,2.41695078659947,2.41739080130697,2.41807082403673,2.41683078258834,2.41674077957998,2.41662077556885,2.41856084041553,2.42168094470504,2.41962087584723,2.42025089690568,2.41842083573587,2.42030089857699,2.42659110882732,2.4219509537301
2.23624474649863,2.23724477992475,2.23694476989692,2.2377747976406,2.2385748243815,2.23913484310013,2.23910484209735,2.24063489323932,2.24103490660977,2.24156492432561,2.24316497780741,2.24290496911662,2.24416501123354,2.24451502293268,2.24526504800228,2.24594507073204,2.24659509245902,2.24669509580164,2.24868516231963,2.25006520844768,2.24845515463162,2.24854515763997,2.25135525156738,2.25098523919971,2.25151525691556,2.25135525156738,2.25263529435282,2.25361532711042,2.2540353411494,2.25506537557831,2.25530538360058,2.25627541602392,2.25749545680379,2.25730545045283,2.25763546148345,2.25820548053634,2.25853549156696,2.25907550961707,2.26087556978409,2.26019554705433,2.26163559518795,2.26137558649716,2.26266562961686,2.26305564265305,2.2638156680569,2.26427568343292,2.26509571084234,2.26604574259716,2.26531571819609,2.26660576131579,2.26706577669181,2.26828581747168,2.26877583385048,2.2688758371931,2.26974586627383,2.27005587663592,2.27067589736012,2.27162592911494,2.27249595819567,2.27258596120402,2.27285597022907,2.27435602036826,2.27522604944899,2.27583606983893,2.27601607585563,2.27683610326505,2.27729611864107,2.27932618649611,2.28012621323701,2.28062622995007,2.28024621724814,2.28274630081345,2.28292630683016,2.28509637936485,2.28607641212245,2.28713644755414,2.28819648298584,2.29046655886314,2.29143659128648,2.29437668955929,2.36381901066943,2.3686291714491,2.37283931217308,2.35918885590647,2.37699945122576,2.37701945189429,2.37615942314782,2.37705945323133,2.37792948231206,2.37819949133711,2.37878951105853,2.37707945389985,2.37720945824525,2.37852950236774,2.37696945022298,2.29027655251218,2.29028655284644,2.28996654215008,2.28996654215008,2.29004654482417,2.29003654448991,2.29041655719184,2.29120658359847,2.29155659529762,2.29192660766528,2.29216661568755,2.29218661635608,2.29231662070147,2.29239662337556,2.29257662939227,2.29304664510254,2.29298664309698,2.29365666549248,2.29337665613317,2.29376666916935,2.29416668253981,2.29483670493531,2.29489670694088,2.29536672265116,2.29564673201047,2.29583673836143,2.29617674972632,2.29663676510233,2.29688677345887,2.29658676343103,2.29688677345887,2.2979368085563,2.29785680588221,2.29871683462867,2.30074690248371,2.2997168680548,2.29978687039463,2.29990687440576,2.30017688343082,2.30085690616058,2.30147692688478,2.3019869439321,2.30179693758114,2.3026069646563,2.30330698805459,2.30337699039442,2.30429702114645,2.30558706426616,2.30478703752526,2.30612708231626,2.30567706727451,2.30681710538029,2.30806714716295,2.30974720331884,2.31095724376445,2.31161726582569,2.31444736042163,2.31635742426553,2.40588041657226,2.40862050815985,2.41041056799261,2.41090058437141,2.4109805870455,2.41394068598683,2.41368067729604,2.4164007682151,2.41620076152988,2.41502072208705,2.41576074682238,2.41616076019283,2.4157807474909,2.41565074314551,2.41661077523459,2.41801082203116,2.42024089657142,2.42016089389733,2.4200408898862,2.42051090559648,2.42210095874402,2.42917119506672,2.42491105267143
2.23590473513374,2.23673476287743,2.23708477457657,2.23791480232026,2.23838481803054,2.23928484811405,2.23896483741769,2.23969486181876,2.24130491563482,2.24260495908878,2.24218494504981,2.24249495541191,2.24344498716673,2.24465502761234,2.2446150262753,2.24671509647016,2.24725511452027,2.24774513089907,2.24785513457594,2.24710510950635,2.24936518504939,2.24933518404661,2.24874516432519,2.24991520343376,2.25139525290443,2.25223528098237,2.2532853160798,2.25275529836396,2.25352532410207,2.25486536889308,2.25492537089865,2.25539538660893,2.25584540165068,2.25636541903227,2.25686543574533,2.25789547017424,2.25820548053634,2.25931551763934,2.25915551229116,2.25997553970058,2.26148559017403,2.26155559251386,2.2621656129038,2.26453569212371,2.2631456456614,2.26387567006247,2.26485570282007,2.26532571853035,2.26563572889245,2.26633575229074,2.26766579674748,2.2681258121235,2.26891583853014,2.2694158552432,2.27286597056334,2.2702158819841,2.27143592276398,2.27205594348817,2.27203594281965,2.27270596521516,2.2735459932931,2.27428601802843,2.27566606415649,2.27599607518711,2.27650609223443,2.27763613000595,2.27788613836249,2.27867616476912,2.27965619752673,2.2802562175824,2.28264629747084,2.28307631184408,2.28400634293037,2.28619641613359,2.28798647596635,2.289006510061,2.28995654181582,2.29268663306914,2.36226895885894,2.3613489281069,2.36395901534909,2.36537906281419,2.37219929078036,2.37243929880263,2.37350933456859,2.37567940710328,2.37713945590542,2.37718945757673,2.37726946025082,2.3788995147354,2.37692944888594,2.37754946961013,2.37621942515339,2.37493938236795,2.29315664877942,2.29033655451775,2.28974653479633,2.29068656621689,2.28988653947599,2.28970653345929,2.29070656688541,2.29007654582695,2.29079656989376,2.29036655552053,2.29157659596614,2.29156659563188,2.29136658894665,2.29183660465693,2.29235662203852,2.29335665546464,2.29321665078499,2.29353666148135,2.29345665880726,2.29399667685736,2.29366666582674,2.29421668421111,2.29426668588242,2.29458669657878,2.29466669925287,2.2950967136261,2.29594674203831,2.29533672164837,2.29554672866786,2.29642675808285,2.29670676744216,2.29745679251176,2.29683677178756,2.29720678415523,2.2987368352972,2.29857682994902,2.29889684064538,2.29973686872332,2.2997168680548,2.29998687707985,2.30043689212161,2.30102691184302,2.30132692187086,2.30183693891819,2.30254696265074,2.30294697602119,2.30522705223275,2.30429702114645,2.30507704721883,2.30586707362547,2.30647709401541,2.30835715685652,2.30663709936359,2.30809714816573,2.31168726816552,2.31422735306788,2.31240729223233,2.31663743362484,2.40416035907933,2.41015055930182,2.40801048776991,2.40957053991467,2.41046056966392,2.41086058303437,2.41169061077805,2.41268064386992,2.41823082938491,2.41685078325686,2.41461070838234,2.41457070704529,2.4162207621984,2.41661077523459,2.4154707371288,2.41669077790868,2.41593075250482,2.42447103796393,2.42207095774123,2.42140093534573,2.42261097579134,2.41882084910632,2.41505072308983,2.41633076587527
2.23583473279392,2.23615474349028,2.23710477524509,2.23935485045388,2.23880483206951,2.24051488922818,2.23872482939542,2.24113490995238,2.24129491530056,2.24116491095516,2.2419549373618,2.24215494404703,2.24307497479906,2.24320497914446,2.24364499385195,2.24562506003568,2.2468851021526,2.24568506204125,2.24723511385174,2.24788513557873,2.24967519541149,2.24818514560656,2.24826514828065,2.24916517836417,2.2519952729601,2.25171526360079,2.25244528800186,2.25211527697124,2.2523052833222,2.25413534449201,2.25430535017445,2.2551453782524,2.2556353946312,2.25584540165068,2.25584540165068,2.25758545981214,2.25779546683163,2.25874549858645,2.25989553702649,2.26044555541086,2.26072556477017,2.2628356352993,2.26175559919908,2.26246562293163,2.26287563663634,2.26391567139951,2.26432568510423,2.26507571017382,2.26560572788967,2.2668357690038,2.26657576031301,2.26810581145498,2.26824581613464,2.26850582482543,2.26894583953292,2.26927585056355,2.27059589468603,2.27171593212329,2.27251595886419,2.27348599128753,2.27320598192822,2.27412601268025,2.27488603808411,2.27590607217876,2.27600607552137,2.27725611730403,2.2782961520672,2.27942618983872,2.28047622493615,2.28264629747084,2.28295630783294,2.28434635429525,2.28586640510296,2.2877164669413,2.28803647763766,2.29151659396057,2.29257662939227,2.36173894114309,2.36221895718763,2.3630789859341,2.36496904910948,2.37014922225681,2.37148926704781,2.37274930916473,2.37277931016752,2.37544939941527,2.37585941311998,2.37703945256281,2.37847950069643,2.38006955384397,2.37688944754889,2.37735946325917,2.37523939239578,2.3769894508915,2.37596941679686,2.29086657223359,2.28932652075736,2.28979653646764,2.28961653045094,2.28970653345929,2.28893650772117,2.2898065368019,2.29004654482417,2.29030655351496,2.29015654850104,2.29141659061796,2.29258662972653,2.29175660198284,2.29185660532546,2.29237662270704,2.29134658827813,2.29213661468477,2.29330665379334,2.29285663875158,2.2936266644897,2.29378666983788,2.29452669457321,2.29510671396036,2.29441669089634,2.29555672900212,2.29501671095201,2.29611674772075,2.29608674671797,2.29710678081261,2.29650676075694,2.29723678515801,2.29674676877921,2.29725678582653,2.29790680755351,2.29784680554795,2.29894684231668,2.29995687607707,2.2998468724002,2.29977687006037,2.30302697869528,2.30066689980962,2.30124691919677,2.30127692019956,2.30413701579827,2.30232695529699,2.30361699841669,2.30674710304046,2.30558706426616,2.30763713278971,2.30662709902933,2.30693710939143,2.30724711975352,2.30873716955845,2.31075723707922,2.31138725813768,2.40264030827162,2.40449037010995,2.4037803463774,2.40492038448318,2.40806048944122,2.41007055662773,2.41016055963608,2.41061057467784,2.41199062080589,2.41102058838255,2.41121059473351,2.41131059807612,2.4120906241485,2.41311065824315,2.41759080799219,2.41520072810375,2.41588075083352,2.41940086849348,2.41784081634872,2.42406102425922,2.40981054793694,2.42441103595836,2.41804082303395,2.4223109657635,2.32119758604797,2.42312099283866
2.23458469101126,2.23593473613653,2.23658475786351,2.23761479229242,2.23806480733418,2.23894483674917,2.23958485814189,2.23928484811405,2.24112490961812,2.24205494070442,2.24168492833675,2.2420849417072,2.24274496376844,2.2427549641027,2.24477503162348,2.24410500922797,2.24501503964575,2.24603507374039,2.24870516298815,2.24911517669286,2.24815514460378,2.24922518036973,2.24960519307166,2.24956519173462,2.25097523886545,2.25153525758408,2.25171526360079,2.25346532209651,2.2532353144085,2.25307530906032,2.25437535251428,2.25485536855882,2.25516537892092,2.25562539429694,2.25665542872584,2.257235448113,2.25851549089844,2.25859549357253,2.25848548989565,2.26001554103763,2.26007554304319,2.26075556577296,2.26097557312671,2.26223561524362,2.26277563329373,2.26338565368367,2.26382566839116,2.26440568777832,2.26520571451922,2.26588573724898,2.26717578036868,2.26671576499267,2.26790580476975,2.27107591073057,2.26898584086997,2.26978586761087,2.27066589702586,2.27079590137126,2.27146592376676,2.27278596788925,2.27417601435156,2.27411601234599,2.27449602504792,2.27616608086955,2.27759612866891,2.27877616811174,2.27939618883593,2.2802062159111,2.28121624967148,2.28253629379397,2.28388633891924,2.28612641379376,2.2877664686126,2.28968653279076,2.29081657056229,2.36255896855252,2.36235896186729,2.3625889695553,2.36229895986172,2.36297898259149,2.36458903640755,2.37194928242383,2.3724993008082,2.37254930247951,2.37366933991677,2.37527939373283,2.37528939406709,2.37850950169921,2.38156960398316,2.37467937367715,2.37639943117009,2.37761947194996,2.37735946325917,2.37733946259065,2.29183660465693,2.29182660432267,2.29089657323638,2.29067656588263,2.28983653780468,2.28976653546485,2.29004654482417,2.29002654415565,2.28987653914173,2.29032655418348,2.29315664877942,2.29088657290211,2.29130658694109,2.29116658226143,2.2917166006458,2.29204661167642,2.29157659596614,2.29261663072931,2.29294664175993,2.29322665111925,2.29311664744237,2.2931366481109,2.29466669925287,2.29497670961497,2.29470670058991,2.29510671396036,2.29499671028349,2.29587673969848,2.29546672599377,2.29610674738649,2.29628675340319,2.29702677813852,2.29684677212182,2.29730678749784,2.2971867834867,2.29850682760919,2.29896684298521,2.29913684866765,2.29912684833339,2.30028688710769,2.30014688242803,2.3003868904503,2.30156692989313,2.30383700577044,2.30209694760898,2.30271696833318,2.30268696733039,2.30374700276209,2.30488704086787,2.30625708666166,2.30671710203768,2.30727712075631,2.30876717056123,2.31460736576981,2.31273730326295,2.40419036008211,2.40346033568104,2.40461037412108,2.40583041490096,2.40689045033265,2.40849050381445,2.4096905439258,2.40888051685064,2.40983054860546,2.41020056097312,2.41054057233801,2.41148060375856,2.41002055495642,2.40966054292302,2.41372067863309,2.41401068832666,2.41466071005364,2.4173307993014,2.41878084776928,2.41953087283887,2.41135059941317,2.31915751785868,2.31878750549101,2.3182474874409,2.31892751017067,2.31865750114561,2.3186875021484
2.23470469502239,2.23530471507807,2.23595473680505,2.23773479630355,2.23767479429799,2.237904801986,2.23880483206951,2.23932484945109,2.23996487084381,2.24072489624767,2.2414149193117,2.24127491463204,2.24331498282133,2.24346498783525,2.24820514627509,2.2459550710663,2.24486503463183,2.24623508042562,2.2478151332389,2.24774513089907,2.24843515396309,2.24869516265389,2.24863516064832,2.25031521680421,2.24978519908836,2.25138525257016,2.25111524354511,2.25156525858687,2.25301530705475,2.25324531474276,2.25402534081514,2.25443535451985,2.25491537056439,2.25587540265347,2.25574539830807,2.2574154541297,2.25780546716589,2.25832548454747,2.25911551095411,2.25899550694298,2.26032555139972,2.26181560120465,2.26044555541086,2.26233561858624,2.26242562159459,2.26290563763913,2.2639956740736,2.26495570616268,2.265235715522,2.26609574426847,2.26659576098153,2.26706577669181,2.2677658000901,2.26839582114856,2.26913584588389,2.26966586359974,2.27080590170552,2.27187593747147,2.27173593279181,2.27296597390595,2.27362599596719,2.2756360631537,2.27553605981109,2.27671609925392,2.27758612833465,2.27822614972737,2.27957619485264,2.28148625869654,2.28243629045136,2.28406634493594,2.28605641145393,2.2866564315096,2.28993654114729,2.36412902103153,2.36354900164438,2.36424902504267,2.36470904041868,2.36347899930455,2.36384901167222,2.36319898994523,2.36509905345487,2.37332932855188,2.3723192947915,2.37288931384439,2.37289931417865,2.37581941178294,2.37457937033454,2.37433936231227,2.37457937033454,2.37341933156024,2.37414935596131,2.37406935328722,2.37772947562684,2.37333932888615,2.29033655451775,2.28925651841753,2.28897650905821,2.28943652443423,2.28913651440639,2.29083657123081,2.29013654783252,2.29254662838948,2.28964653145372,2.29063656454558,2.29031655384922,2.29072656755393,2.29107657925308,2.29114658159291,2.29144659162074,2.29146659228927,2.29154659496336,2.29231662070147,2.29312664777663,2.29293664142567,2.29278663641175,2.29358666315265,2.29401667752589,2.293676666161,2.29482670460105,2.2941166808685,2.29489670694088,2.29506671262332,2.2952267179715,2.29532672131411,2.2957167343503,2.29617674972632,2.29641675774859,2.29680677078478,2.29758679685715,2.29761679785994,2.2984268249351,2.29902684499077,2.29920685100748,2.29962686504645,2.30022688510212,2.30091690816615,2.30043689212161,2.30102691184302,2.30269696766465,2.3024269586396,2.302786970673,2.30334698939164,2.30452702883446,2.30485703986508,2.3070471130683,2.30702711239978,2.3088271725668,2.31322731964175,2.40403035473393,2.40361034069496,2.40435036543029,2.40430036375899,2.40474037846648,2.40654043863351,2.40806048944122,2.40745046905128,2.40883051517933,2.40989055061103,2.4095605395804,2.40895051919047,2.41042056832687,2.4109805870455,2.4106205750121,2.40811049111252,2.40786048275599,2.41198062047163,2.4116006077697,2.41293065222645,2.31772747005932,2.31679743897302,2.31610741590899,2.31594741056081,2.31860749947431,2.3172674546833,2.31703744699529,2.31839749245482
2.23472469569092,2.23442468566308,2.23637475084402,2.2369747708997,2.23774479663782,2.23822481268236,2.23869482839263,2.2388848347436,2.23969486181876,2.24035488388,2.24094490360142,2.24209494204146,2.24310497580185,2.24209494204146,2.24375499752883,2.24516504465966,2.24516504465966,2.24532505000785,2.24613507708301,2.24714511084339,2.24731511652583,2.24787513524446,2.24916517836417,2.24942518705496,2.25012521045325,2.25085523485432,2.25214527797402,2.25178526594061,2.2540853428207,2.25326531541128,2.25350532343355,2.25414534482627,2.25333531775111,2.25557539262563,2.2563054170267,2.2569754394222,2.25699544009073,2.25696543908794,2.25869549691514,2.25972553134405,2.26002554137189,2.25997553970058,2.26130558415733,2.26106557613506,2.2620356085584,2.26341565468645,2.26390567106525,2.26598574059159,2.26517571351643,2.2656757302295,2.26607574359995,2.2667057646584,2.26675576632971,2.2688758371931,2.26881583518753,2.26925584989502,2.27072589903143,2.27153592610659,2.27283596956055,2.27295597357169,2.27401600900338,2.27603607652415,2.27603607652415,2.27656609424,2.27876616777748,2.27971619953229,2.28078623529825,2.28317631518669,2.28461636332031,2.28626641847342,2.28774646794408,2.28990654014451,2.36220895685337,2.36321899061376,2.36316898894245,2.36533906147714,2.36699911696451,2.36448903306494,2.36514905512618,2.36464903841312,2.37247930013968,2.3729393155157,2.37362933857972,2.37266930649064,2.37225929278593,2.37301931818979,2.37368934058529,2.3732993275491,2.37534939607266,2.37399935094739,2.37501938504204,2.37560940476345,2.37303931885831,2.37077924331526,2.29003654448991,2.28959652978241,2.29013654783252,2.28891650705265,2.28937652242867,2.28969653312503,2.28903651106378,2.2899865428186,2.28970653345929,2.28988653947599,2.29118658292995,2.28977653579911,2.29067656588263,2.29055656187149,2.29045655852888,2.2910965799216,2.29191660733102,2.29174660164858,2.29204661167642,2.29307664610533,2.29285663875158,2.29361666415544,2.29294664175993,2.29302664443402,2.29407667953145,2.29434668855651,2.29426668588242,2.29494670861218,2.2952267179715,2.29566673267899,2.29599674370961,2.2955367283336,2.2962067507291,2.29681677111904,2.29818681691283,2.29796680955908,2.29807681323596,2.29764679886272,2.29925685267878,2.29949686070105,2.30056689646701,2.30054689579848,2.300336888779,2.30170693457279,2.30174693590984,2.30203694560341,2.30399701111862,2.30370700142504,2.30419701780384,2.30567706727451,2.30710711507387,2.3087771708955,2.31219728521284,2.40227029590395,2.40264030827162,2.40338033300695,2.40373034470609,2.40432036442751,2.40537039952494,2.40624042860567,2.40627042960845,2.40643043495663,2.40645043562515,2.40848050348019,2.41044056899539,2.40925052921831,2.40814049211531,2.4109805870455,2.40846050281167,2.40812049144678,2.40886051618212,2.40846050281167,2.40592041790931,2.31616741791456,2.31611741624326,2.31526738783105,2.31488737512912,2.31499737880599,2.31534739050514,2.3153573908394,2.31617741824882,2.31783747373619
2.23371466193053,2.23473469602518,2.23549472142903,2.23575473011983,2.2362247458301,2.23843481970184,2.23834481669349,2.23897483775195,2.23922484610848,2.24008487485495,2.24032488287722,2.24046488755688,2.24205494070442,2.24219494538407,2.24316497780741,2.2435049891723,2.24539505234767,2.24485503429757,2.24603507374039,2.24725511452027,2.2467550978072,2.24770512956202,2.24837515195753,2.24898517234746,2.24922518036973,2.25055522482648,2.2503952194783,2.25200527329436,2.25164526126096,2.2524852893389,2.25314531140015,2.2537753324586,2.25414534482627,2.25498537290422,2.25517537925518,2.25577539931085,2.25673543139994,2.25794547184555,2.25817547953356,2.25875549892071,2.25933551830786,2.25996553936632,2.26135558582863,2.26140558749994,2.26188560354448,2.26224561557789,2.26245562259737,2.26437568677553,2.26424568243014,2.26574573256932,2.26612574527125,2.26669576432414,2.26762579541044,2.26849582449117,2.26949585791729,2.26996587362757,2.27120591507597,2.27272596588368,2.27235595351601,2.27413601301452,2.2749660407582,2.27550605880831,2.27658609490852,2.27766613100874,2.2794561908415,2.28127625167705,2.28231628644022,2.28483637067406,2.28654642783273,2.28997654248434,2.29107657925308,2.36279897657478,2.36069890637992,2.36295898192297,2.36395901534909,2.36501905078078,2.36566907250776,2.36694911529321,2.36505905211783,2.36603908487543,2.3681891567416,2.37051923462447,2.3712592593598,2.37279931083604,2.3700992205855,2.372989317187,2.37403935228443,2.37416935662983,2.37233929546002,2.37196928309235,2.3734293318945,2.37751946860735,2.37228929378871,2.29147659262353,2.28986653880747,2.28921651708048,2.28983653780468,2.28953652777684,2.28845649167663,2.28841649033958,2.28845649167663,2.28889650638412,2.28884650471282,2.28870650003316,2.28996654215008,2.28976653546485,2.28985653847321,2.29048655953166,2.29062656421132,2.29023655117513,2.29068656621689,2.29154659496336,2.29265663206636,2.29215661535329,2.29350666047856,2.29320665045072,2.29399667685736,2.29316664911368,2.29343665813873,2.29376666916935,2.29395667552032,2.29448669323617,2.2944266912306,2.29496670928071,2.29517671630019,2.29613674838927,2.29711678114687,2.29650676075694,2.29696677613296,2.29732678816636,2.29769680053403,2.29864683228885,2.29820681758135,2.29934685568713,2.30065689947536,2.30018688376508,2.30041689145309,2.3010069111745,2.30102691184302,2.30167693357001,2.30337699039442,2.30486704019935,2.30556706359763,2.30566706694025,2.31015721702355,2.3100672140152,2.40313032465042,2.40212029089003,2.4026703092744,2.40348033634956,2.40328032966434,2.40417035941359,2.40552040453886,2.40660044063907,2.40573041155834,2.40622042793715,2.40536039919068,2.40607042292323,2.40602042125192,2.40707045634935,2.40748047005406,2.4063604326168,2.40712045802066,2.40803048843843,2.40803048843843,2.31409734872248,2.3139373433743,2.31371733602055,2.31418735173083,2.31377733802612,2.31390734237152,2.31380733902891,2.31386734103447,2.31459736543554,2.31717745167495,2.31525738749679
2.23337465056565,2.23532471574659,2.23526471374102,2.23561472544017,2.23687476755709,2.23706477390805,2.23751478894981,2.23887483440934,2.2391948451057,2.23920484543996,2.24039488521705,2.24114491028664,2.24136491764039,2.24218494504981,2.24357499151213,2.24396500454831,2.24349498883804,2.2438650012057,2.24478503195774,2.24596507140057,2.24634508410249,2.2471951125147,2.24808514226395,2.24843515396309,2.2494151867207,2.24963519407445,2.24949518939479,2.25139525290443,2.25172526393505,2.25204527463141,2.25224528131663,2.25312531073162,2.25311531039736,2.25442535418559,2.25508537624683,2.25607540933869,2.25626541568966,2.25721544744448,2.25816547919929,2.25854549190122,2.25905550894855,2.25974553201257,2.26049555708217,2.26089557045262,2.26574573256932,2.2622156145751,2.26317564666418,2.2631456456614,2.26463569546632,2.26526571652478,2.26544572254149,2.2660357422629,2.26867583050787,2.26808581078646,2.2689258388644,2.26968586426826,2.27050589167768,2.27189593813999,2.27235595351601,2.27368599797276,2.27449602504792,2.27571606582779,2.27795614070231,2.27951619284707,2.28131625301409,2.2831463141839,2.2842063496156,2.28755646159312,2.2872264505625,2.36193894782832,2.36336899562768,2.36330899362211,2.36335899529342,2.36539906348271,2.3643690290538,2.36774914203411,2.36915918916494,2.36604908520969,2.36616908922083,2.36625909222918,2.36768914002854,2.37024922559942,2.37099925066901,2.37134926236816,2.37057923663004,2.3705892369643,2.3702792266022,2.3708992473264,2.37203928543218,2.37146926637929,2.3688591791371,2.37325932621206,2.37046923295317,2.36024889133817,2.29040655685757,2.28996654215008,2.28966653212224,2.29004654482417,2.28940652343145,2.28906651206657,2.28916651540918,2.29116658226143,2.28954652811111,2.28959652978241,2.28963653111946,2.29034655485201,2.29086657223359,2.28979653646764,2.2898065368019,2.29013654783252,2.2909665755762,2.2915865963004,2.29114658159291,2.29210661368199,2.29240662370982,2.29311664744237,2.29289664008863,2.2931866497822,2.29333665479612,2.29351666081282,2.29359666348691,2.29373666816657,2.29441669089634,2.2942966868852,2.29507671295758,2.29671676777642,2.29582673802717,2.29626675273467,2.29689677379313,2.29685677245608,2.29717678315244,2.29787680655073,2.29869683396015,2.2990968473306,2.29888684031112,2.29951686136958,2.300336888779,2.30217695028307,2.30124691919677,2.30199694426637,2.30394700944731,2.3046970345169,2.30561706526894,2.31035722370877,2.30919718493447,2.31364733368073,2.40074024476198,2.40190028353628,2.40261030726883,2.40225029523543,2.40336033233843,2.40423036141916,2.40416035907933,2.40339033334121,2.40380034704592,2.40446036910717,2.40696045267248,2.40490038381466,2.40434036509603,2.40481038080631,2.40455037211552,2.40849050381445,2.41047056999818,2.40910052420439,2.40953053857762,2.31309731529636,2.31317731797045,2.31249729524068,2.31259729858329,2.31164726682848,2.31342732632698,2.31382733969743,2.31379733869464,2.31439735875032,2.31426735440492,2.31727745501756
2.23334464956286,2.2344446863316,2.23482469903353,2.23638475117829,2.23639475151255,2.23782479931191,2.23766479396373,2.23835481702775,2.23898483808621,2.24049488855966,2.23933484978535,2.24414501056502,2.24093490326716,2.24346498783525,2.2432449804815,2.24383500020292,2.24388500187422,2.24560505936716,2.24480503262626,2.24558505869864,2.24618507875431,2.24622508009136,2.24806514159543,2.24851515663718,2.24794513758429,2.24958519240314,2.25055522482648,2.25118524588494,2.2518152669434,2.2516352609267,2.25209527630271,2.25271529702691,2.25366532878173,2.255015373907,2.25546538894876,2.25585540198494,2.25552539095432,2.25702544109351,2.2574154541297,2.25835548555026,2.25875549892071,2.25920551396246,2.26066556276461,2.2607455654387,2.26153559184534,2.26217561323806,2.26289563730487,2.26374566571707,2.26480570114877,2.2651057111766,2.26606574326568,2.26679576766676,2.26684576933806,2.26871583184492,2.26934585290337,2.26963586259695,2.27200594181687,2.27208594449096,2.27283596956055,2.27470603206741,2.27602607618989,2.27807614471345,2.27951619284707,2.28077623496399,2.28268629880789,2.36091891373367,2.36192894749406,2.36254896821825,2.36156893546065,2.36157893579491,2.3617889428144,2.36335899529342,2.36330899362211,2.36415902203432,2.36520905713175,2.36570907384481,2.36703911830156,2.36617908955509,2.36619909022361,2.36698911663025,2.36843916509813,2.36804915206194,2.36896918281398,2.36986921289749,2.37150926771634,2.37633942916452,2.36973920855209,2.36973920855209,2.3699692162401,2.3704092309476,2.36838916342683,2.36635909557179,2.36255896855252,2.2923866230413,2.28995654181582,2.28959652978241,2.29009654649548,2.2882064833201,2.28796647529783,2.28779646961539,2.28881650371004,2.28855649501924,2.28868649936464,2.28907651240083,2.28979653646764,2.28963653111946,2.289006510061,2.28950652677406,2.29066656554837,2.29012654749826,2.29100657691325,2.29129658660683,2.29165659864023,2.29162659763745,2.29192660766528,2.2917666023171,2.29252662772096,2.29290664042289,2.29306664577107,2.29374666850083,2.29345665880726,2.29389667351475,2.29419668354259,2.2952767196428,2.29439669022781,2.29543672499098,2.2962067507291,2.29697677646722,2.29805681256743,2.29708678014409,2.2974967938488,2.29738679017193,2.29841682460084,2.29888684031112,2.29982687173167,2.29969686738628,2.30026688643917,2.30011688142525,2.30252696198221,2.30317698370919,2.30521705189849,2.30573706928007,2.30719711808222,2.30816715050556,2.31244729356938,2.40090025011016,2.40047023573692,2.40043023439988,2.40093025111294,2.4029803196365,2.40300032030502,2.40260030693457,2.40237029924656,2.40341033400973,2.40303032130781,2.40336033233843,2.40486038247762,2.40275031194849,2.40443036810438,2.40470037712944,2.40583041490096,2.40325032866155,2.4047103774637,2.31270730226017,2.31245729390364,2.31132725613211,2.31252729624347,2.31449736209293,2.31165726716274,2.31255729724625,2.31420735239936,2.31256729758051,2.31321731930749,2.31562739986445,2.31309731529636,2.31396734437709
2.23396467028706,2.23319464454895,2.23438468432603,2.23523471273824,2.23630474850419,2.23717477758492,2.23779479830912,2.23812480933974,2.23849482170741,2.2395548571391,2.2403048822087,2.24012487619199,2.24205494070442,2.24225494738964,2.24259495875452,2.244795032292,2.2435049891723,2.24382499986866,2.24501503964575,2.24535505101063,2.24710510950635,2.24651508978493,2.24822514694361,2.2481751452723,2.25001520677637,2.24845515463162,2.24916517836417,2.25033521747273,2.25167526226374,2.25203527429715,2.25180526660914,2.25241528699907,2.2535453247706,2.25432535084297,2.25436535218002,2.25612541101,2.25593540465903,2.25579539997938,2.25711544410186,2.25809547685947,2.25873549825219,2.25891550426889,2.25967552967274,2.26067556309887,2.26140558749994,2.26176559953335,2.26235561925476,2.26397567340508,2.26415567942178,2.2651057111766,2.2664757569704,2.26625574961665,2.26803580911515,2.26841582181708,2.26933585256911,2.27057589401751,2.27153592610659,2.27278596788925,2.2738560036552,2.27559606181666,2.27871616610617,2.27897617479696,2.28072623329268,2.28251629312545,2.3590788522296,2.359438864263,2.36021889033538,2.36136892877543,2.36177894248014,2.36173894114309,2.36332899429063,2.36295898192297,2.36357900264716,2.36569907351055,2.36573907484759,2.36653910158849,2.36611908754952,2.36507905278635,2.36556906916515,2.36634909523753,2.36631909423475,2.36626909256344,2.36786914604524,2.36807915306473,2.3688591791371,2.36855916910927,2.36884917880284,2.3699192145688,2.36886917947137,2.36847916643518,2.36685911228485,2.36895918247972,2.36466903908164,2.29156659563188,2.2904765591974,2.28892650738691,2.28929651975457,2.28785647162095,2.2882064833201,2.28830648666271,2.28886650538134,2.28847649234515,2.28828648599419,2.28877650237299,2.28895650838969,2.28974653479633,2.28961653045094,2.28942652409997,2.28992654081303,2.29133658794387,2.2904265575261,2.2898065368019,2.2912765859383,2.29183660465693,2.29191660733102,2.29230662036721,2.29231662070147,2.29304664510254,2.29281663741454,2.29293664142567,2.29355666214987,2.29390667384901,2.2950467119548,2.29472670125844,2.29428668655094,2.29519671696871,2.29500671061775,2.29668676677364,2.29721678448949,2.29727678649505,2.29879683730277,2.29759679719142,2.29768680019977,2.29869683396015,2.29927685334731,2.29968686705202,2.30021688476786,2.30257696365352,2.30152692855609,2.30696711039421,2.30483703919656,2.30533705590963,2.3085171622047,2.391209926211,2.39695011807696,2.40066024208789,2.40026022871744,2.40018022604335,2.40113025779817,2.40250030359196,2.40111025712965,2.40118025946947,2.40253030459474,2.40186028219924,2.40171027718532,2.40212029089003,2.40159027317419,2.40199028654464,2.40093025111294,2.40368034303479,2.40165027517975,2.40274031161423,2.40297031930224,2.31168726816552,2.3111772511182,2.31220728554711,2.31159726515717,2.31138725813768,2.3123372898925,2.31121725245524,2.31185727384796,2.31293730994818,2.3123372898925,2.31201727919614,2.31219728521284,2.31322731964175
2.23316464354616,2.23304463953503,2.23452468900569,2.23511470872711,2.23845482037036,2.23608474115045,2.23703477290527,2.23775479697208,2.23791480232026,2.23903483975752,2.23884483340655,2.2398648675012,2.24099490527272,2.24235495073225,2.2417749313451,2.2430149727935,2.24302497312776,2.24422501323911,2.24598507206909,2.24599507240335,2.24535505101063,2.24738511886566,2.2486651616511,2.24793513725003,2.2478151332389,2.24842515362883,2.24932518371235,2.25100523986824,2.24916517836417,2.25111524354511,2.2510652418738,2.25228528265368,2.25334531808537,2.25376533212434,2.25336531875389,2.25493537123291,2.25554539162285,2.25609541000721,2.25696543908794,2.25855549223548,2.25838548655304,2.25902550794576,2.25965552900422,2.26021554772285,2.26231561791771,2.261905604213,2.2625256249372,2.26339565401793,2.26454569245797,2.26517571351643,2.26570573123228,2.26710577802885,2.26829581780594,2.26926585022929,2.2695458595886,2.27148592443528,2.2718159354659,2.27334598660788,2.27559606181666,2.27766613100874,2.27938618850167,2.28076623462973,2.34827849122745,2.35971887362232,2.35900884988977,2.35901885022403,2.36017888899834,2.36072890738271,2.36141893044673,2.36211895384502,2.36232896086451,2.36311898727114,2.36313898793967,2.3645490350705,2.36461903741033,2.36876917612875,2.36455903540477,2.36505905211783,2.36463903807886,2.36486904576686,2.36597908286986,2.36583907819021,2.36672910793946,2.3670291179673,2.36781914437393,2.36796914938785,2.36761913768871,2.36804915206194,2.37000921757715,2.36958920353818,2.36775914236837,2.36931919451312,2.36683911161633,2.28972653412781,2.28906651206657,2.28806647864044,2.28793647429504,2.28799647630061,2.28886650538134,2.28847649234515,2.28725645156528,2.28781647028391,2.28839648967106,2.28852649401646,2.28847649234515,2.2886964996989,2.28919651641196,2.29000654348712,2.29114658159291,2.29025655184366,2.29034655485201,2.29005654515843,2.29061656387706,2.29053656120297,2.29116658226143,2.29142659095222,2.29203661134216,2.29209661334773,2.29346665914152,2.29268663306914,2.29294664175993,2.29382667117492,2.293676666161,2.29386667251197,2.29439669022781,2.29524671864002,2.29512671462889,2.29623675173188,2.29703677847278,2.29714678214966,2.29766679953124,2.29729678716358,2.29965686604923,2.3006468991411,2.29857682994902,2.29949686070105,2.30046689312439,2.30111691485138,2.30221695162011,2.30443702582611,2.30475703652247,2.30654709635524,2.38688978181014,2.39745013479003,2.39767014214377,2.39820015985962,2.39894018459495,2.40000022002665,2.40092025077868,2.39966020866176,2.40025022838318,2.40141026715748,2.40088024944164,2.40091025044442,2.40131026381487,2.39949020297932,2.40092025077868,2.40066024208789,2.40214029155855,2.40457037278404,2.40129026314635,2.40585041556948,2.31128725479507,2.30896717724646,2.30934718994839,2.31096724409871,2.31158726482291,2.31020721869486,2.31083723975331,2.31133725646638,2.31241729256659,2.31066723407087,2.3106872347394,2.31276730426574,2.31268730159165,2.31603741356917
2.23238461747378,2.23312464220912,2.23534471641511,2.23480469836501,2.23472469569092,2.23669476154038,2.23662475920055,2.23762479262668,2.23782479931191,2.23833481635923,2.23925484711126,2.2395048554678,2.24058489156801,2.24193493669328,2.24157492465988,2.24263496009157,2.24364499385195,2.2438650012057,2.24422501323911,2.2446650279466,2.24475503095495,2.24777513190185,2.24648508878215,2.24672509680442,2.24754512421384,2.24850515630292,2.24859515931128,2.25004520777916,2.24893517067616,2.25013521078751,2.25130524989607,2.25197527229158,2.25259529301578,2.25316531206867,2.25415534516053,2.25478536621899,2.25544538828023,2.25580540031364,2.25651542404619,2.25776546582884,2.2580854765252,2.25992553802927,2.25960552733291,2.26015554571728,2.26018554672007,2.26196560621857,2.26226561624641,2.2627056309539,2.26496570649695,2.26528571719331,2.2669657733492,2.26782580209566,2.26864582950509,2.27045589000637,2.27071589869717,2.27330598527083,2.27412601268025,2.27550605880831,2.27707611128732,2.28017621490831,2.28182627006142,2.3501485537343,2.35652876699298,2.35769880610155,2.358098819472,2.35887884554437,2.35993888097607,2.36076890871975,2.36187894582275,2.36212895417928,2.36124892476429,2.36174894147735,2.36236896220155,2.36324899161654,2.36350900030733,2.36363900465273,2.36285897858035,2.36358900298142,2.36463903807886,2.36473904142147,2.36460903707607,2.36505905211783,2.36641909757736,2.3667191076052,2.36733912832939,2.36672910793946,2.36759913702019,2.36942919819,2.36685911228485,2.36669910693667,2.36940919752147,2.37059923729856,2.36853916844074,2.28906651206657,2.28925651841753,2.28877650237299,2.28723645089676,2.29025655184366,2.2890565117323,2.29139658994944,2.28768646593851,2.28793647429504,2.28799647630061,2.28786647195522,2.28832648733123,2.2888265040443,2.28904651139804,2.29085657189933,2.29022655084087,2.28955652844537,2.28971653379355,2.29057656254002,2.29021655050661,2.29086657223359,2.29098657624473,2.2909665755762,2.29128658627256,2.29172660098006,2.29165659864023,2.2926966334034,2.29279663674601,2.2928266377488,2.29294664175993,2.29371666749805,2.29369666682953,2.29458669657878,2.29481670426679,2.29521671763724,2.29548672666229,2.29600674404388,2.29705677914131,2.29650676075694,2.2968767731246,2.29725678582653,2.3006468991411,2.29892684164816,2.30075690281797,2.30060689780405,2.30182693858393,2.30381700510191,2.30940719195396,2.30744712643875,2.38998988543113,2.39315999139195,2.39441003317461,2.3961400910018,2.39700011974827,2.39810015651701,2.3986701755699,2.39853017089024,2.39883018091808,2.3992901962941,2.3996502083275,2.39747013545855,2.39866017523564,2.39826016186519,2.39798015250587,2.39896018526348,2.40162027417697,2.4024903032577,2.40131026381487,2.31017721769207,2.3106072320653,2.31028722136895,2.30884717323532,2.31017721769207,2.30929718827708,2.31097724443297,2.31155726382012,2.31478737178651,2.31087724109036,2.31077723774775,2.31083723975331,2.31162726615995,2.31141725914047,2.31394734370856
2.23231461513396,2.23247462048213,2.23309464120633,2.23467469401961,2.23451468867143,2.23578473112261,2.23624474649863,2.23781479897764,2.23792480265452,2.23860482538428,2.23910484209735,2.23940485212518,2.24054489023097,2.24075489725045,2.24129491530056,2.2419549373618,2.24234495039799,2.24344498716673,2.24401500621962,2.24463502694382,2.24501503964575,2.24520504599671,2.24591506972926,2.24672509680442,2.24721511318322,2.24753512387958,2.24869516265389,2.24981520009115,2.24986520176245,2.25065522816909,2.25136525190164,2.251685262598,2.2524352876676,2.25301530705475,2.25435535184576,2.25465536187359,2.25533538460336,2.25546538894876,2.25660542705454,2.25734545178987,2.25815547886503,2.25974553201257,2.25951552432456,2.2601255447145,2.26131558449159,2.26249562393442,2.2631456456614,2.2639456724023,2.26481570148303,2.26527571685904,2.26614574593977,2.26762579541044,2.26944585624599,2.27022588231837,2.27191593880852,2.27417601435156,2.27463602972758,2.27753612666334,2.35597874860861,2.35548873222981,2.35606875161696,2.35612875362253,2.35549873256407,2.35736879507092,2.3582788254887,2.35879884287028,2.35953886760562,2.35933886092039,2.36058890270305,2.35994888131033,2.36053890103174,2.36156893546065,2.36218895618485,2.36273897456922,2.36317898927671,2.36346899897029,2.36279897657478,2.36288897958314,2.36334899495915,2.36373900799534,2.37018922359385,2.36399901668614,2.36426902571119,2.36373900799534,2.36892918147693,2.36937919651869,2.36526905913731,2.36494904844095,2.36546906582254,2.36607908621248,2.36963920520948,2.36767913969428,2.36683911161633,2.28932652075736,2.28898650939248,2.28813648098027,2.28803647763766,2.28793647429504,2.28772646727556,2.28760646326442,2.28738645591068,2.28822648398862,2.28809647964322,2.28910651340361,2.2883864893368,2.28827648565993,2.28880650337577,2.28939652309719,2.28981653713616,2.2894965264398,2.28950652677406,2.28990654014451,2.29035655518627,2.29065656521411,2.29081657056229,2.29180660365415,2.29227661936443,2.29192660766528,2.29310664710811,2.2923866230413,2.29245662538113,2.29278663641175,2.29304664510254,2.29330665379334,2.29364666515822,2.2936266644897,2.29489670694088,2.2960767463837,2.2960767463837,2.29655676242824,2.29693677513017,2.29689677379313,2.29673676844495,2.29766679953124,2.29997687674559,2.30341699173146,2.30164693256722,2.30152692855609,2.30203694560341,2.30440702482333,2.3882698279382,2.38884984732535,2.39236996498531,2.39334999774291,2.39353000375962,2.39632009701851,2.39650010303521,2.39655010470651,2.3970701220881,2.39724012777054,2.39771014348082,2.39766014180951,2.39718012576497,2.39716012509645,2.39727012877332,2.4041403584108,2.39875017824399,2.39907018894035,2.39829016286797,2.40248030292344,2.30999721167537,2.30831715551948,2.30789714148051,2.30828715451669,2.30785714014346,2.30789714148051,2.30937719095117,2.30915718359742,2.31168726816552,2.30950719529657,2.31029722170321,2.31019721836059,2.30989720833276,2.31043722638286,2.31224728688415,2.31193727652205
2.23349465457678,2.23669476154038,2.23458469101126,2.23456469034274,2.23587473413096,2.23485470003631,2.2366647605376,2.23729478159606,2.23778479797486,2.23821481234809,2.23910484209735,2.23925484711126,2.24083489992454,2.24061489257079,2.24125491396352,2.24178493167936,2.24210494237572,2.24400500588536,2.24481503296052,2.24491503630313,2.24477503162348,2.24519504566245,2.24605507440892,2.24707510850356,2.24714511084339,2.24716511151192,2.24803514059264,2.24837515195753,2.24949518939479,2.25076523184597,2.25211527697124,2.25145525490999,2.25218527931106,2.25266529535561,2.25339531975668,2.25409534315496,2.25538538627467,2.25543538794597,2.257235448113,2.25771546415754,2.258345485216,2.25885550226332,2.25929551697082,2.26076556610722,2.26098557346097,2.2626556292826,2.26305564265305,2.26469569747189,2.26671576499267,2.26722578203999,2.26851582515969,2.26894583953292,2.27035588666376,2.27196594047982,2.27440602203957,2.27569606515927,2.27694610694193,2.28048622527041,2.35489871250839,2.35497871518249,2.35576874158912,2.35645876465315,2.35663877066985,2.35731879339962,2.35802881713217,2.3589488478842,2.35959886961118,2.35888884587864,2.35968887261954,2.35977887562789,2.36055890170026,2.36065890504288,2.36079890972253,2.36220895685337,2.36330899362211,2.36353900131012,2.36191894715979,2.36207895250797,2.36297898259149,2.36250896688121,2.36353900131012,2.36367900598978,2.3637490083296,2.36327899261932,2.36379901000091,2.36502905111504,2.36370900699256,2.36525905880305,2.36443903139363,2.36641909757736,2.3675691360174,2.36606908587821,2.3641890230371,2.28930652008884,2.28733645423937,2.28711644688562,2.28750645992181,2.28736645524215,2.28686643852909,2.28702644387727,2.28781647028391,2.28712644721988,2.28775646827834,2.28827648565993,2.29008654616121,2.28788647262374,2.28890650671839,2.28920651674622,2.28929651975457,2.28939652309719,2.28969653312503,2.29002654415565,2.29015654850104,2.29037655585479,2.29113658125865,2.29120658359847,2.29070656688541,2.2915865963004,2.29163659797171,2.29230662036721,2.29291664075715,2.29295664209419,2.29311664744237,2.29324665178777,2.29382667117492,2.29425668554816,2.2944766929019,2.29479670359826,2.2952267179715,2.29603674504666,2.29668676677364,2.29639675708006,2.29715678248392,2.29746679284602,2.30192694192654,2.29895684265095,2.30067690014388,2.30080690448928,2.30338699072868,2.30490704153639,2.38670977579344,2.38974987740886,2.3903598977988,2.39237996531957,2.3933799987457,2.39459003919131,2.39556007161465,2.39641010002686,2.40074024476198,2.39669010938617,2.39601008665641,2.39661010671208,2.39724012777054,2.39718012576497,2.39745013479003,2.3968901160714,2.3991101902774,2.39736013178168,2.3980501548457,2.3988001799153,2.30890717524089,2.30884717323532,2.30786714047772,2.30698711106273,2.30785714014346,2.30730712175909,2.30876717056123,2.30831715551948,2.3091371829289,2.30917718426595,2.30756713044988,2.31137725780342,2.30940719195396,2.31032722270599,2.30987720766423,2.31106724744132
2.23258462415901,2.23262462549605,2.23448468766865,2.2346246923483,2.23576473045409,2.23560472510591,2.23588473446522,2.23775479697208,2.23856482404724,2.2382648140194,2.2387548303982,2.24047488789114,2.24003487318364,2.2401748778633,2.24131491596908,2.24201493936737,2.24189493535624,2.2424449537406,2.24367499485474,2.24437501825303,2.24421501290485,2.244795032292,2.24538505201341,2.24633508376823,2.24659509245902,2.24723511385174,2.24833515062048,2.24895517134468,2.24939518605218,2.24981520009115,2.25196527195732,2.25155525825261,2.25187526894897,2.25315531173441,2.25338531942241,2.25425534850314,2.25482536755604,2.25553539128858,2.25635541869801,2.25738545312692,2.25810547719373,2.25872549791792,2.25983553502092,2.26036555273677,2.26184560220744,2.26382566839116,2.26382566839116,2.26482570181729,2.26497570683121,2.26659576098153,2.26929585123207,2.26971586527104,2.27160592844642,2.27346599061901,2.3501485537343,2.35040856242509,2.35185861089297,2.35536872821867,2.35527872521032,2.35528872554458,2.35589874593452,2.35715878805144,2.35699878270326,2.35785881144973,2.35764880443024,2.3577888091099,2.35835882816279,2.35885884487585,2.3592588582463,2.35917885557221,2.35900884988977,2.35931886025187,2.36070890671418,2.35950886660283,2.36113892108742,2.36207895250797,2.36195894849684,2.36112892075316,2.36293898125444,2.36201895050241,2.36290898025166,2.36223895785615,2.36210895351076,2.3626389712266,2.36401901735466,2.36613908821804,2.36290898025166,2.36380901033517,2.36247896587842,2.36218895618485,2.36233896119877,2.36007888565572,2.29002654415565,2.2896765324565,2.28933652109162,2.28815648164879,2.2875864625959,2.28760646326442,2.28798647596635,2.28680643652352,2.28728645256806,2.28768646593851,2.28726645189954,2.28762646393295,2.28815648164879,2.28819648298584,2.28910651340361,2.28924651808327,2.28888650604986,2.28937652242867,2.28947652577128,2.28968653279076,2.28945652510275,2.29009654649548,2.29050656020019,2.29066656554837,2.29086657223359,2.29103657791603,2.29161659730319,2.29218661635608,2.29218661635608,2.29281663741454,2.29309664677385,2.29317664944794,2.29347665947578,2.29396667585458,2.29406667919719,2.2938066705064,2.29499671028349,2.29573673501882,2.295896740367,2.29674676877921,2.29737678983767,2.29833682192675,2.29974686905758,2.29981687139741,2.30134692253938,2.30177693691262,2.30654709635524,2.38846983462342,2.38931986303563,2.39031989646175,2.39045990114141,2.39175994459537,2.39278997902428,2.39362000676797,2.39483004721358,2.3972001264335,2.39438003217182,2.39473004387097,2.39496005155898,2.39477004520801,2.39543006726925,2.39587008197675,2.39786014849474,2.39364000743649,2.39531006325812,2.39548006894056,2.40012022403778,2.39921019362001,2.30705711340256,2.30754712978136,2.30744712643875,2.30631708866723,2.30695711005995,2.30661709869507,2.30706711373682,2.30754712978136,2.30790714181477,2.30919718493447,2.30780713847215,2.3088271725668,2.30855716354175,2.30871716888993,2.31111724911263,2.31020721869486
2.23163459240419,2.23361465858792,2.23371466193053,2.23446468700012,2.2352447130725,2.23637475084402,2.23686476722283,2.2361747441588,2.23784479998043,2.23796480399156,2.23869482839263,2.23895483708343,2.23948485479927,2.24022487953461,2.23994487017529,2.24154492365709,2.24142491964596,2.24283496677679,2.24392500321127,2.24514504399114,2.24531504967358,2.24486503463183,2.24530504933932,2.245905069395,2.24560505936716,2.24667509513311,2.24801513992412,2.24859515931128,2.24936518504939,2.24976519841984,2.25145525490999,2.25189526961749,2.25191527028601,2.25339531975668,2.2535453247706,2.2542153471661,2.25482536755604,2.2556853963025,2.25676543240272,2.25750545713805,2.25835548555026,2.25882550126054,2.25973553167831,2.26088557011836,2.26213561190101,2.26257562660851,2.2637656663856,2.26512571184513,2.26675576632971,2.26897584053571,2.2729259725689,2.27166593045199,2.35417868844158,2.35510871952788,2.35106858448634,2.35144859718826,2.35222862326064,2.3542786917842,2.35505871785658,2.35501871651953,2.35551873323259,2.35683877735508,2.35712878704865,2.35921885690926,2.35665877133838,2.35788881245251,2.35696878170047,2.3574787987478,2.35741879674223,2.35979887629641,2.35769880610155,2.35720878972274,2.35850883317671,2.35831882682574,2.35914885456943,2.36008888598999,2.35531872654737,2.36045889835765,2.36057890236879,2.36266897222939,2.36187894582275,2.36111892041889,2.36154893479213,2.36193894782832,2.36234896153303,2.36461903741033,2.36202895083667,2.36237896253581,2.36372900766108,2.36076890871975,2.36197894916536,2.36086891206236,2.28875650170447,2.28808647930896,2.28859649635629,2.28749645958755,2.28689643953187,2.28764646460147,2.28659642950404,2.28720644989397,2.28624641780489,2.2869164402004,2.28750645992181,2.28810647997749,2.28738645591068,2.2880764789747,2.28826648532567,2.28784647128669,2.28829648632845,2.28943652443423,2.28915651507492,2.28932652075736,2.28973653446207,2.28956652877963,2.28993654114729,2.29034655485201,2.29021655050661,2.29083657123081,2.29093657457342,2.29135658861239,2.29222661769312,2.29236662237278,2.29266663240062,2.29310664710811,2.29363666482396,2.29419668354259,2.29355666214987,2.29418668320833,2.29444669189912,2.29673676844495,2.29626675273467,2.29659676376529,2.29818681691283,2.29779680387664,2.29949686070105,2.30132692187086,2.30166693323574,2.30222695195437,2.38735979752042,2.38846983462342,2.38832982994376,2.38974987740886,2.38995988442835,2.39130992955362,2.39229996264548,2.39228996231122,2.39291998336968,2.39270997635019,2.39376001144762,2.39361000643371,2.39334999774291,2.39400001946989,2.39465004119688,2.39557007194891,2.39670010972043,2.39524006091829,2.39822016052814,2.39348000208831,2.40035023172579,2.3079771441546,2.30612708231626,2.30625708666166,2.30665710003211,2.30516705022718,2.30598707763661,2.30720711841648,2.30710711507387,2.30709711473961,2.30687710738586,2.30670710170342,2.3074071251017,2.30787714081198,2.30812714916851,2.30968720131327,2.31051722905695,2.31085724042184
2.23190460142924,2.23299463786372,2.23354465624809,2.23489470137336,2.23417467730655,2.23500470505023,2.23533471608085,2.23598473780784,2.23774479663782,2.2379548036573,2.23787480098321,2.23843481970184,2.23938485145666,2.23975486382433,2.2411549106209,2.24147492131726,2.24178493167936,2.24203494003589,2.24307497479906,2.24271496276566,2.24396500454831,2.24458502527251,2.24513504365688,2.24545505435324,2.24571506304403,2.24726511485453,2.24733511719436,2.24814514426952,2.24851515663718,2.24947518872627,2.25100523986824,2.25093523752841,2.2518152669434,2.25219527964533,2.25405534181792,2.2537253307873,2.25556539229137,2.2563054170267,2.25804547518816,2.25844548855861,2.25907550961707,2.26053555841921,2.26057555975626,2.26238562025754,2.26349565736054,2.26416567975605,2.26473569880894,2.2671457793659,2.35348866537756,2.35576874158912,2.35428869211846,2.35262863663109,2.35330865936086,2.35442869679812,2.35268863863666,2.35318865534972,2.35390867941653,2.35514872086493,2.35535872788441,2.35553873390112,2.35576874158912,2.35596874827435,2.35603875061418,2.3556987392493,2.35571873991782,2.355878745266,2.35614875429105,2.35648876565593,2.35630875963923,2.35712878704865,2.35710878638013,2.35738879573945,2.35791881345529,2.3587688418675,2.36136892877543,2.35419868911011,2.3546387038176,2.35901885022403,2.3593888625917,2.36105891841333,2.35967887228527,2.35957886894266,2.36058890270305,2.36127892576707,2.36047889902617,2.36121892376151,2.36187894582275,2.36295898192297,2.36108891941611,2.36663910493111,2.36232896086451,2.36206895217371,2.28877650237299,2.28773646760982,2.28752646059033,2.28780646994965,2.28832648733123,2.28679643618926,2.28668643251239,2.28679643618926,2.28633642081324,2.28865649836185,2.2872264505625,2.28706644521432,2.28724645123102,2.28711644688562,2.28784647128669,2.2882564849914,2.28821648365436,2.28885650504708,2.28922651741475,2.28945652510275,2.28913651440639,2.28975653513059,2.29061656387706,2.28982653747042,2.29032655418348,2.2909165739049,2.29083657123081,2.29147659262353,2.29161659730319,2.29234662170426,2.29229662003295,2.29279663674601,2.29299664343124,2.29370666716379,2.29373666816657,2.29470670058991,2.29537672298542,2.29492670794366,2.29629675373745,2.29658676343103,2.29799681056187,2.29882683830555,2.29998687707985,2.30247696031091,2.30468703418264,2.38562973969323,2.38518972498573,2.38730979584912,2.38781981289644,2.38888984866239,2.38978987874591,2.3910299201943,2.39147993523606,2.39121992654527,2.39187994860651,2.39174994426111,2.39117992520822,2.39336999841144,2.39261997334184,2.39294998437246,2.39125992788231,2.39462004019409,2.39630009634998,2.39287998203263,2.39316999172621,2.39551006994334,2.30711711540813,2.30801714549164,2.30636709033853,2.30554706292911,2.30543705925224,2.30604707964217,2.30515704989292,2.30672710237194,2.30561706526894,2.306117081982,2.3068671070516,2.30716711707943,2.30683710604881,2.30680710504603,2.30774713646659,2.30720711841648,2.30786714047772,2.30819715150834
2.23240461814231,2.23245461981361,2.23371466193053,2.23403467262689,2.23423467931212,2.23515471006415,2.23579473145687,2.23742478594146,2.23732478259884,2.23738478460441,2.23779479830912,2.23911484243161,2.23920484543996,2.23969486181876,2.24101490594125,2.24117491128942,2.24130491563482,2.24154492365709,2.24162492633118,2.24322497981298,2.24329498215281,2.24390500254275,2.24519504566245,2.24470502928365,2.24534505067637,2.24569506237551,2.24771512989628,2.24840515296031,2.24841515329457,2.24936518504939,2.25045522148387,2.25129524956181,2.25213527763976,2.25235528499351,2.25387533580122,2.25487536922734,2.2556853963025,2.25459535986803,2.2574154541297,2.2569754394222,2.26313564532714,2.26118558014619,2.2609255714554,2.26514571251365,2.2649257051599,2.26811581178924,2.35338866203495,2.35437869512681,2.35332866002938,2.35442869679812,2.35447869846942,2.35288864532188,2.35258863529405,2.35449869913795,2.35393868041931,2.3530386503358,2.3542786917842,2.35511871986214,2.35598874894287,2.3551287201964,2.35461870314908,2.35426869144994,2.35492871351118,2.35557873523816,2.35510871952788,2.35499871585101,2.35547873189555,2.35527872521032,2.35557873523816,2.35634876097628,2.35589874593452,2.35561873657521,2.35575874125486,2.35666877167264,2.35567873858077,2.35365867106,2.35509871919362,2.35832882716,2.35836882849705,2.35859883618506,2.35882884387307,2.35931886025187,2.36057890236879,2.35927885891482,2.35922885724352,2.36003888431868,2.36041889702061,2.36035889501504,2.35851883351097,2.35831882682574,2.35795881479234,2.35782881044694,2.28966653212224,2.28801647696913,2.28849649301367,2.28695644153744,2.28756646192738,2.28645642482438,2.28640642315307,2.28627641880768,2.2874564582505,2.28677643552074,2.28721645022823,2.28622641713637,2.28686643852909,2.28690643986614,2.28752646059033,2.28811648031175,2.28803647763766,2.28846649201089,2.28849649301367,2.2890565117323,2.29061656387706,2.28945652510275,2.28982653747042,2.29004654482417,2.29027655251218,2.29083657123081,2.29168659964301,2.29121658393274,2.29246662571539,2.29242662437835,2.29297664276272,2.29226661903017,2.29309664677385,2.2933166541276,2.29330665379334,2.29370666716379,2.29428668655094,2.29629675373745,2.29661676443381,2.29785680588221,2.29785680588221,2.29900684432225,2.3017569362441,2.30225695295716,2.38465970726988,2.38196961735361,2.38389968186603,2.38688978181014,2.38732979651764,2.38843983362064,2.38899985233927,2.3893798650412,2.38945986771529,2.39012989011079,2.38983988041721,2.39008988877374,2.3920099529519,2.39640009969259,2.39296998504099,2.39239996598809,2.39300998637803,2.39189994927503,2.3929399840382,2.39386001479024,2.39407002180972,2.39742013378724,2.30626708699592,2.30514704955866,2.30517705056144,2.30499704454474,2.3060670803107,2.30444702616037,2.30436702348628,2.30481703852804,2.30667710070063,2.30546706025502,2.30679710471177,2.30615708331905,2.30688710772012,2.30587707395973,2.3059370759653,2.30779713813789,2.30705711340256,2.30758713111841
