2.26552810713718,2.2655840270385,2.26598096679694,2.26692276910794,2.2665222458124,2.26821903061699,2.26783191442755,2.26898875730904,2.26914586851204,2.26946415308299,2.2703549090706,2.27058029818026,2.27147041323115,2.27193175997613,2.27266466110139,2.27234581977387,2.274155082417,2.27326760326553,2.27589180326471,2.27442909742702,2.2771884888081,2.27617279161867,2.27803131095147,2.27842635447875,2.27905776840742,2.28005368082543,2.28067360539508,2.28138521328852,2.28281920235715,2.28335004127944,2.28503994788988,2.28609343430045,2.28917221744114,2.29136427543181,2.29478446516442,2.29565137664128,2.2981013951336,2.32950009802754,2.32943729568247,2.3415569427969,2.3427970978906,2.3440734819589,2.34505904273481,2.35740819652458,2.35791066546026,2.35721097532377,2.35632673203118,2.35592887096556,2.35632673203118,2.35721097532377,2.35791066546026,2.35739518709411,2.30721600297297,2.29911603647088,2.2936226543465,2.28651570500656,2.28695579189028,2.28653420280929,2.28659650320549,2.28666418107942,2.2867620389444,2.28724472227038,2.28731669458057,2.28791159937983,2.28770759102081,2.2884546613799,2.28777541405516,2.28854855599651,2.28823824308489,2.28917033863943,2.28907839072419,2.28946435724665,2.28960228705946,2.28921545837677,2.29055286319057,2.28926757399453,2.29150787303367,2.28982549295721,2.29229747689496,2.29020900412586,2.29205002324731,2.29110555348986,2.29221820905253,2.29165072530597,2.29296716605638,2.29143534979415,2.29337430017492,2.292115060777,2.29418479409609,2.29273939310826,2.29474358074826,2.29392572223779,2.29452197261144,2.29485329838769,2.29393597039614,2.29571657128471,2.2946926871766,2.29659796083384,2.29532741136396,2.2972601473213,2.2961395301366,2.29786417077856,2.29790861190757,2.2979770543907,2.29853249551863,2.2980221503686,2.29918568450821,2.29916428564924,2.30053799043568,2.300288226277,2.30124127409263,2.30196436656406,2.30296591420523,2.30238160469797,2.30260213530584,2.30253061189603,2.30279028623846,2.30349660203313,2.30471607493908,2.30583148972861,2.30723665556107,2.31042994529966,2.31288447949942,2.31188059324449,2.31088037673007,2.31093554491461,2.31874922966527,2.32197839121561,2.32854207719368,2.34550032487827,2.34998355706494,2.35431213643442,2.3494696013035,2.35740819652458,2.35791066546026,2.35721097532377,2.35632673203118,2.35592887096556,2.35632673203118,2.35721097532377,2.35791066546026,2.35740819652458,2.35023467702964,2.35740819652458,2.35791066546026,2.35721097532377,2.35632673203118,2.35592887096556,2.35632673203118,2.35721097532377,2.35791066546026,2.35740819652458,2.34904193826369,2.35740819652458,2.35791066546026,2.35721097532377,2.35632673203118,2.35592887096556,2.35632673203118,2.35721097532377,2.35791066546026,2.35740819652458,2.35023485995831,2.35740819652458,2.35791066546026,2.35721097532377,2.35632673203118,2.35592887096556,2.35632673203118,2.35721097532377,2.35791066546026,2.35740819652458,2.35023486046986,2.35740819652458,2.35791066546026,2.35721097532377
2.26470985405382,2.26554821001096,2.26601600242686,2.26526605046003,2.26775867636879,2.26620636770617,2.26862848270213,2.26874579000301,2.26829641891307,2.26992098094028,2.2690633812409,2.27104587176134,2.271026533073,2.27310856895076,2.27069362099073,2.2745952870027,2.27066727969782,2.27736449296464,2.2719283744555,2.27898426316407,2.27350272051271,2.27934964789878,2.27789337459013,2.27833407289984,2.28016522068885,2.27979851215952,2.28237419123519,2.28152178302233,2.28357313802046,2.28438026229718,2.28517770731585,2.28700126939647,2.28960324694353,2.29094085136465,2.35926213518793,2.35952176126468,2.36878203028227,2.36901875721142,2.36928155495122,2.36970049418124,2.3708378861221,2.37176565504796,2.34770714296172,2.37263321515081,2.37357676599135,2.37372688775823,2.37404278907609,2.37502968054622,2.37508393503815,2.37414136711514,2.37327673069008,2.37621986923901,2.30602699241377,2.28871879401741,2.28708928208205,2.28777083266398,2.28627267884284,2.28691253190718,2.28658422676484,2.28619344430871,2.28692169307761,2.2864076927136,2.28741805962633,2.28698781264276,2.28894574397681,2.28685217417344,2.28865834629714,2.28708816510416,2.28870791195623,2.28764319195973,2.28923700704299,2.28887194507814,2.28899460638337,2.29037782749782,2.28756167872873,2.2920756582303,2.28763561332415,2.29306886592196,2.28818886073083,2.29279552855841,2.28892338171842,2.29247102080267,2.29095471847833,2.29235068917347,2.29024979902768,2.2937661145235,2.29026551511385,2.29472213439716,2.29109644817247,2.29575562960469,2.29164297332109,2.29544906451864,2.29418132300374,2.29305257252264,2.29540678879817,2.29286363057603,2.29706028210433,2.2940970349592,2.29764098948458,2.29461193642851,2.29752006926866,2.29579625672203,2.29757834857172,2.29781119437035,2.29693938112361,2.29967511504008,2.29703019487807,2.3004810434875,2.2986356184893,2.30059159254685,2.2998137371407,2.30226167727302,2.30248859338084,2.30180665282054,2.30155525653805,2.30257718208659,2.30258452672159,2.30328014343026,2.30622748697393,2.30545609109227,2.30656074987478,2.3112106249647,2.31420063924785,2.31029721769043,2.31000880355762,2.31180945432785,2.40177272921602,2.4055971305857,2.40429614551792,2.40687368682287,2.40720736832849,2.40743647878392,2.35013831098645,2.40840184823472,2.4088231745487,2.41353848525849,2.41353433157088,2.41220009616938,2.41134042087292,2.41192492895746,2.41222342675442,2.41194680760725,2.35022922934927,2.41244687422744,2.41187149936381,2.41254254958549,2.41704381994872,2.41647485246759,2.41579928071718,2.4170901400077,2.41860783680882,2.41554609231757,2.34582682297165,2.41369493282562,2.42567677383459,2.41537225277494,2.42153771683999,2.42173584547375,2.42262392333907,2.41166639503925,2.41183905426452,2.41739962050274,2.35023452050212,2.41590654671082,2.41726705984568,2.41744639143019,2.4183232816007,2.41786371316735,2.42540737069101,2.41895795110163,2.4198545417242,2.42845257697242,2.35023481779189,2.42242470582821,2.42215716332694,2.42338694505871
2.26501574488416,2.26518064406661,2.26555597185857,2.26620114878849,2.26615920780828,2.26715640439038,2.26778875282189,2.2682212828562,2.26894311834865,2.26878945636837,2.27023732139749,2.27043344606661,2.27139324703809,2.27134587457459,2.27281034855599,2.27197819255316,2.2745783326488,2.27356499413837,2.27618932292282,2.27531116477351,2.27764263190356,2.27732634971791,2.27893317198346,2.27962249084429,2.27981439354827,2.28172263205333,2.28193061192196,2.28378290245496,2.28471478717966,2.28785781431914,2.29133943031048,2.2957088370437,2.30029783739159,2.30121683542004,2.3579124538399,2.35721487917322,2.35633090355346,2.35592847252474,2.35631925828945,2.35719863661233,2.35789679794962,2.35740819652458,2.34932574673351,2.35740819652458,2.35791059039658,2.35721090853536,2.35632669157644,2.35592886880883,2.35632675461128,2.35721099645499,2.35791067514061,2.35738117882493,2.30391549391182,2.28803520708463,2.28835239008739,2.28674163528474,2.28665717610688,2.28647327727025,2.28606774044153,2.28667665599583,2.28633380403827,2.28695817167213,2.28674462071564,2.2874527821157,2.28709752083221,2.28776242007923,2.28719381611272,2.28795615357585,2.28767874450888,2.28837871695959,2.28853716458934,2.28868616507651,2.28900399553419,2.28854831492542,2.28987680827481,2.28887485263312,2.29078437704773,2.28924398715855,2.29143236118821,2.28951257211319,2.29155056322181,2.2905871036415,2.29160530092307,2.29074913818288,2.29244827885214,2.2910100992266,2.29291873490677,2.29155934306922,2.29367809512874,2.29217874473686,2.29418458260617,2.29328847112276,2.29393144978538,2.2941894303919,2.29333248244882,2.29498882599873,2.29402608030288,2.29590536063628,2.29494642635201,2.29681984070419,2.29578447460722,2.29727490542365,2.29731247213942,2.29720694024088,2.29814291701421,2.29720342866903,2.29882773925227,2.29785690745005,2.29972722372714,2.29941016073637,2.30107077029818,2.30163135761743,2.30286160972279,2.30244554177017,2.30271038913274,2.30260890998753,2.30310998477909,2.30368274255058,2.30544773216596,2.30666210679053,2.30903569549477,2.31287573326469,2.32046807283864,2.32152650425998,2.321862957329,2.32291997625076,2.35212588542087,2.3530695217809,2.35473452862901,2.35650691104277,2.35762356165848,2.35740819652458,2.35022744997774,2.35740819652458,2.35791066546026,2.35721097532377,2.35632673203118,2.35592887096556,2.35632673203118,2.35721097532377,2.35791066546026,2.35740819652458,2.35016046997107,2.35740819652458,2.35770682850041,2.35662293719058,2.35486105704807,2.35315390794645,2.35215736559125,2.34326095638187,2.34451198485934,2.33285932149516,2.33458834192042,2.33077719594904,2.32777650442743,2.32689475373571,2.32799016318288,2.33151280599071,2.34770882694753,2.35150334825656,2.35496267032177,2.35724292790043,2.35022553269856,2.35740819652458,2.35791066546026,2.35721097532377,2.35632673203118,2.35592887096556,2.35632673203118,2.35721097532377,2.35791066546026,2.35740819652458,2.35023486046986,2.35740819652458,2.35791066546026,2.35721097532377
2.26391762423188,2.2653560594374,2.26537962195174,2.26551968614211,2.26615858740969,2.26709931066953,2.26705297888274,2.26880385279946,2.26783285301518,2.27023453385539,2.2690493483919,2.27108943613209,2.27109261152668,2.27239350741479,2.27062568264804,2.27448366273347,2.2721436443853,2.27670663089225,2.27423212085977,2.27681452322942,2.2766686982551,2.27948580316511,2.27927862407235,2.27892377330723,2.28121573562938,2.28121219580331,2.28325134998163,2.28440045658475,2.28592812319454,2.28887183623873,2.3583052419828,2.35797241127846,2.33785550749091,2.35829859515178,2.3587758931972,2.35880982216286,2.36588050894645,2.36847234149346,2.3686040181633,2.36889844009398,2.36950179155539,2.37058050603708,2.3499954004065,2.37227701252804,2.37322808780173,2.37495710768052,2.37597836766231,2.37983767615068,2.37595562744012,2.37449066998891,2.3736621272325,2.37504293831153,2.30145003386161,2.28860229591701,2.28805859681787,2.28638728799654,2.28613695403881,2.28565126982161,2.28692498592125,2.28534086298911,2.28767494445384,2.28556252065832,2.28688397077134,2.28623850387278,2.28758186006479,2.28646129894454,2.28780546362494,2.2867511311577,2.28822279302109,2.2880276854745,2.28839771683262,2.28872408748788,2.28830617083915,2.28972875156373,2.28730163741966,2.29105831032799,2.28838821729953,2.29215609014488,2.28745301664778,2.29261106529493,2.28864939216439,2.29277413111886,2.29064871495787,2.29240767339822,2.28963978562952,2.29415462747545,2.28971252050184,2.29438982346566,2.29008357404972,2.29488138728597,2.29089556544665,2.2945183452888,2.29350775011132,2.29237359931811,2.29504528888248,2.29217860059942,2.29628466808626,2.29302063847661,2.29697809120788,2.29428380232686,2.29789124112726,2.29537435903237,2.29719066450045,2.29741879385666,2.29615731287018,2.29891431537786,2.29591879207152,2.29981177029477,2.29708942252817,2.3009739925759,2.29924652606388,2.3010816184751,2.302726912942,2.30259644370219,2.30240555812892,2.30329495584889,2.30273160988378,2.30354560727209,2.30585661504497,2.30667014768174,2.30681344211609,2.30828539476217,2.32588051533338,2.40022864604241,2.39883653899497,2.40139485765065,2.4012977511157,2.40155510764363,2.406777441233,2.40629151728287,2.4064136640327,2.40575184144659,2.35023451227,2.40731848849815,2.40740054344534,2.40859916287543,2.40994383453854,2.40617572627555,2.4096009806467,2.41027247527878,2.41342882875616,2.41323060654666,2.34966772388606,2.41069100700188,2.40968932273371,2.41476494835434,2.41507121457646,2.42159310662922,2.40704496920807,2.31593650100703,2.3972597487355,2.31625436801127,2.32541699822222,2.3191990115645,2.31866201976688,2.31646778660715,2.31764407370741,2.31768641367365,2.41113310398809,2.41190327994837,2.41776979430215,2.41884617223035,2.35010400092363,2.4164032559882,2.41697252293307,2.41846941702207,2.41749824701238,2.41732091022317,2.41699042816026,2.4175002604904,2.41793456494425,2.41843298490527,2.35023481779189,2.42087050794566,2.42049703265887,2.42081131926052
2.26471379477744,2.26460858752532,2.2654263399678,2.26581977266148,2.26620385176827,2.26664951102587,2.26766694988193,2.26804622642231,2.26887474055828,2.26917456262172,2.27030391869214,2.27100033893448,2.27155698127354,2.27166393031792,2.27300626268365,2.27318108260819,2.2748301273043,2.27491310618363,2.27651617240837,2.2770054283029,2.27853842460263,2.27937604775978,2.28031081023045,2.28129517519608,2.2821224882931,2.28328623450349,2.28454515034415,2.28835550201727,2.29153454254342,2.29510098246406,2.33260811053966,2.33455413411889,2.33706684769119,2.35740819652458,2.35791066546026,2.35721097532377,2.35632673203118,2.35592887096556,2.35632673203118,2.35721097532377,2.35791066546026,2.35740819652458,2.3501868018372,2.35740819652458,2.35791057292135,2.35721089298665,2.35632668215836,2.35592886830674,2.35632675986805,2.35721100137445,2.35791067739425,2.35737906435127,2.29940008203063,2.28793111732094,2.28760053728621,2.28633248042886,2.28596545612979,2.28624274483873,2.28572936593688,2.2866067020029,2.28602241476027,2.28654822602525,2.28630144759454,2.28662804120275,2.28670294988816,2.28705604570045,2.28709525850701,2.28737136045201,2.28760228866938,2.28773514678224,2.28821916108501,2.28799885508421,2.28844956371009,2.28802486076616,2.28937389672805,2.28848598407278,2.29027634234336,2.28882907009241,2.290723388423,2.28923498089591,2.29121570535643,2.29035031236911,2.29130655953327,2.29063790186746,2.29190340821563,2.29074252796311,2.29233709665635,2.29106529829142,2.29264312507734,2.29175020776781,2.29326064598602,2.29269082441075,2.29330544109015,2.29371054477815,2.29294506597775,2.29465950954101,2.29326098328256,2.29543347768532,2.2943231736357,2.29640699480229,2.2953875603822,2.2970766488495,2.29697736532324,2.29679495069203,2.29780603526556,2.29645902983158,2.29833290758221,2.29711412336444,2.29914011152361,2.29893125561491,2.30071662267081,2.3011423062753,2.30257478295772,2.3023600683457,2.30266416532293,2.30279008782645,2.30352145481781,2.30433045173749,2.3064547749309,2.30901379636167,2.31418361870954,2.32123790312251,2.33077677234998,2.35740819652458,2.35791066546026,2.35721097532377,2.35632673203118,2.35592887096556,2.35632673203118,2.35721097532377,2.35791066546026,2.35740819652458,2.35023485601807,2.35740819652458,2.35791066546026,2.35721097532377,2.35632673203118,2.35592887096556,2.35632673203118,2.35721097532377,2.35791066546026,2.35740819652458,2.34749150972722,2.34775390980313,2.34353494684467,2.330517723298,2.32404632372672,2.31966174290734,2.3176319756039,2.31736153821486,2.31879128437776,2.32055769362147,2.323552404406,2.32181793472998,2.31932304598289,2.31849889812841,2.31887123855686,2.31956510337589,2.32195381245865,2.32680160067216,2.33353983664484,2.34222998930913,2.34819949956757,2.35728817273614,2.35791066546026,2.35721097532377,2.35632673203118,2.35592887096556,2.35632673203118,2.35721097532377,2.35791066546026,2.35740819652458,2.35023486046986,2.35740819652458,2.35791066546026,2.35721097532377
2.26268923485431,2.26560187350118,2.26519507156993,2.26609638924482,2.26601263771861,2.26709246854758,2.26700913773345,2.26842650537478,2.26909724485912,2.2693238580321,2.2708174701649,2.27128258049991,2.27179937405333,2.2721692853459,2.27293704544996,2.27459551169431,2.27472343821622,2.27539866727526,2.27726005704849,2.27784083570446,2.27876845430889,2.28081669356583,2.28109747355061,2.28206793839927,2.28280043042909,2.2865607417744,2.28598487248223,2.36012860260114,2.3600211877205,2.36013088017316,2.3612943841763,2.35940354389366,2.34316472355518,2.3604143238249,2.36025209279244,2.36051970663289,2.36282194209864,2.36901777086437,2.36892198702532,2.36897805085005,2.36942156430692,2.37077948730001,2.35022670680396,2.371246141579,2.37099450194816,2.37068480184859,2.37131124824556,2.37059087760696,2.36950777180973,2.37235482206184,2.37366859873528,2.37043315956117,2.29789924551819,2.28852279150482,2.28594436838382,2.28589067911342,2.28586698581083,2.28539822411383,2.28643314388303,2.28544052017001,2.28693225649717,2.28560796119096,2.28618429468769,2.28657743605765,2.28612459515807,2.28742559747878,2.28669648334133,2.28776447738141,2.28675843950606,2.28817090273246,2.28711818951939,2.28832371867269,2.28772533632047,2.28895931179462,2.28735427964443,2.29039307120448,2.28755543457352,2.29133385527576,2.28747366984335,2.29161937855989,2.28890742799117,2.29156722744315,2.29043491543034,2.29208669256485,2.28972316384873,2.29235882063932,2.29027142214701,2.29243466027735,2.29102732566157,2.29276863630668,2.2914179106989,2.29331099764548,2.29311516133471,2.29225533436022,2.29463013133291,2.29213969997859,2.29634421516741,2.29195252445052,2.29703879264439,2.29323045199202,2.29754158593928,2.2949869427457,2.29696623738594,2.29761186918677,2.29541022617248,2.29923639254559,2.29504667454416,2.29946851663136,2.29689656618445,2.30026538633186,2.29883815768317,2.30060701257409,2.30247942483183,2.30146917114652,2.30161008042428,2.30266236518722,2.30365544976702,2.30356627426526,2.30629944903185,2.308901582937,2.40069955294737,2.40071952278962,2.34407322828301,2.39823053797164,2.40080144643399,2.40050589042564,2.40166408886674,2.4029151786675,2.40377641164568,2.40386346753683,2.40496348798864,2.4054864309883,2.35023481779189,2.40613770647855,2.40554392841039,2.40573646162406,2.40528672250409,2.4066713507886,2.4059609271887,2.40467556355208,2.40428528416579,2.41154819509976,2.34391887200705,2.40965103474043,2.40837296483579,2.31321012993899,2.31314835005763,2.31245112204868,2.31179250921863,2.31222208369326,2.31566888075048,2.31568370119962,2.32014859378153,2.31539254023991,2.31672875359293,2.31519234443972,2.31786249879779,2.31675228426566,2.31814959375063,2.31777937902676,2.31877135886269,2.34393028498002,2.34598156864969,2.35217803233345,2.41692341024588,2.41324799922529,2.41804276946616,2.41104873713435,2.41815466647209,2.41709650749918,2.41783289526501,2.41726215200129,2.35023481779189,2.41723441165535,2.41633517012513,2.41665085699831
2.26461437342615,2.2645035751106,2.26531763872308,2.26589903264624,2.26606846345239,2.26700134030285,2.26758091997388,2.26864033463345,2.26903046071165,2.27021582926194,2.27076344931408,2.27177456034039,2.27223279119275,2.27273290726228,2.27376107117608,2.27479905362364,2.27581684201178,2.27675421155072,2.27803007205156,2.27933052273612,2.28133375183984,2.2839100676464,2.28549378636841,2.28659560532603,2.2906837002781,2.29120687537289,2.29344732789733,2.34816599896966,2.34887108320458,2.3503005823932,2.35232262996827,2.35399620274612,2.34582964333069,2.35740819652458,2.35791066546026,2.35721097532377,2.35632673203118,2.35592887096556,2.35632673203118,2.35721097532377,2.35791066546026,2.35740819652458,2.35023353359045,2.35740819652458,2.35790995230102,2.35721034078551,2.35632634768188,2.3559288504751,2.35632694655848,2.35721117608557,2.35791075743058,2.35736082458,2.29664482810383,2.28707337098017,2.28664492490017,2.2858829339679,2.28622899620523,2.28570968916102,2.2857191291366,2.28554647684489,2.28581314347371,2.28569125671867,2.28606542715491,2.2859564145452,2.28653553159695,2.2862958104308,2.28700315783631,2.28662804695456,2.28717266635249,2.28704057796599,2.28761567476788,2.2873209755295,2.28771504430143,2.28766813674186,2.28844784330057,2.28819964347106,2.28929690279155,2.28870123850301,2.28973364929598,2.28941327421893,2.29050280472236,2.2899628117188,2.29062348556843,2.29021387398817,2.29101125560326,2.29038871416072,2.29129376572359,2.29084584429589,2.29182744239388,2.29158713869396,2.29253873333759,2.2924749759445,2.29292589614691,2.29351509617208,2.29276808040221,2.29451737078012,2.29309032213126,2.29514182908634,2.29379124700417,2.29592745423731,2.29485503643323,2.29661986882369,2.29675860758197,2.29669518644527,2.2977837615591,2.29643813754064,2.29839589136698,2.29697532795136,2.29901676256493,2.29874374920168,2.30072463423053,2.30138288988034,2.30287425198198,2.30261636938671,2.30286686817912,2.3038630043819,2.30485641036282,2.30565178540307,2.31366256977258,2.31891984378933,2.34074344451295,2.34348347043512,2.34683365506271,2.35740819652458,2.35791066546026,2.35721097532377,2.35632673203118,2.35592887096556,2.35632673203118,2.35721097532377,2.35791066546026,2.35740819652458,2.35023486046986,2.35740819652458,2.35791066546026,2.35721097532377,2.35632673203118,2.35592887096556,2.35632673203118,2.35721097532377,2.35791066546026,2.32891339183936,2.32863604641288,2.32367789016442,2.31803629583029,2.31394538212105,2.31293151339713,2.31232855405004,2.31225957722524,2.31292574415971,2.31460900324075,2.31678092792629,2.31893825169085,2.317353175504,2.31590061935421,2.31545655726113,2.31557494564233,2.31599303628336,2.31758650552831,2.3189631895754,2.3220205992398,2.32776449809995,2.33437000210432,2.3336532212702,2.35791066546026,2.35721097532377,2.35632673203118,2.35592887096556,2.35632673203118,2.35721097532377,2.35791066546026,2.35740819652458,2.35023486046986,2.35740819652458,2.35791066546026,2.35721097532377
2.26329732985798,2.26510917434362,2.26531347095395,2.2649562898186,2.26723226137896,2.26584513870858,2.2692146475796,2.26801515355705,2.26998028652826,2.26998445511552,2.27180103994969,2.27165884484755,2.27272020777901,2.27312264505535,2.27446203871568,2.27466590719024,2.27742194316125,2.27760543420709,2.27855796381363,2.28055636231524,2.28254054425707,2.28510874044719,2.28549251916471,2.28673447152437,2.35927448493342,2.35910486004329,2.35820473453534,2.35909701202684,2.36104012580995,2.36179299229285,2.36225608956841,2.36313192869703,2.3482649774432,2.36050645751286,2.36227182376406,2.36213216919508,2.3644794697192,2.37320246903772,2.36854873325214,2.36961289562866,2.36765224924922,2.36988983170796,2.35023458563411,2.3703696256708,2.36996986945412,2.3702131812971,2.3688565879921,2.36862217735018,2.37121063307793,2.37466838096348,2.36851319186792,2.35561264046733,2.29471073761183,2.28691020229529,2.28537600173382,2.28713897394589,2.28500068664843,2.28722657855728,2.28389928821074,2.28629775945298,2.28396939249394,2.28637113643904,2.28550141891448,2.28681394631192,2.28489018233381,2.28716429007986,2.28582398853925,2.28682496387551,2.2861167164834,2.28736632074408,2.28696638455251,2.28714472889108,2.28726233022367,2.28722322460016,2.28807178662982,2.2878450916798,2.28907185088586,2.28854265708717,2.28908028354816,2.28998751111168,2.28989625642517,2.29010863815989,2.2898146519936,2.29090124694424,2.28918739610882,2.29137921781605,2.29032912015663,2.29148195937816,2.29094628254957,2.29243405016808,2.29149556879681,2.2926190868837,2.29301904536896,2.29233354304735,2.29464200560145,2.29157029103118,2.29636065491035,2.29195456889076,2.29639188043729,2.29303874584928,2.29655384050288,2.29470840412724,2.29662402364789,2.2977667552937,2.29541341553032,2.2998015349456,2.29530808927187,2.30007133308968,2.29658757516565,2.30029651683534,2.29938319106342,2.30153931256111,2.30347080849236,2.30266110246724,2.30195022301094,2.30522749833079,2.30572996937893,2.30647087667454,2.39974187084051,2.39864708742722,2.39926728101573,2.39965026364962,2.34958624609076,2.39966931304119,2.3999578560427,2.40054433833433,2.40364450870265,2.40336654199956,2.40226994153455,2.40229115389386,2.40194452750409,2.40251782187287,2.35023481779189,2.4024559739173,2.4028721424555,2.40364998716363,2.40370992809274,2.40372858547113,2.4041413819912,2.40392356151437,2.40435975265916,2.31262945645062,2.31718202872267,2.31130552199858,2.31039503532698,2.3110191609561,2.31045197974228,2.3111937433891,2.31040340602581,2.31095320953561,2.3115790064089,2.3123415656905,2.31691534668041,2.31364762233702,2.31416856492209,2.31261971115956,2.31396585180042,2.31286147995076,2.31678598333929,2.31609022643826,2.3157459025344,2.32056850888682,2.3268340625286,2.32060428868256,2.41413302387512,2.41474587313325,2.41573077617379,2.41100487081725,2.4118860654298,2.41098721211523,2.41113658125077,2.41630050159363,2.35023481779189,2.41404339452877,2.41435827118535,2.41513157027394
2.26406676358332,2.26478074478779,2.26513226231271,2.2660449677158,2.26587501583998,2.26756417137197,2.26750563179547,2.2691976885438,2.26975428399589,2.27109217315451,2.27185903803243,2.27281650424647,2.27339971198605,2.27412037379991,2.27513916123673,2.27642316143819,2.27767184975608,2.2798128570494,2.28233485338877,2.28458554610128,2.28795930381733,2.29165856776074,2.2958412748535,2.29748598582286,2.35791922210146,2.35722350409863,2.35633302389035,2.35591023498208,2.35627647418351,2.35714093418269,2.35783515578287,2.35740819652458,2.34950008932582,2.35740819652458,2.35791066546026,2.35721097532377,2.35632673203118,2.35592887096556,2.35632673203118,2.35721097532377,2.35791066546026,2.35740819652458,2.35023481925453,2.35740819652458,2.35784167584769,2.35714699363933,2.3562808526123,2.35591191095173,2.35633254722678,2.35722245767898,2.35791848804966,2.29660009626536,2.29217363612511,2.28673527012536,2.28681349255652,2.28565707881227,2.28653990004708,2.28511633289382,2.28576371863535,2.28440107119792,2.28549149703904,2.28506493600181,2.28572028907997,2.28539488092952,2.28612631438268,2.28567866635291,2.2865450543995,2.28605683521226,2.28661643162678,2.28653818054876,2.28704280768326,2.2869487675028,2.28711315035646,2.28760093535949,2.28737546229424,2.2884771192415,2.28798352112935,2.28898388936881,2.28859866769921,2.2896622635341,2.28944768614505,2.28962769262271,2.28981699843032,2.28961317627288,2.29035169146915,2.28991938681563,2.29077314360566,2.29065770145294,2.29168614289838,2.29126962783972,2.29210705120131,2.29219191350986,2.29270486242649,2.29332274898341,2.29275506975449,2.29431631183833,2.29299773120585,2.29456766663588,2.29343086365576,2.29535442140135,2.29469234747089,2.29620814882028,2.29644988777011,2.29627681064138,2.29725122687569,2.29649609040403,2.29798982719417,2.29739414419663,2.29913915832931,2.29963929278605,2.30139664361255,2.30263454361245,2.30426344863693,2.30406576462274,2.30488351409038,2.30586493199423,2.31342700132618,2.31757888544376,2.34643176559368,2.34844314389574,2.35177216965062,2.35467457322971,2.35013644618039,2.35740819652458,2.35791066546026,2.35721097532377,2.35632673203118,2.35592887096556,2.35632673203118,2.35721097532377,2.35791066546026,2.35740819652458,2.35023486046986,2.35740819652458,2.35756815869154,2.35644173613358,2.35467510690312,2.3530362406268,2.35211588412087,2.32131705010104,2.31982164941051,2.31602464727844,2.31627830988861,2.31367081330041,2.31163831045611,2.31029031617333,2.31029097526696,2.30989868034021,2.31058812895436,2.31085427235132,2.31215390293779,2.31401466155031,2.31613704775004,2.31482738556689,2.31323370308081,2.31295317464085,2.31287856862354,2.31325212348303,2.31453024060718,2.31584438405122,2.31762430305394,2.32151812900834,2.32552920836428,2.32430684786704,2.32727308719775,2.3552138197543,2.35517316358353,2.35541137924302,2.35615016093403,2.35716544876156,2.35790045358188,2.35740819652458,2.35023486046986,2.35740819652458,2.35791066546026,2.35721097532377
2.26401946718486,2.26449349146615,2.26558832359712,2.2646013057581,2.26776816581003,2.26564324780813,2.2684232734813,2.26879338443422,2.27017768912255,2.27191084959876,2.27241492041081,2.27334797857204,2.27402271129746,2.27488053641503,2.27599611958313,2.27740544004468,2.2791724670717,2.35721023008297,2.28333703363513,2.28654279112607,2.35644305419205,2.35680916796681,2.33836386407107,2.35725844645015,2.35836978418688,2.35932695314241,2.36064291682637,2.36115156339694,2.3622092121863,2.36229313189819,2.36230113667706,2.3621024501051,2.34999689819753,2.36242717647551,2.36276704678457,2.36372393195354,2.36366041675409,2.36495058656195,2.36593280302811,2.36701539315659,2.36730063835022,2.36692862834435,2.35023481120152,2.36970542371545,2.3669002556784,2.3672350269623,2.36929684748095,2.36753564622226,2.37023352249106,2.36988353401369,2.36419971881652,2.2873769080696,2.2879082540177,2.28694414906844,2.28564497401847,2.28721376840252,2.28473329064938,2.28654324154896,2.28381445106899,2.28583707003986,2.28377832333201,2.28586168219543,2.28510924970771,2.2862926361117,2.28436643047288,2.28688165560517,2.28539408962749,2.28670249599472,2.28584150321018,2.28665232592128,2.28664308203346,2.28689276625343,2.28720015251572,2.28639731255423,2.28905541378986,2.28629087454686,2.28998884488918,2.28663741353616,2.29009302819573,2.28825275109697,2.28976268486864,2.28894602714927,2.28946127230261,2.2898597065317,2.28905195959606,2.29101581822893,2.28953020438461,2.29124797576865,2.29081408833557,2.29211933076173,2.29041209405835,2.2926827272961,2.29257136610497,2.29228515898168,2.2940193014251,2.29294617851067,2.29471881846074,2.29193165780133,2.29534606908524,2.29287706436273,2.29629856208744,2.29512889347084,2.29630300809803,2.29642687598991,2.29477741263106,2.29820109712698,2.2961599992005,2.2973868710724,2.2998970252979,2.30029193572664,2.30086977832809,2.30287870057216,2.3051110991122,2.303785410116,2.30616096703776,2.30676088523364,2.39772442435374,2.39818597601727,2.39739797479842,2.39736513232609,2.39847032820769,2.40026580931767,2.35022500597225,2.40229179066136,2.39863339558508,2.39901793550654,2.3996003769883,2.39983637118457,2.39989071383016,2.39979838579327,2.39960425570135,2.40381349604251,2.3502348174372,2.4000745870938,2.40099014032299,2.40057030763179,2.39985510439026,2.40025352441972,2.40096589610753,2.30998074075821,2.30908498432013,2.30960649470313,2.31325140430441,2.31031220070564,2.3088396972087,2.30979187092939,2.30819817428997,2.31073863313653,2.30910501220022,2.31083452212929,2.31017760304196,2.31184746494846,2.31465400329207,2.31182491336567,2.31116814184204,2.31066968836009,2.31293016014281,2.31144591405899,2.31320756605552,2.31315656323143,2.31552756835046,2.31709897262719,2.32269184817502,2.3182532982456,2.31688159047536,2.41563196607701,2.4020625521206,2.41549231152217,2.40798316944503,2.41399800913477,2.40997079663336,2.40962754571883,2.35023481779189,2.41371961419801,2.4139784071871,2.41245474215272
2.26452489616117,2.26492088804847,2.26556480339565,2.26651258457386,2.26652647451818,2.26805772713338,2.26832935572798,2.2699939129908,2.27102250917067,2.27195016923603,2.27285585989412,2.27511354939033,2.27649404217258,2.27831899192153,2.27922842602925,2.28270680297399,2.28677221487726,2.3123967616263,2.31278323630874,2.3131510717565,2.33187520970687,2.33411596030798,2.33705206072377,2.35740782429326,2.35791066546026,2.35721097532377,2.35632673203118,2.35592887096556,2.35632673203118,2.35721097532377,2.35791066546026,2.35740819652458,2.35016574659037,2.35740819652458,2.35791066546026,2.35721097532377,2.35632673203118,2.35592887096556,2.35632673203118,2.35721097532377,2.35791066546026,2.35740819652458,2.35023485958926,2.35740819652458,2.35778413120255,2.35709251073859,2.3562398798263,2.35589432846908,2.35633505830875,2.3572318740468,2.35792643180671,2.28729910291757,2.28712548632444,2.28649153909691,2.28635071864163,2.28507358706253,2.28570598003135,2.28481574782954,2.28519902307004,2.28418817121922,2.28503191474368,2.28488926056372,2.28514944270112,2.28472311461683,2.28563450832533,2.28492872502197,2.28610973616618,2.28556065569756,2.28656595768713,2.2860800936568,2.28676814691978,2.28674154572482,2.28676095172494,2.2874016808944,2.2867603038126,2.2883564401398,2.28696581585359,2.28874147787374,2.28760022222655,2.28923217108598,2.28836253831231,2.28933974138408,2.28919747808732,2.28926373618133,2.28978630729167,2.28932530314852,2.29044883848612,2.28990914491827,2.29129466998353,2.29053447087418,2.29166480298795,2.29164187582502,2.29238477015559,2.29277112526679,2.2926538768841,2.29361918371204,2.29290096317676,2.29384048949781,2.29328355527415,2.2946591630348,2.29497657234357,2.29627551204049,2.29659000958936,2.29633548809365,2.29676128065159,2.29666343104776,2.29771579260409,2.29804762982651,2.2993013980522,2.30057932625946,2.30265022386093,2.30430779421183,2.30624804653508,2.30579988477673,2.3068979050836,2.31753092020875,2.35208715733571,2.35294345175999,2.35451031967,2.35626081273358,2.35741373601237,2.35740819652458,2.35023430794134,2.35740819652458,2.35791066546026,2.35721097532377,2.35632673203118,2.35592887096556,2.35632673203118,2.35721097532377,2.35791066546026,2.35740819652458,2.35023484323051,2.35740819652458,2.35737875016074,2.35621345111923,2.35446483156095,2.35291954358952,2.3520828454537,2.30965370669291,2.30961259564564,2.31085910619457,2.31217711234997,2.31047967291872,2.30951948097061,2.30849211557996,2.308916118282,2.30806514963208,2.30931285017411,2.309242101042,2.31092575746697,2.31241684523631,2.31425515561983,2.31280594316155,2.31123138053873,2.31121545782944,2.31116345857424,2.31192236221489,2.31224814067166,2.31410668515336,2.31587276862889,2.31921268353791,2.32197148287502,2.32030982586179,2.31882271622272,2.32542803237076,2.32728943554526,2.34954537657862,2.35196106182984,2.35497255777783,2.35685729468534,2.35740819652458,2.35023486046986,2.35740819652458,2.35791066546026,2.35721097532377
2.26331943926847,2.266304956592,2.26595896444539,2.26592104721399,2.26833490712954,2.26775130697212,2.26897753411348,2.27152524539833,2.27153215832611,2.27320799777342,2.27347011201524,2.27707399555018,2.27748119949214,2.2794779564735,2.27996407972625,2.35426473389565,2.35518365909435,2.35586411251544,2.35651264901461,2.357924639353,2.35784169435294,2.35832698491031,2.34289678882694,2.35968605265285,2.35888671444229,2.36007710610515,2.36035852324286,2.36096609533595,2.36206467321331,2.36304547473305,2.36208950545409,2.36151686571337,2.35021661596782,2.3614501310177,2.36239352801952,2.36354233656615,2.36293850447365,2.36272431659243,2.36347559710289,2.3646880656076,2.36441726728016,2.36441901052994,2.35023481769753,2.36462287541859,2.36463846962657,2.36513116653217,2.36547397505361,2.36432164472432,2.36508613035906,2.36333085034738,2.36106216573403,2.28705689212485,2.2865187285161,2.28588427393964,2.28477688808875,2.28634882345562,2.28415883449773,2.28508531313309,2.2842653351612,2.28512171569588,2.28436970767705,2.28471356248572,2.28463759095908,2.28561546867402,2.28326171003826,2.28647544867736,2.28378212852466,2.28696715312921,2.28523730889086,2.28726087883599,2.28561093408855,2.28722414329883,2.28678549426104,2.28542904480938,2.28885896249253,2.28540025939814,2.28960276016071,2.28551383579069,2.28974320877938,2.28623725389226,2.29001285342175,2.28803685333219,2.28912667644071,2.28957817973959,2.28848250536527,2.29045689131905,2.28835661894664,2.29130916649646,2.28887624597031,2.29203584727256,2.28976252788789,2.2921905853617,2.2920783583924,2.29223534381054,2.29288312888302,2.29236607996065,2.29367886974927,2.29278135169131,2.29393108488614,2.29288504303331,2.29604105695131,2.29620090995285,2.29686526554689,2.29727682359708,2.29566596225551,2.29749955104333,2.29807423573808,2.29818148392748,2.30000895195379,2.29552935323378,2.3034384992967,2.30307703579014,2.30735844741458,2.30444495514577,2.30764637463168,2.39408811309309,2.38902862670138,2.40018942061374,2.39590914121482,2.39638189617094,2.39734509610021,2.39660295788936,2.35023480471198,2.39658031885537,2.39657919581262,2.39720893584104,2.39711877303075,2.39781994423942,2.39681034907117,2.39711647412926,2.39748997280547,2.39694627512679,2.35023442421101,2.39768851736501,2.39808160003535,2.39865253747625,2.40039687500375,2.39756799764902,2.3969222682802,2.30854244331467,2.3077547368391,2.30776933340957,2.31029284348545,2.30855739569939,2.3069068243615,2.30916423053419,2.30664644332711,2.30895773382366,2.30648139948686,2.3094052200066,2.30820708671518,2.31098648290521,2.31288500486343,2.31010099626156,2.31002853574986,2.3095121320362,2.31065660621675,2.31116962870559,2.31146783270205,2.31276848221368,2.31539873158811,2.31593529563136,2.32027707810902,2.31654392657082,2.31624003190438,2.31553984871652,2.31635660079203,2.41171008030072,2.41108020847852,2.41025452516176,2.40948813001397,2.40958639087221,2.35023481779189,2.41073890671288,2.41061660822907,2.40972618233432
2.26567079113582,2.26554303165744,2.26666107060445,2.2672504617533,2.2678396153327,2.26888411862256,2.26912417718064,2.27255364018199,2.2728392276082,2.27530824608826,2.27889706548748,2.2817850941221,2.28494453159812,2.28693523486651,2.28777352348576,2.3552010725694,2.35503662487516,2.35503596963347,2.35549402327698,2.35629293919034,2.35692411882036,2.35740819652458,2.34539340329313,2.35740819652458,2.35791066546026,2.35721097532377,2.35632673203118,2.35592887096556,2.35632673203118,2.35721097532377,2.35791066546026,2.35740819652458,2.35023055645047,2.35740819652458,2.35791066546026,2.35721097532377,2.35632673203118,2.35592887096556,2.35632673203118,2.35721097532377,2.35791066546026,2.35740819652458,2.35023486046208,2.35740819652458,2.35776664768573,2.35707486737763,2.35622441359859,2.35588454751914,2.3563320828009,2.35723345081955,2.35792961750826,2.28649203384476,2.28603832835882,2.28552090679099,2.28551809797176,2.28439812763118,2.28477427087815,2.28443915157431,2.28461581391713,2.28429658263941,2.2847650544563,2.28481879500243,2.28475231657839,2.28409611703942,2.28531893562166,2.28410701405336,2.28581494269266,2.28470742018009,2.28632721134477,2.28523611307558,2.28659211625274,2.28608953173873,2.2863751277025,2.28682675197713,2.28631397649246,2.28758692411907,2.28609849420485,2.28816569114922,2.28698299064491,2.28870710129683,2.28760126586128,2.28894319875264,2.28861824078028,2.28864812795176,2.28934588635401,2.28860564712812,2.2900945201716,2.2889251255669,2.29088984842512,2.28980596989611,2.29153033879642,2.29147849749445,2.29223937439383,2.29237151335011,2.29229283764195,2.29256674513719,2.29263175338636,2.29308509950536,2.29315575505576,2.29387628693529,2.29473148763086,2.29639551873604,2.29717829756159,2.29742678374558,2.29765052039592,2.29747326312149,2.29792241307218,2.29839914425547,2.29951918845737,2.30004070022133,2.30568047915009,2.30709996419649,2.31521443446413,2.31707654887732,2.3189470030636,2.35520849407642,2.35515231294068,2.35537354969887,2.35611157057003,2.35714157874653,2.35788922519205,2.35740819652458,2.35023486046986,2.35740819652458,2.35791066546026,2.35721097532377,2.35632673203118,2.35592887096556,2.35632673203118,2.35721097532377,2.35791066546026,2.35740819652458,2.35020086048477,2.35102710881485,2.34750404875972,2.34402138080236,2.32050691080421,2.31601880184558,2.31160882348893,2.30802018511946,2.30778613495401,2.30860396849117,2.30979703947877,2.30856998197138,2.30805215908173,2.30708126559664,2.30749837387895,2.30649540416413,2.30775876663114,2.30769771907199,2.3095407704673,2.31085743611278,2.31278474044249,2.31165036060805,2.3103712079319,2.31009155981968,2.30988983701023,2.3108834645724,2.31107377798909,2.31255864274684,2.31431640476689,2.31734205678069,2.31963282329267,2.31825463627345,2.3164103290957,2.31680514400886,2.31750916606477,2.32561890420692,2.34755650451836,2.35093857236345,2.35432442678257,2.35706888647257,2.35023486046986,2.35740819652458,2.35791066546026,2.35721097532377
2.26448101899607,2.26758540908701,2.26677119955222,2.26790134073855,2.26872569145569,2.26889967213726,2.26950121809982,2.27366133837557,2.27409495469852,2.27732170894117,2.35273698429928,2.35261716524572,2.33502595473033,2.35311054669788,2.35392589666538,2.35522319840767,2.3551226321308,2.35561804353897,2.3566944181141,2.35646607096803,2.35665642966769,2.3570275405343,2.34785305871821,2.35723126953782,2.35743477484365,2.35809857260542,2.35855907489669,2.35894623757714,2.3595243453337,2.35925728934275,2.35938774710269,2.3596428224407,2.35023392069111,2.36054752943516,2.36083676750569,2.36101344516381,2.36106713766799,2.36157015075327,2.36190023371728,2.36145921162972,2.36272980172222,2.36131107872155,2.35023481779143,2.36285212238855,2.36217489722652,2.36238441671089,2.36352243154134,2.36406879085369,2.36483253238145,2.36644661543791,2.36284233214124,2.28607989512946,2.28553946786108,2.28518281601697,2.28413502168273,2.28552170487396,2.28370241618722,2.28450771770847,2.28434030104754,2.28469461476974,2.28459211421869,2.28484042510447,2.28438274094931,2.28559819947143,2.28248829912314,2.2868827004611,2.28281785708015,2.28729688501795,2.28265654579411,2.28765469955538,2.2840753612116,2.28698786800159,2.28611846497038,2.28562846241545,2.2878251838893,2.28487572692884,2.28902588350236,2.28512754501803,2.28954804506626,2.28581510555133,2.28969966748656,2.28728439056367,2.28847776566938,2.28885916721129,2.28754850492505,2.29063237059073,2.28697197093273,2.29174281429811,2.28769730240598,2.2919539116877,2.28951446180327,2.29301666803529,2.29199762074762,2.29267367337154,2.29177298439309,2.29214907306505,2.29221341632214,2.29282395613083,2.29285970081012,2.29317571741219,2.29360626656434,2.29658558920649,2.29719696731436,2.2981703420627,2.29949122805015,2.29703150245567,2.29793895640597,2.29754541371298,2.30028225328849,2.29888443224884,2.30514880786272,2.30426525774905,2.32081371757296,2.38842112223691,2.38986780556393,2.39015630108672,2.39292734385414,2.39310701312035,2.39331625787827,2.39377038972293,2.39448324984085,2.39463567014304,2.35023481779189,2.39490888350518,2.3950930742078,2.39930122588666,2.39380942917628,2.39416620800218,2.39401588753147,2.39412897277859,2.39410120385221,2.39493436571735,2.34973986001856,2.3956020768866,2.39980819449715,2.39880529110876,2.30779481941188,2.30709308545026,2.30648899548211,2.30635178237596,2.30595480529202,2.30633076089741,2.3084306451902,2.30689837280628,2.30654658761805,2.3068671621344,2.30574916018271,2.30743363142653,2.30578835283454,2.30812033280615,2.3072034967357,2.30914240012299,2.31166152155157,2.31018198384804,2.30974187917338,2.30897232508061,2.30962022738571,2.31028321360919,2.31082456948948,2.31068111297466,2.31094782490685,2.31556278114729,2.31817620389786,2.3126011579271,2.313770197608,2.31437387974562,2.31615773835055,2.31589155049513,2.41177987494173,2.41262720406859,2.41127957822934,2.41077561241654,2.35023481779189,2.40779629773956,2.40804599495445,2.40734666633682
2.2664089812325,2.26673644394658,2.26756201229437,2.26815461041016,2.26984473077659,2.27074586073724,2.27479167624211,2.27817571978846,2.28206411900528,2.28586885671747,2.33007255240119,2.3315896865864,2.33368154829286,2.35739186945189,2.35774371174067,2.3572110566892,2.35632675721914,2.35592870422846,2.35632632700345,2.35721042056749,2.35791006775947,2.35740819652458,2.34923714308866,2.35740819652458,2.35791066546026,2.35721097532377,2.35632673203118,2.35592887096556,2.35632673203118,2.35721097532377,2.35791066546026,2.35740819652458,2.35023469883834,2.35740819652458,2.35791066546026,2.35721097532377,2.35632673203118,2.35592887096556,2.35632673203118,2.35721097532377,2.35791066546026,2.35740819652458,2.35023486046984,2.35740819652458,2.35729109868167,2.35658885974863,2.35567771149044,2.3551136732583,2.35504875049531,2.35518820457416,2.29230501123396,2.28566063507241,2.28539986349105,2.28482808889658,2.28511222158832,2.28394736852223,2.28464949157692,2.28377851819501,2.28449367040508,2.28379374156918,2.28469279562488,2.28437994678857,2.28458038038632,2.28385984462477,2.28518206883599,2.28393490090407,2.28584026625187,2.28420787648385,2.28592741734256,2.28464216160213,2.28627363046899,2.28545350539753,2.28602704333252,2.2864147464264,2.28593075404599,2.28727362140135,2.28590671517795,2.2877790866508,2.28669552701628,2.28845295606043,2.28731551640221,2.28842285959797,2.28807735968063,2.28814623847486,2.288969077703,2.28829073047806,2.28985499103836,2.28854970755609,2.29059404367144,2.28938047674365,2.29113717082823,2.29092691272888,2.29166453772298,2.29162416812709,2.29176611406379,2.29180287788751,2.29239066672819,2.29253687462638,2.29301458543974,2.29339931123626,2.29415049747753,2.29555544144775,2.29648912978008,2.29716185167139,2.29762322820416,2.29745611746096,2.29759476722294,2.29908281345664,2.29995250057012,2.30115815079876,2.3098004180725,2.31669940668176,2.32527535902466,2.35740819652458,2.35791066546026,2.35721097532377,2.35632673203118,2.35592887096556,2.35632673203118,2.35721097532377,2.35791066546026,2.35740819652458,2.35023486046986,2.35740819652458,2.35791066546026,2.35721097532377,2.35632673203118,2.35592887096556,2.35632673203118,2.35721097532377,2.35791066546026,2.35740819652458,2.34763139817826,2.3432119783442,2.33995380893368,2.31611865759881,2.30814225705942,2.30683741355215,2.3058420137198,2.30573299091778,2.30570830193171,2.30684763841201,2.30799885658013,2.30727621342082,2.30665341347143,2.3058661629935,2.30588723808282,2.30536450488018,2.30626632794822,2.3066889293574,2.30815043357951,2.30945541041006,2.31121231520169,2.3106537614925,2.30984890430372,2.30915563257632,2.30891020769729,2.30928172941039,2.30991165944513,2.3110129594875,2.31255868665837,2.31591826691914,2.31793813145956,2.31587775148893,2.31441996057222,2.3140399190102,2.31732287496351,2.31739833474104,2.34730973544674,2.35014502505244,2.35349874129204,2.35665903027459,2.35023486046986,2.35740819652458,2.35791066546026,2.35721097532377
2.26653660064574,2.26794762624516,2.26792663012405,2.26898559444727,2.27223746499532,2.27251719122924,2.35099126731649,2.35155670880724,2.35135593816674,2.35150081691657,2.35253367658946,2.35275214880084,2.34227754994862,2.35285914789185,2.3535231625158,2.35396689781491,2.35451621624574,2.35546822237354,2.35508759872217,2.35519987156726,2.35570004534968,2.3561892000693,2.34987176818485,2.3565130827266,2.35684016860823,2.35808249194044,2.35702357420014,2.35829283651836,2.35854056251189,2.35779974104278,2.35741919058372,2.35811476523826,2.35023479312954,2.35848735649806,2.35880249463805,2.35933780487056,2.35995326101221,2.35932292833573,2.3597506900394,2.35971991859277,2.36021944964158,2.36081565427464,2.35023481779189,2.36037898719377,2.36055161741502,2.36047658663973,2.36013405045452,2.36106724234588,2.36587290055359,2.36165541324637,2.28638819754078,2.28559414275543,2.2850451924167,2.28559609506447,2.28310550726536,2.28591014903884,2.28273911039184,2.28507791284751,2.28248274739052,2.28516733065596,2.28279218068966,2.28503969388071,2.28388991088476,2.28541538322298,2.28291451072846,2.2864586956011,2.28345752562523,2.28639773949341,2.2838853604002,2.28656500978842,2.2843243364781,2.28655745290064,2.28576802046838,2.28525401841952,2.2876193123434,2.28488873053523,2.28861426738488,2.28473907067526,2.28894266577632,2.28598849515667,2.28927434530879,2.28688654407252,2.28804991128713,2.28833080752646,2.28773267495256,2.29024042348282,2.28734514511172,2.29114585094262,2.28791127765735,2.29141078909618,2.2889174409995,2.29123065019041,2.29079426756681,2.29127151629712,2.29076741026453,2.2920675575853,2.29185007879519,2.29302439049617,2.29259345649121,2.29333399428897,2.29385983279169,2.29451495503074,2.29556125249732,2.2950873275041,2.29618277905429,2.29693520338128,2.29712912947206,2.2990609129539,2.30087959210061,2.30150378673616,2.38408797249404,2.38551914452268,2.34194131017869,2.38632660250037,2.38814073409974,2.38888767530686,2.39033607236503,2.3910509939993,2.39157123866166,2.39278462124435,2.3941879645312,2.39321067781284,2.35023481779189,2.39172511549414,2.39339349487599,2.39390615122738,2.39365021931509,2.39341724664877,2.39342762438375,2.39388849289112,2.39452153752263,2.39354897082982,2.34763588387394,2.39410784084803,2.3951196461892,2.30452960769131,2.30433427698375,2.3049069464965,2.30476223561822,2.30344863148327,2.30479923130586,2.30467938461416,2.30698826763355,2.30580338797695,2.30572751843278,2.30499413488684,2.30515084966162,2.30492766605942,2.30502524259486,2.30624358446003,2.30661262173063,2.30779986120172,2.30975107244705,2.30707297763916,2.30973222611472,2.30828113584335,2.30827945410225,2.30832347328747,2.30885416463616,2.31080974750188,2.31035045241723,2.31486377362303,2.31690213564296,2.31346806966538,2.31297197262239,2.31190260809032,2.31721811845711,2.31612290981175,2.40137437925712,2.40377091684652,2.40279984102694,2.40240167279831,2.35023481779189,2.40393476232306,2.40681291216911,2.40660347260044
2.27008029699684,2.27302844900909,2.2761470071194,2.27856840037776,2.27977559482676,2.28241476115427,2.35177575976376,2.35205894083589,2.35261075453148,2.35346508984351,2.35472246659366,2.35591779066575,2.34398757198673,2.35740807106842,2.35774367401801,2.35721097594836,2.35632673167496,2.35592886833698,2.35632672687267,2.35721096868093,2.35791065843649,2.35740819652458,2.35011838285973,2.35740819652458,2.35791066546026,2.35721097532377,2.35632673203118,2.35592887096556,2.35632673203118,2.35684151154295,2.35739679210163,2.35740819652458,2.35023485735846,2.35740819652458,2.35791066546026,2.35721097532377,2.35632673203118,2.35592887096556,2.35632673203118,2.35721097532377,2.35791066546026,2.35740819652458,2.35023486046986,2.35740819652458,2.35705743337878,2.35640675054894,2.35557510664215,2.35508207930862,2.35505576757024,2.3552062548302,2.28584932707406,2.28528673702617,2.28515415179337,2.28447790885032,2.2850634568807,2.28352861783922,2.28469378421337,2.282998103025,2.28445841147651,2.2828224985342,2.28439416106734,2.2833854251389,2.28430812009638,2.283666084659,2.28497261618508,2.28385320393224,2.28548247469522,2.28412707668045,2.28547968796804,2.28443126774598,2.2857177564721,2.28535415255101,2.28570575138393,2.28606213970227,2.28552604106425,2.28690358238526,2.28568295668645,2.28725057038887,2.28612627199538,2.28792587638344,2.28691178632029,2.28797879593983,2.28766215277138,2.2877840804254,2.28851480074366,2.28812673223307,2.28945236200469,2.288452861421,2.29017711988861,2.28918757584811,2.29059116247386,2.29012017526265,2.29085134213044,2.29067864507031,2.29123424195308,2.29119149561867,2.29234779528692,2.29231484324212,2.29314498812938,2.29341979413428,2.29424876379108,2.29495600605416,2.29581105473421,2.29593400769486,2.29682216127531,2.29705645058201,2.29723064721699,2.30367781055949,2.30678636781571,2.31178453507425,2.33792538675321,2.34034385406749,2.34349119661673,2.35740819652458,2.35791066546026,2.35721097532377,2.35632673203118,2.35592887096556,2.35632673203118,2.35721097532377,2.35791066546026,2.35740819652458,2.35023486046986,2.35740819652458,2.35791066546026,2.35721097532377,2.35632673203118,2.35592887096556,2.35632673203118,2.35721097532377,2.35791066546026,2.35740819652458,2.34370736237568,2.34071642070635,2.3385201202356,2.30423677919528,2.3042145775274,2.30395426239038,2.30368608636923,2.30375610484733,2.30415459303125,2.30540727541259,2.30642529895514,2.3059708115392,2.30505904324532,2.3048468351112,2.30433700755824,2.30415994622958,2.304602451337,2.30546449356654,2.30651566686117,2.30813145017795,2.30950537556469,2.3087030888811,2.30871225139184,2.30780091393246,2.30762520123849,2.30755404239337,2.30874733766534,2.30995929120182,2.31141935680623,2.31443960055443,2.31628622237715,2.31467661662847,2.31366808063034,2.31359601298721,2.31682398469504,2.31673218718345,2.32510983183964,2.3454094009818,2.34977347901447,2.35401284283771,2.35023486046986,2.35740819652458,2.35791066546026,2.35721097532377
2.35014922557309,2.35110112138748,2.33404294971671,2.34860361409527,2.34898567433536,2.34945530659301,2.35038386978141,2.350754086516,2.35155728087098,2.35197088271722,2.35249550404983,2.35244904584771,2.34627213786939,2.35404940665109,2.3553050110701,2.35373295637847,2.35362569810581,2.35404686139399,2.35360672028737,2.35399381171101,2.35410692427222,2.35813134988838,2.35020177282716,2.3542601536115,2.35384302642563,2.35457294471446,2.35476772147595,2.35446824321701,2.3553284440822,2.3523821504134,2.35288624049539,2.35755995774192,2.35023481747698,2.35664437659703,2.35923299869918,2.35827200089377,2.35788153144474,2.3582294035233,2.35774252385811,2.35849408385663,2.35831970037701,2.36189758023597,2.35023481779189,2.35830891476894,2.35875019286182,2.3585999263302,2.35905826952514,2.35752039292161,2.35858331964733,2.35730901562327,2.28577114316169,2.28519597220018,2.28471241006002,2.28583752013293,2.28326575937581,2.28573203805608,2.28158635333131,2.28604909097095,2.28109859647816,2.28562657977989,2.28124725832488,2.28493084055667,2.28339346113381,2.28521957702479,2.28259439563315,2.28618679534361,2.28284862265478,2.28582569401735,2.2833138561701,2.28591008158743,2.28400975540495,2.28606749951755,2.28560070731413,2.28524475152139,2.28682149948188,2.28435013244782,2.28786384309626,2.28442542987936,2.28851468321252,2.28511181774229,2.28839909280308,2.28668583888286,2.2876508896705,2.2877788881004,2.28728393754694,2.28938605244995,2.28732898086579,2.2904482697102,2.28774821917783,2.29116797315233,2.2889053074123,2.29103589359389,2.29029172014169,2.29119183570394,2.28978325319955,2.29200435468072,2.29113244120937,2.29336575696657,2.29242430057202,2.29376935445327,2.29424831477041,2.29496015649214,2.29591783938163,2.29628611123435,2.29692423214283,2.29786271439964,2.2978983393355,2.38130372623834,2.38573993884471,2.38505923038686,2.38504556671797,2.38576599321677,2.34794304278367,2.38640379936714,2.38699448251447,2.38793894277817,2.388867714666,2.38857509417464,2.38901477740877,2.38934087444971,2.38994651190412,2.38989386244914,2.35023481779189,2.38990384851035,2.39031498107952,2.39070518969555,2.39123823059166,2.39201469446103,2.39189438811048,2.39140250536523,2.39489327564535,2.38981088718517,2.34215079701892,2.39708168319125,2.39684870169822,2.30435839661439,2.30298959133908,2.30333038355495,2.30304285165395,2.30218817057131,2.30320449677113,2.30391391500138,2.30553001566676,2.30406753109038,2.3043610531708,2.30365288289588,2.30428679964144,2.30314201138038,2.30417201381434,2.30411071887662,2.30515070287247,2.30648752281448,2.30838478855826,2.30700016249053,2.30778677472021,2.30686635301436,2.30638789418668,2.3074218688863,2.30750508175596,2.30977616537957,2.30863265466096,2.31263978707268,2.31452188878235,2.31132412384464,2.31191378877164,2.31421417681321,2.31442189847603,2.31547887100738,2.31476972402752,2.40160373453062,2.401246631558,2.40122031355923,2.35023481779189,2.39898049157279,2.39855449736293,2.40562723033065
2.32910669500511,2.33049556817501,2.33254212381067,2.35471454724362,2.35420460877235,2.35493349012507,2.35526278414192,2.35559519940826,2.35602826307103,2.35641147707367,2.35683107367661,2.35714935462915,2.34815252799058,2.35717442827214,2.35763523659645,2.35701444760961,2.35624927175981,2.35592887095468,2.35629701488626,2.35694264473812,2.35750453886285,2.35740819652458,2.35022662321555,2.35724928715549,2.35748266955525,2.35712041640257,2.35632673203118,2.35592887096556,2.35632673203118,2.35630274918314,2.35670539648532,2.35740819652458,2.35023486044533,2.35740819652458,2.35791066546026,2.35721097532377,2.35632673203118,2.35592887096556,2.35632673203118,2.35721097532377,2.35791066546026,2.35740819652458,2.35023486046986,2.35740819652458,2.3570302760522,2.35638544487991,2.35556286440743,2.35507801657587,2.35505626733506,2.35520814810809,2.28546073236395,2.28493513949317,2.28479626291384,2.28433650512255,2.28481763127686,2.28345633450512,2.28398606575119,2.28295712559581,2.28389524554871,2.28277314337276,2.28391430401041,2.28328412750753,2.28425226820174,2.28379140965317,2.28480023287501,2.2833217003413,2.28481575498769,2.28355105505514,2.28495905312876,2.28392638985238,2.28521586051464,2.28497528000979,2.28526729444853,2.28545654655814,2.28509189106797,2.28637162031589,2.28530070340008,2.28686633837216,2.28563019398616,2.28750406026966,2.28633799991969,2.28762137391139,2.28729872738715,2.28733192693897,2.28816465205109,2.28754544534192,2.28923962183187,2.2882750976127,2.28998073884499,2.2888575706256,2.29043316804054,2.28975452277005,2.29051038985304,2.29027965571583,2.2910479366725,2.29079789843774,2.29214169342541,2.29217866982657,2.29348094317092,2.29383131998682,2.29469039296246,2.2954673080516,2.29640247179234,2.29671451440682,2.29740896326862,2.29813261564264,2.30603882324044,2.34857978844342,2.34954487896186,2.35125865095977,2.35347722658597,2.35536669539664,2.34977683167465,2.35740819652458,2.35791066546026,2.35721097532377,2.35632673203118,2.35592887096556,2.35632673203118,2.35721097532377,2.35791066546026,2.35740819652458,2.35023486046986,2.35740819652458,2.35791066546026,2.35721097532377,2.35632673203118,2.35592887096556,2.35632673203118,2.35721097532377,2.35791066546026,2.35740819652458,2.32460991762341,2.31692368898586,2.30962076948366,2.30476621274387,2.30314864053693,2.30229906326227,2.30252798801671,2.30223491001888,2.30274235895326,2.30379156786385,2.30483584178561,2.30446825248146,2.30342652987323,2.30368650821169,2.30315629206899,2.30327597810755,2.30333962128378,2.30417107176828,2.30482172775523,2.30635195694376,2.30761739540743,2.3070186925387,2.30653640352609,2.30600886135467,2.3062175199591,2.30631417352089,2.30760101417095,2.30853255200137,2.31012383303695,2.31204592219559,2.31396713435151,2.31282723962198,2.31208224011562,2.31252499796111,2.31341892188632,2.31554623759504,2.31640549016495,2.34501916238656,2.34900320076776,2.35292170210831,2.35023486046986,2.35740819652458,2.35791066546026,2.35721097532377
2.35047369519689,2.35121504221259,2.34204371087407,2.35124487018949,2.35058015119302,2.35248100435734,2.35163432011628,2.35158820787033,2.35184658141183,2.35228210087591,2.3526621001357,2.35209020959999,2.34932128422519,2.35209419157366,2.3533017859364,2.35268190642336,2.3519191693916,2.35190416966781,2.35200457750356,2.35255346302793,2.35309289575306,2.35255795957772,2.35023303309939,2.35222809932202,2.35305492519516,2.3528701510039,2.35271224709742,2.35287031492026,2.35217555724312,2.35207224187276,2.35257841636582,2.35593908257355,2.35023481779051,2.35516374475805,2.35508513830074,2.35565365958973,2.35546550870687,2.35656877589604,2.35682055311358,2.35671479746855,2.35658192911889,2.35661338667819,2.35023481779189,2.35724285448892,2.35745421234386,2.35624235481989,2.35487747581856,2.35536014055756,2.35607498875259,2.35620017083579,2.28562047586043,2.28474009817509,2.28440346627259,2.28454222487014,2.2849495855902,2.28334891522638,2.28274062643413,2.28360061915821,2.2830572087005,2.28323581538769,2.28303320085205,2.28430337299379,2.28389071749642,2.28598555590555,2.28241880052978,2.28549727031113,2.28171874848143,2.28572754165763,2.28234051771918,2.28573738195694,2.28354962488446,2.28551290750876,2.28484168268315,2.28461752593698,2.28620847400321,2.28418625392887,2.28740186993478,2.28450111771287,2.28836847263611,2.28460569152902,2.28837727794612,2.28608669530994,2.28729902814084,2.28792824661403,2.28636640745702,2.28952870070584,2.28655854368686,2.29108974104584,2.28718283405802,2.29151255624362,2.2879790319773,2.29071906574902,2.28993010576138,2.2910157830194,2.28964334614892,2.29216559214123,2.29039268827206,2.29331426232375,2.29295931315051,2.29463614250179,2.29447614639969,2.29484711046112,2.29712122377659,2.29686590235149,2.29720501436161,2.29964238709191,2.375722120698,2.37956870045444,2.38161258349099,2.38198196972028,2.38636267571795,2.3854906043323,2.35017917395343,2.38553782219251,2.38601955955469,2.38655001162358,2.38642113479074,2.38722779202613,2.38800838087935,2.38700902411126,2.38770277858107,2.38914971640199,2.35023481779189,2.38851398816271,2.38903766831103,2.38806474261374,2.38901453139215,2.38897388324099,2.38934036353967,2.38997987717771,2.39005783898923,2.39100258091822,2.32006659987926,2.3026658356638,2.30152750866132,2.30265711120381,2.30107555854295,2.30236580138811,2.30159328281912,2.30173728156444,2.30112224355498,2.30163155928931,2.30435966433704,2.30284425492389,2.30260451315863,2.30236054254764,2.30319634024413,2.3030424744808,2.30301947117807,2.3030257967019,2.303938727028,2.30388904739956,2.30643884844962,2.3051761470832,2.3042900087405,2.30513828047224,2.30501060498992,2.3067382601123,2.30618932934671,2.30813400363401,2.30856940490417,2.30932156660438,2.31248484177223,2.31081719642608,2.30994029790899,2.30996360748763,2.30980089427189,2.31473641897922,2.31582592970856,2.40222508187301,2.40087357493326,2.39903494814235,2.35023481779189,2.39806009511761,2.39776046123228,2.39834741361626
2.35534590494303,2.35637508991222,2.34331788983731,2.35602402246294,2.35570336557901,2.3557264149185,2.35573939832955,2.35542731645625,2.35572776991832,2.355812580626,2.3561619485839,2.35644982335352,2.34989141606557,2.35673568698785,2.35667448825505,2.35620737153744,2.35559305443099,2.35550509063121,2.35566662753344,2.35619012448075,2.35664587056291,2.35665347707321,2.3502345285349,2.35676841450373,2.3568247256557,2.35660255783668,2.35608353395891,2.3558546550967,2.35629761225399,2.35635419864823,2.3566934657403,2.35740819652458,2.35023486046981,2.35740819652458,2.35769764345634,2.35721097532377,2.35632673203118,2.35592887096556,2.35632673203118,2.35721097532377,2.35791066546026,2.35740819652458,2.35023486046986,2.35740819652458,2.35699452915915,2.35635689248434,2.35554562480507,2.35507131752364,2.35505586821469,2.35520998359206,2.28493012745711,2.28448604545963,2.28423043750758,2.28406048714666,2.28367718013789,2.28352514363064,2.28257741296198,2.28334812827762,2.28258065692165,2.28329552399516,2.28296131985967,2.28370625854271,2.28383287805253,2.28368422008422,2.28411772276681,2.28312760675152,2.28426468683406,2.28353006548282,2.28466788325791,2.28384339439983,2.28486587595411,2.28453497581014,2.28473045912782,2.28498561417462,2.28458305869735,2.28605178351286,2.28512532313972,2.28684916027036,2.2854644643898,2.28729882426825,2.2860398558121,2.28728654432271,2.28698591025508,2.28688654667514,2.28806369866954,2.28697997412061,2.28901276898096,2.28785767325484,2.28974833916135,2.28854667594151,2.29034293459844,2.2895166605005,2.29041185610495,2.29002672103169,2.29107675230444,2.29065839111934,2.29225799274248,2.29221793554116,2.2938968982382,2.29447942975918,2.29574353574737,2.29660525741225,2.29766043752361,2.29789705160888,2.29836974299386,2.30835914336741,2.35194095436068,2.35256973658068,2.35380610095707,2.35529942813593,2.3563438564161,2.35740819652458,2.35023037752693,2.35740819652458,2.35791066546026,2.35721097532377,2.35632673203118,2.35592887096556,2.35632673203118,2.35721097532377,2.35791066546026,2.35740819652458,2.35023486046985,2.35740819652458,2.35791066546026,2.35721097532377,2.35632673203118,2.35592887096556,2.35632673203118,2.35721097532377,2.35791066546026,2.31594259913386,2.31406824894357,2.30522436240025,2.3031278504434,2.30144446074269,2.30114781335649,2.30081835159868,2.30179408633596,2.30169952914566,2.30225586044956,2.30303016523024,2.30399861062651,2.30355873954238,2.30247830348231,2.30259066826724,2.30218161983022,2.3022896968063,2.30233711266158,2.30325201014559,2.30366156625836,2.30470572677707,2.30586800356771,2.30546784032036,2.30485387162573,2.30470430045435,2.3051277835105,2.30549563282462,2.30618430645486,2.30705177716571,2.30840111650325,2.30982293101422,2.31162437085895,2.31097539932615,2.30994291433032,2.31015154030272,2.31026322144749,2.31369078933248,2.31524333155289,2.3250121359625,2.34281494060931,2.3469822880091,2.35023486046986,2.35740819652458,2.35791066546026,2.35721097532377
2.35136974632815,2.35158054768154,2.34534196084126,2.35136831066464,2.35203283526334,2.35120120403248,2.35151372957633,2.35076463119768,2.35120630211506,2.35145234843567,2.35128053297129,2.35135180694465,2.35012185904039,2.35177801177859,2.3518298871054,2.35149220800108,2.35088227161841,2.35086760731891,2.3509287616983,2.35158345681093,2.35228227063621,2.3511599541806,2.35023476552971,2.35165121017702,2.35241316833202,2.35205316038311,2.35162176346714,2.35149559649618,2.35200556489384,2.35246439802936,2.35287832770032,2.35353755687823,2.35023481779189,2.35345528661093,2.35344000397468,2.35383894205218,2.35424131731495,2.3543074498736,2.3539095846193,2.35420384321424,2.35405908406085,2.35424730908323,2.35023481779189,2.35608407367274,2.35533450887838,2.35526771133005,2.3550620755244,2.35464836588366,2.35325542584448,2.35289650260949,2.28483714065252,2.28392247199,2.28407386042287,2.28362560653093,2.28405291973966,2.28098545165942,2.28471663419157,2.28059055180559,2.28453294497561,2.28087194102598,2.28432232418234,2.28271620644837,2.28357907741146,2.283434912295,2.28304867914913,2.28382523531056,2.2829339619571,2.28540247858714,2.2832063966101,2.28507242439737,2.28396362304939,2.28488433412861,2.28468619602604,2.2835855523765,2.2860586163962,2.28376204412266,2.28744955079259,2.28407090336727,2.28820287697707,2.28458318221767,2.28834756799241,2.28538000101541,2.28689405762093,2.28816269892696,2.28533055511615,2.28982160990022,2.28583089420219,2.29021040257828,2.28684408395602,2.29110260839976,2.28790372579357,2.29128393333406,2.28981695219573,2.2911559982393,2.28917756080894,2.29250781135362,2.29053723015189,2.2939931030271,2.29271776340969,2.29501015956526,2.29675015108317,2.29520952869319,2.29856168902076,2.29812690092556,2.29919440029246,2.3748935552197,2.38244840766593,2.38175580165016,2.38091147908534,2.38069665040905,2.38172666202176,2.38249069213118,2.3502345490953,2.38362868688081,2.38422051937783,2.384219593633,2.38505489890709,2.38484245275349,2.38552059541753,2.38565548907388,2.38554102162457,2.38552229089522,2.35023481779178,2.38527008956008,2.38575700585632,2.3858493167063,2.38555933461748,2.38686698315663,2.38679324915096,2.3910614927132,2.38695730069661,2.30224377930427,2.30460626414898,2.30257115566477,2.30073669725624,2.30084898020045,2.29895484494759,2.30072296421531,2.30138163950558,2.30257900801491,2.30121381715125,2.30331173345567,2.30355514175147,2.30359789978187,2.30136172347405,2.30180485075815,2.30194675597082,2.30157600997519,2.30181934272314,2.30256633643874,2.30342814822428,2.30255495381403,2.30531039479543,2.30432102164596,2.3043415441449,2.30392798851558,2.30481196735679,2.3060037522085,2.30472634715393,2.3066200456498,2.30622509086352,2.30782637150732,2.30999169055561,2.30764454852203,2.30860136166886,2.30901970650091,2.30942447134102,2.31090071665504,2.31179395225374,2.31621443416289,2.40130364067573,2.40014538982465,2.35022504438339,2.39953839729825,2.39834866071743,2.39787982581746
2.35501985057535,2.35588995432181,2.34734475212066,2.35578897939567,2.35555883568368,2.35516143529787,2.35531402386336,2.35485420875062,2.35494149554561,2.35487192590718,2.35507539181934,2.35553248166886,2.35020208116518,2.35597133961044,2.35526523061873,2.35486266307191,2.35456712923978,2.35471516025991,2.35473229526582,2.3553095980269,2.35628672699059,2.35611679788857,2.35023485362245,2.35594168870617,2.35552231045414,2.35543094858543,2.35547262412826,2.35523526503299,2.35562894114047,2.35642072246589,2.35687856971222,2.35701241053571,2.35023486046986,2.35710711341352,2.35708524095829,2.35696690934328,2.35616261870708,2.35592887096556,2.35632673203118,2.3571312882164,2.35781585026668,2.35740819652458,2.35023486046986,2.35740819652458,2.35706256506985,2.35653003294783,2.35564368494016,2.35510213877743,2.35504988404347,2.35519329046723,2.29026353899554,2.28412276761399,2.2837711378636,2.28379486991235,2.28258283459191,2.2835829597351,2.28197961108303,2.2836670560959,2.28180738371293,2.28342444676007,2.28221909558097,2.28342087579545,2.28305144397393,2.28346131643225,2.28306859834915,2.28359429848224,2.28332373207426,2.28394513951879,2.28374815959696,2.28422830923306,2.28406761152493,2.28458614190176,2.28417603326656,2.28491382745909,2.28400837162339,2.28571894897391,2.28460081680196,2.28664377910046,2.28518727950771,2.28704011536725,2.28596830082905,2.28707594118027,2.28684811942413,2.28650389350968,2.28813173395353,2.28672084520804,2.28893739469748,2.28716549497376,2.28949886943427,2.28839524574661,2.29029808158081,2.28954407275563,2.29055204677518,2.29004912538107,2.29143608849521,2.2908554840318,2.29286988034209,2.29258727154174,2.29444319299596,2.29479544942982,2.29895366777137,2.30525050173362,2.31041854204329,2.31192096350368,2.31255894484574,2.3551929514334,2.35511340614748,2.35529916031663,2.35601035231924,2.35703561270829,2.35779060324155,2.35740819652458,2.35023485090767,2.35740819652458,2.35791066546026,2.35721097532377,2.35632673203118,2.35592887096556,2.35632673203118,2.35721097532377,2.35791066546026,2.35740819652458,2.3502348604681,2.35740819652458,2.35788442657197,2.35713604713689,2.3561059338086,2.35536924111191,2.35515001844115,2.355207582172,2.3121753302469,2.30337891465393,2.30395080784163,2.3024860588272,2.30137215964486,2.30018777061661,2.30001670287219,2.29950559196872,2.30051052160969,2.30064557554019,2.30149501780146,2.30210110860056,2.30274660872795,2.30222532115374,2.30136155243769,2.30148538235574,2.30107073517181,2.30123162000013,2.3015456064447,2.30240617132043,2.30267752423622,2.30382086914192,2.30467405588423,2.30442430589087,2.30381644153667,2.30400603931099,2.3039387614313,2.30461205027541,2.3047730661768,2.30570049037748,2.30655804716896,2.30795893088692,2.30934494843681,2.30864583810288,2.30804770449054,2.30859211598343,2.30883235550966,2.31056057961185,2.3124347520354,2.31672049225458,2.34166986942709,2.34497625349266,2.34953155953805,2.35740819652458,2.35791066546026,2.35721097532377
2.35000929270129,2.3510533342098,2.34877297704607,2.35098047208309,2.35036314648027,2.35157453009981,2.35092694401079,2.3503673593562,2.35070862115845,2.35056449634285,2.35015825520242,2.3506487276472,2.35022642853762,2.35080882640645,2.35058669750862,2.34964991171981,2.35058840122207,2.35002904798486,2.35054795326093,2.35009051101829,2.35255957468141,2.35146773328451,2.35023481706201,2.35118371922975,2.349800557948,2.35108329529347,2.35096860916492,2.35040614325747,2.35045330869738,2.35245042213858,2.35283804837457,2.35180376660352,2.35023481779189,2.35197317500819,2.35272418895606,2.3525954344589,2.35168531169939,2.35311280484633,2.3529785441347,2.35289102137607,2.35365146084663,2.35465529470088,2.35023481779189,2.35325945095247,2.3527875423528,2.35335199990568,2.35329551075432,2.35291781663447,2.35425976678203,2.35486607540191,2.3554791077367,2.28436765005635,2.28394723346174,2.28229492183294,2.28444463481574,2.28092826216252,2.2852129378068,2.28061583302162,2.28477570307773,2.28081986672377,2.28390570895788,2.28194639923944,2.2833571358685,2.28227706311357,2.2846000012001,2.2820227410239,2.284618833592,2.28179530962867,2.28477253721705,2.28292398942743,2.28506065019711,2.28328970950666,2.28468769928882,2.28269674846666,2.28654439674068,2.28271236580768,2.28728498180088,2.28347729241512,2.28778270947631,2.28462954461795,2.28774317453704,2.28615064561556,2.28671019104758,2.28800963215131,2.28533169972147,2.29032579447716,2.28521142803503,2.29087998200414,2.28593593651169,2.2911271121603,2.28799711630339,2.29116903316402,2.28993027279894,2.29164764956389,2.28945537512655,2.29350610471853,2.29087986001577,2.29462942116965,2.29303691874046,2.29541879307769,2.29845046394414,2.37396492773915,2.33564784168076,2.3741245033324,2.37464381411019,2.37527942846528,2.37642464698383,2.37859988247595,2.37897274979235,2.37929426956231,2.38358393376043,2.38058700030525,2.35023481764821,2.38144222327356,2.38251527505254,2.38276165895188,2.38296985922616,2.38261053266269,2.38349375803585,2.38130543540903,2.38155259633053,2.38361733789851,2.35023481777226,2.38609051276653,2.38373908667962,2.3827248386996,2.38161727931458,2.3874244053268,2.38355055390059,2.38994101822919,2.30155709415885,2.30127268467861,2.30280561769783,2.30093740047379,2.2998351024317,2.30067817918481,2.29886189868451,2.29972194697355,2.29853374288924,2.29998364209814,2.2997550574843,2.30080788539888,2.30143250229348,2.30004056797569,2.30067226962571,2.30024285731964,2.30075640489413,2.30080678440058,2.30162447429232,2.30143693465432,2.30176849855874,2.30280458655652,2.30403531420457,2.30256983502013,2.30333900009598,2.30286181976549,2.30366892656555,2.30383490621457,2.30472014177836,2.30425594010287,2.30591878429658,2.30562589143536,2.30817088783621,2.30613709796336,2.3072268320888,2.30650984599507,2.30834102118662,2.30885180022535,2.31094879914954,2.31349060430169,2.40420592441753,2.40355357623703,2.34888355268719,2.40127587619535,2.40045278834615,2.39450402832777
2.35390021674464,2.35473373601576,2.34953643577164,2.35494514075484,2.3545047174897,2.35523384806092,2.35467326825782,2.35378928159765,2.35379236539065,2.35407426583238,2.3539316108301,2.35440321835912,2.35023297876734,2.35432775410103,2.35368472063291,2.35374605472603,2.35335735666307,2.35337120755443,2.35360688818406,2.3539936493323,2.35461318887158,2.35546576827997,2.35023486040854,2.35530404787945,2.35398018576161,2.3538061227413,2.35395426857803,2.35376474231793,2.35425571522707,2.35594298683674,2.35626244946796,2.35618040588849,2.35023486046986,2.3562220373265,2.35684502571269,2.35639401332884,2.35577682022524,2.35579113007976,2.35603253792415,2.35672061923251,2.35744021814298,2.35733555069307,2.35023486046986,2.35638253892392,2.35514206594018,2.35431001186315,2.35321252418243,2.35232433626678,2.35186870759333,2.29214376965763,2.29081390245961,2.28406040435038,2.28358687073704,2.28367299884696,2.28255977538749,2.28354381017428,2.28191345495582,2.28352976275846,2.28158806802239,2.28297564504026,2.28200998517136,2.2829224814262,2.28283058634208,2.28372382046181,2.2826273063546,2.28357964486211,2.28239614464655,2.28387207475926,2.28259715495806,2.28429836607262,2.28324950625285,2.28445940515788,2.28366693653616,2.28476022097573,2.28363797618037,2.28553379971282,2.28409327329562,2.2860922819594,2.28490201942165,2.28665204733484,2.28593041415228,2.28688688188482,2.28672888760834,2.28640573421112,2.28813026640359,2.28669412889586,2.28878906556102,2.28708700417062,2.28937804197286,2.28848794101934,2.29035278433553,2.28985249066098,2.29060186164538,2.29020586368824,2.29167266812018,2.2914014012403,2.29334235184925,2.29311475310558,2.29456703314031,2.29492323545322,2.30642510618825,2.33364558852677,2.33568599330295,2.35740819652458,2.35791066546026,2.35721097532377,2.35632673203118,2.35592887096556,2.35632673203118,2.35721097532377,2.35791066546026,2.35740819652458,2.35023486046986,2.35740819652458,2.35791066546026,2.35721097532377,2.35632673203118,2.35592887096556,2.35632673203118,2.35721097532377,2.35791066546026,2.35740819652458,2.35023486030497,2.35740819652458,2.35773407772943,2.35697568610299,2.35595390633195,2.35525810144873,2.35509209286948,2.35518449279769,2.30239968154954,2.30255466553772,2.30258637218944,2.30122052298023,2.30011038671759,2.29957227113352,2.29916613132854,2.29871490103229,2.29897554816346,2.29904315057504,2.29944579910192,2.30006538995187,2.30055504407717,2.30032336018761,2.29996706425878,2.30015582353165,2.3000047474222,2.30022409780556,2.30083124427394,2.30162885709407,2.30174550083758,2.30279076359953,2.30329735828528,2.3030482747044,2.30232477840937,2.30292384668546,2.30226675861394,2.30320357498221,2.30330744341063,2.30470982523317,2.30517920427711,2.30661268909863,2.30769533768222,2.30746592821598,2.30678977339016,2.3072944851769,2.30708502320807,2.30886487862903,2.31081130566228,2.3137758290229,2.32350873897826,2.33819886319903,2.34500464865737,2.35740819652458,2.35791066546026,2.35721097532377
2.34934723844225,2.34958181860242,2.34977230369189,2.35000566957628,2.34940859566807,2.35178180216258,2.35029455453936,2.34819287221411,2.34966907718073,2.35000180748786,2.34933084810741,2.34930020289092,2.35023445130422,2.34881684463663,2.3488098089584,2.34992979236576,2.3485943282082,2.34853993627635,2.34937332218405,2.34914471691789,2.3490435759878,2.35008107719005,2.35023481778802,2.35086249173087,2.3488582938819,2.3490508557094,2.348947596837,2.34917895014658,2.34915411413313,2.35174358848241,2.3512309591993,2.3511619782642,2.35023481779189,2.35086224729202,2.35271511377077,2.35181574008271,2.35130546528312,2.35137928087294,2.35153232475444,2.35226943580474,2.35301328572081,2.35238288690487,2.35023481779188,2.35127319411198,2.35077457875966,2.35097044849585,2.35163611112992,2.35209592733476,2.35090711667707,2.28530586379498,2.28533075287394,2.28394068895916,2.28374295057185,2.28278516969949,2.28454604962746,2.28100291420004,2.28438439196819,2.28037623900052,2.2838049865784,2.28049082888111,2.28341679036891,2.28174050951688,2.2832186737413,2.28342352190917,2.28384735567635,2.28130749047179,2.28453969700355,2.28094851152839,2.28504707671651,2.28149711986494,2.28558411672953,2.2823467377917,2.2843229053111,2.2823961530887,2.28634762716885,2.28244423997316,2.28689677722055,2.28331800957745,2.28713852727229,2.28444560971757,2.28724399440376,2.28589905266445,2.28652594173638,2.2875237280338,2.28590465582098,2.28950491214346,2.28557356444354,2.28983241488024,2.2869063211417,2.29074658611328,2.28889150250652,2.29112542741225,2.29016467140516,2.29098369398208,2.29001355467623,2.29311035116469,2.2923184850311,2.29431004865181,2.29475448581698,2.29619827905152,2.37398323231046,2.37441591222609,2.34074217486377,2.37532959840841,2.37574123279103,2.37749309690992,2.37763566411176,2.37821571262192,2.37894607443426,2.37899133757858,2.37877316607053,2.3792959894584,2.35023481779189,2.37959353938333,2.37978131631074,2.38023058320712,2.3805785612107,2.38066384953999,2.38006378185901,2.38025707575826,2.38061500386521,2.38069485202667,2.35023481671061,2.38026379900326,2.38034912455183,2.3810356740293,2.3812660062652,2.38440612371185,2.38303641501305,2.38234435916892,2.2979595660835,2.30319151331454,2.30242247038832,2.30064721429793,2.29818684235882,2.29872699024236,2.29888820155992,2.29835007270114,2.29901018276984,2.29791806790435,2.29870813428407,2.2982715016256,2.29968001223233,2.29868513236252,2.29993905101646,2.29922890891127,2.29936097805898,2.29997482066849,2.30010001501331,2.30161702073415,2.3013090961998,2.30117966446766,2.30256857669262,2.30065156374586,2.30278613988418,2.30044376721138,2.30305780635201,2.30105405558555,2.30313627489169,2.30368891219991,2.3051528367224,2.304216675639,2.30705513998506,2.3052201340624,2.30761344253477,2.30533207620347,2.30714911626651,2.30705156521385,2.30966360543494,2.30992824741811,2.31233413899256,2.39608152804216,2.34665146146285,2.39321414579887,2.39249251643593,2.39312243592328
2.3522525540212,2.35324438888767,2.34955308782785,2.35365405471499,2.35250084620068,2.35313530350196,2.35262139628151,2.35215520950087,2.35283187174869,2.35340583870441,2.35265187321012,2.35337889882742,2.35023479902586,2.35251715756981,2.35182217616611,2.35214979117525,2.35175155475976,2.3516657594121,2.35186388735714,2.35197924179798,2.35194316949183,2.35340043506202,2.35023486046969,2.35347961151897,2.35203289050705,2.35197323731052,2.35191947109584,2.35187897732087,2.35231105355723,2.35372756307251,2.35442290889523,2.35585627490009,2.35023486046986,2.35519810359747,2.35526735275773,2.35491458765638,2.35468002309369,2.3548569553405,2.35513436087078,2.35569789030043,2.35616105728238,2.35667317018031,2.35023486046974,2.35503265918289,2.35442379878936,2.35390018519249,2.35301729106996,2.35226131889359,2.35168825509113,2.28449799389788,2.28429419526968,2.28406973187889,2.28336954716512,2.28339112555617,2.28233771410689,2.28314013719107,2.28152831052541,2.28289157302302,2.28129457801338,2.28254853402296,2.28152740349749,2.28259620040042,2.28246157174714,2.28312856898586,2.28233157189967,2.28304580430917,2.28183956133631,2.28343532476079,2.28222556407382,2.28401815785039,2.28281554264066,2.28403545177763,2.28339556463677,2.28435864311683,2.28364748591584,2.28551901814419,2.28409264897401,2.2854828301489,2.28477625037074,2.28628856815316,2.28572259274184,2.28643397438139,2.28645601400191,2.28627578139923,2.28762334168385,2.28642377753406,2.28822433112218,2.28731608746669,2.28896420825552,2.28846082674658,2.29006300134618,2.28980444619646,2.29047099110225,2.29040783609383,2.29172451280943,2.29206282359243,2.29359867649546,2.294123306908,2.29500577365745,2.30330171135604,2.33639796376105,2.3388506449082,2.34221796383337,2.35740819652458,2.35791066546026,2.35721097532377,2.35632673203118,2.35592887096556,2.35632673203118,2.35721097532377,2.35791066546026,2.35740819652458,2.35023486046986,2.35740819652458,2.35791066546026,2.35721097532377,2.35632673203118,2.35592887096556,2.35632673203118,2.35721097532377,2.35791066546026,2.35740819652458,2.35023485477875,2.35565152607091,2.35371195587216,2.35147270488038,2.34969041360228,2.34865406686745,2.30908371957801,2.30684006688797,2.29943578527332,2.301126173054,2.30083346651074,2.30002962983188,2.29854284177569,2.29882125616867,2.29777409474022,2.29851797735553,2.29776487856585,2.29858455086691,2.29781624102178,2.29877701753565,2.29907820586784,2.29915667739403,2.29923218132199,2.2988263592635,2.29934719343014,2.299162449347,2.30027140054623,2.30075094097833,2.30125302040527,2.30176200520723,2.30197132082381,2.30179323469257,2.30079729739995,2.30187522077381,2.30082280752981,2.30216322882917,2.30156297940361,2.30358825592202,2.30352222153323,2.30550925871513,2.30631204189557,2.30635798262925,2.30568119682053,2.30631382972254,2.30585239767597,2.30735370137171,2.30872735165947,2.31119644511855,2.3132334724508,2.33686884965508,2.34252968406163,2.35740819652458,2.35791066546026,2.35721097532377
2.34738738559835,2.34783190816046,2.34879443669574,2.34843123964499,2.34729465269911,2.34745039093154,2.34750719353539,2.34755760913839,2.3486768431511,2.35000610332958,2.3475420681673,2.34837811007816,2.35023480895923,2.34726665262307,2.34718563408116,2.34731845010892,2.3472896563112,2.34739895184664,2.34726768180341,2.34708021742271,2.34695387982465,2.34795418723017,2.35023481779188,2.34743603355947,2.34692000854276,2.34734480453877,2.34744938644662,2.34729587593079,2.34746217835684,2.34767516046228,2.34978812957437,2.35133294513213,2.35023481779189,2.35025862668881,2.34953177282294,2.34978112950561,2.35001514389292,2.35008251849585,2.35037896501921,2.3511743023219,2.35071453405355,2.35150198722545,2.35023481779062,2.34981262659277,2.34947398928944,2.34970891062443,2.35042864801898,2.34993680007079,2.34740094033703,2.28380422530511,2.28400778538124,2.2840322333898,2.28349556417984,2.28183098870286,2.28383650278041,2.28050045918272,2.28374233518598,2.28030729592267,2.28324955919296,2.28025581124983,2.28328468796191,2.28125905871233,2.28253258086976,2.28152743363717,2.28344462188179,2.28096068711057,2.28379070694143,2.28119119279559,2.28430239337875,2.28134699096104,2.28507393693977,2.28200109025398,2.28387039375848,2.28303034863294,2.28588708125804,2.28286015337935,2.28622483690148,2.28395884606004,2.28658669072898,2.28440895466133,2.28662218687629,2.28588259475062,2.28613886203506,2.28722184283396,2.28519454240654,2.28885605818567,2.28553133914,2.28879484805898,2.28753906972537,2.28983003506466,2.28811372544911,2.29006299844195,2.29007884015182,2.29108873250738,2.29117092571172,2.2921346214767,2.2943117222903,2.29545280135095,2.29579816420508,2.37316981850182,2.37357377741818,2.37599990112377,2.34599988869533,2.37613064969308,2.37532716153573,2.375541297338,2.37594705651753,2.37593773256127,2.37606739094864,2.37658260445509,2.37706163689731,2.37742808616866,2.35023481779189,2.3778164951827,2.37804516639283,2.37826179854381,2.37944446459777,2.37950337945065,2.3794491149776,2.37856407059751,2.38298615277694,2.38286628941406,2.35023478621815,2.37832541257514,2.37877492500511,2.38121550302052,2.3766196473691,2.38116945420066,2.29927538033319,2.29862837416307,2.29911349759628,2.29770379874658,2.29939349787122,2.29796315027536,2.29879493186677,2.29643497229352,2.29894553228553,2.29655757693339,2.29917777607255,2.29647220443783,2.29878875068585,2.2966573725461,2.29862260940278,2.29872583475674,2.29831004176944,2.29894683529635,2.29777696253151,2.30030477903944,2.29899021380841,2.30096423115652,2.30048472435385,2.30116135824456,2.30146884993863,2.29913901832624,2.30179641080504,2.29888438534828,2.30303915844699,2.29950755944502,2.30321821981557,2.30000744042221,2.30415235944361,2.30282218908901,2.3057406808066,2.30399330200626,2.30532634744824,2.30457668424215,2.30632600756941,2.30561683253942,2.30849218968756,2.30899160879346,2.31233386650766,2.39465368432057,2.34271570626789,2.3938252106128,2.38836367206327,2.38960279241748
2.34931368209121,2.35034154596437,2.34735208220215,2.35115884642499,2.35083354504329,2.35079926948102,2.35096713120806,2.35110592211996,2.35107577290606,2.35121567227853,2.35058342947009,2.35141857143797,2.35023485937377,2.35112665104425,2.35036303711385,2.35074611892117,2.35114661186849,2.35049867212552,2.35008576674027,2.3500861841055,2.34982325256206,2.35079218733547,2.35023486046986,2.35052507218694,2.34978626023635,2.35014138125886,2.35057509125768,2.35093927069898,2.35073944625097,2.3510292385177,2.35197467386452,2.35396831457926,2.35023486046986,2.35372275730358,2.35270861695301,2.35299668271686,2.35330178356777,2.35348324584535,2.3537422131806,2.35416441209815,2.35442714602353,2.35532677049248,2.35023486045954,2.35305569975299,2.35222145608018,2.35025941776852,2.34883145085631,2.34812011735632,2.29070469056268,2.28373238945787,2.28326186478552,2.28342456472216,2.28267475202406,2.28289337927155,2.28161430180172,2.2824740404388,2.28083206019834,2.2823806548445,2.28086133852993,2.28244572854692,2.2810024315298,2.28244216849093,2.2819309558658,2.28277925995977,2.28197441094935,2.28319327856352,2.28152235989935,2.28334677414584,2.28204571125829,2.28392672922692,2.28237298359573,2.28386050968466,2.28323989995251,2.28395953986574,2.28348965286766,2.28501175277232,2.28403114887821,2.2851093975877,2.28479902746559,2.28602627178232,2.28551414376263,2.28590761686103,2.28623782332193,2.28582608695302,2.28731330325056,2.28609300495306,2.28826265251422,2.28707642907308,2.28900971293674,2.28824349353252,2.28991598056185,2.28967863858654,2.29045489167047,2.29070537501387,2.29201781554196,2.29261213487808,2.29385044717858,2.29463188170857,2.30331843759265,2.34040128882778,2.34144746451365,2.34387188361249,2.34689692965693,2.35740819652458,2.35791066546026,2.35721097532377,2.35632673203118,2.35592887096556,2.35632673203118,2.35721097532377,2.35791066546026,2.35740819652458,2.35023486046986,2.35740819652458,2.35791066546026,2.35721097532377,2.35632673203118,2.35592887096556,2.35632673203118,2.35721097532377,2.35791066546026,2.35740819652458,2.35021325648549,2.35504619274232,2.35321569071949,2.35101903180619,2.34937947108547,2.34849312378024,2.29868136204059,2.29830759581107,2.29802621554071,2.29810386395984,2.29819212619249,2.29806785795197,2.29683126177325,2.29750763209585,2.29608966451796,2.29768435160948,2.2964629439016,2.29780742084434,2.29662014026232,2.29784282224242,2.29792707642855,2.29797732834936,2.29823120312423,2.29758723542793,2.29866811657095,2.29796716204959,2.29928335854675,2.29918918971707,2.30032869947282,2.30061763252362,2.30076682771729,2.30073040607559,2.2995988130785,2.30119875970768,2.2999985649696,2.30175558733074,2.30038696499175,2.30253909068793,2.30212067945448,2.30434643319561,2.30487031477079,2.30480770263131,2.3041690379394,2.30476818621686,2.30478164936416,2.30609161474142,2.30769502741278,2.3102866059634,2.31355507420639,2.32216536702138,2.33242581352232,2.35740819652458,2.35791066546026,2.35721097532377
2.34284913444354,2.34388069588213,2.34532560801127,2.34507804751639,2.34691173235904,2.34649665980321,2.34717067793354,2.34732375881248,2.34565194721739,2.3455013749566,2.34546271229591,2.34545265193313,2.35023481767142,2.34593889639713,2.34591936197103,2.34599978115718,2.34863565967451,2.3457682829069,2.34531592937292,2.34594060468168,2.34478705898469,2.34486955203223,2.35017055367516,2.34491727784694,2.34477031732589,2.34556021684206,2.34570445123609,2.34827034928412,2.34620635456221,2.34611447505101,2.34680166581372,2.34803533695919,2.35023481779189,2.34826685380384,2.34806887843768,2.34814933966251,2.34910698884375,2.34944473395239,2.3491122016574,2.34955143649438,2.34980508237279,2.3502982309599,2.3502348177278,2.3492992477091,2.34837501594668,2.34865875509999,2.34765059268679,2.34901955310016,2.28480383501743,2.28344896032893,2.28355057771279,2.28217881445827,2.28273076915704,2.28118886248771,2.28335758469615,2.27960772186169,2.2832280814148,2.27923782511554,2.28351737228975,2.2792199728262,2.2836817287495,2.2803069375629,2.28264157156178,2.28113522236428,2.28472269080397,2.28038892763331,2.28499118805103,2.28020085621856,2.28541699980674,2.28030311743011,2.28526747897559,2.28194744645365,2.28379256343986,2.28257923741042,2.28485395027645,2.28258905703201,2.28556185949292,2.28366180771419,2.28601199921126,2.28463129906472,2.28591828653416,2.28584610139067,2.28566236008033,2.28749248976591,2.28435395217011,2.28946879887285,2.28478418634097,2.29057376094065,2.28615694187901,2.29076522277077,2.28830766943126,2.29082420444003,2.29031503489461,2.2900206843099,2.2927906407839,2.29286382099813,2.2943802175878,2.29521825035321,2.37057521796835,2.36913751082426,2.37341546241326,2.37315597368244,2.3492613484309,2.37328452107415,2.37291201943335,2.37516888261886,2.3748808551069,2.37479054164278,2.37608350931532,2.37514933299384,2.37523625262862,2.37601658004669,2.35023481779189,2.37576476999298,2.37525696588288,2.37584022426842,2.37682003477556,2.37751276916981,2.37678550295716,2.37775063990908,2.37788615100054,2.37936604818652,2.34988856114001,2.37890911547864,2.37943495206534,2.37278309197825,2.37102590078931,2.37167552281789,2.29888953041875,2.29790870764519,2.29691104311467,2.2967810494376,2.29730477930844,2.29548000947393,2.29752892782737,2.29456935869893,2.29744347366461,2.29484031161324,2.29811107300066,2.2948866701635,2.29772176689886,2.29578232237572,2.2974265859035,2.29734584968073,2.296446713651,2.29834574554936,2.29660609837964,2.29909524238821,2.29675848294477,2.29912732037972,2.29903046245043,2.29957362682445,2.30021873423866,2.29831318710173,2.30088173116031,2.29824100761046,2.30287436644903,2.29878867292385,2.303102879698,2.2991349192031,2.30351407869902,2.30179697152155,2.3043613012987,2.30249083676332,2.30395862992016,2.30283591624798,2.30443188766945,2.30492153862834,2.30726086432033,2.30995448602527,2.31064028880047,2.31301463784597,2.33044931634705,2.38703709519807,2.38680513419519,2.38717051968883
2.3465851436634,2.34728583060428,2.34329614335704,2.34890170479544,2.34934622701538,2.34888871343885,2.3490631972727,2.34905564136699,2.34847164558733,2.34859549851346,2.3489046962022,2.34945081926567,2.35023486045757,2.34944619445272,2.34874755847278,2.34911126278848,2.34950786291364,2.34849244586591,2.34793212647894,2.34790687707818,2.34793947217904,2.34874037043592,2.35023486046986,2.34890248187653,2.34803537758286,2.34808700572662,2.34865739970449,2.34924652393918,2.34903892046888,2.34925603342579,2.34986083659706,2.35136731395283,2.35023486046986,2.35180769954368,2.35116191932279,2.35152558313891,2.35202192259385,2.35230367832974,2.35247678957276,2.35328225634566,2.35360950126901,2.35442656848918,2.35023486015763,2.35199878882539,2.35113795688927,2.34980375134942,2.34869978992616,2.34797960612394,2.28390615840614,2.28351128893344,2.28253961533935,2.28245171507768,2.28181316380397,2.28225618101052,2.28084237687048,2.28196596547895,2.28014708326204,2.28230520783929,2.28049131254992,2.28245815978344,2.28062090279662,2.2824621659394,2.28154060837028,2.28291043815205,2.28167247333184,2.28354512511734,2.28160059741478,2.28383992483781,2.28171170548318,2.28409123640805,2.28199773658561,2.28382775478014,2.28299931449631,2.28377606982952,2.28304692665352,2.28437731287215,2.28345481742202,2.2848688156094,2.28458438600123,2.28569621197152,2.2852697937334,2.28583463189939,2.28614828177523,2.28553259862645,2.28734289489449,2.28606068066098,2.28837916845488,2.28692998573664,2.28943529696785,2.28819575777617,2.29023117611027,2.2898733246471,2.29080706649338,2.2910866425477,2.29232638932318,2.29293607449273,2.2944371555988,2.30195596048587,2.34457939021175,2.34581754640005,2.34775802449721,2.34926465174474,2.35008676740615,2.35740819652458,2.35791066546026,2.35721097532377,2.35632673203118,2.35592887096556,2.35632673203118,2.35721097532377,2.35791066546026,2.35740819652458,2.35023486046986,2.35740819652458,2.35791066546026,2.35721097532377,2.35632673203118,2.35592887096556,2.35632673203118,2.35721097532377,2.35791066546026,2.35740819652458,2.34840332143446,2.34503259212095,2.34242018620734,2.34112470903613,2.30760209078249,2.30395119874891,2.29785315151268,2.29728668234228,2.29692699407064,2.29670379480292,2.29674792814838,2.29668328049585,2.29558704412661,2.29645291091036,2.29531522768098,2.29659159249977,2.29542736171664,2.29654529730932,2.29547047497128,2.29664838360961,2.29673603358941,2.29673118426455,2.29696660484291,2.29658660051852,2.29775339508213,2.29688127991964,2.2979833244497,2.29778792374629,2.29880916281306,2.29907507167085,2.2994666917147,2.29962901497572,2.29898935777226,2.30029761847412,2.29935530953312,2.30109476556177,2.29993374180786,2.3017839540535,2.30174219501712,2.30350084442199,2.30393336599992,2.30354140974448,2.30316677920051,2.30381096835221,2.30501666576576,2.30583442137544,2.30719228897151,2.30920056833181,2.31229534187896,2.31686753417132,2.32747687997108,2.35740819652458,2.35791066546026,2.35721097532377
2.34175506308925,2.34222468605853,2.34203620738008,2.34411369183788,2.34426026811949,2.34319638837945,2.34354983216681,2.3439834174205,2.34336234061362,2.34423289036789,2.34480895477918,2.34466490640437,2.34993608969871,2.34421935932659,2.3435870274439,2.34412727945989,2.34415036958407,2.34320090134238,2.34287211885599,2.34258910997929,2.34304240611135,2.34406382534559,2.34979917622585,2.34422846062399,2.34320051107317,2.34301984044435,2.34356434019287,2.34388718907108,2.34394347332038,2.34454680983476,2.34553924495354,2.34602241126887,2.35023481779189,2.34637434600898,2.3466501889208,2.34712953983902,2.34752396869074,2.34815496307253,2.34770559021053,2.34989212013825,2.34940360129839,2.34964395648511,2.35023481657916,2.34693082367405,2.34626382523705,2.34532352457144,2.34484158290438,2.34519856851619,2.28399227387294,2.28289176435272,2.28279546390098,2.28115675127711,2.28195647656129,2.28015773519476,2.28280945721133,2.27878440198408,2.28339422188425,2.27882346567573,2.28380223346946,2.27879467456351,2.28427559681745,2.2797283875261,2.28244035509295,2.27991610359888,2.28482710403725,2.28030552973381,2.28530071761657,2.28002925646755,2.28605568405938,2.27979527869003,2.28544060314891,2.28131130308349,2.2836933373824,2.28229093477981,2.28475184542036,2.28204727335708,2.2854271766067,2.28282408563194,2.2856001692518,2.28448615869048,2.2859744971033,2.28565650317976,2.28578873713662,2.28760393138316,2.28439342302743,2.28870931375662,2.2854319312836,2.29042530890806,2.28592811306467,2.29127496408191,2.28790756681148,2.29101123832243,2.29077052258447,2.29135543850444,2.29243325479018,2.29328930750451,2.29582006204945,2.36702151794958,2.36776583936305,2.36895304061458,2.37002587462371,2.37107608453805,2.35022405344734,2.37172536729807,2.37259228908836,2.37296142459905,2.37350877218616,2.37315231341153,2.37255586539131,2.37155472130512,2.3757750272251,2.37425004136766,2.35023481779189,2.37421212783133,2.37452313260176,2.37494697735262,2.37475029379729,2.3744552825044,2.37404909165427,2.37377645680933,2.37367099285918,2.37314718677232,2.34880443923037,2.37039344703893,2.37083643557691,2.37746972137028,2.29742566019279,2.29723715518452,2.29663710147322,2.29727512363102,2.29532623812782,2.29648784418318,2.296413922771,2.29531956174656,2.29638192074741,2.2942869594694,2.29763877785294,2.29405328214941,2.29727386774711,2.29386253469122,2.29633198112333,2.29467705098158,2.29631928465795,2.2964253579678,2.29545740985335,2.29715134915143,2.29624985434172,2.29795423370603,2.29637347164143,2.29812415721921,2.29742148519455,2.29810226817085,2.29889743975995,2.29762141921412,2.30030698473244,2.29791538153796,2.30066100568118,2.29924160294272,2.30135457673872,2.2997756033841,2.30163728134574,2.30318299740635,2.30354086175278,2.30171709336149,2.30272574167904,2.30278761841355,2.30736939047252,2.30640542284071,2.30655167302986,2.30784434469791,2.30914432904468,2.31243095910946,2.32976710428167,2.387089558273,2.38618831140729,2.38533547989116
