0.173622004184261,2.29433188954014,2.29159582810142,2.29530388664326,2.29258615764429,0.173622004184261,2.29327848272318,2.29636088651657,2.29213968713298,2.2955953094965,0.173622004184261,2.2949838470012,2.29778701160282,2.29417081884622,2.29682079433661,0.173622004184261,2.29541056059181,2.29787930453425,2.2956585315629,2.29760940262134,0.173622004184261,2.29741561984937,2.30019206217389,2.2976801624149,2.30016760867179,0.173622004184261,2.29884842212849,2.30064191277295,2.29829643835288,2.30132923262865,0.173622004184261,2.30182996579049,2.29865951011513,2.30325302742726,2.30109893717685,0.173622004184261,2.30137147725647,2.30427011892783,2.3003537065419,2.30400787359014,0.173622004184261,2.30438540932208,2.30118729651988,2.30655255262905,2.30338783511442,0.173622004184261,2.30477482008782,2.30679611877638,2.30356946824516,2.30688034627247,0.173622004184261,2.30664013797375,2.30601014026369,2.30578617865415,2.30604510978706,0.173622004184261,2.30679493381915,2.3095189696548,2.30719580164035,2.30899307133302,0.173622004184261,2.30926406225296,2.31008870002069,2.30944872352111,2.31108033269379,0.173622004184261,2.31302286775012,2.30971196915276,2.31351024775297,2.31144603801865,0.173622004184261,2.31278587153285,2.31487193295044,2.31258533357861,2.31389769578725,0.173622004184261,2.31473479827027,2.31507734631449,2.31540885116519,2.31512781679361,0.173622004184261,2.3160438639718,2.31834777022011,2.3167247395852,2.31873756368085,0.173622004184261,2.31835538537194,2.31969055840216,2.31914306860016,2.32048700678376,0.173622004184261,2.32187583704875,2.32149160587712,2.32047335556172,2.32298599691324,0.173622004184261,2.32391207672469,2.32413303598614,2.32437742958442,2.32586734795377,0.173622004184261,2.32451533384982,2.32521251381955,2.32485555307229,2.32466571920889,0.173622004184261,2.3275566534172,2.32694558329824,2.32711228832326,2.32798371601331,0.173622004184261,2.32790125107971,2.32946657622246,2.32765760740784,2.32964720665533,0.173622004184261,2.33472928544165,2.32904535594838,2.33112612004568,2.33046109475578,0.173622004184261,2.33813815409111,2.33258235581467,2.33350752195605,2.33331167286484,0.173622004184261,2.33294565004456,2.33318680966384,2.33393673420443,2.33417708097003,0.173622004184261,2.33569594752284,2.33561591658784,2.33616543032066,2.3380549458349,0.173622004184261,2.33806441490781,2.33725194195739,2.33861906750221,2.33831957743303,0.173622004184261,2.33891816287061,2.34332116006334,2.34292080558907,2.3447193651193,0.173622004184261,2.34121637897649,2.34292030502907,2.34254054609665,2.34200280625138,0.173622004184261,2.34441454147639,2.34333033695651,2.34491543969307,2.34530356980805,0.173622004184261,2.3453192465025,2.34604510800966,2.34644962060622,2.34826262254022,0.173622004184261,2.35064860885842,2.35347018104932,2.35451985547719,2.35453599516124,0.173622004184261,2.35316215715908,2.36126026933031,2.3621071340555,2.36750913495376,0.173622004184262,2.3632812297855,2.36740323815839,2.36793165950447
0.173874047254928,2.29233149975944,2.29501395540732,2.29146915517857,2.29460410304943,0.173874047254928,2.295185668944,2.29166070623431,2.29679918543256,2.29313815573979,0.173874047254928,2.29584568509674,2.29311230674556,2.29761444221627,2.29532322672627,0.173874047254928,2.29661326408705,2.29442960762567,2.29819936986688,2.29621225257074,0.173874047254928,2.29814727845526,2.29676481073481,2.29864431962274,2.29807475307667,0.173874047254928,2.29966772050212,2.29827660590321,2.3002031882891,2.29984059930099,0.173874047254928,2.2998821553827,2.30286144269851,2.29854271579798,2.30137859241146,0.173874047254928,2.30265363704397,2.3003939185438,2.30384393833175,2.30123895706637,0.173874047254928,2.30204536072848,2.30584497696788,2.30159496790851,2.30490081381791,0.173874047254928,2.30545401996249,2.30444104584904,2.30684089073551,2.30519885045468,0.173874047254928,2.30529023149062,2.30550899739243,2.30576116846988,2.30554951146116,0.173874047254928,2.30790567867488,2.30617419817499,2.30957125438779,2.30769507568359,0.173874047254928,2.31007954124774,2.30900658048252,2.30993144905801,2.30983226928731,0.173874047254928,2.31054413469272,2.3126940335492,2.3106029984381,2.31268108216775,0.173874047254928,2.31360147462651,2.31249583985109,2.31410961377265,2.31328475218725,0.173874047254928,2.31468164643949,2.31522479882076,2.3151796483637,2.31591222431818,0.173874047254928,2.31620258295979,2.31582932483917,2.31833649115933,2.31710009187542,0.173874047254928,2.31800546492042,2.31787715395826,2.31954329182166,2.31916126094836,0.173874047254928,2.32014987076111,2.31987226641197,2.32218819117386,2.32100736467506,0.173874047254928,2.32266099104409,2.3228950621808,2.32208138881631,2.32364056338904,0.173874047254928,2.32337994883172,2.32324305627117,2.32288399109542,2.32498146412317,0.173874047254928,2.32604951688367,2.32610924868709,2.3273548128308,2.32894770011711,0.173874047254928,2.32851869053907,2.32824107599784,2.32916113429424,2.3283480571185,0.173874047254928,2.32917769520886,2.33014118023192,2.32929015406697,2.33163659919103,0.173874047254928,2.33008353910388,2.33169681134798,2.3315407534471,2.33232518672846,0.173874047254928,2.33268141648039,2.3331164972581,2.33341579899152,2.33366503564526,0.173874047254928,2.33587598740074,2.33632812224306,2.33665967220502,2.33634501123739,0.173874047254928,2.33662773505083,2.33787069404788,2.3364742152354,2.33864352504754,0.173874047254928,2.33782201458052,2.33746050727124,2.33881355574361,2.34553309439768,0.173874047254928,2.34031951132619,2.34242629673592,2.342644648048,2.34204815062564,0.173874047254928,2.34307840338245,2.34265434340237,2.34424189765823,2.3464523519004,0.173874047254928,2.34541802145335,2.34554814227734,2.3464539471385,2.34696873051253,0.173874047254928,2.34760835582724,2.3480082076093,2.35144029012607,2.35293085496704,0.173874047254928,2.3553151420462,2.36354931820219,2.35666748689128,2.35877005163828,0.173874047254928,2.3700154227025,2.36729597189306,2.42194095338038
0.174300146434842,2.29308734596165,2.29115962249561,2.29380875151398,2.29402429892275,0.174300146434842,2.29248641054235,2.29599275025061,2.29158431485594,2.29518507061481,0.174300146434842,2.294090083274,2.29642284690647,2.29339502316815,2.29648056616855,0.174300146434842,2.29546339573662,2.29780149802958,2.29504203311506,2.29743656488279,0.174300146434842,2.29719854201353,2.29853472990616,2.29757018890164,2.29841980827393,0.174300146434842,2.2979284421291,2.29938303280527,2.29794440212752,2.29851091263983,0.174300146434842,2.30095993755965,2.2985963377739,2.30228819795585,2.29944444572674,0.174300146434842,2.302182015519,2.30255169974701,2.30017928195479,2.30278650185762,0.174300146434842,2.30337283864523,2.302260283499,2.30516494467244,2.30412418771948,0.174300146434842,2.30489605513401,2.30534470616345,2.30462923245786,2.30607527340551,0.174300146434842,2.30512467853003,2.30525576458734,2.30541571486468,2.3058257558814,0.174300146434842,2.3064585665647,2.30784035738278,2.3077063690342,2.30831526895906,0.174300146434842,2.30815599288797,2.30868873247156,2.30960678424005,2.31005421664199,0.174300146434842,2.3119279744416,2.31001982432381,2.31281729269362,2.3111222146436,0.174300146434842,2.31285957882174,2.31370664503655,2.3131210909261,2.31404771973367,0.174300146434842,2.31432949878472,2.31465331493949,2.31485490187982,2.31584028726794,0.174300146434842,2.31543988828693,2.31691225784337,2.31644028665474,2.31770963818325,0.174300146434842,2.31767421780721,2.3186655973496,2.31821129169705,2.3196575002756,0.174300146434842,2.31942850810431,2.32142551873396,2.32070956824023,2.32208978583251,0.174300146434842,2.32171773503629,2.32165996882331,2.32186899108988,2.32310456554378,0.174300146434842,2.32310491375182,2.323760029517,2.32306583624786,2.32472339828725,0.174300146434842,2.32568147284475,2.32557736283694,2.32495450182603,2.32827261157472,0.174300146434842,2.32757927148733,2.32795612204656,2.32691366972055,2.32855374544562,0.174300146434842,2.33000062252716,2.32836319153431,2.33052409231924,2.33014396880352,0.174300146434842,2.33081425000151,2.33041644809145,2.33153748604709,2.33183183235197,0.174300146434842,2.33436731962733,2.33272318204552,2.33331965373039,2.33376298016313,0.174300146434842,2.33422464839356,2.33435939941618,2.33471798240706,2.33693873452031,0.174300146434842,2.33756391001421,2.33524069407319,2.33849280453868,2.33723220600163,0.174300146434842,2.33877569395449,2.33910187943809,2.33872271121998,2.33894398491644,0.174300146434842,2.34001635429182,2.3425925419795,2.34008899703737,2.34040211663626,0.174300146434842,2.3438316659617,2.34170897424628,2.34490318908537,2.34352630597982,0.174300146434842,2.34464734811015,2.34558777167761,2.34520931948267,2.34810925895236,0.174300146434842,2.34721155226876,2.34740425658754,2.34956398810874,2.35320470974778,0.174300146434842,2.3524593659475,2.35246811663164,2.35548390211536,2.35627006223656,0.174300146434842,2.36043889787134,2.36694880938678,2.36742977005065
0.174863673843024,2.2911110539586,2.29276894411576,2.29205305604195,2.29686375218866,0.174863673843024,2.29382849644783,2.29244249109259,2.29437462451076,2.2933236465016,0.174863673843024,2.29446049233113,2.29394696147809,2.29590480698506,2.29482791465843,0.174863673843024,2.29571754036973,2.29634182496756,2.29744909444432,2.29599816514579,0.174863673843024,2.29743701265066,2.29674936573607,2.29730121675852,2.29758531241436,0.174863673843024,2.30067958480564,2.29851479194437,2.29862488634569,2.29790933370381,0.174863673843024,2.29911403543288,2.30042183047584,2.29949213355994,2.30030428885162,0.174863673843024,2.30121023474093,2.30086977581905,2.3024219713391,2.30139746327767,0.174863673843024,2.30222964066492,2.30284073076802,2.30262772268573,2.30291179944202,0.174863673843024,2.30451474662768,2.30417645205459,2.30492406418655,2.30503412078089,0.174863673843024,2.30556616698445,2.30531254414158,2.30543776570537,2.30566625020647,0.174863673843024,2.30778241451512,2.30699078965905,2.30734842781102,2.30727884834553,0.174863673843024,2.30806102489918,2.30837610967027,2.31038077845913,2.31050037649428,0.174863673843024,2.30967214738259,2.31084326033723,2.31002244812586,2.31109168714755,0.174863673843024,2.31139058910256,2.31169491017546,2.31208143871008,2.31303643198524,0.174863673843024,2.31294810013725,2.31325036429306,2.3139413508908,2.31561126903108,0.174863673843024,2.31799928254272,2.31771336296732,2.31735494571393,2.31672910784798,0.174863673843024,2.31632947023591,2.31838022432452,2.31951856505182,2.31921801681268,0.174863673843024,2.32007439443896,2.3190270551441,2.3209785897943,2.32077257412154,0.174863673843024,2.32143047310997,2.32151463933697,2.32152874781162,2.32225084114699,0.174863673843024,2.32228275207482,2.32341846275722,2.32357673936933,2.32564732540226,0.174863673843024,2.32568543482464,2.32580017686708,2.32549589340678,2.32512624252721,0.174863673843024,2.32862198731539,2.32846924495161,2.32840149935543,2.3280630502877,0.174863673843024,2.3281379444411,2.32861575700302,2.32994109632253,2.32994641557676,0.174863673843024,2.33031106633355,2.33104055709919,2.33144780472933,2.33205958327596,0.174863673843024,2.33336353298795,2.33768811577958,2.33336283491925,2.33352624599962,0.174863673843024,2.33389914521871,2.33497288408271,2.33524374907572,2.33728189864971,0.174863673843024,2.33652843564839,2.33796446302098,2.33634487979571,2.33752697168153,0.174863673843024,2.33614821321205,2.33900444019414,2.33933666855481,2.34129316788082,0.174863673843024,2.34055776664588,2.34059507903156,2.34080247523903,2.34036234658562,0.174863673843024,2.34119791925675,2.34154037275753,2.34238489970497,2.34250139083138,0.174863673843024,2.34323994737393,2.34513669577781,2.34394502972972,2.34572199957946,0.174863673843024,2.34638487803533,2.34800150208358,2.34968975763347,2.34904395231649,0.174863673843024,2.35576084591627,2.35243656263121,2.35551017852846,2.3551907008025,0.174863673843024,2.35668877214526,2.36362276855333,2.36070514145355
0.175468000929675,0.17602311869232,0.176342623753036,0.176342623753036,0.17602311869232,0.175468000929675,0.17602311869232,0.176342623753036,0.176342623753036,0.17602311869232,0.175468000929675,0.17602311869232,0.176342623753036,0.176342623753036,0.17602311869232,0.175468000929675,0.17602311869232,0.176342623753036,0.176342623753036,0.17602311869232,0.175468000929675,0.17602311869232,0.176342623753036,0.176342623753036,0.17602311869232,0.175468000929675,0.17602311869232,0.176342623753036,0.176342623753036,0.17602311869232,0.175468000929675,0.17602311869232,0.176342623753036,0.176342623753036,0.17602311869232,0.175468000929675,0.17602311869232,0.176342623753036,0.176342623753036,0.17602311869232,0.175468000929675,0.17602311869232,0.176342623753036,0.176342623753036,0.17602311869232,0.175468000929675,0.17602311869232,0.176342623753036,0.176342623753036,0.17602311869232,0.175468000929675,0.17602311869232,0.176342623753036,0.176342623753036,0.17602311869232,0.175468000929675,0.17602311869232,0.176342623753036,0.176342623753036,0.17602311869232,0.175468000929675,0.17602311869232,0.176342623753036,0.176342623753036,0.17602311869232,0.175468000929675,0.17602311869232,0.176342623753036,0.176342623753036,0.17602311869232,0.175468000929675,0.17602311869232,0.176342623753036,0.176342623753036,0.17602311869232,0.175468000929675,0.17602311869232,0.176342623753036,0.176342623753036,0.17602311869232,0.175468000929675,0.17602311869232,0.176342623753036,0.176342623753036,0.17602311869232,0.175468000929675,0.17602311869232,0.176342623753036,0.176342623753036,0.17602311869232,0.175468000929675,0.17602311869232,0.176342623753036,0.176342623753036,0.17602311869232,0.175468000929675,0.17602311869232,0.176342623753036,0.176342623753036,0.17602311869232,0.175468000929675,0.17602311869232,0.176342623753036,0.176342623753036,0.17602311869232,0.175468000929675,0.17602311869232,0.176342623753036,0.176342623753036,0.17602311869232,0.175468000929675,0.17602311869232,0.176342623753036,0.176342623753036,0.17602311869232,0.175468000929675,0.17602311869232,0.176342623753036,0.176342623753036,0.17602311869232,0.175468000929675,0.17602311869232,0.176342623753036,0.176342623753036,0.17602311869232,0.175468000929675,0.17602311869232,0.176342623753036,0.176342623753036,0.17602311869232,0.175468000929675,0.17602311869232,0.176342623753036,0.176342623753036,0.17602311869232,0.175468000929675,0.17602311869232,0.176342623753036,0.176342623753036,0.17602311869232,0.175468000929675,0.17602311869232,0.176342623753036,0.176342623753036,0.17602311869232,0.175468000929675,0.17602311869232,0.176342623753036,0.176342623753036,0.17602311869232,0.175468000929675,0.17602311869232,0.176342623753036,0.176342623753036,0.17602311869232,0.175468000929675,0.17602311869232,0.176342623753036,0.176342623753036,0.17602311869232,0.175468000929675,0.17602311869232,0.176342623753036,0.176342623753036,0.17602311869232,0.175468000929675,0.17602311869232,0.176342623753036,0.176342623753036,0.17602311869232,0.175468000929675,0.17602311869232,0.176342623753036,0.176342623753036
0.174863673843024,2.29277601577347,2.29145912411621,2.29368229869519,2.29233786195073,0.174863673843024,2.29287293060972,2.29430063352221,2.29230463876927,2.29399587622273,0.174863673843024,2.29424852492664,2.2935915157319,2.29474814651503,2.29405721452048,0.174863673843024,2.2942320875054,2.29592601600463,2.29497925184142,2.29571567430333,0.174863673843024,2.29599741954006,2.29724800992592,2.29621958229319,2.29785121199862,0.174863673843024,2.29680128996033,2.29856383286401,2.29651589987937,2.2990478715992,0.174863673843024,2.29774107567841,2.29816658340643,2.29992555530559,2.29957566313619,0.174863673843024,2.2997025227112,2.30102952981271,2.29990776986818,2.3014335152348,0.174863673843024,2.30171762814867,2.30265844077082,2.30286635131004,2.30214515587958,0.174863673843024,2.30289435675406,2.3032945165217,2.30340774244674,2.30463671121566,0.174863673843024,2.30491470281356,2.30406003769149,2.30621999576072,2.30554501642541,0.174863673843024,2.3067522906143,2.30677027394756,2.30646300951427,2.30757554537757,0.174863673843024,2.30814999504431,2.30850085600919,2.30769640902163,2.30862151186421,0.174863673843024,2.30958511697169,2.30957662329227,2.3112066413446,2.31018444075811,0.174863673843024,2.31181446393846,2.31195149630765,2.31261159525986,2.31205342104437,0.174863673843024,2.31357265332547,2.31265144600854,2.3138384212207,2.31385808599543,0.174863673843024,2.31596059334682,2.31490310246297,2.31611456929033,2.31636859238653,0.174863673843024,2.31699712885287,2.31773864840632,2.31632005954291,2.31814540840025,0.174863673843024,2.31847612287765,2.31875959209692,2.32180642634672,2.31986101644401,0.174863673843024,2.31925375721759,2.32066092916048,2.32144544135111,2.32502744835746,0.174863673843024,2.3225244279505,2.3231792541194,2.32394725621873,2.32420708612843,0.174863673843024,2.32493684233859,2.32486868764081,2.32651582074877,2.32650000768457,0.174863673843024,2.32610696597492,2.32672209520659,2.32822650256909,2.32893636769492,0.174863673843024,2.32872904507745,2.32870896700118,2.33082902001751,2.33081334184208,0.174863673843024,2.33188202621608,2.33171185679471,2.33197753644252,2.33041784577871,0.174863673843024,2.33194882713745,2.33211144881759,2.33280547682888,2.33260944633255,0.174863673843024,2.33291632244487,2.3377869360469,2.3354258298582,2.33472621913829,0.174863673843024,2.33596889735014,2.33575221359908,2.33625926615913,2.33634089958022,0.174863673843024,2.33650804789943,2.33935903353161,2.33772841962836,2.33828277464071,0.174863673843024,2.34201492813916,2.34280162108005,2.33884984523221,2.34182469822198,0.174863673843024,2.33977444730809,2.34139503142429,2.34399272025373,2.34307419785003,0.174863673843024,2.34283351884091,2.34511575910953,2.34409544841076,2.34824837205496,0.174863673843024,2.34711459213792,2.34761041868287,2.3458307965208,2.3479761581642,0.174863673843024,2.350214825092,2.35250186837018,2.35233066433888,2.35878884250766,0.174863673843024,2.356697010261,2.35605378859911,2.35877379333324
0.174300146434842,2.29086152699626,2.2948400517401,2.28959369181292,2.29339295088637,0.174300146434842,2.29430634709768,2.29086827508777,2.29429941038362,2.29237169988338,0.174300146434842,2.29307035611429,2.29467041276983,2.29389671385832,2.29449814324271,0.174300146434842,2.29533666831534,2.29384826570241,2.29535706276998,2.29468854803307,0.174300146434842,2.2963456090175,2.29453501690074,2.29807849277909,2.29565546871966,0.174300146434842,2.29833620384206,2.29505591910134,2.2998946171232,2.29668877383488,0.174300146434842,2.2972699377533,2.30012052553104,2.29668851751772,2.30046268618754,0.174300146434842,2.3010876217362,2.2987445303803,2.30164841635314,2.29978374641787,0.174300146434842,2.30115857560523,2.30298007127158,2.3005785811303,2.30267264460028,0.174300146434842,2.30265050422708,2.30292314114005,2.30356639899939,2.30352273203045,0.174300146434842,2.30370721238506,2.30571580711957,2.30283485131956,2.30615569385502,0.174300146434842,2.30676559171022,2.30526919997247,2.30871139694888,2.30688377121065,0.174300146434842,2.30883797877929,2.30639934394066,2.30921756378876,2.30854851395689,0.174300146434842,2.30880060241329,2.31122973265859,2.30769918297304,2.31156752457053,0.174300146434842,2.31032732977646,2.31215857822979,2.31094411292531,2.31238292091044,0.174300146434842,2.31350232292224,2.31396550151276,2.31315347143735,2.31419970180185,0.174300146434842,2.31432135943192,2.31625567042776,2.3145126531238,2.31583366551108,0.174300146434842,2.3174453127761,2.31558052486433,2.31910238713133,2.31657828069007,0.174300146434842,2.31806626880113,2.31914862551031,2.3181414247248,2.31961388722252,0.174300146434842,2.31991044953559,2.32150658359724,2.32085444776104,2.32140732219097,0.174300146434842,2.32457638360145,2.32343977151871,2.3234861726526,2.32596524770739,0.174300146434842,2.32532452320695,2.32533001856792,2.32711097242945,2.32664304566546,0.174300146434842,2.32724509100551,2.3292171888456,2.32913465447417,2.32877900508999,0.174300146434842,2.33058647805619,2.33106770041256,2.33469640396665,2.33016909479011,0.174300146434842,2.33296829818193,2.33340151293298,2.33323944672573,2.33337521603638,0.174300146434842,2.33353934205701,2.33231697957351,2.33216170830945,2.33318079548664,0.174300146434842,2.33330946673463,2.33496896597987,2.33854798530478,2.33236497553781,0.174300146434842,2.33548530326669,2.33506149182624,2.33718902825689,2.33610025415505,0.174300146434842,2.33618755892284,2.33659309644907,2.336045672401,2.33699363085751,0.174300146434842,2.33703962180764,2.33872577206995,2.33909229700953,2.33949308083776,0.174300146434842,2.3391220916178,2.33948828443674,2.34112868067019,2.34206330764785,0.174300146434842,2.34253806343103,2.34177538147057,2.34493347810274,2.34487944767852,0.174300146434842,2.34856146048434,2.34510796163172,2.34542976607417,2.34754367581862,0.174300146434842,2.35001237482227,2.34984923323681,2.35184683494441,2.35436860657699,0.174300146434842,2.35573509385474,2.35550859650131,2.35899380066696
0.173874047254928,2.29298693363063,2.28926752128828,2.29438632487943,2.29122571833897,0.173874047254928,2.29201754536806,2.29410899208257,2.29331955367928,2.29366772672506,0.173874047254928,2.29358908500567,2.29300389331835,2.29496413474112,2.29457815046518,0.173874047254928,2.29328641237771,2.2964435761375,2.29316564473331,2.2955861596434,0.173874047254928,2.29510352601824,2.29670057642591,2.29390915545224,2.29748310335321,0.173874047254928,2.29650191431893,2.29942288728172,2.29440406518047,2.29895062220242,0.173874047254928,2.29893979511824,2.29717601154188,2.30147537060564,2.29775040432954,0.173874047254928,2.298907886221,2.30142595289424,2.29813815596974,2.30138635292127,0.173874047254928,2.30082011808698,2.29987631625337,2.30322973387831,2.30081744515337,0.173874047254928,2.30202107085146,2.30411406560414,2.30296667575545,2.30322643531619,0.173874047254928,2.30415701412465,2.30231283408856,2.30605921829875,2.3034071684226,0.173874047254928,2.30482793430667,2.30737482529139,2.3041930848322,2.3069841845949,0.173874047254928,2.30632715265497,2.30903599930629,2.30560326011096,2.30868662718135,0.173874047254928,2.30988885339039,2.30760772172475,2.31134439859781,2.30875963225948,0.173874047254928,2.31110741722335,2.31018218087884,2.31250557512821,2.31207331748908,0.173874047254928,2.31326308206785,2.31255451919925,2.31458455491592,2.31322653520842,0.173874047254928,2.31483852704106,2.3146790198337,2.31661129557249,2.31733275064671,0.173874047254928,2.31620223076957,2.31740490881273,2.31524432667654,2.31832078108574,0.173874047254928,2.31808386845202,2.31740935357256,2.31969852732806,2.31871238345528,0.173874047254928,2.32173159971916,2.32144181040702,2.32186164176398,2.32113378308914,0.173874047254928,2.32292381951835,2.32412445289549,2.32382343110805,2.32540048732821,0.173874047254928,2.32621655377984,2.32675316398047,2.32829827403822,2.32850933432592,0.173874047254928,2.32863264793003,2.33091622061762,2.33106955940864,2.33405789799718,0.173874047254928,2.33101970301243,2.33372037563755,2.33415827989167,2.33267672692243,0.173874047254928,2.33355303499457,2.33331520787207,2.33385936792672,2.33389437486224,0.173874047254928,2.33516071797923,2.33445155949315,2.33455724396353,2.33573734821173,0.173874047254928,2.33568326468837,2.33543736729994,2.33519215831851,2.33502269287943,0.173874047254928,2.33548511256328,2.33774056693149,2.33541447508866,2.33568515015251,0.173874047254928,2.33595625647273,2.33479293456453,2.33697422403373,2.33603557646618,0.173874047254928,2.33653496057412,2.3385809848493,2.33925689019583,2.33998805916217,0.173874047254928,2.33979264862874,2.34048194472663,2.34181524640954,2.34364277777808,0.173874047254928,2.34220359064753,2.34604058125217,2.34505154258891,2.34582660620174,0.173874047254928,2.34371402821622,2.34466140445634,2.34563609767292,2.34543291345127,0.173874047254928,2.3472290774058,2.34985489754855,2.3530160635819,2.35221719796088,0.173874047254928,2.3569375118327,2.35646051915184,2.36110995214326
0.173622004184261,2.29084047084105,2.2934355913421,2.29185146486421,2.2930209798813,0.173622004184261,2.29439793961253,2.29019048385582,2.29507899778232,2.29186214609877,0.173622004184261,2.29265572192368,2.29404576949635,2.29354444703226,2.29492577545225,0.173622004184261,2.29509796409022,2.29167101185492,2.29656141475951,2.29360767181682,0.173622004184261,2.29625274883872,2.29421886579788,2.29759979394544,2.29459457606908,0.173622004184261,2.29797764892736,2.29425804031384,2.29989568047669,2.29578792051659,0.173622004184261,2.29822150880843,2.30020117706133,2.29623103899372,2.30004544427732,0.173622004184261,2.30043902444626,2.29851786430158,2.3002774898012,2.29888227203289,0.173622004184261,2.29935580236936,2.30209335104314,2.29957756837585,2.3027424420581,0.173622004184261,2.30229033463399,2.30238237562281,2.30248959335037,2.30272949719647,0.173622004184261,2.30282085072951,2.30413347458565,2.30172022414602,2.30487178692784,0.173622004184261,2.30577464382823,2.303897097532,2.30734521685388,2.30453942900235,0.173622004184261,2.30776554124044,2.30466180637681,2.30817769786157,2.30974491404552,0.173622004184261,2.3075877409184,2.31086712124398,2.30690775804102,2.31052000370478,0.173622004184261,2.30980432316625,2.31128769322836,2.31090329229554,2.31389222461249,0.173622004184261,2.31228689747154,2.31336066376881,2.31163237796492,2.31346098517886,0.173622004184261,2.31348828166158,2.31520810543094,2.31336078362645,2.31496349261635,0.173622004184261,2.31519016976003,2.31523707880937,2.31776896086831,2.31688610055456,0.173622004184262,2.31793370372878,2.31921519605875,2.31849314493274,2.32005724632304,0.173622004184261,2.31973464245793,2.32165200675629,2.32330685331662,2.32302833390023,0.173622004184261,2.3246067803355,2.32480920058093,2.32663954886346,2.32747736069663,0.173622004184261,2.32948088520241,2.32993573531928,2.32931443604921,2.33152635496046,0.173622004184261,2.3330979845688,2.33573451117187,2.33688167047795,2.42703119750149,0.173622004184261,2.42825066881548,2.43172861273506,2.33682477536872,2.33641142821858,0.173622004184261,2.33552574669626,2.33603656658777,2.33662126448624,2.33757876574682,0.173622004184261,2.3380935664217,2.33603851705728,2.33613549902432,2.33575733150346,0.173622004184261,2.33335204647767,2.33609366265672,2.33261842942031,2.33501465160579,0.173622004184262,2.33552927251756,2.33522030776695,2.33593865030555,2.33522669582647,0.173622004184261,2.33675176913932,2.3376498898736,2.33524584429641,2.33721589080431,0.173622004184261,2.33625231350768,2.33644077366855,2.33644359066523,2.34093765796773,0.173622004184261,2.3393281206729,2.34123952451245,2.34317985339655,2.34111747169056,0.173622004184261,2.34166934509447,2.3429320073022,2.34155328391347,2.34183501042407,0.173622004184261,2.34307507177588,2.34439671187479,2.34470540120125,2.3448812816459,0.173622004184261,2.34936852020299,2.3498504723566,2.34912865606481,2.35161360105618,0.173622004184261,2.35353316352464,2.35318700788942,2.36277793982939
0.173540403369638,2.29208944791494,2.29140113078026,2.29390512255158,2.29285360654763,0.173540403369638,2.29237737622418,2.29570585244267,2.29046185303696,2.29453557475949,0.173540403369638,2.29214222552712,2.29396626833199,2.29439322945884,2.29340347601736,0.173540403369638,2.29272463430693,2.29625370277359,2.29164698828132,2.29542636255895,0.173540403369638,2.29419441858123,2.29768137532448,2.29354284165817,2.29708788799133,0.173540403369638,2.29572319649215,2.29836752684583,2.29370136540846,2.29795026309313,0.173540403369638,2.29754141155399,2.29620767200039,2.29994458370835,2.29713259096473,0.173540403369638,2.29803911493967,2.3008361999187,2.29730179773964,2.30026942806871,0.173540403369638,2.30121336126963,2.29784689087717,2.30231136034331,2.30052268255979,0.173540403369638,2.30129350473612,2.30161171899259,2.30216397837457,2.30236973299246,0.173540403369638,2.30364952371394,2.30198718021207,2.30481731499943,2.3026712987425,0.173540403369638,2.30379691211237,2.30595738296469,2.30329694883155,2.30637604945548,0.173540403369638,2.30538047957346,2.30776073306701,2.30408353350132,2.30771257427789,0.173540403369638,2.30928178511983,2.3063450575344,2.31162759255888,2.30773951655079,0.173540403369638,2.31036231601719,2.30910728462989,2.31088967945648,2.31109801109516,0.173540403369638,2.31193761511709,2.31114436263637,2.31385686970601,2.31215465871178,0.173540403369638,2.3146094703897,2.31272439155397,2.31495045632576,2.31356497056888,0.173540403369638,2.31453314956839,2.31713398569806,2.31567081189441,2.3173993700898,0.173540403369638,2.3179172774528,2.31775277985967,2.3196543492106,2.31989242849355,0.173540403369638,2.31974092160563,2.32169033911128,2.3232681351517,2.32489559012559,0.173540403369638,2.32505565331683,2.32535381453479,2.32657243025639,2.32934159893164,0.173540403369638,2.3316179560526,2.33417467554869,2.33476136184249,2.42679130231008,0.173540403369638,2.42573819758086,2.42616745018224,2.4257965349874,2.42918026918375,0.173540403369638,2.42961118599568,2.43003291500623,2.42985253775717,2.42925127168234,0.173540403369638,2.43125555050277,2.42755121180714,2.43492134300719,2.42644110347074,0.173540403369638,2.33926310684817,2.3386734410322,2.33912159220687,2.33765704366756,0.173540403369638,2.33908814973217,2.33304229458901,2.33446999298501,2.33791442846431,0.173540403369638,2.33514623703342,2.3357675279778,2.3351243191425,2.33542523365794,0.173540403369638,2.33529457001888,2.33477953020116,2.33729282412628,2.33538964204583,0.173540403369638,2.33704705643634,2.33580147487656,2.33761493689407,2.33746485450315,0.173540403369638,2.33857749973774,2.34124484175859,2.34106223496008,2.34070188592952,0.173540403369638,2.33985416365515,2.33982115502986,2.3408151353571,2.34151823028512,0.173540403369638,2.34139772839344,2.34389711195934,2.3435495394586,2.34415944939646,0.173540403369638,2.34568958539529,2.34729561521269,2.34715679284375,2.351910018227,0.173540403369638,2.35024351387282,2.35539612429156,2.35927880026738
0.173622004184261,2.29352322292891,2.29343610945807,2.29342796784692,2.29453602202203,0.173622004184261,2.29398773136108,2.29165707504883,2.29531156461519,2.29208028188944,0.173622004184261,2.29190525028581,2.29245410995068,2.29228615221194,2.29369082907574,0.173622004184261,2.29447863983201,2.29108154706188,2.29666830475577,2.29260783769916,0.173622004184261,2.29580919659912,2.29227745686838,2.29704251584316,2.29405398744087,0.173622004184261,2.29742727716076,2.29458352045197,2.29835094352718,2.29557073890114,0.173622004184261,2.29618265799072,2.29916755681138,2.29530545708438,2.29872052932111,0.173622004184261,2.29935743869068,2.29648341997077,2.30084600748849,2.29765526567042,0.173622004184261,2.29842362726672,2.30215194653378,2.29890287070402,2.30382777953846,0.173622004184261,2.30052744871865,2.30242148665245,2.30131670943852,2.30203297029393,0.173622004184261,2.3014778579432,2.30447718783838,2.30018248596823,2.30435916038597,0.173622004184261,2.30415225727399,2.30370411591414,2.30692425441041,2.30372521303324,0.173622004184261,2.30575609314891,2.30433578728237,2.30857931085964,2.30540273419988,0.173622004184261,2.30746224481659,2.30989027580643,2.30639623650886,2.309930865478,0.173622004184261,2.30879755883458,2.31118794662155,2.3085380280001,2.31073501699087,0.173622004184261,2.31055734814212,2.31349248870355,2.30993570629319,2.31354513194844,0.173622004184261,2.31207012656731,2.3158573159674,2.31230683923048,2.315239478238,0.173622004184261,2.3144166056856,2.31550589288566,2.31764427668173,2.31637463318228,0.173622004184262,2.31676648694418,2.32199650860974,2.32183662307364,2.32416849997101,0.173622004184262,2.32259768688116,2.32490752906076,2.32630821066794,2.41333069197369,0.173622004184262,2.32750779640567,2.42828774444994,2.42275270777538,2.42702139850341,0.173622004184261,2.42708755208483,2.42704668309414,2.43207121788169,2.42748707993771,0.173622004184261,2.42774117928243,2.43122661743732,2.42684867179757,2.42916705601139,0.173622004184261,2.42911959673052,2.43115304500317,2.42812380190671,2.43014605136108,0.173622004184261,2.43012564028469,2.43166502442941,2.43002456848822,2.43144322725174,0.173622004184261,2.42776300952704,2.42716627967546,2.42513910042175,2.43083112399849,0.173622004184261,2.33515808634029,2.4278421605904,2.33561983565616,2.33906158904854,0.173622004184261,2.33739473808232,2.33630086318274,2.33665596135478,2.33519664123282,0.173622004184261,2.33480610502454,2.33710191234759,2.3343959615872,2.3365572266177,0.173622004184261,2.33704080829615,2.33762756886898,2.33528314615691,2.33545145010457,0.173622004184261,2.33698156008557,2.33850606072858,2.33834681896486,2.33828739955744,0.173622004184261,2.33918924748271,2.34006539202961,2.34089004942672,2.33997868771858,0.173622004184261,2.34140205001477,2.34046241105225,2.34351425735349,2.34336632720533,0.173622004184261,2.34447865095662,2.34495697420638,2.34705841266045,2.35141288558792,0.173622004184261,2.35018321465441,2.35385368641283,2.35109880051831
0.173874047254928,2.29378920629781,2.29520193957398,2.29585788890712,2.29630576981161,0.173874047254928,2.29384783547118,2.29438297466946,2.29189732163031,2.29418458653169,0.173874047254928,2.29239568644645,2.29181194383957,2.29321854862449,2.29380687185551,0.173874047254928,2.29289852828855,2.29605797986796,2.29048723709759,2.29519975131722,0.173874047254928,2.29359309912345,2.29675215126276,2.29249984539049,2.29594033180546,0.173874047254928,2.29487119189221,2.29883730942094,2.29360839926863,2.29767694898176,0.173874047254928,2.29709489642526,2.29538179229321,2.29914417546572,2.29657476929764,0.173874047254928,2.2967521536946,2.30085273051231,2.29550097903356,2.2999422748981,0.173874047254928,2.30061836552961,2.29740245076197,2.3014133702092,2.29913746080659,0.173874047254928,2.30068294596662,2.30036942758257,2.30186330866861,2.30147529480001,0.173874047254928,2.30304440239767,2.30081894124946,2.30374226637762,2.30177995205141,0.173874047254928,2.30324045001482,2.30527305215763,2.30283415839832,2.30563339479694,0.173874047254928,2.30484800998858,2.30736539104304,2.30352145230629,2.30793117210375,0.173874047254928,2.30759391105362,2.30755006663802,2.30952094009803,2.30881106056734,0.173874047254928,2.30929153270384,2.30833834867047,2.3110502781819,2.30985831502211,0.173874047254928,2.31241262661109,2.30974756827619,2.31310060654673,2.31135049808997,0.173874047254928,2.31451767201322,2.31160066632506,2.31561499584126,2.31340671697424,0.173874047254928,2.31508070194671,2.31782871423878,2.31665829207848,2.31784977273867,0.173874047254928,2.31818285323792,2.32213645871948,2.3225102507643,2.32335467658776,0.173874047254928,2.329117706815,2.32518754205957,2.3287678387562,2.41512898384803,0.173874047254928,2.41436211421304,2.42839441453427,2.4250463798772,2.42571343586313,0.173874047254928,2.42689790747932,2.42738492856792,2.4276811550269,2.42802605958171,0.173874047254928,2.43188822459373,2.4310036315813,2.43117969950242,2.43037986211883,0.173874047254928,2.4304173062052,2.4286303234615,2.43092403769066,2.42943236433337,0.173874047254928,2.43165150998453,2.42990023132539,2.43269891711196,2.43140455236009,0.173874047254928,2.43485422396355,2.42681753370936,2.42720532519163,2.42695112524431,0.173874047254928,2.42681380529787,2.42811646079223,2.42978920221786,2.41723079595948,0.173874047254928,2.33972944077909,2.33691222316689,2.33803487912315,2.3379938258826,0.173874047254928,2.33695127290984,2.33558406299749,2.3365680300685,2.33562064265261,0.173874047254928,2.33634745773484,2.33468749501755,2.33676907969302,2.33521461384057,0.173874047254928,2.33787974880562,2.33812702784895,2.337581016518,2.33841356365607,0.173874047254928,2.33873983760938,2.34106906144964,2.3418235059115,2.34033706551992,0.173874047254928,2.34161329997729,2.34067541512694,2.34397557064085,2.34310648740125,0.173874047254928,2.34499723518813,2.34510992976653,2.3481941938599,2.34898289326179,0.173874047254928,2.3504215293903,2.35235361537987,2.35148850101657
0.174300146434842,2.29670676731329,2.29971686832173,2.37641469210568,2.37666803845129,0.174300146434842,2.29791672037069,2.29402552957634,2.29463857994017,2.29333348213274,0.174300146434842,2.29229829964953,2.29247872157141,2.29276160260368,2.29237865680118,0.174300146434842,2.29420212145339,2.290942937472,2.29578815374126,2.29218173361016,0.174300146434842,2.29442907665187,2.29239075586195,2.29534675401879,2.29377240161231,0.174300146434842,2.29590315268768,2.29428712458168,2.2982740664171,2.29525084602503,0.174300146434842,2.29582032904018,2.29787441052213,2.29610125639292,2.29846292828901,0.174300146434842,2.29890082233077,2.29536339243307,2.30033402020844,2.29719391862206,0.174300146434842,2.29823555310102,2.30087073422278,2.29765339058476,2.30015917233813,0.174300146434842,2.29990177938327,2.30082776855747,2.30078535489547,2.30160727835679,0.174300146434842,2.30065060978306,2.30386333023629,2.30065041874217,2.30350003187027,0.174300146434842,2.30418821512081,2.30241404520693,2.30544443490659,2.30336219543556,0.174300146434842,2.30607485812166,2.30428853360642,2.30748428666388,2.30547957805344,0.174300146434842,2.30783588126854,2.30783314575448,2.30746674608735,2.3076971931248,0.174300146434842,2.30845106875839,2.30918629470495,2.30926217295005,2.3107988481189,0.174300146434842,2.31030265267215,2.31354689069918,2.31029837181293,2.31247848786027,0.174300146434842,2.31230878273182,2.31440922623112,2.31337202147087,2.31515643728885,0.174300146434842,2.31636608922087,2.31677241095303,2.31820975478102,2.31851711222481,0.174300146434842,2.31852975007866,2.32244033626391,2.41910512377475,2.41874122489213,0.174300146434842,2.41925419034641,2.42004462998818,2.41588101948736,2.41520217546323,0.174300146434842,2.41553932526599,2.42489369495144,2.42533450938174,2.42625501155346,0.174300146434842,2.42709707688028,2.42726848634626,2.42795266109445,2.42773768838393,0.174300146434842,2.42997824260379,2.43047888944511,2.43088657195722,2.43093081150737,0.174300146434842,2.42928005109999,2.43004012434798,2.43061978508474,2.43090783785963,0.174300146434842,2.43074123037354,2.43304709119682,2.43015730735013,2.43250911844655,0.174300146434842,2.4320300347498,2.43272486489885,2.42696445892394,2.42681223246487,0.174300146434842,2.42786333521544,2.42878270513411,2.43034229350568,2.43023484419318,0.174300146434842,2.43303350908325,2.34136818969495,2.33966253306163,2.33841696138042,0.174300146434842,2.33642454299632,2.33733176897264,2.3350112377033,2.33705157695402,0.174300146434842,2.33534377308263,2.33679804132208,2.33462676430004,2.33592229701422,0.174300146434842,2.33731351063772,2.3368235631759,2.33659949304529,2.33886254753778,0.174300146434842,2.33819674386248,2.33873319327076,2.33978591862423,2.34032611441932,0.174300146434842,2.34089473640445,2.34084122943033,2.34124356730727,2.34120591831547,0.174300146434842,2.34304250348124,2.34638328285717,2.34542645708051,2.34814245987208,0.174300146434842,2.34955145084335,2.35262111030136,2.35212048860928
0.174863673843024,2.37481320334068,2.37588146133119,2.37610442939838,2.37699471149284,0.174863673843024,2.37851950200255,2.2972021165885,2.2936167107161,2.29129674243172,0.174863673843024,2.29123039221581,2.29133809959538,2.29152700161877,2.29207405224928,0.174863673843024,2.2923003429906,2.29388124949281,2.29201565307038,2.29380330698091,0.174863673843024,2.2957406780037,2.29521916165178,2.29365379737151,2.29427112142742,0.174863673843024,2.29445151108038,2.29535337596978,2.29554046068411,2.29654118563862,0.174863673843024,2.29660475850476,2.29583723498276,2.29683451764472,2.29623016494881,0.174863673843024,2.29696344838799,2.29830432946418,2.29672868776014,2.29897843713904,0.174863673843024,2.29986482483566,2.29790114473991,2.29976099956986,2.29919013742973,0.174863673843024,2.29985585695391,2.29998831470361,2.30200195337317,2.30153707045402,0.174863673843024,2.30192133437248,2.30093360780048,2.30257221063172,2.3016465099323,0.174863673843024,2.30269136223614,2.30395972080893,2.30278179716526,2.3043002910265,0.174863673843024,2.30467831221333,2.30623055416933,2.30579739342817,2.30655982901579,0.174863673843024,2.30656644644959,2.30963850305958,2.30900363407481,2.30805407495824,0.174863673843024,2.30913235099647,2.31034680859675,2.31001802473805,2.31008054904332,0.174863673843024,2.31128097052985,2.3104461211005,2.3118951470406,2.31203724351446,0.174863673843024,2.3133719387544,2.31276293624081,2.31458899099335,2.31458913468224,0.174863673843024,2.31703522034889,2.31736372407781,2.31773070680042,2.32034439975894,0.174863673843024,2.32303764718729,2.41456070646065,2.41812822754149,2.41889880668529,0.174863673843024,2.41900255322422,2.41807210894402,2.421755922071,2.42225593882509,0.174863673843024,2.42479116753172,2.42472578428504,2.42472737008695,2.42533038103499,0.174863673843024,2.42685954377104,2.42773884335403,2.42752661802652,2.42776466014237,0.174863673843024,2.42843643467814,2.43034068255177,2.43104550370597,2.43136950909469,0.174863673843024,2.4315049476644,2.42522106342413,2.43149164725431,2.43118762263399,0.174863673843024,2.43211444323409,2.43160444809237,2.43252178609487,2.43153692975118,0.174863673843024,2.43233151842084,2.43267977033658,2.43281456999587,2.43352427933739,0.174863673843024,2.43034369059286,2.43052784235452,2.43055450895154,2.43291362787491,0.174863673843024,2.43157269509991,2.43150766841984,2.34186869949004,2.33902169029831,0.174863673843024,2.33844183112367,2.33755976938292,2.33693519352086,2.33557315598257,0.174863673843024,2.33659740731218,2.33502775216822,2.33579802482157,2.3352114815078,0.174863673843024,2.336494223261,2.33670870023272,2.33614167947312,2.33687540140669,0.174863673843024,2.33684500279835,2.3371177696384,2.33946883884594,2.34007105075455,0.174863673843024,2.33907667615604,2.33960231179445,2.34081412066067,2.34149405201653,0.174863673843024,2.34272694757902,2.34263964794075,2.3451656275149,2.34586419543014,0.174863673843024,2.34917314504539,2.35076805419871,2.3506070179941
0.175468000929675,0.17602311869232,0.176342623753036,0.176342623753036,0.17602311869232,0.175468000929675,0.17602311869232,0.176342623753036,0.176342623753036,0.17602311869232,0.175468000929675,0.17602311869232,0.176342623753036,0.176342623753036,0.17602311869232,0.175468000929675,0.17602311869232,0.176342623753036,0.176342623753036,0.17602311869232,0.175468000929675,0.17602311869232,0.176342623753036,0.176342623753036,0.17602311869232,0.175468000929675,0.17602311869232,0.176342623753036,0.176342623753036,0.17602311869232,0.175468000929675,0.17602311869232,0.176342623753036,0.176342623753036,0.17602311869232,0.175468000929675,0.17602311869232,0.176342623753036,0.176342623753036,0.17602311869232,0.175468000929675,0.17602311869232,0.176342623753036,0.176342623753036,0.17602311869232,0.175468000929675,0.17602311869232,0.176342623753036,0.176342623753036,0.17602311869232,0.175468000929675,0.17602311869232,0.176342623753036,0.176342623753036,0.17602311869232,0.175468000929675,0.17602311869232,0.176342623753036,0.176342623753036,0.17602311869232,0.175468000929675,0.17602311869232,0.176342623753036,0.176342623753036,0.17602311869232,0.175468000929675,0.17602311869232,0.176342623753036,0.176342623753036,0.17602311869232,0.175468000929675,0.17602311869232,0.176342623753036,0.176342623753036,0.17602311869232,0.175468000929675,0.17602311869232,0.176342623753036,0.176342623753036,0.17602311869232,0.175468000929675,0.17602311869232,0.176342623753036,0.176342623753036,0.17602311869232,0.175468000929675,0.17602311869232,0.176342623753036,0.176342623753036,0.17602311869232,0.175468000929675,0.17602311869232,0.176342623753036,0.176342623753036,0.17602311869232,0.175468000929675,0.17602311869232,0.176342623753036,0.176342623753036,0.17602311869232,0.175468000929675,0.17602311869232,0.176342623753036,0.176342623753036,0.17602311869232,0.175468000929675,0.17602311869232,0.176342623753036,0.176342623753036,0.17602311869232,0.175468000929675,0.17602311869232,0.176342623753036,0.176342623753036,0.17602311869232,0.175468000929675,0.17602311869232,0.176342623753036,0.176342623753036,0.17602311869232,0.175468000929675,0.17602311869232,0.176342623753036,0.176342623753036,0.176023118692319,0.175468000929675,0.17602311869232,0.176342623753036,0.176342623753036,0.17602311869232,0.175468000929675,0.17602311869232,0.176342623753036,0.176342623753036,0.17602311869232,0.175468000929675,0.17602311869232,0.176342623753036,0.176342623753036,0.17602311869232,0.175468000929675,0.17602311869232,0.176342623753036,0.176342623753036,0.17602311869232,0.175468000929675,0.17602311869232,0.176342623753036,0.176342623753036,0.17602311869232,0.175468000929675,0.17602311869232,0.176342623753036,0.176342623753036,0.17602311869232,0.175468000929675,0.17602311869232,0.176342623753036,0.176342623753036,0.17602311869232,0.175468000929675,0.17602311869232,0.176342623753036,0.176342623753036,0.17602311869232,0.175468000929675,0.17602311869232,0.176342623753036,0.176342623753036,0.17602311869232,0.175468000929675,0.17602311869232,0.176342623753036,0.176342623753036
0.174863673843024,2.37904868970874,2.37655254895827,2.37638228498976,2.37664860618202,0.174863673843024,2.37834650611343,2.37934989776848,2.29105311328896,2.29098236327726,0.174863673843024,2.29335873131242,2.29146192128005,2.29092160046079,2.29160512648956,0.174863673843024,2.29131494382581,2.29303555707608,2.29130338973044,2.29309795003116,0.174863673843024,2.29335649661997,2.29279238005524,2.29433468517757,2.29362284964841,0.174863673843024,2.29310921943063,2.29509323575834,2.29321360231719,2.29546953628954,0.174863673843024,2.29567548114373,2.2958233811035,2.29631575651182,2.29590797875093,0.174863673843024,2.29702893831035,2.29602595620733,2.2984114007615,2.29665589403101,0.174863673843024,2.29813522716453,2.29759739456379,2.29888272172708,2.29798532119634,0.174863673843024,2.29866703844435,2.30017095180709,2.29876151042138,2.3005014403633,0.174863673843024,2.30032811881717,2.30166798845497,2.30084465953241,2.30220786404035,0.174863673843024,2.30240145840578,2.30229564134993,2.30289956806204,2.30299736653592,0.174863673843024,2.30449939538293,2.3043006981636,2.30531013062652,2.30451775493786,0.174863673843024,2.30551073035475,2.30659524045237,2.30712788045889,2.30647054820553,0.174863673843024,2.30746625078914,2.30891910095837,2.30831075647611,2.30997940176832,0.174863673843024,2.3105159075492,2.31065728578782,2.31149865887908,2.31209285340122,0.174863673843024,2.31290910519285,2.31281461238774,2.31343435348175,2.3163174077343,0.174863673843024,2.31581740564776,2.31884750769433,2.32149759586206,2.40737046636075,0.174863673843024,2.41484857284718,2.41896652397338,2.41852281575752,2.41785709770949,0.174863673843024,2.41758762801427,2.41964500274974,2.42127623562513,2.4227914922826,0.174863673843024,2.42326652723289,2.42486169394418,2.42480510492801,2.42464153662462,0.174863673843024,2.42816110199155,2.42784109125146,2.42506133302653,2.42760968622776,0.174863673843024,2.42842897206168,2.431597810571,2.43079022642909,2.43034892444816,0.174863673843024,2.4254427207804,2.42456935792142,2.43472130565106,2.431731355646,0.174863673843024,2.43221120912214,2.43551476163368,2.43536808966459,2.43268125619253,0.174863673843024,2.43286073441845,2.4326331376014,2.43247215262756,2.43258396383204,0.174863673843024,2.43157290387814,2.43073203929624,2.43249793428639,2.43096218859213,0.174863673843024,2.43105631468072,2.43249923762947,2.43152315870706,2.43144057829095,0.174863673843024,2.34119656111955,2.34122989542315,2.3393461206509,2.33729356925782,0.174863673843024,2.33667016803298,2.33589790248068,2.33610492216954,2.33658037486117,0.174863673843024,2.3362213521221,2.33538936081925,2.33713721631298,2.33720415274901,0.174863673843024,2.33651026151528,2.33641335797116,2.33628849839034,2.34044131494282,0.174863673843024,2.34065083796711,2.34116088238437,2.33955743369967,2.34038611161547,0.174863673843024,2.34433835944618,2.34824845472338,2.34400427254269,2.3456309879849,0.174863673843024,2.34605714753324,2.34869019358377,2.34837684994396
0.174300146434842,2.37910883515142,2.37674556382521,2.37782248187753,2.38034646539675,0.174300146434842,2.37685850511104,2.37513871762901,2.29070934423382,2.29045539081026,0.174300146434842,2.29081670831096,2.28975625664792,2.29200925855933,2.2907749546421,0.174300146434842,2.29248810222587,2.28919136208201,2.29433797223286,2.29118688665357,0.174300146434842,2.29278255739895,2.29426669362587,2.29180818085086,2.29434473181287,0.174300146434842,2.29509023938629,2.29127322214523,2.29655324210111,2.29313391555249,0.174300146434842,2.29485866871647,2.29545395323268,2.29550261743939,2.29578144586145,0.174300146434842,2.29544783927353,2.29892052403528,2.29437393977889,2.29829223094578,0.174300146434842,2.29669756742438,2.29982545900562,2.29611688863577,2.29919193641163,0.174300146434842,2.29958107902717,2.29732940845021,2.30045688320868,2.29877583238483,0.174300146434842,2.30148849014294,2.29928434659042,2.30278250437979,2.30078513682994,0.174300146434842,2.30175638186842,2.3024672057168,2.30205837132826,2.30317468185963,0.174300146434842,2.30339489254671,2.30510929066284,2.30282488023605,2.30554882736612,0.174300146434842,2.30510831381222,2.30703808887921,2.30506817184533,2.30723313444908,0.174300146434842,2.30840859248728,2.30737706912978,2.30910060407984,2.30895521420108,0.174300146434842,2.30955205125728,2.30983119096655,2.31135374701914,2.31199354811237,0.174300146434842,2.31284455612823,2.31310244526227,2.31579023908575,2.3181073284994,0.174300146434842,2.31896751160055,2.32193761127412,2.4158833353016,2.41542685967246,0.174300146434842,2.41512171120095,2.41852387614475,2.41775984112637,2.41782472120232,0.174300146434842,2.4180927654446,2.41916850633461,2.42174892032556,2.42235497951993,0.174300146434842,2.42379943942694,2.42450677047884,2.42546148629602,2.42480639565169,0.174300146434842,2.4240786411014,2.43198128872898,2.42522888486598,2.4251141511818,0.174300146434842,2.42794885415408,2.42798785201171,2.42877911971438,2.42941402204875,0.174300146434842,2.42133288816773,2.42151797288582,2.42778249084866,2.42784925502015,0.174300146434842,2.42953402123376,2.42972745664696,2.4314010837594,2.43586133761867,0.174300146434842,2.43429949009729,2.43336738447745,2.43412668454156,2.43223098955551,0.174300146434842,2.43127582268172,2.43392598451982,2.42969392579318,2.43229026175668,0.174300146434842,2.43235927573255,2.42846218761159,2.43364286099728,2.4304109856517,0.174300146434842,2.43242312456952,2.34299830432543,2.33832579515055,2.33724719229532,0.174300146434842,2.33832539109991,2.33768516442069,2.33588918012404,2.33642334028181,0.174300146434842,2.3365223600892,2.33408587202755,2.33647063017902,2.33686943928266,0.174300146434842,2.33617590165513,2.3366154635251,2.33865361561317,2.33820154510012,0.174300146434842,2.33948900356427,2.33870485156434,2.33900366065649,2.34022413589379,0.174300146434842,2.34025693686259,2.34035824603419,2.3421800732905,2.3483584141839,0.174300146434842,2.34507047668878,2.34422144743919,2.35303697975458
0.173874047254928,2.37853266051436,2.37790869075525,2.37987578727772,2.37882737274148,0.173874047254928,2.37943954065886,2.37320354987576,2.29051373511992,2.28998670740507,0.173874047254928,2.29005492988852,2.29170765754103,2.2893642023441,2.29176641319556,0.173874047254928,2.29034072710268,2.2940662552723,2.28925152720332,2.29259576088739,0.173874047254928,2.29375099877354,2.29136303066056,2.29453383140347,2.29255628109326,0.173874047254928,2.29260476191533,2.29593435853513,2.29090550329377,2.29574576996336,0.173874047254928,2.29484267732718,2.29407519020758,2.29610007385101,2.29609639939854,0.173874047254928,2.29717521087775,2.29407926912372,2.29894342335015,2.29571291255627,0.173874047254928,2.29919907586067,2.295330965403,2.30042459373952,2.29804824942678,0.173874047254928,2.29741307798015,2.30114915491955,2.2966651896936,2.30056138947034,0.173874047254928,2.30002741085334,2.30124160029471,2.29968935695278,2.30166384648676,0.173874047254928,2.30159966748959,2.30103539940759,2.30255283022441,2.30252200807292,0.173874047254928,2.30435355528528,2.30240579662917,2.30544007697939,2.30461223235532,0.173874047254928,2.30488989506184,2.30552714453244,2.30705040576482,2.30580921721216,0.173874047254928,2.30682550203427,2.30969374268848,2.30671225206819,2.30965662943242,0.173874047254928,2.30992153045643,2.31045779815882,2.31199365702822,2.31230936872542,0.173874047254928,2.31349622711655,2.31546287078194,2.31637704877763,2.40249196996495,0.173874047254928,2.41527070474773,2.41124075394068,2.41357196431551,2.41427529447811,0.173874047254928,2.41710582447291,2.41821177803624,2.41841706921476,2.41789358828595,0.173874047254928,2.41760328345577,2.41902627256784,2.42273974425127,2.42283474397281,0.173874047254928,2.42240306908919,2.42307099484623,2.42280076285785,2.42260249435921,0.173874047254928,2.42443276122119,2.42565190610419,2.42520612465971,2.42561898898281,0.173874047254928,2.42828393238507,2.42628071562185,2.42670048484579,2.42142401067634,0.173874047254928,2.42107052832816,2.42457718760298,2.42381746417238,2.42646644912601,0.173874047254928,2.42788860493067,2.42814638228634,2.43030490087605,2.42981473265201,0.173874047254928,2.43501437054673,2.43018180904211,2.43206178245653,2.4325202634504,0.173874047254928,2.43333914212344,2.43002050667576,2.4340207864411,2.43082843878031,0.173874047254928,2.43013874183764,2.43460047338936,2.4280336991483,2.43282233391798,0.173874047254928,2.43020202926494,2.43435112148849,2.34097426217479,2.33987217958,0.173874047254928,2.33822608816743,2.33832976841832,2.33561681309968,2.33575429169136,0.173874047254928,2.33531622060193,2.33616152999198,2.33912368056814,2.33557765643922,0.173874047254928,2.33791960758998,2.3368699125021,2.33864721116453,2.33793582787449,0.173874047254928,2.33791411300734,2.33775680312316,2.33935178417994,2.33924305757189,0.173874047254928,2.3394379945063,2.34073659801421,2.34296450724484,2.34299668916651,0.173874047254928,2.34447479570892,2.34460976396597,2.34507889022393
0.173622004184261,2.37788181940999,2.3796749607502,2.37692547316654,2.38005898457323,0.173622004184261,2.37475916215466,2.38046956769288,2.29070421105785,2.29024131907124,0.173622004184261,2.29016775604998,2.28988963503995,2.29255356508272,2.28979796688707,0.173622004184261,2.29186923218206,2.28890011630151,2.29373396230906,2.29130590654433,0.173622004184261,2.29215557469393,2.29464592895996,2.29093463576788,2.29395970052776,0.173622004184261,2.29452624704625,2.29116500568093,2.29608968514632,2.29264709759392,0.173622004184261,2.29372234287614,2.29516588914751,2.29472304980398,2.29625858713218,0.173622004184261,2.29504863186384,2.29804373622788,2.29502647638932,2.29749323130665,0.173622004184261,2.29706549979646,2.29969356329196,2.29512183533741,2.29894689063235,0.173622004184261,2.29976464473382,2.29569896724077,2.3015901953761,2.29744388444508,0.173622004184261,2.30067330644977,2.29876045008216,2.30237468237585,2.30000583729528,0.173622004184261,2.30073602826374,2.30178141202371,2.30094355439587,2.30318437469196,0.173622004184261,2.30284776319217,2.30467467146145,2.3026483355258,2.30492066073351,0.173622004184261,2.30473405511564,2.30702027260917,2.30483125777119,2.30667836631132,0.173622004184261,2.30860128802046,2.30576712053019,2.31002259352738,2.30758999255583,0.173622004184261,2.31009676772121,2.311039684955,2.31292610416087,2.31399783039105,0.173622004184262,2.31541488590921,2.31558475575945,2.31904749156534,2.40253863819143,0.173622004184261,2.40310032363696,2.41429651996344,2.41700530537123,2.41608166798115,0.173622004184261,2.41584350113272,2.4200369168547,2.41793974446888,2.41806970291762,0.173622004184261,2.41687076309719,2.42542107023107,2.41819143972812,2.41937763143514,0.173622004184261,2.42146461594508,2.42042548321196,2.41979723896615,2.422919899946,0.173622004184261,2.42635794620219,2.4284536831124,2.42521584677352,2.42604395754391,0.173622004184261,2.42769306366391,2.42336351926731,2.42334979891471,2.42336500750088,0.173622004184261,2.4206237224103,2.42020600071239,2.42448806983344,2.42582179366648,0.173622004184261,2.42546446690957,2.42849542496501,2.43080237403904,2.42907021684885,0.173622004184262,2.42901627703141,2.4289149723331,2.42841509020832,2.43537610527649,0.173622004184262,2.42986097952927,2.43252883884029,2.43033869262216,2.43282002471269,0.173622004184261,2.43302740383819,2.42837847741293,2.43424628221483,2.42994175953836,0.173622004184262,2.43203408782407,2.43174653838378,2.43321066811581,2.43265458945787,0.173622004184261,2.33984598106766,2.33746138948026,2.33719788605848,2.33539479539645,0.173622004184261,2.33544677249344,2.33734303004851,2.33508155578245,2.33950795355268,0.173622004184261,2.33839940588901,2.33623106850293,2.33644875108744,2.33705584288453,0.173622004184261,2.33669095524351,2.33779969813708,2.33669509951161,2.33826242606779,0.173622004184261,2.33980490681146,2.34019199989045,2.34231001609041,2.34285759848298,0.173622004184261,2.34255547933347,2.34260189105703,2.34460302175975
0.173540403369638,2.37891944615792,2.37743556097952,2.37936294390572,2.37864104594165,0.173540403369638,2.37294941138936,2.37308951403376,2.29069691438774,2.2904233737955,0.173540403369638,2.28962516252939,2.29249106652869,2.28853162274537,2.2915611636096,0.173540403369638,2.29020169181052,2.293826660669,2.28829615713378,2.29248701135359,0.173540403369638,2.29314672072157,2.29036773198138,2.29478807906204,2.29175642565473,0.173540403369638,2.29192483760049,2.29604131973178,2.29077171203386,2.29508657124106,0.173540403369638,2.29525108749605,2.29293289889199,2.29665824961842,2.29493217331623,0.173540403369638,2.29660896606259,2.2945240092741,2.29708745389015,2.29585816376774,0.173540403369638,2.29762094123996,2.29491497483269,2.29963757533921,2.29615197070621,0.173540403369638,2.29788554466658,2.30086273341354,2.29554587993018,2.30018598044572,0.173540403369638,2.29884485115367,2.30268058515367,2.29714664996857,2.30152842938805,0.173540403369638,2.30083009232422,2.30330919970551,2.3028579394406,2.30224704989082,0.173540403369638,2.30310466600036,2.30170672550757,2.30550580677169,2.30275310631519,0.173540403369638,2.30493023605298,2.30372542848206,2.30747437573637,2.30498460979944,0.173540403369638,2.30681952628482,2.30864978988055,2.30653981751757,2.30909254153827,0.173540403369638,2.31022947063157,2.31095552994172,2.31199208017026,2.31400674518284,0.173540403369638,2.31860749978025,2.41018341224004,2.40597054146691,2.41288903741191,0.173540403369638,2.41210841591299,2.4135575789649,2.41477068148846,2.41542162449831,0.173540403369638,2.41564286134935,2.41705991194923,2.41761406317984,2.41791990261615,0.173540403369638,2.41679819574823,2.41644728620106,2.41672363797341,2.41837621192579,0.173540403369638,2.42139769531878,2.41992371547913,2.42010358565088,2.41846515823527,0.173540403369638,2.42060090839422,2.42670534483773,2.42198959238302,2.42906172358385,0.173540403369638,2.42223626726881,2.42712281507501,2.41686853407357,2.41640726265263,0.173540403369638,2.41908318897788,2.4259946864272,2.4218374471267,2.42546140470201,0.173540403369638,2.42563780591331,2.42872464969343,2.42868212026674,2.4294337201653,0.173540403369638,2.42880513155276,2.42830728386653,2.42855696645987,2.42877789209976,0.173540403369638,2.43023998402674,2.43152471932287,2.43204702724034,2.43134901703594,0.173540403369638,2.43049374179762,2.43321138380213,2.43024512201597,2.43230355657752,0.173540403369638,2.43099251767184,2.43308966066593,2.43026891443711,2.43277997795839,0.173540403369638,2.43267293351645,2.34234829310941,2.33774931535827,2.33762861491611,0.173540403369638,2.3357701260831,2.33462613231434,2.33510204049634,2.33507996486675,0.173540403369638,2.33814913211929,2.33542143093292,2.33563173148116,2.33543991967761,0.173540403369638,2.33733133374949,2.33631974716887,2.33750106159172,2.33681133092459,0.173540403369638,2.33823471585649,2.33864310937369,2.33919279942253,2.33986545974803,0.173540403369638,2.34060730773514,2.34251548731166,2.34376363131853
0.173622004184261,2.37767299946705,2.37801043052015,2.37738293111301,2.37749178063846,0.173622004184261,2.37852368466902,2.37697512508049,2.29033431396794,2.2902693272568,0.173622004184261,2.29108177111343,2.28801010181458,2.29253562194859,2.28908602569275,0.173622004184261,2.29174640153087,2.28853367400074,2.29333904820151,2.29038884296223,0.173622004184261,2.29118006615734,2.29458927963583,2.28966712800619,2.29360103150797,0.173622004184261,2.29413597698747,2.29039175441863,2.29596418137521,2.29223618841298,0.173622004184261,2.29286142217177,2.29597136888863,2.2919964158879,2.29571641227575,0.173622004184261,2.29395721680057,2.29714893961375,2.29421158532674,2.29671524635607,0.173622004184261,2.29514808575818,2.29864745186016,2.29419695677406,2.29799321972388,0.173622004184261,2.29785594524687,2.29595599426,2.30044776912436,2.29724309175948,0.173622004184261,2.30074317695158,2.29733644580784,2.30276098729894,2.2986259076031,0.173622004184261,2.3002466145611,2.30111215674247,2.3008794061946,2.30224788770071,0.173622004184261,2.30158980115128,2.30437199914756,2.30089122388312,2.3043339307514,0.173622004184261,2.30434847615144,2.30667103215976,2.30400900702914,2.30664684932531,0.173622004184261,2.30660753010053,2.30677040474842,2.30822740487746,2.30940693032302,0.173622004184261,2.31091736370639,2.31138027085456,2.31443677111533,2.31636786992642,0.173622004184262,2.40588041761199,2.40885283088234,2.4103670259308,2.41072602659242,0.173622004184261,2.41116449485921,2.41386408023237,2.41388426166559,2.4162212673646,0.173622004184262,2.41605620820751,2.41520386176203,2.41564296048468,2.41609248637034,0.173622004184261,2.41582269837042,2.4163281083112,2.41639133319743,2.41789955649116,0.173622004184261,2.42041183685429,2.42014189595373,2.42012365812297,2.4204079899875,0.173622004184262,2.42180094850296,2.42919655363846,2.42487249709845,2.42254432215231,0.173622004184261,2.42416725883699,2.42384495610675,2.41764633069148,2.42011404515699,0.173622004184261,2.41727171833641,2.41912435861807,2.42619523364702,2.42188223406338,0.173622004184261,2.42226272158846,2.42211040907593,2.42320630924249,2.42486943347284,0.173622004184261,2.43072981740245,2.42792321157645,2.42717776962072,2.42640842623224,0.173622004184262,2.42716650688981,2.42945545025023,2.43032714675959,2.43227614539266,0.173622004184261,2.43148640511623,2.42998050921128,2.43410662738797,2.43141077458029,0.173622004184262,2.4324928497943,2.4289966124809,2.4336285876128,2.43055083072263,0.173622004184261,2.43151938089547,2.43134488912655,2.33834333151833,2.33764025260828,0.173622004184261,2.3380989566271,2.33586200728041,2.33551649462249,2.33521948857069,0.173622004184261,2.33437425174375,2.33507547353252,2.33411967571997,2.3386143460582,0.173622004184261,2.33532354379496,2.33653741569229,2.33543284028832,2.33694009992782,0.173622004184261,2.33607805594645,2.33890652565822,2.33956505319727,2.33987146318323,0.173622004184261,2.33990598285342,2.34304842143565,2.34286176810482
0.173874047254928,2.37899589722742,2.37718279279629,2.37805596536751,2.37636196148132,0.173874047254928,2.37494013681343,2.2931566488241,2.29036689083427,2.28988309749076,0.173874047254928,2.28928388041559,2.29246826692545,2.28734578022913,2.29114651412698,0.173874047254928,2.28977385073757,2.29250820710311,2.28886362482967,2.29184999969627,0.173874047254928,2.29291371188891,2.28956617543163,2.29467337741581,2.29102837102165,0.173874047254928,2.29222791668256,2.29437711204223,2.29147985807204,2.2943636969412,0.173874047254928,2.29466057709984,2.2913846157733,2.296494808267,2.29336176352174,0.173874047254928,2.29596179644092,2.29280417265783,2.29741339596311,2.29463215224347,0.173874047254928,2.29652152189443,2.29419359401145,2.29861610792765,2.29555220341665,0.173874047254928,2.29635352677068,2.29935657405262,2.29560707253599,2.29913773079458,0.173874047254928,2.29852335321756,2.30097496903581,2.29711209530632,2.30096332290543,0.173874047254928,2.30020443850443,2.30029083031527,2.30157429316589,2.30106264010287,0.173874047254928,2.30249866790209,2.3013013848247,2.3044549692142,2.3045808550873,0.173874047254928,2.30505374358182,2.30406587330479,2.30640114684572,2.30554577873593,0.173874047254928,2.30785529173231,2.30728547891228,2.30793108626619,2.31154769818353,0.173874047254928,2.31391791035745,2.31270462429164,2.31663743727817,2.40412876720134,0.173874047254928,2.40981072016305,2.40841797385626,2.40987284931227,2.41035052963393,0.173874047254928,2.41089419209761,2.41182482418412,2.41251079604269,2.41819229690224,0.173874047254928,2.41665990029579,2.41475079812098,2.41473757229609,2.41638009050988,0.173874047254928,2.41639251912682,2.41550664646574,2.41664446319708,2.41601543754275,0.173874047254928,2.42440325133898,2.42199180807928,2.42168204896367,2.42241572532867,0.173874047254928,2.41882095632857,2.41504203588251,2.4163394539674,2.42327767976838,0.173874047254928,2.42189043178399,2.42209720121356,2.4164821040928,2.41592362461595,0.173874047254928,2.41786535913061,2.41889754091779,2.42715688720384,2.42145049893722,0.173874047254928,2.42111662961069,2.42158614752258,2.42225543126862,2.42305153215549,0.173874047254928,2.42388128865568,2.42517969015015,2.42567021825326,2.42565892848233,0.173874047254928,2.4254091179759,2.42768285442041,2.42800953242366,2.43243231043556,0.173874047254928,2.43085828460388,2.43031630957737,2.43031715757153,2.4322390217224,0.173874047254928,2.43053969556958,2.43353462987374,2.42903427500444,2.4317447984119,0.173874047254928,2.43089276196042,2.34291830087019,2.34210829637179,2.33922196305577,0.173874047254928,2.33799625675071,2.33774634242674,2.33486755996694,2.33530557967075,0.173874047254928,2.33447563732474,2.3344619603713,2.33426977801362,2.33438533348102,0.173874047254928,2.33671700150596,2.3349849000336,2.33678620642776,2.3365124412179,0.173874047254928,2.33681313855838,2.33730665004827,2.33708467013986,2.34018609563725,0.173874047254928,2.33944721017823,2.33943373960615,2.34276513202211
0.174300146434842,2.37978477169193,2.377316088626,2.37694595672086,2.37552249198373,0.174300146434842,2.37689583356366,2.37615288726399,2.29089532390501,2.28966287546935,0.174300146434842,2.29081591837219,2.28772888204389,2.29155718370235,2.28875207908391,0.174300146434842,2.29112214987143,2.28842090195205,2.29245336987625,2.28987687348905,0.174300146434842,2.29120348160875,2.29232588207159,2.28980247131086,2.29289852881473,0.174300146434842,2.29288241053373,2.29133413088143,2.29334231516,2.29243951068301,0.174300146434842,2.29233651161795,2.29532307382349,2.29200315553338,2.2951884943496,0.174300146434842,2.29400847953928,2.29678737506509,2.29327817188559,2.29610404464954,0.174300146434842,2.2952033588073,2.29758651730827,2.29517720550985,2.29734085996289,0.174300146434842,2.29813781975738,2.29474498253783,2.29949404347679,2.29690209689601,0.174300146434842,2.29890753919398,2.2979097706551,2.3007616153402,2.2987126666168,0.174300146434842,2.29989207189055,2.30294507311202,2.30057300045941,2.30136907999815,0.174300146434842,2.30136442378767,2.30387671286554,2.301607754121,2.30376891103151,0.174300146434842,2.30643285507019,2.30614071248722,2.30657918794391,2.30692006744775,0.174300146434842,2.30724685213783,2.30727552012045,2.30864241449327,2.31092740844119,0.174300146434842,2.31139971591923,2.40281937762434,2.40442812104088,2.40395462537853,0.174300146434842,2.40503153716739,2.40819777457139,2.4099600500143,2.41014582726306,0.174300146434842,2.41061509659043,2.41175682440828,2.41112993071438,2.41119798487011,0.174300146434842,2.41144542680227,2.41196549365012,2.41320611135571,2.41734499462639,0.174300146434842,2.41532584392661,2.41607765055333,2.41913981211228,2.41826715208536,0.174300146434842,2.4241299060799,2.40981054794143,2.4244272619232,2.41804082251073,0.174300146434842,2.42231085777801,2.32119758606484,2.42312099209407,2.3224576282314,0.174300146434842,2.42022318494672,2.42165754160627,2.41548361392753,2.42139545836015,0.174300146434842,2.42141260388323,2.42425543643407,2.42100056877221,2.42168740408964,0.174300146434842,2.42083122864985,2.42044077925759,2.42137485112206,2.42198758677384,0.174300146434842,2.42387824204143,2.42481035903801,2.42552635919377,2.425875109197,0.174300146434842,2.42473755832686,2.42588648285509,2.42556473466758,2.42641541237552,0.174300146434842,2.42758126437118,2.42942782350159,2.42951108415,2.42934746080065,0.174300146434842,2.43264562972564,2.43108069449124,2.43095802377227,2.43000234340405,0.174300146434842,2.43087220168149,2.43121545308587,2.42771487188016,2.33960183237504,0.174300146434842,2.33852023939443,2.33782748248048,2.33805799587073,2.33453671543846,0.174300146434842,2.33618268115015,2.33849156966921,2.33438743230487,2.33413768888089,0.174300146434842,2.33441245988327,2.33625055223828,2.33500922680142,2.33667949924023,0.174300146434842,2.33635031409247,2.33677140075047,2.33810082822648,2.33786741700616,0.174300146434842,2.33861899843572,2.33871844481179,2.34076488162723
0.174863673843024,2.37466865109971,2.37657036233147,2.3775477955638,2.37734020029733,0.174863673843024,2.37724892389902,2.29178105524707,2.29155864798711,2.29077669495913,0.174863673843024,2.29009484607202,2.29065102646104,2.2890229172847,2.29012964221192,0.174863673843024,2.28960132582887,2.29090689532094,2.28968233417215,2.29317839196288,0.174863673843024,2.29149964317806,2.29126558828532,2.29232812146132,2.29130823081596,0.174863673843024,2.29188809979798,2.29221810690974,2.29209933746337,2.29315992007569,0.174863673843024,2.29345085805061,2.29251414098203,2.29406653615575,2.29415310196922,0.174863673843024,2.29538790041875,2.29391066573101,2.29600207754419,2.29463127254067,0.174863673843024,2.29614585921295,2.29503067000607,2.29673847405516,2.296013399501,0.174863673843024,2.29660212412248,2.29784544867384,2.2963357927871,2.29770474348114,0.174863673843024,2.29829425815957,2.29966082843795,2.29864928472139,2.29969537622951,0.174863673843024,2.30021881916551,2.30020753434469,2.300638153462,2.30128731169237,0.174863673843024,2.30360158227942,2.30241787243898,2.30318749692648,2.30264498240739,0.174863673843024,2.30376548097752,2.30493055470606,2.30650834054549,2.30653807583269,0.174863673843024,2.30724051057299,2.30851592035318,2.31460873918118,2.31274088615443,0.174863673843024,2.404068302464,2.40356769154234,2.40462133213256,2.40557465113127,0.174863673843024,2.40677934209657,2.40849649651056,2.40958112775601,2.40905636104526,0.174863673843024,2.41001941423943,2.4102565125876,2.41066432432192,2.41131222188427,0.174863673843024,2.40995786503702,2.40971791054853,2.41366366617187,2.41394186770511,0.174863673843024,2.41482321436399,2.41703136347203,2.41892782742218,2.4192606414142,0.174863673843024,2.41135059939771,2.31907865807999,2.31876321896495,2.31835063374565,0.174863673843024,2.31888466557933,2.31871328730346,2.31876505373881,2.31912702662395,0.174863673843024,2.32024755428818,2.32495771173518,2.4223680477441,2.42046930000062,0.174863673843024,2.42113926141455,2.42621659406019,2.42341820404683,2.42241699734156,0.174863673843024,2.42125082846386,2.41893806325208,2.41965740445637,2.42045570825767,0.174863673843024,2.42329278339019,2.4227560434785,2.42439229041408,2.42351957039687,0.174863673843024,2.42487690716771,2.42463012622022,2.42490684696579,2.42493721977614,0.174863673843024,2.42514105815361,2.43267128307916,2.42631114410118,2.4343213687247,0.174863673843024,2.42885118249442,2.43282522207977,2.4289585241682,2.42869716513535,0.174863673843024,2.42730211990297,2.42674604980498,2.42776977500453,2.4283628935669,0.174863673843024,2.34060548023626,2.34141239244506,2.33534908541148,2.33559247219892,0.174863673843024,2.33457907813316,2.33327624920292,2.33432669669726,2.33406347955499,0.174863673843024,2.33442099022123,2.33544325362729,2.33586486912533,2.33578288443994,0.174863673843024,2.33544966556431,2.33683384539375,2.33754552265039,2.33679300813589,0.174863673843024,2.33670115743937,2.34094776270689,2.34018428322551
0.175468000929675,0.17602311869232,0.176342623753036,0.176342623753036,0.17602311869232,0.175468000929675,0.17602311869232,0.176342623753036,0.176342623753036,0.17602311869232,0.175468000929675,0.17602311869232,0.176342623753036,0.176342623753036,0.17602311869232,0.175468000929675,0.17602311869232,0.176342623753036,0.176342623753036,0.17602311869232,0.175468000929675,0.17602311869232,0.176342623753036,0.176342623753036,0.17602311869232,0.175468000929675,0.17602311869232,0.176342623753036,0.176342623753036,0.17602311869232,0.175468000929675,0.17602311869232,0.176342623753036,0.176342623753036,0.17602311869232,0.175468000929675,0.17602311869232,0.176342623753036,0.176342623753036,0.17602311869232,0.175468000929675,0.17602311869232,0.176342623753036,0.176342623753036,0.17602311869232,0.175468000929675,0.17602311869232,0.176342623753036,0.176342623753036,0.17602311869232,0.175468000929675,0.17602311869232,0.176342623753036,0.176342623753036,0.17602311869232,0.175468000929675,0.17602311869232,0.176342623753036,0.176342623753036,0.17602311869232,0.175468000929675,0.17602311869232,0.176342623753036,0.176342623753036,0.17602311869232,0.175468000929675,0.17602311869232,0.176342623753036,0.176342623753036,0.17602311869232,0.175468000929675,0.17602311869232,0.176342623753036,0.176342623753036,0.17602311869232,0.175468000929675,0.17602311869232,0.176342623753036,0.176342623753036,0.17602311869232,0.175468000929675,0.17602311869232,0.176342623753036,0.176342623753036,0.176023118692319,0.175468000929675,0.17602311869232,0.176342623753036,0.176342623753036,0.17602311869232,0.175468000929675,0.17602311869232,0.176342623753036,0.176342623753036,0.17602311869232,0.175468000929675,0.17602311869232,0.176342623753036,0.176342623753036,0.17602311869232,0.175468000929675,0.17602311869232,0.176342623753036,0.176342623753036,0.17602311869232,0.175468000929675,0.17602311869232,0.176342623753036,0.176342623753036,0.17602311869232,0.175468000929675,0.17602311869232,0.176342623753036,0.176342623753036,0.17602311869232,0.175468000929675,0.17602311869232,0.176342623753036,0.176342623753036,0.17602311869232,0.175468000929675,0.17602311869232,0.176342623753036,0.176342623753036,0.17602311869232,0.175468000929675,0.17602311869232,0.176342623753036,0.176342623753036,0.17602311869232,0.175468000929675,0.17602311869232,0.176342623753036,0.176342623753036,0.17602311869232,0.175468000929675,0.17602311869232,0.176342623753036,0.176342623753036,0.17602311869232,0.175468000929675,0.17602311869232,0.176342623753036,0.176342623753036,0.17602311869232,0.175468000929675,0.17602311869232,0.176342623753036,0.176342623753036,0.17602311869232,0.175468000929675,0.17602311869232,0.176342623753036,0.176342623753036,0.17602311869232,0.175468000929675,0.17602311869232,0.176342623753036,0.176342623753036,0.17602311869232,0.175468000929675,0.17602311869232,0.176342623753036,0.176342623753036,0.17602311869232,0.175468000929675,0.17602311869232,0.176342623753036,0.176342623753036,0.17602311869232,0.175468000929675,0.17602311869232,0.176342623753036,0.176342623753036
0.174863673843024,2.37365582921954,2.37418772702422,2.37420217688315,2.37772935305324,0.174863673843024,2.37333926195779,2.29033596294214,2.28901730417692,2.28938230637946,0.174863673843024,2.28902910032785,2.2898398650448,2.28980839746201,2.29030357808533,0.174863673843024,2.29258584288976,2.29023569667906,2.28959714366627,2.29063659548024,0.174863673843024,2.29104787525713,2.28992282467352,2.29208972857662,2.29072682508537,0.174863673843024,2.29111458296431,2.29242755816342,2.29127660136279,2.29326791296205,0.174863673843024,2.29247998064024,2.29393787605108,2.2924936089745,2.29425329039671,0.174863673843024,2.29351935236252,2.29516925708984,2.29319576344199,2.29524223583608,0.174863673843024,2.29560054790064,2.29423119812727,2.29633398538689,2.2951920035462,0.174863673843024,2.29581181858236,2.29731318801315,2.29594993127765,2.29782073652151,0.174863673843024,2.29828438293968,2.29730773983253,2.29963774504318,2.29868114971938,0.174863673843024,2.29985049294609,2.29988137461668,2.30117764288333,2.30026268447105,0.174863673843024,2.30105593502177,2.3028501075177,2.30209068843258,2.30294968726985,0.174863673843024,2.30349878682639,2.30452635320675,2.30491445815701,2.30705821281956,0.174863673843024,2.30702720823494,2.30882711317452,2.31322731972688,2.4037720714721,0.174863673843024,2.40389216062448,2.40367658845258,2.40483077773016,2.40454234447108,0.174863673843024,2.40650506938105,2.40782192175923,2.40755230070471,2.40858009563414,0.174863673843024,2.4096519852956,2.40960219556028,2.40926358164653,2.41019327975354,0.174863673843024,2.41092213154501,2.41066139213611,2.40812897954172,2.40800697863181,0.174863673843024,2.4119534765845,2.41184490170094,2.41271350195742,2.31771221402375,0.174863673843024,2.31649666951416,2.31612185336937,2.31561284532027,2.3186219310161,0.174863673843024,2.31720030923645,2.31693932930371,2.31827518945511,2.32092595451145,0.174863673843024,2.31906381827402,2.32095884178494,2.32117908359298,2.3228130969275,0.174863673843024,2.34789847851006,2.41091458458339,2.41912085975528,2.42205533673402,0.174863673843024,2.4182208041548,2.42172736622696,2.41982969229075,2.42155581804263,0.174863673843024,2.4207415748811,2.42064762023208,2.41973261733764,2.42008520375116,0.174863673843024,2.42207740002001,2.42194280760752,2.42459001215656,2.42360985858207,0.174863673843024,2.42532269632174,2.42564958586864,2.42312678119677,2.42582521730688,0.174863673843024,2.42030256520784,2.42829677923172,2.42779206179922,2.42654951744174,0.174863673843024,2.42790767051254,2.42549848426187,2.42579897560303,2.42438137771536,0.174863673843024,2.41835083338058,2.33814343468178,2.33714344682576,2.33726009354887,0.174863673843024,2.33583300130775,2.33416437732294,2.33373951097034,2.33326388871363,0.174863673843024,2.33532812794925,2.33333692716027,2.33445159135239,2.33334890101473,0.174863673843024,2.33454371494916,2.33513110659644,2.33607873754227,2.33601536579185,0.174863673843024,2.33951552529758,2.339848225962,2.33953204309911
0.174300146434842,2.37408234596846,2.37482073496721,2.3753586643508,2.37291435492744,0.174300146434842,2.37077931019724,2.28939334344541,2.29077395582386,2.28929408893547,0.174300146434842,2.28993299163677,2.28738308101121,2.29078161084875,2.28833659036186,0.174300146434842,2.29026313379993,2.28795219251154,2.29104477131658,2.28963768811447,0.174300146434842,2.28938384921034,2.2921678651637,2.28796759055214,2.29174718765007,0.174300146434842,2.2918893491352,2.29003212744224,2.29394648550467,2.29117684199941,0.174300146434842,2.29396964576635,2.29104773406241,2.29553380745436,2.29209592279527,0.174300146434842,2.29402996855828,2.29197268782169,2.29635224967341,2.29301386949024,0.174300146434842,2.29390393346976,2.29706935734965,2.29314606148137,2.29676703795581,0.174300146434842,2.29693018632408,2.29483331128775,2.29864638665062,2.29667990635229,0.174300146434842,2.29679238703904,2.30036529425396,2.29641613458344,2.2996431005676,0.174300146434842,2.2992601143393,2.30137757472201,2.29925844664003,2.30101508646527,0.174300146434842,2.30215876537408,2.30059527645739,2.30280037185512,2.30352012248907,0.174300146434842,2.30389009714584,2.3043709491461,2.3055179841345,2.30709744458963,0.174300146434842,2.30876594841775,2.31219728571923,2.4023360523219,2.40277213704262,0.174300146434842,2.40293997438582,2.40500340148323,2.40321765286704,2.40555555236269,0.174300146434842,2.40630739858766,2.40639608029415,2.40648320938498,2.40635558895385,0.174300146434842,2.40871870295493,2.41009936609839,2.40922352895608,2.40824101230146,0.174300146434842,2.41098600196965,2.40841922486438,2.40816181990235,2.40859689837951,0.174300146434842,2.40846044045401,2.40592048041458,2.31616651887084,2.31613346689585,0.174300146434842,2.31537123062322,2.31457903992453,2.31520365406926,2.31522751903399,0.174300146434842,2.31538217049722,2.31631162441983,2.317875795763,2.31767943547146,0.174300146434842,2.31812739398669,2.32443748754019,2.32015081316576,2.32495623777872,0.174300146434842,2.3251838431629,2.4116106077817,2.4115066043073,2.42418664915868,0.174300146434842,2.41588395750582,2.42174935292553,2.41916782125656,2.41991306632376,0.174300146434842,2.42047996564493,2.41983388557654,2.4193772106524,2.42218996027137,0.174300146434842,2.42139612224418,2.42129172227663,2.42144930603937,2.4260330993407,0.174300146434842,2.42263097151774,2.42569073787662,2.42058661526228,2.41901062424721,0.174300146434842,2.41934920000918,2.42740475516779,2.43131116364604,2.42668265946593,0.174300146434842,2.42765413015273,2.42463342481141,2.42549501339001,2.42594849863788,0.174300146434842,2.42687494416582,2.42720888166931,2.33771480906481,2.33572402852672,0.174300146434842,2.33507985355017,2.333523461301,2.33324678592964,2.33242328157893,0.174300146434842,2.33303136277813,2.33456557741087,2.33129353401656,2.33470541001741,0.174300146434842,2.33415423923774,2.33425999590743,2.334860315881,2.33567989834918,0.174300146434842,2.33603979801173,2.33756647117958,2.33910684653556
0.173874047254928,2.37193046941284,2.37346254755734,2.3774761328239,2.37241433793083,0.173874047254928,2.29153171914655,2.290731602158,2.28777861529476,2.2906358373239,0.173874047254928,2.28840355351405,2.29122942186492,2.28704110457276,2.2899182786335,0.173874047254928,2.28892141300953,2.29140257950529,2.28818013872971,2.29060648864888,0.173874047254928,2.29115784652657,2.28819826633551,2.2929107577544,2.28915041757798,0.173874047254928,2.28965062854855,2.29270118126649,2.28917206342339,2.2930249102643,0.173874047254928,2.29208129899565,2.29428462418021,2.29016241964076,2.29460198092578,0.173874047254928,2.29228966876463,2.29615781843452,2.29094365619418,2.29524630698075,0.173874047254928,2.29573925777198,2.292187231511,2.29744828063425,2.29389163293128,0.173874047254928,2.29570797087492,2.29780315780894,2.29375294935192,2.29817198904471,0.173874047254928,2.29875537503092,2.29547436028155,2.2999936770209,2.29709469791534,0.173874047254928,2.29976776995139,2.29961480197881,2.30201608739102,2.29950446022986,0.173874047254928,2.30058875953847,2.30283663877687,2.30099680196883,2.30343634438598,0.173874047254928,2.3048575698591,2.30527548877559,2.30560231413529,2.31001798059052,0.173874047254928,2.31007839908485,2.40296605484978,2.40234039802738,2.40255645345348,0.173874047254928,2.40391460963528,2.40224811450095,2.40531447039105,2.40480856675877,0.173874047254928,2.40646084675228,2.40596438360532,2.40617998715139,2.40581154450235,0.173874047254928,2.40609809076118,2.40619603396221,2.40699574720101,2.40749603877192,0.173874047254928,2.4065423911971,2.40719319122783,2.40817385476903,2.40826883836962,0.173874047254928,2.31399111136282,2.31372888622053,2.31372932989889,2.31408349950168,0.173874047254928,2.3137174026737,2.31462445930841,2.31340436065802,2.31413667939193,0.173874047254928,2.31472940218895,2.31681205111755,2.31585260803697,2.31748088729648,0.173874047254928,2.31999144607076,2.31787011788416,2.31864910393659,2.31851762532952,0.173874047254928,2.32396155456479,2.34332832576812,2.41782275584347,2.41926892362322,0.173874047254928,2.41577748836011,2.42182329671423,2.41426623778638,2.41468742666791,0.173874047254928,2.41948507693366,2.41657149073692,2.4182135868658,2.41871318211627,0.173874047254928,2.4193140298291,2.41917353248387,2.4213129150129,2.42151933287609,0.173874047254928,2.42112024265435,2.41903415839863,2.4202999392152,2.41881089358417,0.173874047254928,2.42838116896484,2.41736203460174,2.42549107260163,2.41980088201349,0.173874047254928,2.41896814782934,2.42465388620407,2.42577559077723,2.42540470967341,0.173874047254928,2.42610074435543,2.42662713024968,2.33841390070908,2.33591360145597,0.173874047254928,2.33485630529374,2.33363014320828,2.33342413732377,2.33217988707142,0.173874047254928,2.33317086892292,2.33223345298766,2.33491461771077,2.33238918759385,0.173874047254928,2.3331733553117,2.33799347533541,2.33500076249052,2.33784378312138,0.173874047254928,2.33547260407585,2.33739920280645,2.33746232050175
0.173622004184261,2.3714782321335,2.36873714277292,2.37325924037365,2.37046934913948,0.173622004184261,2.36024889130725,2.28913400957858,2.29187407678711,2.28869250284868,0.173622004184261,2.29006406128095,2.28732325914831,2.29067169255506,2.28767347292809,0.173622004184261,2.29037729198297,2.28780227885744,2.29184730666275,2.28835852282229,0.173622004184261,2.289186742477,2.29081404550376,2.28761709236174,2.29135922694761,0.173622004184261,2.29139601273113,2.28878841896252,2.29373606895053,2.29051639188994,0.173622004184261,2.29346421733733,2.29049997947168,2.29454737991835,2.29171558864791,0.173622004184261,2.29454546813694,2.29057012059024,2.29612867113878,2.29235121492554,0.173622004184261,2.29330098936694,2.29697486712393,2.29188139742314,2.29616995973436,0.173622004184261,2.29723434983402,2.29408980440486,2.29917667243317,2.29589461786791,0.173622004184261,2.29632568142236,2.29979110925451,2.29563459527768,2.29950600289306,0.173622004184261,2.29831149631406,2.30080458580825,2.29721632660604,2.30140478230867,0.173622004184261,2.30224342310252,2.30053638145267,2.30245652912179,2.30391856095615,0.173622004184261,2.30491928624836,2.30548066742595,2.30996770637284,2.30946251811047,0.173622004184261,2.31364733405442,2.40090539494002,2.40183563083123,2.40249128774744,0.173622004184261,2.40222799437198,2.40417781093933,2.40358919691051,2.40442452276622,0.173622004184262,2.40347289415094,2.40372215414092,2.40432928027495,2.40673336933076,0.173622004184262,2.40481281841785,2.40450673699162,2.40472665928194,2.40474924933283,0.173622004184261,2.40844974837019,2.4102177277796,2.40912798099809,2.40927107800684,0.173622004184261,2.31314618995003,2.31325271574562,2.31282723986998,2.31255377284859,0.173622004184262,2.31176001974448,2.3130696213438,2.31451176813608,2.31321880650014,0.173622004184261,2.31456485462058,2.31424522940522,2.31710734107743,2.31773848039752,0.173622004184262,2.31602142362009,2.31598996917125,2.31692241483263,2.31676813931772,0.173622004184261,2.31785461612364,2.31958986188222,2.31951914206264,2.41696078724895,0.173622004184261,2.41340998751332,2.41266090527754,2.41215818083293,2.41525125258314,0.173622004184261,2.41737156840224,2.41517737835538,2.41780665755984,2.41811462756031,0.173622004184261,2.41774067886948,2.41884395932688,2.41954582586043,2.41904422554242,0.173622004184262,2.4185360851003,2.42125288727281,2.41706983474103,2.42031490678999,0.173622004184261,2.41820021861777,2.41722277356262,2.41646943689811,2.41684532383406,0.173622004184261,2.41792390714641,2.41845252050189,2.4254842765997,2.42553409268676,0.173622004184261,2.42657687387461,2.42596933998568,2.42109092481912,2.33718171819896,0.173622004184262,2.33567777208246,2.33605254139959,2.3338910469064,2.33256769565309,0.173622004184261,2.33249083612774,2.3330423139956,2.33169682167615,2.33394273886072,0.173622004184261,2.3332863413655,2.33500515538685,2.335531979345,2.33326558344068,0.173622004184261,2.33536250977817,2.33571816104214,2.33672507706547
0.173540403369638,2.37047544472652,2.36831148426429,2.36633444543856,2.36254418612688,0.173540403369638,2.2921358838507,2.2908513639868,2.28776105632859,2.29077050197899,0.173540403369638,2.28779087466689,2.29016548114439,2.28655513179302,2.28973981611286,0.173540403369638,2.28827983934738,2.29086854139086,2.28646296632469,2.29043539224116,0.173540403369638,2.29111871757439,2.28800239799332,2.29266675930514,2.28905141759968,0.173540403369638,2.28995528277107,2.29305793108714,2.28903530378049,2.29249556580914,0.173540403369638,2.2908288151002,2.29475101122281,2.29002708913691,2.29384818366312,0.173540403369638,2.29194041745746,2.29555895391259,2.291088656512,2.29450644260815,0.173540403369638,2.29538876864742,2.29197822320787,2.29647351859543,2.29375572428505,0.173540403369638,2.29542121730862,2.29736108632094,2.294682826994,2.29812249486597,0.173540403369638,2.29839777616959,2.29586745972995,2.29993023927649,2.29718148055669,0.173540403369638,2.29984949463049,2.29704025474973,2.30264498594533,2.2988514924703,0.173540403369638,2.30030696045719,2.30268131578609,2.30281877951386,2.30505098119883,0.173540403369638,2.30556285922729,2.30720135390439,2.30843297110489,2.31244727913314,0.173540403369638,2.40080418042369,2.4005040132892,2.40053216084571,2.40086009030884,0.173540403369638,2.40301895639804,2.40266429649717,2.40267170378812,2.40236264392634,0.173540403369638,2.40337922996551,2.40329242185486,2.40354315633829,2.40460228614468,0.173540403369638,2.4027451064053,2.40448830302135,2.40480758748827,2.40546483012206,0.173540403369638,2.40338879707772,2.40444784935193,2.31266272855934,2.31249620498799,0.173540403369638,2.31163015523855,2.31225643266978,2.3141947922103,2.31183644443368,0.173540403369638,2.31225385536439,2.31419780220042,2.3124817815224,2.31353073409152,0.173540403369638,2.31538868044965,2.31322929917027,2.31392682154399,2.31505294996031,0.173540403369638,2.31534591321965,2.31540225656588,2.31642905378904,2.31720693365122,0.173540403369638,2.31759030685158,2.31806656430129,2.32037450799726,2.40642043460717,0.173540403369638,2.41591977385993,2.41279111805702,2.41304425889218,2.41266683139901,0.173540403369638,2.41381755111343,2.41418450353349,2.41470489494213,2.41787839552837,0.173540403369638,2.41721614744415,2.41908220119787,2.41804148501761,2.41867180114382,0.173540403369638,2.41996886565619,2.41644483038452,2.42202410290213,2.41786361602305,0.173540403369638,2.41811623931115,2.41580819156866,2.41739688854392,2.41643475720266,0.173540403369638,2.41707512229979,2.41823192438415,2.42555641089348,2.42506463525731,0.173540403369638,2.42471609391644,2.42436066884219,2.4249865268452,2.33908811494887,0.173540403369638,2.33510121658831,2.33861261491308,2.33402645837599,2.33317661133529,0.173540403369638,2.33358181930506,2.33186997389621,2.33343283459888,2.33185486614405,0.173540403369638,2.33304096329206,2.33345022352419,2.33372180847597,2.33341367690542,0.173540403369638,2.33492750442307,2.33925630038272,2.33689565345862
0.173622004184261,2.36844673934777,2.36768508823228,2.36877925320185,2.36468393495706,0.173622004184261,2.29151886760854,2.28972388891009,2.29001410621967,2.28880937007349,0.173622004184261,2.2890166895536,2.28587262263631,2.29070733077033,2.28761045167015,0.173622004184261,2.28965731285002,2.28578828752573,2.29145933175848,2.28788310853178,0.173622004184261,2.28826690895674,2.29237503806664,2.28691717916251,2.2913537189714,0.173622004184261,2.29170492456081,2.2877362378526,2.2921619771761,2.28999677069584,0.173622004184261,2.29252226821496,2.28935884307662,2.29458160468447,2.29084717153246,0.173622004184261,2.29394156364954,2.29040433598458,2.29533777962106,2.29225719701422,0.173622004184261,2.29372688396737,2.29518206895441,2.29187940168211,2.29563340980998,0.173622004184261,2.2964746785197,2.29487426979691,2.29754334065242,2.29607187557486,0.173622004184261,2.2972759811426,2.2973617642966,2.29615644854863,2.2985784000185,0.173622004184261,2.2982697789801,2.30183403112357,2.29677378676363,2.30152476773774,0.173622004184261,2.3022670710212,2.30169879921321,2.3069559895893,2.30482420537617,0.173622004184261,2.30548354462967,2.30853815619914,2.39120992564327,2.3970672647042,0.173622004184261,2.40061298280813,2.4003893158879,2.40029881402834,2.40094239787064,0.173622004184261,2.40233051258427,2.40136902978,2.40139548095429,2.40230450178903,0.173622004184261,2.40170508028338,2.40167588191092,2.40195388659597,2.40156047736591,0.173622004184262,2.40184147417806,2.40124855625796,2.40385410244585,2.40158355555536,0.173622004184261,2.40288209485065,2.40294977495589,2.31160512324049,2.31126496302141,0.173622004184262,2.31179684739426,2.31185623492515,2.31129593728063,2.31205313610274,0.173622004184262,2.31147295641797,2.3119407920618,2.31296890607008,2.31242601335947,0.173622004184261,2.31216871426876,2.31239447429912,2.31357623081561,2.31485290547833,0.173622004184262,2.31492999247446,2.31518881075552,2.31533697821759,2.31780908133895,0.173622004184262,2.31691418078573,2.31818626529469,2.3182671610379,2.32133759009337,0.173622004184261,2.41477288679484,2.41233892428209,2.41325429647096,2.41320251306732,0.173622004184261,2.41378605818157,2.4188406761236,2.41504334670383,2.41485479878773,0.173622004184261,2.41489191693843,2.41622001703198,2.41688428055047,2.41769425762103,0.173622004184262,2.41799152399399,2.42086145935237,2.41670639820624,2.41978524004956,0.173622004184261,2.41769433455449,2.41777092425461,2.41581832685215,2.41712565786003,0.173622004184261,2.41726844740534,2.42028342594784,2.42550022110617,2.42308962042516,0.173622004184261,2.42492275536052,2.42449384256862,2.42412956580801,2.4237668645767,0.173622004184262,2.33716577259954,2.33469712686816,2.33424551669819,2.33917814279814,0.173622004184261,2.33377206355602,2.33288383805176,2.33052166160685,2.33336868141324,0.173622004184261,2.33295271084715,2.3318695540164,2.33301532991966,2.3328902574183,0.173622004184261,2.33331634151061,2.33512107324803,2.33570767293116
0.173874047254928,2.3691929014743,2.36827663509391,2.36923510649639,2.36686814787479,0.173874047254928,2.28926632719101,2.28969795346685,2.28795123143442,2.28850383667901,0.173874047254928,2.2876215512278,2.29008572597445,2.28749074287629,2.28784088140791,0.173874047254928,2.2869800936314,2.29101388623249,2.28561192443717,2.2898523101384,0.173874047254928,2.2901095481044,2.28757949790188,2.29145226719975,2.28957338398798,0.173874047254928,2.28918824086034,2.29296151846712,2.28736042523136,2.29184456405063,0.173874047254928,2.29050535364335,2.29356964952481,2.28893056551451,2.29321305663487,0.173874047254928,2.29233029880969,2.29354646665557,2.29030837664023,2.29415503470297,0.173874047254928,2.29477024268858,2.2922322976847,2.2962368179861,2.2929967274569,0.173874047254928,2.2942240538918,2.29714888605811,2.29462763844004,2.29717665827545,0.173874047254928,2.29795632354952,2.29627459213809,2.29837976743325,2.29908428705348,0.173874047254928,2.30042726257918,2.29780657816825,2.30161006609758,2.29935248283023,0.173874047254928,2.30134838598876,2.30201115836514,2.30440801733585,2.3047106263201,0.173874047254928,2.3065908366118,2.38688978185762,2.39746727809489,2.39753585131846,0.173874047254928,2.39838241615466,2.39903049944026,2.40002732270103,2.40077549075219,0.173874047254928,2.39978246142726,2.40034351933987,2.40117324960125,2.40097247898841,0.173874047254928,2.40110160044417,2.40133812803715,2.39974303872677,2.40077829261993,0.173874047254928,2.40066627740238,2.40193503496031,2.40444756862443,2.40134001182076,0.173874047254928,2.40585323603724,2.31114143816152,2.30920974114838,2.30925646324478,0.173874047254928,2.31113534283563,2.31127301713073,2.31086829494991,2.31092797767032,0.173874047254928,2.31149240263103,2.3117847712435,2.31086699489862,2.31068056101537,0.173874047254928,2.31250664901953,2.31248018117208,2.3160262541197,2.31299247597314,0.173874047254928,2.31327934278489,2.31791913990059,2.3144261232819,2.31443495270377,0.173874047254928,2.31523694343436,2.31804802262099,2.31822305240509,2.32706778230073,0.173874047254928,2.41728858771872,2.41412884820184,2.41379006267016,2.41383455678032,0.173874047254928,2.41402941633158,2.4120790820831,2.4122525852405,2.41334327761423,0.173874047254928,2.41424966542277,2.41449059231985,2.41476328947433,2.42194091793745,0.173874047254928,2.42004041232461,2.4180608031177,2.41923973198321,2.41740511618926,0.173874047254928,2.41831605233727,2.41591387941279,2.41845591117489,2.41684694746178,0.173874047254928,2.41853733738295,2.42091219393876,2.42110051518934,2.42285038196912,0.173874047254928,2.42487230941635,2.42255450766196,2.42204408896319,2.42278375589014,0.173874047254928,2.42389598224676,2.33791310947142,2.33385088344564,2.33307208445277,0.173874047254928,2.33146291805694,2.33008058486717,2.33283985545973,2.33322942279842,0.173874047254928,2.33152829487985,2.33270411051136,2.33184832153425,2.33299083260484,0.173874047254928,2.33367455042379,2.33338616865482,2.33511456450132
