2.21251384204494,2.21331359763467,2.21486312408978,2.21587281552181,2.21662258638719,2.21840204257434,2.21910182871535,2.22032145598969,2.22143111687044,2.22284068609734,2.22396034392296,2.22552986426781,2.22646957708574,2.22743928073829,2.22963860861005,2.23021843141261,2.23109816256131,2.23198789065489,2.23330748737794,2.23421720936126,2.235716751092,2.23650650973686,2.23750620422403,2.23889577956118,2.23998544655219,2.24072522047269,2.24197483858165,2.24334442002906,2.24433411757135,2.24550376012133,2.24691332934823,2.24763310937899,2.24962250140845,2.25058220811612,2.25188181094943,2.25475093412759,2.25828985261215,2.26036921714545,2.30880441504851,2.30938423785107,2.31036393844849,2.31026396899977,2.30946421341004,2.30902434783569,2.30777472972673,2.30832456169467,2.3074348336011,2.30790469001007,2.30875443032415,2.30940423174081,2.3110637245895,2.31218338241512,2.31401282332663,2.31572230089968,2.317021903733,2.31788164099196,2.31921123465988,2.31789163793683,2.31289316550101,2.27874360181951,2.27669422812083,2.27558456724008,2.27600443892469,2.27583449086187,2.27653427700288,2.27645430144391,2.27719407536441,2.27781388594645,2.27841370263875,2.27901351933105,2.28095292663614,2.28176267917075,2.28323223006688,2.28589141740273,2.33043780375073,2.33255715606351,2.33298702469299,2.33300701858274,2.33122756239559,2.33042780680586,2.33022786790842,2.32813850643025,2.32847840255589,2.3282284789341,2.32861835978409,2.329248167311,2.3306577365379,2.33269711329172,2.33341689332247,2.33452655420322,2.33509638006091,2.33478647476989,2.33451655725835,2.29046002120907,2.29049001204368,2.28843064140012,2.28652122492964,2.28571147239504,2.28594140212709,2.28535158237966,2.28568148156043,2.28506167097838,2.28487172902582,2.28541156404889,2.28484173819121,2.28444186039634,2.28472177485275,2.2845618237348,2.2849517045848,2.28501168625403,2.28422192760917,2.28528160376556,2.28525161293095,2.28541156404889,2.28568148156043,2.28602137768606,2.28679114244118,2.288440638345,2.2887905314155,2.28993018313087,2.29046002120907,2.29071994177573,2.29299924520646,2.29396894885901,2.29649817591153,2.35289094193241,2.3536707036324,2.35418054782086,2.35351075251446,2.35332081056189,2.35349075862471,2.35338079223112,2.3528609510978,2.35247107024781,2.35322084111318,2.35483034923751,2.35520023619776,2.35844924328104,2.36066856504255,2.36438742853479,2.36731653338218,2.36929592846676,2.37131531133083,2.36990574210393,2.3703755985129,2.36723655782321,2.30769475416776,2.30576534380754,2.30635516355496,2.3060952429883
2.21293371372955,2.21351353653211,2.21539296216797,2.2165825986077,2.21652261693847,2.21791219227563,2.21949170956534,2.2206713490602,2.22181100077556,2.2229606494358,2.22365043863194,2.22559984288191,2.22640959541651,2.22758923491137,2.22961861472031,2.23135808312797,2.23150803730105,2.23206786621386,2.23243775317411,2.2346970627151,2.23552680913944,2.23655649446122,2.23728627143685,2.23888578261631,2.24006542211116,2.24104512270858,2.24237471637651,2.24320446280086,2.24440409618545,2.24571369596364,2.24701329879695,2.24754313687515,2.24965249224306,2.25076215312381,2.25353130685325,2.25549070804809,2.25887967235958,2.26114897884544,2.30931425923697,2.30998405454337,2.30997405759849,2.31022398122029,2.30961416758312,2.30857448531647,2.307364854987,2.30763477249853,2.30723489470367,2.30713492525495,2.30827457697032,2.30946421341004,2.31053388651131,2.31204342518692,2.31372291192536,2.31574229478943,2.31733180902402,2.31810157377913,2.31768170209452,2.31969108801372,2.31094376125104,2.27774390733235,2.27579450308238,2.27566454279905,2.27566454279905,2.27581449697212,2.27692415785288,2.27714409064005,2.27823375763106,2.27803381873363,2.27842369958362,2.27896353460669,2.28059303662076,2.28193262723356,2.28311226672842,2.28586142656812,2.33112759294687,2.33123755934046,2.33203731493019,2.3318573699225,2.33054777014431,2.33003792595586,2.32961805427125,2.32838843005204,2.32738873556488,2.32759867140718,2.32786858891872,2.32926816120075,2.33043780375073,2.33180738519814,2.33325694220453,2.33457653892758,2.33471649615579,2.33435660614041,2.33410668251862,2.29082990816932,2.28964027172959,2.28775084914885,2.286571209654,2.28587142351299,2.28595139907196,2.28677114855143,2.28574146322966,2.28464179929378,2.28508166486813,2.28521162515146,2.28506167097838,2.28500168930915,2.28473177179762,2.28557151516684,2.28496170152967,2.28506167097838,2.28453183290019,2.28578145100914,2.28537157626941,2.28626130436298,2.28568148156043,2.28579144795401,2.28741095302322,2.28787081248731,2.28832067500654,2.28927038476934,2.28956029617062,2.29039004259497,2.29232944990006,2.2942188724808,2.29618827062051,2.3466228574979,2.35366070668753,2.35426052337983,2.35469039200931,2.35357073418369,2.35356073723881,2.35274098775934,2.35254104886191,2.35262102442088,2.35337079528625,2.35437048977342,2.35679974737722,2.35879913635155,2.36140833896305,2.36348770349635,2.36862613316036,2.36937590402574,2.37315474918721,2.37020565045008,2.36692665253219,2.36597694276938,2.30731487026264,2.30618521549215,2.30540545379216,2.30631517577548
2.21259381760392,2.21360350903595,2.21448324018466,2.21594279413591,2.21687251000898,2.21818210978716,2.21964166373842,2.22131115353198,2.22211090912171,2.22252078386145,2.2242302614345,2.22545988565371,2.22662952820369,2.22782916158829,2.22945866360236,2.23008847112927,2.23107816867157,2.23248773789847,2.23336746904717,2.23406725518818,2.23498697411637,2.23651650668173,2.23775612784582,2.23890577650606,2.24032534267783,2.24082518992141,2.24208480497523,2.24350437114701,2.2444240900752,2.24598361347517,2.24668339961619,2.24763310937899,2.250202324211,2.25100207980073,2.25298147488531,2.25583060417373,2.25846979761984,2.26246857556849,2.30783471139596,2.3101839934408,2.31150359016385,2.30982410342542,2.30924428062287,2.30807463807288,2.30756479388443,2.30726488553828,2.30732486720751,2.30763477249853,2.3083145647498,2.30971413703183,2.31052388956643,2.31219337936,2.31350297913818,2.31527243838046,2.31681196789069,2.31684195872531,2.31590224590737,2.3150824964279,2.31291315939075,2.27747398982082,2.27646429838878,2.27558456724008,2.27532464667341,2.27620437782212,2.27616439004263,2.27658426172724,2.27757395926953,2.27805381262337,2.27865362931567,2.27987325659001,2.28121284720281,2.28216255696561,2.28432189705788,2.33087766932508,2.330727715152,2.33182737908788,2.33309699108658,2.33163743713532,2.33057776097893,2.32954807565715,2.32859836589435,2.32789857975333,2.32706883332899,2.32725877528155,2.32753868973795,2.32913820091741,2.33018788012894,2.33186736686737,2.33255715606351,2.33387675278657,2.33433661225066,2.33392673751093,2.33360683527503,2.29070994483086,2.28895048253345,2.28712104162194,2.28574146322966,2.28594140212709,2.28539157015915,2.28744094385783,2.28557151516684,2.28528160376556,2.28515164348223,2.2850216831989,2.28494170763993,2.28391202231815,2.28467179012839,2.28522162209633,2.28489172291557,2.28426191538865,2.28469178401813,2.28535158237966,2.28582143878863,2.28561150294632,2.28580144489889,2.28654121881939,2.28706105995271,2.28841064751038,2.28810074221936,2.28882052225012,2.2891104336514,2.29014011897317,2.2930192390962,2.29485867695259,2.34300396345437,2.3450733310428,2.35369069752215,2.35510026674905,2.35458042561572,2.35375067919138,2.35338079223112,2.35355074029394,2.35274098775934,2.3527209938696,2.35276098164908,2.35456043172598,2.3558900253939,2.35703967405414,2.36107843978228,2.36619687555656,2.36818626758601,2.36863613010524,2.36857614843601,2.36857614843601,2.36613689388733,2.36627685111553,2.30686500774342,2.30715491914469,2.30571535908318,2.3068350169088
2.21264380232828,2.21365349376031,2.21460320352312,2.21522301410516,2.21628269026155,2.21831207007049,2.21953169734483,2.2206713490602,2.22203093356274,2.22327055472682,2.22393035308835,2.22576979094473,2.22672949765241,2.22804909437546,2.22916875220108,2.22951864527159,2.23129810145874,2.23263769207154,2.23359739877922,2.23494698633689,2.23474704743946,2.2371263203189,2.23810602091632,2.23879581011247,2.24006542211116,2.24118507993679,2.2416749302355,2.24364432837521,2.2446340259175,2.24565371429441,2.24711326824567,2.24803298717386,2.24914264805461,2.25105206452509,2.2541511174353,2.25660036892885,2.25937951960316,2.30984409731516,2.31036393844849,2.31051389262156,2.31059386818054,2.31126366348694,2.30881441199338,2.30745482749084,2.30700496497162,2.30694498330239,2.30737485193187,2.30783471139596,2.30798466556904,2.30938423785107,2.30999405148824,2.31196344962795,2.31323306162665,2.31543238949841,2.31628212981249,2.31637210231634,2.31605220008045,2.3157522917343,2.31407280499586,2.27792385234004,2.27714409064005,2.2759644511452,2.27564454890931,2.27599444197981,2.27592446336571,2.27700413341185,2.27769392260799,2.27817377596183,2.27889355599259,2.27920346128361,2.27990324742462,2.28303229116944,2.28455182678993,2.28708105384245,2.33140750740328,2.33194734242634,2.33343688721222,2.33029784652252,2.32980799622381,2.32781860419436,2.32759867140718,2.32727876917129,2.32684890054181,2.32735874473026,2.32700885165976,2.32876831395716,2.32985798094817,2.33116758072636,2.33290704913402,2.33377678333785,2.33372679861349,2.3334068963776,2.33156745852122,2.29008013730394,2.28880052836038,2.2871010477322,2.28670116993733,2.2860413715758,2.28556151822197,2.28552153044248,2.28548154266299,2.2852316190412,2.28515164348223,2.28511165570274,2.28491171680531,2.28505167403351,2.28525161293095,2.28497169847454,2.28553152738735,2.28496170152967,2.285091661813,2.28474176874249,2.28525161293095,2.28548154266299,2.28603137463093,2.28610135324503,2.2867111668822,2.28692110272451,2.28822070555782,2.28920040615524,2.28916041837575,2.29157967903469,2.29119979512957,2.29416888775644,2.34496336464921,2.34606302858509,2.35314086555421,2.3542705203247,2.35424052949008,2.35366070668753,2.35283096026318,2.35270099997985,2.35194123216961,2.35262102442088,2.35355074029394,2.35443047144265,2.35674976265287,2.35753952129772,2.36165826258484,2.36410751407839,2.3683662125937,2.36785636840525,2.36786636535012,2.36842619426293,2.36799632563345,2.36663674113091,2.30653510856265,2.30631517577548,2.30573535297292,2.30670505662547
2.2124238695411,2.21375346320903,2.21484313020003,2.21592280024617,2.21660259249744,2.21817211284229,2.21939174011663,2.22080130934353,2.22205092745248,2.22304062499477,2.22410030115117,2.22557984899217,2.22669950681779,2.22730932045496,2.229798559728,2.23028841002671,2.23182793953694,2.23235777761514,2.23333747821256,2.23493698939202,2.23563677553303,2.23683640891763,2.23775612784582,2.23873582844324,2.23975551682014,2.24080519603167,2.24230473776241,2.2436843161547,2.24421415423289,2.24577367763287,2.24710327130079,2.24802299022898,2.24975246169178,2.25176184761098,2.25312143211352,2.25471094634811,2.25951947683136,2.26141889635697,2.31019399038567,2.31112370625873,2.30991407592926,2.31306311356383,2.30921428978825,2.30709493747546,2.30679502912932,2.30688500163316,2.30708494053059,2.30710493442034,2.30792468389981,2.30917430200876,2.31023397816516,2.31143361154975,2.31308310745357,2.31453266445996,2.31622214814326,2.31592223979712,2.31590224590737,2.31549237116764,2.31512248420739,2.27743400204133,2.27687417312852,2.27552458557085,2.2758944725311,2.27581449697212,2.27632434116058,2.27694415174262,2.27809380040286,2.27820376679644,2.27852366903234,2.27953336046437,2.28055304884128,2.28179267000536,2.28422192760917,2.32834844227256,2.33079769376611,2.33207730270967,2.33152747074173,2.33040781291611,2.32945810315331,2.32860836283922,2.32718879666745,2.32683890359694,2.32624908384951,2.32629906857387,2.32692887610078,2.32808852170589,2.32922817342126,2.33062774570329,2.33299702163787,2.33367681388914,2.33351686277119,2.33381677111734,2.33403670390451,2.28936035727319,2.28790080332193,2.28771086136937,2.28615133796939,2.28581144184376,2.28528160376556,2.28541156404889,2.28533158848992,2.28506167097838,2.28471177790788,2.28441186956173,2.28443186345147,2.28476176263224,2.28553152738735,2.28487172902582,2.28432189705788,2.28518163431684,2.28485173513608,2.28540156710402,2.28492171375018,2.28522162209633,2.28547154571812,2.28634127992195,2.28753091636168,2.28699108133861,2.28730098662963,2.28891049475396,2.28973024423344,2.29046002120907,2.29298924826159,2.29321917799364,2.34618299192355,2.34548320578253,2.35254104886191,2.35396061503368,2.35377067308112,2.3537406822465,2.35289094193241,2.35284095720806,2.35173129632731,2.35211118023243,2.35282096331831,2.35383065475035,2.36116841228613,2.35847923411566,2.36008874223999,2.36401754157454,2.3670266219809,2.36708660365013,2.36697663725655,2.36833622175909,2.36615688777707,2.36668672585527,2.30665507190111,2.30536546601267,2.30604525826394,2.30604525826394
2.21269378705263,2.21400338683082,2.21460320352312,2.21634267193078,2.21693249167821,2.21830207312562,2.21952170039996,2.22100124824096,2.22179100688582,2.22311060360888,2.22335053028579,2.22554985815755,2.22627963513318,2.22763921963572,2.22965860249979,2.23055832753824,2.2308182481049,2.2320178814895,2.23344744460614,2.23448712687279,2.23482702299843,2.23692638142147,2.23746621644454,2.23843592009709,2.23990547099322,2.24094515325987,2.24210479886498,2.24321445974573,2.24404420617007,2.24550376012133,2.24719324380464,2.24845285885846,2.25070217145458,2.25212173762635,2.25359128852248,2.25600055223655,2.26039920798007,2.26278847780439,2.31002404232285,2.31081380096771,2.31076381624335,2.30974412786645,2.30717491303444,2.30679502912932,2.30629518188573,2.30638515438958,2.30628518494086,2.30666506884598,2.30751480916007,2.30918429895364,2.31006403010234,2.31135363599078,2.31316308301255,2.31500252086893,2.31604220313558,2.31419276833432,2.31576228867917,2.31557234672661,2.31476259419201,2.27747398982082,2.27607441753879,2.27592446336571,2.275434613067,2.27586448169648,2.27627435643622,2.2772340631439,2.27806380956824,2.27851367208747,2.27872360792977,2.28014317410154,2.28116286247845,2.28229251724894,2.28451183901045,2.32851839033537,2.3305877579238,2.33242719578018,2.33217727215839,2.33022786790842,2.32987797483792,2.32730876000591,2.32684890054181,2.32624908384951,2.32590918772388,2.32593917855849,2.32665895858925,2.32785859197385,2.32909821313793,2.33091765710457,2.33218726910326,2.3334068963776,2.33322695136991,2.33321695442504,2.33358684138529,2.28917041532063,2.28783082470783,2.28653122187451,2.28618132880401,2.28543155793864,2.28557151516684,2.28526160987582,2.28470178096301,2.28477175957711,2.28473177179762,2.28409196732584,2.28443186345147,2.28473177179762,2.28552153044248,2.28454182984506,2.28457182067968,2.28458181762455,2.2849517045848,2.28478175652198,2.2851616404271,2.28571147239504,2.28524161598607,2.28596139601683,2.28651122798477,2.28716102940143,2.28800077277064,2.2885805955732,2.28960028395011,2.28970025339882,2.2912597767988,2.29456876555131,2.34428357239794,2.34448351129537,2.3537406822465,2.35435049588367,2.35415055698624,2.35316085944395,2.35290093887729,2.35183126577602,2.35112148269014,2.35183126577602,2.35251105802729,2.35336079834138,2.35624991540928,2.36020870557845,2.36207813426945,2.36461735826684,2.36578700081682,2.36656676251681,2.36785636840525,2.36830623092447,2.36772640812192,2.30813461974211,2.30659509023188,2.30469567070627,2.30586531325625,2.30511554239088
2.21279375650135,2.21306367401288,2.21516303243593,2.21583282774233,2.21704245807179,2.21796217699998,2.21942173095124,2.22094126657173,2.22170103438197,2.22316058833323,2.22402032559219,2.22557984899217,2.22641959236139,2.22780916769854,2.22891882857929,2.23002848946005,2.23110815950618,2.23221782038693,2.23227780205616,2.23438715742408,2.23546682747021,2.23791607896376,2.23747621338941,2.23815600564068,2.23947560236374,2.24055527240987,2.24233472859703,2.2430145208483,2.24433411757135,2.24572369290851,2.24715325602515,2.24924261750332,2.25042225699818,2.25187181400456,2.25366126713659,2.25655038420449,2.2593995134929,2.26439798592872,2.31117369098309,2.31156357183308,2.30935424701645,2.30894437227672,2.30696497719213,2.30704495275111,2.30708494053059,2.30614522771266,2.30591529798061,2.30653510856265,2.30742483665623,2.30932425618184,2.31086378569207,2.30790469001007,2.30874443337928,2.31279319605229,2.31721184568556,2.313672927201,2.3152224536561,2.31438271028688,2.27750398065543,2.27718407841954,2.27554457946059,2.2752946558388,2.27531464972854,2.27593446031058,2.27636432894006,2.27705411813621,2.27770391955286,2.27820376679644,2.27861364153618,2.27941339712591,2.28089294496691,2.28236249586304,2.28522162209633,2.32820848504435,2.33247718050454,2.33204731187506,2.33083768154559,2.33020787401868,2.32777861641487,2.32678891887258,2.32607913578669,2.32594917550336,2.32533936186619,2.32589919077901,2.3264990074713,2.32787858586359,2.32811851254051,2.33034783124688,2.33160744630071,2.33303700941735,2.33236721411095,2.33227724160711,2.29076992650009,2.28884051613986,2.28748093163732,2.2866411882681,2.28608135935529,2.28558151211171,2.28532159154505,2.28501168625403,2.28514164653736,2.28466179318352,2.28451183901045,2.28454182984506,2.28513164959249,2.28454182984506,2.28483174124634,2.28412195816045,2.28430190316814,2.28419193677455,2.28499169236428,2.28494170763993,2.28466179318352,2.28558151211171,2.28528160376556,2.28582143878863,2.28679114244118,2.28673116077195,2.28771086136937,2.28889050086422,2.28884051613986,2.29031006703599,2.2913297554129,2.29246940712826,2.34710271085174,2.3466228574979,2.35287094804267,2.35327082583754,2.35371069141189,2.35340078612087,2.35177128410679,2.35154135437474,2.35140139714654,2.3515913390991,2.35227113135037,2.35266101220037,2.35846923717079,2.35857920356437,2.36149831146689,2.36269794485149,2.36632683583989,2.364137504913,2.3668166861386,2.36819626453088,2.36850616982191,2.30931425923697,2.30693498635752,2.30518552100498,2.30353602510116,2.3040858570691
2.21238388176161,2.21350353958724,2.21434328295645,2.21499308437311,2.21667257111154,2.21890188981792,2.21921179510894,2.22017150181662,2.2216910374371,2.22292066165631,2.22374041113579,2.22557984899217,2.22636960763703,2.2271193785024,2.22888883774468,2.22994851390107,2.23076826338055,2.23252772567795,2.23308755459076,2.2343071818651,2.23488700466766,2.23701635392532,2.23799605452274,2.23854588649068,2.23917569401759,2.24070522658295,2.24207480803036,2.24358434670598,2.24401421533546,2.24528382733416,2.24679336600977,2.24813295662257,2.24994240364434,2.25136196981611,2.25393118464812,2.2563704391968,2.26163882914415,2.30963416147286,2.31034394455874,2.31082379791258,2.30916430506389,2.30829457086006,2.30812462279724,2.30612523382292,2.30598527659471,2.30580533158702,2.30590530103574,2.3061652216024,2.30704495275111,2.30816461057673,2.30952419507927,2.31334302802023,2.30857448531647,2.31511248726251,2.31192346184846,2.30959417369337,2.30984409731516,2.31632211759198,2.2789935254413,2.27576451224777,2.27556457335033,2.27503473527214,2.2752246772247,2.27565454585418,2.27613439920802,2.27673421590031,2.27748398676569,2.27777389816696,2.27861364153618,2.27916347350412,2.28150275860408,2.28252244698099,2.2864312524258,2.3303078434674,2.330727715152,2.33119757156097,2.33042780680586,2.33026785568791,2.32802854003666,2.32660897386489,2.32556929159824,2.32505944740979,2.32484951156748,2.32517941074825,2.32560927937773,2.32697886082514,2.32838843005204,2.33045779764047,2.33168742185968,2.33223725382762,2.33222725688275,2.33100762960841,2.28959028700523,2.28860058946294,2.28816072388859,2.28587142351299,2.28540156710402,2.2856214998912,2.28510165875787,2.28514164653736,2.28408197038096,2.28441186956173,2.2843518878925,2.28397200398738,2.28429190622327,2.28397200398738,2.28447185123096,2.28461180845916,2.28443186345147,2.28439187567199,2.28546154877325,2.28401199176686,2.28469178401813,2.28469178401813,2.28550153655274,2.28546154877325,2.28685112411041,2.2871710263463,2.28821070861295,2.2891104336514,2.29212951100263,2.29124977985393,2.29197955682955,2.29417888470131,2.34678280861585,2.3474326100325,2.35518024230802,2.35313086860933,2.35345077084523,2.35256104275165,2.35299091138113,2.35177128410679,2.3520511985632,2.35158134215423,2.35201121078371,2.35387064252983,2.35528021175673,2.3599087972323,2.36345771266173,2.3631178165361,2.36543710774631,2.3647373216053,2.36804631035781,2.36798632868858,2.36821625842063,2.30788469612032,2.30484562487935,2.30391590900628,2.30400588151013,2.30413584179346
2.21254383287956,2.21312365568211,2.21419332878338,2.21622270859232,2.21719241224487,2.21763227781922,2.21959167901406,2.22066135211533,2.22159106798839,2.22293065860119,2.22378039891527,2.22533992231525,2.22625964124344,2.22752925324214,2.22783915853316,2.23023842530235,2.23102818394721,2.23258770734718,2.23293760041769,2.23454710854202,2.23562677858816,2.23686639975224,2.237586179783,2.23805603619197,2.2398754801586,2.24071522352782,2.24209480192011,2.24360434059572,2.24433411757135,2.24568370512902,2.24686334462388,2.24822292912642,2.24971247391229,2.2529514840507,2.25394118159299,2.25715020089679,2.26032922936596,2.30374596094347,2.31111370931386,2.31044391400746,2.30964415841773,2.30873443643441,2.30631517577548,2.30585531631138,2.305885307146,2.30590530103574,2.3062352002165,2.30625519410625,2.30700496497162,2.30840453725365,2.30945421646517,2.31322306468177,2.31331303718562,2.31372291192536,2.31460264307406,2.31005403315747,2.31064385290489,2.31126366348694,2.27785387372594,2.27667423423108,2.27561455807469,2.27511471083111,2.27560456112982,2.2759644511452,2.27642431060929,2.27716408452979,2.27729404481313,2.27819376985157,2.2787136109849,2.28085295718743,2.28138279526562,2.28281235838227,2.32767864696616,2.33070772126226,2.33129754100969,2.33129754100969,2.33094764793918,2.32945810315331,2.32677892192771,2.32728876611616,2.32562927326747,2.32465956961492,2.32478952989825,2.32499946574056,2.32556929159824,2.32678891887258,2.32874832006742,2.33012789845971,2.33144749518276,2.33133752878917,2.33183737603276,2.33198733020583,2.29126977374367,2.28996017396548,2.28716102940143,2.28694109661425,2.28549153960786,2.28553152738735,2.28511165570274,2.28534158543479,2.28480175041172,2.28480175041172,2.28458181762455,2.28417194288481,2.2844918451207,2.28460181151429,2.28408197038096,2.28409196732584,2.28394201315276,2.28479175346685,2.2842819092784,2.28520162820659,2.28533158848992,2.28501168625403,2.28540156710402,2.28585142962324,2.28644124937067,2.28659120354374,2.28834066889628,2.28942033894242,2.2906599601065,2.29122978596418,2.29155968514495,2.29388897330004,2.34941200511709,2.34880219147992,2.35268100609011,2.35375067919138,2.35402059670291,2.35262102442088,2.35193123522474,2.35320084722344,2.35066162322604,2.35118146435937,2.35235110690935,2.35383065475035,2.3568797229362,2.36121839701049,2.36147831757715,2.36287788985918,2.36297785930789,2.36800632257832,2.3680862981373,2.36810629202704,2.36871610566421,2.3066250810665,2.30496558821781,2.30377595177808,2.30404586928962,2.30463568903704
2.21303368317827,2.21285373817058,2.2144332554603,2.21616272692309,2.21708244585128,2.21831207007049,2.21958168206919,2.22153108631916,2.22221087857043,2.22338052112041,2.22407031031655,2.22593973900755,2.22593973900755,2.22749926240752,2.22889883468955,2.22989852917671,2.23130809840361,2.23213784482796,2.23381733156639,2.23447712992792,2.23539684885611,2.23679642113814,2.23710632642916,2.23887578567144,2.23984548932399,2.24159495467652,2.24214478664446,2.24346438336752,2.24434411451622,2.24585365319184,2.24703329268669,2.24832289857513,2.25064218978535,2.25233167346866,2.25440104105709,2.25745010924293,2.26148887497107,2.30924428062287,2.30974412786645,2.30964415841773,2.30961416758312,2.30939423479594,2.30728487942803,2.30600527048446,2.30573535297292,2.30554541102036,2.30652511161778,2.30628518494086,2.30730487331777,2.30911432033953,2.30979411259081,2.31208341296641,2.31287317161127,2.31356296080741,2.31479258502662,2.31485256669585,2.31380288748433,2.31216338852538,2.27753397149005,2.27626435949135,2.27559456418495,2.27524467111444,2.27541461917726,2.27625436254648,2.27592446336571,2.27687417312852,2.27779389205671,2.2782537515208,2.27903351322079,2.28002321076308,2.28125283498229,2.28405197954635,2.28700107828348,2.33056776403406,2.33119757156097,2.33126755017507,2.3303778220815,2.3279085766982,2.3270288455495,2.32605914189695,2.32523939241748,2.32414972542647,2.32421970404057,2.32460958489057,2.32555929465337,2.32658897997515,2.32859836589435,2.33016788623919,2.33083768154559,2.33211729048916,2.33144749518276,2.33093765099431,2.29071994177573,2.28884051613986,2.28704106606297,2.2864312524258,2.28571147239504,2.2852316190412,2.28512165264761,2.28520162820659,2.28471177790788,2.28471177790788,2.28468178707326,2.2842819092784,2.28441186956173,2.28424192149891,2.28326222090149,2.28430190316814,2.28425191844378,2.2846318023489,2.28476176263224,2.28491171680531,2.28505167403351,2.28535158237966,2.28535158237966,2.28595139907196,2.28753091636168,2.28751092247193,2.28735097135399,2.28884051613986,2.28938035116293,2.28961028089498,2.29222948045135,2.29521856696796,2.34909210288119,2.35103151018629,2.353000908326,2.35426052337983,2.35278097553883,2.35317085638882,2.35264101831062,2.35214117106704,2.35262102442088,2.35184126272089,2.35247107024781,2.35352074945933,2.35563010482724,2.35951891638231,2.36202814954509,2.36239803650534,2.3632577737643,2.36497724828222,2.3681562767514,2.36794634090909,2.36770641423217,2.30640514827932,2.30508555155627,2.30430578985628,2.30450572875371,2.30456571042294
2.21237388481674,2.2131636434616,2.21522301410516,2.21609274830899,2.21710243974102,2.21802215866921,2.21982160874611,2.22084129712301,2.22150109548454,2.22338052112041,2.22412029504091,2.22540990092935,2.22652955875497,2.22747926851778,2.22924872776006,2.23001849251517,2.2313480861831,2.23225780816642,2.23338746293691,2.2341672246369,2.23518691301381,2.23627658000482,2.23749620727915,2.23858587427016,2.23951559014322,2.2410751135432,2.242024823306,2.24293454528932,2.24419416034315,2.24579367152261,2.24757312770976,2.24850284358282,2.25057221117125,2.25252161542122,2.25481091579682,2.25880969374548,2.26249856640311,2.30637515744471,2.30840453725365,2.30921428978825,2.30959417369337,2.30754479999469,2.30621520632676,2.30526549656395,2.30597527964984,2.30543544462677,2.30575534686267,2.30685501079854,2.30704495275111,2.30873443643441,2.30988408509465,2.31225336102923,2.31305311661896,2.31429273778304,2.31385287220869,2.31560233756122,2.31454266140483,2.3135329699728,2.27764393788363,2.27597444809007,2.27564454890931,2.27556457335033,2.27565454585418,2.27569453363366,2.27608441448366,2.2767742036798,2.27767392871825,2.27839370874901,2.27856365681182,2.27987325659001,2.28162272194254,2.28440187261686,2.33173740658404,2.33183737603276,2.33090766015969,2.33091765710457,2.32975801149946,2.32868833839819,2.32662896775463,2.32550930992901,2.32433966737903,2.32388980485981,2.32462957878031,2.32475953906364,2.3250194596303,2.32685889748668,2.32792857058795,2.33010790456996,2.33080769071098,2.33163743713532,2.33119757156097,2.32952808176741,2.28956029617062,2.28888050391935,2.2873109835745,2.28603137463093,2.28574146322966,2.28526160987582,2.2853015976553,2.28545155182838,2.28451183901045,2.28471177790788,2.28454182984506,2.28394201315276,2.2844218665066,2.28480175041172,2.28471177790788,2.28417194288481,2.28437188178224,2.28470178096301,2.28422192760917,2.28445185734121,2.2850216831989,2.28492171375018,2.28517163737197,2.28557151516684,2.28600138379632,2.28754091330655,2.28732098051937,2.28846063223474,2.2891804122655,2.29029007314625,2.29305922687569,2.29448878999233,2.35196122605935,2.35073160184014,2.35143138798116,2.35221114968114,2.35228112829525,2.35253105191704,2.35163132687859,2.3507815865645,2.3513814032568,2.35115147352475,2.35214117106704,2.35382065780548,2.35924899887077,2.3599787758464,2.36013872696435,2.36121839701049,2.36201815260022,2.36871610566421,2.36756645700397,2.3682262553655,2.3087044455998,2.30571535908318,2.30450572875371,2.30473565848576,2.30403587234474,2.30448573486397
2.21238388176161,2.21322362513083,2.21453322490901,2.21597278497053,2.21709244279615,2.21817211284229,2.21895187454228,2.22058137655635,2.22164105271274,2.22322057000246,2.22368042946656,2.22573980011011,2.22655954958959,2.22797911576136,2.22971858416902,2.23025841919209,2.23101818700234,2.23186792731643,2.23339745988179,2.23385731934588,2.23535686107663,2.23665646390994,2.23734625310608,2.23894576428554,2.24021537628424,2.24044530601629,2.24213478969959,2.24355435587136,2.24460403508289,2.246853347679,2.24748315520592,2.24887273054307,2.25063219284048,2.25233167346866,2.25505084247374,2.26034922325571,2.26053916520827,2.30657509634214,2.30828457391519,2.30927427145748,2.30873443643441,2.30742483665623,2.30660508717675,2.30574534991779,2.30548542935113,2.30561538963446,2.30577534075241,2.30603526131907,2.3069049955229,2.30844452503313,2.31003403926772,2.31218338241512,2.31343300052408,2.31389285998817,2.31438271028688,2.31487256058559,2.31511248726251,2.31688194650479,2.27729404481313,2.27658426172724,2.27521468027983,2.27495475971316,2.27583449086187,2.27595445420033,2.2759644511452,2.27668423117596,2.27725405703364,2.27829373930029,2.27846368736311,2.27965332380283,2.28154274638357,2.28376206814507,2.33174740352891,2.3309776387738,2.33053777319944,2.33018788012894,2.32882829562639,2.32799854920205,2.32627907468413,2.32544932825978,2.32450961544185,2.3236098904034,2.3236098904034,2.32412973153673,2.32563927021234,2.32654899219566,2.32837843310717,2.32958806343664,2.33112759294687,2.33179738825327,2.33141750434815,2.33012789845971,2.28957029311549,2.28847062917961,2.28707105689758,2.28613134407965,2.28544155488351,2.28582143878863,2.2852316190412,2.28491171680531,2.28534158543479,2.28453183290019,2.2843518878925,2.28414195205019,2.28410196427071,2.28478175652198,2.28397200398738,2.2824824592015,2.28408197038096,2.28430190316814,2.28457182067968,2.28440187261686,2.28519163126172,2.28635127686683,2.28547154571812,2.28617133185914,2.28622131658349,2.28653122187451,2.28799077582577,2.28846063223474,2.28972024728857,2.28890049780909,2.29223947739622,2.29632822784872,2.35051166905297,2.35013178514784,2.35142139103628,2.35351075251446,2.35218115884653,2.35225113746063,2.3513814032568,2.35125144297347,2.3509215437927,2.35110148880039,2.35185125966576,2.35291093582216,2.35677975348748,2.3590290660836,2.36002876057076,2.36094847949895,2.36250800289893,2.36725655171295,2.36756645700397,2.3669566433668,2.30813461974211,2.3061652216024,2.30391590900628,2.30471566459601,2.30376595483321,2.30456571042294
2.21247385426546,2.21319363429622,2.21485312714491,2.21595279108079,2.21637266276539,2.21824209145639,2.21970164540765,2.22077131850891,2.22138113214608,2.22325056083708,2.22367043252169,2.22476009951269,2.22662952820369,2.22715936628189,2.22813906687931,2.22998850168056,2.23066829393183,2.2319479028754,2.23292760347282,2.23448712687279,2.23463708104587,2.23633656167405,2.23723628671249,2.23896575817529,2.24035533351244,2.24079519908679,2.24185487524319,2.24362433448547,2.24518385788544,2.24615356153799,2.24725322547387,2.24948254418024,2.25072216534433,2.25215172846097,2.25488089441092,2.25749009702242,2.26167881692364,2.30704495275111,2.30762477555366,2.30940423174081,2.30843452808826,2.30771474805751,2.30646512994855,2.30539545684729,2.3051455332255,2.30522550878447,2.30565537741395,2.30584531936651,2.30660508717675,2.30771474805751,2.30967414925234,2.31180349851,2.3131430891228,2.31450267362534,2.31449267668047,2.31504250864841,2.31618216036378,2.28007319548744,2.27701413035672,2.27584448780674,2.27587447864135,2.27496475665804,2.27512470777598,2.275434613067,2.27640431671955,2.27762394399389,2.27717408147467,2.27833372707978,2.27834372402465,2.28023314660539,2.28178267306049,2.2838920284284,2.33278708579556,2.33163743713532,2.33057776097893,2.32995795039689,2.32957806649177,2.32686889443155,2.32618910218028,2.32443963682775,2.32350992095469,2.32327999122264,2.32437965515852,2.32351991789956,2.32530937103158,2.32638904107772,2.32799854920205,2.32918818564177,2.33033783430201,2.33142750129302,2.3305177793097,2.32922817342126,2.28929037865909,2.28856060168346,2.28696109050399,2.28619132574888,2.28571147239504,2.2852316190412,2.28533158848992,2.28527160682069,2.28454182984506,2.2844218665066,2.28419193677455,2.28381205286943,2.28370208647584,2.28411196121558,2.28414195205019,2.28402198871173,2.28353213841302,2.28454182984506,2.28399199787712,2.28402198871173,2.28490171986044,2.2850216831989,2.28511165570274,2.28575146017453,2.28686112105528,2.28673116077195,2.28776084609373,2.28814072999885,2.2891104336514,2.28927038476934,2.29427885415003,2.34917207844017,2.34840231368505,2.34939201122734,2.35093154073757,2.35338079223112,2.35214117106704,2.35147137576064,2.35135141242218,2.35165132076833,2.35133141853244,2.35103151018629,2.35215116801191,2.35343077695548,2.35978883389384,2.3596288827759,2.3599787758464,2.36129837256946,2.36377761489762,2.36753646616936,2.36721656393346,2.36732653032705,2.30808463501776,2.30558539879985,2.30438576541525,2.30285623284989,2.30458570431268,2.30349603732168
2.21217394591931,2.21328360680006,2.21451323101927,2.21625269942693,2.21688250695385,2.21895187454228,2.21958168206919,2.22046141321789,2.22156107715377,2.22281069526273,2.22399033475758,2.22537991009474,2.22621965346395,2.22706939377804,2.227929131037,2.22973857805877,2.23068828782157,2.2318079456472,2.23260770123693,2.23435716658946,2.23558679080867,2.23739623783044,2.23793607285351,2.23862586204965,2.24017538850475,2.24115508910217,2.24148498828294,2.24372430393418,2.24475398925596,2.24584365624697,2.2478430452213,2.24878275803923,2.25086212257253,2.25269156348404,2.25487089746605,2.25825986177754,2.26117896968005,2.30641514522419,2.30752480610494,2.30735485804213,2.30847451586775,2.3076447694434,2.30603526131907,2.3046856737614,2.30493559738319,2.30507555461139,2.30526549656395,2.3052854904537,2.30629518188573,2.30780472056135,2.30950420118953,2.31178350462026,2.3132130677369,2.3144127011215,2.31625213897788,2.31638209926121,2.31719185179581,2.27813378818234,2.27894354071695,2.27555457640546,2.27481480248496,2.27520468333495,2.27491477193368,2.2755745702952,2.27580450002725,2.27745399593107,2.27706411508108,2.27783387983619,2.27851367208747,2.28007319548744,2.28215256002074,2.28373207731046,2.33269711329172,2.33146748907251,2.33098763571867,2.32921817647639,2.32832844838281,2.3263590502431,2.32595917244824,2.32390979874955,2.32320001566366,2.32314003399444,2.32382982319058,2.32330998205725,2.32388980485981,2.32562927326747,2.32694886999053,2.32920817953152,2.33029784652252,2.33056776403406,2.32911820702767,2.33020787401868,2.28906044892704,2.2873809621886,2.28696109050399,2.28544155488351,2.28547154571812,2.28529160071043,2.28554152433222,2.28513164959249,2.28452183595532,2.28404198260148,2.28410196427071,2.28364210480661,2.28407197343609,2.28419193677455,2.28371208342071,2.28377206508994,2.28418193982968,2.28415194899507,2.28400199482199,2.2844218665066,2.28468178707326,2.28616133491426,2.2857614571194,2.28638126770144,2.28641125853606,2.28696109050399,2.28873054974627,2.28873054974627,2.28972024728857,2.28883051919499,2.29743788872947,2.34835232896069,2.3481024053389,2.34791246338634,2.35115147352475,2.35163132687859,2.35209118634268,2.35215116801191,2.35094153768245,2.35104150713116,2.35029173626579,2.35113147963501,2.35172129938243,2.35546015676442,2.35551014148878,2.35915902636693,2.36016871779896,2.3618482045374,2.36521717495914,2.36745649061038,2.36679669224886,2.36662674418604,2.30753480304982,2.30509554850114,2.30353602510116,2.30310615647168,2.30440575930499,2.3033460831486
2.21280375344622,2.21424331350774,2.21447324323978,2.21613273608848,2.21800216477947,2.21810213422819,2.21932176150253,2.22058137655635,2.22111121463455,2.22233084190889,2.2240903042063,2.22538990703961,2.22624964429857,2.22715936628189,2.22776917991906,2.22998850168056,2.23072827560106,2.23145805257669,2.23344744460614,2.23414723074716,2.23537685496637,2.23679642113814,2.23848590482145,2.23916569707272,2.2403353396227,2.24106511659833,2.24265463083292,2.24366432226495,2.24472399842135,2.2460435951444,2.24726322241874,2.24904267860589,2.2509420981315,2.2530914412789,2.25529076915066,2.25835983122625,2.26316836170951,2.30596528270497,2.30742483665623,2.30844452503313,2.30845452197801,2.30665507190111,2.30626519105112,2.30490560654858,2.30464568598191,2.30466567987166,2.305495426296,2.30577534075241,2.30635516355496,2.30731487026264,2.30940423174081,2.31107372153437,2.31344299746895,2.31466262474329,2.31481257891636,2.31644208093044,2.31700190984325,2.27776390122209,2.27706411508108,2.27523467416957,2.27493476582342,2.27486478720932,2.27503473527214,2.27559456418495,2.27583449086187,2.27648429227852,2.27693415479775,2.27806380956824,2.27991324436949,2.27996322909385,2.28240248364253,2.2856214998912,2.32993795650715,2.32967803594048,2.3303778220815,2.32950808787767,2.32878830784691,2.32640903496746,2.3250194596303,2.32368986596237,2.32313003704956,2.32270016842008,2.32350992095469,2.32325000038802,2.32418971320596,2.32553930076363,2.3270288455495,2.32916819175203,2.33068772737252,2.33054777014431,2.32973801760971,2.32792857058795,2.28910043670652,2.28775084914885,2.28698108439374,2.28556151822197,2.2853015976553,2.28513164959249,2.28498169541941,2.28493171069505,2.28475176568736,2.2844218665066,2.28378206203482,2.28404198260148,2.28419193677455,2.28422192760917,2.28366209869636,2.28419193677455,2.28381205286943,2.28363210786174,2.28390202537328,2.28491171680531,2.28494170763993,2.28484173819121,2.28560150600145,2.28682113327579,2.28648123715016,2.28685112411041,2.28788080943219,2.28887050697448,2.28923039698986,2.2927393246398,2.29309921465518,2.34678280861585,2.34644291249021,2.34922206316453,2.35204120161833,2.35311087471959,2.35237110079909,2.35165132076833,2.35069161406066,2.35017177292733,2.35016177598246,2.35136140936705,2.35173129632731,2.35468039506444,2.35689971682594,2.35881913024129,2.3600487544605,2.36397755379506,2.36469733382581,2.36697663725655,2.36648678695784,2.36668672585527,2.30674504440496,2.30422581429731,2.30365598843962,2.30568536824856,2.30272627256656,2.30434577763576
2.21259381760392,2.21382344182313,2.21500308131798,2.21610274525386,2.21708244585128,2.2185220059128,2.2195416942897,2.22094126657173,2.22223087246017,2.22284068609734,2.22491005368577,2.22512998647295,2.2266595190383,2.2286689049575,2.22944866665749,2.22999849862543,2.23149804035618,2.23267767985103,2.23358740183435,2.23440715131382,2.23693637836634,2.23669645168942,2.23847590787658,2.23879581011247,2.24017538850475,2.24108511048807,2.24263463694317,2.24377428865854,2.24444408396494,2.24573368985338,2.24732320408797,2.24903268166102,2.25053222339176,2.25244163986225,2.25551070193784,2.25804992593523,2.26225863972619,2.30524550267421,2.30800465945878,2.30804464723827,2.3081046289075,2.30651511467291,2.30585531631138,2.30459570125756,2.30440575930499,2.30458570431268,2.30493559738319,2.30568536824856,2.30756479388443,2.30783471139596,2.30956418285876,2.31098374903053,2.31322306468177,2.3144127011215,2.31692193428428,2.31643208398557,2.31808157988939,2.27843369652849,2.27620437782212,2.27531464972854,2.27484479331958,2.27513470472085,2.27523467416957,2.27538462834264,2.27585448475161,2.27673421590031,2.27729404481313,2.27909349489002,2.27903351322079,2.28054305189641,2.28284234921688,2.32750869890334,2.3282984575482,2.32992795956227,2.33027785263278,2.3300579198456,2.32832844838281,2.32732875389565,2.32466956655979,2.3235399117893,2.32268017453034,2.32246024174316,2.32274015619957,2.3230800523252,2.3241397284816,2.3256892549367,2.32759867140718,2.32899824368921,2.33024786179817,2.33057776097893,2.33158745241096,2.29236943767955,2.2891804122655,2.28740095607835,2.28661119743349,2.28603137463093,2.28574146322966,2.28518163431684,2.28543155793864,2.28510165875787,2.28443186345147,2.28415194899507,2.28406197649122,2.28371208342071,2.2838920284284,2.28373207731046,2.28383204675917,2.28385204064892,2.28387203453866,2.28377206508994,2.28419193677455,2.2846318023489,2.28468178707326,2.28521162515146,2.28549153960786,2.28559150905658,2.28635127686683,2.28679114244118,2.2878408216527,2.28901046420268,2.288440638345,2.29026008231163,2.29378900385132,2.34699274445815,2.3446134715787,2.35082157434399,2.35234110996447,2.35308088388498,2.35194123216961,2.35125144297347,2.35039170571451,2.35053166294271,2.35043169349399,2.35130142769783,2.35210118328756,2.35461041645034,2.35528021175673,2.35999876973615,2.36152830230151,2.36400754462967,2.36403753546429,2.36623686333605,2.3676964172873,2.36716657920911,2.30695498024726,2.30455571347807,2.30315614119604,2.3034860403768,2.30325611064476,2.30398588762039
2.21286373511545,2.21350353958724,2.21490311186926,2.21621271164745,2.21733236947307,2.21836205479485,2.21969164846278,2.22108122379993,2.22177101299608,2.22336052723067,2.22440020949732,2.22590974817293,2.22663952514856,2.22870889273699,2.22963860861005,2.22998850168056,2.23082824504978,2.23257771040231,2.23326749959845,2.23432717575485,2.23713631726378,2.23703634781506,2.23838593537273,2.23929565735605,2.24009541294578,2.24085518075602,2.2426246399983,2.24419416034315,2.24478398009058,2.24635350043542,2.24742317353669,2.24916264194435,2.25141195454047,2.25447101967119,2.25632045447244,2.25926955320957,2.30440575930499,2.3051455332255,2.3081046289075,2.30798466556904,2.30745482749084,2.30709493747546,2.30534547212293,2.30423581124218,2.30449573180884,2.30439576236012,2.30511554239088,2.30560539268959,2.30679502912932,2.30787469917545,2.30942422563055,2.31157356877796,2.31317307995742,2.31521245671123,2.31532242310482,2.31559234061635,2.31597222452147,2.27843369652849,2.27725405703364,2.27580450002725,2.27484479331958,2.27497475360291,2.27499474749265,2.27558456724008,2.27591446642084,2.27674421284519,2.2773740203721,2.27815378207209,2.27955335435412,2.28060303356564,2.28299230338996,2.32567925799183,2.32855837811486,2.32949809093279,2.32988797178279,2.32891826813024,2.32834844227256,2.32592918161362,2.32433966737903,2.3230100737111,2.32212034561753,2.32242025396368,2.32284012564829,2.32365987512776,2.32387980791494,2.32584920605465,2.32738873556488,2.32887828035075,2.329638048161,2.33101762655328,2.33042780680586,2.32687889137643,2.28898047336807,2.28823070250269,2.28692110272451,2.28601138074119,2.28586142656812,2.28479175346685,2.28543155793864,2.28505167403351,2.28503168014377,2.28437188178224,2.28410196427071,2.28398200093225,2.28366209869636,2.28413195510532,2.28443186345147,2.28377206508994,2.28373207731046,2.28328221479123,2.28409196732584,2.28430190316814,2.28448184817583,2.28487172902582,2.28507166792326,2.28560150600145,2.28640126159118,2.28612134713478,2.28789080637706,2.28839065362064,2.28668117604759,2.28998016785523,2.2944288083231,2.3472926528043,2.3440136548864,2.35275098470421,2.35243108246832,2.35183126577602,2.35157134520936,2.34984187374657,2.3509915224068,2.35012178820297,2.35030173321066,2.35084156823373,2.353000908326,2.35463041034008,2.35846923717079,2.35958889499641,2.36453738270787,2.36422747741685,2.36377761489762,2.36541711385657,2.36563704664375,2.36731653338218,2.30591529798061,2.30366598538449,2.30299619007809,2.30397589067551,2.30510554544601,2.3038759212268
2.21275376872186,2.21338357624878,2.21508305687695,2.21527299882951,2.21749232059102,2.21812212811793,2.21938174317176,2.22047141016276,2.2220809182871,2.2228906708217,2.22496003841013,2.22550987037807,2.22668950987292,2.22854894161904,2.22929871248442,2.23058831837286,2.23198789065489,2.23204787232412,2.23332748126768,2.23442714520356,2.23635655556379,2.23681641502788,2.23831595675863,2.23945560847399,2.24045530296116,2.24139501577909,2.24258465221882,2.24345438642265,2.24485395870468,2.24594362569569,2.24736319186746,2.24962250140845,2.25078214701356,2.25427108077376,2.25659037198397,2.25910960209163,2.30506555766652,2.30567537130369,2.30830456780493,2.30875443032415,2.3075747908293,2.30646512994855,2.30629518188573,2.30449573180884,2.30451572569858,2.30422581429731,2.30536546601267,2.30596528270497,2.30646512994855,2.30798466556904,2.30946421341004,2.31105372764463,2.31275320827281,2.3156123345061,2.31523245060097,2.31402282027151,2.31688194650479,2.27721406925415,2.27599444197981,2.27496475665804,2.27498475054778,2.27470483609137,2.27538462834264,2.27573452141315,2.27608441448366,2.27668423117596,2.27696414563236,2.27819376985157,2.27916347350412,2.28148276471434,2.2836820925861,2.32560927937773,2.32713881194309,2.32812850948538,2.32876831395716,2.32833844532768,2.32800854614692,2.32605914189695,2.32411973459185,2.32274015619957,2.32236027229445,2.32223031201112,2.32221031812137,2.32286011953803,2.32361988734827,2.32519940463799,2.32684890054181,2.32859836589435,2.32943810926356,2.33023786485329,2.33053777319944,2.29098985928726,2.28877053752576,2.28756090719629,2.2859713929617,2.28571147239504,2.28522162209633,2.28549153960786,2.28552153044248,2.28481174735659,2.2837520712002,2.28482174430147,2.28381205286943,2.28418193982968,2.28351214452328,2.28399199787712,2.28360211702713,2.28356212924764,2.28365210175148,2.28424192149891,2.28416194593994,2.28478175652198,2.28362211091687,2.28525161293095,2.28528160376556,2.28533158848992,2.28611135018991,2.28706105995271,2.28808074832962,2.28906044892704,2.28988019840651,2.29122978596418,2.29546849058975,2.34659286666329,2.34229418036848,2.35359072807343,2.35234110996447,2.35161133298885,2.35155135131962,2.34982187985682,2.35016177598246,2.35161133298885,2.34987186458118,2.35086156212347,2.35232111607473,2.35449045311188,2.35644985430672,2.36149831146689,2.36345771266173,2.36312781348097,2.3633977309925,2.36498724522709,2.3651971810694,2.36407752324377,2.30543544462677,2.30367598232937,2.30301618396784,2.30301618396784,2.30262630311784,2.30316613814091
2.21257382371417,2.21338357624878,2.2150330721526,2.21553291939618,2.21774224421281,2.21826208534613,2.21943172789611,2.22053139183199,2.22146110770506,2.22339051806528,2.22461014533962,2.22546988259858,2.22751925629727,2.22821904243828,2.22967859638954,2.23031840086132,2.23166798841899,2.2325477195677,2.23345744155102,2.23458709632151,2.23655649446122,2.2370563417048,2.23890577650606,2.23910571540349,2.24020537933937,2.24143500355858,2.24285456973035,2.24386426116238,2.24713326213541,2.24637349432516,2.24772308188284,2.2486527977559,2.25103207063535,2.25363127630197,2.2559105797327,2.25824986483267,2.30152663918196,2.30589530409087,2.30848451281262,2.30924428062287,2.30758478777417,2.30618521549215,2.30499557905242,2.30396589373064,2.3037359639986,2.30404586928962,2.30479564015499,2.30552541713062,2.30610523993317,2.30794467778955,2.30939423479594,2.31160355961257,2.31370291803561,2.31436271639714,2.3143427225074,2.31363293942151,2.31356296080741,2.27754396843492,2.27553458251572,2.27537463139777,2.2744849033042,2.27496475665804,2.27499474749265,2.27588447558623,2.27616439004263,2.27646429838878,2.27713409369518,2.27786387067081,2.27929343378745,2.28021315271564,2.28331220562585,2.32426968876493,2.32564926715721,2.32742872334437,2.32777861641487,2.32802854003666,2.32748870501359,2.32650900441618,2.32336996372648,2.32270016842008,2.32167048309831,2.32158051059446,2.32162049837395,2.32249023257778,2.32355990567904,2.32511942907902,2.32669894636874,2.32801854309179,2.32869833534306,2.33002792901099,2.32905822535844,2.29032006398086,2.28930037560396,2.28740095607835,2.28609135630016,2.28545155182838,2.28519163126172,2.28541156404889,2.28512165264761,2.28477175957711,2.28467179012839,2.28394201315276,2.28394201315276,2.2838220498143,2.28349215063354,2.28352214146815,2.28371208342071,2.28321223617713,2.2842119306643,2.28414195205019,2.28403198565661,2.28433189400276,2.28477175957711,2.28526160987582,2.28527160682069,2.28552153044248,2.28607136241042,2.28630129214247,2.28814072999885,2.28877053752576,2.28963027478472,2.29025008536676,2.292879281868,2.34383370987872,2.34271405205309,2.35127143686321,2.35269100303498,2.35158134215423,2.35110148880039,2.35141139409141,2.35041169960425,2.35049167516322,2.35237110079909,2.3507815865645,2.35203120467345,2.35483034923751,2.35618993374005,2.35957889805154,2.3619881617656,2.36220809455278,2.36538712302196,2.36388758129121,2.36483729105402,2.36489727272325,2.30446574097422,2.30326610758963,2.30257631839349,2.30282624201528,2.30290621757425,2.30321612286527
2.21181405590393,2.21370347848467,2.21420332572825,2.21620271470258,2.21763227781922,2.2185220059128,2.21962166984868,2.22070133989481,2.22211090912171,2.2238403805845,2.22455016367039,2.22561983677166,2.22688944877035,2.22788914325752,2.22883885302032,2.23013845585363,2.23109816256131,2.2326176981818,2.23331748432281,2.23473705049458,2.23613662277661,2.23718630198813,2.23862586204965,2.23970553209579,2.2404053182368,2.24199483247139,2.24267462472266,2.24374429782393,2.24490394342903,2.24682335684439,2.24796300855975,2.24913265110974,2.25217172235071,2.25345133129428,2.25656038114936,2.26030923547622,2.30270627867682,2.30642514216906,2.30710493442034,2.30811462585237,2.30646512994855,2.30594528881523,2.30499557905242,2.3046156951473,2.30403587234474,2.30388591817167,2.30459570125756,2.30573535297292,2.30654510550752,2.30765476638828,2.30893437533184,2.31181349545487,2.31310310134332,2.31406280805099,2.31419276833432,2.31347298830357,2.31516247198687,2.27631434421571,2.27630434727083,2.27484479331958,2.27472482998112,2.27467484525676,2.2751546986106,2.27505472916188,2.27586448169648,2.27657426478237,2.27767392871825,2.27809380040286,2.27981327492078,2.28067301217974,2.28344216590918,2.32438965210339,2.3251594168585,2.32802854003666,2.32863835367383,2.32706883332899,2.3278385980841,2.32607913578669,2.32348992706494,2.32222031506624,2.32144055336626,2.32157051364959,2.32143055642139,2.32211034867266,2.32432967043416,2.32456959711108,2.32678891887258,2.32752869279308,2.32898824674434,2.32957806649177,2.32969802983023,2.28958029006036,2.28874054669115,2.28748093163732,2.28603137463093,2.28582143878863,2.28543155793864,2.28531159460018,2.28520162820659,2.28487172902582,2.28453183290019,2.28424192149891,2.28371208342071,2.28350214757841,2.28363210786174,2.28384204370405,2.28306228200406,2.28380205592456,2.28372208036559,2.28422192760917,2.28344216590918,2.28374207425533,2.28429190622327,2.28478175652198,2.28510165875787,2.28547154571812,2.28616133491426,2.28749092858219,2.28764088275527,2.28873054974627,2.29052999982317,2.29193956905007,2.29431884192952,2.35132142158757,2.34904211815684,2.35425052643496,2.35144138492603,2.35171130243756,2.3513814032568,2.35049167516322,2.34989185847092,2.35037171182476,2.35069161406066,2.35113147963501,2.35243108246832,2.35534019342596,2.35763949074644,2.35994878501179,2.36223808538739,2.36238803956047,2.36389757823608,2.36493726050273,2.36475731549504,2.36441741936941,2.30567537130369,2.30312615036143,2.3027462664563,2.30202648642555,2.30259631228323,2.30356601593578
2.21233389703725,2.21349354264236,2.21513304160131,2.21609274830899,2.21688250695385,2.21786220755127,2.21936174928201,2.22086129101276,2.22253078080632,2.22317058527811,2.22635961069216,2.22518996814217,2.2269094426601,2.22781916464341,2.22947865749211,2.23019843752286,2.23103818089208,2.2328276340241,2.23339745988179,2.23511693439971,2.23597667165867,2.23718630198813,2.23728627143685,2.24030534878808,2.24027535795347,2.24124506160602,2.24232473165215,2.24388425505213,2.24460403508289,2.24627352487645,2.24743317048156,2.24993240669947,2.25170186594175,2.25399116631735,2.25631045752757,2.25856976706856,2.30110676749736,2.306974974137,2.30678503218444,2.30931425923697,2.30715491914469,2.30540545379216,2.30409585401397,2.30367598232937,2.30370597316398,2.30343605565245,2.30423581124218,2.30525549961908,2.3059552857601,2.30805464418314,2.30932425618184,2.31174351684077,2.31329304329588,2.31338301579972,2.31347298830357,2.31442269806637,2.31472260641252,2.27648429227852,2.27495475971316,2.27503473527214,2.27466484831189,2.27502473832727,2.27502473832727,2.27629435032596,2.2758944725311,2.27623436865673,2.27686417618365,2.27764393788363,2.27955335435412,2.2809329327464,2.2825524378156,2.32222031506624,2.32502945657517,2.32655898914053,2.32804853392641,2.32751869584821,2.32666895553412,2.32483951462261,2.32419971015083,2.32228029673547,2.32119062974447,2.32104067557139,2.32066079166627,2.32137057475216,2.3240697498675,2.32453960627646,2.32673893414822,2.32782860113923,2.32900824063408,2.32962805121612,2.3291781886969,2.28975023812318,2.2887205528014,2.28811073916423,2.28580144489889,2.28542156099376,2.28528160376556,2.28451183901045,2.28497169847454,2.28439187567199,2.28454182984506,2.28411196121558,2.28392201926302,2.28358212313738,2.28351214452328,2.2834721567438,2.2834721567438,2.28331220562585,2.28376206814507,2.28311226672842,2.283612113972,2.28559150905658,2.28455182678993,2.28448184817583,2.28528160376556,2.28538157321428,2.2863612738117,2.28723100801553,2.28821070861295,2.28813073305398,2.28923039698986,2.29315919632441,2.29570841726667,2.3458830835774,2.34862224647223,2.35173129632731,2.3501817698722,2.3503217271004,2.35194123216961,2.35074159878501,2.35020176376195,2.3506416293363,2.35129143075295,2.35147137576064,2.35189124744525,2.35446046227726,2.35685972904645,2.35904905997334,2.3593789591541,2.36175823203355,2.36460736132197,2.36433744381043,2.36316780126045,2.30918429895364,2.30575534686267,2.3032061259204,2.30220643143324,2.3028162450704,2.30317613508578,2.30325611064476
2.21260381454879,2.21321362818596,2.21513304160131,2.21615272997822,2.21720240918974,2.21776223810255,2.21936174928201,2.22045141627302,2.22214089995633,2.22362044779733,2.22494004452038,2.22541989787422,2.22666951598318,2.22801910354085,2.22936869109852,2.23006847723953,2.23094820838824,2.23269767374077,2.23336746904717,2.23445713603818,2.23520690690355,2.23658648529584,2.23814600869581,2.23986548321373,2.24145499744832,2.24170492107011,2.24254466443933,2.24370431004444,2.24434411451622,2.24644347293927,2.24776306966232,2.24998239142382,2.25139196065072,2.25480091885195,2.25737013368396,2.26158884441979,2.30684501385367,2.30665507190111,2.30742483665623,2.30783471139596,2.3103939292831,2.30568536824856,2.30459570125756,2.30351603121142,2.30354602204603,2.30326610758963,2.30477564626525,2.30525549961908,2.30619521243702,2.3074348336011,2.30932425618184,2.31266323576896,2.31327304940613,2.31336302190998,2.31511248726251,2.31480258197149,2.31652205648941,2.27631434421571,2.27489477804393,2.27459486969778,2.27480480554009,2.27486478720932,2.27524467111444,2.27576451224777,2.27615439309776,2.27629435032596,2.27748398676569,2.27826374846567,2.28007319548744,2.28136280137588,2.28448184817583,2.32319001871879,2.32489949629184,2.32737873862001,2.32811851254051,2.32724877833668,2.32636904718797,2.32408974375724,2.32239026312906,2.32179044643676,2.32109066029575,2.32083073972909,2.32129059919318,2.32195039755471,2.32318002177392,2.32451961238672,2.32667895247899,2.32789857975333,2.32886828340588,2.32893826201998,2.32906822230331,2.29028007620138,2.28809074527449,2.28763088581039,2.28582143878863,2.28532159154505,2.28542156099376,2.28532159154505,2.28472177485275,2.28477175957711,2.28467179012839,2.2842819092784,2.28399199787712,2.28261241948484,2.28374207425533,2.28358212313738,2.28497169847454,2.28355213230277,2.28367209564123,2.28379205897969,2.28335219340534,2.28344216590918,2.28457182067968,2.28505167403351,2.2852316190412,2.2857614571194,2.28634127992195,2.28815072694372,2.28779083692834,2.2892503908796,2.28963027478472,2.29015011591805,2.29968720132558,2.34815239006326,2.34893215176325,2.3493020387235,2.35132142158757,2.35408057837214,2.35179127799654,2.35077158961963,2.35008180042349,2.35076159267476,2.35117146741449,2.35162132993372,2.35157134520936,2.35865917912335,2.35788941436823,2.35803936854131,2.36000876668102,2.3614583236874,2.364527385763,2.36382759962198,2.36313781042584,2.30645513300368,2.30451572569858,2.30326610758963,2.30243636116528,2.30292621146399,2.30237637949605,2.30282624201528
2.21176407117957,2.21360350903595,2.21512304465644,2.21616272692309,2.21708244585128,2.2185220059128,2.21984160263585,2.22077131850891,2.22203093356274,2.22302063110503,2.22443020033193,2.22546988259858,2.22703940294343,2.22812906993444,2.22939868193313,2.2301484527985,2.23155802202541,2.23285762485872,2.23351742322025,2.23498697411637,2.23590669304457,2.23697636614583,2.2383259537035,2.23956557486758,2.24074521436244,2.24209480192011,2.24353436198162,2.24351436809188,2.24497392204314,2.24658343016747,2.24841287107898,2.25014234254177,2.25163188732764,2.25560067444168,2.25708022228268,2.26169881081338,2.30400588151013,2.30412584484859,2.30667506579086,2.30747482138059,2.30791468695494,2.30552541713062,2.30353602510116,2.30402587539987,2.30361600066014,2.30381593955757,2.30425580513192,2.30531548128831,2.30608524604343,2.30765476638828,2.30923428367799,2.31084379180233,2.3130731105087,2.31503251170354,2.31465262779842,2.31555235283687,2.31685195567018,2.27664424339647,2.27535463750803,2.27445491246958,2.27459486969778,2.27501474138239,2.27547460084649,2.275824493917,2.27632434116058,2.27746399287594,2.27821376374132,2.27901351933105,2.28000321687334,2.28170269750152,2.28398200093225,2.32808852170589,2.32455960016621,2.3282984575482,2.32825846976871,2.32748870501359,2.32605914189695,2.32373985068673,2.32209035478291,2.32166048615343,2.32088072445345,2.32097069695729,2.3209307091778,2.3219903853342,2.32312004010469,2.3250894382444,2.32641903191233,2.3279085766982,2.32901823757896,2.32939812148408,2.32997794428663,2.29063996621676,2.28840065056551,2.28672116382708,2.28567148461555,2.28601138074119,2.28548154266299,2.28499169236428,2.28401199176686,2.28457182067968,2.28418193982968,2.28474176874249,2.28408197038096,2.28381205286943,2.28383204675917,2.28342217201944,2.28324222701175,2.28360211702713,2.28373207731046,2.28374207425533,2.2842119306643,2.2838220498143,2.28465179623865,2.28529160071043,2.28512165264761,2.28635127686683,2.28672116382708,2.28689111188989,2.28813073305398,2.28797078193603,2.28948032061165,2.29042003342958,2.29377900690645,2.34678280861585,2.35118146435937,2.35091154684783,2.35087155906834,2.35073160184014,2.35173129632731,2.35074159878501,2.35066162322604,2.35090154990296,2.35083157128886,2.351521360485,2.35206119550807,2.35600998873236,2.3568797229362,2.35978883389384,2.36067856198742,2.36296786236302,2.36453738270787,2.36375762100788,2.36304783792199,2.30649512078317,2.3040858570691,2.3032761045345,2.30204648031529,2.30303617785758,2.30205647726016,2.30283623896015
2.2133735793039,2.21393340821672,2.21495309659362,2.21641265054488,2.21772225032306,2.21840204257434,2.21977162402175,2.22096126046147,2.22217089079094,2.22358046001784,2.22500002618961,2.2254998734332,2.22737929906906,2.22787914631264,2.22946866054723,2.23011846196389,2.23139807090746,2.23329749043307,2.23350742627537,2.23480702910869,2.23636655250866,2.23702635087019,2.23798605757786,2.23961555959194,2.24037532740219,2.24215478358934,2.2430844994624,2.24400421839059,2.24539379372775,2.24720324074951,2.24857282219692,2.24945255334563,2.25227169179943,2.25516080886733,2.25803992899036,2.30620520938189,2.3048256309896,2.30538545990241,2.30995406370875,2.31061386207028,2.30637515744471,2.30496558821781,2.30455571347807,2.30316613814091,2.30372596705372,2.30405586623449,2.30442575319474,2.305495426296,2.30624519716138,2.30818460446647,2.30935424701645,2.31097375208566,2.31070383457412,2.31437271334201,2.31442269806637,2.31534241699456,2.31624214203301,2.27743400204133,2.27539462528752,2.27482479942983,2.27445491246958,2.2747648177606,2.27512470777598,2.27572452446828,2.27657426478237,2.27693415479775,2.27793384928491,2.27903351322079,2.27937340934643,2.28229251724894,2.28397200398738,2.32530937103158,2.32925816425587,2.33029784652252,2.32966803899561,2.32788858280846,2.32471955128415,2.32378983541109,2.32210035172778,2.32218032728676,2.32070077944576,2.32087072750857,2.32193040366497,2.32261019591624,2.32300007676623,2.32459958794569,2.32656898608541,2.32757867751744,2.32892826507511,2.3279785553123,2.32909821313793,2.28930037560396,2.28773085525911,2.2873109835745,2.28648123715016,2.28555152127709,2.2853015976553,2.28515164348223,2.28424192149891,2.28460181151429,2.28467179012839,2.28434189094763,2.28376206814507,2.28406197649122,2.2834721567438,2.28330220868098,2.28371208342071,2.28351214452328,2.28348215368867,2.28374207425533,2.28446185428609,2.28360211702713,2.28433189400276,2.2851616404271,2.28612134713478,2.28634127992195,2.28572146933991,2.28760089497578,2.28749092858219,2.28789080637706,2.28971025034369,2.2922794651757,2.29308921771031,2.35140139714654,2.34974190429785,2.35069161406066,2.35084156823373,2.35298091443626,2.34911209677094,2.35039170571451,2.34996183708503,2.35084156823373,2.35129143075295,2.35112148269014,2.35377067308112,2.35603997956698,2.35765948463618,2.36067856198742,2.36161827480535,2.36334774626814,2.36345771266173,2.36217810371816,2.36382759962198,2.30546543546139,2.30288622368451,2.30299619007809,2.30195650781144,2.30326610758963,2.30208646809478,2.30254632755887
2.21294371067442,2.21378345404364,2.21462319741286,2.21630268415129,2.21715242446538,2.21867196008587,2.21953169734483,2.22109122074481,2.22227086023966,2.22352047834861,2.22442020338706,2.22572980316524,2.2280690882652,2.22800910659598,2.22907877969724,2.23020843446773,2.23189791815104,2.23272766457539,2.23353741710999,2.23484701688817,2.23633656167405,2.23696636920096,2.23816600258555,2.23942561763938,2.24020537933937,2.24196484163677,2.24292454834445,2.24408419394956,2.24549376317646,2.24695331712772,2.24843286496872,2.250202324211,2.25261158792506,2.25501085469426,2.25789997176216,2.26163882914415,2.3066950596806,2.3093042622921,2.30653510856265,2.3066250810665,2.30570536213831,2.30576534380754,2.30400588151013,2.30326610758963,2.30335608009347,2.30386592428193,2.30393590289603,2.30524550267421,2.30596528270497,2.30777472972673,2.30946421341004,2.31042392011772,2.31297314105998,2.31406280805099,2.31487256058559,2.31403281721638,2.27814378512721,2.27577450919264,2.27492476887855,2.27456487886317,2.27488478109906,2.27461486358753,2.27480480554009,2.27584448780674,2.27601443586956,2.27682418840416,2.27747398982082,2.27850367514259,2.27933342156694,2.28275237671304,2.28441186956173,2.3284384147764,2.32939812148408,2.32942811231869,2.32884828951614,2.32873832312255,2.32485950851236,2.32257020813675,2.32185042810599,2.32113064807524,2.32070077944576,2.32053083138294,2.32069078250088,2.32211034867266,2.32318002177392,2.324419642938,2.32619909912515,2.32787858586359,2.32950808787767,2.32840842394179,2.32866834450845,2.28949031755652,2.28765087970014,2.28685112411041,2.2871710263463,2.28582143878863,2.28563149683607,2.2851616404271,2.28504167708864,2.28459181456942,2.28501168625403,2.28452183595532,2.28384204370405,2.28365210175148,2.2836820925861,2.28306228200406,2.2829423186656,2.28341217507457,2.28350214757841,2.2835421353579,2.28427191233353,2.2842119306643,2.28464179929378,2.28505167403351,2.28529160071043,2.28555152127709,2.28575146017453,2.28675115466169,2.28774085220398,2.28856060168346,2.28948032061165,2.29138973708213,2.29348909550517,2.3503217271004,2.34921206621965,2.34986186763631,2.35103151018629,2.35006180653374,2.35137140631193,2.35096153157219,2.34995184014015,2.34977189513247,2.35095153462732,2.35156134826449,2.35465040422982,2.35592001622852,2.35865917912335,2.36144832674253,2.36165826258484,2.36329776154378,2.36204814343483,2.36151830535663,2.36229806705662,2.30545543851652,2.30329609842424,2.30290621757425,2.3020764711499,2.30310615647168,2.30282624201528,2.30506555766652
2.21311365873724,2.21341356708339,2.21506306298721,2.21580283690771,2.21761228392948,2.21833206396023,2.21969164846278,2.22090127879224,2.22321057305759,2.22327055472682,2.22471011478834,2.22654955264472,2.22722934489599,2.22815906076905,2.22931870637416,2.23112815339592,2.23121812589977,2.23281763707923,2.23348743238563,2.23515692217919,2.23614661972148,2.23719629893301,2.23806603313684,2.23844591704196,2.24039532129193,2.24226474998292,2.24326444447009,2.24407419700469,2.24553375095595,2.24672338739567,2.24785304216617,2.25040226310843,2.25194179261866,2.25478092496221,2.25762005730575,2.30498558210755,2.30691499246777,2.30859447920621,2.30897436311133,2.30797466862417,2.30559539574472,2.30476564932037,2.30346604648706,2.30307616563707,2.3032761045345,2.3032061259204,2.30436577152551,2.30502556988704,2.30594528881523,2.30737485193187,2.30956418285876,2.31094376125104,2.31230334575358,2.3138828630433,2.31422275916894,2.31438271028688,2.31544238644328,2.27568453668879,2.27429496135164,2.27471483303624,2.27446490941445,2.27365515687985,2.27493476582342,2.275434613067,2.27594445725546,2.2767742036798,2.27749398371056,2.27849367819772,2.27932342462207,2.2822725233592,2.28537157626941,2.32833844532768,2.32937812759433,2.32995795039689,2.32838843005204,2.33006791679048,2.32269017147521,2.32194040060984,2.32120062668934,2.32094070612268,2.32015094747782,2.32041086804448,2.32090071834319,2.32185042810599,2.32315003093931,2.32458959100082,2.32665895858925,2.32712881499822,2.32948809398792,2.32764865613154,2.32874832006742,2.29033006092574,2.2873109835745,2.28637127075657,2.28644124937067,2.28545155182838,2.2851616404271,2.28539157015915,2.28492171375018,2.28443186345147,2.28437188178224,2.28440187261686,2.28402198871173,2.28410196427071,2.28377206508994,2.2838220498143,2.28318224534252,2.28314225756303,2.28325222395662,2.283612113972,2.28448184817583,2.28434189094763,2.28419193677455,2.28500168930915,2.2853015976553,2.28546154877325,2.28611135018991,2.28734097440912,2.28735097135399,2.28832067500654,2.29001015868984,2.29088988983855,2.34763254892994,2.34841231062992,2.35063163239143,2.35088155601322,2.35079158350937,2.3509915224068,2.35058164766707,2.34993184625041,2.35030173321066,2.35107149796578,2.35117146741449,2.35114147657988,2.35517024536315,2.35520023619776,2.35947892860282,2.35955890416179,2.36049861697973,2.36275792652072,2.3613183664592,2.3605086139246,2.36168825341945,2.3051455332255,2.30325611064476,2.30137668500889,2.30234638866144,2.30156662696145,2.30258631533836,2.30252633366913
2.2131636434616,2.21306367401288,2.21487312103465,2.21616272692309,2.21735236336281,2.21835205784998,2.21959167901406,2.22128116269737,2.22265074414478,2.22323056694733,2.22432023393834,2.22645958014087,2.22752925324214,2.22809907909982,2.22943866971262,2.23044836114465,2.23110815950618,2.23240776233949,2.23433717269972,2.23541684274586,2.23616661361123,2.2371263203189,2.23767615228684,2.23922567874195,2.24053527852013,2.24083518686628,2.24347438031239,2.24409419089443,2.24557373873543,2.24696331407259,2.24911265721999,2.25015233948664,2.25229168568917,2.25497086691477,2.25634044836218,2.30208646809478,2.30545543851652,2.30798466556904,2.3081046289075,2.30646512994855,2.30525549961908,2.30451572569858,2.30353602510116,2.30275626340118,2.30335608009347,2.30332608925886,2.30429579291141,2.30543544462677,2.30625519410625,2.30684501385367,2.30952419507927,2.31115369709335,2.31301312883947,2.3136029485869,2.31416277749971,2.31433272556253,2.27704412119134,2.27634433505032,2.27442492163497,2.27446490941445,2.27486478720932,2.27492476887855,2.27486478720932,2.27538462834264,2.27609441142853,2.27634433505032,2.27731403870287,2.27824375457593,2.2807229969041,2.2824124805874,2.28443186345147,2.32974801455458,2.32849839644563,2.32966803899561,2.32794856447769,2.32862835672896,2.32402976208801,2.32097069695729,2.3207907519496,2.32149053809062,2.32018093831243,2.31992101774577,2.32017094136756,2.32173046476753,2.32324000344315,2.32472954822902,2.32656898608541,2.32812850948538,2.32969802983023,2.33485645338399,2.3228001378688,2.28848062612448,2.28774085220398,2.28685112411041,2.28552153044248,2.28542156099376,2.2856914785053,2.28497169847454,2.28474176874249,2.28432189705788,2.28448184817583,2.28422192760917,2.28379205897969,2.28348215368867,2.28381205286943,2.28343216896431,2.28332220257072,2.28329221173611,2.28343216896431,2.28316225145277,2.28363210786174,2.28410196427071,2.28381205286943,2.2853015976553,2.28551153349761,2.28534158543479,2.28618132880401,2.28685112411041,2.2871010477322,2.28892049169884,2.28944033283216,2.29332914438723,2.29335913522184,2.34902212426709,2.34984187374657,2.3501117912581,2.35044169043886,2.35113147963501,2.35055165683245,2.35135141242218,2.34988186152605,2.35002181875426,2.35137140631193,2.35269100303498,2.35417055087598,2.35606997040159,2.35961888583102,2.35932897442975,2.36027868419255,2.36201815260022,2.36056859559383,2.36072854671177,2.36058858948357,2.30420582040756,2.30272627256656,2.30210646198452,2.3017965566935,2.3017965566935,2.30465568292679,2.30347604343193
2.21264380232828,2.21335358541416,2.21470317297183,2.21603276663976,2.21751231448076,2.21816211589742,2.21963166679355,2.22129115964224,2.22352047834861,2.22372041724604,2.22485007201654,2.22671950070753,2.22712937544727,2.22828902105238,2.22948865443698,2.23044836114465,2.2318079456472,2.2326876767959,2.23384732240101,2.23485701383304,2.2361766105561,2.2371263203189,2.23828596592401,2.23931565124579,2.24021537628424,2.24165493634575,2.24302451779317,2.24415417256366,2.24512387621621,2.24720324074951,2.24782305133155,2.24997239447895,2.25257160014558,2.25483090968657,2.25861975179292,2.30218643754349,2.31014400566131,2.3067650382947,2.30858448226134,2.30693498635752,2.30502556988704,2.30451572569858,2.30342605870757,2.30277625729092,2.30312615036143,2.30302618091271,2.30410585095885,2.30488561265883,2.30575534686267,2.30797466862417,2.30977411870106,2.31124366959719,2.31327304940613,2.31394284471253,2.31349298219331,2.31446268584586,2.27817377596183,2.27519468639008,2.27426497051702,2.27414500717856,2.27470483609137,2.27486478720932,2.27488478109906,2.27548459779136,2.27642431060929,2.27673421590031,2.27707411202595,2.27796384011953,2.27999321992847,2.2822025447451,2.28611135018991,2.32866834450845,2.32976800844433,2.32990796567253,2.32742872334437,2.32662896775463,2.32274015619957,2.32170047393292,2.32096070001242,2.32068078555601,2.31994101163551,2.32009096580859,2.32030090165089,2.32064079777653,2.32348992706494,2.32482951767774,2.32624908384951,2.32771863474564,2.32915819480716,2.32856837505973,2.32128060224831,2.28960028395011,2.28771086136937,2.286571209654,2.28548154266299,2.28593140518222,2.28511165570274,2.2849517045848,2.28493171069505,2.28462180540403,2.28438187872711,2.28393201620789,2.28394201315276,2.28305228505919,2.28366209869636,2.28314225756303,2.28331220562585,2.28313226061816,2.28387203453866,2.28351214452328,2.28328221479123,2.28408197038096,2.28480175041172,2.28440187261686,2.28511165570274,2.28542156099376,2.28627130130785,2.28833067195141,2.2879807788809,2.28900046725781,2.29200954766417,2.29127977068854,2.34839231674018,2.34827235340172,2.34969191957349,2.34987186458118,2.35153135742987,2.35108149491065,2.35026174543118,2.35062163544655,2.3503217271004,2.35003181569913,2.35108149491065,2.35150136659526,2.35356073723881,2.35482035229264,2.35896908441437,2.35890910274514,2.3596288827759,2.36139834201817,2.36031867197204,2.36129837256946,2.36122839395536,2.30419582346269,2.30188652919734,2.30288622368451,2.30235638560631,2.30162660863068,2.30216644365375,2.30295620229861
2.2130236862334,2.21349354264236,2.21456321574363,2.21633267498591,2.21720240918974,2.21900185926663,2.21984160263585,2.22110121768968,2.22172102827172,2.22314059444349,2.22456016061526,2.22521995897679,2.22984854445236,2.22834900272161,2.22925872470493,2.23006847723953,2.23185793037155,2.23311754542538,2.23384732240101,2.23484701688817,2.23668645474455,2.2373762439407,2.23841592620735,2.23967554126117,2.24077520519705,2.24261464305343,2.24376429171367,2.24441409313033,2.24567370818415,2.24770308799309,2.24825291996103,2.25047224172253,2.25289150238147,2.25486090052118,2.25889966624932,2.30423581124218,2.30555540796523,2.3072248977588,2.30711493136521,2.30553541407549,2.30545543851652,2.30400588151013,2.30309615952681,2.30254632755887,2.30297619618835,2.30355601899091,2.3040858570691,2.30511554239088,2.30605525520881,2.30751480916007,2.30955418591389,2.31157356877796,2.31320307079203,2.31326305246126,2.31340300968946,2.3149425391997,2.27880358348874,2.27504473221701,2.2740250438401,2.27440492774522,2.27440492774522,2.27468484220163,2.27504473221701,2.27532464667341,2.27609441142853,2.27658426172724,2.27785387372594,2.27848368125285,2.27954335740924,2.28205259057202,2.32627907468413,2.33073771209688,2.32993795650715,2.32847840255589,2.3279785553123,2.32746871112385,2.32474954211877,2.32230029062522,2.32075076417011,2.32032089554063,2.3201209566432,2.32044085887909,2.32141056253164,2.32212034561753,2.32304006454572,2.32535935575594,2.32679891581745,2.32756868057257,2.32872832617768,2.32750869890334,2.32834844227256,2.28930037560396,2.28765087970014,2.28674115771682,2.28591141129247,2.2883706597309,2.28542156099376,2.28545155182838,2.28517163737197,2.28429190622327,2.28431190011301,2.28409196732584,2.28483174124634,2.28438187872711,2.28411196121558,2.28350214757841,2.28355213230277,2.28372208036559,2.28358212313738,2.28411196121558,2.28482174430147,2.28450184206557,2.28452183595532,2.28546154877325,2.28532159154505,2.28561150294632,2.28694109661425,2.2873809621886,2.28821070861295,2.28800077277064,2.29082990816932,2.29304922993082,2.34494337075947,2.34798244200044,2.35012178820297,2.35020176376195,2.3513814032568,2.35190124439012,2.35024175154143,2.35074159878501,2.34918207538504,2.35137140631193,2.3513814032568,2.35383065475035,2.35282096331831,2.35512026063879,2.35852921884002,2.35859919745412,2.35927898970539,2.36506722078606,2.36058858948357,2.36196816787586,2.36101845811305,2.30353602510116,2.30224641921272,2.30148665140248,2.301056782773,2.30202648642555,2.30244635811015,2.30250633977938
2.21283374428084,2.2136235029257,2.21529299271926,2.21633267498591,2.21702246418205,2.21854199980254,2.21998155986405,2.22106122991019,2.22205092745248,2.22299064027042,2.22503001702423,2.22616966873959,2.22752925324214,2.22826902716264,2.22951864527159,2.23099819311259,2.23160800674976,2.23323750876384,2.23346743849589,2.23502696189586,2.23619660444584,2.23750620422403,2.23798605757786,2.23999544349706,2.24068523269321,2.24206481108549,2.2439642306111,2.24400421839059,2.245763680688,2.24722323463925,2.24870278248026,2.25135197287124,2.25269156348404,2.25536074776476,2.25937951960316,2.30288622368451,2.30525549961908,2.3069049955229,2.30791468695494,2.30721490081392,2.30446574097422,2.30360600371526,2.30307616563707,2.30299619007809,2.30304617480245,2.30330609536911,2.3045457165332,2.30511554239088,2.30620520938189,2.30684501385367,2.31008402399208,2.31160355961257,2.31296314411511,2.31472260641252,2.31409279888561,2.31375290275997,2.27793384928491,2.27538462834264,2.27427496746189,2.27410501939907,2.27457487580804,2.27446490941445,2.2751546986106,2.27541461917726,2.2761743869875,2.27669422812083,2.2773740203721,2.27897353155156,2.28029312827462,2.28186264861946,2.33049778541996,2.32986797789304,2.3299879412315,2.33120756850584,2.32867834145332,2.32660897386489,2.32381982624571,2.32315003093931,2.32100068779191,2.32076076111499,2.32045085582397,2.32076076111499,2.32102068168165,2.32226030284573,2.32433966737903,2.32558928548798,2.32679891581745,2.32764865613154,2.32817849420974,2.32811851254051,2.32909821313793,2.28928038171421,2.28846063223474,2.28625130741811,2.28645124631554,2.2858314357335,2.28565149072581,2.28484173819121,2.28525161293095,2.28467179012839,2.28444186039634,2.28425191844378,2.28396200704251,2.28446185428609,2.28341217507457,2.28346215979892,2.283222233122,2.28356212924764,2.28358212313738,2.28458181762455,2.28432189705788,2.28474176874249,2.2844918451207,2.28441186956173,2.28522162209633,2.28616133491426,2.28589141740273,2.28704106606297,2.28816072388859,2.28912043059627,2.29016011286292,2.2929492604821,2.34781249393762,2.34831234118121,2.34989185847092,2.35268100609011,2.3513814032568,2.35139140020167,2.35095153462732,2.34897213954273,2.35140139714654,2.35035171793502,2.35214117106704,2.35333080750677,2.35369069752215,2.35890910274514,2.35813933799002,2.35879913635155,2.35913903247719,2.36017871474384,2.36178822286817,2.36168825341945,2.30614522771266,2.30339606787296,2.30173657502427,2.30111676444223,2.30158662085119,2.30283623896015,2.30259631228323,2.30339606787296
2.21433328601158,2.2143632768462,2.21535297438849,2.21664258027693,2.21758229309486,2.21889189287305,2.22003154458841,2.22107122685506,2.22187098244479,2.22489005979603,2.22396034392296,2.22752925324214,2.22768920436008,2.22847896300494,2.22935869415365,2.23064830004209,2.23192790898566,2.23285762485872,2.2334974293305,2.23489700161253,2.23651650668173,2.23776612479069,2.23895576123041,2.23986548321373,2.24090516548038,2.24254466443933,2.24311449029701,2.24467401369699,2.24617355542773,2.24737318881233,2.24883274276359,2.25058220811612,2.25327138628659,2.25475093412759,2.25970941878392,2.30293620840886,2.30552541713062,2.30686500774342,2.30700496497162,2.30539545684729,2.30460569820243,2.30347604343193,2.30301618396784,2.30261630617297,2.30314614425117,2.30352602815629,2.30441575624987,2.3046856737614,2.30636516049983,2.30779472361648,2.30971413703183,2.31144360849462,2.31304311967409,2.31366293025613,2.31446268584586,2.31461264001893,2.27595445420033,2.27500474443752,2.27440492774522,2.27396506217087,2.27437493691061,2.27473482692599,2.27520468333495,2.27567453974392,2.27700413341185,2.27655427089263,2.27735402648236,2.27834372402465,2.28026313744,2.2828023614374,2.32751869584821,2.33009790762509,2.33016788623919,2.32965804205074,2.32744871723411,2.32531936797645,2.32407974681237,2.32240026007393,2.32057081916243,2.32030090165089,2.3205108374932,2.32020093220217,2.3213905686419,2.32261019591624,2.3236798690175,2.32579922133029,2.32733875084052,2.32752869279308,2.32815850031999,2.32778861335974,2.28916041837575,2.28873054974627,2.28761089192065,2.28686112105528,2.28592140823735,2.28538157321428,2.28533158848992,2.28501168625403,2.2848817259707,2.28453183290019,2.28461180845916,2.28378206203482,2.28399199787712,2.28339218118482,2.28310226978354,2.28374207425533,2.28374207425533,2.28304228811432,2.28423192455404,2.28424192149891,2.28453183290019,2.28432189705788,2.28481174735659,2.28524161598607,2.28548154266299,2.28581144184376,2.28621131963862,2.28704106606297,2.28870055891166,2.28941034199755,2.29117980123982,2.29211951405776,2.34621298275816,2.34915208455042,2.35052166599784,2.35086156212347,2.35192123827987,2.35119146130424,2.35076159267476,2.35047168127348,2.35095153462732,2.3503217271004,2.35116147046962,2.35146137881577,2.35437048977342,2.35699968627466,2.3586391852336,2.35924899887077,2.35933897137462,2.36003875751563,2.36192818009637,2.36118840617587,2.30644513605881,2.30292621146399,2.30244635811015,2.30056693247429,2.30187653225247,2.30029701496275,2.30143666667812,2.30294620535374
2.21455321879876,2.21356352125647,2.21535297438849,2.21622270859232,2.21765227170896,2.21871194786536,2.21980161485636,2.22087128795763,2.22223087246017,2.22338052112041,2.22407031031655,2.2271193785024,2.22822903938315,2.22782916158829,2.22995851084594,2.23051833975875,2.23190791509591,2.23292760347282,2.23391730101511,2.23474704743946,2.23679642113814,2.2377261370112,2.23907572456887,2.2398754801586,2.24096514714961,2.24319446585599,2.243894251997,2.24506389454698,2.24560372957005,2.24778306355207,2.24905267555076,2.25092210424176,2.25339134962505,2.2552407844263,2.25883968458009,2.30423581124218,2.30561538963446,2.30686500774342,2.30730487331777,2.30506555766652,2.30479564015499,2.30286622979476,2.30293620840886,2.30329609842424,2.30323611675501,2.30367598232937,2.30379594566782,2.30497558516268,2.30637515744471,2.30806464112801,2.30987408814978,2.31214339463564,2.31309310439844,2.31342300357921,2.31497253003431,2.31691193733941,2.27890355293746,2.27516469555547,2.27413501023369,2.27368514771447,2.27484479331958,2.27499474749265,2.2750847199965,2.27530465278367,2.27574451835802,2.2774439989862,2.27789386150542,2.27891354988233,2.27976329019642,2.28244247142202,2.3290382314687,2.32946810009818,2.32993795650715,2.32860836283922,2.33066773348277,2.32589919077901,2.32373985068673,2.32180044338164,2.32154052281497,2.32002098719449,2.31993101469064,2.32032089554063,2.32025091692653,2.32281013481367,2.32349992400981,2.32579922133029,2.32734874778539,2.32789857975333,2.33156745852122,2.3297080267751,2.29048001509881,2.28881052530525,2.28789080637706,2.28627130130785,2.28577145406427,2.28539157015915,2.2851616404271,2.28505167403351,2.2851616404271,2.28487172902582,2.2843518878925,2.28406197649122,2.2834721567438,2.28391202231815,2.28373207731046,2.283222233122,2.28431190011301,2.28438187872711,2.28362211091687,2.28404198260148,2.28458181762455,2.28429190622327,2.28482174430147,2.28489172291557,2.2858314357335,2.28572146933991,2.28564149378094,2.28725100190527,2.29176962098725,2.28906044892704,2.29135974624751,2.29384898552055,2.34780249699275,2.3484922861889,2.35034172099015,2.35089155295809,2.35229112524012,2.35139140020167,2.35082157434399,2.34945199289657,2.3506416293363,2.35081157739911,2.35121145519398,2.35252105497216,2.35440048060803,2.35633988791313,2.35829928910797,2.35936896220923,2.35884912107591,2.36020870557845,2.36148831452202,2.36160827786048,2.30558539879985,2.30278625423579,2.30213645281913,2.30155663001658,2.30076687137172,2.30209646503965,2.30265629395246,2.30318613203066
2.21407336544492,2.21355352431159,2.21574285523848,2.21646263526924,2.21802215866921,2.21913181954996,2.2200015537538,2.22159106798839,2.22273071970375,2.22360045390759,2.22475010256782,2.22648957097549,2.22701940905368,2.22837899355623,2.22959862083056,2.23059831531773,2.23129810145874,2.23292760347282,2.23382732851127,2.2349769771715,2.23632656472917,2.23754619200351,2.23894576428554,2.23948559930861,2.24207480803036,2.24284457278548,2.24363433143034,2.24432412062648,2.24609357986876,2.24753313993027,2.24890272137769,2.25079214395843,2.25349131907377,2.25590058278783,2.25940951043777,2.30430578985628,2.30502556988704,2.30628518494086,2.30638515438958,2.30953419202414,2.3038059426127,2.3031361473063,2.30283623896015,2.30292621146399,2.30301618396784,2.30336607703834,2.30355601899091,2.30540545379216,2.30571535908318,2.30825458308057,2.31031395372413,2.31200343740744,2.31315308606767,2.31399282943689,2.31392285082279,2.31606219702532,2.27574451835802,2.27463485747727,2.27459486969778,2.2744849033042,2.27474482387086,2.27465485136701,2.27500474443752,2.27547460084649,2.27618438393237,2.2764942892234,2.27807380651311,2.27907350100028,2.28055304884128,2.28206258751689,2.32877831090204,2.32928815509049,2.32972802066484,2.33007791373535,2.32947809704305,2.32538934659055,2.32321001260854,2.32173046476753,2.32057081916243,2.32046085276884,2.32021092914705,2.32035088637525,2.32123061752395,2.3222702997906,2.32338995761623,2.32636904718797,2.32686889443155,2.32780860724949,2.32898824674434,2.32680891276232,2.29002015563471,2.28874054669115,2.28723100801553,2.28634127992195,2.28554152433222,2.28543155793864,2.28465179623865,2.28461180845916,2.2846318023489,2.28418193982968,2.28393201620789,2.2837520712002,2.28426191538865,2.2842119306643,2.2838220498143,2.28379205897969,2.2842819092784,2.28491171680531,2.2838220498143,2.28363210786174,2.28457182067968,2.2844918451207,2.28447185123096,2.28522162209633,2.28501168625403,2.28591141129247,2.28663119132323,2.28734097440912,2.28807075138475,2.28994018007574,2.29129976457828,2.29395895191414,2.34929204177863,2.35097152851706,2.34945199289657,2.35090154990296,2.35118146435937,2.35153135742987,2.35050167210809,2.35048167821835,2.35080158045424,2.35036171487989,2.35143138798116,2.35482035229264,2.35342078001061,2.35667978403876,2.35884912107591,2.35852921884002,2.35757950907721,2.36125838478997,2.36149831146689,2.36092848560921,2.30372596705372,2.30385592733705,2.3017265780794,2.30049695386019,2.30069689275762,2.30131670333966,2.30178655974863,2.30276626034605
2.21325361596544,2.21389342043723,2.2150330721526,2.21627269331668,2.21787220449614,2.21901185621151,2.21998155986405,2.22118119324865,2.22244080830248,2.22348049056913,2.22502002007936,2.22654955264472,2.22744927768316,2.22897881024852,2.22928871553954,2.23022842835748,2.23128810451387,2.23324750570871,2.23372735906255,2.23498697411637,2.23652650362661,2.23702635087019,2.23873582844324,2.23970553209579,2.2410751135432,2.24280458500599,2.24373430087905,2.2444940686893,2.24574368679825,2.24772308188284,2.24929260222768,2.25208174984687,2.25402115715196,2.25538074165451,2.26022925991725,2.30433578069089,2.30493559738319,2.30645513300368,2.3067650382947,2.30433578069089,2.30365598843962,2.30349603732168,2.30240637033067,2.30259631228323,2.30254632755887,2.3030661686922,2.30391590900628,2.30551542018575,2.3062352002165,2.30825458308057,2.31001404537798,2.31213339769077,2.31290316244588,2.31578228256891,2.31322306468177,2.31628212981249,2.2748347963747,2.27465485136701,2.2744849033042,2.27499474749265,2.27426497051702,2.27487478415419,2.27493476582342,2.27563455196444,2.27592446336571,2.27601443586956,2.27783387983619,2.27834372402465,2.28048307022718,2.28320223923226,2.33148748296225,2.32934813675972,2.32994795345202,2.33002792901099,2.3268888883213,2.32571924577132,2.32366987207263,2.32184043116112,2.32083073972909,2.31999099635987,2.319980999415,2.32047084971371,2.32123061752395,2.32304006454572,2.32368986596237,2.32623908690464,2.32660897386489,2.32837843310717,2.32876831395716,2.32737873862001,2.28929037865909,2.28930037560396,2.28713103856681,2.28618132880401,2.28632128603221,2.28547154571812,2.28522162209633,2.28511165570274,2.28473177179762,2.28453183290019,2.2843518878925,2.28345216285405,2.2844218665066,2.2838920284284,2.28321223617713,2.283222233122,2.28342217201944,2.28352214146815,2.28363210786174,2.28392201926302,2.28399199787712,2.28391202231815,2.28500168930915,2.28521162515146,2.28536157932453,2.28601138074119,2.28705106300784,2.2872410049604,2.2879807788809,2.28972024728857,2.29030007009112,2.29234944378981,2.35102151324142,2.34975190124272,2.34995184014015,2.34972191040811,2.35143138798116,2.35115147352475,2.35056165377732,2.35043169349399,2.34998183097477,2.35109149185552,2.35151136354013,2.3523311130196,2.35417055087598,2.35479036145803,2.35831928299771,2.35841925244643,2.36176822897843,2.36155829313612,2.36153829924638,2.3620581403797,2.30451572569858,2.30155663001658,2.30182654752811,2.3002470302384,2.29984715244353,2.29994712189225,2.30228640699221,2.3034160617627
2.2133036006898,2.2136934815398,2.21548293467182,2.21659259555257,2.21793218616537,2.21931176455765,2.22149109853967,2.22142111992557,2.22277070748324,2.22345049973451,2.22502002007936,2.22669950681779,2.22753925018701,2.22784915547803,2.2297285811139,2.23023842530235,2.23143805868695,2.23301757597666,2.23373735600742,2.23549681830483,2.23679642113814,2.23723628671249,2.23864585593939,2.24029535184321,2.24078520214192,2.2422747469278,2.24373430087905,2.24444408396494,2.24646346682901,2.24780305744181,2.24931259611743,2.25122201258791,2.25361128241223,2.25595056751219,2.26176878942748,2.30412584484859,2.30540545379216,2.30605525520881,2.30647512689342,2.30516552711524,2.3048956096037,2.30369597621911,2.30343605565245,2.30163660557555,2.30256632144861,2.30295620229861,2.30431578680115,2.30565537741395,2.30694498330239,2.30839454030878,2.30989408203952,2.31289316550101,2.313283046351,2.31383287831894,2.31376289970484,2.31520245976636,2.2744149246901,2.27457487580804,2.27377512021831,2.27345521798242,2.27433494913112,2.27487478415419,2.27477481470547,2.27539462528752,2.27567453974392,2.27731403870287,2.27829373930029,2.27852366903234,2.28080297246307,2.2829423186656,2.33041780986098,2.3298479840033,2.32877831090204,2.32844841172127,2.32749870195847,2.32523939241748,2.32347993012007,2.32169047698805,2.32045085582397,2.32015094747782,2.32043086193422,2.32088072445345,2.32180044338164,2.32309004927008,2.32407974681237,2.32641903191233,2.32671894025848,2.32852838728025,2.32904822841357,2.32868833839819,2.32698885777001,2.28857059862833,2.28773085525911,2.28625130741811,2.28600138379632,2.28550153655274,2.28554152433222,2.28522162209633,2.285091661813,2.28496170152967,2.28431190011301,2.28409196732584,2.28413195510532,2.28410196427071,2.28385204064892,2.28385204064892,2.28359212008225,2.28390202537328,2.28378206203482,2.28518163431684,2.28351214452328,2.28499169236428,2.28546154877325,2.28457182067968,2.28533158848992,2.28749092858219,2.28623131352837,2.28734097440912,2.28831067806167,2.28917041532063,2.29178961487699,2.29299924520646,2.35127143686321,2.34935202344786,2.35055165683245,2.35137140631193,2.35132142158757,2.35264101831062,2.3509215437927,2.35036171487989,2.35053166294271,2.35122145213885,2.3520511985632,2.35284095720806,2.35609996123621,2.35653982681056,2.35817932576951,2.35862918828873,2.36137834812843,2.36161827480535,2.36121839701049,2.3072948763729,2.30354602204603,2.30256632144861,2.30099680110377,2.30141667278838,2.30101679499351,2.30238637644092,2.30255632450374,2.30342605870757
2.21322362513083,2.21452322796414,2.21549293161669,2.21654261082821,2.21768226254358,2.21923178899868,2.22022148654097,2.22209091523197,2.22307061582939,2.22411029809604,2.22485007201654,2.22546988259858,2.22723934184086,2.22796911881649,2.22878886829596,2.23100819005747,2.23257771040231,2.23346743849589,2.23408724907793,2.23555679997406,2.23658648529584,2.23793607285351,2.23873582844324,2.24034533656757,2.24127505244063,2.2425546613842,2.24393423977649,2.24476398620083,2.24639348821491,2.24747315826104,2.24984243419562,2.25098208591099,2.25447101967119,2.25722017951089,2.30111676444223,2.30502556988704,2.30575534686267,2.30636516049983,2.30507555461139,2.30410585095885,2.30381593955757,2.30299619007809,2.30347604343193,2.30304617480245,2.3033460831486,2.30347604343193,2.30383593344731,2.30502556988704,2.30634516661009,2.3083145647498,2.3102539720549,2.31301312883947,2.31408280194074,2.31438271028688,2.3143427225074,2.27431495524138,2.27439493080035,2.27425497357215,2.27394506828113,2.27439493080035,2.27250550821961,2.27479480859522,2.27482479942983,2.27559456418495,2.27573452141315,2.27668423117596,2.27778389511184,2.27839370874901,2.28106289302973,2.28341217507457,2.32997794428663,2.32999793817637,2.3291082100828,2.32834844227256,2.32701884860463,2.32539934353542,2.32319001871879,2.32181044032651,2.32040087109961,2.32009096580859,2.32009096580859,2.32039087415474,2.32172046782266,2.32277014703418,2.32412973153673,2.32626907773926,2.32726877222642,2.32796855836743,2.32871832923281,2.32830845449307,2.32741872639949,2.28821070861295,2.28788080943219,2.28595139907196,2.28545155182838,2.28522162209633,2.28539157015915,2.28514164653736,2.28533158848992,2.28478175652198,2.2845618237348,2.28399199787712,2.28422192760917,2.28408197038096,2.28390202537328,2.28360211702713,2.28374207425533,2.28341217507457,2.28329221173611,2.28426191538865,2.28432189705788,2.28481174735659,2.28517163737197,2.28568148156043,2.28536157932453,2.28782082776296,2.28685112411041,2.28783082470783,2.28869056196679,2.29033006092574,2.29088988983855,2.34910209982607,2.34953196845555,2.34920206927478,2.35083157128886,2.35137140631193,2.35111148574526,2.35101151629655,2.35094153768245,2.35061163850168,2.35133141853244,2.351521360485,2.35177128410679,2.35327082583754,2.35611995512595,2.3571596373926,2.35744954879388,2.36065856809767,2.36099846422331,2.36140833896305,2.36161827480535,2.30719490692418,2.30229640393708,2.30142666973325,2.30076687137172,2.30041697830121,2.30116674916659,2.30272627256656,2.30210646198452,2.30293620840886
2.2133036006898,2.21430329517697,2.21590280635643,2.21742234197692,2.21749232059102,2.21959167901406,2.22063136128071,2.22271072581401,2.2227507135935,2.22378039891527,2.22548987648832,2.22602971151139,2.22688944877035,2.22872888662673,2.22970858722415,2.23036838558568,2.23225780816642,2.23309755153564,2.23415722769203,2.23482702299843,2.23672644252404,2.23770614312146,2.23911571234836,2.24013540072527,2.24131504022012,2.24296453612394,2.24384426727264,2.24512387621621,2.24660342405721,2.24769309104822,2.2496025075187,2.25188181094943,2.2539011938135,2.26145888413646,2.30344605259732,2.30582532547677,2.30699496802675,2.30703495580623,2.30678503218444,2.30350603426655,2.30319612897553,2.30242636422041,2.30266629089733,2.3023263947717,2.30242636422041,2.30359600677039,2.30347604343193,2.3055654049101,2.30625519410625,2.30842453114339,2.3104639078972,2.31264324187922,2.31433272556253,2.31540239866379,2.31430273472791,2.2772340631439,2.27415500412343,2.27459486969778,2.27378511716318,2.27473482692599,2.27313531574653,2.27485479026445,2.27498475054778,2.27535463750803,2.27590446947597,2.27733403259261,2.27812379123747,2.27928343684258,2.28196261806818,2.28334219646046,2.32976800844433,2.33019787707381,2.32976800844433,2.32888827729562,2.32690888221104,2.32528937714184,2.32361988734827,2.3223402784047,2.32087072750857,2.32020093220217,2.32036088332012,2.32042086498935,2.3222702997906,2.32307005538033,2.32476953600851,2.32664896164438,2.32715880583283,2.32908821619306,2.32949809093279,2.32839842699691,2.28916041837575,2.28853061084884,2.28756090719629,2.2864312524258,2.28568148156043,2.28588142045786,2.28535158237966,2.2846318023489,2.28503168014377,2.28496170152967,2.28441186956173,2.28459181456942,2.2842819092784,2.28399199787712,2.28452183595532,2.28406197649122,2.28413195510532,2.28397200398738,2.28352214146815,2.2835421353579,2.28515164348223,2.28474176874249,2.28440187261686,2.28513164959249,2.28614134102452,2.28595139907196,2.28778083998347,2.28783082470783,2.28877053752576,2.29017010980779,2.29214950489237,2.3443335571223,2.34731264669404,2.350041812644,2.35120145824911,2.35343077695548,2.35044169043886,2.35123144908372,2.35094153768245,2.35035171793502,2.35119146130424,2.35150136659526,2.35180127494141,2.35397061197855,2.35818932271438,2.35780943880926,2.35764948769131,2.36402753851941,2.36241803039508,2.36174823508868,2.3605785925387,2.30613523076779,2.30335608009347,2.30146665751273,2.30071688664736,2.30006708523071,2.30087683776531,2.30345604954219,2.30185653836273,2.30250633977938
