2.28044242190714,2.28239296992247,2.28324593692728,2.28405463072757,2.28590768476808,2.28641149658204,2.36165543058451,2.36078037374786,2.36055286258974,2.36182542922363,2.36140436046975,2.36033623546791,2.36120060223323,2.36101561371482,2.36173068717089,2.36260507105745,2.3694548564473,2.36939669826362,2.36996094729711,2.37015598568221,2.3707486032016,2.37208251424448,2.37220415521244,2.37217163560597,2.37230638900733,2.37280459779305,2.3722936130896,2.37187933044318,2.37283365859659,2.37372565797711,2.3700981917512,2.37172253634319,2.28837680197027,2.28689291742961,2.28733569963819,2.28597592168722,2.28725875895227,2.28547770387696,2.28730422615091,2.28583380746208,2.28756017178938,2.28492797607273,2.28788287173701,2.28571053196203,2.28875564467302,2.2861123554286,2.28903414115097,2.28650203633976,2.28954285068363,2.2867689031098,2.28973046275046,2.28726633455832,2.28988360597225,2.28818077027472,2.29039395523026,2.2892316643923,2.2907753856441,2.28917425051593,2.29059087462866,2.28999907103681,2.29149594689003,2.29081206148368,2.29184397952987,2.29123876541176,2.29169397524599,2.29231984812746,2.29184180472051,2.29235532504928,2.29232431499367,2.29282282291428,2.29286661122612,2.2933014170264,2.29348514583314,2.2937103006039,2.29445706551966,2.29471685916431,2.29492884905762,2.29535574930427,2.29600319295092,2.295997188112,2.29628282935866,2.29646274011809,2.2977557053853,2.29693332680439,2.29840215201345,2.29697900993182,2.29909016094366,2.29769993595491,2.30024297600895,2.29839559983834,2.30165188321015,2.2992960698919,2.30296919748936,2.30095119828069,2.30469992445626,2.30353499260586,2.30616729138453,2.30700833708806,2.30826874762574,2.30926263666153,2.40125056003034,2.40118798086894,2.40012198099197,2.40175278587024,2.40192257683933,2.40286518874436,2.40412610104797,2.4051871910436,2.40541915428388,2.40597224052709,2.4069999888706,2.40731129657109,2.40763840197199,2.40744212849803,2.40762867924638,2.40685045554196,2.40759920554701,2.40780551088998,2.40749717358882,2.40671220139961,2.40741021219037,2.41112245008733,2.41187451946201,2.41053220080454,2.41428429913676,2.31424641873779,2.31391274632297,2.31338344059455,2.31309326099641,2.31406067397531,2.31492896573322,2.3146076903526,2.31477441922273,2.31604703708489,2.31602748938678,2.31800323366618,2.31758033954324,2.31761608110625,2.31833420366957,2.31874449375539,2.32445084097601,2.34419355285138,2.35242388989069,2.41841128239815,2.41617186303907,2.41802412260033,2.41580832067482,2.4190904266867,2.41923838613472,2.41871980452415,2.41944907484744,2.41940385121486,2.41984630329061,2.41882272812585,2.41894454360593,2.41929298872324,2.4205267444084,2.4207865214689,2.42299138628228,2.42238036336148,2.42375004285503,2.42412566780937,2.42436503621336,2.42399972088742,2.42334629205024,2.42327725691238,2.41923913937941,2.42669426127003,2.42606503307233,2.42513920591095,2.42605128312092,2.42604551803643,2.42480809163277,2.42427941000087,2.42326773131464,2.42374680630924
2.28307070569277,2.28462381129482,2.28572086007418,2.31062027619555,2.32530686348002,2.3394663331306,2.36114287545857,2.36130230822145,2.36178284207517,2.36236191460421,2.36260491909438,2.36279331913377,2.36260789705359,2.36299656117235,2.36364592646861,2.36557790264761,2.36966703700293,2.37031082210677,2.37074391866532,2.37142975839367,2.37143520774746,2.37216147239334,2.37252790652816,2.3726086620261,2.37271623886078,2.37238716654955,2.37190463132274,2.37171572048029,2.37245412588909,2.3732754230115,2.37252708176145,2.36426267320431,2.28785573424939,2.28795485034284,2.28781940109319,2.28799676841651,2.28706125011794,2.2868715438356,2.28597442128615,2.28658443841592,2.28601035874993,2.28685702947103,2.28635198658035,2.28743065655469,2.28663519044891,2.28806101950927,2.28684792528155,2.28844142605421,2.28722295421598,2.28891140015377,2.28760271696392,2.28904032276664,2.28796741238757,2.28957992489432,2.28874564895766,2.29027256638131,2.2893765467461,2.29048435458122,2.28991656045237,2.29093177637055,2.29069178420574,2.29123326800096,2.29114432879876,2.29147738443354,2.29166585583272,2.29196505777625,2.29210381120943,2.29221141934961,2.29258329838899,2.29278877902234,2.29307956276584,2.2934492583734,2.29378032625155,2.29411025599307,2.29466796548077,2.29530616245995,2.2952998327194,2.2953957470913,2.29589608052461,2.29598156012345,2.29640114303672,2.29681714407742,2.29749662128659,2.29788682148572,2.29823153368179,2.29845381750053,2.29839171307999,2.2992342144952,2.29902796762994,2.30040405239068,2.30055428296037,2.30236857655163,2.30266236342066,2.30464740932021,2.30531215132397,2.30695439521088,2.30701841464514,2.30838926071052,2.35005384964087,2.37197900282964,2.40277254510934,2.4024530593106,2.4020486572112,2.40258883189389,2.40346974299103,2.40479284589331,2.40607471342055,2.4067226393587,2.40686345589031,2.40717523978894,2.40754597875859,2.40792032124729,2.40815139718128,2.40819887694084,2.40825172634917,2.40787296807594,2.40782197430887,2.40758966907132,2.40787861755701,2.4081382476127,2.40887353301718,2.38519666251326,2.3717564881395,2.35573123820067,2.34033114874868,2.31445207300015,2.31391797067856,2.31342151543748,2.31306838731834,2.31362304230132,2.31400496747543,2.31427155232918,2.31469843584141,2.3156849934114,2.31589916791439,2.31732981025783,2.31797236429396,2.31845872395732,2.31900487661151,2.3201558092955,2.32344391389949,2.33517385556488,2.34204456457554,2.41969914311299,2.41888809704951,2.41890518304851,2.41788624199772,2.41927239088881,2.41921965589893,2.41916827027991,2.41983436776108,2.42045818572304,2.42067480593438,2.42060622565219,2.42095394086087,2.4212291450127,2.42195839129244,2.42250271446311,2.42374683286623,2.42430568543469,2.42555925516007,2.42700051432591,2.42721127838498,2.42624498475369,2.42449640405302,2.42349173706269,2.42179956363231,2.41985412756005,2.42074910118417,2.42427578160704,2.42587009412285,2.42536988208904,2.42481276062499,2.42517889539754,2.42543609442196,2.42592406041297
2.28383727279495,2.28580116027584,2.28698379357068,2.35921152084659,2.35952231101273,2.35912185040867,2.36000110140615,2.36112895082626,2.36204167755394,2.36256789329845,2.36290339313946,2.36461542848721,2.36223922984906,2.36286213375798,2.36342580950037,2.36415065502153,2.37200835096957,2.36874258290728,2.36975319925129,2.37143476407092,2.36953980676768,2.37057986049275,2.37123092005175,2.37093821624196,2.37152359074347,2.36999034947372,2.36958552378093,2.37053921739097,2.37159149991576,2.37467574529102,2.37000757092235,2.35588687689631,2.28704165334967,2.28674134411392,2.28734271567255,2.28680389556677,2.28743529444924,2.28556934675173,2.28600098339925,2.284857878849,2.28632193869668,2.2855272956733,2.28749697221744,2.28510586362747,2.28791202828935,2.28552110896929,2.28851613206861,2.28519551003637,2.28911599142,2.28600053114129,2.28959776225159,2.28569760440991,2.28962210871376,2.28655641066453,2.2901196238678,2.28781559095222,2.29034640993907,2.2885821669588,2.29096005958625,2.28935927540226,2.29123484246545,2.28972182305088,2.29091036397458,2.29045561901555,2.29135797706695,2.29121158157933,2.29164432946293,2.29149567496858,2.29225912503888,2.29214622816788,2.2927687487428,2.29285314395514,2.29374529791077,2.2935779248556,2.29415646407674,2.29629188097306,2.2944165542353,2.29524206532574,2.29473375079691,2.29591484494093,2.29518572038553,2.29677084725709,2.29680040357089,2.29790303337817,2.29843400705336,2.29811873419795,2.29825063101205,2.29859273416657,2.29907234586681,2.29953258686216,2.30148507883708,2.30157470485064,2.3033619547241,2.30278944511888,2.30585054469418,2.30617416934816,2.30747780712872,2.30977741300354,2.40060171695419,2.39989067963403,2.40054585909436,2.40098789047232,2.40091077103746,2.40124518014747,2.40211996613168,2.40349982063157,2.40486378059618,2.40455908906951,2.40386567757612,2.40398367032913,2.40372519096196,2.40432777884468,2.40436683092352,2.40454473095358,2.40503649439247,2.40503569708466,2.40526237820949,2.40466247415442,2.4054272844763,2.40554226616482,2.40602678617012,2.31114472290472,2.31109845111849,2.31087958748854,2.31120284532263,2.31216392794923,2.31183392838402,2.31117467097917,2.31140099898382,2.31118814998202,2.31177075745555,2.31173962385968,2.31346794262916,2.31329974713768,2.31381524784354,2.31453303515807,2.31716873063075,2.31668968322003,2.31759232518382,2.31661667448154,2.31695512097657,2.3182081145665,2.31870431371941,2.41590735895759,2.41598840839051,2.41645151184295,2.41475462272774,2.41718218100947,2.41470154369525,2.413513210327,2.41466666349902,2.41644540889673,2.41638813741639,2.41669987963572,2.41766148509498,2.41735433314391,2.41808313099832,2.41802217024282,2.41954517197916,2.42020745105309,2.42064074219905,2.42524357454684,2.42547496693725,2.42327602824466,2.41887045346001,2.41814675351425,2.41729674981282,2.41632947300326,2.41630953890884,2.41779912663306,2.4230679401984,2.418829012297,2.41924183427802,2.42274137628295,2.42336119744751,2.42365648773007
2.31719852981856,2.33065031223401,2.34318025764383,2.35918176796472,2.35968143532849,2.36021658643279,2.36101120661034,2.3619227626525,2.36286055580509,2.36334360708225,2.36391100988676,2.36435845576072,2.36401254255231,2.36432581286438,2.36494074386311,2.36618574982474,2.36871011401392,2.36896358834561,2.36940591192444,2.37026496410675,2.36999190052899,2.37032810757171,2.37085018396679,2.37064795885908,2.37067811448654,2.37048053014947,2.36964081404668,2.36885857602794,2.36858555684992,2.36601313131697,2.36777857207026,2.32723276561578,2.28763733275761,2.28803591815849,2.28792231892458,2.28790258044446,2.28670398561789,2.28625469670081,2.28564502191981,2.28581886727393,2.28549359443104,2.28644188945758,2.28600608288771,2.28686246270699,2.28636217841292,2.28800619623182,2.28650857751228,2.28786897415312,2.28653011261829,2.28842960948096,2.28704191690144,2.28867339031663,2.28725196435434,2.28913548463686,2.28790095637516,2.28967706773018,2.28854252464397,2.29011371269965,2.28927337827155,2.2905530330568,2.2897671754643,2.2906798578355,2.29018593967799,2.29103207732392,2.29076973621338,2.29149452388493,2.29130230014244,2.29203490907138,2.29177582372399,2.29237033435197,2.29232037028899,2.29335242070453,2.29344273244023,2.29402804340642,2.29435769340168,2.29488727140576,2.2947990929006,2.2946979296375,2.29536457898634,2.29530308028977,2.29625210626033,2.29615410606453,2.29716292271711,2.29698578134678,2.29827561418739,2.29787688377699,2.29847669515725,2.29898237752754,2.29995505957313,2.3011603855778,2.3025995722068,2.30406093211478,2.30477505355305,2.30581323800428,2.30633429918154,2.33944086470973,2.35894775627459,2.37621906591497,2.4012354850276,2.40098137692464,2.40133165980314,2.40201244768371,2.40258022253329,2.40266810854826,2.40331518372561,2.40417706112959,2.40488837830691,2.4049152485763,2.40485844469928,2.40475643284101,2.4046876274894,2.4050006058358,2.40496709944104,2.40501204030202,2.40471558393655,2.40441093005731,2.40460406043013,2.40500279116169,2.4058624777747,2.37518573473294,2.35271191434625,2.31070779146158,2.31104990372098,2.31148326188853,2.31163176311647,2.3122046598039,2.3120351268875,2.31198086200308,2.3115209194925,2.31167082593213,2.3113818431205,2.31201574175163,2.31208716448437,2.3125605499912,2.31284162832327,2.31396345923352,2.31477664917205,2.3154643556735,2.3164764607697,2.31710387641594,2.31794904328977,2.31810785375728,2.31800087674457,2.35951033556232,2.38269277602843,2.4058815128482,2.41555799683047,2.41527036221741,2.41543745931991,2.41518063914111,2.41593658254672,2.41708737763166,2.4181194665244,2.4185473972206,2.41864074891389,2.41893993004716,2.41951138542663,2.42013645613096,2.42088849071292,2.42121623517904,2.42136030756583,2.42071840755414,2.42108701917621,2.42224158050236,2.42123232882602,2.42038978302366,2.41969018677584,2.41885625304885,2.41888987376609,2.41999142214163,2.42059536503191,2.42104545045334,2.42197812052056,2.42489612904672,2.42548680894578,2.4259558751024
2.35750788680897,2.35730449656356,2.35754085194847,2.35877236799391,2.35953250933671,2.36082519110475,2.36114265940047,2.3623285133222,2.36282098997313,2.3630359979319,2.36328757849173,2.36330154274476,2.36324700162484,2.36348040808179,2.36445437969362,2.36486935440486,2.36609679970611,2.36659089608614,2.36702644787022,2.36824569093541,2.36812418153441,2.3679215965276,2.36942943607981,2.36805450407537,2.3681731575264,2.36946607392297,2.36845559094888,2.36598559384272,2.36916124502004,2.36352273144406,2.3657505805295,2.2872103484658,2.28731611651265,2.28679423657095,2.28718160103256,2.28649144658025,2.28614148717797,2.28463982147497,2.28648049539605,2.28453842381751,2.28572133216079,2.28507312849448,2.28660505362423,2.28490672738925,2.28764453744521,2.28685581636697,2.28826011492954,2.2849974112146,2.28848110678298,2.28505096311402,2.28975779151895,2.2854252169277,2.28967411270559,2.28606371699198,2.29002281702404,2.28658719812452,2.29034922307246,2.28727772820478,2.29069382105514,2.28811187961138,2.29074716701823,2.28839471661106,2.29123225170352,2.28899385181427,2.29147792700761,2.28962204790578,2.29186138685855,2.2907114290027,2.29217899739855,2.29041069097079,2.2924522825557,2.29222352196349,2.29375123925175,2.29303348394579,2.29427360827047,2.29379452813715,2.29359827754003,2.29454851457149,2.29377228255841,2.29591844875427,2.29466559700165,2.29704173847332,2.2949948411534,2.29682085930226,2.29682063225123,2.29794511353424,2.29716525501847,2.29918214166292,2.3002739372742,2.30125137974878,2.30283612787225,2.30323708120438,2.30394807159752,2.30583603696846,2.30678977775908,2.39786261238276,2.39841234747642,2.39840596107428,2.39842648816941,2.39863986219644,2.3997639994493,2.40144929949705,2.40239240558994,2.4005202302719,2.40055275420452,2.40101927033552,2.40156564241815,2.40134811341312,2.40194542733055,2.40148580124389,2.40117997513289,2.40192424656763,2.40151535770174,2.40226734309331,2.40170149259156,2.40126841612535,2.40183078318126,2.40186496793525,2.40328528303434,2.31020110097482,2.30940919748018,2.30932840998686,2.30977609055545,2.3092949178042,2.30985261578683,2.30939351929968,2.31109651356247,2.30978078035734,2.31113828123823,2.30999424233595,2.31072107282593,2.31061066323882,2.31082822594169,2.31016553987065,2.3113050459432,2.31244557613954,2.3121192495794,2.3129629179784,2.31390578151039,2.31447068663322,2.31506589930055,2.31606359901603,2.31660659721646,2.31698600547283,2.31735923266491,2.40328797320426,2.4146697655419,2.41162761422197,2.41418563558204,2.4116533661724,2.41182323502068,2.4125419418454,2.41518036355629,2.4156091151146,2.41429176270573,2.41512410029632,2.41566789681119,2.41684741928987,2.41717920710323,2.41693078032091,2.416689650269,2.41701439533164,2.41735859873817,2.41748905204804,2.41767208082569,2.41706514684496,2.41632580001225,2.41514775178878,2.41490209760982,2.41571773719401,2.41602872820426,2.4161269700221,2.41705019372389,2.42490484524406,2.42355011162477,2.42475340437823
2.35816375627732,2.35849158339423,2.35908464448951,2.35964965846667,2.36050278183259,2.36148334848315,2.36207017924784,2.36283547460767,2.36365849738547,2.36410588551842,2.36422621316758,2.36459955897364,2.36423998647989,2.36445856871174,2.36503270378429,2.36535426453773,2.36574375358646,2.3662791142037,2.36694570032699,2.36760102636808,2.36767734609462,2.36781273301254,2.36822607312168,2.36813661512771,2.36813173487835,2.36822795799002,2.36711051656782,2.36609178067213,2.36617958370421,2.3651851872225,2.365217394982,2.28726436556988,2.287373613459,2.28793252052767,2.28726363062297,2.28708142453195,2.28574700352273,2.2856715957218,2.28520096537877,2.28560431659124,2.28515673513336,2.28590766801778,2.28540130065115,2.28620501863609,2.2858790512161,2.28731832449012,2.28618352920122,2.28746805410479,2.28629647585168,2.28784848345329,2.28679009456204,2.2885278949126,2.28709806602518,2.28885863239023,2.28744915155087,2.28908620975362,2.28786407135724,2.28946363457159,2.28837918792013,2.29002185173209,2.28886198434767,2.29051240596436,2.2894234032616,2.29081189189597,2.28979756234499,2.29121242025856,2.29032240391767,2.29176113888564,2.29080793405963,2.2920028143372,2.29145209582997,2.29299580814421,2.29279956141659,2.29359569684103,2.29364953842988,2.29389990688842,2.29430712109001,2.29408662954998,2.29510260210395,2.29497064653954,2.29654655811085,2.29615880151146,2.29708261562006,2.29638523871724,2.29765995329516,2.29761153275371,2.2987127676998,2.29962808592155,2.30081592498433,2.30281907124813,2.30440033945473,2.30487212586327,2.30517283276251,2.30604809709426,2.35519019153288,2.39747050845506,2.39913879830208,2.39868243885401,2.39882449322247,2.3993468803133,2.40035982813317,2.40123865148974,2.40183295100077,2.40156738776615,2.40171995830106,2.40202312064539,2.40228818036529,2.4021295774845,2.40222939818311,2.40246076882999,2.4020747653505,2.40194255197748,2.40181674463904,2.40191646390482,2.40183869400071,2.40195649573487,2.40207832771421,2.40227916193795,2.36174475613777,2.30921414684424,2.30945150474059,2.31025263983907,2.31029825705483,2.31027716154102,2.30963923821107,2.30990355886408,2.30950866792927,2.31004705881161,2.30954627079135,2.31020435485325,2.30999007613282,2.31065389481855,2.31027631989854,2.31065453036364,2.31123322067179,2.31191140177582,2.31259565330602,2.31264142879572,2.31365083102049,2.31453704589991,2.31613091925415,2.31662896678606,2.31740278319551,2.31713600279599,2.3170594090801,2.36944924722642,2.41563160086157,2.41446824803715,2.41426557958181,2.41352936252996,2.41375483175426,2.41475558039284,2.41596688425633,2.41631085683992,2.41596562616602,2.41635537946465,2.41692475085381,2.41765177144458,2.41844168576571,2.41913894646487,2.41875052402123,2.41885017188963,2.41912032907162,2.41949644546442,2.41966461649823,2.4192271364531,2.41884016354307,2.41826808172363,2.41798370624779,2.41827632012017,2.41859256671106,2.41963595985664,2.4226456931891,2.42481949902815,2.42503347121725,2.42533271763764
2.35827802058353,2.35879957678241,2.35984362326438,2.35939552368587,2.36030825285899,2.3615875454263,2.36119987182648,2.36199413980989,2.36287379873049,2.36395270207773,2.36285743805297,2.36487150175563,2.36273402514537,2.3631884808996,2.36415847402943,2.36386584886107,2.36362011473213,2.36385996298187,2.36529131401238,2.36560004483142,2.36553579168387,2.36550774467328,2.36571050574221,2.36597338817639,2.36609852629059,2.36632237384335,2.36522251215477,2.36494962782395,2.36524852854521,2.36388011250652,2.36244163785002,2.28694202700636,2.28684099169858,2.28604386443995,2.28644026042872,2.28491264674303,2.28606835157356,2.28422854419952,2.28547024899728,2.28443630074835,2.28580612604492,2.28445490672892,2.28581520005674,2.28429548963729,2.28629389587461,2.28474972411652,2.28700849253243,2.28544309063549,2.28799710707983,2.28515608967621,2.28850277812955,2.28615394224127,2.28904572153706,2.28618623087176,2.28933137465724,2.28610677093405,2.28974031063113,2.28625909203399,2.29033034023923,2.28681393954195,2.29097665082243,2.28766178886025,2.29162428021411,2.28774185323498,2.29166497694456,2.28833023422731,2.29187114902598,2.28897764268226,2.29211558927138,2.28979022880818,2.29230241739576,2.29112653771062,2.29328513160147,2.2923932687614,2.29306111154878,2.293732294777,2.29346832036098,2.29449325942401,2.29348619811917,2.29581790381283,2.29544413768343,2.29771088438959,2.29620200822408,2.29704263827974,2.29653782880572,2.29800335942835,2.29850118189649,2.30001233231794,2.29852969471667,2.30237851050072,2.30360758440504,2.30345190576266,2.30446687480325,2.30712526169564,2.39396501021765,2.3919391620722,2.39894095232259,2.39669147742692,2.39709201223037,2.39759891174562,2.39862765051451,2.3982480477635,2.39855815970844,2.39840463468382,2.39881098093371,2.39922484408369,2.39966279946638,2.39886270831956,2.39858240142682,2.40017834418708,2.39905068158785,2.39865617452691,2.39920172834611,2.39951783619315,2.39995449576906,2.40077184933021,2.39916069896426,2.39856346857629,2.3083394692749,2.30787147820042,2.30806156485205,2.30761168678703,2.30857680609176,2.30717053788984,2.30908222162372,2.30750137778658,2.30914416105203,2.30780346136793,2.3091148951796,2.30797929571725,2.31007291589904,2.30921092125191,2.30959110238152,2.30950380613116,2.31055672783736,2.31106273557833,2.3124412719528,2.31196225902765,2.31175574503704,2.31390141120336,2.31455173565791,2.3144419212264,2.31499044582167,2.31590727764534,2.31628516390361,2.31639867276205,2.41340023421707,2.41272065059678,2.41205396875039,2.41147978269918,2.41104791045472,2.41208612921607,2.4125709896695,2.41263936421702,2.41190319526816,2.41243901194683,2.41307177405598,2.41339870403343,2.41476985023568,2.41729038702116,2.41476598230816,2.41520597841436,2.41541108397904,2.41618212579478,2.41708686598152,2.41624973156067,2.41649005938891,2.41607754296974,2.41536163757926,2.41528525501501,2.41595234001578,2.41574470848811,2.42298663170854,2.42051716388723,2.42149629516166,2.42243648302535
2.35836922529451,2.35889116174151,2.35947885246953,2.35980311507285,2.36047478271848,2.36118095633256,2.36152644094281,2.36208095241835,2.36265511994146,2.36285795425867,2.36291636107942,2.36338964962743,2.36319740018588,2.36339260897674,2.36369442551461,2.36378134675288,2.36389967597091,2.36426391704099,2.3650248197478,2.36524295586531,2.36582178840012,2.36577265621284,2.36561779998354,2.3655740259337,2.36556534349213,2.36556208529751,2.36510493099001,2.36487974175485,2.36514670045707,2.36549121696041,2.32704274280234,2.2874691294505,2.28716555347094,2.2875694957422,2.2863327413544,2.28620677093512,2.28490919959739,2.2856882252241,2.2848268553674,2.28575900209676,2.2851284877724,2.28578056647401,2.28509064415301,2.28567046622789,2.28530156145646,2.2861486489588,2.28570264247159,2.28676572970617,2.2859854244255,2.28724552543573,2.28641145789731,2.28794458759499,2.2868517721615,2.28835964690039,2.28699551590593,2.28846173533128,2.28736460281384,2.28911342380984,2.28784137521384,2.28963039052879,2.28828408340434,2.29023677151572,2.28871685217437,2.29048194901449,2.28907291200826,2.29087408257145,2.28968221138476,2.29129292726624,2.29032775044633,2.29185571357817,2.29128615586721,2.29292078090388,2.29259874357452,2.29313941655152,2.29302582274826,2.29336734749926,2.29393159154733,2.29365842794082,2.29457654070671,2.29444576507375,2.29614143282855,2.2962758404033,2.29803346131225,2.29798521034872,2.29831126507182,2.29871474578781,2.29980406218623,2.30103221987852,2.30195428795725,2.30380304127865,2.30420858080307,2.3041424159619,2.34419748309509,2.36566023822413,2.39428376332557,2.39438534178011,2.39642102552644,2.39663598019242,2.39731569633309,2.398169050507,2.39895142463508,2.39928217523466,2.39952415072356,2.39977945097988,2.40051608623288,2.40080553375149,2.40004638384742,2.39954602867115,2.39932311770967,2.39942576616952,2.39888760949078,2.39882370504669,2.39940273650961,2.40070987687147,2.40131359040086,2.37837754155524,2.36045493312701,2.34082861866903,2.30889217634906,2.30886894620597,2.30849032825549,2.30864197033261,2.30791288185277,2.30829693237311,2.30751704746434,2.30840020406934,2.30757913388487,2.30869733688546,2.30794020084133,2.30901299102103,2.30868320294052,2.30963314332735,2.30960057315424,2.31012574547554,2.31047291393484,2.31079240595206,2.31185929625637,2.31164930686677,2.31229710689818,2.31247971495376,2.31393163761763,2.31466272589962,2.31583062582751,2.31628202987929,2.31675140496327,2.31649738952972,2.37259281701323,2.41521950002155,2.41454454182345,2.41291692617105,2.41276442384007,2.41302236420243,2.41335380420126,2.4135602237965,2.41345580587991,2.41387630511388,2.41425530718742,2.41486035264634,2.41569661103976,2.41658323629149,2.41669310648888,2.41738136323547,2.41836409174163,2.41839736226409,2.41875779865001,2.41865290912287,2.41868684453239,2.41864354268962,2.41850101579461,2.41884684654962,2.41960623372198,2.42053684825031,2.42290567733434,2.42332741069563,2.42371915471626,2.42420635648294
2.3574056478891,2.35786627367613,2.35816320155617,2.35840755533109,2.35898814712847,2.35945331370822,2.35972401215165,2.36046461346666,2.3608623603347,2.36028401035736,2.36065570925515,2.36090616695831,2.36144479066725,2.36178202365802,2.36173743647381,2.36188092176769,2.36225555133116,2.36241385291466,2.36360775709363,2.36268579541721,2.36498556003785,2.36429073643982,2.363452185293,2.36321327068837,2.36314230993078,2.3642063593452,2.36446579244746,2.36468646938462,2.36462546626652,2.36602550834583,2.28716227027478,2.28623761821725,2.28654257260095,2.28509897444565,2.28659877767827,2.28376227983583,2.28545235802606,2.28449567458025,2.28599454602986,2.2845515684655,2.28613035448209,2.2847249251376,2.2857271657453,2.28439905151454,2.28589258018168,2.28479272098303,2.2864288233852,2.28486985658564,2.28653401941379,2.28530112084549,2.28750525006738,2.28546080429324,2.2882263169734,2.28605200572163,2.28838671900704,2.28557740198898,2.28923077312401,2.2865961426896,2.29004499581901,2.28651754328829,2.29060079199177,2.28686326467677,2.29088659749917,2.2872181763766,2.29110183686679,2.28793321537753,2.29163308189538,2.28867723552963,2.29195016369554,2.28964723278288,2.29264747208317,2.29188459421194,2.29372795186443,2.29195200851635,2.29270435259628,2.29283273621011,2.29281621341927,2.29393802208288,2.29252661740996,2.29461020093781,2.29397390339262,2.29628937840871,2.29850224999272,2.30028685156897,2.29819942525815,2.29821778856375,2.2990259869543,2.29957994953879,2.30174859934479,2.30381104053991,2.30396892525525,2.30459294461458,2.39004838230687,2.39049350249662,2.39157417969543,2.39304861134332,2.39421005673818,2.39459128154239,2.39508595236476,2.39565609363416,2.39624533346575,2.3966561114574,2.39676963015698,2.39707041292499,2.39917404282388,2.39998068521834,2.39669450416155,2.39630040746511,2.39618404340792,2.39589865538525,2.39578519758528,2.39645387491541,2.3972379999035,2.39998830969322,2.39985208961982,2.30792614921594,2.30744810351571,2.30741770974428,2.30819902438857,2.30654922171358,2.30685560954268,2.30538799597413,2.30725020700087,2.30616046222417,2.30797943746271,2.30602549917062,2.30839452982184,2.30598892008067,2.30887153534286,2.30659161190585,2.30872828552063,2.30763152526299,2.31003964874077,2.30924746792919,2.30970197370062,2.3095648297028,2.31065576944949,2.31139057985792,2.31108737089379,2.31127132724751,2.31128301927842,2.31414393816897,2.31248698288792,2.3141633434002,2.31487656181277,2.31609249916563,2.31618553137066,2.41307450622971,2.41331074643588,2.41003599599564,2.41103641926391,2.41030530170991,2.40967216633226,2.40992775904747,2.40957965424813,2.41052716394565,2.41045332130129,2.41130818057998,2.41177985244522,2.41177601596993,2.41309820180475,2.4142594886791,2.41722021235934,2.41523482333077,2.41581707368134,2.41585532923424,2.41586953870653,2.41621901115115,2.41599213583586,2.41662212776418,2.41838415695591,2.41853738593713,2.41904820794947,2.41959330782374,2.42019579142785,2.42195195839378
2.35787751040735,2.35824285911826,2.35860287757138,2.35890025508359,2.35932405659201,2.35944701507197,2.35995802233926,2.36051808406653,2.36066602806232,2.360349276267,2.36059219058968,2.36090206150734,2.36128932113451,2.3615848025593,2.36184506768241,2.36211329323256,2.36224569369705,2.36250844524666,2.36286767522005,2.36304160293922,2.36380932759497,2.36378352239775,2.36350389524693,2.36336220654058,2.36326943120342,2.36331566399062,2.36380638713441,2.36381804411482,2.36417530667637,2.3648996068463,2.28684213233302,2.28721554974189,2.28691293634777,2.28730360155564,2.28572292693884,2.28584129111502,2.28436212636291,2.28546079705105,2.28444469122283,2.28567338932468,2.28537501751234,2.28669900133926,2.28546719705385,2.28572373995502,2.28530210951508,2.28591947691073,2.28551402871641,2.28627635512257,2.28568429913376,2.28683927450235,2.28613310897684,2.28722095918772,2.2864721190036,2.28771106388078,2.28678567114257,2.28798397315494,2.28705191818448,2.28858220128917,2.28765571727478,2.28934299152577,2.28800888513651,2.28953667418907,2.28836293140259,2.29002323883231,2.28901259578018,2.29053336737505,2.28964446993166,2.29088683413906,2.29024652662571,2.29142909116916,2.29113272030111,2.29241416850907,2.2921153727189,2.29259690836172,2.29253185377145,2.29299464724096,2.29335142870083,2.29341904931446,2.29386412751875,2.29404078825531,2.29506399671402,2.29578659700168,2.2975628268769,2.29900284107583,2.29935419276712,2.29998113426366,2.30045607276147,2.30120320168896,2.30171374522227,2.33437590090223,2.35185143842735,2.36763850294309,2.39041803325862,2.39095681556189,2.39166313865699,2.39279350502428,2.39397108249617,2.39509496673102,2.39591156260514,2.39666384026306,2.39715446468061,2.39731052441998,2.39732166678459,2.39781863328977,2.39863534619789,2.39884064916853,2.3979356288923,2.39742773253213,2.39695222123888,2.39665831745985,2.39661660917588,2.39673203919833,2.3977007965008,2.39906951442573,2.35952262798863,2.3070443771708,2.30740223930653,2.30800400385114,2.30773694109336,2.30736218343829,2.30630239143804,2.30646053330061,2.30590634745986,2.3070021106417,2.30613386842595,2.307393262878,2.30617327049755,2.30747070336179,2.30654592310674,2.30812332386002,2.30733386823697,2.30858760167505,2.30851981408111,2.30977592584372,2.30953782976934,2.30976277140877,2.31028276569066,2.31051956423083,2.31120674651025,2.31125465538938,2.31264790109428,2.31331382399082,2.31402378727516,2.31483374867555,2.3158876940556,2.31606012638057,2.31645499822565,2.37214900683683,2.40481549964133,2.40709796100812,2.40837393069855,2.40895095483534,2.40972799670105,2.41080137001424,2.41125691214067,2.41174473027488,2.41201607819406,2.41244418090705,2.41314087174779,2.41337577746633,2.41408030532155,2.41507817990791,2.41646617683831,2.41662747543697,2.41712939029794,2.41745871392953,2.41778260489468,2.41874146540633,2.41848678844814,2.41890084545497,2.41999778095605,2.4201907932252,2.4205473232236,2.42136428842135,2.42189635804802,2.42240666225824
2.35676483358217,2.35702815674047,2.35729635584943,2.35755187102709,2.35813647234418,2.35735104621835,2.35834948356136,2.35937091637004,2.3591675322064,2.35826963722989,2.35865490916296,2.35923672622196,2.35938508983395,2.35979236268671,2.36007610011813,2.36083235493963,2.3602882458092,2.36085869384444,2.36045473009263,2.36111049167432,2.36146224632953,2.36181156613362,2.36127297856784,2.36183260666209,2.36117599931211,2.36150257409375,2.36285716759497,2.36317787210878,2.36219466226228,2.3630155730443,2.28679617382794,2.2857453944194,2.28686492152567,2.28459807417107,2.28642204240018,2.2835240005716,2.28597437885244,2.28299859718403,2.28523454096223,2.28345342402321,2.2864019593214,2.2873849818055,2.28622020718939,2.28446985356861,2.28592745581677,2.28474215403167,2.28609067591774,2.28501503870084,2.28654747445977,2.28539498968625,2.28720189901975,2.28535289281848,2.2874174553818,2.28567910939233,2.28812997298201,2.28619571887082,2.28807292159901,2.28597862563312,2.28909415975806,2.28740251563858,2.28956046185944,2.2868391171114,2.28995649694158,2.28783630973606,2.29063145727807,2.28877726779487,2.29075615753767,2.28918635735924,2.29101287343769,2.28976494563695,2.29146588879838,2.29055010724994,2.2919948599032,2.29118054027755,2.29248168768828,2.29240255228191,2.29309408777344,2.29315649459434,2.29336093253162,2.2938492258806,2.29472803314517,2.29488066436323,2.29613470121682,2.29725195669728,2.29872196460166,2.29787818392459,2.29969653959091,2.30056767046199,2.301634661384,2.38625074840366,2.38447985821756,2.38650600149698,2.38776488564453,2.38903980679227,2.38992323235185,2.39093906315406,2.391968186082,2.39302281377926,2.39349481920676,2.39417848801922,2.3947601420872,2.39448391469269,2.39390391709924,2.39484473191019,2.39536967352392,2.39538128661543,2.39524068065611,2.39486028236237,2.39426060598695,2.39453818019029,2.39582425527112,2.39484619430327,2.39569428842793,2.39692559462656,2.30514562329351,2.30565434442104,2.30617715164082,2.30581992464179,2.30546975140735,2.30420188155154,2.30535097346944,2.30399361335902,2.3065269945811,2.30459421909583,2.30722735439982,2.30450876329522,2.30717486351762,2.30391505146812,2.30723627302355,2.30554073454261,2.30807594535461,2.3060847875078,2.30790059779009,2.30901092692161,2.30923957203634,2.30854297056634,2.30911593510875,2.30921903484631,2.31016103870795,2.31085834465267,2.31279114248001,2.31332601919924,2.31191846617953,2.31325851697119,2.31285531924892,2.31413934079833,2.31617991338975,2.31583499256478,2.4039989497262,2.40452100779105,2.40453911730257,2.40462813392508,2.4056467666253,2.40770823434781,2.40827495134142,2.40854408419421,2.40888718779501,2.40874429248878,2.41037710527789,2.40985933900603,2.41008334261075,2.41078361942406,2.41216512335828,2.41283763270722,2.41368112468073,2.41404477780962,2.41398558815278,2.41735924148194,2.41518167707273,2.41531590006899,2.4173139956032,2.41636031605498,2.41628128016195,2.41787266461883,2.41782218527117,2.41804703327974
2.35686882620999,2.35731750813993,2.35725592287722,2.3572075270533,2.35744080984766,2.35741254909599,2.35775481912786,2.35823487536843,2.35799391673803,2.35768710876748,2.35878543933836,2.35920685156458,2.35957434244531,2.36010535791438,2.36032948238029,2.36051940898761,2.36060358343029,2.3609134882015,2.36089240958304,2.36128012589195,2.36192802143003,2.36224559266542,2.36177472589055,2.36157953998774,2.36132690114217,2.36089226906669,2.36079577502431,2.36070238165589,2.36099570502946,2.36150430321068,2.28661599187048,2.28708723559833,2.28677847670564,2.28710524574967,2.28527976987369,2.28559964423423,2.28425353943279,2.28502207099289,2.28399559259345,2.28499750083854,2.28475036075525,2.28606489085428,2.28516069145081,2.28532302466681,2.28498693783852,2.28558562287009,2.2852110268524,2.28595154533083,2.28536716151429,2.28633677558175,2.28577368210266,2.28679568342623,2.28617795507546,2.28710731449282,2.28661230581481,2.28740618613057,2.28680835482342,2.28766878360489,2.28746385859761,2.28845527840787,2.2879313837175,2.28864215243845,2.28836475060698,2.28924888409582,2.2891654553359,2.28982297471332,2.28973519461904,2.29019574876075,2.29028668217894,2.29083234891908,2.29083975000321,2.29139453556426,2.2913083752008,2.29181436047753,2.29194271842898,2.29277062556855,2.29295492678067,2.29351907577135,2.29360977397516,2.29440331197417,2.29498158813663,2.29629071324854,2.2973281884028,2.2990985274237,2.29935060929046,2.29929981752515,2.2989574309806,2.33674778824298,2.35800991877181,2.38721982921603,2.38676461360217,2.38736010363226,2.38815002138654,2.38926808481665,2.39042005269974,2.39158053446019,2.39249375482537,2.39329286451459,2.39380922704901,2.39435977766307,2.39467392437866,2.39465949896904,2.39461375692206,2.39507950207772,2.39546933384991,2.39568362706625,2.39570388607313,2.39558554983051,2.39530505513287,2.39495530749313,2.39475149125076,2.39528330087377,2.39738994763629,2.3986769356212,2.3051059775757,2.30571215748695,2.30627389055723,2.30646263743051,2.30533285097122,2.30486409447117,2.3042312444499,2.30494841682095,2.30457239775985,2.30565081856846,2.3048421623943,2.30608459838763,2.30468252977478,2.30609537060323,2.30509879146844,2.30685603813656,2.30595150743361,2.30746525834343,2.30708296818039,2.30883701318521,2.30824218475314,2.30866148213471,2.30858772592414,2.30912105751813,2.30982184766961,2.31043650570253,2.31127618971146,2.31166555728291,2.31237664876922,2.31371426687885,2.31538676431861,2.31589920776457,2.31626677346016,2.3157221097818,2.40579187172071,2.40521545588143,2.40466457847313,2.40471489145579,2.40527276873217,2.40693854697422,2.40901592742391,2.40997524188325,2.40987169830744,2.40997497404143,2.41039526184597,2.41056417898709,2.41086588747202,2.4115589809204,2.41212007236514,2.41276221226443,2.41340201817037,2.41401563581998,2.4147542676674,2.41642396463851,2.41657667043132,2.41645331968392,2.41691352349006,2.41699707415364,2.41718506825871,2.41801855872191,2.41854695409108,2.41899912471758
2.35504591063552,2.35661993558859,2.35527956246506,2.35504725064059,2.35518044325185,2.35561044997197,2.35531087404326,2.35631709340772,2.35512019864161,2.35409766246372,2.35776907502137,2.35773738286219,2.35779085613929,2.35925984789973,2.35873256262971,2.35885820294404,2.35878437356192,2.35982975295191,2.35893798151848,2.35969080586071,2.3606623559613,2.36191741553037,2.35969276236539,2.359872445633,2.35941246276039,2.35984616712887,2.35794165947134,2.35891468017103,2.35835117344258,2.35909086733465,2.28586752847906,2.28527007132491,2.28691014577312,2.28476220123308,2.28611317041192,2.2830084392968,2.28602010074431,2.28319509640434,2.28510630201969,2.28335444873169,2.28435153261816,2.28382732018412,2.28483230030931,2.28408950179017,2.28479431301716,2.28452676619583,2.28551524560129,2.28449235945514,2.2858206762404,2.28432426948916,2.28647307841717,2.28517458421624,2.28701553976077,2.28555580546844,2.28700444449142,2.28604882102788,2.2869756014873,2.28657680062756,2.2875222941109,2.28717705577808,2.28786785498691,2.28779952655309,2.28798828446736,2.28859966339378,2.28857781572485,2.2893629757435,2.28906373572467,2.28987013791232,2.28967010833377,2.29080203217749,2.29036077988933,2.29097655890515,2.29099411903487,2.2907115298069,2.29168427062477,2.2917882990913,2.29321877609585,2.29271019586157,2.29401910605727,2.29366318367986,2.29555387171749,2.29525622692788,2.29746230380912,2.29764422129501,2.2989456572603,2.29853739305481,2.29844954848833,2.38177004481223,2.38421070956272,2.38579698935945,2.38604081046369,2.38682831258443,2.38713672426933,2.38791127568915,2.38904598670325,2.38973127682041,2.39016226078412,2.39036313112034,2.39068041565441,2.39131098036616,2.39158866529859,2.39154872235476,2.39152895946222,2.39203823081061,2.39232903830738,2.39264677730383,2.39278195790618,2.39329480696939,2.39403195653164,2.39382285761557,2.39206272423893,2.39219147726552,2.39716946215386,2.39746264490129,2.30442111779465,2.30409835562327,2.30414240355096,2.30416117176545,2.30352056614071,2.30262449101046,2.30376095221315,2.30343192733132,2.30476324303009,2.30310433031705,2.30549059749504,2.30308732559978,2.30564359139407,2.30272459571644,2.30656849908827,2.30342042549054,2.30662599861853,2.30488575768307,2.30752548576234,2.30698272586705,2.30791205527568,2.30674080984232,2.30789651497709,2.30734644895323,2.3091510414229,2.30922757915154,2.30939912093789,2.30995339749101,2.31032916394029,2.31238261270118,2.3146389828778,2.31493781918661,2.31526206941411,2.31514988813833,2.4044688577436,2.40286258797631,2.40252038529663,2.40194924071035,2.40106851757393,2.40065310369413,2.40756043558651,2.40800434018517,2.40640380596223,2.40658732915362,2.4063539019137,2.40675268674032,2.40686034149727,2.40800713551613,2.4075015983998,2.4080654671708,2.40845119491618,2.40901843227826,2.40973814694343,2.41205594559213,2.41331904547952,2.41197212184188,2.41186182071315,2.41240151183726,2.4123451111642,2.41325749436328,2.4140542811376,2.41442193142639
2.35516720286241,2.35563713978391,2.35522081603687,2.35501559235986,2.35520500482404,2.35532761522369,2.35537721731164,2.35530998262398,2.35465651597603,2.35467451460958,2.35622829803375,2.35718017296059,2.35771456335074,2.35823232222359,2.35848762127898,2.35853122783634,2.35879689804794,2.35928182398509,2.35930260483963,2.35956699264171,2.36003832014036,2.36029009424805,2.35996620947845,2.35966332778084,2.35912551679762,2.3581206402726,2.35748582517587,2.35737679922647,2.35806376516334,2.35871246090815,2.28623854064102,2.28668526734899,2.28647887116304,2.2869539668109,2.28496854787447,2.28501106821613,2.28396045479711,2.28456639239311,2.28380647125355,2.28423507995151,2.28399970585419,2.28446537515184,2.28477327221341,2.2845765541954,2.28457021418217,2.28479147472342,2.28469691460254,2.28519117605878,2.28485862598206,2.28561632518375,2.28525060338542,2.28623900008323,2.28573440235741,2.28649168470838,2.28632724401304,2.28677617780361,2.28679916652755,2.28707916663824,2.28742256866297,2.28740183106519,2.2879527791732,2.28784201098333,2.28844993692633,2.2882601261065,2.28909209839904,2.28891592897886,2.28995988891352,2.2895390410324,2.29048278858054,2.2902341496289,2.29090152487847,2.29073507541276,2.2912228775469,2.2912845988089,2.29171426535586,2.29234972686445,2.29275151976598,2.29369116887515,2.29410791985249,2.29542638741171,2.29591611543511,2.29752992927352,2.29827717029106,2.29928722838053,2.29932052069784,2.33335355750505,2.35449248957856,2.3832957384696,2.38412565615824,2.3850546831032,2.38624616404225,2.38713736004896,2.38783472887864,2.38877403888973,2.38972471579836,2.39030644103911,2.39076782475819,2.39116142406971,2.39123518535497,2.39157705047679,2.39198885912744,2.39225783446755,2.39240862420026,2.39275197494251,2.39273893319818,2.39290115337519,2.39286558389679,2.39276613672004,2.39299653043831,2.3932251309364,2.39313427672345,2.39383724399511,2.3656060154452,2.34369190826398,2.30432930661909,2.3045511478643,2.30464004440006,2.30437889430084,2.3035863579215,2.30296942312526,2.30272041023406,2.3034939467728,2.30335645901895,2.30415998729233,2.30376577116352,2.30491718813912,2.30376579930515,2.30502532360344,2.30402803873709,2.30541897622824,2.30448709207481,2.30584420763368,2.30549264999807,2.30670705404732,2.30637775125874,2.30720858544548,2.30724963914379,2.3082484166089,2.30879716203095,2.30967563358745,2.30930261111859,2.31010078705513,2.31090568155733,2.31219083215125,2.31380043840355,2.31463303643464,2.31548468851926,2.31543446136087,2.40599795116901,2.40447604649518,2.40310679728169,2.40223690416607,2.40200040365792,2.40303987189528,2.40539337510408,2.40708349656208,2.40706493486656,2.40773735100265,2.40832108667838,2.40819875148013,2.40821982397396,2.40867667041068,2.4088520547957,2.40935021811629,2.40983426398665,2.41042576883074,2.41105261650358,2.41212627391933,2.41308918649928,2.41321701630001,2.4131720333962,2.4136698446101,2.41411307778315,2.41458477949204,2.41523084763573,2.41604176821725
2.3533083531738,2.35419242495805,2.35310514376147,2.35324248731424,2.35341979256794,2.3537087805338,2.35376966366908,2.35346485201045,2.351767830786,2.35223485610807,2.35352801177575,2.35560933444736,2.35586240823428,2.35602308552027,2.35654731493559,2.35651943094551,2.35663936650629,2.35775315896663,2.35743742417195,2.35781107856732,2.35759053128609,2.35778950069883,2.3579122128388,2.35824973024159,2.35698502742097,2.35596113279686,2.35566619863531,2.35629397564411,2.35676336942605,2.35785606125816,2.28607307682159,2.28507123657809,2.28604190641926,2.28520150214326,2.28530992054137,2.28267818188294,2.28465899272867,2.28308601505061,2.28391345017216,2.28342280384659,2.28352021031906,2.28447273670371,2.28473041472865,2.2845275783152,2.28382734605762,2.28424860249815,2.28419996559791,2.28412399267498,2.28520668421399,2.28418269548649,2.28589027240389,2.28468951002965,2.28603166194049,2.28517392435527,2.28653195983119,2.28624199481858,2.28631816651123,2.28725579778902,2.28640867620535,2.28779607407681,2.28658093356393,2.28869541143444,2.28681531622766,2.2891665152616,2.28701124719015,2.2900934083657,2.2883006046146,2.29086176285871,2.28858334203778,2.29128402581541,2.28917014624058,2.2912472595587,2.29012245374134,2.29142138888273,2.2912812951276,2.29179991099319,2.2928369997317,2.29304896984162,2.29512207606296,2.29482481050962,2.29592328235675,2.29545741110761,2.29770637073903,2.29801595192458,2.29946514829896,2.37759518987235,2.37987312642457,2.38167172565017,2.38265973465934,2.3834276614904,2.38631805003215,2.38650835491588,2.38643014387179,2.38702412425031,2.38789706225743,2.38780238665925,2.38826170372971,2.38905923392912,2.38840294260859,2.38866117105605,2.38943410681957,2.38991709122307,2.38986096078503,2.39051160882928,2.38960567111112,2.39028869358938,2.39035003993657,2.39023850782861,2.39073179847877,2.39169897459492,2.39110938429413,2.3927169524959,2.30271758410057,2.302386010304,2.30287057386768,2.30271029458036,2.30254799221293,2.30248907991015,2.30280016677349,2.30149864215869,2.30182316850267,2.30177488982241,2.303452532899,2.30171350249128,2.30470461373916,2.30262641547088,2.30507619336895,2.30231169839925,2.3048703059215,2.30288194127205,2.30487117576209,2.30294898808581,2.30529838180633,2.30376150615226,2.30594697548444,2.30509400731982,2.30729975482277,2.3066561765777,2.30932347865622,2.30901845078536,2.30877945827348,2.308897314683,2.31073901609348,2.30991203457404,2.31110931910535,2.31146909544324,2.31452955703935,2.31471562741859,2.40468298710203,2.40253477867821,2.40188337223361,2.40034384100549,2.4000803599923,2.39963474760275,2.40098478777956,2.4035127376327,2.40296288469159,2.40486489662023,2.4069430046752,2.40535463449447,2.40499919438162,2.40537071487715,2.405634048821,2.40626133016206,2.40671192667313,2.40723342206821,2.40738105959457,2.40763722948972,2.40906714258205,2.40986949284413,2.40921375075253,2.41015454265042,2.41109312774766,2.41088963154355,2.41142867961347,2.41260410165428
2.35311365138729,2.35324622892816,2.35326321268488,2.35339666421779,2.35348574180842,2.35352680475361,2.3536678760504,2.35351205423614,2.35333357238533,2.35340869928361,2.35421874829108,2.3553056119326,2.35572781400542,2.35581081192845,2.35626390749164,2.35648449841934,2.35669345289737,2.35699159286143,2.3570617337995,2.35719929354799,2.35741312685272,2.35739035330689,2.35767389685148,2.35766689059102,2.35724546145525,2.35615455930575,2.35565578454692,2.3551617906525,2.35570439341323,2.35633578714051,2.28571697715138,2.28610633951793,2.28597735150728,2.28609982214608,2.28442478597069,2.28430810781902,2.28338267521463,2.283766226891,2.28353437990979,2.28359743080753,2.2839480887031,2.28389685447645,2.28470394456523,2.28403277831049,2.28452197101578,2.28417456553163,2.28458161757902,2.28479632306343,2.28472465254519,2.28541340727922,2.28500749752774,2.28591150413847,2.28524782410573,2.28600933212373,2.28597330549897,2.28649394476316,2.28685950152178,2.2868338200232,2.28742696448319,2.28698984484598,2.28796957499125,2.28729153352493,2.28846538654203,2.28766568452938,2.28908766890931,2.28834713771421,2.28994371620987,2.2889916277398,2.29059659348683,2.28976814906339,2.29115025776541,2.29033493244786,2.29143118252653,2.29099527770288,2.29196951614272,2.29225898466146,2.29325497391811,2.29430553968031,2.29530980936391,2.2967066914675,2.2972174390544,2.2978913283044,2.29829526794526,2.29878226576278,2.34108005875276,2.37952405170174,2.38086914950412,2.3817518800383,2.38242364102201,2.38350109466322,2.38529849877796,2.38638149097235,2.38702344596557,2.38765528666325,2.38812863921144,2.38842801529213,2.38871284650146,2.38896401674189,2.38912973253564,2.38928977446581,2.38950582652531,2.38974211599384,2.38993985214554,2.39016337523425,2.3899028738814,2.38968791605462,2.38971187971401,2.39013393926288,2.39154348490956,2.39273620023479,2.36402080858079,2.34250054398969,2.30278511617755,2.30296319183862,2.3034218860566,2.30330264872858,2.30303396090659,2.30270108085013,2.30279695652788,2.30227411415049,2.30224130727564,2.302962312643,2.30291410593416,2.30319726031594,2.30300576545486,2.30400526827276,2.30300291934985,2.30391509227813,2.30318120095373,2.3044786536954,2.30373112805954,2.30444001115661,2.30436726096199,2.30518797350162,2.30504168892724,2.30612566621485,2.3063208623093,2.30750923242997,2.3074441692618,2.30856984979136,2.30778336559208,2.30888683335757,2.30907634675644,2.31035161234152,2.31138550065866,2.31261465536011,2.31377879059655,2.31427357856378,2.35462170133333,2.37633521357886,2.40296919476536,2.40204274772668,2.40130441988919,2.40127885351451,2.40200357353664,2.40325736544058,2.40385244415722,2.40512420368448,2.40590645375157,2.40575876487788,2.40581303571478,2.40614950536456,2.40659716206407,2.40748734377471,2.40786922172195,2.40830459756136,2.40862857298251,2.40892245110161,2.40971104687118,2.4105164200728,2.41046752276251,2.41107611598434,2.41172010246472,2.41230788099972,2.41286475553686,2.41379727329882
2.35126926605658,2.35097674544103,2.35151038013828,2.35229115927148,2.35182220422962,2.35195622085623,2.35204635096878,2.35222445828792,2.35288693921582,2.35246185318378,2.35285754237036,2.35424484382422,2.35417572225723,2.35385311659891,2.35445618670301,2.35504661635326,2.35485287909334,2.35502188649712,2.35478307949731,2.3550915087817,2.35549248766296,2.35521100396786,2.35541243609418,2.35610676098053,2.35590504539863,2.35579650224614,2.35501142405573,2.35435551445185,2.35380574618954,2.35459423951934,2.28487462891898,2.2844673793378,2.28581339207239,2.28334040233074,2.28436633704604,2.28273258349291,2.28344581793504,2.28285947028074,2.28319132395971,2.28360712628043,2.28272646349118,2.28439296062838,2.28290334774615,2.28471992877386,2.2832683848781,2.2844212156127,2.28421837221017,2.28463296278399,2.28487350578704,2.2844837083286,2.28579710622208,2.28462625792666,2.28591680936138,2.28453730365633,2.28603796929616,2.28596665294249,2.28657023684109,2.28719476845483,2.28611451671523,2.28798715925922,2.28616209859625,2.28842404416401,2.2862593852594,2.28914253571862,2.28676876322107,2.2900599158902,2.28711883471341,2.29063154028401,2.28799056316945,2.29178372321147,2.28898177851468,2.2920971860578,2.28947984436009,2.2919614129221,2.29076955157277,2.29289403671055,2.29299785953314,2.29432507600174,2.29469430425654,2.29589091395491,2.29713871140538,2.29698305555772,2.29860855147867,2.29950895771284,2.37583094916761,2.37743882409253,2.38105978498744,2.3814312480381,2.38185388564813,2.38181652069689,2.38339497331528,2.38420191128981,2.38492199794118,2.38547971187184,2.38560914747628,2.3861303523143,2.3863305882831,2.38613820284216,2.38707359216538,2.38709216267232,2.38673215624394,2.38671451638863,2.38693599222413,2.38722591041888,2.3871450191022,2.3866806420097,2.38711924321139,2.38803763610285,2.39044244551872,2.39197392257456,2.30270453446627,2.30239064290896,2.30250118371447,2.30178976265678,2.30139545258633,2.30126733415195,2.30114172679821,2.30170762878555,2.30289256008543,2.30193388609373,2.30217425591655,2.30283732598844,2.30361407131559,2.30138241774034,2.30327119719733,2.30227231964733,2.30310959863756,2.30161984839964,2.30342820292016,2.30311846299281,2.3042926201927,2.30260617650077,2.30493085034363,2.30392419838227,2.30514674476644,2.30416317486479,2.30703246356305,2.30525355529266,2.30741333795692,2.30563224931083,2.30771579286127,2.30631133990693,2.30817189560363,2.30793589251224,2.31052860418638,2.30982478916344,2.31182494898701,2.31271318896666,2.31382625846671,2.31642859097689,2.40230592447545,2.40128853796929,2.40077287923986,2.39961302140781,2.39956535421863,2.39956604877983,2.40013439929137,2.40181422980931,2.40191109924267,2.40195742755217,2.40236239146052,2.40269479642567,2.4030647525148,2.40506768903456,2.40489449243803,2.40526055509406,2.40570180398152,2.40534001363417,2.40599043121582,2.4075191011459,2.40661498944184,2.40740619077708,2.40792984660842,2.40918228316499,2.40938121027624,2.41046207613102
2.3517609015635,2.35160169836523,2.35154674330551,2.35160299009387,2.35171733291768,2.35190439200049,2.3519775961155,2.35208052740184,2.35265669946302,2.35302333420561,2.35339145591018,2.35369500180045,2.35393721758428,2.35397376554014,2.35439646636156,2.35449800944376,2.35483478037369,2.35497039462013,2.35503346128111,2.35535553473299,2.35593373438051,2.35591481471612,2.35586121235769,2.35561045445183,2.35557681744061,2.35488192953361,2.35430660412344,2.35408437205669,2.35487247651095,2.3554808233827,2.28525077108824,2.28573325710005,2.28535185650912,2.28512407805514,2.28384882909077,2.28393902984368,2.28316648836586,2.28333049497924,2.28335587076787,2.2832575464014,2.28374032548906,2.28329513322321,2.2841696913301,2.28360666211515,2.2843966993563,2.28386590613856,2.28435880669747,2.28459714433114,2.28464731399171,2.28528304076914,2.28461315992908,2.28571076610284,2.28472502393487,2.28574615877325,2.28533719545882,2.28611831043716,2.28638057533396,2.28657074414976,2.2871326463689,2.28698296665703,2.28786125555277,2.28709901038973,2.28823141979428,2.28757089060277,2.28900591206162,2.28817128034208,2.28953898482483,2.28864423815153,2.29058198205577,2.28964636999479,2.29129902354339,2.29034422112399,2.29166075957019,2.29100871988846,2.29248639024684,2.29287720388663,2.2945752279825,2.2953834066315,2.29647870001864,2.29741998465061,2.29753121248538,2.32547886470137,2.34138817197185,2.35670979440614,2.37664922068664,2.37766343179961,2.37955945191081,2.38086867922653,2.38184473784047,2.38283267712042,2.38407042462394,2.38452153860627,2.385010420746,2.38558631437914,2.38579369635786,2.38620991343739,2.38660108671789,2.38673421607707,2.38727775298815,2.38676158735056,2.38671596773409,2.3871190156361,2.38756369593563,2.3871887089367,2.3864991619261,2.3857524861372,2.38571324939165,2.38716840355668,2.3891744068747,2.35393448074267,2.30243208320346,2.30281966416055,2.30337359705149,2.30306472414961,2.30256096359878,2.30162946169523,2.30135245361822,2.30171863430976,2.30170713086652,2.30159797677692,2.30156287709173,2.30205018895146,2.30180998690874,2.30199096814015,2.30170583759397,2.30259330668217,2.30197026447843,2.3027463123291,2.30257277652019,2.30332313198142,2.3031362489548,2.30370568580211,2.30368575143741,2.30440252843763,2.30415058927861,2.3053048926605,2.30503799130807,2.30633407921064,2.30549827309581,2.30694829331898,2.30607264899773,2.30733814760541,2.30674986956225,2.30846761027581,2.30904838015325,2.31103561482807,2.31213920074246,2.31347037797352,2.31382660340402,2.3144598801809,2.40507342725291,2.4038020482304,2.40214576108217,2.40082585723435,2.39981890819846,2.40029646664552,2.40109894832811,2.40205293993933,2.40229553496867,2.40252910086115,2.40311163038763,2.40366659861474,2.40411823544946,2.40516757169752,2.40573788107789,2.40641228037894,2.40647354724515,2.40657139471224,2.40722325524091,2.40771771336343,2.40766092960354,2.40821280725181,2.40888073389576,2.40983662873915,2.41054085068434,2.41143630515951
2.35116539133754,2.35056801920379,2.34982187006534,2.34960671209397,2.34987763154734,2.35071383406885,2.35000142022413,2.35016316599023,2.3508319480507,2.35240140008582,2.35225046474226,2.35198906100764,2.35209500477899,2.35243656993231,2.35285548994331,2.35236163762433,2.35319480099994,2.35357937402326,2.35320335339143,2.35401162434792,2.35504681989411,2.35535916890342,2.35418260942775,2.35367440678751,2.35373606286866,2.35422053963669,2.35299202177119,2.35390204720516,2.35496235884519,2.35535050553692,2.28511940205448,2.2849161385777,2.28518912679544,2.28311473360551,2.28410665448323,2.28271503445576,2.28375002307976,2.28266610168925,2.28293797972736,2.28350616896194,2.28256396684223,2.28385851804491,2.2826817556249,2.28434252328891,2.28336586809758,2.28385803866779,2.28356388522358,2.28363291720462,2.2855176854261,2.2835433748654,2.28554492466169,2.28364826739459,2.28579290294946,2.28380795648501,2.28603813542247,2.28458159734129,2.28615504227162,2.28607020662209,2.28618344545079,2.28767575367315,2.28670061192419,2.28803084974495,2.2863813033579,2.28895397589796,2.28707809251722,2.28987707360747,2.28708360483989,2.29019707533338,2.28846215224121,2.29142606798348,2.28887347525668,2.29216140107161,2.28973855030398,2.29240745184289,2.29129214466539,2.29379831600552,2.29399177784576,2.29483285937291,2.29535037701801,2.29734564510303,2.29646450865347,2.37483375761486,2.37481958905553,2.37516962448721,2.37619277969341,2.37642060034532,2.37877453497289,2.37965318573172,2.38074918372099,2.38124806223735,2.38324642873799,2.3820868862865,2.38252770818089,2.38354481465315,2.38336198115376,2.38390380380884,2.38467364551199,2.3844523630908,2.38595531798914,2.38339437402592,2.38356317799422,2.38481276374862,2.38628864633369,2.38490856249544,2.38391892126383,2.38296795451672,2.38221417251703,2.38472614460644,2.38800855936048,2.30342525541968,2.30181384330472,2.30142990113046,2.30134294619916,2.30113175637772,2.3011317898319,2.30047250543175,2.29993264423889,2.30220421853839,2.300068428014,2.30049098523162,2.30047528545266,2.30006947385674,2.30078606808725,2.29997634312061,2.30109256156963,2.30074689949644,2.30172070838333,2.30137648724796,2.30261352554331,2.3015759055496,2.30260909923463,2.30264515001924,2.30334224172217,2.30235466803709,2.30447388174051,2.30299451014527,2.305656901468,2.30334759186719,2.30645709877461,2.3038398429351,2.30742667448926,2.30424543282411,2.3073793965951,2.30553380797311,2.30811144622805,2.30793641677898,2.31057548984756,2.31097042424053,2.31304577946026,2.31311661933094,2.40462101421814,2.4031613859999,2.40236232183977,2.39967418346023,2.39642478334814,2.39707978959466,2.39817311072781,2.39904203704702,2.3989522828017,2.39893630140073,2.40014468988578,2.4008576297172,2.40075878671165,2.4018006205647,2.40256778758569,2.40408261298945,2.40307945037894,2.40293337059729,2.40430683501691,2.40405784907205,2.40376274927528,2.40450771854018,2.40522846454943,2.4063409633453,2.40710800862162,2.40776722839404
2.35014581150272,2.35024130246207,2.35017360541588,2.34996716005544,2.35044692597038,2.35011237780301,2.34995669397348,2.35003921982345,2.35069531824745,2.35142960746354,2.35184104867337,2.35174863926389,2.35215611442248,2.35262071832375,2.35275160881173,2.35247719407315,2.35294045293954,2.35317244915854,2.35339862298794,2.35373851328097,2.35445825344372,2.35409308717055,2.35377941518591,2.3531974275487,2.35325838831387,2.35292379349733,2.3526298430112,2.35258485615366,2.33071272663736,2.31311211939159,2.28656775263384,2.28657085591845,2.28528735816158,2.28503197400178,2.28337052660637,2.28360740258538,2.28279014325254,2.2829934694315,2.28288486882807,2.28294808531097,2.28330507476981,2.28304493641543,2.28392306041682,2.28338980474796,2.28370974027259,2.28350428805496,2.2836128213195,2.28408179241068,2.28392393914337,2.28482764090225,2.28394957029559,2.28522473850062,2.28410730089458,2.28555878442334,2.28472014659643,2.28573144048573,2.28548453240874,2.28618301751234,2.28648560559959,2.28680293760624,2.28746315659255,2.28707514900711,2.28793930947295,2.28767251283148,2.28867962590568,2.28808928796675,2.28925414256778,2.28893800523206,2.29025498788496,2.28964588883739,2.29120231060251,2.29062225378795,2.29164194195442,2.29144050832151,2.29326912355315,2.29395813002086,2.29574413127423,2.29627359025146,2.29705978688297,2.29716327838738,2.3380969731517,2.37605338038542,2.37600012570474,2.37614278540477,2.37685836030492,2.3778152726946,2.37918034309126,2.38042492741027,2.38122286055425,2.38185535666175,2.38254033899566,2.38254178763646,2.3828035415823,2.38325199672145,2.38348117772907,2.38393616174512,2.38423752622783,2.38427830769983,2.38457972955576,2.38406085328419,2.38424621081434,2.38459455082297,2.38477094377005,2.38411302918506,2.3833609415317,2.38285042047639,2.38308551232141,2.38478964790532,2.38605035388199,2.34528626511523,2.3017377871483,2.30263971857578,2.30241462105689,2.30135432814176,2.30092341515934,2.30011740303552,2.30011974626938,2.3003899996438,2.29998204303952,2.29984761295952,2.29974825410114,2.29989514946945,2.29994877992721,2.30056780405148,2.30040183060468,2.3009584063971,2.30089145070428,2.30141505272151,2.30166040837428,2.30174186120851,2.30187790560092,2.30247353811497,2.30224183456909,2.30315016401304,2.30274113412798,2.30404133466115,2.30321959414255,2.30488790987692,2.30411583221134,2.3059407038938,2.30498349986039,2.30680591927916,2.30570924095162,2.30745332951401,2.30705271973914,2.30902672923222,2.31011771958864,2.31207473041752,2.31260899446103,2.31309719072678,2.36330982874077,2.39577295480517,2.39639266648089,2.39719220287273,2.39672680340096,2.39732583120258,2.39834241707697,2.39953324003256,2.39948547236323,2.39970692482751,2.40022417955866,2.40061936493238,2.40082995189418,2.40182057911236,2.40273950284696,2.40376826198055,2.4037633011437,2.40390009133474,2.40453285298916,2.40478510045609,2.40521390701909,2.40573317469917,2.40631166979565,2.40746029078031,2.40811892144596,2.40879659409735
2.34787600481589,2.34868784714166,2.34902238116438,2.34854518556446,2.35011083757671,2.3481898423316,2.34768285973948,2.34816494305751,2.34855449390104,2.34985620591788,2.35008499448915,2.35002227408822,2.35009231335426,2.35204730224277,2.35106203502169,2.35082084960467,2.35102759592847,2.35163176373178,2.35152517759251,2.35191337627423,2.35283269467786,2.35168148641568,2.3512130640419,2.35131437707201,2.35134471206661,2.35223746384569,2.35199758046412,2.3524397437134,2.28559118955866,2.28549266612311,2.28663426199806,2.28415688527692,2.28561903525634,2.28296534988023,2.28407525403716,2.28188188818437,2.28314999121514,2.28179119582737,2.28254483323076,2.2825108194378,2.28247297890486,2.28295440046346,2.28370985392782,2.28330679551703,2.28261354595258,2.2829500416866,2.28354793055784,2.28265648141096,2.28428202556529,2.28271440687454,2.28551923630194,2.28242639978881,2.2857781506436,2.28326358680309,2.2860385446568,2.28395775879044,2.28575113835534,2.28527904947028,2.28599921873452,2.28648282714029,2.28655700469316,2.28733914698641,2.28661014294516,2.28859465730039,2.28697000431571,2.28879716758633,2.28732221383338,2.29086642201276,2.28797108012335,2.29068857032063,2.28983658527924,2.29213102131577,2.29001527492955,2.29205103232752,2.29259418561005,2.29381919137278,2.2942875814248,2.29556291479454,2.29704758785063,2.29699690915884,2.37475924340091,2.37487792408242,2.37573415947854,2.37599817378926,2.37729505494693,2.37771973089452,2.37870452840866,2.37947855959735,2.37995961963506,2.37985946229595,2.38024896389089,2.38020536000807,2.38054035913845,2.38077214742104,2.38104798036593,2.38183817308106,2.38174013368874,2.38160476668507,2.38162536005828,2.38171811899806,2.38219659471683,2.38200750216217,2.38159635709381,2.38129642017557,2.38161874171409,2.38170160119858,2.38232714763554,2.38376874369023,2.38321109530578,2.38300236288665,2.29937565255599,2.30290169486859,2.30044508366884,2.29925457825645,2.29910242358954,2.29933427368089,2.29910408511032,2.29945186031945,2.29872123129229,2.29857870215407,2.29846268825217,2.29838260153572,2.29900073173799,2.29988456072508,2.29981431569426,2.2997174664604,2.30007971669462,2.30004538860391,2.30112520925643,2.30022456242811,2.30125376512237,2.30068038112345,2.30190271574681,2.30106961666895,2.30312109117093,2.30099709876297,2.30393787171689,2.30111845728147,2.30587828476195,2.30252547159551,2.30642814945925,2.3046165637618,2.30706282036512,2.30550623101371,2.30774368433214,2.30565751940155,2.30894156558516,2.30908153590772,2.31075458904717,2.31163980800041,2.31219944092609,2.39607672141374,2.39466705632232,2.39366276644303,2.39412530291344,2.39434400702123,2.39476158347831,2.39747404253307,2.39602178254549,2.39646703802694,2.39681243213698,2.39685075897528,2.39645228436418,2.39810589069881,2.39899395540352,2.40055222867323,2.40037029781886,2.40035458750678,2.40114429810069,2.40127459916076,2.40250655789967,2.40272602887265,2.40264190431663,2.40481597070539,2.40486128100473,2.40538367351572
2.34760435559692,2.34787618355601,2.34808180055648,2.34790459739552,2.34842385194891,2.34790501805679,2.34781136711136,2.34779805838476,2.34830969535538,2.34871300133743,2.34908522724465,2.3498167769237,2.35019346954334,2.35058792615944,2.35068728249712,2.35051342385425,2.35084733776997,2.35109106443036,2.35146351603041,2.35161802374147,2.35192651989705,2.35140702167861,2.35130517604461,2.3509194859319,2.35101429894914,2.35095457230198,2.35111858039109,2.3516684807122,2.3213188521644,2.28566889399457,2.28585108888557,2.2863215867435,2.28465890230899,2.28456241912566,2.28260133098937,2.28318730969061,2.28216727551105,2.28259934392088,2.28218305469191,2.28251569849411,2.28259438438094,2.28287401481064,2.28325241419572,2.28318553237064,2.28291806024028,2.28313445403606,2.28292108238716,2.28370306125409,2.28317184798571,2.2844073373931,2.28344026982879,2.28477481955106,2.28376011319937,2.28545483870584,2.2845079775667,2.28562238191865,2.28497847737774,2.28599198485345,2.2859621668845,2.28650760322718,2.28687898286307,2.28692154091515,2.28753221442749,2.28738617211764,2.28803073250464,2.28777351063881,2.28868932598795,2.28879506644483,2.28956755127786,2.28946053145603,2.29060436270013,2.29067268828025,2.29148271323687,2.29232579964098,2.29403499076897,2.29517928387458,2.29631036633204,2.29669956068434,2.29715755622132,2.3388689146106,2.37573741432807,2.37593194221876,2.37588848716092,2.37622625980735,2.37717495868127,2.3781484914786,2.3788660331381,2.37945504206361,2.37990957304191,2.38004055064133,2.3802693727651,2.38056866844682,2.38075640655454,2.38095103269255,2.3812739371648,2.38182836560599,2.38206343764135,2.38203886317958,2.38234837480695,2.38296833581584,2.38333668122755,2.38287625436981,2.38182668640555,2.38135923413792,2.38169651786103,2.382249411817,2.38271598828776,2.36335917480584,2.34762805884395,2.32973259179374,2.30061198678832,2.30121192019821,2.30081393945767,2.29956425786836,2.2992881936169,2.29884962162004,2.29893651044756,2.29882005569275,2.29880298676031,2.29851988717315,2.2985642730471,2.29860189936533,2.29907745303264,2.29961096832327,2.29948858455389,2.29977437321098,2.3000719935753,2.30052564111097,2.30093446122031,2.30121480873594,2.30128760807377,2.30161165047034,2.30091226143232,2.30200315872483,2.30132551640621,2.30277074115526,2.30187685587792,2.30364303079183,2.30280755743699,2.3045628606087,2.30375789786257,2.30571671639492,2.30480883390163,2.30641729189038,2.30596493294638,2.30755603963935,2.30841018232603,2.31064601951491,2.31133083785673,2.31195582492806,2.31192199668978,2.39682826575733,2.39565219974756,2.39365946360037,2.39341344446779,2.39395736657501,2.39513380222034,2.39663722286059,2.39698681975161,2.39700084198468,2.39704828651356,2.39741446565383,2.39779496603615,2.39868006489277,2.39968375846114,2.40068324868716,2.40196246865964,2.40235523010499,2.40236533020529,2.4029213662274,2.40334866650591,2.40347849465506,2.40398149547172,2.40543298213749,2.40639995236791,2.40663365946915
2.34527764755098,2.34621815268621,2.34553796528787,2.34576963856291,2.34572533217982,2.34634782197584,2.34567867422722,2.34602548713396,2.34606084451768,2.34689950231794,2.34568688814881,2.34918713696355,2.3480985715126,2.34856319897859,2.34848890067023,2.34887464777145,2.34879408867439,2.34950564357144,2.34955588072727,2.35013893213581,2.34955520802663,2.34969792107057,2.34918303829301,2.34967255787342,2.34950487986656,2.35055006757505,2.34927518695253,2.35084055360417,2.34912942258214,2.28420945623373,2.28525508099769,2.28370301198397,2.28475108801833,2.28174035276437,2.28355757378433,2.28129419090793,2.2832769805975,2.2811190606151,2.28244123665988,2.281429208266,2.28240544008449,2.28227287022697,2.28280662672226,2.28256960323469,2.28309447938437,2.28179135347715,2.2832635768557,2.28218276143741,2.28434407315222,2.28233359233313,2.28497246638699,2.28212371569708,2.28564571653912,2.28309152213696,2.28653960582365,2.28352464131091,2.28597123550503,2.28465371987711,2.28632758493783,2.28586392963873,2.28651032248035,2.2867758056204,2.28679790896921,2.28732356360537,2.2867359215021,2.28808588259827,2.2872704201523,2.28862498727149,2.28859874987915,2.28923573794154,2.28971610173874,2.2902926696255,2.2909063760223,2.29219840494711,2.29303233209777,2.29451003745288,2.29561284893757,2.29673961686118,2.297421886276,2.3735777978202,2.37461402300909,2.37636270290616,2.37594617660091,2.37565363316375,2.37627232395179,2.37684847764431,2.37724646843351,2.37710759190175,2.37814066251232,2.3778276947976,2.3782169552003,2.3788873854579,2.37894472931735,2.37891957738865,2.3791912819475,2.38009606212446,2.38050032152315,2.38013983560865,2.38050454539245,2.38237300566601,2.382936499656,2.38220122898502,2.37978641658519,2.37961704099833,2.38092362140474,2.38304327114139,2.38273851101026,2.29989862139383,2.29928011902956,2.3000113946358,2.29893410929481,2.29894487477092,2.29869495542969,2.29825886764471,2.29797491911124,2.29824502365712,2.29787724267266,2.29817951659158,2.29800403607205,2.29792049629354,2.29779264740611,2.29779449839281,2.29860948676115,2.29903199542432,2.29854002059458,2.29869248936622,2.29979969854464,2.29973080960209,2.3011244927306,2.3003647213677,2.30240765371598,2.3000946749685,2.30120461618416,2.29938738761851,2.30221279434714,2.30000044308148,2.30315127702923,2.30104189114915,2.30355640577033,2.30136155402335,2.30443077309513,2.30248931246428,2.30536742048402,2.30359842869604,2.30629161171924,2.30562961873551,2.30746057533594,2.30863833214955,2.31012292867561,2.31060341042878,2.31154188540374,2.3948554259046,2.39451732030757,2.39024283728438,2.39059034714687,2.3910618397205,2.39211092481186,2.39360648078996,2.3948014785864,2.39404246841106,2.39357377146564,2.39451532396635,2.39519035312597,2.39559843240414,2.39682060535565,2.39692698637943,2.40081946046397,2.40108197161635,2.39933068758412,2.40089509309574,2.40057598715411,2.39984512584855,2.40033168124288,2.40249961244486,2.40466939972869,2.40386830007698
2.3453945449322,2.34517527914448,2.34533779203197,2.34525450335685,2.34583483428058,2.34593986117511,2.34631298096945,2.34601545894989,2.34633282574901,2.3464439763677,2.34685957641673,2.34777612113202,2.34819594453497,2.34824399186387,2.34857794406466,2.34883734872131,2.34912995567021,2.34937773802426,2.34978376785509,2.34989460001775,2.35007645357958,2.34990570038556,2.35004445825,2.34957870677165,2.3493915520101,2.34883434268164,2.34920327547363,2.34972651956358,2.31872596933266,2.28513512062958,2.2849420132936,2.28540099726279,2.28360321554342,2.28372291178631,2.28181835099489,2.28264949681947,2.28169065371238,2.28243697725354,2.28179315686539,2.2824072810273,2.2822434801144,2.28287361086513,2.28283681133622,2.28340383127213,2.28284634281661,2.28321883742604,2.2827246740337,2.28373632589226,2.28325728784656,2.28426656272608,2.28330899018293,2.28466713600006,2.28360769238431,2.28522284390072,2.2842387481157,2.28547563001717,2.28472187117612,2.28598437336166,2.2856858001019,2.28650326300439,2.28634795134973,2.2867209995793,2.28700801923325,2.28727340521927,2.28763264554162,2.28790490091881,2.28839217383568,2.28863831331599,2.28908819643599,2.28956217722686,2.29009522369827,2.29102837526504,2.29188965999594,2.29377687477148,2.29459837885078,2.29555553226958,2.29593935372718,2.3271189135773,2.3473202604414,2.37335451437573,2.37413769706517,2.37488007208326,2.37522232706318,2.37577419616392,2.37673310893457,2.3772977031942,2.37751837207418,2.37789398116444,2.3782331531749,2.37812418185638,2.37842094278,2.37876290740036,2.37889068244171,2.37886603442918,2.37922919089418,2.37979995493191,2.38015202900142,2.38030647897122,2.38073713601958,2.3814029750372,2.38148088314941,2.38115608507536,2.37990782255086,2.37924210849017,2.37841139225635,2.37645876202748,2.3743778755652,2.29975491254203,2.29985775744698,2.29996692823692,2.29976881472915,2.29908254893325,2.29867944866902,2.29795471711677,2.29767709136309,2.29750662324503,2.29749728296283,2.29778163766286,2.29776823247715,2.29767087031488,2.29773529075177,2.29785675507399,2.29832935607134,2.29855300597326,2.29863841485836,2.29906727743287,2.29910114375547,2.29972518512977,2.29982776749392,2.30088192862692,2.30056894154928,2.30117816202091,2.29992604178204,2.30115467975268,2.30052365603785,2.30215030395957,2.30143264445185,2.30280335429633,2.3020360438766,2.30315461152621,2.30277713710721,2.30397858197803,2.30369408567029,2.30487060207102,2.30493941087844,2.30633597695284,2.30737686694049,2.30976163739281,2.31111967451409,2.31192765314317,2.31213644358941,2.35834476152793,2.38761804324743,2.3890161132725,2.38992883894798,2.39085562502263,2.39223362548886,2.39347163987249,2.39433693473795,2.39459055181466,2.39474988179834,2.39543833504554,2.39589217793377,2.39628722243547,2.39701188458331,2.39780951017397,2.39931529719482,2.40012460412243,2.4005485560356,2.40120146144367,2.40160905725107,2.401220239793,2.4017441352939,2.40315046258201,2.40418657178439,2.40436396208575
2.34306535011318,2.34345249031567,2.3429903064346,2.34385524075848,2.34390779019711,2.3448608763569,2.34502423706333,2.34494678029559,2.34441299251311,2.34516761423534,2.34528545351988,2.34614793066417,2.34665639280708,2.34684839580095,2.34686015126727,2.34774473007808,2.34769203608998,2.34809435063883,2.34845546201454,2.34848659710473,2.3487199971512,2.34870171966131,2.3490411524349,2.34894186886757,2.34876907423366,2.3479025414575,2.34898272591079,2.34877757900017,2.28490824968271,2.28354081477152,2.28477030109118,2.2824844059228,2.28430624711097,2.28128814225759,2.28297214557867,2.28025942087635,2.28272821721969,2.280919969661,2.28255773075837,2.28129766604217,2.2829186414545,2.28185812772914,2.28373813295333,2.2828640953989,2.28362439105415,2.28222571238553,2.28358481401256,2.28240665100925,2.28492761034967,2.28235914300641,2.28489719317044,2.28262318646415,2.28528616473176,2.28270828474342,2.285725683777,2.28313471218858,2.28603274438108,2.28430259101799,2.2866734843644,2.28534926406204,2.28667044505983,2.28550026741452,2.28693047069485,2.28688819710439,2.28759336131604,2.28760411607289,2.28874427067108,2.28820723266348,2.28924868359374,2.28903865444999,2.2907162175336,2.29030501611239,2.29180807134113,2.29302395142796,2.2940525301075,2.29451603189916,2.29561403363278,2.37091912773875,2.37097606880808,2.37109969986977,2.37321043202726,2.3738478736239,2.37397608689028,2.37416586661879,2.37570306971031,2.37570109411828,2.37548586408639,2.3764208234209,2.3767837806103,2.37589119749975,2.37660064317579,2.37678684227799,2.37696470812392,2.37638673054976,2.37699465057036,2.37774050409237,2.37786554195831,2.37818620214547,2.37841845748622,2.37885015511929,2.37826821228775,2.37944363479826,2.37886566107943,2.37854693300391,2.37539609839503,2.37566509936374,2.37275021850607,2.30003795788482,2.29919339147872,2.29919199043912,2.29738927319436,2.29756083983982,2.29662488478063,2.29685197446783,2.29681496768269,2.29603185573761,2.29662145667026,2.29684856569819,2.29711365287189,2.29667561964512,2.29685414548372,2.29708259234322,2.29761920565932,2.29742223388335,2.29821127831736,2.29837416820715,2.29845613627781,2.29776217209942,2.29941347827445,2.29893479711183,2.30107687429455,2.29885949930945,2.30070308957661,2.29849272733201,2.30174686397962,2.30010289635825,2.30267502667162,2.30054675733079,2.30309206718053,2.30092651413264,2.30330101554167,2.30211063177471,2.30366054536763,2.30340481903629,2.30474002110949,2.30459534692737,2.30626342355485,2.30799135418951,2.3096743460784,2.31063753366568,2.3117083323906,2.31259618632713,2.38764405256546,2.38758692032868,2.38808212339916,2.38856367917881,2.38995678813488,2.39066029745795,2.39132239782156,2.39206403619012,2.39231115514197,2.3935116208106,2.39355266736633,2.39348492560877,2.39389103638336,2.39469608795589,2.39514174336722,2.39614648784305,2.39803311159224,2.39819792188882,2.39980815125909,2.39805429932979,2.39864916771576,2.40057408657334,2.40092117544727,2.40075058964019
2.34354441181304,2.34328893140102,2.34359171339217,2.34331455391562,2.34385571439689,2.34391790704411,2.34458683338683,2.34425851558136,2.34474474593748,2.3450361461199,2.34561296476337,2.34587051477269,2.34640925680551,2.34665198548935,2.34704378160345,2.34751004104094,2.34788886020601,2.34805572720219,2.3484579871613,2.34891998931223,2.34909555608972,2.34889086219795,2.34855906552781,2.34762996164736,2.34713864376503,2.34650824984907,2.34734234560633,2.34780405618749,2.28465126606181,2.28477552649429,2.284486574833,2.28435076679767,2.28273977840434,2.28284149122686,2.2812449626026,2.28208999898935,2.28142412369617,2.28228611674274,2.28163804768316,2.2823282267999,2.28212700269855,2.28272467870493,2.28275293962328,2.2834936726725,2.28311257761476,2.28351458303605,2.28302753091108,2.28386716188587,2.28331075415869,2.28408276942976,2.28333076162733,2.28455419237149,2.2835110146775,2.28482029930657,2.28388291187189,2.28514959166636,2.28435648966118,2.28580279196298,2.28531742189366,2.28650093692746,2.28589082478377,2.28683016941263,2.28661955669379,2.28748687701407,2.28737104764418,2.2883532543079,2.28831955159801,2.28911478156833,2.28909035815406,2.29019209343751,2.29038564874074,2.29206290344931,2.29283808012403,2.29474478500943,2.29480024451299,2.29524623860349,2.33376749574958,2.37062605261612,2.370663976486,2.37091838848817,2.37214418668862,2.37328341578117,2.37411859150632,2.37494485816182,2.37567410255348,2.3757131589833,2.37598000736462,2.37635709769627,2.37653320784431,2.37699849814462,2.3772296511593,2.37726029119552,2.37721266439967,2.37718714292179,2.37750576819053,2.37773090454158,2.37780816147014,2.37787189703868,2.37790253444981,2.37784793072782,2.37722995213811,2.37677024407218,2.37592351504973,2.37606524495068,2.37636898459179,2.3510323484948,2.33078803538322,2.30018151995797,2.30029973977214,2.29926204871037,2.29851660233343,2.29748514970326,2.29693044662598,2.2965983479513,2.29650256647274,2.29673019977239,2.29652050563906,2.29701359175189,2.29665118591234,2.29669365915591,2.29675655756369,2.29721908854455,2.29741501180273,2.29745503630865,2.29780151449893,2.29844997773333,2.29815412537585,2.29875555630436,2.29839746132038,2.29961633526584,2.29890226990585,2.3000112805128,2.29902178817324,2.30059279163719,2.29995004443989,2.3013632447024,2.30099250776246,2.30193118548561,2.3016518379291,2.30226419601894,2.30242424232547,2.30307317302301,2.30300588459142,2.3037767510866,2.30439127121094,2.30589454891582,2.30739124847466,2.30899816600434,2.3106138138024,2.3109661129917,2.31135088836425,2.35532205547007,2.38829425519976,2.38789292192957,2.38778392149227,2.38840892484165,2.38965483557146,2.39067186807208,2.39160410766274,2.39231985593611,2.39283432678259,2.39387619963245,2.39476183082452,2.39454279504664,2.39473722234561,2.39525802713392,2.39560812710738,2.3963289391757,2.39716398839831,2.39780187026466,2.39865966404474,2.39897786682314,2.39961967644026,2.40049898282843,2.40122060004004,2.40181700650287
2.34146486296251,2.34269998624852,2.34199389637474,2.34237159673165,2.34132619755906,2.34258839775982,2.34202787950252,2.34286350209025,2.34252338781098,2.3443467656699,2.34384102082193,2.34460141987738,2.34477077142644,2.34535313127406,2.34570815386133,2.34591064289069,2.34692080573675,2.34650360676595,2.34701046961692,2.34831791513042,2.34781822490067,2.34798150976392,2.34646926748199,2.34584822318774,2.34512296218103,2.34507797389376,2.3454644824975,2.34627282270098,2.28444623919091,2.28350219305931,2.28402325065147,2.28183031947978,2.28282575697576,2.28071121267155,2.28210643400266,2.28022350018008,2.28279474842018,2.28084306020329,2.28223274991139,2.28118775007369,2.28235889083814,2.28176580625525,2.28256549853601,2.2828251347281,2.28357082173028,2.2827538365751,2.28355825940791,2.28296720546953,2.28382679379946,2.2823844411365,2.28444993276941,2.28269155361561,2.28492296094549,2.28257087971256,2.28555708571029,2.28281436069821,2.28562598608319,2.28357242918274,2.28657160534697,2.28472663410914,2.28685284345447,2.28557309578364,2.28758403908198,2.28607955173944,2.28785496231176,2.28739920362486,2.28887928200362,2.28797185379686,2.29027277669784,2.28913220267449,2.29119845274091,2.29038048636513,2.29293523177136,2.29318792398765,2.29476993217824,2.29550654118017,2.36757598121643,2.36817922911713,2.3691872068924,2.36975415785435,2.37130354092573,2.37220081927644,2.3727051248456,2.37362941072177,2.37412429654762,2.37322283243767,2.37428028812956,2.37442532443061,2.37400058222926,2.37636016642439,2.37605189894918,2.37581571768384,2.37536448156956,2.37560892649807,2.3760433481533,2.37586510570164,2.37565879409429,2.37544876853555,2.37522982647153,2.37522387382748,2.37456590191054,2.3735756573403,2.37222572038777,2.37297210288543,2.37675927635306,2.29815098372058,2.29784024627661,2.29873779193731,2.29776360528026,2.29805712985947,2.29582562303398,2.2970596281034,2.29588154742111,2.29556616577432,2.29637071155885,2.29604494626032,2.2965757669808,2.29611541435569,2.29613095360824,2.2955262725962,2.29583674725665,2.29707293131379,2.29665423992468,2.2964981531688,2.29691727717955,2.29778872314888,2.29808912261948,2.29743320897813,2.29867358733389,2.29723325070258,2.29930641638689,2.29705461911899,2.29991254602579,2.29852499364129,2.30087401375655,2.2988748471344,2.30157303362137,2.30031566650148,2.30153987086587,2.30105001076241,2.30224466572203,2.30257589718764,2.30204572196401,2.3029019719324,2.30329712350047,2.30643974033865,2.30705669559615,2.30777073103747,2.30907057832176,2.30897661589822,2.3101279026536,2.38665314907233,2.38751315817137,2.38696702018381,2.38606736832892,2.38629500326699,2.38712436591201,2.38773424812699,2.38897801306887,2.3897240307862,2.38987089616541,2.39146757049736,2.39410793621237,2.3921644996641,2.39215714917834,2.39287672588823,2.39256691543763,2.39327658034544,2.39332682852664,2.39398581389332,2.39476358363216,2.39622882515584,2.39691893089838,2.39708941417162,2.39804397243658,2.39881974610662
2.34161944510216,2.34131854021036,2.34153893839727,2.34110413133941,2.34148460532907,2.34143912367572,2.34218856232595,2.34210986384935,2.34288386290378,2.34317153766022,2.34363088638713,2.34387410158949,2.34442087836281,2.34494046491012,2.34559293846919,2.34626760510611,2.34661877382456,2.34680554641009,2.34678112602744,2.34624055096902,2.34604627855518,2.34522364221067,2.34438074213071,2.34352784576598,2.34342339071956,2.34349796844684,2.34404521172032,2.31698458271675,2.28535324154493,2.28527433057004,2.28476644038038,2.28363059801628,2.2822384041961,2.28219940643299,2.28095280861672,2.28163213105055,2.28107672103097,2.28188180018689,2.28136753529945,2.28176460525707,2.28174670781927,2.2821674128705,2.28226780268052,2.28254697847232,2.28280730367012,2.28299056446141,2.28297646994323,2.28337797246852,2.28301506878688,2.28359377289634,2.28320820326024,2.28407933240688,2.28341796544169,2.28436198647964,2.28383249008095,2.28471694385206,2.28409057550201,2.28534325927452,2.28499515427275,2.28616546362224,2.28567906205089,2.28684112097824,2.28646852302566,2.28740518414834,2.28710164607631,2.28822428845817,2.28801639819253,2.28918710181188,2.2893998396043,2.29085154483921,2.29143983869159,2.29338193800432,2.29426858773319,2.29560810345052,2.29590432224523,2.33430864680365,2.36854559050103,2.36855158721553,2.36887833708302,2.36974913153499,2.3710820566997,2.3723162503111,2.37311826975027,2.37368958303873,2.37409171891047,2.37424330075787,2.37472493241197,2.37524894938674,2.3756782729188,2.3765680164614,2.37632544372194,2.37590606249067,2.37571335158761,2.37597542354241,2.37603121396247,2.37593051397477,2.37605348012499,2.3761247524765,2.37597773302703,2.37528878034668,2.37429136280376,2.37331330924945,2.37286027110449,2.37363754283941,2.37489711256197,2.29752310089985,2.29802855768256,2.29814398602946,2.29875936198044,2.2972383699395,2.29686131866427,2.2959624653472,2.29618761388897,2.29590983217803,2.29589861971206,2.29624131950237,2.2960999448483,2.29641616411508,2.29620112815242,2.29598715106262,2.29612817482321,2.29630018315629,2.29673283437427,2.29648576479225,2.29709858536147,2.29730080407679,2.29756426980409,2.29789460986312,2.29765746916601,2.29831246106184,2.29777194022036,2.29870215844114,2.29822931501772,2.299611165983,2.29915038669651,2.30025362575434,2.30040218234767,2.30159724346297,2.30118896712862,2.30144654803824,2.30177783571007,2.30206358245132,2.30241777933203,2.30260040664654,2.30368169340124,2.30477406709423,2.3064163418426,2.30716086347713,2.30865736341263,2.30875263565255,2.30943119297766,2.38749077391522,2.38742277154949,2.38653439918506,2.38597742582393,2.3863499746714,2.38725151526893,2.38821184206167,2.38905496707063,2.38968425564188,2.39016988894086,2.39115505903278,2.39213794575035,2.39216067271548,2.39242934168112,2.39300395821894,2.39326722267547,2.39367764509773,2.39411462053126,2.39472361473809,2.39538785599503,2.39654165487372,2.39729999156009,2.3978526180252,2.3984659946808,2.39925196335478
2.33951197188221,2.33984670382007,2.33863037224267,2.33990377834908,2.33866223221092,2.34027764854657,2.33967386059863,2.34111167956096,2.34070190911209,2.34175253574564,2.34121130693272,2.34214282377747,2.34272196798023,2.343215283985,2.3443991056793,2.34511195342068,2.34543240512734,2.34568522625543,2.34595717512652,2.34237706421241,2.3430666213934,2.34125702868811,2.34050103411717,2.34076659483618,2.34141037447363,2.34268137955863,2.34318813186215,2.28504581145785,2.28455882359816,2.28443232533583,2.2847527377117,2.28220861529011,2.28234590111377,2.2813339696504,2.28156616804062,2.28000981498517,2.28136712294812,2.28063527908526,2.28168393127718,2.28063809725447,2.28130750938268,2.28201523744405,2.2815420240005,2.28178955968247,2.28191668340648,2.28248742936761,2.28252134135293,2.28260487589716,2.28295019614665,2.28259603528764,2.28353548665546,2.28286233653826,2.28390991466422,2.28294179554357,2.28459674180771,2.28332405504276,2.28458814773009,2.28396644280596,2.28565734347528,2.28468961019108,2.28632089230265,2.28545709430102,2.28700801551267,2.2862571813716,2.2874418059373,2.28703561130257,2.28822329815953,2.28829202899293,2.28996939058228,2.29001725167928,2.29173346385984,2.29209994978213,2.29421119117563,2.29532857985348,2.29740887857194,2.36774278629833,2.36794417381946,2.36801179164781,2.36850435324537,2.36917384652005,2.36999386099961,2.37093073440732,2.37162589721995,2.37172246819683,2.37218539577386,2.37290658685979,2.37303600015404,2.37420818707677,2.37483385027281,2.37602724775312,2.37476732123875,2.373850553668,2.37359044058375,2.37454944044238,2.37417359385372,2.37366097385645,2.37441913227767,2.37468696509046,2.37520686432116,2.37366909748604,2.37336409493491,2.37219716489744,2.37250054126781,2.37223581135762,2.37255823684851,2.29726557704829,2.29589768497713,2.29733293296105,2.29537022844054,2.29671644029148,2.29425866213607,2.29562249678943,2.29551079990089,2.29578218107401,2.29516971766811,2.29529114998665,2.29567662242896,2.29584436666119,2.29592777885525,2.29588309772255,2.29476309240352,2.29616356667315,2.29513640825314,2.29671790893364,2.29570870929602,2.29688854647496,2.29644671700472,2.29722536513623,2.29723901960525,2.29688651531451,2.29798180602621,2.2967309233568,2.29862839332371,2.297431203789,2.29930418335337,2.29850372894829,2.30024323134792,2.30191346760944,2.3006720458617,2.30064464297536,2.30057851066938,2.30144950990529,2.30127724736992,2.30229195850272,2.30181783435861,2.30396053672433,2.30334111146611,2.30580197674417,2.3054074018739,2.30724949876335,2.30788641813148,2.38518739562268,2.38629650366311,2.38591891258012,2.38493895204002,2.38487524511611,2.38492409418288,2.38602750629417,2.38643724016798,2.38702993523273,2.3872362100807,2.38811364564007,2.38834278131514,2.38907750106261,2.38953326371648,2.39057187587915,2.39094701345975,2.39114482240063,2.39177235108242,2.39235776142511,2.39240547669741,2.39404807884108,2.39462938323276,2.3952378532247,2.39533292671581,2.39602073676377
2.33952742678979,2.33892302990517,2.33919092977685,2.33892286304782,2.3394624762715,2.33936796058721,2.34013983098633,2.34010227839602,2.34083996248824,2.34095467468312,2.34154993171895,2.34199863320163,2.34263379306582,2.3431198415812,2.3436422290774,2.34443530412399,2.34486312881803,2.34538749469618,2.34522285441995,2.34392759070208,2.34249266673449,2.34106482463858,2.34054810040469,2.33996258199171,2.33970679459691,2.34016907524304,2.34128261215593,2.28584462951762,2.28679637676861,2.28589386051035,2.28476918306184,2.28305637402382,2.28197115898475,2.28180825692079,2.2808466948313,2.28126555894979,2.28057930824845,2.28128142990628,2.28096375916298,2.28118334799446,2.28130970238857,2.28158113985703,2.28189611909119,2.28157745525077,2.28220559305159,2.28210934320288,2.28264357870989,2.28267549309152,2.28289003125129,2.28312954750622,2.28314346042363,2.28353858371984,2.28335277267493,2.28379449231725,2.28385847087188,2.28432254727467,2.28430710742326,2.28494025775538,2.28500541798924,2.28557090997287,2.28571816911894,2.28625239573426,2.28652280015436,2.28701802781076,2.28729687834681,2.28772576668366,2.28824999111502,2.28918477301814,2.29032257624102,2.29188220285898,2.29304949353065,2.294279003242,2.29497287865909,2.29560305864754,2.33310852878872,2.36735100667019,2.36739583916418,2.36755615568035,2.36825020062147,2.36929704620561,2.37032341094315,2.37110023805723,2.37156179279111,2.37186853641587,2.3720752546764,2.37248214501449,2.37312548000906,2.37399597972151,2.37485171530166,2.37542037999625,2.37499183083636,2.3741736140038,2.37366929817471,2.37370619991109,2.37369951830876,2.37354439273773,2.37356397401201,2.37361421770759,2.37334764699619,2.3726189647958,2.37234474156902,2.37161465046611,2.37257189921621,2.37374397078904,2.33660459033828,2.29705548799522,2.29769335203237,2.29667984851544,2.29719375162565,2.29533057072735,2.29554944621877,2.2945448320264,2.29531342167839,2.29492384075779,2.29500008104603,2.29496622134874,2.29531005168085,2.29524138989089,2.29556203992503,2.29492564627761,2.29555010338751,2.29505118730986,2.29624727451435,2.29560061504529,2.29679023438255,2.29619746019511,2.29703960255334,2.29669978307614,2.29710907447442,2.29714660584704,2.29721288871504,2.29776704777754,2.29755456332798,2.29823033125171,2.29823548291055,2.29908361190956,2.29937817923639,2.30030037473044,2.30020008237455,2.30029899614064,2.3009502570253,2.30106414286948,2.30202186151605,2.30156550886256,2.3028038390145,2.30277350163851,2.30479904993504,2.30553665093012,2.30792700795633,2.30807038563739,2.30853934210741,2.35358548485995,2.38534737179892,2.3846725635388,2.38453778080567,2.38478032508274,2.38542213616809,2.38626733798539,2.38666186270605,2.38698975965602,2.38740899971552,2.38797557570039,2.38851106831873,2.38927391333295,2.38980935105856,2.39051462281548,2.39106081621584,2.39134092596087,2.39181079578075,2.39239941635081,2.39322446613717,2.39465080566765,2.39523219341247,2.39576658589906,2.39581170155353,2.39658384183372
2.33728090709331,2.3379217817769,2.33695921639331,2.33826622020383,2.33716131773309,2.33865922790789,2.33789115664207,2.33912583070899,2.33866768697104,2.33956800377677,2.339841739527,2.34076648838471,2.34154844436524,2.34158254041477,2.34186108869166,2.34218726185773,2.34327265809907,2.34398841776233,2.34442487557834,2.34454914387317,2.33973326110667,2.33902287743109,2.33907788309512,2.33951544723052,2.33727533263688,2.33771258046264,2.3397275733828,2.28522817650408,2.2885044288273,2.28480503240995,2.28259702533694,2.28186250518675,2.28155746017846,2.28096237822261,2.28130497005453,2.28008228741747,2.2812350659697,2.2797609109079,2.28134955122843,2.28037686714688,2.2807962267125,2.28156692929753,2.28096010658844,2.28183040245859,2.28097815509882,2.2822140198323,2.28179551322288,2.28260216541987,2.28252350431533,2.28279855248168,2.2830097864282,2.28306008643137,2.28316575648909,2.28317597688984,2.28364461197947,2.28406109894286,2.28419750920136,2.28480956205979,2.28459853598348,2.28527986699206,2.28527532962298,2.28599961720803,2.28595902548614,2.28711972752761,2.28678678667709,2.28794494186185,2.28768351074545,2.28951258723283,2.28972249317934,2.29189108737348,2.29224121491399,2.29332773885187,2.29503940361656,2.29586554225897,2.36353688714483,2.36504802540925,2.36600766422916,2.36679423612608,2.36754577523798,2.36834657521232,2.3689735242725,2.36949662142984,2.36946798675883,2.37016002713454,2.3696769860098,2.36993835930196,2.37090820550674,2.37192545050097,2.37311348608022,2.37392818794876,2.37359021802755,2.37222501714872,2.37124622044038,2.37089418000109,2.3714792730579,2.37108125332226,2.37063502453626,2.37046782092173,2.37017057796934,2.36982200098058,2.37198188781681,2.36947337423692,2.37196799206581,2.37458331364218,2.29635822912372,2.29658034224304,2.29517346513747,2.29641665049404,2.2938359070793,2.2959656289453,2.29300516403628,2.29507720247185,2.29327089758886,2.29480511437149,2.29325121561138,2.29457733048413,2.29366875481801,2.29526975311961,2.29320413455389,2.29528320092456,2.29294597053403,2.29615655400044,2.2937946174303,2.29685128584639,2.29458365574378,2.29726243135598,2.29528437612667,2.29665311668163,2.29599865355645,2.29644038954619,2.29656548526698,2.29705996841919,2.29723345871836,2.29671891006076,2.29787232632963,2.2978059301629,2.29845648832993,2.29852569416808,2.29869291979101,2.29970268499051,2.29950745400454,2.30161693072926,2.30044382788239,2.30234136960234,2.3004348328921,2.30342483598474,2.30187662667049,2.30540098538057,2.30634816411776,2.30823085866571,2.30738514314451,2.31374484071804,2.38349461834247,2.38236825229289,2.38344882826504,2.38323157356733,2.38355196232945,2.38433698481387,2.38424796627223,2.38430880862457,2.3849336276705,2.38540228434805,2.38595199161395,2.38714960783635,2.38733748699581,2.38799417300618,2.38880070964657,2.38860472113986,2.38891248750988,2.38924261474704,2.39044915746377,2.39302201760005,2.39279761810134,2.39361491594521,2.39234747270208,2.39312166943466
2.33765809072334,2.33722508102057,2.33769177939048,2.33743611270275,2.33803622053995,2.33788665106522,2.33863866157957,2.3386255914649,2.33922401984554,2.33954233900271,2.34010025518858,2.34054375924564,2.34104429675859,2.34135028581162,2.3416103634798,2.3423930849731,2.34301165754634,2.34365541751501,2.3438037353284,2.34285651092623,2.34082841024062,2.33920736052896,2.33871727348334,2.33788360194752,2.33730207159379,2.33767650201212,2.33931397563657,2.2855203241556,2.28641439311726,2.28540003578216,2.28377453708056,2.28227530917853,2.28152173568851,2.28135653953061,2.28060264549027,2.28120317010939,2.2805716520743,2.2813872211847,2.28070287084744,2.28097173750875,2.28089426154812,2.28111748228187,2.28152392802301,2.28133515115155,2.28196992369592,2.28191900123604,2.28253977167777,2.28264567763674,2.2829167451104,2.28308253799178,2.28318558446269,2.28336484165508,2.28341315697017,2.28352868339746,2.28379299575332,2.28406278316751,2.28461765397418,2.28472821892898,2.28521021726616,2.28535539236534,2.28607985568828,2.28595319780102,2.28674626101939,2.28657301633621,2.28769536768047,2.2876939132474,2.2894361629693,2.29008781045199,2.2917986442831,2.29257247069021,2.2936912670629,2.29423649855329,2.32276154861208,2.34104087133966,2.364539049977,2.36519341301133,2.36597476038753,2.36690624129313,2.36793224140693,2.36869734564525,2.36922019756287,2.36957842813425,2.3697253094978,2.37010116070522,2.37036354181957,2.37053571473718,2.37100342175516,2.37171989585728,2.37244035396273,2.3729615038733,2.37281214069484,2.37197728352477,2.37137505123014,2.37128363157608,2.37138136050379,2.37126510485468,2.37100378432557,2.37066514833715,2.37006084852448,2.3696709770497,2.37022192373711,2.37049389083553,2.37158922375026,2.33762388010937,2.29687715379337,2.29639116561906,2.29716697589673,2.29532330028524,2.2959043199613,2.29399017827357,2.29483604822374,2.29372464542927,2.29458970270504,2.29371989637343,2.29431910436519,2.2937628810178,2.29468847415887,2.29385847172699,2.29473727968273,2.29370530624222,2.29504114123479,2.29409483490632,2.29584724022911,2.29474895180636,2.2963442096714,2.2953789364168,2.29636651425872,2.29568246598553,2.29647331611034,2.29613733666293,2.29654046013773,2.29684101177298,2.29696941992992,2.29729893704276,2.29756029568472,2.29790024839054,2.29818662441411,2.29845161914313,2.29913825739618,2.29949405818225,2.30040413927943,2.30044141504673,2.30174937057097,2.30094580823276,2.30228789372188,2.30173598772649,2.30446555374563,2.30466990592784,2.30746787220277,2.3073198577975,2.30777898786827,2.3520899920516,2.38328134069743,2.38226434378604,2.38199627409622,2.38234723293813,2.38310190755512,2.38401787397029,2.3844298686345,2.38477449729827,2.3852758201548,2.38563388509777,2.38629424466418,2.38699708876241,2.38742511527832,2.38806119329493,2.38876743349453,2.38932804981251,2.38959058601744,2.39015579807718,2.39099152408689,2.3921302220446,2.39263102740201,2.39319517251749,2.39332517254916,2.39399857706918
