2.27800135915537,2.27830678930049,2.27921737485142,2.27859399219693,2.27865407424744,2.27847531477221,2.27852917617558,2.27864869578162,2.27870974527742,2.27893222711934,2.2787668678106,2.27941826311869,2.27960752057589,2.2799944254409,2.28012751747041,2.28033388204909,2.28039158621954,2.28111302513044,2.28183805666377,2.28163093413294,2.28149879695149,2.28182554617369,2.28219321688166,2.28258472180621,2.28330227170844,2.28344987490492,2.28419693082133,2.28395089290443,2.2840664655257,2.2841855213147,2.28418080749355,2.28497163366842,2.2854889475813,2.2860796815547,2.28666663173352,2.28712444263366,2.28791789290213,2.2884582137596,2.2895172968333,2.29051989775084,2.29168418281943,2.32267651558469,2.35597857521691,2.35652588745405,2.35714453172986,2.35858501432467,2.35991180929555,2.35988129974181,2.36070170560988,2.36021583819611,2.36078377472993,2.36011716034836,2.35991556152521,2.36029266518918,2.36043156029609,2.36075558790163,2.36076885154754,2.36089447645962,2.36147766591194,2.36157093636155,2.36228360429495,2.36250667848936,2.36172326230416,2.36309891815747,2.36332802429174,2.3637219874992,2.36473393013082,2.36377029909025,2.36373426831931,2.36330023273589,2.36288339111244,2.36251544947399,2.36126256718392,2.3608503862475,2.3597853186787,2.33327797353818,2.29865389183629,2.29811371959268,2.29765667388153,2.29695167390278,2.29741250716914,2.29689345287707,2.29680355476871,2.29661092737493,2.29637903100102,2.29648818846589,2.29663347463058,2.29668181083884,2.2972670966438,2.29643474237937,2.29600222316753,2.29616890527508,2.29656752160806,2.29618066995571,2.29633539015684,2.29638875795732,2.29689945945668,2.29691171939226,2.29721486390855,2.29748331414927,2.2982398394591,2.298113098168,2.29881079497333,2.29835295164838,2.29877871466188,2.29835849917734,2.29857672405408,2.29827161791227,2.29846739485454,2.29916618228192,2.29949009832648,2.33215532854889,2.37241296303702,2.37182073786485,2.37163780062214,2.37222022822148,2.37277063767424,2.37325054313219,2.37391615384838,2.37541747865888,2.37709458027772,2.37742686614079,2.3783775861986,2.37782680408626,2.3781780629772,2.37821608418788,2.37878192703543,2.37899498300825,2.37947019750519,2.37993120516113,2.38059230710089,2.38026432914257,2.38017708070808,2.38021667125631,2.38035642598955,2.38007786577847,2.38044159623613,2.35622766484907,2.31139728016602,2.31032894783089,2.30920243928694,2.30784427011355,2.30712283304659,2.30628480366983,2.30609351280609,2.30523432092586,2.30509631674196,2.30475009582651,2.30481681290271,2.30533699020923,2.30646772329909,2.30569019408469,2.30525819982478,2.3056102720767,2.30567959711376,2.30594536202342,2.30612554848364,2.30633070203431,2.30648546002414,2.30660043590634,2.30647175520109,2.3067404521795,2.30681079228593,2.30702755247415,2.30738068345383,2.30721910970646,2.3070799602153,2.30726348303007,2.3074901106769,2.30799773320778,2.3088811139896,2.30879738940007,2.30914517823644,2.30915352577277,2.30932107676535,2.30988728327838
2.27823137144244,2.27852952240132,2.27875025826731,2.27871323047611,2.2785562952412,2.27863571506701,2.27866643808156,2.27898302938701,2.27946348267391,2.27931793591901,2.27955965562867,2.27979939465004,2.28064358163475,2.28027515108784,2.28041080199945,2.280478575774,2.28078001811572,2.28136045027586,2.28241828833115,2.28199406996858,2.28204212356464,2.28223774184969,2.28260217828459,2.28289601001251,2.28328321857844,2.28359669135762,2.28400843175549,2.28401399532917,2.284084737916,2.28437875138312,2.28490639500357,2.28522394890883,2.28590197049204,2.28618328226273,2.2867033122591,2.28702180152452,2.28785769627369,2.2883728608654,2.28952292381068,2.29033015888922,2.29131305914271,2.31590650821806,2.35629558126231,2.35800821985014,2.36029238019913,2.36005068726863,2.36084027822794,2.36051446762379,2.36046159196711,2.36035284927544,2.36051968262858,2.36050931454681,2.36072496764178,2.36177216774998,2.36402935664304,2.36265318186927,2.36309215394425,2.36209967109642,2.36199992680335,2.36244920100313,2.36321070663999,2.36449039006118,2.36828540522383,2.36541633073851,2.36561745508325,2.36488342470213,2.36510184808112,2.36426274427124,2.3640845679565,2.36311512195152,2.36200989006168,2.36208541665747,2.36158697157704,2.36169507182095,2.36241207838436,2.34256635006671,2.2992565287226,2.29837617124926,2.29794872836487,2.29714236642608,2.29711170006281,2.29710135883753,2.29702201514656,2.29712262024507,2.29735601128977,2.2969961024082,2.29686395579459,2.29702496768706,2.29718690832926,2.29701525276843,2.29672488233255,2.29668025956023,2.29629701913388,2.29652350875359,2.29650792286833,2.29677090556256,2.29682941915615,2.2971420280557,2.29719174531024,2.29772279622993,2.29834701711062,2.2981163014496,2.2979284607597,2.29808210013712,2.29829927905708,2.29836814331598,2.2989054765398,2.29866491537295,2.29928555565764,2.2996909506367,2.30016486092969,2.34345681141222,2.37254489869997,2.37257082216924,2.37266415079501,2.37308543156071,2.37285215818909,2.37393613491556,2.37432069736742,2.37589047021846,2.37791226818825,2.37770762313324,2.37836458286733,2.37821615124271,2.37881700509674,2.37888618915708,2.37990049978999,2.37977282060755,2.38058272550975,2.38049466297255,2.38100804260712,2.38054438791852,2.38075948754567,2.38055855735674,2.38111949660283,2.37991591754426,2.38050904242414,2.34210661622476,2.31016125958531,2.30896222002016,2.30774685153329,2.30676253896466,2.30646554628928,2.30577736635239,2.30576424815837,2.30511003291581,2.30485533300039,2.30492277270955,2.30508805910917,2.3053187199262,2.30553915612072,2.30563504548257,2.30584907665172,2.30590885602876,2.30651248923819,2.30628278329609,2.30676899854196,2.30668304584236,2.30730431894118,2.30711037329129,2.3076632439187,2.30724478676717,2.30736458127261,2.30726522388612,2.30741234182655,2.30743162469325,2.30773873629499,2.30746736608658,2.30735203477147,2.30786930245273,2.30826817701404,2.30868480493229,2.30934228136655,2.3093563334436,2.31015148255539,2.30998488949712
2.27838645018687,2.27863576655614,2.27886373997778,2.27878859992919,2.2786879483078,2.27877074466564,2.27890621581841,2.27922533378316,2.27954582154046,2.27958947695455,2.27967211716755,2.27995742887404,2.28026486593422,2.2804324604258,2.28054269706339,2.28080157799723,2.28104332765073,2.28144032417541,2.28179734056758,2.28195107936763,2.28207944120629,2.28239363052575,2.28273502239461,2.28298258046254,2.28322531096648,2.28358363142573,2.28390625223996,2.2841218933365,2.28430197068833,2.28466736564133,2.28504166308456,2.28548987031442,2.28590099502647,2.28638183193358,2.28676995295818,2.28708004267873,2.28759830720041,2.2881939400059,2.28905892466245,2.29022551253306,2.29153613796969,2.30700045502899,2.35809298267677,2.3588571891118,2.36009163468224,2.36043116347403,2.3607354609845,2.36071035383483,2.36056461676828,2.36052340490285,2.36067245108542,2.36113358448803,2.36184495468421,2.36252207914691,2.36334679612321,2.36318967503168,2.36321315732573,2.36286375003029,2.36282085946276,2.3634330938024,2.3644805927713,2.36535075380424,2.36633692652626,2.36595290960238,2.36575253253168,2.36537103490025,2.36531786218288,2.3645770138776,2.36401897199442,2.36336626258603,2.36268040673547,2.36247966571014,2.3622209955575,2.36218795992901,2.36219073324849,2.35015796232054,2.32935636239444,2.30770500575404,2.29804432251644,2.2977140664298,2.29769588783293,2.29794167471848,2.29836364069117,2.29784152352984,2.29751882030781,2.29730515138911,2.29720007469089,2.29727349607741,2.29740545328177,2.29754372508133,2.29773191288534,2.29732458301694,2.29699495961517,2.29689365901014,2.29692319181245,2.29719246560739,2.29751671182143,2.2975727023673,2.29765207480347,2.2978968515657,2.29816931706168,2.29823069888633,2.29828512700772,2.29833610791407,2.29862838179643,2.29860048998651,2.29883543365341,2.2990411545209,2.29968771960635,2.32024978399174,2.33518571125511,2.353180452222,2.37280266141233,2.37360534410115,2.37444024365299,2.37490541265097,2.37544311326021,2.37562271675634,2.37594134218225,2.37649073205062,2.37739936117522,2.37770179358224,2.37827351791504,2.37842743251581,2.37896836402191,2.37928452271946,2.37991849650633,2.38015337302185,2.38054460704353,2.38066874812654,2.38083035814777,2.38073848296931,2.38068000298394,2.38026930657095,2.37999681277052,2.35841095003798,2.34243828363266,2.33040373099526,2.3090346173491,2.30775135936745,2.30672933984185,2.30595844625349,2.30558738912733,2.3052183952503,2.30527625827875,2.30505813562846,2.30508478667343,2.30512226749993,2.30530317889984,2.30531740517704,2.30542089922061,2.30557784265208,2.30581061142646,2.30590176103562,2.30607789491243,2.3061986582862,2.30642880846388,2.30667137060859,2.3070325958564,2.30723224615979,2.30755933186607,2.30753154089886,2.30761263107038,2.30753806706251,2.30754660797429,2.30763137999976,2.30778709235492,2.30774962164148,2.30779499010753,2.30811308066296,2.3084583794676,2.30880155481086,2.30912505784496,2.30929945046626,2.30953752930792,2.30982450260062
2.27864576404475,2.27876246925745,2.27928518268233,2.27885909543203,2.27873090742917,2.27882288347526,2.27911492925173,2.27941385602263,2.28014788773432,2.27972759654005,2.27978435128574,2.27996462700664,2.28037403617341,2.28052738541224,2.28089138278982,2.28098778701564,2.28140024070734,2.28143696275854,2.28168196558159,2.28185545544532,2.28214562119795,2.28248297119643,2.28315679168446,2.28304281442209,2.28325337231788,2.283555289335,2.28415448168465,2.28418324640061,2.28467228791416,2.28481921292471,2.28537003622064,2.28564910023391,2.28616837293686,2.28664096557495,2.28739497263343,2.28734357799885,2.2878037719686,2.2882453121633,2.28919366365631,2.2900968995255,2.29161199048431,2.30198243355051,2.36101480759021,2.35991427436612,2.36051952599924,2.36054020296298,2.36090969235277,2.36081984319458,2.36064237369435,2.36076974823113,2.36123418447895,2.36196786688195,2.36335534957158,2.36351219187175,2.36407517740543,2.36392634149666,2.36415185947877,2.36380825929604,2.36361048954523,2.36460606323006,2.3662545009761,2.36595618121187,2.3664274725365,2.36619023852883,2.36637230681083,2.36624666290104,2.36676450376634,2.36542488181291,2.36441972399734,2.36405723985023,2.36272021832344,2.36305383424451,2.36193246236796,2.3624722433227,2.36218839275129,2.36222812556854,2.36230374691782,2.31635427096633,2.2990214833081,2.29881966643769,2.29948284806684,2.29929868130917,2.30105784314625,2.29879621509181,2.29772935377902,2.29772250756005,2.29743236422647,2.29767925712519,2.29761352039517,2.2982577634567,2.29937939895224,2.29814863072397,2.29744337504474,2.29737097670039,2.2971095224136,2.29777042666262,2.29852950667369,2.29815184841744,2.29806411632241,2.29815031256313,2.29836673118922,2.29856120671785,2.29914182178076,2.29907844016526,2.29994573533727,2.29945996327073,2.29980422050783,2.29984113977822,2.30016925847524,2.32976031152496,2.37546567031941,2.37420712772489,2.37345704786434,2.37478979081709,2.37655553584367,2.37673386953948,2.37865695642714,2.37739418343694,2.37772640076101,2.37744291885747,2.37810355234339,2.37830727559532,2.37921285851571,2.37922875907045,2.380053215559,2.38038321900181,2.38101276430969,2.38105585291039,2.38110627729064,2.38113899313898,2.38147735475995,2.38127373092622,2.38140861369222,2.38019753704231,2.3799340445791,2.34500953196954,2.30905447952663,2.30900392082788,2.30913104524291,2.30733856795455,2.30652923368925,2.30580081035553,2.30527973076498,2.3052578603859,2.30554723591855,2.30542624682151,2.30537071747939,2.30558517068754,2.30571522865111,2.30558374043539,2.30531684662328,2.30573835030617,2.30596365372219,2.30601170198871,2.30588475888638,2.30619012316249,2.30630866386263,2.30667099165889,2.30705297003802,2.30739633807171,2.30807126795311,2.30794029479434,2.30823428665118,2.30798300360968,2.30786445237633,2.30804884811292,2.30815559072589,2.30822161588615,2.30819770174634,2.30858772314445,2.30902801028595,2.30924806964138,2.30962871038305,2.30957475572408,2.31030478278205,2.31039782664737
2.2781435156025,2.27876635748482,2.2789915703296,2.27899957300103,2.27870592498031,2.27910590952038,2.27931439478741,2.2796459384853,2.27971628585106,2.27991752641459,2.27981589989189,2.28031799094741,2.28054271914453,2.28101778722977,2.28105792893228,2.28150913070539,2.28153950057184,2.2818949626727,2.28179311450459,2.28230426653462,2.28230082773272,2.28283415071944,2.28285462494681,2.28333398593564,2.28327171979352,2.28385491395758,2.2838908913873,2.28449834582571,2.28450636034932,2.28530509536084,2.28573209578426,2.286228952844,2.28663307838321,2.2871483749613,2.28761406517905,2.2877323323003,2.28806255547875,2.28826653271864,2.28879478739948,2.28982164288033,2.29097126176285,2.29196405939545,2.29348331696865,2.33894793078244,2.36033967502501,2.36053990618267,2.3607425064745,2.36092399005547,2.36059627135539,2.36113341585016,2.3609364542584,2.36290250275035,2.36422925579805,2.36475922854433,2.36453155673277,2.36499197499448,2.36465002337352,2.36523146315742,2.36595314766422,2.36563552891352,2.36613732639579,2.36605050355486,2.36650153556157,2.36617933562085,2.36645399903714,2.36681131482331,2.36842836368756,2.36633891965803,2.36480462597515,2.3655972485989,2.3679176506159,2.36480772651671,2.36383474519721,2.36314280139952,2.36201340742025,2.36229113840254,2.36241728493488,2.32412849686581,2.29946491855354,2.29959243368828,2.29986649599893,2.29929776502356,2.29932191799318,2.29876454241617,2.29855712481392,2.29838837425564,2.2990754103739,2.29836975286794,2.29813615735346,2.29846672544823,2.2987687116399,2.29840362988051,2.29807962876535,2.29807699215111,2.29806390267119,2.29838350639917,2.29869088919258,2.29863923427064,2.29869170762567,2.29855581928793,2.29866881055768,2.29900434092977,2.29979872536924,2.29978577955216,2.30054751159525,2.3002541258179,2.30053363996598,2.30081375014819,2.30099813621769,2.34063854652363,2.37532254443604,2.37525429262925,2.37492029424717,2.37562636027396,2.37613618095847,2.37712939406813,2.37817451149562,2.37782894542329,2.37796101530097,2.37802363754075,2.37866882056814,2.37887695082847,2.3795856009552,2.37989157278596,2.38067916193133,2.38165861285622,2.3837247207294,2.38225831919888,2.38200231173655,2.38163588359694,2.38206377137378,2.38141340627546,2.38162497347289,2.38018177001729,2.38066369369109,2.33097636486501,2.30775847458697,2.30793474260955,2.3077261781346,2.30693600476649,2.30685094472216,2.30601786193635,2.30612045333186,2.30564848364087,2.3059095795906,2.30589077270479,2.30617543829271,2.30604050956673,2.30640649213591,2.30589125042445,2.30590430867681,2.30610985224673,2.30669767458519,2.30640159867379,2.30635925763907,2.30651170223938,2.30680552514338,2.30682899002899,2.30695474718471,2.30741321862436,2.30785506752087,2.3080619346839,2.30838232110114,2.30838223366278,2.30890199585958,2.30860718047382,2.30897044098732,2.30888208589177,2.30938150059023,2.30928949036237,2.30983889982363,2.30986986146666,2.31045616872472,2.31009750853111,2.31159556620326,2.31134989956568
2.27855410140137,2.2789209639443,2.27934523092606,2.27911926037278,2.27911417893654,2.27924406354568,2.27965235891809,2.27978882166065,2.27999153618621,2.28006474697924,2.28021900893349,2.28056399287822,2.28130432292457,2.28147027926802,2.2816842055791,2.28196552255063,2.2823622072162,2.28226388933551,2.28271987504209,2.282677903096,2.28296369024417,2.28314494942877,2.28360055277687,2.28363820371269,2.28403059253354,2.28411087954492,2.28456033312385,2.28474254201164,2.28532404869871,2.28552349566232,2.28617398202273,2.2863892243639,2.2869547920055,2.28737223023455,2.2882152318649,2.2879709802334,2.28817745898648,2.28823309609913,2.28839142225776,2.289374484221,2.29062789722601,2.29168562165602,2.29281920627936,2.33032499661973,2.36039863180113,2.36011332569365,2.36022731825083,2.36139489041602,2.36072644193777,2.36274651131603,2.36205219452527,2.36514145720795,2.3680500196387,2.36690720452311,2.36788566469078,2.36700701080185,2.36787145385256,2.36663977826239,2.36668923242037,2.36610899151504,2.36607086570385,2.36611106289798,2.36627548391249,2.36615600358564,2.36591948498906,2.36663751233837,2.36581567060174,2.36716986156828,2.36842684331502,2.36634612096326,2.36517983657076,2.36500495057466,2.36469341721172,2.36375532589699,2.36347172105564,2.36335112661631,2.36227700323529,2.33188452574229,2.30023742854209,2.29999270754176,2.29965151145981,2.29957151992383,2.3001995464638,2.29899267423631,2.29850505994671,2.29852272281951,2.2982510609327,2.29881339580967,2.29943853178192,2.29890456587387,2.29869154892336,2.29881744302301,2.29906346020987,2.29899826732109,2.29935446984463,2.29914499819571,2.29939902269458,2.29908061767987,2.29913031066631,2.29882035248238,2.29886545992238,2.29936094377059,2.30069903169721,2.30032773047647,2.30094971919814,2.30091015487625,2.30108950979807,2.30162383447487,2.30175930531746,2.35320619908883,2.37832674018045,2.37688053327387,2.37671677175074,2.37651929521998,2.37670487384777,2.37733925134357,2.37814852193987,2.37788212990654,2.37778176754391,2.37844802820519,2.37936474051317,2.37966180692476,2.38041071963982,2.38084275139153,2.38156349652245,2.38226671993888,2.38308724132677,2.38260077569599,2.38252013474518,2.38169241614827,2.38170409058627,2.38107177539911,2.38188807320696,2.34665027438831,2.30990806124308,2.30886017756198,2.30767422625144,2.30692033469623,2.30689729779853,2.30642430195388,2.3063079716864,2.30594711043742,2.30621344925016,2.3061203916975,2.30670733536115,2.30665370841171,2.30742464089231,2.30651730159792,2.306121705609,2.30613709605076,2.30627927492795,2.30654300375278,2.30707633410655,2.30689157922567,2.3069294236213,2.3069155032546,2.30669443135976,2.3071381914947,2.30734346160034,2.30773113211632,2.30803560710798,2.30836461649115,2.30870547608678,2.30859173814793,2.30862526401049,2.30885473050836,2.30943373950008,2.30925505984805,2.30953440799603,2.30953668002092,2.30938647996071,2.30977964334488,2.31051302153628,2.31047220896762,2.31106778556946,2.31150271671274
2.27895147073759,2.27931528779177,2.27958820367348,2.2793985286856,2.2787714162607,2.27957199654721,2.27986951584153,2.28037496292297,2.28080594341994,2.28069918713049,2.28055354997139,2.28102584811157,2.28126303141953,2.28250978433598,2.28451440478951,2.28299468567549,2.28216803254563,2.28274772237696,2.28313587109999,2.28331474496585,2.28350486702047,2.28379588111067,2.28418676666998,2.28423904892111,2.28426760792013,2.28463978248877,2.28460961053917,2.28520845810513,2.28521250169207,2.28594214641303,2.28619152164198,2.28682736358869,2.28715864307771,2.28766708299753,2.28802972492937,2.28817563165098,2.28845075623317,2.28854171901818,2.28919042784351,2.28939627468657,2.29004730651805,2.29070784566089,2.2915161227949,2.31991412949827,2.35998712905515,2.36007575408302,2.36058103075516,2.36311917497545,2.36767758411959,2.36606158489033,2.36832538059305,2.36698226094111,2.36731430489354,2.36750192425561,2.36814839328467,2.36776984031847,2.36850991223015,2.3672218843997,2.36686877765008,2.36643064221463,2.36653553031216,2.36624397281221,2.36634805240305,2.36632352061514,2.36625849234076,2.36786015385094,2.37064347086746,2.36793633805731,2.36613240624647,2.36637989485559,2.36650663736789,2.36526267955821,2.36378188637474,2.36356563586885,2.36254994393811,2.3649580513992,2.36843348477457,2.34222807916997,2.29946333413761,2.30010090542005,2.30080947692949,2.29968889454785,2.29944895805798,2.29885832765388,2.29889191807744,2.29891723073088,2.29926819224469,2.29912514815699,2.29917205718524,2.29901348532645,2.29895698400314,2.29913109175127,2.29955816805216,2.29949868039804,2.29996422965793,2.29953359363954,2.29954309959317,2.29937912532915,2.29966685868206,2.29927713253182,2.29978932879887,2.29971936281151,2.30067209419806,2.30072705761633,2.30156649732514,2.30156339284911,2.30204720028549,2.32426307626462,2.37810547354425,2.37751098050043,2.37846894894055,2.37760045329552,2.37733436828768,2.37724225768545,2.37706296060535,2.37767482706062,2.3782776522023,2.37824623188756,2.37874546304243,2.37904380921195,2.3801048114017,2.38033301556643,2.38149881363781,2.3816199551202,2.38272861695877,2.38256988913463,2.38325383472778,2.38250386701193,2.38235133306676,2.38147079708731,2.38171590685393,2.35895332495357,2.31295747225953,2.31131143245153,2.30974328193137,2.30800889257637,2.30676920607972,2.30636685140839,2.3065937143513,2.30610240128926,2.30611756662744,2.30581049883047,2.30580591620482,2.30600527665141,2.30625128120452,2.30641244687811,2.30674419563731,2.30631446838069,2.3061784700171,2.30611087385602,2.30636501275234,2.30657730291479,2.30707808521342,2.30715806154562,2.30763338431361,2.30757030602831,2.3081382558564,2.30778611057011,2.30803468588684,2.30819079608804,2.30879721796434,2.30864668541601,2.30878899801295,2.30868114619102,2.30865461432855,2.30875864839729,2.308766872996,2.30924193447536,2.30979260016268,2.31019189714068,2.31143323923503,2.31054210886437,2.3119100789463,2.31139219780953,2.31110862146852,2.3259995139218
2.27941003927046,2.27954983891055,2.27976469396544,2.27976671359163,2.27976290404009,2.28005024479901,2.280411225242,2.28068876804851,2.28100069584521,2.28101361180706,2.28111353756456,2.28134110038928,2.28171123719154,2.28236331746658,2.28308929744408,2.28281367142761,2.28266161703249,2.28286011160221,2.28318600300205,2.28336342662177,2.2836318542228,2.28381480576921,2.2841060588338,2.2843324417531,2.28467281737311,2.28495829540511,2.28532622553179,2.28557094258275,2.28581779655409,2.28613502216637,2.28646556068307,2.28698678816636,2.2875679866814,2.28775145932759,2.28799527853745,2.28817320700948,2.2883845539524,2.28865274076282,2.28912107997409,2.28946735390741,2.28999531351309,2.29061149838153,2.2915351267094,2.30805742582635,2.3255298897466,2.34039460010907,2.36161309064703,2.36394647630504,2.36638148804135,2.36726075559157,2.3679703005324,2.3680258750874,2.36790195372552,2.36770973977404,2.36781900157283,2.36765149131529,2.36775189277487,2.36720914965751,2.36694547138429,2.36673245856388,2.36667732592661,2.36658673783733,2.36640963155466,2.36715776909787,2.36790050899611,2.36886017053662,2.36978469034173,2.36870320036086,2.36758318532284,2.36705787407425,2.36661733378812,2.36581117694939,2.36477553809079,2.36453940868032,2.36472838995676,2.36591228694996,2.36636193677326,2.35039123630979,2.30089356809916,2.30060956023823,2.30043000061322,2.29975661775181,2.29938115294895,2.29913424185519,2.29939061172229,2.29951549526131,2.29980700310784,2.29955279102121,2.29931118068086,2.29927756682617,2.29933617371928,2.29944109880964,2.29965061611473,2.29962228960301,2.29967569731712,2.29958463431254,2.29960404301577,2.29943364207987,2.29946727510557,2.29930673969229,2.29948937067939,2.29973048576444,2.30048280028351,2.30078630146877,2.30125849724175,2.30194004228386,2.30257181182997,2.34001245093173,2.377475691778,2.37757661768179,2.3781879607399,2.37788331663522,2.37777512460193,2.37797632143086,2.37823315936761,2.37821887367875,2.37845502023316,2.37871195375959,2.37927949159747,2.37959586010999,2.38025615655509,2.38076290186851,2.38164539403784,2.38192485423774,2.3824979621184,2.38253544760865,2.3826825641761,2.38231745391439,2.38197998661929,2.38076525032932,2.38044038660783,2.34603152499461,2.31167991286958,2.31019990690996,2.30863139894845,2.30729031814205,2.3065652053492,2.30606600750297,2.30601409765296,2.30574723806734,2.30578407998141,2.3058354642883,2.30601638777022,2.30610591301333,2.30618885270614,2.30630478299754,2.30635427607842,2.30622731273961,2.30609428373454,2.30617621628866,2.30634249520333,2.30662380023073,2.30694985092098,2.30725362289289,2.30760737797336,2.30778742778401,2.30807326727493,2.30801496665834,2.30812502572353,2.30840887799704,2.30885424373471,2.30890650845937,2.30906471850723,2.30900609882751,2.30905623070079,2.30904648665658,2.30915371490673,2.30945136498554,2.30991486953882,2.31022006928806,2.310605076822,2.31044676405691,2.31135120125754,2.30927160246114,2.32654337136328,2.33378621082664
2.27997875383812,2.27992313206922,2.2801095126493,2.28021633370175,2.28032111151721,2.28052552415593,2.28094322629879,2.28102995877011,2.28143082983341,2.28130004029231,2.28149103797185,2.28159885625524,2.28177505940209,2.28227090752378,2.28250308008964,2.28265737540333,2.28256737162249,2.28299163598791,2.28321032773848,2.28353600450418,2.28364783733535,2.28391702113438,2.283800620946,2.28450204756105,2.28479379057502,2.28536456195503,2.28586358494303,2.28613131191695,2.28604938158639,2.28649941290368,2.28626381008976,2.28725651890586,2.28813048701866,2.28797271985132,2.28795241703923,2.28834972672816,2.28853717160116,2.28913138567297,2.28975071150887,2.29000556561715,2.29090118219057,2.29104557277866,2.29248981329145,2.29302358566041,2.2937377363933,2.32890573031034,2.36143641215278,2.36378023472733,2.36663198066379,2.36751608604722,2.36868362476792,2.36837981913408,2.36850476470464,2.36815456991251,2.3680806516795,2.36789959293745,2.36803305591826,2.36757950593505,2.36749145734433,2.36743181817246,2.36717943962682,2.36745540357175,2.36598147619983,2.36843976924103,2.3698069951726,2.37037240104834,2.371676483757,2.37006489129794,2.36899253731504,2.36810123491609,2.36709569073094,2.36656555550422,2.36525746249377,2.36617841947347,2.3651778047662,2.36897372551561,2.37342249872729,2.35350581505271,2.30112900863267,2.30116652608893,2.30133861821769,2.30049979607126,2.30021256070933,2.30006088764785,2.30100777376227,2.30052330219605,2.30134324798393,2.30018319112962,2.29958192099503,2.2995895733825,2.29982977199658,2.29977832573751,2.30020482789045,2.29981778666009,2.29973425144737,2.29977250656846,2.30020417158606,2.29985724347361,2.30004874818597,2.2998754083855,2.29993762312248,2.30037091318909,2.30137655426662,2.30147553435869,2.30154455714159,2.30219264605125,2.30242053749895,2.35440635288739,2.37886428649463,2.37814237290436,2.37865503703211,2.37824895437286,2.377785770276,2.37875865373635,2.37953202972692,2.37911569694078,2.3789767814966,2.37980771449691,2.38070668329705,2.38083781152678,2.38129154394057,2.38176353641684,2.38298258000167,2.38264760302485,2.38347278980121,2.38305256781441,2.38321881100462,2.38246995356182,2.38272671983785,2.38074931894827,2.38098466206471,2.33157051287106,2.310804247941,2.30931339162658,2.30831505862407,2.30734019067423,2.30705127835544,2.30636539528346,2.30634859985637,2.3059244303465,2.30582586719977,2.30610724028169,2.3065438810421,2.30636711538963,2.30631493298354,2.30640015297127,2.30644560726083,2.30625441594301,2.30598336265281,2.30627681806512,2.30649223638743,2.30679637936835,2.30706803496768,2.30748713030214,2.30794666407687,2.30815572083594,2.30853480980016,2.30834118084897,2.3082342285042,2.3087537685504,2.3095615200306,2.30934343913509,2.30977214487559,2.30945508180906,2.30963435870952,2.3094312122719,2.30956459646352,2.30983216378275,2.31038619825279,2.31059269363323,2.31108171193219,2.31095886781111,2.31185818178707,2.31192082691983,2.35244310132015,2.35249263428244
2.28024715501967,2.28024566197062,2.28086723252445,2.28060623319817,2.28084975230217,2.28087816934575,2.28090083863547,2.28128574044077,2.28131739097825,2.28153034747526,2.28135950059195,2.28201308425962,2.28258157090992,2.28256649239152,2.28240453919854,2.28271963010074,2.28276669203903,2.28313345830039,2.28357596574635,2.28365146895689,2.28400288372274,2.2841353997377,2.28449964680184,2.28480441799923,2.28549167121411,2.28551564620657,2.28589649743517,2.28657694798477,2.28811750213992,2.28706390259413,2.28698216901085,2.28733313259668,2.28785718964684,2.28791993198624,2.28796341191662,2.28878381401428,2.29017221762729,2.28995895557904,2.29093562607295,2.29054082488131,2.29096960692374,2.29111116765504,2.2921307724604,2.29294892020392,2.29364202383935,2.31618033485136,2.36272830379606,2.36289643670984,2.36703536363377,2.36764249160609,2.36806337535457,2.36839068416518,2.36873848255706,2.36842396247178,2.36824834617281,2.36809927351301,2.36817484410994,2.36800239075522,2.36810990116217,2.36867220934121,2.36859064175974,2.37027749781046,2.37274431318961,2.37124807410077,2.37207079535161,2.37166869670017,2.37233665622662,2.37135593188281,2.3712833081494,2.36965923042992,2.36908446981888,2.36827411274212,2.36891384778162,2.36890858880828,2.37158614314075,2.37095527116787,2.37268203700877,2.37242150774569,2.37198110725716,2.3236290831439,2.3015496879028,2.3012176569492,2.30117534974859,2.30082063609552,2.301201558283,2.30102857405157,2.30170193928671,2.30081448879859,2.30087376037522,2.30014768711785,2.30000761011714,2.30004604745087,2.30033640539581,2.30018736960405,2.30050053958474,2.30015598712072,2.30045690723366,2.30049151660917,2.30121964332314,2.3008790693368,2.30083855117237,2.30124453494816,2.30148636294464,2.30219969312901,2.30194910075655,2.33170669820744,2.38187311015931,2.37962951222023,2.37890527564214,2.37840705562433,2.37789726710691,2.37875624070646,2.37925501319701,2.37962147261755,2.38026036107979,2.38014150860581,2.38111429605657,2.38129903158906,2.38285185110206,2.38224891661719,2.38289415762791,2.38261157511458,2.38300194517359,2.38284982484002,2.38330250058281,2.38308050864443,2.38325685734244,2.38231743758084,2.38295344885691,2.34410921790228,2.31076873420387,2.31016876942234,2.30957583859149,2.30853766287439,2.30786842634026,2.30741656935471,2.30820638135031,2.30683102026271,2.30685577867701,2.30631084822439,2.30623620317272,2.30642686126914,2.30679239271184,2.30668786315333,2.30686328068706,2.30677285453894,2.30681534213252,2.30661435974601,2.30606427328233,2.30670033216685,2.30705732981374,2.30721770585691,2.30745770028665,2.30784366622581,2.30844345860549,2.30847571898137,2.30880921289286,2.30865401026446,2.30877054132091,2.30887080184118,2.30919267803739,2.30919225751218,2.30927172605536,2.30949109039838,2.30988142161299,2.30957673310832,2.30932512510071,2.31003069223666,2.31064415055528,2.31093232521337,2.31143927128839,2.31146964141169,2.3120511911985,2.31375295082757,2.35768778070318,2.35315040244608
2.28064887992304,2.28041898268853,2.28055563123602,2.28067850182432,2.28118060367733,2.28120556292515,2.2814753901991,2.28171239744115,2.28194047484757,2.2819539368462,2.28210001085115,2.28237290347349,2.28303465618694,2.28298643195241,2.28344071894164,2.28318657859084,2.2831452082778,2.28329273880068,2.28322994233305,2.28364645486895,2.28374410174209,2.28434912705602,2.28482704268586,2.28510731146256,2.28534384866772,2.2855888611924,2.28558319862653,2.28638497119133,2.28685744779504,2.28690881054731,2.28663910161333,2.287511001562,2.28813757356512,2.28818878351347,2.28797615272986,2.28880463430777,2.28946727961566,2.28972427872931,2.29005799364917,2.29053987075063,2.29127536211231,2.29125450737057,2.29151209828679,2.29242071115093,2.29401925380879,2.29572016924585,2.29717278177095,2.34249606292126,2.36823626796246,2.36796004298692,2.36853005693965,2.36866691454868,2.36872738619949,2.3686338961452,2.36816291482808,2.3684238124701,2.36815664278603,2.36849326249425,2.36865744003283,2.37099872996855,2.37529229139997,2.37284098483159,2.37273140155784,2.37220543078787,2.37243302455265,2.37236795200874,2.37291719840736,2.37221393283477,2.37167195753138,2.37070104586387,2.36950938623272,2.36878425082971,2.36789993047954,2.36978008385671,2.37170997583602,2.37219499507728,2.37301084973468,2.37383760185858,2.37622215145543,2.33519542009096,2.30176225488296,2.30193707808852,2.30161498543211,2.30137097988026,2.301917084567,2.30126246715632,2.30136238826986,2.30089415699454,2.30082116138129,2.30052957463162,2.30067460959041,2.30052432491324,2.30111092592052,2.30056587168163,2.30061542036203,2.30046016139945,2.30097049146149,2.30101087160488,2.30176740800485,2.30193464370121,2.30269161665931,2.30244044870815,2.30229852175033,2.30303322701711,2.30284746145682,2.35172286997525,2.37975579406439,2.38140681338385,2.38171105014501,2.38054372278515,2.378714269936,2.38013511804804,2.38205760017011,2.38079601953511,2.38030524975991,2.38098829578316,2.3821672730058,2.38226327647356,2.38309526686841,2.3829987152613,2.38306295060788,2.38334199194534,2.38348027350452,2.38311621744378,2.38287323486776,2.38260702581962,2.38321649675028,2.35790974447838,2.3113536553078,2.31046526382214,2.30918016633298,2.30874595753083,2.30818071723763,2.30748825034438,2.30707497083043,2.30666580964442,2.30652709802587,2.3065894434893,2.3068383298982,2.30672084973729,2.30672972037623,2.30682640138571,2.30702073976572,2.30692737990496,2.30691484086768,2.30718410678694,2.30747007381597,2.30751757907829,2.30808363793824,2.30760618642179,2.30775866874098,2.30776066755731,2.30791747010618,2.30826780409949,2.30871233996941,2.30883720267311,2.30898796357201,2.30905514231634,2.30897690717487,2.30910212467405,2.30900415513888,2.30929449700097,2.3093215797727,2.30973622978995,2.30996164072854,2.31005634843719,2.30995101412138,2.3107728793378,2.31177430104728,2.31162831881692,2.31201422850678,2.31210555044842,2.31261760232571,2.31804969571592,2.35583752877889,2.35472150918502
2.28078582792318,2.28062370415702,2.28099823428137,2.28084553555689,2.28114449569832,2.28150678062939,2.2818935867554,2.28239944915438,2.28311343079218,2.2825549322308,2.28231095486537,2.2826104266578,2.28287561542262,2.28306834958751,2.28317175507717,2.28345603202003,2.28393285693554,2.28369718275914,2.28384642045863,2.28397954672826,2.28437446557918,2.28461329346767,2.28512293518296,2.28523261128133,2.28557603511757,2.28570147902118,2.28604793719581,2.28633029959253,2.28673205924095,2.28694524928464,2.28736619327777,2.2878165313424,2.28872920402795,2.28858381682989,2.28886570403141,2.28903233822651,2.28931041528558,2.28966590206586,2.28990955185416,2.29076413171907,2.29224186500283,2.29147578244589,2.29163322099404,2.29267165610307,2.2949453711644,2.29513094551623,2.29577217648601,2.32926823121946,2.36894521483553,2.36799303250876,2.36850461955826,2.36887464962344,2.36890876665154,2.36906534714132,2.36897714390048,2.36925339713277,2.3689489542778,2.36941602670993,2.36936124021873,2.37163588606326,2.37440368057321,2.37336397714051,2.37360658161611,2.37278536438722,2.37276166044261,2.37264445651111,2.37314136410139,2.37302743541179,2.37461514417612,2.3720500182774,2.37204289717527,2.36959105951309,2.36840801687675,2.36989583665335,2.37135558708254,2.37251639629153,2.37391776110952,2.37486411918687,2.37667416863157,2.34635465166309,2.30267452119684,2.30283646271784,2.30271341438065,2.30176876119289,2.30181796606008,2.30149663189944,2.30146363244679,2.30149317884063,2.30244985071627,2.30135741027092,2.30128411894862,2.30110784431522,2.30170933497442,2.30115309289589,2.30139202242067,2.30094047673953,2.30118768695206,2.30144923344978,2.301957932958,2.30242298349429,2.30284175018996,2.32426458218026,2.37825443670547,2.37827983693379,2.38116228068243,2.38155354162973,2.38489275264987,2.38405536139218,2.38741451945948,2.38283490525439,2.38150867589489,2.38116935457168,2.381869197568,2.38122576611766,2.38177531126367,2.3815398718816,2.38240758671476,2.38263245231012,2.38371227378088,2.38346082080611,2.38421301698547,2.3841533724025,2.38553024035236,2.38351095184507,2.3824784713519,2.381965106553,2.38305536923004,2.34275632207237,2.3100393764241,2.30946072583072,2.30899419108271,2.30777864209785,2.30718460542724,2.30674125873399,2.30663969393963,2.30638203314231,2.30642748506491,2.30668649102864,2.30730221376235,2.30714861363743,2.30768539501169,2.30716643973526,2.30718673953843,2.30713072638224,2.30735757848394,2.30764302700388,2.30846346080927,2.30800380726523,2.3081182146962,2.30798627231845,2.30819992585626,2.30821353496426,2.30869437100383,2.3086480840216,2.3090984351452,2.30915861988159,2.30950957982862,2.30955471960393,2.31011273324551,2.30955989286492,2.30956987886157,2.30967080061639,2.31012008751795,2.31011988975925,2.31044079660932,2.31069634788134,2.31142568709975,2.31139292036612,2.31223214215047,2.31201677762305,2.31306792178138,2.31240100903558,2.31314704683781,2.323322412485,2.35571115352162,2.35570708153973
2.28092022989734,2.28088768559155,2.2810414716332,2.28111468366403,2.28152999170843,2.28199607060725,2.28273062152867,2.28273608349218,2.28288854820161,2.28261184223465,2.28251379252466,2.28270019436169,2.28297782224473,2.28318292728649,2.28339420459858,2.28364064825306,2.28392300202177,2.28401198449749,2.28420082460591,2.28441856242432,2.28471180958982,2.28495528992392,2.28525070191115,2.28541316403112,2.28561583042933,2.28588371796238,2.28620403859863,2.28653592731624,2.28686825318755,2.2871766009248,2.28754889674766,2.2879996050455,2.28856558998694,2.28881832488881,2.28905910301621,2.28932153030663,2.28954377199376,2.2897999039246,2.29006557604984,2.29057580664533,2.29114589411573,2.29114538421818,2.29152198764985,2.2923245198128,2.29349535837946,2.29433041262274,2.29570219955434,2.3179516128797,2.33128385385565,2.34710569836343,2.36856286698659,2.36910178932139,2.36949303481763,2.370053483112,2.37056270617463,2.3708906907449,2.37112072327673,2.37145326857737,2.37207837399772,2.37264206814521,2.37341769684781,2.37343910619225,2.37357277756436,2.37318317762711,2.37305772920344,2.37299690657074,2.37317349105443,2.37282893435373,2.37259734552065,2.3714750269584,2.37054936914591,2.3697436253538,2.369308230064,2.37028244567431,2.37169713262638,2.37279283558694,2.37405929132577,2.37521042130309,2.37593377332733,2.35667121992417,2.34168496211186,2.32968836738897,2.30285014761308,2.30223262944604,2.30202661850707,2.30183453539905,2.3018742856281,2.3017296728074,2.3019289621934,2.30173378743575,2.3016830465723,2.30160835148537,2.30165902344526,2.30154752086133,2.30156480101508,2.30137306468194,2.3015851240551,2.30191727817888,2.30241677327591,2.30325985963974,2.30392521787909,2.34012234204229,2.37802297574372,2.37830418065489,2.38001320404483,2.38111528054176,2.38312588910554,2.38419610017893,2.38517891365094,2.38401883441686,2.38314731552097,2.38212574386863,2.38193143257864,2.38158137381971,2.38184273269848,2.38193789607847,2.382541514675,2.38284937316743,2.38345676228392,2.3834710901095,2.38379054234806,2.38393017711745,2.38413913866979,2.38298226871642,2.38233858009957,2.3558767199046,2.34194412965276,2.3306450126221,2.30927527064131,2.30842427597026,2.30784550385085,2.307123665778,2.30664616161386,2.30630990703412,2.30633641451792,2.30636793458002,2.30660577818024,2.30672930153226,2.30695557774561,2.30706672247122,2.30728363834925,2.30716219225324,2.30710076979886,2.30725849732899,2.307493279951,2.30776561386738,2.30806397881231,2.30809200030843,2.30814581285353,2.308196615073,2.30834685260651,2.30840904960208,2.3086005169594,2.30877365884863,2.30909424990756,2.30944500392643,2.30987309665148,2.30982514152872,2.30985305297053,2.30977842666018,2.30986118882368,2.31003383650304,2.31034767778284,2.31048282192832,2.31072781591651,2.31116478846496,2.31170614667504,2.31165419467414,2.31183019296812,2.31177440555202,2.31194501071813,2.31209496852091,2.3128859220242,2.32901218751798,2.35551158942204,2.3556759191757
2.28242167598072,2.2816724260196,2.28156460941013,2.28168234548407,2.28231397709819,2.28288389061417,2.28467048915222,2.28335360830375,2.28317404480434,2.28273724415608,2.28248107601133,2.28281205828284,2.28325918434901,2.28331436539917,2.28375864673273,2.28375547695134,2.28439182153082,2.28420384455726,2.28473021402192,2.28469946174648,2.28530326752424,2.28524167707211,2.28579636048521,2.28557649634825,2.28580098888762,2.28607343089489,2.28653633584155,2.28681374846452,2.2870483014174,2.2873299876629,2.28771131363789,2.28815321275253,2.28893697659035,2.2891371108836,2.28944214922846,2.28972485100318,2.2898717561828,2.29002574294714,2.28995741727835,2.29057860098011,2.2910220714755,2.29120521302016,2.29154031207795,2.2923620265601,2.29345872937706,2.29444243160807,2.29653339044034,2.29749669472313,2.29863502365695,2.33475681394302,2.36916359392743,2.36914415665124,2.36964664391276,2.37098233412618,2.37249824665936,2.37246553443755,2.37338367965977,2.3735953349039,2.37551151082581,2.37415313559127,2.37398619048175,2.37409284706333,2.37469862429806,2.37389028393974,2.37397895192472,2.37365468912017,2.37449283020475,2.3730545176783,2.37223296774536,2.37118346518038,2.36959750721485,2.36968173415825,2.36923188086595,2.37149196468044,2.37189018408386,2.37424810503867,2.37427354900972,2.37596549200085,2.37673075307897,2.3768258622039,2.37773376613837,2.34856849362267,2.30320227021209,2.3031100468141,2.30286608874152,2.30279697550996,2.30292697827928,2.3026639255365,2.30220547803443,2.30269212560249,2.30258183137945,2.30272596022901,2.30228019387385,2.30258304676637,2.30256718836843,2.30252478851792,2.30243487940706,2.30293647383214,2.30309039848007,2.30391332644986,2.30433798635701,2.35448425505984,2.38062038208122,2.37878861855015,2.38006411467763,2.38121107622765,2.38331162526304,2.38451231632407,2.38704049319077,2.38566221586213,2.38638731378455,2.38414469977616,2.38363568715864,2.3829525843421,2.3832709172012,2.38304516404467,2.3837626075179,2.38362775090235,2.38449097225974,2.38409609259849,2.38432853786377,2.38403669757512,2.38457246591745,2.38270498803725,2.38285472724499,2.33763699866268,2.31008033589951,2.30977141866604,2.30933183260446,2.30814214747563,2.30785579781725,2.30717509923136,2.30672104047984,2.30649314484858,2.30666047919235,2.30677707660462,2.30719103258221,2.30699800225161,2.30689687750264,2.30712663239315,2.30741811332896,2.3073444019778,2.30711057075993,2.30751829831275,2.30787491815038,2.30805185577706,2.30829343901768,2.30834466548398,2.30846251123895,2.30852675635016,2.30890231408406,2.30873278986475,2.30874465065168,2.30900007418182,2.30927208856114,2.30989433738651,2.31089328510083,2.31025187066537,2.30989837720983,2.31006736076195,2.31018994697639,2.31049928507398,2.31098141691644,2.31101080161974,2.31109357563337,2.3118201738096,2.31293583050512,2.31227126111777,2.31217493298243,2.312061762326,2.3120855071645,2.3123116791515,2.31358726500777,2.33491122987177,2.35397035451844,2.35452266722261
2.28314608596783,2.28272036609049,2.28241509805354,2.28219027373228,2.28262379195293,2.28285541997345,2.28343358205465,2.28317860872783,2.28333924289142,2.28309930883873,2.28345096169504,2.28331461765296,2.28358063334416,2.28364844437378,2.28348420873267,2.28388724552678,2.28372280008822,2.28439887982508,2.28491691155791,2.2850814765675,2.28547120395515,2.28557884184714,2.28583042934759,2.28577639276933,2.28581151276812,2.28634867307158,2.28737814511983,2.28731868292156,2.28809171250042,2.28759978486101,2.28743779087147,2.28817807693041,2.28887913012498,2.28952333540908,2.29066591131406,2.29039391040111,2.29085332485527,2.29058804646614,2.2906551987839,2.29091799888459,2.29121729165534,2.29165339965528,2.29245821179318,2.29269531897051,2.29356600271106,2.2942450923442,2.29556777673016,2.29664771284369,2.29729775653554,2.32116251246868,2.3690528960021,2.36898011033204,2.37028834095105,2.37194175025343,2.37338680295798,2.37351647320166,2.37410958747659,2.37448916739332,2.37503744856962,2.37509841119287,2.3757159875869,2.37497596658594,2.37503467871733,2.37454772303404,2.37455960521353,2.37404104141613,2.37352711940256,2.37354044350336,2.37320714437546,2.37229425560279,2.3711256030336,2.37100474772473,2.3693927574701,2.37375925013733,2.37789947265044,2.37707585036076,2.37711510248583,2.37777808224236,2.37760954748708,2.37774008692395,2.37762744298544,2.37887308865815,2.3818366799082,2.34306369689231,2.30273690234809,2.30342101526689,2.30355101453573,2.30372561373047,2.30383285888124,2.30429722340531,2.30401136885291,2.30417257782381,2.30362821999193,2.30401609205551,2.3036375267151,2.30378220579712,2.3041623270256,2.30402637205704,2.30375142979737,2.34385686604625,2.38203556662818,2.3783731868423,2.37546414516169,2.37749877315589,2.37687933328828,2.38101499727129,2.3832054493302,2.38426268097014,2.3859390873216,2.38569535465103,2.38661043358137,2.385265811414,2.38586031124818,2.3843573919585,2.38446898369323,2.38412999774816,2.3846774637796,2.38436369161237,2.38495525624246,2.38477176495843,2.38513478970364,2.38417283083733,2.38503785392089,2.34600699042859,2.31070130262561,2.31044294197253,2.3093140467724,2.30881302293422,2.30819918582211,2.30792590580436,2.30842477097333,2.30772987157083,2.30831211302098,2.30715014587517,2.30691815640163,2.30722187026063,2.30793745767357,2.30723855312218,2.30672189305437,2.30720765977333,2.30761200839631,2.30784227478869,2.30847690915934,2.30806810330565,2.30798321017207,2.3085715970417,2.30958466593787,2.30883747149891,2.30853124713458,2.30879922616259,2.3092267108086,2.30903657412135,2.30912028428906,2.30932058061026,2.30973228483791,2.31007269481601,2.31024988933739,2.31046937837456,2.31051647657713,2.31047635629839,2.31083217300089,2.31085377569036,2.31129835780358,2.31154463885132,2.31238615204186,2.31214575890471,2.31235858631516,2.31257800574455,2.3130612563304,2.31256173678057,2.31273882090375,2.31277526448556,2.31409431702829,2.34028641367908,2.35280467080496,2.35355153400142
2.28331623857519,2.28389634746623,2.28351756004255,2.2831154800049,2.28307958229752,2.28289301062374,2.2831986464239,2.28317951101603,2.28335461561381,2.28335912263973,2.28373720823535,2.28368597946855,2.28429379596142,2.28432011605508,2.28542235084068,2.28458135687461,2.28502538420495,2.28470122486801,2.28541401589981,2.2852552722302,2.28603062348197,2.2857977681468,2.28630129492188,2.28605715450194,2.28622030834313,2.28646928947606,2.28695756698557,2.28745987100818,2.28850608206879,2.28806825503115,2.28835833245539,2.28856882796538,2.28921836778866,2.2895022218471,2.29003158181977,2.29032367268524,2.29071961852339,2.2908965885017,2.29117935973936,2.29138820692934,2.29181348040998,2.29214145532384,2.29289226737325,2.29291747615939,2.29353088074668,2.29402695063618,2.29476347235773,2.29583226150979,2.29733229534924,2.29893826698394,2.30016152029032,2.34679283639995,2.37207474662219,2.37277822029588,2.373831777746,2.37406593237037,2.37473173032978,2.37495222641762,2.37559481903579,2.37545978874486,2.37566104071731,2.37523164023842,2.37536222956143,2.37485154492443,2.37481321055567,2.3744713138869,2.37449359248298,2.37431574294182,2.37494691053044,2.37362729458171,2.37354829695512,2.3737735276801,2.37521814161729,2.37704556567737,2.37969707151892,2.37997080406289,2.38185351826458,2.38016439767461,2.38032240265818,2.37944480321702,2.37904390006783,2.37950528126708,2.38070773513174,2.38048948093301,2.38145985351915,2.38039781004784,2.38052800678395,2.34297450680744,2.30498001039718,2.3054611749908,2.30442257179068,2.30515937431855,2.30465666758912,2.30502668011815,2.30382183705435,2.34306799938404,2.38520772951247,2.38228261289612,2.38146367165194,2.38164559423207,2.38270391955056,2.37951568045134,2.37498635540934,2.37966052260948,2.38332923597646,2.38273823520342,2.3840538940034,2.38420206572346,2.38510636532263,2.38506923125239,2.38588004124465,2.38519917021686,2.38539909247825,2.38490213608679,2.38513308327396,2.38502903434591,2.38586183903776,2.38514223276003,2.38539594238895,2.38510085847441,2.38591158115737,2.35942117519639,2.3109657724647,2.3107974755179,2.31019846603563,2.30940566426694,2.30851998856561,2.30781201106519,2.30777268449517,2.3074450010785,2.307696309208,2.30737129721872,2.30779950760509,2.30730915031854,2.30731879021222,2.30750463708845,2.30782713067314,2.3075798763916,2.30727696407965,2.30766706873118,2.30799090877993,2.30814096486594,2.30834651052166,2.30832420577993,2.30848526842203,2.30860536913714,2.30883978046485,2.30882876280292,2.30889845094945,2.30893521468965,2.30906562498587,2.3092375614292,2.30948519680757,2.30972926911518,2.31012767669462,2.31078994914798,2.31223930005233,2.31123250118573,2.31082245149216,2.31089458934821,2.31081398078684,2.31118599234364,2.31160499084172,2.31183645935025,2.31229512970668,2.31240546291604,2.31262744274283,2.31314856322211,2.31390174170301,2.31323638236775,2.31371052758078,2.3137212902951,2.31417040670135,2.3440063640877,2.35399555153017,2.35390376673514
2.34441511226293,2.30951388365653,2.28411865338315,2.28405155981066,2.28356917842984,2.28303992792236,2.28363438735652,2.28335765050542,2.28370248606482,2.28374172786885,2.28391895472902,2.28413945116872,2.28453794940744,2.28489032386644,2.28574079391915,2.28514815982243,2.28510635604662,2.28512858573812,2.28545852456599,2.28556617276735,2.28580156276476,2.28613244014148,2.28663964283592,2.28656337457261,2.28680421284586,2.28684598188783,2.2871981852736,2.28749819668797,2.2882439017329,2.28827400245257,2.28915626173564,2.28889580819318,2.28967346605064,2.2896420385652,2.29028613884113,2.29050679358824,2.29111818308328,2.29124110586264,2.29130008357506,2.29168139245847,2.29193538035263,2.29232351025181,2.29288238787681,2.29298916378183,2.29357062368497,2.29400721791649,2.29527134063221,2.29576937332711,2.29742933588778,2.29815509456749,2.29945112224318,2.332671229953,2.37557888408718,2.37368410220912,2.3743015150172,2.37439632810144,2.37483983961039,2.37510357512583,2.37561917999878,2.37563021009218,2.37563597822877,2.37542913043544,2.37537239699454,2.37528809724291,2.37550615931051,2.37520196033915,2.37537438881776,2.37497302653492,2.37505635707847,2.3744506031339,2.37439175662249,2.37584186504024,2.3804169155334,2.37905066858975,2.38085158468179,2.38103158238896,2.38241806113553,2.38145777498743,2.38187755380243,2.38061608272413,2.38055989848662,2.38065236189462,2.38158346046306,2.38126945064578,2.38183608288645,2.38143395731965,2.38225448155846,2.38261571703442,2.38479930319194,2.3841136176475,2.38534389888057,2.38361478300306,2.38371534740795,2.38208916043295,2.38185995739829,2.38139629605932,2.38223479052959,2.38224743085259,2.38318719303014,2.38280381379147,2.38420224664821,2.38311700726588,2.38491544085804,2.38287499125682,2.38398768458843,2.38349294036288,2.38460890185768,2.38404430538556,2.38517488396794,2.38457034091037,2.3858309676053,2.38489479364455,2.38571393683183,2.38494226045035,2.38579916318905,2.38512966025714,2.3858842289479,2.38517706552344,2.38566411717358,2.38499707400815,2.38623340660992,2.34378336779582,2.31008723362862,2.30981566405155,2.30932014867546,2.30844963337688,2.30793684683752,2.30737929883756,2.30715390375713,2.30701245618295,2.30679329469473,2.3071202529624,2.30721590903515,2.30743492034648,2.30761543655455,2.30784483589425,2.30856245622559,2.30803608357881,2.30818989854323,2.30820020482063,2.30890251007447,2.30854055591753,2.30875722575302,2.30867442063624,2.30893937451353,2.30889299128793,2.30897579611395,2.3091080606059,2.30937045086769,2.30926616928301,2.30945154675581,2.30953675038405,2.30992777226331,2.30999865861549,2.31037247222911,2.310688549493,2.31101807984797,2.31133804221003,2.31198117484065,2.31141616406249,2.31146473273468,2.3114141484561,2.31157223758619,2.3118767775981,2.3122928667209,2.31251349901638,2.31294923143546,2.31339739060513,2.31458956260332,2.31371602101512,2.31430320291369,2.31319442868887,2.3137150347269,2.34582141341966,2.35484951882914,2.35469903140754
2.34431454950092,2.32548988105887,2.31494379209457,2.30395543775416,2.28342566409746,2.28354323381645,2.28368295611747,2.28380995937957,2.28410320338737,2.28426073558176,2.28456152575183,2.28461951771823,2.2848680079327,2.2851766008625,2.28561077848723,2.28538007238288,2.28536268873097,2.28534836408628,2.28560365933037,2.28578016255234,2.28602477691408,2.28634505816305,2.28664963677279,2.28699249970877,2.2873165827691,2.28739280754311,2.28747601708147,2.28771100769563,2.28809256538671,2.28827920856852,2.28856947742582,2.28883100672298,2.28926254775237,2.28958087536801,2.29009888572483,2.29064804143043,2.29140590981872,2.29178878811065,2.29225390974553,2.29216756185794,2.29213264969583,2.29245007488139,2.29280592655005,2.29301798836742,2.29335680167027,2.29377212349088,2.29465853601343,2.29527245878026,2.29627510549134,2.29715934555388,2.29847985822705,2.32117786815394,2.33489199148281,2.35142338722176,2.37380389506515,2.37413525890828,2.3746369799835,2.3750770679573,2.37553444550169,2.37575595375224,2.3758176567433,2.37578057178766,2.37579579528729,2.37578884273446,2.37589569405495,2.37580120700795,2.37570874667377,2.37545019181229,2.37530853013902,2.37490425644413,2.3749224373167,2.37579986303325,2.37753086195009,2.37874890437351,2.38034751679213,2.38100752071152,2.38202075916413,2.38180254915928,2.38187519484599,2.38117551958485,2.3810247323368,2.38104846949012,2.38127480327029,2.38239910491345,2.38344383842086,2.38268301509092,2.38240673440511,2.38278030988781,2.38375493565278,2.3842746245091,2.38516136174283,2.38420190524879,2.38378284820695,2.38285602907353,2.38264888654217,2.38227835488898,2.38249313642945,2.38287289434994,2.38372355902248,2.38364523571694,2.38406965396246,2.38371259625671,2.38404527304349,2.38329502475116,2.38335008451192,2.38312056994968,2.38349325350204,2.3832927892269,2.38372274214271,2.38375473418517,2.38434716659927,2.38412385469404,2.38446323597693,2.3843752448446,2.3847364286588,2.38466487203825,2.38491588597506,2.38428762070231,2.38439493419987,2.35776719394784,2.34181211957149,2.33125019976747,2.30964968354067,2.3090545227095,2.30878775122997,2.30801584951505,2.30756900413274,2.30710163986628,2.30708995186005,2.30698752488387,2.30719982152891,2.30739520381965,2.30769464713145,2.30765578615439,2.30770056546914,2.30784252802422,2.30810785981199,2.30810476438023,2.30818394647616,2.30832657059462,2.30856484345668,2.30859500151508,2.30871187854689,2.30878247496425,2.30898582884619,2.30908690658275,2.3093122920888,2.3092916071576,2.30938159456215,2.30940654607035,2.30957676086396,2.3097379986762,2.31002278717709,2.31021925939672,2.31053029364331,2.31085778130848,2.31120782916405,2.31141748772166,2.31162562842672,2.31161159232821,2.31169233100147,2.31173017744153,2.31186954759788,2.31214664791142,2.31248919316608,2.31279344000882,2.31310835312855,2.31350531730984,2.3138695816343,2.31373827716015,2.31332785811477,2.31237144475374,2.33369068652445,2.34604871853142,2.35571946952137,2.35606545345268
2.3438669856181,2.34465971541726,2.34629834170969,2.32048838091742,2.28423250634936,2.28446905349023,2.28547729199845,2.28492360316549,2.28493521421117,2.28537532027502,2.28576827064079,2.28561846046642,2.28537689104282,2.28599167616597,2.28635857102835,2.28611407741237,2.28598612967252,2.2859933559703,2.28601695815949,2.28649829624628,2.28634524228143,2.2869819533861,2.28682419139189,2.2877860214016,2.28834854444119,2.28824293380126,2.2879646298038,2.28828157479933,2.28877748324014,2.28873500425324,2.28865344269432,2.28920276514215,2.28958512892836,2.28980604268783,2.29026154938734,2.29102065223614,2.29239780438764,2.29253163145014,2.29399135534925,2.29270640143647,2.29213733844399,2.29263991405453,2.29311383268724,2.29327134075229,2.29358388077515,2.29393491395562,2.29489772099441,2.29519891845258,2.29618056067711,2.29683384116481,2.2982513711753,2.29968885077425,2.30064475191264,2.33818720366863,2.37404075479482,2.37382821608516,2.37446357389923,2.37509859136195,2.37581911713801,2.37601655251611,2.37609497240749,2.37634534139321,2.37658836884029,2.37683584994489,2.37698624040981,2.37715362216889,2.37662231376512,2.37651846817425,2.3761509267132,2.37564118114736,2.37531017404719,2.37649379310696,2.37618261093008,2.37991759424041,2.38177140671582,2.38203716852997,2.38339280420045,2.38272417112986,2.38307187291877,2.3821166641971,2.38169822438282,2.38193525088091,2.38135012393951,2.38441570837697,2.38755106403988,2.38446478753826,2.38267745895277,2.38339770415492,2.38381768488381,2.38528895921484,2.38803182058883,2.38571383156146,2.38558075369356,2.38419756590495,2.38431040784238,2.3836195877323,2.38347433990703,2.38425733715764,2.3862044907013,2.38545488192493,2.38649859932257,2.38522976035235,2.38553716276022,2.38431699831245,2.38441910916971,2.38373780397975,2.38427924390994,2.38361253949767,2.38406376313084,2.38394694126804,2.3850261242098,2.38422170993853,2.38512172254988,2.38483412518167,2.38573819143954,2.38499861612721,2.38589079001585,2.38422393575322,2.38517883950096,2.33766236569447,2.31093335621805,2.31048881754031,2.30971546960273,2.30908788901072,2.30976169890793,2.30818155640688,2.30775524100763,2.30735428199888,2.30760168916265,2.30750906055035,2.30783046916224,2.30808636399198,2.30854769446805,2.30817262744703,2.30775853233764,2.30805194005314,2.3080113752723,2.30839990659418,2.30834528026917,2.3086690362102,2.30862127684637,2.30884457536605,2.30874859761679,2.30907332296051,2.309202005959,2.30947464468746,2.3098336835208,2.30968349965696,2.30953184018425,2.30970596197048,2.30972919563035,2.31007768989061,2.31037898993961,2.31059285517093,2.31086336310776,2.31125597500218,2.3117591741462,2.31176382059185,2.31171198009485,2.31196407209764,2.31216253637431,2.31220084347611,2.31224630879905,2.31259119514912,2.31290495698073,2.31326782742999,2.31358383320033,2.31410547194404,2.31487112865537,2.31493701345529,2.31611733291087,2.31437309508573,2.34824444401797,2.34338504689587,2.35490289656131,2.35532418249528
2.34402180191272,2.34531006875116,2.34609999223459,2.34674053243692,2.34795121753395,2.34963864208056,2.35268873352148,2.3196463055868,2.28547584771068,2.28618609972387,2.28619149412712,2.2864529716856,2.28631273248278,2.28704551531203,2.28704029436091,2.28697891181436,2.28649299270084,2.2868903617974,2.28670761306258,2.28746781327775,2.28726805294051,2.28796268919459,2.2874763209303,2.2885054429836,2.28826061161422,2.28895379644449,2.28854464930757,2.28912070676661,2.28851443496033,2.28945180384053,2.28960846742499,2.29002904589113,2.29001572152086,2.29035296639256,2.29075038433737,2.29129926320484,2.29211777997015,2.29239385384737,2.29297300630817,2.29276967426417,2.2928453429881,2.2930091534126,2.29349869343429,2.2935641433277,2.29399299019895,2.29420108667506,2.2949415080411,2.29516557609048,2.2958862932803,2.29673397936242,2.29812913329963,2.29901962457546,2.29995659675298,2.32342912901031,2.37433014925123,2.37345613403798,2.37399890651752,2.37487513370255,2.37603660509944,2.37641995957548,2.37747619136797,2.37710681182092,2.37709081011906,2.37853064704591,2.38065333453763,2.37973794503168,2.38087399817736,2.37831045129538,2.37701130046178,2.3771297591585,2.3781191529478,2.37842439729466,2.38081800605985,2.38226674347161,2.38377522742196,2.38346735665615,2.38421658212862,2.38344506483501,2.38403012463746,2.38308756785203,2.38337734375057,2.38451721031244,2.39224609918814,2.38805598280278,2.38775706121741,2.38619167308684,2.38571930764877,2.38539490954594,2.3860994439296,2.38598620105803,2.38655917627204,2.38589231619612,2.38541524164895,2.38525926488698,2.38511438297174,2.38506506611293,2.3857239163864,2.38552326456427,2.3867544637192,2.38621418059784,2.38703133638345,2.38617031653892,2.38682761649446,2.38531470878411,2.38480542188015,2.38440712218464,2.38445552847928,2.38394175955317,2.38392701002531,2.3836180519049,2.38329173442368,2.38343741551582,2.38360524320438,2.38440484022896,2.38562165829845,2.3852895652026,2.38719441095779,2.34644063337801,2.31089532040244,2.31068841697755,2.30975724437967,2.30984842720964,2.3102532830422,2.30878053761004,2.3079915834639,2.30782453998777,2.30764612357992,2.30764291838164,2.30803105251114,2.30789973189102,2.30825959944952,2.30847684556866,2.30942826885003,2.30859961120446,2.30858385263734,2.30853742496955,2.30900126476791,2.30913143323126,2.30994780605432,2.30940521943779,2.30926809128181,2.30943923770855,2.30988276963857,2.30958224401315,2.30969739863459,2.30977752183959,2.31014947077522,2.31008341070366,2.3102726697267,2.31018530135476,2.31027087478564,2.31051991223853,2.31095141116343,2.31098904402751,2.31120625297223,2.31162833564345,2.31226759243947,2.31224411223978,2.31250795085625,2.31243678914518,2.31258094307147,2.31272346356295,2.31302830365441,2.31316269245219,2.31343602917326,2.31395802387696,2.31464525528042,2.31498406140225,2.3159589338351,2.31600823915071,2.31794068310853,2.317117633264,2.31984408750354,2.33965792705633,2.35399871519059,2.3548107257703
2.34584462678976,2.3466283443489,2.34675983831575,2.3480201727594,2.34875925967571,2.35056963818117,2.35283086201017,2.35312642858637,2.36132122628863,2.36002201623492,2.36164680659494,2.32264232759951,2.28682380361945,2.2878484839983,2.28725904665357,2.28785587165804,2.28713106107721,2.28792672543594,2.28751684306693,2.28836194221738,2.28798060311793,2.28882919678893,2.28834167622703,2.28915711443928,2.28847186473355,2.28967851673737,2.28964677547717,2.29024768593256,2.28993257278052,2.29064550713658,2.29003822814437,2.29083813691565,2.29072677281313,2.29088549643044,2.29100073020866,2.29142337043363,2.29227757836958,2.29229121901951,2.29270739004559,2.29267307793415,2.29321176244972,2.29308247506869,2.29322902889137,2.29364083134492,2.29408993642301,2.29443892305218,2.29514760683591,2.29527888366175,2.29580851303768,2.29655084656494,2.29743898069199,2.29792790589333,2.2989207189492,2.30006324461388,2.30113134413047,2.33822487190835,2.37499330161308,2.37470293788741,2.37585193868983,2.37615011703272,2.37686959763278,2.37731794720003,2.37787732880785,2.37937615386338,2.3816819296726,2.38041463334213,2.38033742464166,2.37920404926174,2.37881519021737,2.37842917648143,2.37890257693863,2.38006529766485,2.39342076103581,2.38743966371604,2.3870000579057,2.38526620674793,2.3848240523569,2.38433292059883,2.38424755548398,2.38387657174144,2.38417613006563,2.38597530923338,2.38932368509934,2.38841936777262,2.38905339884121,2.3879518346074,2.38906999320608,2.38746833666523,2.38806552250982,2.38702760314961,2.38652978119059,2.38681691811813,2.3876327960616,2.38720558263995,2.3884205434903,2.38675755173503,2.38621260991226,2.38627958161838,2.38720608911717,2.38627435680716,2.38649687160493,2.38603479350891,2.38635938183977,2.38598250858053,2.38657621593839,2.38532877681944,2.38483538364304,2.38420282082436,2.38407329780218,2.38329168304153,2.38295979025384,2.38275337250262,2.38353637691162,2.3841094693583,2.38667280662742,2.34892929355307,2.31136738667131,2.3109577559959,2.31029464275675,2.30957001224473,2.30869468244051,2.30868593959647,2.30899641860483,2.30839703048377,2.30794428669162,2.30817007309414,2.30831883334151,2.30843523150498,2.30832826621206,2.30848216838657,2.30869858137353,2.30868377872701,2.3085751245701,2.30873802069873,2.30870523112653,2.30902876326006,2.30912517471235,2.30963965573719,2.3100570443024,2.31012803518875,2.31007378682894,2.310200372071,2.31007250536752,2.31012557894305,2.3101900349305,2.31023819648965,2.3102400903765,2.31067052618336,2.31111383234933,2.31091782862994,2.3107837251184,2.31119976496251,2.31173038959887,2.31159491458014,2.31165201470854,2.31218717537841,2.31268070824161,2.31285270580475,2.31284553616835,2.31312728733451,2.31322998516805,2.31351171582078,2.31363548694717,2.3139985763935,2.31443115820169,2.31470814751597,2.31532034952323,2.31521748431672,2.31531290969759,2.31590729775263,2.31694183929286,2.31720859788389,2.31904873921848,2.3345961833174,2.35359257598864,2.35525069938726
2.3464363193498,2.34798871319374,2.35010090801557,2.35019032817386,2.35173928203703,2.35194752661463,2.35281830198835,2.35515557302575,2.35883395228293,2.3589920721533,2.36003734880245,2.36009602916718,2.36152656139955,2.36281330314358,2.36478812753459,2.31953110279418,2.2878589074884,2.32022184806545,2.36667695573463,2.36603416840832,2.36578963021746,2.36711117304201,2.36939322816745,2.36908889399325,2.36970320787068,2.36807007329024,2.36608970912615,2.32196932353115,2.29083823411293,2.29193138414127,2.29139532394962,2.29173642206241,2.29099838085884,2.29164038387228,2.29188858877448,2.29178320527863,2.2927299593206,2.29228350394402,2.29225801304677,2.29247103520446,2.29292819898824,2.29312593746671,2.29353605212729,2.29382791861943,2.29437189932076,2.29453229954766,2.29479369090088,2.29548888286968,2.2967317796194,2.29658026414265,2.29717360261981,2.29735077738714,2.2981434891011,2.29913689163795,2.30009537556453,2.30179498982925,2.30258086982324,2.35237797003691,2.37602901253798,2.37596566521299,2.37671561745888,2.37740342923039,2.37838833583982,2.37915200053217,2.37999444248692,2.37985239815156,2.3798644658813,2.37950903614617,2.38008921872294,2.37948673767895,2.38054356846213,2.38051211839547,2.3907235457813,2.38733795807551,2.38866508456116,2.38651505730344,2.38755524893051,2.38527460467591,2.38581056665463,2.38436352612591,2.38520326553528,2.38581573407418,2.38878188696183,2.38795713247787,2.39017455260468,2.38796683500706,2.38855861948855,2.38767253929866,2.38927681101725,2.38808998039386,2.39046929647891,2.38801219258909,2.38905890763744,2.38828143220779,2.39061162069374,2.38803983525277,2.38854986735489,2.38677952505171,2.38683394015608,2.3859851987053,2.38639304139071,2.38580249866309,2.38694179083778,2.38623336561403,2.38776608936695,2.38583632162581,2.38599164511551,2.38446209299718,2.38366236454497,2.38306827629621,2.38259171146189,2.382327319391,2.38304047821923,2.35989566274195,2.31246193781824,2.31173773874794,2.31075437686128,2.31007119204528,2.30910345437614,2.30860542189581,2.30836863419534,2.30843433810298,2.30891330603241,2.30839939874081,2.30816425820485,2.30919429021144,2.31156181258588,2.30961108622045,2.30912820005743,2.30884624181342,2.30901254049871,2.3087907190849,2.30885428927392,2.30887209716578,2.30910243725776,2.30954590021841,2.3107046025101,2.31015084290491,2.31040257632664,2.31091238791851,2.31264896298302,2.3111291373944,2.31078927516951,2.31056663759036,2.31075211980941,2.31066165339678,2.3110560676012,2.31117327950556,2.31194057117857,2.31152401441578,2.31194492464437,2.31172027894644,2.31218033514046,2.3119502697774,2.31220228458433,2.31273748473932,2.31395062663945,2.31357894707277,2.31396851927798,2.31392499344708,2.31469695155255,2.31437549362201,2.31514888981746,2.31474809682679,2.31524355377767,2.31524754575247,2.31580446855181,2.31564090711555,2.31576809793617,2.31637740616956,2.31756536669023,2.31757899385577,2.31998336954856,2.3301992575575,2.35499009289791,2.35633216172516
2.34773833295047,2.34896252032413,2.35015790255241,2.35101088111413,2.35188579977126,2.35278018852526,2.35391578009729,2.35568163616314,2.3573611680937,2.3582940864072,2.35905753697222,2.36005280705621,2.36153596582615,2.36340287510399,2.36542286426667,2.36832009799513,2.37014890999087,2.36931103417344,2.36774577625822,2.36701556391391,2.36674610348827,2.36740488625754,2.36849681286295,2.36934992007247,2.37011262563718,2.36963823973333,2.36907932829472,2.35355705145287,2.34683004306947,2.33793463398002,2.32956684904629,2.32121578640574,2.31321090367093,2.30751602384076,2.29193264762907,2.29209769101854,2.29260824860178,2.29235156714388,2.29240148210401,2.29247716130907,2.29282799271126,2.29315054957897,2.29354602192776,2.29391344129968,2.29432000704647,2.29461589209175,2.29497121079023,2.29543830903642,2.29603374275296,2.29620627215709,2.29669158384419,2.29696565960651,2.29773168460419,2.29866169879436,2.30007188629408,2.301529161232,2.30252899608269,2.33856254215957,2.3748321299394,2.37540851084426,2.37682341755697,2.37748969629065,2.37805208773879,2.37860276179053,2.37907867086889,2.37909265435888,2.37926006887924,2.37916416493547,2.37955228004323,2.37968984305206,2.38073961135808,2.38244037135843,2.38623853877769,2.38632158856142,2.3869190229481,2.38626390406424,2.38661911674765,2.38525680025665,2.38481632502973,2.38414611167435,2.38456691880614,2.38501356792654,2.38639437553769,2.38640514268819,2.38723456259604,2.38658666887152,2.38694847278609,2.38663836540381,2.38741335922604,2.38707905611803,2.38778384212192,2.38704632148338,2.38743065309562,2.38715005695373,2.38792906041626,2.38742812853985,2.38784355940268,2.38672581255248,2.38645926398579,2.38593805755016,2.38617595883126,2.3856795227619,2.38610574736323,2.38561932342766,2.38592159140535,2.38512269778768,2.38512488924028,2.38441003787358,2.38381112926363,2.3828477474941,2.38236589383986,2.38171483558841,2.38182570089771,2.3465431272151,2.31195105402217,2.31118672507091,2.3103420698548,2.30945805093556,2.30900514106541,2.30836973570146,2.30820620344362,2.3081589112336,2.30849932574968,2.30848156708821,2.30886884348328,2.30937917445072,2.31012689502565,2.30964562561169,2.30928946854477,2.30910939363819,2.30907894227352,2.30904087648566,2.30908314443671,2.30923180967909,2.30948065038805,2.30974401384104,2.31011685537183,2.31023588743728,2.31049624931265,2.31083201733257,2.31132135261108,2.31119678602417,2.31115100048429,2.31090276111824,2.31077649714557,2.31090456360154,2.31120772003578,2.31132817899374,2.31156482289889,2.31158684655621,2.31175898057327,2.31184773518693,2.31208552570181,2.3121328275792,2.3123208515609,2.31293684311408,2.31367043410484,2.31388685509364,2.31419860133942,2.31426364783656,2.31446959192731,2.31449661581915,2.31471832533836,2.31489967832912,2.3152525927885,2.31542566529658,2.31571589038485,2.31588081121756,2.31626195835321,2.3164664089532,2.31697981108222,2.31738780108814,2.31802290373968,2.32655418602828,2.35674530081712,2.35723554864922
2.34928815428279,2.35011551216888,2.35073470253038,2.35190261643879,2.35230474893875,2.35362303151869,2.35463422656626,2.35602755781808,2.35698208059707,2.35789357755734,2.35818286418103,2.35966525200991,2.36062104586412,2.3624009719629,2.36336811655594,2.36665514342624,2.36578439927275,2.36778364587176,2.36554797379904,2.36647821506532,2.3667864559044,2.3676533980524,2.36837157655466,2.36983346895813,2.37154545825909,2.37108499826377,2.37174109399887,2.3703388034282,2.37022314862821,2.37100922160207,2.37389173047089,2.37217791192209,2.37407781873178,2.33594796686413,2.29223266618331,2.29282745189128,2.29433993821683,2.29333058411002,2.29308866522861,2.29286674054161,2.29316884544654,2.29335927788797,2.29362928949853,2.29407538841521,2.29452596369594,2.29481684116577,2.29518940750995,2.29565269966873,2.29623691281659,2.29640272284954,2.29703735149724,2.2971192147544,2.29783461659726,2.29897743609618,2.30079328229464,2.3013434245419,2.30213912603272,2.32371906718475,2.37490157487738,2.37539321048336,2.37748662795303,2.37726941540913,2.37796525409057,2.37831394303228,2.37876040057326,2.37857597084054,2.37921912320614,2.37904340352239,2.38007880481973,2.38013517305355,2.38113748062344,2.38409601238227,2.38883769422441,2.38808585050588,2.38930599592291,2.38846253080353,2.39077450858739,2.38756236389725,2.38695281410487,2.38590344214995,2.38644548239513,2.38631621696841,2.3882423943494,2.38757799344277,2.38915520622786,2.38804608559308,2.38940609114868,2.38825785329151,2.38973783283243,2.38821617756398,2.38908352878803,2.3878327014512,2.38877122103082,2.38792060550158,2.38898649476603,2.38879431119987,2.39113777668754,2.38866797191553,2.38879124905003,2.38792933176868,2.38918678107099,2.38774623605495,2.38872658081282,2.38706191043117,2.38775782110296,2.38599920274337,2.38639099732049,2.38465224229046,2.38446040976781,2.3825473257297,2.38188459792017,2.38161197203082,2.38291991670894,2.33174756611635,2.31115252096044,2.31064099439686,2.3109480638946,2.30976849346941,2.30974711045784,2.30868091986016,2.30851793486532,2.30839161208117,2.30887417119176,2.30899176892236,2.30976693852449,2.30979879942603,2.31017577114933,2.30982001909687,2.30949793114042,2.30945534464212,2.30944920705189,2.30940345373727,2.30939178080651,2.30964856636242,2.31010849092157,2.31002539690145,2.3100266801792,2.31035329787284,2.31066197290921,2.31080636345009,2.31083854866677,2.3114201717865,2.31193686873865,2.31135635464785,2.31078639375954,2.31122561551555,2.31177333571968,2.31162426407705,2.31163576570926,2.3117634944852,2.31187807360734,2.31209116083113,2.31240504736604,2.31245168325528,2.31223085626486,2.31329542281909,2.31413214324587,2.31438220324251,2.31490275876938,2.31474948983376,2.31466567854678,2.31472485593563,2.31455504545839,2.31518593103677,2.31560704376151,2.31583215698544,2.31585746712013,2.31646631390946,2.31706920671329,2.31731737757217,2.31790472441243,2.31785126499265,2.31807790902945,2.32382455991252,2.35582494335613,2.35656888820552
2.3501756890849,2.3514936553059,2.3539799607085,2.35352568519981,2.35385823137804,2.35483875555354,2.35563990542854,2.35687118634402,2.35836043143406,2.35834772364633,2.35833063529421,2.35962917331116,2.36005442143994,2.36196473423248,2.36206819697745,2.36441867086996,2.36383581423763,2.36548908700125,2.36426274758657,2.36663315232635,2.36804031549019,2.36849483870299,2.36868094815332,2.37040836100694,2.3703833940597,2.37127996910501,2.37046593698504,2.37075703744446,2.37020185995617,2.37097905914648,2.37196521372639,2.37111490993654,2.371200820031,2.36932530944576,2.36958781359955,2.29425474366118,2.29401204398291,2.29383832727788,2.29362798264416,2.29337940504276,2.29363505675636,2.29382530897648,2.29428091700586,2.29444334854444,2.29460289562472,2.29506108701913,2.29547857564792,2.29581063711058,2.29634478220453,2.29649864046466,2.29703565103765,2.29731151188068,2.2980087512192,2.29915372642508,2.30100596115649,2.30113278559074,2.30190536550781,2.30237301990597,2.30240931472714,2.33802827203609,2.37760173399025,2.37711373765357,2.3777925554613,2.37753078044503,2.37820266004534,2.37795704930919,2.37853702899476,2.37863164273652,2.37972255437126,2.38035826132362,2.38152335140166,2.3853167962053,2.38919795795285,2.38891043100218,2.39004839542486,2.3891350302822,2.38982780242292,2.38892215381735,2.39033634112237,2.38823774929932,2.38897199396579,2.3877514684192,2.38875076448822,2.38824876490362,2.38980496346122,2.38888059388327,2.3903629713542,2.38907086341931,2.39008936768753,2.38886414287404,2.38937719582205,2.38860457648583,2.38939081441493,2.38893586161506,2.39003866531543,2.38955891042992,2.39040713517907,2.38959610983097,2.39040629440491,2.38917122031387,2.39038414698012,2.38884314940506,2.38915130092611,2.38716547557047,2.3870792620966,2.38570688884936,2.38597624862459,2.38450729767206,2.38502956861203,2.34760203593915,2.31285151982826,2.31266177773487,2.3116048195284,2.31087116235306,2.3101087017263,2.30984662589576,2.30944730464518,2.30945554969978,2.30995355168527,2.30886780678714,2.30860420894196,2.30858219363759,2.30908034391426,2.30915038700095,2.30963505008843,2.3098711723892,2.3103757319356,2.309992282102,2.30987380254449,2.3098613209444,2.31019919874722,2.30985385250636,2.30987157764527,2.30998177186464,2.31028923229168,2.31033294689429,2.31062727753604,2.31060214066415,2.31081960338662,2.31099493018132,2.31119529706148,2.31179936033303,2.3126668196917,2.31189613755789,2.31161965936829,2.31153432059888,2.31158708509495,2.31185278076592,2.31216448068929,2.3120438908251,2.31201525834104,2.31231209355551,2.31271594202924,2.31310440124329,2.31393859617497,2.31394023887982,2.31440694147177,2.31466612538406,2.31512130574516,2.31522251545707,2.31554681624678,2.3152375988555,2.31488552882788,2.31571350741466,2.31661969938319,2.31638443180607,2.31625888788233,2.3170391493847,2.31781351354287,2.3180372171728,2.31919006940323,2.31900930680179,2.31984165591105,2.32159068035739,2.32232878801531,2.32207225306597
2.35082079476264,2.35181129439705,2.35275662695137,2.3543199283901,2.35656137835036,2.35607056886526,2.35642984922518,2.35727799235061,2.35758881818893,2.35868383212871,2.35905218663471,2.36014284615437,2.35956924787843,2.3624936650517,2.36257782955572,2.36534317203323,2.36665585326532,2.3664046231096,2.3656726294179,2.36680862756005,2.36735335680086,2.36915872371948,2.37169277938805,2.37222820869592,2.37450864849451,2.37280884600554,2.37215835940664,2.37224388810871,2.37327651696339,2.37152941485248,2.37038710087196,2.37036060329465,2.37003145013077,2.3692146612605,2.36962841024083,2.29164468645649,2.2931078615051,2.29396314002798,2.29392042908768,2.29385450506812,2.29412033014583,2.29428678845085,2.29486888589417,2.29496005745173,2.29536286867458,2.29554033850496,2.29579664967298,2.296058908407,2.29615099438318,2.2967869473419,2.29718527207627,2.29804592986226,2.29964647906136,2.29926614918391,2.2998454593419,2.30027812405767,2.30117123582679,2.30132446987453,2.30169345712913,2.3032460595263,2.30421681746736,2.34103520621082,2.37750345127767,2.37678087090987,2.37752818074608,2.37691052709754,2.37748599141449,2.37774791642663,2.37890945314302,2.37936170768933,2.38844808822815,2.3865893497001,2.38906079462519,2.38851966055188,2.38939918875268,2.38854248705678,2.38930427948881,2.38845021284549,2.38931486260908,2.38857714788059,2.38993369230125,2.38808885114375,2.38826131362084,2.38783366844459,2.38915984645521,2.3882535462258,2.38927133117709,2.38858518211157,2.38965683083319,2.38887111828204,2.38972069533728,2.389155812352,2.39013829319366,2.38963974601361,2.39065287442001,2.39000748951738,2.39098747964103,2.38971886885251,2.39002774215828,2.38892830703194,2.38951416949726,2.38849930053292,2.38926434985354,2.38672007769041,2.38708077523708,2.38524391111067,2.38618596598519,2.3478459558452,2.31200163537685,2.31210230751843,2.31166364797992,2.31141220366439,2.31032922574725,2.30981809890769,2.30916836546695,2.30916389547822,2.30937280000933,2.30911671145588,2.30924588021632,2.30908653641301,2.30910975096349,2.3091112607542,2.3090290247212,2.30954822313806,2.30985148259143,2.31010403296188,2.31029854156997,2.31027114782034,2.31037745466271,2.31028536503563,2.31035766767447,2.31032541802686,2.31036750347506,2.31047550475425,2.31058617985049,2.31070313214047,2.31082535567879,2.31097287175506,2.31126878006488,2.31154138468122,2.31205666606966,2.31229437741217,2.31278963067081,2.31233710119067,2.31204996104138,2.31211174314112,2.31235318967675,2.31245323900393,2.31286827296603,2.31265669388098,2.31267263471186,2.3128584381154,2.31294362562712,2.31375530059849,2.31491923794063,2.31457978338703,2.31498050820953,2.31522921055087,2.31614169446736,2.31595784248921,2.31647444159598,2.31629074922505,2.31688784470505,2.31669350455861,2.3172176816126,2.31740045408064,2.31816291773766,2.31831253561124,2.31919237901404,2.31895284372701,2.31910065080989,2.31971027471538,2.32109470097125,2.32137062388568,2.32162827919893,2.3217076605894
2.35128447756226,2.3522908501614,2.35313081432314,2.35449087933117,2.35514199638295,2.35636762487046,2.35717220790878,2.35815166794062,2.35876316654344,2.35965718608268,2.3597283209262,2.36220544106153,2.36570528651606,2.36513461613996,2.36759729378749,2.36655648337686,2.36659617760665,2.36719641145337,2.36754356327082,2.36750286747187,2.36710899638332,2.36925943734796,2.37046568581403,2.37232682864106,2.37385422272161,2.37336242603479,2.37312584469624,2.37268429951147,2.37232354895611,2.37167715571038,2.37053640692242,2.37018749757371,2.36931509357504,2.36923185726183,2.36948433863663,2.29096287986937,2.29262153979713,2.29379248137016,2.29401894681523,2.29438204459327,2.29504502460259,2.29472529629514,2.2952168365139,2.29534154638982,2.29578676590195,2.29594286981655,2.29632677508207,2.29644907053124,2.2968342263218,2.29728542793904,2.29828838147147,2.29830509690494,2.29909443164059,2.29892252021527,2.29941313588602,2.29940893479802,2.29953422422196,2.30029465167669,2.30131667184519,2.30252502420969,2.3041246780536,2.30367091973688,2.30363680962073,2.34604681629948,2.37761225959499,2.37606343737381,2.37677427884604,2.37695662805331,2.37856215698078,2.37959045815284,2.38094656120228,2.38501834955561,2.38788831217002,2.38769752312479,2.38868183113201,2.38752174441361,2.38775147571596,2.38732318331615,2.38835122882425,2.3875615638955,2.38845455204462,2.38737914885462,2.38847964456131,2.38702092825606,2.38818829809258,2.38711343280176,2.38846130487899,2.38754640527208,2.38910534662927,2.38821831537444,2.38983700683178,2.38893307171144,2.3901822402098,2.3893595125445,2.39049276595819,2.38950852594589,2.39010228276876,2.38908313724061,2.38930801548844,2.38819810760379,2.38838403527704,2.38778445934172,2.38916077465822,2.35523342642255,2.31261197233388,2.31230565528146,2.31239478356045,2.31165828401323,2.31152862888641,2.31128548757611,2.31104523870262,2.31037401070335,2.30968395138176,2.30927276725303,2.3090787759517,2.30890696971183,2.30905753854679,2.30924288110954,2.30994397476882,2.30967510090123,2.31028211294629,2.30977541080149,2.31016635041433,2.30999025664167,2.31043483610387,2.3102947477715,2.31044055295981,2.31037247806835,2.31042316201885,2.31046707926514,2.31076309341794,2.310686225714,2.31089142231527,2.31095302311608,2.31143976600704,2.31103583952812,2.31107868357452,2.31117666838573,2.31151703417277,2.31181190392103,2.31252460310697,2.31247474662689,2.31283163128898,2.31255357526936,2.31260971825947,2.31244859908021,2.31272472483883,2.31267752751753,2.3130536705327,2.31297197623031,2.31349192106992,2.31342973447984,2.31413066316795,2.31397315392148,2.31409945671954,2.31438659745982,2.31459598533225,2.31502639838898,2.31549432488863,2.31589106028147,2.31644953840545,2.31645120551461,2.31675756043961,2.31682232709497,2.3172029632329,2.31764086431353,2.31856127748711,2.31858523510877,2.31920643048982,2.31929669282508,2.32017197331449,2.31992730739564,2.32053708112974,2.32082367114045,2.32165058104779,2.32120398756503
2.35191652626737,2.35339321598216,2.35492700937829,2.35568243735921,2.3563978923904,2.35724021116515,2.35816988343324,2.35945928268651,2.36084478798689,2.36138658034922,2.36213013558215,2.36333205211648,2.3649555699007,2.36539888862789,2.36622591319061,2.3664325557898,2.36677815658427,2.36740281293194,2.36807512583733,2.36826839989722,2.36860605315091,2.36985813376372,2.37115141166742,2.37227474526772,2.37318962342122,2.37320493782902,2.37304533965177,2.37278231856301,2.37256441641534,2.3721595754788,2.37157017757924,2.3708679226163,2.37031120907882,2.36944995944474,2.36916231739853,2.2915767976985,2.29102960751678,2.29385002445098,2.294840536535,2.2947344817197,2.29466941863544,2.29469161288559,2.29509901417238,2.29550873373316,2.29596055063102,2.29629250431615,2.29663482829633,2.29691470255374,2.29726828745451,2.29762134053719,2.29804660961399,2.29826847661586,2.2985263643231,2.29862088182777,2.29890542466587,2.29903715752116,2.29942613238455,2.2999494488001,2.30081100434862,2.3013928923179,2.30225724905711,2.30276038306245,2.30316842955329,2.31772794549419,2.32449487560748,2.33309322779379,2.34139652470587,2.35052671177566,2.35947392125937,2.36356851611401,2.38394869337541,2.38515346344891,2.38655832045536,2.38654292378126,2.38688630990726,2.38644657734445,2.38655983534541,2.38617475616751,2.38651800195569,2.38613403657,2.38651406313136,2.38595494203705,2.38634701449139,2.38574690279027,2.38626782674105,2.38580734456075,2.38643148810998,2.3861454934978,2.3869142454117,2.38683246571154,2.3877074646295,2.38767198364491,2.38842795952309,2.38804668301014,2.38863550762872,2.38827769352044,2.38845442104439,2.38789628330371,2.38807773593417,2.38741943933285,2.38750259537651,2.36095521436835,2.347351998182,2.33722212858381,2.31208238986133,2.31142617111521,2.31103245001538,2.31082579534872,2.31090923132317,2.3103808251097,2.31036392859905,2.30985476652172,2.3094601987734,2.30897809167411,2.30888923143419,2.30887251044488,2.30920143382939,2.30945417690097,2.30993859900907,2.30989264744679,2.30992535834267,2.30993721073531,2.31005404145639,2.31019067395351,2.31043375874341,2.31061115453749,2.31084611095647,2.31070932483288,2.31063841314571,2.31069263037025,2.31084689565247,2.31103044181728,2.31129514778365,2.31126668265086,2.31130747759665,2.31118836400951,2.3111959455426,2.3113953695206,2.31170229653911,2.31193803533137,2.31225382369459,2.3125500436248,2.3128967434731,2.31275053596098,2.31268173024626,2.31267390811126,2.31277084088002,2.31280921407729,2.31291902398775,2.31301815289789,2.31325902622558,2.31358263515172,2.31404296188627,2.31426366540778,2.31452084312649,2.31463285961765,2.3148029005318,2.31515441927719,2.315594198057,2.31604602745393,2.31651349892124,2.31670243791371,2.31693610380273,2.31705434177762,2.31732020882258,2.31786484636413,2.318513850146,2.31878704768951,2.31907418161335,2.31941719086418,2.3198376317839,2.32006472032238,2.32041190330504,2.32068621729898,2.32111321573946,2.32103534116992
2.35255218385737,2.35483681534769,2.3578278499004,2.35726394204826,2.35788507170256,2.35835757446193,2.35909820376461,2.36089426880666,2.36379235412134,2.36306403830027,2.36415714729279,2.3642574676901,2.36531042960869,2.3655321725388,2.36578140973579,2.36634617582362,2.36655173377736,2.36766970697581,2.36876470113568,2.36880807195642,2.36880337668354,2.37026466260648,2.37171384432139,2.37224418194588,2.37297968417379,2.37278695006927,2.37265692130544,2.37227706329507,2.37221807576165,2.37195149669271,2.37218549017062,2.37132426615284,2.37157331075388,2.37042809733321,2.37079974587359,2.29284051189508,2.29605521280279,2.29554061035325,2.2958445403196,2.29505201057847,2.29466843335314,2.29484820714683,2.29542369000076,2.29582323996217,2.29648800914605,2.29670006317075,2.29729747566086,2.29731993659675,2.29790776863947,2.29788639910901,2.29832722309267,2.29833088379586,2.2985603396129,2.29866017520698,2.29914785645749,2.2992292668541,2.29975292540709,2.30016714355662,2.30110201808564,2.30130224985835,2.30191358789622,2.30237797907808,2.30384827115912,2.30474788725417,2.30563299358184,2.30716312194381,2.30778805517592,2.30903921136794,2.30863620542116,2.33731686979992,2.38717183563584,2.38571801398617,2.38689954733601,2.3860928355888,2.38675365508772,2.38605419115408,2.38688811299345,2.38613098984509,2.38734601804839,2.38682792494035,2.38847107577377,2.38691628851718,2.38797635561795,2.38671335810584,2.38803387024121,2.38667003097263,2.38796104827266,2.38699143043531,2.38851222917514,2.38772390503931,2.38920455063084,2.38823725247068,2.39004529962473,2.38867661950128,2.38987931094991,2.3885853017229,2.38917051199388,2.38773055425593,2.3885378226839,2.38741379962766,2.38888154877108,2.33968756173192,2.31201388733329,2.31242450499533,2.31194063226901,2.31098716223269,2.31074998683741,2.31068724017483,2.3115447707646,2.31049953855582,2.31053713135698,2.30983640837288,2.30966187291462,2.30924899589008,2.30911088284608,2.30937543191617,2.30987486040221,2.31012203489934,2.31077538509241,2.31032492037897,2.30997714823779,2.31017583518907,2.31035778087046,2.31044420282641,2.31084288838535,2.31105351146495,2.31181866285062,2.31118354334634,2.31095045736097,2.31104826270656,2.31110309849467,2.31152077295575,2.31219940474078,2.31174825223381,2.31154728758559,2.31147678950859,2.31132822694913,2.31176086302485,2.31217518035308,2.31223318003219,2.31221893711855,2.31283296828678,2.31367105370201,2.31312870882909,2.31292059754275,2.31305689685867,2.31310133922912,2.31313863259844,2.31302642910333,2.31319672989921,2.31317732138399,2.31388000299703,2.31443146765398,2.3147967540101,2.31532359042396,2.31511041164451,2.31507364221603,2.31549401583267,2.31593263976107,2.31649115711824,2.31711320564097,2.31722881845573,2.317500347139,2.3174633555294,2.31745701493455,2.31830805222273,2.31920340585454,2.31925257017831,2.3193326483715,2.31975265570032,2.32025892437639,2.32048313647941,2.3209949694576,2.3212899333617,2.32188336779629,2.32220308634009
2.35451377218965,2.35563906837352,2.35743987488516,2.35773368124188,2.35854482645775,2.35920992898522,2.36070568058372,2.36118959358884,2.36237415805541,2.36277864375334,2.36347620359088,2.36396122217708,2.36470528861361,2.36518652350784,2.36586082081419,2.36613975722184,2.36655933376952,2.36756805641577,2.36883272417916,2.36912189440287,2.36984946020326,2.37085217576581,2.37216432341013,2.37254646621791,2.37314379478087,2.37265107693621,2.37281939673053,2.37161058447514,2.3708879439036,2.37110527502142,2.37143393696385,2.37104091194361,2.37154217598412,2.37035486425587,2.37101502710974,2.2929605010861,2.29652277888303,2.29618374114192,2.29588332214173,2.2951893520842,2.29449480587383,2.29522355243294,2.29594606725731,2.29630274214108,2.29668298225372,2.29715117256466,2.29764469765142,2.29760495786759,2.29751150762685,2.29811463754671,2.29865722564915,2.29853516741296,2.29805615976758,2.29881240469098,2.29913600907514,2.29970393217634,2.3005193027376,2.30050344348732,2.30101289774148,2.30113028855902,2.30163394847532,2.30219212366121,2.30326251094355,2.30402866109553,2.30479093924648,2.30620590729584,2.30706425664082,2.30777323879021,2.30751214570363,2.30927424945827,2.31078269557975,2.31097008126527,2.31093199324563,2.34743935716591,2.38661701900117,2.38560946224786,2.38645316406775,2.38580731895154,2.3873056179007,2.38661063572327,2.3881767393922,2.38693322735286,2.38838009002412,2.38670688745287,2.38743326423511,2.38650993103098,2.38772261721714,2.38690490828546,2.38873797492624,2.3875064580466,2.38946435118436,2.38834667430694,2.38998317472933,2.38888915340332,2.39039767961139,2.38915145945589,2.39090903693371,2.34936817116577,2.31257727366905,2.3127332516491,2.31185518061688,2.31212706165414,2.31189671525727,2.31151089532642,2.31116362282719,2.31076477688766,2.3109368725741,2.31044567256302,2.30995870627463,2.31002355636597,2.30976398151764,2.30979659326909,2.31022590523852,2.30978764735336,2.3099967820654,2.31011547242268,2.31060880831755,2.31068663966977,2.31074037254553,2.31091884843138,2.31148349399306,2.31076747363496,2.3106255180203,2.31071521533266,2.3109842794079,2.3111287567255,2.31130064766847,2.31138545427355,2.31161979675953,2.31155664400377,2.31168783086999,2.31186567006243,2.31216351775449,2.31208059842928,2.31223861807992,2.31194879374038,2.31188399401788,2.31224426310769,2.31292091597094,2.31268640474019,2.31280850429048,2.31298401569381,2.313255634419,2.3132582388717,2.31353297583794,2.31360851329691,2.31397090590052,2.31369402459557,2.31346330671601,2.31363516889255,2.31400407757858,2.31439443446262,2.31510941501456,2.31522723865413,2.31559988897998,2.31547240645595,2.3156093423788,2.31587010836857,2.31644981849869,2.3169119183748,2.31774250343798,2.3176355577884,2.3179414691729,2.31788443026535,2.31822372775462,2.31879082132746,2.31964352219373,2.31982811082532,2.32035607875987,2.32027877468356,2.32078992611087,2.32101367335322,2.32164549569584,2.32213772345193,2.32323911644063,2.32306577477729
2.35449324475738,2.35558614886595,2.35683890077542,2.35757223121387,2.35826301779463,2.35910446644353,2.35996420585611,2.36075676695621,2.36144194482862,2.36223297022926,2.36283466876385,2.36355921832697,2.36406507759134,2.3648759485079,2.36536576055027,2.36598289425954,2.36618392379528,2.36736504965757,2.36800608611084,2.36913094714665,2.36993549995798,2.37130485003001,2.37311238934104,2.37300166749747,2.37457248723808,2.37284655479049,2.37465856915684,2.37132710128794,2.37126194453331,2.3702904974866,2.3704157741605,2.36997842101851,2.37038205692117,2.3697478192502,2.37055545191901,2.29288618698746,2.29532260948755,2.29597065051089,2.29659434108653,2.29562912285235,2.29574623213909,2.29579406641687,2.2964475519489,2.29664408290592,2.29724925033765,2.29737675401499,2.29786405228435,2.29779548561571,2.2980494591479,2.29828509055362,2.29896767459893,2.29900828263811,2.29984031246915,2.29952432266613,2.30000968111181,2.3004703386975,2.30197221182272,2.30095940344781,2.30090622918598,2.30103532983383,2.30159129710903,2.30217992753994,2.30314896493815,2.30362703400633,2.30410417448203,2.30504229607941,2.30543316195606,2.306253632353,2.30688697980103,2.30765106282393,2.30806818572601,2.30890700662942,2.30892937963031,2.30901361343791,2.3094769325879,2.30991066044988,2.31061025374455,2.34779812720252,2.38760479433778,2.38607880842788,2.38775084320069,2.38634344226674,2.38827162783863,2.38643667702671,2.38832830949708,2.38632884609273,2.38810026164281,2.38620560055322,2.38758604251262,2.38607671609243,2.38710649261585,2.34877434581048,2.31252200998224,2.31224090309947,2.311579867293,2.3116463374244,2.31140691381805,2.3116847079366,2.31167823390931,2.31158725145837,2.31079830073578,2.31083788169082,2.3102616186296,2.31042320121804,2.31058894238703,2.31059905894723,2.31097069176626,2.31096550200476,2.31219131331111,2.31073610232126,2.31034144687349,2.3103399216373,2.31104190070902,2.31054021157735,2.31065790024305,2.31117027593568,2.31255846932738,2.31164036596402,2.31177363966271,2.31123168957398,2.31107316094317,2.31072952447759,2.31028501324904,2.31085918276956,2.31150816894293,2.31141417642412,2.31141468686369,2.31178463368311,2.3122804889545,2.3122237096016,2.31251581852166,2.31246314567489,2.31268834059779,2.31256613652966,2.3127163224193,2.31258739687548,2.31263406229417,2.31281087488816,2.31296908922386,2.3131979496406,2.31359722185122,2.31344949428803,2.31354078173934,2.31353178962637,2.31342796301415,2.3143045181616,2.31573422770935,2.31464390853813,2.31422180671069,2.31432826551244,2.31451127387766,2.31504443573262,2.31584113598825,2.31588725177998,2.31644186631981,2.31606485730313,2.3161310404273,2.31643752430026,2.31700086197982,2.31749625720693,2.31828491810183,2.3181725026789,2.31813674454244,2.31844975399331,2.31852173209833,2.31948882116814,2.32043882221469,2.32042769665409,2.32080027020576,2.32044628093632,2.32000440802461,2.32134378467917,2.32271068662826,2.3227691788539,2.32311849126835,2.32377426919726
2.35421038700265,2.35518854171059,2.3561869381222,2.35727310839056,2.35796011523957,2.35887154356992,2.35976150852061,2.36025299291979,2.36084357744651,2.36152604914082,2.36231660383211,2.36288038526226,2.36365396077443,2.36429408583005,2.36544451917558,2.3656311682318,2.36634983261568,2.36701235148004,2.36775615685509,2.36938667018208,2.37161409208905,2.37168457386129,2.37360193577467,2.37275014966961,2.37359536842264,2.37069507841778,2.36757378500981,2.36896437926186,2.37004997461677,2.36941440374637,2.37021150970627,2.36926371507183,2.37045604427435,2.33829994304925,2.29668091574461,2.29530496440746,2.29492259467458,2.29516485470906,2.29538068598255,2.29544181202086,2.29604544345444,2.29615787333283,2.29672968701303,2.29691076087271,2.29716935296222,2.2976281942704,2.2981666954194,2.29811621614795,2.29820455226484,2.29842931521702,2.29849634967488,2.29900651714068,2.2992400557799,2.29968849764247,2.30009933415405,2.30047554162234,2.30087373982351,2.30100109242061,2.3014184785913,2.30115911759583,2.30152878020563,2.30213824237866,2.30339488251618,2.30356107224911,2.30434106069461,2.3044471551765,2.30453848554121,2.30504826093137,2.3050419263382,2.30580703774344,2.3058570039395,2.30686476041649,2.30703881909295,2.3075057602719,2.3074591982355,2.30819511085805,2.30810888402231,2.3087415745764,2.3096912504953,2.30960323578815,2.31003920781293,2.30998665638954,2.31021780095056,2.310159292337,2.31029132674537,2.31028536300464,2.3104905772877,2.31100685472311,2.31196741393865,2.31146862056732,2.31158832137044,2.31083146263183,2.31020974320985,2.31095851413009,2.31081311524153,2.31095087632608,2.31076745455877,2.31073815099185,2.31025353102514,2.31031084645641,2.30973723798394,2.30985645153824,2.30972176256734,2.31002379296191,2.31046837955789,2.31036212644567,2.31064444925568,2.3107062461451,2.3113003420659,2.31078495145647,2.31091251968948,2.3105411748479,2.31071862278411,2.31085236817506,2.31155514371858,2.31139053738245,2.31177218241032,2.3115933824363,2.31158354453342,2.31144847809477,2.31134762051247,2.31115702236889,2.31099623236633,2.31124112836754,2.31167409018783,2.31173646754412,2.31214786582581,2.31208959429575,2.31242176814745,2.31250157003286,2.31291962071927,2.31274158278083,2.31289841822196,2.31276639887224,2.31290820716703,2.31300256911903,2.31350532064349,2.31334182866735,2.31375348327105,2.31351111443704,2.31362057700084,2.31361294811544,2.31348078564402,2.31383659171585,2.31413809261196,2.31439479388005,2.3147700231339,2.31485121245397,2.31529669297446,2.3148673666489,2.31505691290942,2.31533785320424,2.31606684856749,2.31595082484086,2.31608609090691,2.31609907550506,2.31616492178099,2.31662047941961,2.31736121482582,2.31766534127734,2.31851223550047,2.31849592493555,2.31894990935379,2.31912618353997,2.31991731716792,2.32012143661077,2.32116457306566,2.32065929610057,2.32054608483775,2.32087770166042,2.32128935622665,2.32189158641772,2.3223582490408,2.32329112317087,2.32413305541601,2.32450766390508
