1.91091513674918,1.92138864190538,1.92477879032464,1.92527801977939,1.86375705357956,1.80401999993867,1.85373191064428,1.92599657990382,1.9214288897386,1.93667667958469,1.94094187680636,1.94352460010663,1.67020273591962,1.49941901476188,1.5131221969353,1.51293343805107,1.49516112725717,1.50135907764666,1.49501342505228,1.49333123179519,1.52779473843093,1.53126456788075,1.50262757212223,1.46803961650055,1.4827934007421,1.54676000004349,1.57143222733389,1.58493352229037,1.59315312332598,1.46319667399274,1.46703660781276,1.42424998079476,1.45392445951797,1.45101655842227,1.52743717624717,1.56070556935246,1.56172022409031,1.50067072510317,1.48817315652161,1.47009004257101,1.50808636234654,1.53411997681557,1.54809120093943,1.56480003296582,1.62145128131994,1.85740000011444,1.56607449748169,1.49852733277124,1.50676585895387,1.51414379080034,1.55383451218577,1.55462204432525,1.65964598720014,1.79912,1.77031313617804,1.67132239292329,1.66161721385526,1.65927040288547,1.66218141816046,1.67557988078442,1.73609958606457,1.783739999958,1.87437498665117,2.06187000008697,1.60565442705094,1.5342595644154,1.54708828139421,1.55725653051289,1.5654413950848,1.5873644041488,1.58804445969402,1.65254081256462,1.63359116941954,1.63889222195086,1.53240141903521,1.49248964135935,1.47346682910791,1.51525361720697,1.51564463924938,1.54237569133543,1.55557451520854,1.44358999988424,1.54568908966877,1.54837857611281,1.52465992343688,1.53958298280861,1.53945460840266,1.63342124819329,1.61536641627584,1.65897431039638,1.68415955326649,1.79340000011576,1.4296469238101,1.39836863577981,1.40758090399353,1.40886908250776,1.42479785895437,1.44616846643993,1.49804932014503,1.52098000698884,1.42746714935647,1.35805742173363,1.34473828383293,1.3428241981199,1.36895344080164,1.3870999960882,1.43709654252258,1.56284000005788,1.3845085442308,1.31217097475835,1.31510583028167,1.2710483333218,1.32426395259001,1.34935992792246,1.50339593424945,1.54094,1.44832063955626,1.32826701347615,1.32775641711553,1.32719585455063,1.33703131877206,1.49960745342958,1.4795437985165,1.37169890827192,1.37717416945523,1.36713946332791,1.33395914183543,1.306038192511,1.31787781932728,1.30929011792035,1.43852547085019,1.71563000011576,1.49370036157245,1.48438531707222,1.48822937924103,1.47059236374121,1.49927814915175,1.51095984560241,1.5740042237674,1.78765656516969,1.78445635751374,1.77808532125011,1.67657613962657,1.56770184924317,1.54551006249807,1.53903140894109,1.53524994991247,1.58564165182655,1.6089590927411,1.73118875061414,1.74694918769117,1.77604800304207,1.62070676523022,1.63399000011576,1.26985630773427,1.23780029701244,1.23764443523978,1.24006627845734,1.22944723969581,1.20712994074278,1.3044072601656,1.306523435237,1.30843925061206,1.31237801063367,1.16349392569411,1.13049425702453,1.13144554263934,1.11508786218268,1.17201033631375,1.18193039650428,1.24264002781671,1.30243047669123,1.27548470161596,1.27500594129191,1.29198830919178,1.31626247620656
1.86949156234724,1.77490999988811,1.95644429983379,1.96213044047836,1.94034818672402,1.94143707468644,1.83797567959132,1.81876992836496,1.86151535767126,1.94079137674598,1.94124674889918,1.94145973667559,1.73081185296474,1.75428005450721,1.52722165954678,1.52662241857938,1.49311238634024,1.4909057695007,1.49253639363212,1.48544967364308,1.52408087721723,1.52431536365569,1.50539943972401,1.4407999735081,1.4827831297247,1.48357924384511,1.57542838424646,1.61026886666481,1.6239287993231,1.68241000011021,1.46680503004487,1.4704377790657,1.4717150464024,1.47632192131972,1.52671681107659,1.6175800000981,1.5615046387762,1.54512968138763,1.48077484081555,1.45706994570988,1.48203520092274,1.48020744317549,1.53280641253723,1.52404465695201,1.54630072303351,1.53895888195795,1.52710740135874,1.50075143673925,1.50134921465527,1.50014480564658,1.55305755997433,1.5854209741399,1.65755640239985,1.87396000005788,1.75972746354897,1.68718045363668,1.65571537981666,1.59930474587716,1.62665587938243,1.64406036116479,1.70860444469671,1.84799891027354,1.86618947229623,1.90900333337857,1.59093066169213,1.5468081598398,1.5515926508507,1.55593407377879,1.57502351929655,1.58426333917091,1.59396077776559,1.70010000008211,1.62988345131332,1.63136135105635,1.53483354103761,1.45441602189195,1.46450433173239,1.49845914817905,1.51556433976876,1.57792001554446,1.58142281344874,1.77259000005788,1.55480480099079,1.44050999988967,1.50166925802158,1.50262721250118,1.53896954627959,1.59661038483006,1.6142350550032,1.75881000008515,1.70028630799309,1.69732933269755,1.42510884333909,1.37793643660085,1.37954046571966,1.37897243429316,1.42366607828373,1.44760148009248,1.52385106427432,1.64144833342016,1.41296667895528,1.34779810659589,1.34739360232399,1.34996902077339,1.37170734187811,1.41594041413842,1.42038629569064,1.43733499738427,1.38167997465793,1.32439641825302,1.31600093516947,1.29998920586935,1.32637996555168,1.33944032331397,1.50567342501101,1.70022000011576,1.43902737739156,1.32897527172895,1.32887136425662,1.31958120685826,1.33861148018388,1.49957958644237,1.49624613695211,1.50863906568897,1.39278392888707,1.38984991075688,1.33301477543214,1.31271122103907,1.3234682524798,1.36189275140148,1.44321800024263,1.44827999994489,1.49546733343389,1.49816638188597,1.49281142165813,1.46768428262586,1.48816037102963,1.50602061579526,1.55694940558558,1.74088992402926,1.75706516574328,1.82077217323133,1.67716280149289,1.60941999999228,1.5426102022773,1.53331083781098,1.53274828550633,1.58512834532701,1.59092041602945,1.64914114906898,1.68661152623347,1.73641000005689,1.41012613983078,1.27439834391141,1.27257595974233,1.23236444520708,1.23529115663997,1.23692004035887,1.23241713095534,1.23256288301918,1.30162501261139,1.32740546497491,1.32254047629491,1.32996134001488,1.16296105125157,1.13273922014,1.13188987008958,1.11388136257834,1.18310169689234,1.27790721439927,1.27518891778725,1.27295309510893,1.27458773281589,1.2744374291381,1.29556724737015,1.32568395046579
1.86627297180485,2.07585609059919,2.07433056993519,2.07283398201449,1.93952212842165,1.79504593949217,1.79248905491903,1.79523926386271,1.83128555672899,1.94490718877484,1.79720608994895,1.72405961620323,1.72713620576043,1.69167024411513,1.52671148431686,1.47335297079166,1.47730955934224,1.47958010214284,1.49320171870982,1.52853029244234,1.52098814306581,1.51011362660108,1.5084810502756,1.48248924321795,1.49213031876327,1.5042453160446,1.57969525822284,1.69614000008841,1.63519825814807,1.54569999994866,1.46258763552661,1.44785915014032,1.47319682770162,1.50719988050907,1.52570617658169,1.55849673908878,1.55997817527432,1.47093529942077,1.46765829259364,1.42279996799908,1.48404090403475,1.4838143631405,1.53829268628957,1.55510563376587,1.55253065739904,1.59865000006061,1.51939661785038,1.50431820546954,1.50260922015237,1.4718099395957,1.55154339410892,1.56903149135378,1.65450564194877,1.96748000011576,1.75103142878365,1.69784014490918,1.65235169950596,1.58900525345685,1.61478012288758,1.61548589535439,1.68345909910602,1.73904000000275,1.77397635731417,1.9079366667372,1.57738030180611,1.56767407697291,1.56399576037651,1.56061071803868,1.59519376399901,1.62577297308656,1.60581954892184,1.58362999988239,1.62605964842515,1.83803000011576,1.53692401382571,1.44942843347852,1.45862266166457,1.46013798372558,1.51487275033687,1.56196896848336,1.58496005761684,1.83404000011576,1.56105248315593,1.52259076310623,1.50141995483657,1.50148429216433,1.53759970119059,1.53162038166694,1.61208510556717,1.72026002583445,1.70393169425591,1.70721104708873,1.41959882161506,1.36854038612439,1.36908561862131,1.35783981639853,1.42302868281541,1.62251000010921,1.55578164519403,1.64388166675349,1.39915593475857,1.29512999992053,1.32227901923366,1.31543610177133,1.37449438037595,1.39968943006255,1.41231046746896,1.43719532995637,1.37868771725677,1.33113543465765,1.31652941872781,1.31740701274155,1.3285212775073,1.36392084074489,1.50621264232197,1.62324000005788,1.43048598430546,1.36952949374714,1.33321738607139,1.32645184070264,1.34036944276328,1.49650541811488,1.49463875498243,1.65885000011576,1.39360905260859,1.3425253538631,1.33196734062932,1.32646094538696,1.32735453202041,1.34878669412444,1.4475215318184,1.51339611127734,1.51919703415282,1.54718978084244,1.49549104296995,1.4771894659671,1.4719965088829,1.44029999440941,1.54102750386584,1.56203844833243,1.65714446941315,1.82836782692441,1.68224602986725,1.70596004156996,1.54018513466478,1.52344642771851,1.52906539309083,1.54875134831193,1.57955705140072,1.66842885099522,1.40658046311863,1.2739699999014,1.37612106972599,1.60970000011576,1.30699404158046,1.31737295909658,1.24403686880525,1.21179989070412,1.24566974356299,1.29287736148103,1.29811077436474,1.29665696982767,1.29822490750119,1.2877676581983,1.16341203478407,1.13975965603673,1.15525916497803,1.20599083894487,1.19163558600111,1.28082479600292,1.28782810056419,1.30511639017332,1.30463754303485,1.30599637796488,1.3045661158322,1.47275656014683
1.86186809692536,2.07698888189044,2.07519558098409,2.06802887357117,1.93863530802719,1.8436862038069,1.78756555224081,1.78666986745302,1.78235352431159,1.77657493261436,1.76947748360248,1.73240860474212,1.73045227282031,1.69110091454738,1.52540655422062,1.47628893778867,1.47763369936382,1.47881425043932,1.49363773410025,1.51071084501227,1.5172582440163,1.51262088878502,1.5105400786868,1.51066252772956,1.51019002145244,1.50824246797742,1.58321513846158,1.65524407777246,1.64532523660676,1.59605280306449,1.45863282599585,1.45792649032201,1.47425735103417,1.49532616190497,1.52496892326415,1.55888506365866,1.55942741580108,1.4664230467281,1.46480544553688,1.44678882136097,1.48635954387068,1.48578360570885,1.54122292972503,1.55182907152212,1.55183176286225,1.52378442013264,1.51361248102189,1.50573937337766,1.50194997509571,1.5003931750042,1.5485011402826,1.57245862457439,1.64992446002241,1.76106218463358,1.74343095971829,1.71263480063003,1.64677278220279,1.61207551416903,1.61338217654144,1.61409972107932,1.66137312349207,1.66184161976562,1.65305494011114,1.6266331485925,1.56707255711268,1.56601563852489,1.56520122346148,1.56511792070117,1.61229965336581,1.62466670965579,1.62389481704679,1.62345876728336,1.62374854460476,1.62126494372115,1.53813659258585,1.45311414088477,1.45654783171557,1.45813362329721,1.51380458120732,1.5458911215585,1.58812680701929,1.62261182276778,1.56538519584155,1.55131624487392,1.50310765289711,1.50471153249053,1.54085767859744,1.55956067408232,1.60892907174142,1.60791441249964,1.53445571384565,1.46113983318906,1.41278433425257,1.37004588885663,1.37011074810803,1.41169575977783,1.42308697282015,1.47112362332863,1.54592177025572,1.55276021844544,1.38491344626594,1.33208746324676,1.33334862567778,1.33871709730808,1.37725024976814,1.37872947176413,1.37942992947472,1.37713953970553,1.3752907998947,1.32405213261011,1.31626842361115,1.31736438309477,1.3307070033263,1.34319656551108,1.5055413793325,1.50616222797961,1.42239588460933,1.3704586888416,1.34050780146159,1.34129860140041,1.34221763429929,1.48991155174815,1.49120265695484,1.53583191338065,1.39492686419875,1.33780567909398,1.33134152562618,1.32912868970096,1.32921226672407,1.35832335610646,1.45227367415266,1.52022005621995,1.52502941921442,1.5358176828072,1.49621211981239,1.48213798378012,1.46624618073597,1.46319270799246,1.52241771870433,1.56332598123665,1.62675561740486,1.67859280919457,1.64533319833023,1.60829662190092,1.53765989336269,1.52555583954524,1.52626199549439,1.55382580615582,1.5559542604462,1.40658119803909,1.37259618459232,1.2905477978934,1.2966020000761,1.29464129473522,1.29259382135605,1.29034615327652,1.24445908429606,1.24206067795058,1.24666645257078,1.29440079424426,1.29551896189788,1.29666808817942,1.29882399083108,1.29312712888896,1.16590125529025,1.16055372864892,1.16366146475397,1.17346365227471,1.17916391919927,1.23552554357964,1.29662428775926,1.3037391741488,1.30344180254875,1.30398064631505,1.30302487145889,1.46297613951348
1.85611998864854,2.07990289775122,2.0762032945917,2.04552132325718,1.9360223353093,1.86812999972762,1.78403497938819,1.75646832564492,1.75852294054471,1.75759859240335,1.75407268375646,1.74076674900227,1.73332803556234,1.68978223873795,1.5242580447993,1.47678321088384,1.46857577248179,1.46087978645301,1.49372504046347,1.50516017474598,1.54268473938956,1.59859000004995,1.5353606429821,1.51948896056415,1.51125231744404,1.4893113700499,1.58552599056783,1.72557000005788,1.66274232533949,1.76535000011576,1.45665953613965,1.454458609847,1.47501494775496,1.48513306690319,1.52569741385124,1.62869666671994,1.56759181004131,1.45993904112332,1.459536310611,1.42721376642512,1.48916105521569,1.48713558810981,1.54503220837914,1.55143141512735,1.55102147406784,1.50126496372633,1.50556640655083,1.51025368090922,1.50004114366292,1.49834894346449,1.54424779916222,1.57610349527258,1.64260832864049,1.86432000011576,1.73563002678364,1.72623745688002,1.63557679387871,1.61079647334182,1.61205519428909,1.6130588510015,1.66010765306519,1.65997125492852,1.64716514684486,1.59202000006513,1.56196589669411,1.52686325007179,1.56523469345853,1.56511569425845,1.63413641477699,1.88323763721697,1.88806358843382,1.90170917679562,1.68494997086128,1.57850999995611,1.53815220619121,1.45249134426331,1.4558714377594,1.45737637298076,1.51292952926974,1.52633993868958,1.59021503273987,1.77912993491133,1.57504933477337,1.57475262517424,1.50461102296369,1.50701104091505,1.54189253996566,1.60406656974382,1.60665872179024,1.60691134588242,1.50133500924967,1.39741857636718,1.40109802967278,1.37056867162252,1.3704744066108,1.4253670921617,1.42392831780582,1.35519999988414,1.54102558980191,1.64892000011576,1.36920842432156,1.32968001665847,1.33394298240382,1.34747419756179,1.3783603404758,1.3790292441019,1.37948840970222,1.36485384255757,1.37046754779257,1.30966780514936,1.31359690445953,1.28935337632441,1.3327258847379,1.33385176846385,1.50378663870683,1.59971971796981,1.41364471675876,1.37339630126999,1.34156825136928,1.34379413809188,1.34441172476659,1.48365013849713,1.48971945650714,1.63365000011576,1.40246254500044,1.32825037271183,1.32994082255353,1.3274897965034,1.33293298293742,1.36722111349458,1.45719587666241,1.60343000000411,1.63591419657041,1.68637000005353,1.49548861608411,1.48860726165119,1.46363107640125,1.46119752520358,1.50590908291999,1.56466244833225,1.60135656801452,1.82194500008682,1.62270248237274,1.56059985873826,1.53467059286393,1.50808858983044,1.52522668692682,1.56887839354002,1.55587022596498,1.28067499991975,1.34202840238434,1.28603625637403,1.29677481198718,1.29507383000292,1.2931238271265,1.27100113862047,1.24781771863754,1.23744537139645,1.25082094655452,1.29605546500672,1.29380118514042,1.30797397393731,1.30279197906835,1.31283957674557,1.17043000846958,1.15745133669027,1.16659010342251,1.17023721811432,1.17390025370581,1.11703999988275,1.30553969775653,1.33000006462182,1.29657574702828,1.2905454258418,1.30091921839763,1.46175119740624
1.84867473660202,2.12436000010491,2.07377701370534,2.07001509220064,1.92937795754664,1.91813486696881,1.7826017994195,1.78287273356051,1.76116043095458,1.74626404575501,1.75030481018064,1.7451699768058,1.73485584312229,1.52702520738524,1.52457124588601,1.49545129830629,1.45960796824964,1.45017863864162,1.49427155661948,1.49592611199956,1.56087253623748,1.94758000011576,1.54193363392328,1.5391999707916,1.53736459409252,1.58835476037718,1.58704032690843,1.84649000011576,1.59527465525,1.49927007576922,1.4574331875114,1.44526648014397,1.47645999093889,1.53165541435975,1.52823570388485,1.63064333340857,1.56884381355723,1.47433414358451,1.4558644814375,1.43225949742779,1.49364312317069,1.5379504171168,1.54922895905213,1.55058761063501,1.54948944079862,1.517508824184,1.49514594396562,1.47471996842247,1.49988404301255,1.50050505990308,1.53918211809445,1.54540652468381,1.63413293024746,1.62336411224628,1.69718416134166,1.71860085973987,1.62688425660951,1.60931652600217,1.61086845222472,1.61733379507002,1.67014352725006,1.75648000005788,1.64143856132869,1.52360995875459,1.55082114432648,1.52619672876118,1.57852842311143,1.60355999997541,1.65413083694937,1.87379623723497,1.88791668871994,1.89528584173946,1.89171177846947,1.90293188106443,1.53696561926639,1.45794898574501,1.45792612903592,1.4211199999626,1.51277846927423,1.57876000004589,1.59184248707151,1.76550020931562,1.5788385882838,1.56842965885433,1.5041314848275,1.50885510925264,1.54111676364016,1.53913981941194,1.52782296887944,1.43954048731315,1.46884051576317,1.40940166470761,1.40510813939941,1.35623546800024,1.36938466795313,1.48874151771043,1.499363656096,1.52856574232756,1.52265747357097,1.33538181963727,1.35053723084377,1.37107127360814,1.33539355967682,1.30840999995034,1.37875693998982,1.59997000011576,1.43449243750915,1.37170356079641,1.3711446085173,1.34159002589464,1.32384209309173,1.28828660881027,1.33382374932042,1.34042800269171,1.50230155199248,1.59189028220383,1.40521129483991,1.37387669349503,1.33446009327725,1.33322063908651,1.34702550993692,1.39254028463623,1.45342490146191,1.49902000004574,1.41035307307231,1.3812501039625,1.33518869786592,1.31202322064445,1.3378013000983,1.46118512011691,1.4646939160434,1.72668033597602,1.71119778071679,1.72638000075926,1.49426360560099,1.46640850368515,1.45974997531016,1.43993114890396,1.48273435755812,1.48446097893815,1.58702611031651,1.82116500008682,1.5996894542928,1.57352601074327,1.53187680801523,1.52558538977613,1.52510864855034,1.57555167195283,1.55471356797178,1.27861499990917,1.37706586541058,1.73136000011576,1.37426465620901,1.32229001094268,1.31411097031033,1.28047051059288,1.25746709239958,1.26305673660636,1.26287954016488,1.3127212685407,1.29127496826824,1.2901735019209,1.29132233571775,1.29421537181923,1.17602415218032,1.13535991682336,1.18361270688993,1.20900134181028,1.21253803031831,1.39440000008686,1.3111785228184,1.12575999988424,1.2872959505617,1.27147820945844,1.29983749672383,1.37143999999077
1.84171798583738,2.02572379652906,2.02255644656542,1.90190095163086,1.90028041017696,1.90143694515571,1.78285931130288,1.73511999990915,1.76473438067291,1.76929217985571,1.79206129290392,2.00222001149537,1.73524375377137,1.55943035361455,1.53411015518795,1.44890207875424,1.45352067389899,1.44929090733317,1.50936467275606,1.51817063484225,1.58098290411778,1.59940999997877,1.55245798749076,1.50412987663547,1.53462157076549,1.54650573344743,1.55313437122524,1.55435001537108,1.55331740708494,1.46684458251213,1.46117855855575,1.44602449102228,1.47924956825398,1.49970021832113,1.51610331849016,1.66254000005469,1.58465612992348,1.46198526749224,1.45151925025899,1.42647959068066,1.49736574274525,1.51847877081234,1.55121035636058,1.74407126403227,1.54717783276149,1.46064845438468,1.46291325465051,1.46019558513541,1.500245570597,1.50114386862872,1.53402104372138,1.54730707214454,1.64335452274982,1.95277000011576,1.67820095184596,1.64154999997918,1.62040307540056,1.5600900593224,1.60327149655309,1.62693975158627,1.67557630612997,1.82136000011576,1.63473571465047,1.57223356362579,1.56823641615517,1.56352888447443,1.58822636067999,1.67602255036045,1.68503172720998,1.78258999994324,1.88981686896733,1.89530534436914,1.88876020821588,1.56556999994209,1.53486099644046,1.48247040544184,1.45850891102884,1.45838304019539,1.5134338671696,1.51485808759944,1.59710425042159,1.76370985600458,1.58393036256282,1.49909649916054,1.49944951663932,1.64255000011576,1.54180423464344,1.54262373145153,1.52049322058694,1.42667951250023,1.46833848189688,1.68756000011576,1.43107952207208,1.36496943284455,1.36692038717672,1.36551962381336,1.50628145850128,1.51777993873584,1.51878786553201,1.33885360299526,1.33869398817342,1.34087878078291,1.33773739043366,1.36092092652689,1.37940152733166,1.51092999994921,1.56036515211333,1.71835004334578,1.37992052681798,1.3564800536985,1.3256599191959,1.31625994766719,1.33413926908904,1.49922012722781,1.50092451372288,1.52247000004125,1.39769926710171,1.35486004391004,1.32920140871449,1.31099342775345,1.34986954082924,1.37662859410976,1.43788231508722,1.46196000002314,1.41724207408338,1.35877324846356,1.33790791289461,1.3107562353201,1.34097426527978,1.47132516122417,1.46777619051379,1.68174000248226,1.69425016308316,1.76167216674102,1.49361281478411,1.44499539227933,1.45769440056137,1.45183750496656,1.48096344554676,1.48457847144015,1.58031562210082,1.57308953744996,1.57202927642165,1.56958828267612,1.53001468838012,1.52830594158922,1.52502367363956,1.28421999988424,1.55238913220468,1.65185306496015,1.65079791382224,1.65263528690335,1.41064518285812,1.3347200710083,1.32108407595621,1.25384309435372,1.25470679802357,1.24984879671776,1.26312867124115,1.27788958083644,1.28566966640316,1.32610003178139,1.2758890787569,1.26051993367453,1.18377428848429,1.19446125599449,1.19456205319987,1.19565092065337,1.22038892901493,1.36730000008723,1.31379384574712,1.32791059721686,1.29600054665464,1.30275431337635,1.30023151726294,1.33768001470449
1.83725741265566,1.98854358892495,1.98605976871238,1.98273962323343,1.85892059925203,1.78030633027325,1.78422174949203,1.87863000011576,1.79602472791669,1.7997215551455,1.81111905155326,1.97656998867827,1.73543228340764,1.54266044463113,1.54457830031315,1.54341846716883,1.50848790726412,1.46770002445724,1.53622378525172,1.57534000002643,1.59158424905416,1.67274000009158,1.56254293022733,1.53002047422243,1.53062104589806,1.52615278788836,1.55159429460288,1.62274000008444,1.55178784448957,1.51579134409833,1.48552696096763,1.48358653968668,1.48240793221112,1.48070924922931,1.50979629229655,1.70952000010621,1.613582438627,1.72586000011576,1.44742305129398,1.42284712199325,1.50019436478619,1.53822997657064,1.55188459130086,1.73350873614138,1.54411365410755,1.45922874471365,1.46747263956739,1.47146462479228,1.49956235318519,1.52107797992731,1.52957843716808,1.5926899999995,1.65384085877035,1.89617000005788,1.66495247771668,1.60129999088417,1.60316778274225,1.57235993674133,1.59839292436226,1.58803272495385,1.68075007049411,1.72261000003021,1.62742399956541,1.57469096997215,1.56972651479303,1.56571532616826,1.59882314588602,1.61765784591066,1.68970424837647,1.90809509955499,1.90626161227901,1.90428869227101,1.88370862245798,1.88330588506707,1.53223225616442,1.44437916770034,1.45856170899451,1.45751515651644,1.51442482452432,1.54589383962834,1.6032464778887,1.71376000005788,1.58883646576294,1.55204002162321,1.49626652098604,1.48285370066622,1.48736090093266,1.4919684457371,1.50689519265279,1.5954200001185,1.46953067943512,1.45191993014145,1.44612916669366,1.43661807222393,1.43665317554571,1.51669044695679,1.51157535613524,1.56645000010762,1.53240988132745,1.65717000011576,1.33687905666036,1.33377252136176,1.33424965383229,1.33355635590374,1.38033601878199,1.69020000011576,1.59419887119554,1.69624995682787,1.3944065781216,1.39232713639925,1.33133941270349,1.33375818606772,1.33345711883243,1.52779000009631,1.47920873829956,1.46142953950731,1.39134063778038,1.33003875339326,1.32730287568288,1.30963727437915,1.35276996381593,1.3942212319725,1.42468304175967,1.4245135741735,1.41979334792766,1.36883150107535,1.34114090950301,1.34130670103942,1.34527982158698,1.35187174967699,1.45219590859025,1.67124921391978,1.68699661017763,1.7511778334162,1.49445678744882,1.44382415094113,1.46205154276359,1.4741677034128,1.47811271007043,1.54713941022138,1.58403652279585,1.61247000767372,1.553541538977,1.46758103019548,1.46182933584043,1.28782999988423,1.5237733527014,1.54364276729648,1.54857279057618,1.83335000011576,1.64786012779453,1.6448544323767,1.49111871414186,1.61421000011576,1.3272121251239,1.3058907355134,1.28399261968628,1.26970158051248,1.26533665284992,1.25767437339765,1.26685474644852,1.23673099751542,1.23652233967804,1.18113309253776,1.1811494870034,1.18113960523231,1.19516228697909,1.22185980618868,1.23164571732731,1.24053084552208,1.28583417055691,1.28287663195938,1.29151724365565,1.32991050687977,1.29913994068884,1.30138289543804
1.83296102226252,1.98536592658739,1.9857433878171,1.9875347912489,1.85718539727367,1.78323158311215,1.785706222458,1.78939485980362,1.79266250378847,1.8120706120853,1.81580842048786,1.84408101282238,1.73628680029816,1.54959780924252,1.54802695475682,1.53956107502654,1.52690890183327,1.5228329433526,1.56704369838972,1.59317684789195,1.60782171121732,1.63104939639389,1.57369215297829,1.53078981821259,1.53067562056985,1.52920954935178,1.54995886450913,1.54925099228908,1.54993709966213,1.51188443995484,1.4900848702618,1.48671861553837,1.49036632062815,1.49358194373986,1.50678094682993,1.59780954108187,1.56501782133951,1.5211981111244,1.443907398301,1.43940857772733,1.50213230563784,1.55333683515827,1.55399909673627,1.6163767031951,1.54038490604583,1.48947604252989,1.46869432406114,1.4696388806971,1.49888054844965,1.52105245159653,1.52725576910507,1.62853266847098,1.67031088025968,1.70016942936633,1.65259445562744,1.60431886416523,1.60474644032117,1.60576969320559,1.60671591161113,1.6449674022833,1.68511989880706,1.69329558442181,1.61714382196299,1.58347109758753,1.58225936320161,1.57933818141757,1.61100682076873,1.62656325409857,1.69583467728813,1.90668177860651,1.90631490917713,1.90475963649657,1.88028707130355,1.88020761491848,1.52933767023979,1.483297958427,1.48225204268933,1.48108363901071,1.51600990029388,1.53929607806947,1.60924087729436,1.62018678723017,1.59436154612289,1.57152320346291,1.49501097965712,1.48400180465177,1.48452229773437,1.48311994548077,1.48167112264145,1.4790834239064,1.47244381832205,1.46953399709911,1.45323069122877,1.43595652269485,1.436535596937,1.46404121432289,1.48108944395629,1.48890480171122,1.50466017555309,1.52214563799888,1.3370156185285,1.33564104368295,1.33457431297548,1.33408857403735,1.38139644128946,1.40193182768047,1.4153502413686,1.41521622426864,1.39771341850136,1.39439733142525,1.32798470131215,1.33118898733289,1.33203259046145,1.39963658271734,1.46991635148064,1.46667680993094,1.3863233055559,1.32726216922425,1.32593451891718,1.32290243433653,1.35569356552455,1.37384876480781,1.42406554990175,1.42320087109167,1.42113314997668,1.37035784828344,1.34237334531051,1.34257065288435,1.35811143181521,1.36732226842016,1.44073006444833,1.47231101604996,1.68646521589955,1.68925981391945,1.49712362653381,1.46573212726978,1.46593573640059,1.46833968787115,1.47628976740467,1.56886472962381,1.58710187019477,1.59749976172679,1.53803452847446,1.48858824486996,1.45805066091264,1.36076039833533,1.51193601746274,1.512010033021,1.51268812613391,1.49835641999794,1.48147625449381,1.47238268595988,1.45909756735543,1.41930049791941,1.33484827908081,1.2949566663337,1.29071312406015,1.28434472649021,1.27770674921991,1.27217455738231,1.26868242644796,1.24848078049953,1.2366062937888,1.17991842705563,1.18041479600379,1.18100335996088,1.19574713464188,1.23342597349146,1.23768934068829,1.26207747858029,1.28696210115471,1.28574263377234,1.2880953796927,1.29761240992945,1.2975522081066,1.32048234868235
1.828985587444,2.07199000011576,2.03212793279572,2.0341320357816,1.85213228991309,1.77074027723606,1.75605929536583,1.7186295570854,1.77036242849665,1.8303591917343,1.82701978505666,1.95588000010891,1.73794001748117,1.55781974266952,1.55112895532329,1.5351647208338,1.53098518623946,1.51829106572996,1.6015899795085,1.65379762415826,1.64786355155506,1.64139178121816,1.58435411779526,1.49953255056754,1.50434012169272,1.49292509232374,1.54902545448797,1.5479603017127,1.54884488338323,1.50809765892298,1.49716769509131,1.4679792173862,1.49384697398627,1.49626004861431,1.50520311479752,1.70791000011576,1.53423228020057,1.45593803862869,1.44122762600815,1.41467423480002,1.50377932611558,1.56510248699243,1.56931184618022,1.74110000011576,1.53608646379507,1.50963080750879,1.46920902711668,1.45775064450562,1.49821520997319,1.52101695446892,1.5244069232816,1.83695000011576,1.70452790199613,1.84744000005788,1.64366869680052,1.60687970555217,1.60581591415124,1.60598476896052,1.60755728387983,1.70789075476869,1.69275206230024,1.75695000005788,1.60690570999673,1.58433814905649,1.5833113590511,1.57663069761248,1.62449198503718,1.63285828525699,1.70531906844858,1.90579452536354,1.90847380162802,1.91963546288648,1.87927168828184,1.86154255212541,1.52622443108231,1.48380629399783,1.4815309065431,1.47921461227442,1.51818244119843,1.53273931701744,1.61477541485014,1.65548060694157,1.60461105383307,1.60465509404975,1.49572837921711,1.47331880185098,1.48213269531548,1.4824550738806,1.48240241829481,1.48141081062362,1.52511503408711,1.59421183291477,1.45627100628561,1.43400017081843,1.42233464144771,1.41915304887085,1.47170522296823,1.45513141838512,1.48682099947002,1.54738006361607,1.31964783326969,1.31201708363143,1.31081159182384,1.30025956549308,1.382482994092,1.39989120278149,1.41521404773102,1.41516810950362,1.40411203919096,1.40758981389052,1.32171288681619,1.28093124249783,1.33201673301234,1.33357969435164,1.47320799659398,1.48800990513866,1.38263897449993,1.30790032730168,1.31742217033255,1.31863990879595,1.35855755606789,1.35766915489165,1.43560098307621,1.73162005070495,1.43250400419451,1.37104091100551,1.34436249429563,1.32281989731717,1.36231760271991,1.39107927122313,1.42553264401226,1.39282994608708,1.68271596798795,1.7344000074573,1.50104674230446,1.46502547926967,1.46714973820872,1.44681834905437,1.47559808053656,1.59163584669694,1.58956583429009,1.59915331416602,1.51778299428591,1.50908007753888,1.45567223005799,1.26474999988424,1.5134358046109,1.51179349053908,1.51259953015055,1.4206199999107,1.46934879271413,1.39988999987881,1.43949224415155,1.36502999993856,1.34577898413316,1.2877872903024,1.29393138506161,1.38424000009306,1.31324634000321,1.31729973429698,1.29762534474054,1.2599303716333,1.23703356458527,1.17766999955254,1.17918022440212,1.16487075324811,1.19615361999927,1.24866543730794,1.25167923157867,1.39856000011414,1.28762810733127,1.28624288614048,1.26347002870095,1.23900999123616,1.276561063117,1.33766054998667
1.8249652354625,1.81897075548623,1.93921879541368,1.9380214730007,1.84795369782488,1.73507347653725,1.73824294322427,1.73668068210299,1.74407627275458,1.71720992028287,1.82346684725892,1.89042000000685,1.73927075643739,1.68691988411946,1.60824645809619,1.53429234306785,1.56039276162617,1.58164005474212,1.63593514304219,2.0245100001127,1.90377903564766,1.89799098972136,1.59433484988559,1.55415999999331,1.50795587983279,1.48934474368822,1.56314076386472,1.62056136328469,1.59754527411896,1.59661477800648,1.52743894416541,1.49804921023149,1.4962926662381,1.48306671912284,1.50388566025569,1.48554421964826,1.49067440083655,1.49013731155883,1.4392949955385,1.41870571633651,1.50594144900225,1.57828419173721,1.57780820578433,1.68479000005788,1.53162579067006,1.47420910080983,1.47121406802187,1.44257932146942,1.49733301340433,1.52080018623359,1.52367070203315,1.58917899858423,1.674807976921,1.93432000011576,1.63620613561916,1.54284680534539,1.54062280242812,1.52766020132582,1.60990975550073,1.63776999998875,1.66422281486905,1.8004099376279,1.59924061592889,1.59614978467873,1.58432109577184,1.54834995338233,1.63550680929703,1.69580006152711,1.71659511921367,1.96505000011576,1.91357348994481,1.68943999986968,1.73279743771062,1.68769000000007,1.52298780540242,1.48179960909521,1.48102251464658,1.47607651710774,1.52070526872339,1.62115021661735,1.62280455974733,1.63388939312198,1.60561125039712,1.60930295833396,1.49753885467885,1.47771119319032,1.48026621881489,1.54350008361155,1.50808763893823,1.51175097752566,1.54094480654204,1.59329821291955,1.46088590444875,1.41009784788986,1.41636899898426,1.39952990167793,1.48046243788034,1.51076081655404,1.47127091623782,1.35061001701992,1.31575714357193,1.29072821305299,1.31092526340399,1.33994008416616,1.38358996339643,1.56398000009846,1.50548298891686,1.70295000011576,1.38728791213456,1.35909989947136,1.31748455075011,1.29358483249115,1.34587704894578,1.36832999996437,1.47654215022804,1.4961146688467,1.37908288070457,1.33986032843077,1.31470571233466,1.31237417973191,1.3619532313148,1.38889999997745,1.43921701990189,1.70901002113978,1.44826002254922,1.355439907999,1.34887285040139,1.34246002642291,1.36757971952685,1.37492442850086,1.44193754602059,1.65876006331521,1.6743626974513,1.70829999271501,1.50506906398669,1.41523333328356,1.46982808305458,1.47728095626913,1.47582905513242,1.52459168153192,1.5448299421074,1.59880686179166,1.49376224270367,1.28367999988424,1.45278449242827,1.44656640683541,1.5169854484121,1.56831057563019,1.57654138203478,1.58418060428136,1.62981257939407,1.73907009535134,1.63394758286877,1.62021357505858,1.35785832559963,1.28850247613164,1.30019269126341,1.30783542833444,1.31020270962858,1.30845327418238,1.32283741266201,1.3383208409656,1.23760269578595,1.19572398842884,1.17886283740288,1.1794561534058,1.19652852656894,1.23923568580923,1.25219380408904,1.330890000017,1.26288952843338,1.26172668294174,1.24476761600619,1.21682310871972,1.20723304724365,1.19826977960629
1.82655493066195,1.9471542419867,1.94225393364528,1.8998199617261,1.8407959641941,1.82635069344107,1.7415568639755,1.67579999990539,1.74895260117104,1.75465977780275,1.82092087157485,1.96782000011576,1.73711146371311,1.69857014317226,1.68151760582671,1.65675999996956,1.70507801240209,1.92538431671698,1.93849386460591,1.96562111163332,1.9123375489145,1.91608583824158,1.60377928527141,1.50565090273976,1.51146429454673,1.51950185367114,1.57348623944094,1.60008417046603,1.59831992917167,1.58795749972667,1.53092807404985,1.50867999279873,1.52489857367809,1.63316000008981,1.5491533131534,1.49831415816891,1.49473663141979,1.43686547589784,1.43765871742973,1.43678547062454,1.50885689229181,1.57170006028476,1.57425063244266,1.61661000003382,1.52795854655458,1.51273001221081,1.49717364444622,1.48997360501665,1.49644410092795,1.50260033518724,1.51005376542539,1.60671100141664,1.67609537084354,1.86215,1.6297779933714,1.5322868638436,1.53819761747692,1.55318023796787,1.6118578704658,1.61190682987727,1.64214328141062,1.82037006254574,1.59673709892276,1.57969956777798,1.58713132607627,1.59111236002645,1.64601515312578,1.6698307023181,1.72809096986938,1.73049000625035,1.91878130578524,1.93330923630406,1.75326684864686,1.62943999994164,1.52012967851186,1.4899044361867,1.4945186064336,1.51208150363876,1.52312124497411,1.53062141357342,1.62440299761832,1.7758600000936,1.58334869870726,1.52261999998868,1.49179044060376,1.45066062140752,1.4476924208134,1.44319526943303,1.50549032281495,1.63393000011609,1.55257193780247,1.57047197994574,1.46975097545017,1.49140515638475,1.43911902543354,1.45098319015759,1.48515220362661,1.48950191833284,1.45824176831183,1.29082991467714,1.31093178061882,1.28884170396392,1.31284006273355,1.3524400619795,1.38456367744761,1.44367000000004,1.48066624113935,1.50649999998763,1.38294968502971,1.3510508121332,1.31572250816128,1.28978826830743,1.35438943537028,1.47927311512076,1.47894006336593,1.48477542949717,1.37462545387899,1.31026271977209,1.31372116207213,1.31908881818132,1.36436915518171,1.43759327393892,1.44223281961885,1.69490018826121,1.4662869578766,1.42538000000352,1.38324758695387,1.36221748521209,1.38754497670922,1.40587003149433,1.45773625937823,1.61746995627271,1.63295403012803,1.65690103121631,1.50829221258555,1.41796666659045,1.47044631626704,1.47470045949039,1.4725888327591,1.52939831217652,1.49985985466393,1.28725999988424,1.47639725937811,1.47877347932808,1.48152478654424,1.51811510803407,1.51891899542006,1.55707882341577,1.59799534273335,1.65907996198104,1.67872093096381,1.71992473526597,1.64186200685515,1.38850666665519,1.36898176552323,1.32308043760596,1.31179245366658,1.30835428229116,1.31799620352614,1.44323000007826,1.34334953610755,1.30174995454805,1.23786142702029,1.18563163678313,1.17856201840095,1.17667756695885,1.19709237610262,1.27492823929102,1.25635401627743,1.38766000009997,1.25568162147486,1.24296003590519,1.22735115062984,1.20495046751327,1.20228569089793,1.15583999991507
1.827872259781,1.98856100211911,1.9878375289047,1.99306575146223,1.8087011078299,1.75112837979232,1.74427775508303,1.73053986782904,1.75218136292375,1.81793186534146,1.81986530568505,1.81886075838539,1.76241416038776,1.72993065853474,1.73770274479579,1.75068547046899,1.75277252109822,1.89209618105923,1.94819676674897,1.97632888848551,1.90838852062019,1.74543999995704,1.61227712709313,1.51869371748436,1.51582228160228,1.51506222987134,1.58646969811097,1.63982117148199,1.60831060679215,1.59165023025367,1.53355996841261,1.52376999919309,1.53059000229283,1.58879010203198,1.56488783793829,1.82158000011576,1.50500743928311,1.50186035151621,1.4828243240036,1.45762999771426,1.51221581768411,1.54078933990038,1.57297128875134,1.57191788233831,1.52605654938653,1.52876975696712,1.49910329777497,1.49032985714846,1.49589592490417,1.49554317001224,1.49948633693767,1.49131248540811,1.67688224490528,1.94888000011576,1.62186686751566,1.51668900504445,1.53579164760243,1.53393139983249,1.61285363045961,1.63041230246903,1.6414788377464,0.00469799028558837,1.59333562471708,1.57834009212357,1.59649164810939,1.63708952901857,1.65591445196483,1.67716923616356,1.74011573562349,1.82289970714964,1.92332087546882,1.94011076386959,1.8384128056085,1.85815000011576,1.51833979744748,1.51941335939873,1.49870602986584,1.48403912050056,1.52506926992632,1.52426633300715,1.62715588178591,1.74250000008005,1.56457704708699,1.47446939186244,1.46484049677999,1.41768999994679,1.44464700602184,1.50441609263711,1.50441778380423,1.49663999425654,1.54780721154151,1.56879852728702,1.46274922361806,1.42285614080826,1.43213413653054,1.48962795230709,1.49721330123882,1.68825000011576,1.45062773413305,1.34756635093362,1.31944393018388,1.30751998146587,1.31617380401473,1.39867387268861,1.38597966746806,1.38622364932744,1.46256200986778,1.65099000011576,1.3779186058271,1.33789930917276,1.31544912822092,1.29007565648925,1.36102890515067,1.46003446388762,1.46973997519609,1.60268000011576,1.36823041724464,1.27546938940182,1.30483726884904,1.31240891295064,1.36547621975307,1.42647017750656,1.44713253181885,1.69309974018347,1.48545119215472,1.45603997982238,1.38665844255083,1.36913252061398,1.39105523988482,1.43830999999626,1.47166833098149,1.59014904990302,1.62054003758455,1.67220896886676,1.51060455629114,1.51239685367325,1.47129603927959,1.47035579643475,1.47249860599093,1.45640820761752,1.46387223581212,1.44835999846726,1.47409289249814,1.4874641868801,1.48395801034594,1.49047807444126,1.50421514742961,1.66177001477505,1.63015772499684,1.69243397651947,1.69790318777383,1.71272825537445,1.64859653400457,1.38881333328511,1.37818606434203,1.31859975654866,1.31542690895268,1.30730012987238,1.32250446752203,1.47733000008949,1.35563157442102,1.34179998810131,1.23729353015984,1.19022194210571,1.1803116697326,1.16263642744175,1.19794785176944,1.24824935948503,1.25261525902778,1.31816000005003,1.25347902811992,1.20263571385527,1.20099736383732,1.18560310996121,1.20066377243682,1.29598000006532
1.76766565501123,1.9854770553345,1.98483359201985,1.98677908233947,1.79756324578836,1.74960947615381,1.74688023483333,1.75180071385183,1.75653468359204,1.81242067891723,1.82183819002834,1.82051647976024,1.76823256485704,1.76619900286744,1.74098290604291,1.7454001720142,1.75493589227123,1.89751839421539,1.95537922790956,1.95754494133111,1.90624544975926,1.79425925113961,1.62062918950175,1.54068797481308,1.5610148839788,1.57659428569509,1.60110772716575,1.62244019208815,1.61279620428649,1.59030553534786,1.55364895779219,1.55336255191419,1.55224529291551,1.55190358825698,1.55183122650961,1.53649057942125,1.52026134200787,1.51891925631942,1.51736122511286,1.51601438378022,1.51644259467024,1.53138754212296,1.5724788197044,1.57225288561805,1.52321197853212,1.5184210879231,1.50069337611628,1.50112130828855,1.50306714088157,1.5056933031829,1.50686097709862,1.5075985583794,1.67629271903968,1.67822827307642,1.6143229016089,1.55355624741965,1.55602499979658,1.55760389847226,1.61227436826945,1.63488445635278,1.64031354909664,1.6202198506597,1.60233974948491,1.5880693888217,1.60272159223005,1.62470909247285,1.66920814234848,1.71333627338544,1.75307095780958,1.84954586734943,1.92492994922572,1.92883454891923,1.8370392701992,1.60090376939022,1.51651078114173,1.51016868166302,1.50400937937841,1.5098006108193,1.52658025226097,1.52622733626687,1.63111292671851,1.63169215025382,1.54822765746533,1.48635408760497,1.45364613531477,1.4393221476896,1.44182000997994,1.50636015925436,1.51622910042749,1.52378301103752,1.5360937445531,1.52083132173531,1.45671771581253,1.42445019925402,1.42757952736263,1.49714763008672,1.49891466979426,1.51178787885787,1.44129859088562,1.34650159372735,1.33011877249287,1.32028285395995,1.31996419263231,1.36465308469118,1.38742591093866,1.38866440139428,1.44452969730146,1.48039901292434,1.36914574689477,1.3370331439037,1.3158526778731,1.30946688787983,1.36589820757877,1.37563439916088,1.37551930047323,1.36270962067702,1.36067602634451,1.29076001340619,1.29942801523884,1.30409588628215,1.36542684067583,1.42166491029537,1.45384595019265,1.53857440096691,1.5027188846948,1.47516982343223,1.39162323854724,1.38999721202311,1.39256972108434,1.46058893198235,1.47711918261701,1.5795343007146,1.61916735422335,1.62160264666164,1.49170923799057,1.48610900194429,1.46958730391099,1.47096530013765,1.470332351394,1.47009819877083,1.47066963556454,1.47150649848037,1.47208891813635,1.47731011231199,1.48118404783255,1.48909221211472,1.49573447559407,1.57207421908413,1.62177965489371,1.69813858781665,1.70113442001722,1.70585580264964,1.65470900765545,1.43603922843388,1.38610678676022,1.34760750680615,1.34206178673427,1.34311918563271,1.34457158937682,1.41319358223304,1.37026750838704,1.35998392856264,1.23564563896367,1.18739959661422,1.1827440329055,1.17128469511899,1.19903854890119,1.25199207688682,1.25375796775926,1.22792404741625,1.21986960345962,1.20100352697292,1.20002676142677,1.19843647973416,1.1994753114292,1.28409007972593
1.74215659168706,1.98589756645515,1.98346704277409,2.04620000011576,1.78643054092951,1.74345786332624,1.74544979188658,1.77296808897263,1.76355662848005,1.80057605687676,1.82482623652196,1.904390000108,1.7850627736439,1.78060442531396,1.7378113865555,1.73023977004279,1.75702562395132,1.89823216977859,1.95562337624013,1.9576578761102,1.90333058926706,1.88235955522887,1.62947497409996,1.5200799460169,1.57572332625158,1.58881751189256,1.61294277959759,1.90447000011576,1.62163678369786,1.58870102833934,1.55275472369936,1.55373790367477,1.55186853561521,1.55167033994022,1.55221857779679,1.52398523055364,1.52127599957525,1.51855955006195,1.51693769237261,1.51458576899113,1.51872190163814,1.52128099631109,1.58413564446494,1.58982000002642,1.52262463639491,1.49645041413871,1.50333337256482,1.54572099668801,1.52070267141587,1.5067974181855,1.50750121679166,1.50865714145901,1.67206639730609,1.91170666675349,1.60622660514896,1.54980884523974,1.55516725404469,1.55795364220093,1.61030848516746,1.67476000008537,1.64926249723792,1.66205043922306,1.60616135163175,1.57533765069958,1.60787671495589,1.61290545103326,1.68333009190574,1.75501099842701,1.76541702818305,1.91973738877871,1.9188116336227,1.94976993969145,1.83535600816655,1.54759001681689,1.51590050776412,1.47230087246478,1.49508787799128,1.58024000009851,1.52737653533479,1.52706195038928,1.63431150465545,1.66143962381353,1.53149613844905,1.50325118035868,1.44769230812853,1.42939996248578,1.44262789505812,1.50851851256285,1.52181314378748,1.56299027929397,1.54717299154775,1.49861994569758,1.45314773990798,1.40533003783696,1.42531219901374,1.50975604049626,1.50294260929092,1.52664133588644,1.43246133113619,1.34635457855371,1.33705789477549,1.3213206836932,1.32339279399818,1.32592959647218,1.38754944673324,1.39196217787647,1.42636058102672,1.55156000011505,1.36010333322701,1.33765150672087,1.30798875867846,1.30256993658902,1.36927664441452,1.37548867397069,1.37563680880236,1.34002441240088,1.35126647701212,1.28198741602657,1.29490726356939,1.28445863420952,1.36473124296936,1.41780929131091,1.46071544705036,1.65953003718815,1.51825624200549,1.50541000004005,1.39392175197726,1.35365166658784,1.39273196713114,1.4968471396998,1.50022917277124,1.57273030147639,1.61500570482032,1.64772003104072,1.48591942201056,1.46117000586821,1.44388385273798,1.41518999995874,1.47075045093811,1.52285741335096,1.52577480605914,1.57427091925156,1.46573458426038,1.46051705290857,1.47170448574294,1.48622897099177,1.48843436644021,1.50664015290891,1.61467162170563,1.77335086338291,1.75347949628079,1.75515335087011,1.65895174902883,1.63710060939027,1.39331141958695,1.35242196646864,1.34213401017956,1.34190339876938,1.3430669334637,1.53359000011576,1.38869987177063,1.41589008667457,1.23311001801458,1.1831968369294,1.18406506152235,1.13329999994465,1.20010097742126,1.25194198947959,1.25460126101225,1.2147250682713,1.20951773549457,1.1813034472287,1.19542901541673,1.19710528197105,1.19815988994832,1.28100653149703
1.72681359365163,1.97414519934959,1.86057215015391,1.79028007937316,1.77509528244833,1.70295077858813,1.68863606832794,1.66696531490043,1.73985800551075,1.83065597604578,1.82763413877826,1.83757999999118,1.78826415275135,1.79085126245138,1.73596793016147,1.69109499992978,1.75888140514449,1.9755084770791,1.98097232229829,2.01473000973158,1.84824612262391,1.82499992553872,1.63800884690444,1.58947504384591,1.58767782593398,1.58610896324616,1.62592644980183,1.64029585890893,1.6467107571983,1.85096000011576,1.54614497805771,1.54214023407391,1.54856097553856,1.57479148335908,1.55347433457085,1.52299549477219,1.53034402627516,1.54005638705491,1.52123622146337,1.49264910726074,1.52021226621948,1.53611039858792,1.58542467452855,1.61759000009637,1.52352034091693,1.508627840238,1.50633761022207,1.49615912141983,1.53934739515058,1.55390001448952,1.56422336064767,1.58001006766222,1.66632308057036,1.91381333342016,1.59758632031803,1.55670549485896,1.55666248949695,1.6069988808042,1.60767621362201,1.60360688529739,1.62716465645414,1.628011659667,1.60681450206007,1.57470509336996,1.62009483639255,1.63098057510145,1.69542395174543,1.73820955254297,1.78673648472299,1.82730999995763,1.91498912345277,1.9699600604822,1.83433001168632,1.51388412566693,1.51591381866847,1.4590191274428,1.48964993338185,1.48405165244822,1.52752990894141,1.52767057864064,1.63627911869927,1.65078037628639,1.51810018722775,1.41996818876643,1.41874318030521,1.39887001037751,1.44407579856644,1.54446272902179,1.53484165638337,1.66994211845076,1.66844929258859,1.67587717722065,1.44052513205176,1.3913099239278,1.39942913289926,1.41933043252358,1.46111831109154,1.51293908499935,1.42429600897633,1.34700330091275,1.34322481083128,1.31291306030463,1.34156292738285,1.38249367268458,1.38587436312925,1.36380965245315,1.40520810921816,1.32312993145797,1.35203994970832,1.27490999993726,1.29872943103434,1.28437973007275,1.37351838104693,1.50135832137252,1.51479700289544,1.57764104119061,1.36838967136782,1.28134931731433,1.29910029477169,1.30610846571603,1.36398199141328,1.4330903248879,1.46690591067361,1.63496969121304,1.53599519350391,1.41976920229808,1.39493453513209,1.35425833327921,1.39405706581034,1.50168004245697,1.50152488271359,1.59913645882079,1.59878529043879,1.60163247865885,1.47454564283502,1.42347574224632,1.42096565331158,1.28732999988424,1.47230867630722,1.51306941132758,1.52852287261462,1.55682908084784,1.46023496227888,1.45920218046966,1.4635564331263,1.46874994879475,1.48379994387993,1.53879004884799,1.60805380028335,1.7705542733966,1.75158688415972,1.72286906975388,1.66065687293528,1.66190747647892,1.39288035759787,1.35722791100039,1.34276967917196,1.31650907246766,1.34134074457724,1.36181914579281,1.35172422245487,1.29248999999595,1.23018015188046,1.21126013901466,1.18470604329015,1.1713478046941,1.20070343514508,1.25492537519668,1.25567611582496,1.30287000008908,1.20630106148751,1.19561915220506,1.1920363017562,1.18678820310147,1.18595121618047,1.18810631237202
1.71586614122754,1.97077427615584,1.85076070186735,1.79404236490427,1.76279379117859,1.75774969222595,1.68073897668205,1.67989948691546,1.71198070046979,1.74039999998979,1.78463651771756,1.91265000005788,1.78677941703544,1.7826337317581,1.73515095247934,1.69255499995073,1.76053145259148,1.98559015114921,1.98411097041987,1.98714439979698,1.80091821243627,1.69585091474915,1.64847992313288,1.60943053154616,1.61594476999203,1.62223263274603,1.66385873582595,1.89263000010512,1.65241594835692,1.53461080314017,1.53641339960061,1.51071988324912,1.54635735379984,1.54430820307192,1.55496178057565,1.5565111296782,1.56467548251305,1.61631000009045,1.52337578268882,1.53653485228768,1.5236924309421,1.60637001007686,1.59123218766455,1.51461036426128,1.52453179236981,1.52475697931472,1.52653630466527,1.53108856309406,1.56899649076819,1.59165999999558,1.61789262886388,1.65273264285116,1.65966951407423,1.58749476722094,1.5889679637438,1.52227998101992,1.55662605467011,1.55337702781696,1.6093458032533,1.62133267837808,1.62654258367875,1.66985007205735,1.61702801270077,1.5956099991437,1.63838629400247,1.68632940593566,1.70294220188501,1.73592944106375,1.80386534352996,1.98283000011576,1.91432322206185,1.83353349177095,1.83880379978246,1.89661000011576,1.51811911291242,1.49957719727904,1.49439272960756,1.47961627610463,1.52720361890598,1.55767999997001,1.63657245636215,1.73571000011576,1.50809190883827,1.4183798337985,1.41755488147932,1.37548996511976,1.44639960797781,1.45447045927849,1.52833820059211,1.69448003425063,1.66656150245627,1.66359264381378,1.42202871232729,1.38102397845573,1.38332738076006,1.38879437577584,1.42751382133003,1.43592499727857,1.42063570884762,1.38309004676413,1.34729583835572,1.35321783301505,1.35356682876556,1.38222858572267,1.39170138310386,1.50732539749434,1.50702811176948,1.64966000011576,1.36990712909011,1.3089599999611,1.33300378867411,1.3842760549806,1.38757487918228,1.48671165561238,1.52948224587122,1.58601947683845,1.3792060299895,1.29096961721413,1.30548319690128,1.32082034573117,1.36369131537261,1.37475007013028,1.47228889494576,1.62701027182485,1.55115670519196,1.43296095071479,1.39810567949049,1.38595999996937,1.39766804387704,1.44055297472027,1.48260837239725,1.54199000002207,1.56080300145121,1.62636025661844,1.45461061593065,1.28825999988424,1.41792504049261,1.47632738392355,1.47442496010054,1.53397864221775,1.53233272107449,1.58890080991056,1.456420264154,1.44106762741247,1.44265898572926,1.44378030718591,1.4784100444947,1.48219831456824,1.60319470256501,1.7712548633829,1.74939190853008,1.74695334010125,1.65840683707917,1.62235898666856,1.39380665568213,1.34172285147516,1.34266752509467,1.33205116291467,1.33979873612609,1.33940102579303,1.3452762153628,1.24866498585314,1.22733953180031,1.18660856876974,1.18382439065261,1.16890233377691,1.2005272544454,1.22428949688174,1.23368963986927,1.20597655407537,1.20393067475671,1.18880349282489,1.19020571732545,1.16259319463506,1.18238560616538,1.17872815590447
1.70675593054958,2.05650000011576,1.84725259401174,1.79709607407277,1.75382679819023,1.67253890046352,1.67311098210563,1.67434711855611,1.66764936387511,1.6482590160004,1.7639157361726,2.11049000011576,1.76971603258828,1.70073998317311,1.7348303184911,1.73591559097207,1.76240469329897,1.82629000872957,1.8665031145736,1.97911934862359,1.79608894412802,1.68520681045763,1.65585709485325,1.63002993426773,1.64768928439644,1.67213657001672,1.69170351219972,1.84862000006852,1.65667835399778,1.54229522383299,1.53798074517447,1.53619601442448,1.54682838692669,1.54675614612608,1.57359254007863,1.99661000011576,1.5684880660847,1.5474399830446,1.51485267191317,1.50906538700016,1.51465931707156,1.62656983462606,1.61691361584692,1.73982000011576,1.55718961514325,1.51063796501074,1.52889088994616,1.6095277629225,1.61758768119364,1.71488881380921,1.71336129009546,1.71029683073759,1.7277004698242,1.80977000009396,1.59039924243078,1.59022446310596,1.56024807462134,1.51738999995446,1.60988791992406,1.6222265382625,1.62598699013587,1.64377181491751,1.62714225921693,1.61986019544873,1.65252133698811,1.69751164840091,1.71076585834568,1.86379000013376,1.84243938961425,1.90043239099687,1.91069491085012,1.91283171265283,1.83987075737485,1.60428999994476,1.52049396364302,1.5262361622932,1.51171523419903,1.51009847096878,1.52748121188226,1.63368451025535,1.6354852040411,1.66943000003924,1.49815132231638,1.41125285507971,1.41518591218739,1.41485110957064,1.44959513774074,1.48638943752611,1.5221074364533,1.58560000002234,1.54747064071781,1.38559952682181,1.37779140196168,1.34762991805102,1.3756398154362,1.42364091757841,1.42683143910048,1.54179000011576,1.41917838683565,1.35442003013352,1.34181252410135,1.32676552390765,1.3526272666805,1.41657218019374,1.41084999109892,1.40652265349122,1.50657344805482,1.5648300000517,1.38545786300484,1.33888912666357,1.3367562161456,1.35427046326982,1.38843481460532,1.59196000011368,1.54836693591193,1.59173948215726,1.39424355271407,1.3163377671478,1.32346983236174,1.32928582618444,1.36428490444177,1.46533000003825,1.47675499049544,1.57978961726103,1.57291431374821,1.62912000010151,1.40393579219608,1.4089633009996,1.40358651607558,1.44155425292366,1.47782977897461,1.49301003890594,1.51382174205404,1.54510000002968,1.43512096357533,1.40713639701602,1.41451448556267,1.4252430550581,1.46445888610739,1.51648926982037,1.53487389782442,1.57436919019237,1.45419664328668,1.41230993564378,1.44282559486481,1.44161881487916,1.47455517503886,1.53064994000542,1.5989963581801,1.72009001082819,1.69376965471713,1.65438954458577,1.65521314874048,1.64224075933481,1.39624836955944,1.34291512599648,1.34654455962232,1.34997145776094,1.39734584764063,1.71812000011576,1.38323943831925,1.25116501842281,1.22485288192293,1.18306542545112,1.1829138846496,1.1654985344589,1.19969406072941,1.29492171659916,1.2965002243448,1.38016000011576,1.19979729031085,1.19986726447013,1.19103403158124,1.16568666267337,1.18735221390666,1.2934514229602
1.70657381384396,1.84400867830364,1.84225660185855,1.81473469402195,1.74483560396189,1.69983126631227,1.66824605141158,1.66459181106567,1.66057329735173,1.65391040994071,1.75277098998034,1.79247388286004,1.76659829791442,1.73222452315724,1.73347677876921,1.73430336439206,1.76501544916417,1.81553582619116,1.84369330206735,1.86104798255453,1.79075677868672,1.68027535580389,1.66827307603432,1.66767462282535,1.66881479720538,1.66970134330529,1.71098446838514,1.74233616750421,1.65913961703471,1.54066039935899,1.53897294174899,1.53778912050012,1.54819745034818,1.55360018439658,1.57888115622216,1.63821796406956,1.5747883949627,1.56329218972003,1.51042805444124,1.51098378644992,1.51209897169718,1.59748933966588,1.61563692771739,1.64985442860686,1.57059235192686,1.51893661446428,1.53025895847056,1.57687697455584,1.62293861401925,1.6981928937457,1.71508286419602,1.72654726502213,1.74041554960537,1.75690794106583,1.57285868899733,1.57205382364833,1.56324955531556,1.56726465797236,1.60878608414856,1.61530691414484,1.62548735129063,1.63156326779122,1.63116738446879,1.65337361514855,1.66177503145112,1.70291420728958,1.71912823108694,1.80739167371514,1.83531617705953,1.87356196865629,1.87588277433409,1.88309230835041,1.8362508204446,1.65722858266739,1.51747745075856,1.51251840949817,1.51223525500815,1.51159673169794,1.52889490230598,1.5790480942381,1.61377614984594,1.62909871944586,1.48755251012991,1.4144332678974,1.41608647650579,1.41657638797163,1.4525857523648,1.50153995801004,1.51755473876085,1.55062942319099,1.53074646181859,1.40572313338871,1.37224939174542,1.36873829954324,1.37536995198261,1.39766935100778,1.41110194873926,1.45991922994607,1.41831546172403,1.34357644393613,1.33715163018362,1.33502200415266,1.35043593275548,1.41930647714726,1.41950333974124,1.42608669003765,1.5059899217695,1.51590727549543,1.40128536979906,1.33702767653897,1.3353587126634,1.37969145988281,1.38719823524037,1.50374359987667,1.53332772728908,1.5499589307436,1.41366542785066,1.34206980679279,1.3413547276578,1.34027609341313,1.36604253086237,1.43058375630988,1.48053017941637,1.55823689042703,1.5633262915237,1.5703628323021,1.40537773439077,1.40684044698695,1.40533993292469,1.4467382391884,1.47221870140931,1.48069292791478,1.45800584363867,1.43444149388282,1.42848882496375,1.40893894852758,1.41135773046281,1.42271056814245,1.45898540863168,1.50824650367771,1.5374568829843,1.54034406792963,1.45319463019122,1.4329922151781,1.44309508953396,1.4422763835217,1.47055267246607,1.54627916140545,1.5996860101567,1.6625605377476,1.67524266776995,1.66506579359248,1.65174859716192,1.62549001886364,1.39989145355913,1.39787795177633,1.39497067298525,1.38903732173597,1.42988112316649,1.46516076113033,1.41668512442624,1.29988483974785,1.22269660181704,1.19705926610881,1.19728809256023,1.19679439229341,1.19865099656997,1.24384699536924,1.29806979904728,1.3003202534626,1.19582079356305,1.19473334276623,1.19412216474039,1.1979498317823,1.20050660563713,1.27612092856081
1.70836030850439,2.08192000011576,1.83328201532124,1.82173485107856,1.73736748173616,1.72891980097229,1.65358283246436,1.59980613357154,1.64636929847136,1.65035668179561,1.74383004992895,1.8455400000853,1.75617948700089,1.73069959832933,1.73226137097812,1.73335837887069,1.76834459252609,1.7933300050511,1.82225059117347,1.95213817704569,1.78114931040287,1.67562037971439,1.66710810802952,1.66368263312957,1.66719674718719,1.64137940172896,1.73598388291787,1.88238000008008,1.66032489418323,1.53380369590189,1.52360688629437,1.50388165474685,1.55028176560418,1.56874050334397,1.58008229045355,1.97375995242275,1.58323506723169,1.58255757749005,1.50752416920135,1.4857590731529,1.50421694540734,1.58413992857078,1.61527061848278,1.76213000011576,1.58013868854205,1.51869359068874,1.52979530846285,1.54056181103071,1.62741875050164,1.67812995556071,1.71723129791369,1.74490022307228,1.75496238545118,1.84334000011576,1.56434379968764,1.54148892836735,1.55347772550181,1.57465882140459,1.60658121257046,1.60434441061966,1.62541837417461,1.63334995007442,1.6310725255863,1.66569950098691,1.6713367241691,1.70915918464085,1.72903402432525,1.77641814242732,1.82565014341264,1.8708311358119,1.87289893467973,1.89071160108692,1.82897273873405,1.81906961256901,1.5151825753497,1.47258327307955,1.47751744698534,1.48102182376855,1.53122320340028,1.54792000013935,1.61231743516074,1.70277000011576,1.47815464641921,1.38799638315032,1.3956637072524,1.37516999474059,1.45431587784506,1.51438282007692,1.51683325747345,1.66034000011576,1.52628237332954,1.43568007221573,1.3696749688607,1.33154283262856,1.3741648164924,1.37388750352311,1.4099795127343,1.52142000010228,1.41570463335426,1.34157433709547,1.33421098769189,1.33110622477777,1.34873904207392,1.42176145444072,1.41927724363121,1.44656008876238,1.50541672966934,1.56725000005484,1.4166946357332,1.33033849279627,1.33252517991598,1.41000789091934,1.39421352118055,1.47231987823544,1.51540696114637,1.72613995465995,1.4385626999636,1.34131920696079,1.34034993579126,1.33766415218279,1.36884022123546,1.39533999995936,1.48517275630755,1.54772341719668,1.55810008084341,1.57735670742187,1.40652949112569,1.40822202757426,1.40618950318519,1.45256855594215,1.46173027447831,1.51309000860706,1.43232337656607,1.28437999988418,1.34709671153906,1.3362043251598,1.39744077516893,1.41980305231421,1.45332211063863,1.48965992047955,1.53979291155443,1.5633200000316,1.45327858841465,1.42392701702838,1.44300656140214,1.44127369002415,1.46671370468638,1.56593004324723,1.59907483677667,1.64084995059563,1.68486535715427,1.72072306723766,1.64871804016998,1.59859994392971,1.40520792684241,1.40326064309658,1.39786573278868,1.38208763903173,1.46225454208498,1.73848714806062,1.73293670103638,1.71447845450599,1.22054740710787,1.19557091982658,1.19567163239501,1.19736655893791,1.19750699756196,1.21572100118425,1.29638464649119,1.30500923264067,1.18496517156391,1.16487744180815,1.18672779686527,1.21164868115696,1.20236150966669,1.27398048275583
1.71138065100408,1.73175999996151,1.77426881715342,1.76689685308754,1.69991553423565,1.59914079532499,1.60790359917331,1.59209382707525,1.64390698610212,1.67422315915352,1.73156872210833,1.80254000005489,1.74203450808936,1.72948047750646,1.73119157598392,1.80864000009777,1.77180943822873,1.77498075394219,1.80531342551342,1.95513235967542,1.76872926159903,1.72263676442025,1.70175022650988,1.66501078273425,1.68240402717213,1.70346007277789,1.76560653732229,1.90707394454733,1.6613163695898,1.50661424917415,1.51293223260005,1.50653205542813,1.5525179020923,1.55460254264744,1.58448992122124,1.99537004773389,1.59131717017163,1.57524252418249,1.50499550786935,1.50575364875761,1.50378636693076,1.50342544026932,1.61300837358203,1.67895000005788,1.59108585557739,1.51635373216655,1.55784548562874,1.57429030078023,1.63178246477972,1.65797991654544,1.71984590097585,1.81450000010757,1.76476373971188,1.6305699999421,1.55992205694283,1.50615828785256,1.52828059839456,1.51378955062665,1.61725589155658,1.66537019103278,1.62586500335757,1.59643000706983,1.62859479962628,1.67646230212212,1.67976887420353,1.7009808063334,1.73745379409081,1.77881172443703,1.81570223071926,1.84161973897316,1.87062566814711,1.88405878058618,1.68541000900878,1.57156999996781,1.51367518339181,1.47768779358057,1.47450926571679,1.53642455196278,1.53389562278484,1.60260769922279,1.60980575134585,1.46149405803599,1.45731698078444,1.43515329153416,1.4210856174406,1.45575705856834,1.45474415320942,1.39925999985876,1.50759028228463,1.49514171144008,1.51942930909932,1.39643000004933,1.36991562307506,1.33411636330224,1.37287094672832,1.39796011948242,1.40852390799187,1.41315000389606,1.41119079978727,1.3168092019137,1.33156334298979,1.32762414457963,1.34888874716046,1.36959905193419,1.41639248085333,1.48937000003009,1.50499555934633,1.6554510101735,1.42252310078621,1.32430986648974,1.33145278439859,1.32966969652438,1.39081991822817,1.4889101029768,1.49746106724719,1.74137904482247,1.46706904899853,1.36484010749934,1.34273641118611,1.33424597669499,1.37188342025364,1.49947306467448,1.49072516410917,1.62165000005353,1.54331560416401,1.51328000001335,1.40555998008152,1.37973999981567,1.40532545209407,1.44740857551719,1.43747274644967,1.29150999988424,1.40590695796365,1.37453073390043,1.35593199213067,1.34497490000762,1.37901418032893,1.37904558984511,1.44241601492612,1.43686586604697,1.54188799168376,1.77570000011576,1.45450960212791,1.45668282209563,1.4472343859191,1.45210517503305,1.4634099344151,1.52500000098904,1.59647573247383,1.68472003965254,1.68820824077791,1.71841685928329,1.64646066634138,1.64484705523638,1.41280149328656,1.41303176526423,1.41612022863069,1.4199258739342,1.49566716328052,1.73908869144494,1.73421522386573,1.75256068595171,1.21792056919338,1.17766439786385,1.19453668258129,1.19457847166053,1.19643940312594,1.1944857002092,1.29377549146875,1.31968078091439,1.18143466654866,1.18082690161872,1.1855173532572,1.18761815596923,1.18861535143463,1.16352991317057
1.71423421586657,1.81715000005233,1.77979000090801,1.78688698751918,1.67342180249449,1.62779373659433,1.61272614175893,1.63786357051593,1.64152668907856,1.6724769096836,1.72058797802552,1.75938000001103,1.72455076728402,1.66211513089123,1.66770970923742,1.67270352577054,1.72389114238425,1.73624623859313,1.79302741478662,1.94428946350882,1.75526345608782,1.71955262966475,1.72021561494192,1.72310884319039,1.75212362040235,1.89984459970104,1.8919629560456,1.89286437265963,1.66283853572665,1.5244279376427,1.51822412427843,1.50666581113998,1.57407379301671,1.595078004495,1.59704562437774,1.96218000007489,1.59401454121846,1.52140068613139,1.50272432564195,1.48181049024369,1.50211504510266,1.55451000003746,1.60839749359082,1.60436859405474,1.60451947813515,1.62587111767588,1.60016729867314,1.60183562221129,1.63808829500625,1.69242996520804,1.72270660754838,1.77742208439026,1.77099178768318,1.83079000011576,1.55858447364309,1.50835142416119,1.53593916772347,1.63152948044421,1.63334695118119,1.66429979199465,1.62617128481877,1.57582053843448,1.62615420173088,1.6822381503334,1.68843774154654,1.69962742245267,1.74089084598834,1.79552666731932,1.80788556199327,1.88620000010349,1.85971597554814,1.82440983281536,1.65661941020073,1.61067003262368,1.51281455731874,1.46829966613274,1.46898815549167,1.53753011646153,1.53401204958048,1.46618999989802,1.61410904529848,1.70733000005788,1.45432706078373,1.42625811176358,1.41315157488641,1.38796215669005,1.45418720441254,1.47424999999767,1.5270558383925,1.53666004534968,1.52647731938099,1.53321101184452,1.37213515892485,1.34582070574997,1.37180710202421,1.36967715122551,1.40277977917384,1.40217976884105,1.40535616746849,1.35807169660029,1.33778116347687,1.38812037416011,1.3502945942151,1.35032210780899,1.41381509588619,1.43838999997645,1.50487546455476,1.64185898998069,1.43444537402642,1.44432042858188,1.34121131823661,1.34355755470972,1.38738499666599,1.38778763880326,1.4755965882662,1.75505100074911,1.49926122509955,1.62271000011576,1.3471330451116,1.3372709278801,1.37363257134804,1.37206079083884,1.48815787482712,1.64828006712417,1.54128198399814,1.37134111847623,1.35381647256198,1.34823116855823,1.37872089550342,1.39836999999579,1.42850760738172,1.52553001677898,1.49815964941693,1.58648006685228,1.37210448863791,1.37671773740841,1.37821902292249,1.37830034324019,1.44774351058159,1.47723999999613,1.54390531853226,1.55116000005009,1.44815180340968,1.39958027891898,1.40048432967754,1.4027236083332,1.46070086761876,1.49818999898681,1.59193935984022,1.70991779132624,1.69678163383582,1.74035007363548,1.49926690555014,1.45993999999195,1.41767571164326,1.42294347919151,1.45233645999018,1.74606344362388,1.75077786476253,1.74507690915638,1.73078128801858,1.72709554586784,1.21458260915369,1.18813800043117,1.19209814650971,1.19264467293905,1.21583190852522,1.32064000008818,1.28991717621234,1.2024808639049,1.17861113349004,1.17090040098111,1.17179812955856,1.17475873039221,1.18866435880073,1.18782737574327
1.71555297570918,1.94841000011576,1.73642140721759,1.6723700368239,1.65421996569369,1.55074999991205,1.60598664932192,1.63836345343631,1.63975265797504,1.70773125575126,1.71726327912563,2.01877000011576,1.70085317775677,1.65166148950368,1.65431407112321,1.65756327233071,1.71543449034532,1.73197506140678,1.77817468359861,1.90399000005947,1.74246144453298,1.70465138951563,1.71807781015847,1.76198087684321,1.77281202523112,1.88701717597638,1.89017208785678,1.92000005415608,1.66469012299658,1.53742981262812,1.54677517862796,1.55967109987991,1.58591975589404,1.60278741180219,1.60273307955013,1.61179338422742,1.59488545607869,1.50132515081684,1.50064099469177,1.4927903766615,1.50021812476665,1.52054955040583,1.6065966212238,1.68532000011344,1.6036271556684,1.57652887519939,1.5967895410251,1.59066657428441,1.64552666342878,1.71365060380448,1.72553431470142,1.80783006321834,1.67046385154339,1.54425513587994,1.54471348176748,1.50983028785256,1.54530991386517,1.59608022733219,1.63504513796341,1.65398010929602,1.62545214606165,1.57195944417033,1.62424298613728,1.78848000010141,1.71730202295638,1.69958870292689,1.74578267791769,1.87477000011576,1.66514659189098,0.00427841028761535,1.66503699532656,1.86286003322162,1.64244492682995,1.58502869983992,1.51244965318946,1.46459823106575,1.46490754605568,1.52834492359917,1.53102996336939,1.56936995857674,1.61827285470955,1.78567000011576,1.45245731614422,1.39486431961558,1.39750701348871,1.39608566689715,1.45242733822336,1.53713070943616,1.5408031989329,1.67598000011576,1.49176006004947,1.3497590591241,1.3747192729557,1.37442111282524,1.37304254713622,1.3718031695738,1.40263208090104,1.49177000011213,1.40182173884847,1.33694915638121,1.33697479828718,1.31153957975628,1.35182557881254,1.36723677144815,1.41204491052121,1.47086994714016,1.50526549909062,1.61673000007733,1.43304010995871,1.42869260590806,1.34088497151734,1.33663151219008,1.38676675178362,1.39052226058759,1.45028870930593,1.69957000005788,1.46152287800704,1.36084180009524,1.35320898897491,1.31502992060928,1.37682991393541,1.48423548170441,1.48634444637272,1.62882993305383,1.53841374839447,1.32884928327621,1.34165190141786,1.34073484784661,1.34047895093376,1.27035999988416,1.4196149566691,1.47152962627055,1.48878629599141,1.56699993332137,1.36846498014029,1.3551418579217,1.36612023015056,1.3674553387444,1.45417491758198,1.54674764827474,1.54577436228839,1.4079822739142,1.40449155855034,1.3664699397089,1.39832879656342,1.41052402315378,1.45881728770948,1.5403100000086,1.58644819892867,1.70347033035983,1.68999044353257,1.33651999988424,1.41008434943655,1.32289999988474,1.39451818896152,1.30220999988422,1.47189462958521,1.50879999994302,1.75872992121444,1.77362000052534,1.49722609874974,1.25490003241248,1.21118836786759,1.15265029589874,1.17291299510885,1.25872012093335,1.23220548452451,1.27782191072825,1.28450267859575,1.35705000011576,1.1765270811465,1.15611253898673,1.17108883660248,1.18722437511187,1.19739069888645,1.26902881613893
1.7150979992152,1.73723639395344,1.70617385230243,1.65295311806111,1.63612394531685,1.59958405664915,1.60262629270474,1.62400151034196,1.62697393117857,1.66684905772584,1.68837493131278,1.7279505399847,1.67805278613405,1.65251798119375,1.65386760408012,1.65545572313664,1.70910546987903,1.73342614922725,1.76134354849679,1.79528899741829,1.7316244482882,1.71452313767027,1.71632781991844,1.77044482969614,1.78875489576352,1.80931482499645,1.80919459965908,1.80911090705355,1.66599750406666,1.61336255318624,1.60615937162699,1.59380482606385,1.59697035992369,1.60282024656729,1.60329131126536,1.60500160033683,1.59861934599088,1.50052301754204,1.49908706541047,1.49724065439337,1.49792533873727,1.50713475002645,1.6044016103988,1.60282947761832,1.60216453093719,1.59785551929305,1.59885657711458,1.63521383917563,1.65461481078714,1.69811363834882,1.72809692941605,1.75273790119891,1.64132751201956,1.54368363471462,1.54401729843824,1.52555911214941,1.54856934469334,1.5818081245906,1.63647180307428,1.63625831801834,1.62342049458021,1.60304805072406,1.623018690903,1.74205724178794,1.74223575101198,1.75080100306097,1.75260838875767,1.78304588525045,1.66522804814649,1.66516879370719,1.66323134255861,1.6520474943636,1.62817589191723,1.57653856673106,1.51245227341815,1.46293343131573,1.46216110604971,1.5032569432757,1.51554006543831,1.53440446243001,1.62192899891051,1.62503863926112,1.45094292770012,1.40313440562661,1.40128582777714,1.40170832016492,1.44953646176924,1.49867483596346,1.54388655668416,1.56821806026695,1.47878460234929,1.38743718423645,1.37642889691915,1.37559552308667,1.37408670169934,1.37297760168149,1.40094884640154,1.42229603394062,1.3975603334772,1.3356702484391,1.3352035815961,1.31979591863146,1.35367827109323,1.38994666974948,1.41135739802983,1.48782208571614,1.50621541940317,1.54201665470194,1.4162856327677,1.40519558707873,1.34376061871778,1.34508739636779,1.38597676851254,1.38882240390609,1.41571801655303,1.44092725348075,1.43997348948371,1.36800145647217,1.3670527546245,1.36602823616233,1.38068911639329,1.43443526502532,1.48072109216776,1.5298851753564,1.53103224913919,1.4035040993864,1.34207490966675,1.34108415799323,1.34034584934843,1.34036438800969,1.41069194536201,1.43109912970937,1.41331646619735,1.40109929837237,1.3635126098773,1.3587334834498,1.36465078264771,1.37607726697951,1.46005619566988,1.54796258107737,1.54707399460086,1.46269595280561,1.4009240684081,1.37796930071457,1.39724086217571,1.41242865891853,1.4575162712018,1.51103860038182,1.58113039017775,1.67389905140435,1.67410794593233,1.49270380735107,1.46370509600119,1.44477852958422,1.44286373341437,1.44100736688502,1.49227086598173,1.56232824309291,1.7623192774079,1.76327706145954,1.4950683802704,1.23551073778629,1.20841240541073,1.15210143855714,1.15349523124253,1.15546084601033,1.15991094717205,1.16268026920604,1.16438568468813,1.16471398133304,1.16088211802132,1.15948512802592,1.17063958383572,1.20076086943479,1.20398919978239,1.27121749485235
1.71371044927271,1.99026000010638,1.68530278992436,1.62846374755774,1.62307385851097,1.58460976922031,1.6008447757855,1.617671684793,1.62253290871572,1.62302949836349,1.66515580365159,1.90306000011576,1.64577194908894,1.59532858495746,1.59694669110588,1.59155800989888,1.70304392884559,1.73424372832628,1.74246595290263,1.86260000010282,1.72363059316392,1.69329768763675,1.71748148986419,1.78028745515521,1.8027717577336,1.80961908822658,1.80925596466751,1.80901330732062,1.66581994036958,1.62337770608436,1.61205004626129,1.58311989553045,1.62743506542253,1.66153999999681,1.69947599490652,1.94185961096737,1.63057361674615,1.47650996581415,1.49782084380365,1.49592816934865,1.49681325443658,1.48433782400496,1.60392427154887,1.60274887216964,1.60312487979003,1.59387061839169,1.60138577019944,1.68219141571404,1.66543334783011,1.68195938211417,1.73002104139215,1.82977000005788,1.61868255183126,1.54237596109657,1.5431097311792,1.51318959789168,1.55360700795058,1.56449353977265,1.63772634956227,1.66918066017142,1.62060360223606,1.58315984634216,1.62221278854246,1.7415672966681,1.74204176579373,1.77266748806437,1.7608921922044,1.80968998204063,1.83355657422814,1.98703999747078,1.93931902037925,1.94680000011576,1.61099202051642,1.56522952865434,1.51263646744713,1.45821850617907,1.46020257894204,1.46063838697021,1.4718855787999,1.45444044528858,1.62099049495112,1.87136998383342,1.44904773243932,1.40486447660724,1.40274139750242,1.40207709961969,1.44624088496725,1.47776006241603,1.54620992422824,1.76871971336715,1.47087779889735,1.41744003024922,1.35053203548731,1.32328320287477,1.34433112735038,1.34161361495619,1.39767999264356,1.46212514902981,1.39259449996826,1.33398838532449,1.33140182638694,1.30835942010628,1.35548816027242,1.41373020515098,1.41201648972296,1.50809248860343,1.50731443729479,1.59214000007108,1.41053617676025,1.38634009564649,1.34623756610802,1.34671570593962,1.38192762954379,1.37862526283883,1.40821229944353,1.44002471419883,1.43708347377692,1.36846592589035,1.36674153589808,1.36465127878597,1.38629937564527,1.39039683347007,1.47846639008109,1.52779772090705,1.52988574967345,1.65511000011576,1.34318932753119,1.27883999991548,1.33985163655951,1.34081246939148,1.40368806047496,1.45587909634901,1.40445282178593,1.32439661938628,1.32448037474593,1.32410265755251,1.36202172213645,1.38560462465456,1.46432507965834,1.5513250039194,1.54625205362149,1.54426663917408,1.39734176849189,1.37190997123017,1.39501694297409,1.41534040532435,1.45592763869436,1.48934051922812,1.57664936647702,1.67293583160448,1.67386676434402,1.70142000197571,1.46716010366579,1.44751438635408,1.44416929108006,1.44024157087629,1.51404468809632,1.81256000370686,1.77949772274542,1.7617099175103,1.49075158644496,1.20050756954853,1.20596256502049,1.15284651069499,1.15429308798968,1.15126698382364,1.1625809669889,1.16387220847958,1.16611968907416,1.1677272654406,1.15971806403499,1.15701555303205,1.16915266792007,1.23620024766698,1.21249429819854,1.2957400000383
1.71233363585077,1.93123000003594,1.66803012938595,1.62357759445882,1.61329350560379,1.58395931469237,1.58008360362152,1.57608741494852,1.62224185667057,1.63358188378182,1.62960414982914,1.61241079378381,1.60090650425996,1.59021134544382,1.59914217630339,1.62241078435909,1.67848359831089,1.67880645484718,1.72896556175947,1.81847000006792,1.71928310356487,1.68639873515645,1.71981672399554,1.76543121851469,1.82521155679508,1.91559000005788,1.86372503583042,1.8410599945272,1.68619521198861,1.62417292686644,1.6165911397186,1.57194130826318,1.64724012353519,1.7386000000018,1.7738660940791,1.95535839989939,1.64871930182183,1.53983007031605,1.52336585508148,1.50936228007215,1.50450427937002,1.48433134701689,1.60518384050243,1.74346000011576,1.60637920220452,1.60564497676695,1.60444252442788,1.62344005604416,1.64422838283644,1.73884730120499,1.73266336515152,1.96668007627282,1.60033094662177,1.5544993609665,1.55295477827581,1.56448096834791,1.57954602825874,1.59630000705452,1.63795749651227,1.65394933991095,1.6178732416006,1.58429773387685,1.62115095019481,1.62858064663645,1.71394998421561,1.72367394654465,1.74856325136614,1.83701999996208,1.86251630952272,2.01367000270286,1.92136905290292,1.871279999165,1.59732911033823,1.58902006852865,1.51283055193196,1.47659123706424,1.48409556382409,1.50345235384119,1.4825995964815,1.44862955456922,1.61948924068018,1.89648001634022,1.44649502655318,1.4216550769935,1.42063236553445,1.43797111098875,1.44339105586814,1.45747037028505,1.54793014344332,1.78136028678605,1.46199360593986,1.34060159081522,1.34277677477302,1.33359866457862,1.34677207072732,1.39259000001239,1.39371367509072,1.45684984609608,1.38723345245382,1.342227883955,1.32686074044123,1.32601909003155,1.3568557239043,1.40838941863845,1.41134555603027,1.47509995139767,1.493018903476,1.62670000009337,1.40794430030428,1.3522404025633,1.34876444888905,1.42541005622341,1.38576777210528,1.38620009314666,1.39278342129542,1.37817992843317,1.43333187695885,1.42972761601532,1.39026011180264,1.39576711919653,1.39465644376723,1.39471978925318,1.47593085794633,1.52898320542975,1.47395708667982,1.37039999997945,1.34415554391985,1.34522919051177,1.33908044315473,1.38831006959502,1.40204366522399,1.4600809921305,1.38976576084035,1.36069005458499,1.32453925476128,1.32402289691034,1.35853869383245,1.47237985328323,1.46785067817269,1.54104499620308,1.49007378294741,1.47403998442055,1.39405374262796,1.3521905956346,1.39158630217117,1.38953753304349,1.45385286582673,1.47344948074108,1.57299402248043,1.56978972594854,1.65917510868566,1.67470999817908,1.47237597812992,1.46914094732703,1.46902491333216,1.52271000003481,1.5373651762581,1.79986004122826,1.78773499503465,1.76978978542648,1.48437532531756,1.24966884772257,1.22364011585984,1.194130369156,1.15812876946817,1.14451238824906,1.16464860778862,1.28788000011811,1.16785629752186,1.16608738563224,1.15942064426055,1.11291945649231,1.16775310061248,1.16604335902475,1.20332272032591,1.35392833342016
1.71081587524987,1.9770300000892,1.65210820432481,1.63345905686281,1.60329639857344,1.53861900355403,1.57290439593895,1.59734119107532,1.62214268253808,1.64406041501779,1.6275202530705,1.56399536813235,1.56454627201413,1.5505199481728,1.6007101379869,1.64693999997773,1.68018964137107,1.71591916922204,1.71310055704031,1.71050911418546,1.7002993119908,1.68944302731076,1.72360412396569,1.88632711904781,1.90139804625541,1.97963953812447,1.97893497656667,1.97748000011576,1.70479564514853,1.68647071372028,1.64898513998793,1.63198004760391,1.66759694227625,1.87716132147556,1.87959718342043,1.95599198934597,1.76068444658288,1.74811280977028,1.54248270252354,1.53748495262023,1.53631499434438,1.6076389920884,1.60648964440368,1.6068507941495,1.60660684332953,1.60866473043218,1.59313197212955,1.57554903097398,1.58608399549011,1.5984709734989,1.65555324890387,1.94824992390082,1.5800668302476,1.53923597494212,1.55062257948056,1.54822284883158,1.59445955367816,1.63587485914724,1.63714181626235,1.61502154579651,1.61595550948107,1.57728236961105,1.61860004537292,1.63107147878275,1.69680822306898,1.73392605345735,1.74008543097744,1.91457331026295,1.91482644245576,1.91222931026305,1.90751219404317,1.88560767924591,1.58811991410029,1.53987000006692,1.51286729299949,1.45209012323552,1.48453827640969,1.6161633224329,1.61973853877302,1.68236000005788,1.6183317795528,1.44103560462209,1.44339535397215,1.4177846930312,1.41991054960079,1.41074819072463,1.44156897162023,1.47860005337146,1.54915840717277,1.75276000007834,1.45332445643671,1.35842986825037,1.34540385650295,1.35386691740796,1.34609546013675,1.34964850151921,1.38998559414076,1.45448584195238,1.38222590389244,1.31872836159349,1.32292040948802,1.29566995435711,1.35804793972316,1.40302264956285,1.41081178891233,1.52677000005471,1.48777131692191,1.43257999994421,1.40689221623457,1.34400909722155,1.34710160068,1.32963969282918,1.38515264451653,1.48657999999999,1.52623203333236,1.66247000011603,1.43476892183116,1.38233596794837,1.38073034875524,1.37951996939414,1.39277120107786,1.44193008727326,1.47241021853107,1.47924358584632,1.4604135279843,1.31633569897004,1.32475014171182,1.29112052786909,1.33324813051671,1.36379937650335,1.39925324757564,1.43125000004765,1.38112819777922,1.31024071280563,1.30857538503903,1.28195991916806,1.35538951709903,1.43195148131631,1.45034649895798,1.47392216233115,1.46835458584727,1.44461906573993,1.39169786962887,1.3366793990475,1.38960875267161,1.38893386885959,1.45387344777775,1.61277006657988,1.58628908625837,1.73123666675349,1.65787756356066,1.51007092904538,1.47273974903383,1.46892748830335,1.46910397742365,1.46010806262337,1.55618625566866,1.88362000009679,1.83150424119296,1.83823000011065,1.47630274705069,1.23450127327163,1.23048617923966,1.16797529328244,1.16715494272517,1.16722085905498,1.16737858453099,1.21678999999699,1.17018349544372,1.14190273319146,1.15588834807127,1.12725454408307,1.16861518329399,1.18115686012129,1.19735636490346,1.35044166675349
1.56715517758508,0.00432996028736631,1.64443086886731,1.6666700408694,1.59311851197688,1.52788167522429,1.55119065597163,1.55174606689758,1.62236226510207,1.6611704844772,1.62461262179572,1.54625958660592,1.56556592801552,1.60002554606756,1.60231683259282,1.71237060325223,1.68379753331086,1.68591145233942,1.6870985024444,1.68715485810773,1.69472576331186,1.73544872572738,1.72859699975236,1.8173700000001,1.90781826324701,1.99580046204917,1.97817436519203,1.76210999996145,1.71743329772008,1.68085928637986,1.66948629529983,1.60337993090019,1.68757867613703,1.88480386270953,1.88241713793599,1.92889000007668,1.76934234305931,1.63474999994668,1.54516137141045,1.49027995372324,1.53475958951206,1.53252212843161,1.59351230169868,1.59427365650799,1.59872242362002,1.60237769143346,1.58698845593529,1.53762296148154,1.55559149909751,1.56840957228717,1.55287309335179,1.54704360926639,1.54668062016649,1.5368579319286,1.54994456522023,1.54872433948676,1.61113048948468,1.64300264119051,1.6462424300064,1.65112869214831,1.61993875863177,1.60825961385836,1.61579565888611,1.65846015580678,1.68125811217571,1.69668983140815,1.73191788347989,2.03399000011576,1.95262102827536,2.02122000011576,1.81941556454368,1.56401513471148,1.57099768196273,1.51310961179566,1.51142638109797,1.45100982953265,1.48751551324414,1.57545993727288,1.62225968001466,1.84346953238755,1.83901440741544,1.84538370258633,1.44233134242238,1.42649903711365,1.4250114971743,1.42557070068409,1.44088937417064,1.54050523649351,1.54965455173904,1.55435529365639,1.44406005337681,1.38092977125415,1.35181304403889,1.34177413827258,1.35170216705857,1.34499719503988,1.38709702281754,1.45440916315511,1.37863241239454,1.36393631824415,1.35385381706759,1.35045928080079,1.35907434091289,1.3603410565474,1.40969422109805,1.47195898834385,1.48300827507247,1.52933000009626,1.39899195069165,1.37667942127891,1.34931802160625,1.32299023765275,1.38487313533311,1.60881067285507,1.58692081072741,1.59064645837712,1.44051355935466,1.36171043379216,1.3532005936213,1.33742994436843,1.39080267753387,1.44413023533736,1.46818218861265,1.48001668435751,1.46056145144179,1.34125025764091,1.32369429855902,1.27526947202064,1.32914392631885,1.38867866638063,1.39102450963292,1.39336667070957,1.37508960106624,1.27366999054617,1.30732895773461,1.30987087664478,1.35301493830816,1.42388161606323,1.43029477015697,1.43174482055462,1.46888830217824,1.4664101537527,1.39087308615753,1.38590745763037,1.38822792252489,1.39503343245241,1.4535982136859,1.4734205762877,1.57066131646211,1.72906333342016,1.65547030013203,1.51300383308004,1.47399697093702,1.46917840302039,1.49184994069707,1.53989438600183,1.5773613491553,1.84731000007685,1.83232916169332,1.45747807207087,1.46714058242463,1.44837042173604,1.24639069308141,1.21254022829532,1.17968958380874,1.17184587356583,1.1724645561948,1.17438969352343,1.1735185789811,1.17402250679384,1.1612012283861,1.12346594767528,1.16999757557821,1.16958392269449,1.18063119657143,1.17948572874594
1.57935303452181,1.5981093190822,1.63872814969795,1.63258957659324,1.58271908820973,1.53776304721187,1.54819826586245,1.55814925837577,1.62251057253831,1.62203802807014,1.62027585804813,1.56736905565322,1.56756719960742,1.59327937536759,1.60496983886493,1.66645291961593,1.68594343095069,1.68665679888171,1.68774840489477,1.68984758032884,1.69367620918983,1.72585179686195,1.72689891229369,1.79930437147799,1.91417043644146,1.97598168162963,1.9769511335909,1.80966489279261,1.72053052726721,1.70869630111735,1.68717119942108,1.66890433208225,1.71149543693146,1.86886879171254,1.87889747392248,1.89166060234456,1.77579641917615,1.68698878875052,1.54888305687936,1.50786222467013,1.53425237785498,1.53292513939887,1.59287022516984,1.59163933424534,1.58959871085291,1.58819516770111,1.5776108978784,1.54729617099321,1.54637205391394,1.54485372192992,1.54496993007067,1.54523432910495,1.54568396700035,1.54562484896604,1.5671985245517,1.57646958148667,1.62544326275065,1.64702394048243,1.64873209053811,1.65098375434047,1.62159294125778,1.61137059301249,1.61267782374036,1.63785539130624,1.66505206187126,1.68941019856135,1.72280005100251,1.86511940925541,1.86447963825458,1.81946992105556,1.81942777412626,1.62178670563227,1.57483153365932,1.51012651309925,1.50942358321776,1.50357482302264,1.50267943265132,1.60320943188704,1.62348835934865,1.82881676345976,1.8296226455285,1.82622024515956,1.44089928652093,1.42455612112003,1.42429418802344,1.42533856238064,1.4410283669464,1.52283568519566,1.54979115039607,1.55120618820315,1.43819495031255,1.39241278369719,1.35110666783977,1.35058844292377,1.34881655340314,1.34913000877123,1.38515500123447,1.41618942883802,1.37737665408749,1.35993327043253,1.35734057170374,1.35828742626823,1.35846321299666,1.35948941488752,1.40834948786292,1.45837946339741,1.43798150828969,1.41993279583859,1.3883427976369,1.37014267488854,1.35116834769169,1.33450956758622,1.3853548401579,1.58247848211053,1.58454704631454,1.58685701550212,1.45523652354172,1.38133777207842,1.34636641093774,1.34229070638794,1.38946190286289,1.43295041390675,1.46335491588066,1.47163665202824,1.46145533451818,1.3460147311205,1.32399120819671,1.32505545332707,1.32685932029073,1.35568759583758,1.37524467291298,1.37469458168953,1.3671303583424,1.29967577582806,1.30336160481048,1.3076024527761,1.35126789797968,1.43022952752798,1.4299055683586,1.44445008094113,1.47056624986534,1.46983346193785,1.39119013459202,1.38762696942013,1.38929774655137,1.39217091984478,1.45289677798573,1.45921220106037,1.55866258670409,1.65415763133271,1.65192104177828,1.52212145706882,1.4766027449589,1.47715282015896,1.49519233522671,1.53862241173967,1.60289982187727,1.83826612171867,1.83337628922857,1.51859264244766,1.4856289251157,1.43595583564112,1.26627712478648,1.22097719376658,1.19167566909184,1.17386151105139,1.17156579581615,1.17351437060519,1.17296874426487,1.17311664389161,1.16629122918813,1.15587441608413,1.17217120938159,1.17201569556614,1.18078055451769,1.17992551107867
1.5801324324367,1.90933208489346,1.66623947624639,1.6385200000032,1.5724254268326,1.5143406303116,1.54361565665873,1.56335859344298,1.62212991089577,1.63061096928572,1.61506058299155,1.56853206907007,1.57119273878601,1.58653369557268,1.60874865465855,1.64677056928338,1.68731823458241,1.73214004739711,1.68649672327969,1.66870985457399,1.68685227235553,1.7254835671459,1.72638236097068,1.76639999996337,1.91962040903597,1.99913302156892,1.99437546974527,2.03098027238665,1.72745534932468,1.72670795564784,1.70605490525155,1.6194599999112,1.74097076444178,1.8447186307232,1.86167616144383,1.93827000006678,1.78010168318612,1.93744000011576,1.55564256265059,1.48967999999268,1.53351238717299,1.53092939706888,1.59355796409269,1.58960470906453,1.58956676787383,1.58716327930924,1.56514260656302,1.54768398076215,1.54700155206303,1.53083536753044,1.54531708789429,1.54297393808812,1.54452292864339,1.54395632525231,1.57808601941273,1.59270050686987,1.64020047584219,1.68440999999388,1.72138726275931,1.97057666670361,1.62499369390658,1.59980839099848,1.60968971898127,1.62080086175558,1.64960527563643,1.68256075083932,1.72256349096636,1.99791000011576,1.86353454568257,1.5721999998842,1.81939783662166,1.96930000005788,1.57708139044163,1.50718124799287,1.5068978451025,1.50315396828331,1.49996677764919,1.62358422301069,1.62376109265308,1.83008722609794,1.82963046137713,1.82474986640625,1.43912511044508,1.42295135749912,1.42269943339612,1.41668787345221,1.44141540427749,1.49492992344585,1.55766593811793,1.62397000008661,1.43158831372414,1.41057009198491,1.3334074342859,1.30892816173402,1.32171494271208,1.32547944931439,1.38421216774532,1.45772056799242,1.37839435093466,1.35962704235312,1.35822491659606,1.35970522221251,1.35644172878216,1.34863557215703,1.40744385034694,1.51421000010344,1.42393447337661,1.36100452038362,1.36686017251345,1.36027195976998,1.3532332299518,1.31845996835787,1.38631191381161,1.58176614918862,1.58328889470769,1.65849000009085,1.47023652690463,1.39986005549806,1.34174912316556,1.33308680915692,1.38877828215429,1.4135096039463,1.45856618966809,1.47804023386215,1.46283906165218,1.36036170238935,1.32474608014225,1.32621529122942,1.32653220845296,1.34694042198645,1.37530234060487,1.37359970341842,1.35442979757342,1.29567247947331,1.29813080484333,1.29544846592064,1.34991163535118,1.43519062744743,1.43135721079611,1.4780799999917,1.4967575247302,1.56171089458861,1.39205092071348,1.32270092511649,1.34295586492518,1.341509278173,1.45121327252879,1.44799907554677,1.54849888408027,1.71374000011576,1.64504043418133,1.52640649815326,1.48018750752321,1.47886859751393,1.50377811170156,1.53788638600212,1.63342517672286,1.84134259191891,1.8289095887892,1.82047514447339,1.51857100323892,1.42203896313414,1.28606048598392,1.23263130000369,1.20388170874174,1.175766813532,1.1693264893655,1.16674140643541,1.17426859601905,1.18946808402081,1.17169624336233,1.13480861445427,1.17472767391395,1.17463085225604,1.19640159093471,1.22167200502376
1.59175982991119,1.90889831261492,1.69220290556863,1.67829996553572,1.56327152084236,1.52608904438463,1.53867594436057,1.55337151184698,1.62091532808874,1.77215366946184,1.6091892649595,1.57987545774489,1.57576849062084,1.61560902331611,1.61396900413198,1.63095973243133,1.68847229693051,1.7082506217921,1.68569735956487,1.61561363442793,1.65659108265245,1.67535002365619,1.71350936473034,1.88110898998809,1.9220856044607,1.9653077937293,1.98983954875994,2.01832975176856,1.73405433627558,1.75525823225994,1.74222462772627,1.78909335824318,1.78716341420638,1.81064840820448,1.845736460402,1.97776056029927,1.78223858470121,1.57447277663768,1.56383035927438,1.48755999990616,1.53663259643506,1.54083431340598,1.59846822826622,1.63518000004,1.59187305371943,1.59040629886298,1.55387086402646,1.54806832920785,1.54645152897786,1.54287041010158,1.54969261510108,1.55443030897607,1.56618553262418,1.58663017291599,1.59061283689372,1.60656067456554,1.65514182662657,1.78399625893511,1.78797546318591,1.97184333343697,1.6365942666521,1.64036453797522,1.60669074223911,1.59745995438012,1.63228367695522,1.72180500857524,1.72069355293255,1.56956999988417,1.86283774504057,1.99384772405304,1.98199426153584,2.03880000011576,1.58206106183408,1.49029755249208,1.48989468541658,1.46711903796232,1.49416048198473,1.51587104973487,1.5988094840839,1.87119000005788,1.86138870863099,1.87301000010524,1.43757243260533,1.44007100887781,1.42297494558682,1.39336986218596,1.44157804801152,1.5606718213048,1.56055694477492,1.65127000008704,1.42596027191165,1.32570683875601,1.32414137096941,1.32090413920213,1.31975429225926,1.38577833322002,1.38457440700729,1.43652868705343,1.38007493835817,1.38075641531322,1.37629942855182,1.38357335693288,1.35339218670957,1.35262778310532,1.40717469003488,1.40991439383835,1.40846676169655,1.40456499126996,1.37184467661195,1.35830376863989,1.35575171068345,1.37156123595135,1.3869912153789,1.5823715590615,1.58235233731919,1.62574000270759,1.48584825353563,1.41208007282512,1.33974957111349,1.3229822590838,1.38877669721954,1.4412662066777,1.45571026095963,1.72028000011576,1.46386461211187,1.35801545785741,1.32634152161341,1.30934843198924,1.32691967878288,1.32428527753494,1.37699053500788,1.38686876348431,1.3418044234772,1.32598852542674,1.31115059677261,1.30544464775582,1.34875671385348,1.41620996419074,1.4302813111877,1.53472573000666,1.52803436122932,1.54757911010359,1.38808689886271,1.32039372018635,1.34425095068185,1.3535978349133,1.45170377341904,1.49995000000347,1.5374107766927,1.62939444400632,1.63736349515514,1.65145000012352,1.48548333811271,1.48944224602721,1.5100633373935,1.83424000011576,1.80222345367764,1.83081209494684,1.83096780364429,1.84116711772905,1.83793457721607,1.86456000007365,1.30723040872944,1.22378964384285,1.21327120256517,1.15368049396805,1.1660868451222,1.16274878332931,1.1757227560475,1.17659094314835,1.17978725604051,1.17853854755437,1.1770398244263,1.20082035675603,1.21139775237956,1.22052355762737
1.62313521292613,1.88932960268421,1.71236491804944,1.75022000012032,1.5560026667926,1.5521856566015,1.53521586443255,1.53389339426999,1.61904569279018,1.7779463307118,1.60255779187277,1.54839780773564,1.56697886907382,1.57418880641131,1.61868268821003,1.64876008395872,1.68918228589205,1.68943575999382,1.6858729626605,1.61428695626182,1.62083257266868,1.61951052262176,1.68649785838473,1.93012000008267,1.92170696286396,1.98797620452632,1.98732429883234,2.00061808561088,1.72757295949237,1.65463999989252,1.73453081114609,1.78044557639129,1.78420500687637,1.82401091424172,1.83456767699603,1.96205943986547,1.7812095126775,1.57562473798451,1.57088237096749,1.53314668867474,1.55434916822691,1.5827516930415,1.60116436827956,1.92572000011576,1.59496362957256,1.55116919941162,1.54133237174187,1.50904058772035,1.53563685976825,1.55252937378593,1.57378859241929,1.65184157461809,1.64470367485783,1.63699225899097,1.64277178893964,1.64788877990236,1.66741018404156,1.76922942622713,1.79029849874317,2.00403008038814,1.63397146662524,1.63387052260536,1.60313069986208,1.59087453632291,1.59711344768457,1.6017666463729,1.71662545057699,1.99241449245025,1.99087571735657,1.98565300504757,1.97674613959972,1.97404500963933,1.58870392289324,1.59501978497869,1.49074939788734,1.48154016497698,1.49156104644518,1.56572192355515,1.59150004789836,1.95567126081745,1.72920484491285,1.50785075006239,1.43641314544547,1.43949249429507,1.4235231296793,1.42356981276312,1.44146059864747,1.58475010325167,1.56012495534404,1.55945094291195,1.41964724851389,1.36033012543695,1.32153682459678,1.32110492701318,1.3185477381818,1.38502732266553,1.38454589800722,1.45092074507562,1.36933650536639,1.36834363772078,1.35947801374968,1.33899964377497,1.34506284240069,1.37829004162087,1.40444119695357,1.40221418312636,1.40661585185161,1.39913679905031,1.37688700584241,1.34379175713144,1.34360171261912,1.33402928913602,1.38729142622855,1.3878734136053,1.5812740460484,1.60805000198589,1.50236104317632,1.54735000008993,1.33853691707317,1.33837788493282,1.38938701409882,1.44109767947991,1.45309430671232,1.59937,1.46358572367981,1.34980430063572,1.32847498983397,1.3278408712895,1.32965318370075,1.37752092404085,1.37897817920214,1.38263024770011,1.33012845729919,1.32587238514949,1.31724902684781,1.34480012124025,1.34753686741522,1.36705018240928,1.43087317172269,1.5353084031844,1.52315227904336,1.51416162843523,1.3824110630723,1.32892223112385,1.3445978542805,1.35571802333139,1.45103069607696,1.5026300000596,1.52682576587181,1.70007000008201,1.58362630105857,1.50338858762031,1.48806828207359,1.46013326833984,1.51865791149858,1.55170999997438,1.80223599561729,1.83209633629421,1.83206397873422,1.83089525809556,1.83398690401709,1.83165488461831,1.33136835135791,1.24608940863584,1.21873105080182,1.17756170301354,1.17622554208434,1.17487409617649,1.17883375636023,1.20164150833057,1.18326070382636,1.15426852015447,1.17699437140183,1.22573928678063,1.21476322631553,1.20512174024959
