0.86424, 0.863291, 0.862482, 0.867859, 1.05683, 1.05535, 1.01892, 0.865192, 0.866542, 0.866583, 0.863418, 0.862792, 0.862858, 0.860479, 0.857654, 0.856705, 0.856839, 0.847962, 0.842393, 0.841719, 0.841511, 0.840327, 0.83869, 0.838514, 0.839662, 0.839098, 1.04236, 1.03916, 0.870251, 0.852053, 0.850616, 1.07964, 0.874146, 0.00415866, 0.0101676, 0.957854, 0.84661, 0.848984, 0.0103831, 1.00044, 0.871578, 0.870712, 1.00985, 0.881796, 0.831771, 0.830439, 0.829914, 0.838872, 0.838707, 0.8397, 0.842454, 0.842807, 0.842486, 0.839213, 0.840531, 0.839737, 0.839866, 0.838756, 0.839973, 0.839673, 0.838664, 0.837008, 0.835002, 0.850584, 0.956426, 0.95683, 0.855948, 0.848924, 0.876798, 0.974352, 0.796557, 0.796763, 0.791667, 0.786842, 0.786822, 0.78592, 0.788198, 0.788383, 0.789904, 0.7909, 0.787442, 0.786532, 0.785494, 0.781696, 0.781188, 0.781877, 0.781858, 0.772982, 0.773662, 0.773789, 0.767714, 0.767923, 0.767023, 0.768087, 0.766869, 0.771019, 0.771245, 0.784171, 0.784305, 0.783378, 0.779755, 0.78014, 0.770602, 0.771364, 0.770896, 0.77087, 0.766382, 0.76529, 0.764973, 0.762886, 0.763158, 0.980731, 1.34303, 0.755263, 0.755568, 0.999884, 0.0106231, 0.0105416, 1.0193, 0.866326, 0.821925, 0.805355, 0.815483, 0.813445, 1.00879, 0.887382, 0.92559, 0.762315, 0.763331, 0.76358, 0.969588, 0.752513, 0.752646, 0.752535, 0.967817, 0.967625, 0.890393, 0.991977, 0.847615, 0.73944, 0.739689, 0.732889, 0.732998, 0.733236, 0.733689, 0.72894, 0.728169, 0.72446, 0.723715, 0.728756, 0.729374, 0.728689, 0.727131, 0.731221, 0.735726, 0.741453, 0.738236, 0.738338, 0.709442, 0.709983, 0.710374, 0.888505, 0.713907, 0.714008, 0.925183, 0.699365, 0.69864, 0.752406, 0.697335, 0.697781, 0.697492, 0.70741, 0.70854, 0.73347, 0.738722, 0.736897, 0.710856, 0.71416, 0.712329, 0.715758, 0.995641, 0.721038, 0.721586, 0.727925, 0.728614, 0.7284, 0.714225, 0.713278, 0.717038, 0.717001, 0.715789, 0.709411, 0.89072, 0.694746, 0.70094, 0.00390831, 0.675139, 1.06119, 0.668386, 0.666994, 0.667935, 0.669058, 0.669635, 0.670678, 0.671234, 0.671207, 0.66774, 0.669007, 0.660153, 0.659804, 0.659878, 0.653998, 0.65411, 0.654687, 0.649936, 0.648652, 0.649229, 0.645615, 0.641603, 0.6403, 0.639042, 0.633795, 0.633049, 0.621593, 0.623508, 0.622804, 0.623569, 0.621909, 0.62119, 0.617268, 0.611139, 0.712046, 0.59876, 0.762389, 0.590285, 0.694748, 0.579191, 0.578466, 0.57616, 0.572487, 0.570277, 0.570987, 0.57225, 0.572406, 0.565864, 0.564812, 0.562873, 0.563471, 0.562481, 0.562108, 0.559035, 0.553602, 0.553549, 0.551993, 0.549964, 0.55223, 0.551507, 0.537669, 0.538528, 0.538543, 0.539339, 0.539707, 0.537913, 0.537587, 0.534298, 0.533667, 0.534116, 0.549391, 0.551153, 0.551767, 0.550836, 0.819879, 0.81599, 0.629712, 0.0108231, 0.0105633, 0.0100969, 0.513859, 0.514138, 0.516944, 0.517801, 0.518407, 0.518171, 0.517886, 0.504938, 0.506052, 0.51096, 0.511533, 0.512858, 0.514022, 0.515748, 0.515147, 0.515518, 0.514492, 0.514159, 0.514262, 0.514244, 0.502372, 0.501046, 0.0104668
0.867782, 0.86702, 0.867406, 0.868198, 0.869912, 0.875915, 0.871492, 0.870885, 0.941295, 0.86645, 0.866038, 0.863979, 0.863665, 0.861717, 0.856287, 0.980391, 0.851674, 0.848618, 0.847567, 0.844303, 0.843093, 0.840433, 0.840156, 0.840278, 0.839902, 0.846596, 0.846794, 0.847615, 0.869175, 0.854886, 0.855075, 1.02325, 1.11257, 0.010502, 0.0103332, 1.02848, 1.01527, 1.23049, 0.891177, 0.998456, 0.872684, 0.881281, 1.2223, 0.987498, 0.831597, 0.830775, 0.830922, 0.838442, 0.838569, 0.899414, 1.09216, 0.840232, 0.838651, 0.838569, 0.841035, 0.839928, 0.838518, 0.83421, 0.838604, 0.837913, 0.838867, 0.835978, 0.834198, 0.833236, 0.83362, 0.857197, 0.858167, 0.815829, 0.81595, 0.815893, 0.981516, 1.10096, 0.929024, 1.00985, 0.789975, 0.790114, 0.789843, 0.790135, 0.790323, 0.788624, 0.783363, 0.783716, 0.782052, 0.782198, 0.782439, 0.781933, 0.781377, 0.776361, 0.774391, 0.773731, 0.773038, 0.771415, 0.770189, 0.76988, 0.770026, 0.772685, 0.771996, 0.786379, 0.78503, 0.785475, 0.782244, 0.782502, 0.926042, 1.01249, 0.783303, 0.783619, 0.773144, 0.764969, 0.768978, 0.76343, 0.763481, 0.765159, 0.765721, 0.764339, 1.37528, 0.971085, 0.00403114, 0.794621, 0.806093, 0.807388, 0.805909, 0.806534, 0.809943, 0.812014, 0.800413, 0.866701, 0.826436, 0.764232, 0.763695, 0.763439, 0.934192, 0.745007, 0.74498, 0.766015, 0.894327, 0.970371, 0.891171, 0.881929, 0.974461, 0.742442, 0.739346, 0.738206, 0.736042, 0.735304, 0.734174, 0.936007, 1.24625, 0.729495, 0.730586, 1.08107, 0.732197, 0.732733, 0.731772, 0.731504, 0.731557, 0.73455, 0.738982, 0.738439, 0.739433, 0.738436, 0.877171, 0.878115, 0.71627, 0.716682, 0.71711, 0.782052, 0.708588, 0.709232, 0.697065, 0.700628, 0.7067, 0.707357, 0.709777, 1.02569, 0.736751, 0.737271, 0.736932, 0.716246, 0.717753, 1.16092, 0.946227, 0.72249, 0.960052, 0.728996, 0.732818, 0.91415, 0.713575, 0.713722, 0.713711, 0.71013, 0.708985, 0.708053, 0.702251, 0.702817, 0.694995, 0.0103275, 1.27248, 0.679516, 0.751149, 0.665013, 0.669667, 0.668946, 0.669131, 0.669586, 0.670065, 0.669175, 0.66661, 0.666406, 0.663604, 0.659439, 0.660448, 0.659687, 0.654134, 0.653286, 0.649453, 0.649151, 0.648484, 0.64629, 0.640727, 0.639137, 0.635433, 0.634221, 0.632105, 0.629862, 0.623744, 0.623834, 0.623926, 0.619946, 0.618314, 0.611748, 0.610731, 0.60653, 0.598077, 0.760976, 0.920584, 0.587109, 0.68424, 0.58017, 0.575433, 0.569617, 0.571424, 0.570625, 0.568214, 0.568797, 0.565678, 0.56548, 0.565022, 0.564581, 0.562875, 0.561212, 0.559885, 0.552013, 0.55367, 0.548904, 0.549151, 0.54918, 0.550031, 0.543883, 0.542324, 0.53793, 0.538486, 0.538836, 0.538671, 0.53615, 0.535221, 0.532523, 0.53271, 0.549325, 0.551676, 0.549613, 0.54831, 0.818326, 0.818095, 0.0102413, 0.00363221, 0.522169, 0.522018, 0.51154, 0.513728, 0.515699, 0.517146, 0.517583, 0.51731, 0.5171, 0.504699, 0.506667, 0.506839, 0.509795, 0.51044, 0.512035, 0.512395, 0.513585, 0.511831, 0.512449, 0.512724, 0.512942, 0.511049, 0.499206, 0.498646, 0.0100462
0.92849, 0.867957, 0.867584, 0.86718, 0.867036, 0.86764, 0.870447, 0.87106, 0.870973, 0.872004, 0.871522, 0.873254, 0.97279, 0.983493, 0.873279, 0.882021, 0.988669, 0.845866, 0.844113, 0.843375, 0.841888, 0.839837, 0.841831, 0.838479, 0.839345, 0.846703, 0.846016, 0.846963, 0.850858, 0.853579, 0.854273, 0.853473, 0.0109186, 0.00396147, 1.0294, 0.953539, 1.00889, 1.03291, 1.06271, 0.871037, 0.886323, 0.884922, 0.845168, 0.978572, 0.832151, 0.831096, 0.830004, 0.832788, 0.960432, 0.873, 0.836814, 0.83782, 0.837484, 0.836758, 0.836042, 0.836136, 0.832707, 0.831468, 0.835603, 0.836039, 0.835041, 0.834457, 0.832163, 0.83183, 0.829861, 0.826689, 0.863317, 0.815862, 0.814597, 0.812914, 0.806275, 0.808073, 0.799276, 0.799968, 0.78898, 0.791917, 0.791512, 0.788792, 0.78857, 0.787319, 0.780771, 0.779735, 0.778432, 0.780403, 0.780456, 0.78019, 0.776755, 0.776807, 0.773882, 0.77479, 0.773901, 0.771826, 0.771338, 0.770829, 0.770761, 0.775395, 0.783986, 0.785238, 0.786077, 0.784372, 0.784843, 0.781434, 0.781456, 0.781772, 0.781317, 0.781212, 0.779412, 0.774521, 0.77315, 0.935199, 0.953943, 0.764795, 0.769483, 0.955267, 1.18398, 0.781, 0.783085, 0.791828, 0.805122, 0.805897, 0.805903, 0.804512, 0.80469, 0.805306, 1.02879, 0.956312, 0.836963, 0.767034, 0.769102, 0.765469, 0.87539, 0.745533, 0.744785, 0.802782, 0.973594, 0.90464, 0.873806, 0.774993, 1.05662, 0.84262, 0.745077, 0.736548, 0.96224, 0.955689, 0.955591, 0.739244, 0.739084, 1.05728, 0.728893, 0.981952, 0.984983, 0.731954, 0.733655, 0.73181, 0.730423, 0.730078, 0.733205, 0.738194, 0.739982, 0.740278, 0.740387, 0.869648, 0.720045, 0.719188, 0.720385, 0.720958, 0.718095, 0.71921, 0.700061, 0.698358, 0.701106, 0.708782, 0.708941, 0.711482, 0.71392, 0.742283, 0.736091, 0.73464, 0.724518, 0.724498, 0.723227, 0.724401, 0.725247, 0.729079, 0.730646, 0.0104897, 0.711586, 0.711375, 0.710655, 0.710338, 0.709453, 0.708039, 0.702473, 0.701891, 0.699474, 0.833084, 0.832318, 1.27716, 0.677886, 0.677018, 0.672672, 0.669997, 0.668609, 0.668243, 0.670876, 0.669802, 0.669139, 0.66757, 0.663173, 0.658059, 0.658854, 0.65913, 0.653018, 0.652678, 0.646956, 0.646569, 0.646571, 0.643086, 0.641322, 0.635746, 0.635805, 0.631467, 0.630234, 0.628485, 0.624727, 0.624109, 0.621889, 0.619453, 0.615937, 0.614326, 0.605013, 0.604884, 0.603984, 0.594361, 0.759337, 0.589526, 0.627506, 0.579201, 0.579566, 0.570465, 0.569449, 0.569195, 0.567216, 0.567819, 0.565724, 0.565627, 0.564734, 0.563922, 0.56051, 0.560532, 0.559858, 0.557013, 0.558016, 0.553513, 0.549569, 0.549535, 0.550516, 0.546913, 0.543946, 0.536368, 0.538115, 0.538011, 0.536306, 0.53531, 0.531731, 0.532465, 0.532698, 0.536097, 0.548453, 0.548214, 0.548455, 0.546509, 0.54558, 0.00397291, 0.0102519, 0.521607, 0.519933, 0.511574, 0.513896, 0.514343, 0.51616, 0.517088, 0.517153, 0.516456, 0.504384, 0.505495, 0.506636, 0.507735, 0.508404, 0.509022, 0.510766, 0.510737, 0.511915, 0.511673, 0.513294, 0.513957, 0.504801, 0.505145, 0.504076, 0.497985
1.0019, 0.870104, 0.866336, 0.869515, 0.870122, 0.870774, 0.870476, 0.870638, 0.874249, 0.874228, 0.876934, 0.876423, 0.875998, 0.879107, 0.00374772, 1.05688, 1.06417, 1.21945, 0.846065, 0.845127, 0.844737, 0.839233, 0.842338, 0.840318, 0.839493, 0.843622, 0.846512, 0.846504, 0.850715, 0.854122, 0.854825, 0.854684, 0.0104963, 0.87437, 0.875051, 1.06394, 0.99563, 1.06553, 0.873385, 0.871298, 0.00407169, 0.887053, 0.992085, 0.824624, 0.82432, 0.824935, 0.831588, 0.83414, 0.00382199, 1.14288, 0.893833, 0.835672, 0.835572, 0.836003, 0.919966, 0.919198, 0.830337, 0.829191, 0.832505, 0.834236, 0.832063, 0.828561, 0.829947, 0.829493, 0.829175, 0.829313, 0.818399, 0.819304, 0.863101, 0.944091, 0.943348, 0.936105, 0.803483, 0.801165, 0.924977, 0.795343, 0.795091, 0.0101693, 0.951223, 0.781208, 0.78166, 0.778322, 0.778457, 0.777038, 0.77651, 0.777146, 0.777244, 0.776838, 0.775795, 0.775485, 0.775371, 0.774976, 0.774014, 0.776164, 0.776807, 0.779993, 0.865271, 0.787333, 0.788025, 0.787774, 0.788936, 0.787911, 0.784415, 0.784763, 0.783189, 0.783619, 0.781108, 0.78027, 0.777495, 0.776493, 0.77725, 0.776604, 0.778363, 1.16049, 0.780882, 0.780968, 0.781226, 0.781722, 0.805151, 0.804741, 0.805367, 0.805009, 0.804478, 0.85387, 0.854193, 0.819763, 1.017, 0.767257, 0.767888, 0.76383, 0.762805, 0.764037, 0.926342, 0.926123, 0.97164, 0.90292, 0.877978, 0.837829, 0.866863, 0.888056, 0.890231, 0.957345, 0.744214, 0.744431, 0.740648, 0.739033, 0.739075, 0.739162, 0.945421, 1.07006, 1.07772, 0.733047, 0.732928, 0.855973, 0.729884, 0.730057, 0.978957, 0.735546, 0.735476, 0.740789, 0.741275, 0.975728, 0.72546, 0.721108, 0.721799, 0.721226, 0.719698, 0.719295, 0.719189, 0.929294, 0.708044, 0.710912, 0.709754, 0.709892, 0.714117, 0.717245, 0.719545, 0.725071, 0.725332, 0.72551, 0.725838, 0.725855, 0.725928, 0.730377, 0.730913, 0.0100296, 0.925921, 0.921716, 0.710142, 0.708671, 0.711022, 0.706014, 0.702989, 0.70047, 0.700349, 0.695041, 0.693713, 0.970359, 0.746531, 0.681205, 0.681503, 0.67406, 0.674268, 0.669563, 0.669392, 0.670083, 0.669232, 0.668756, 0.662457, 0.670521, 1.13872, 1.13685, 0.6667, 0.0040914, 0.874202, 0.874107, 0.0100122, 0.638626, 0.63583, 0.635967, 0.631582, 0.631619, 0.631028, 0.62868, 0.624924, 0.62389, 0.624193, 0.621528, 0.616568, 0.614576, 0.609279, 0.605093, 0.605461, 0.759931, 0.594485, 0.629607, 0.579898, 0.580232, 0.580172, 0.0104854, 0.568431, 0.568733, 0.568094, 0.567575, 0.564517, 0.565583, 0.565504, 0.562444, 0.560541, 0.560963, 0.561417, 0.560095, 0.557153, 0.554079, 0.550214, 0.551396, 0.551633, 0.546586, 0.547163, 0.541422, 0.541509, 0.539671, 0.536328, 0.535473, 0.535717, 0.534045, 0.533063, 0.534406, 0.533439, 0.547686, 0.547954, 0.547716, 0.546222, 0.545173, 0.818319, 0.0102077, 0.0036687, 0.518107, 0.514061, 0.513559, 0.517128, 0.517533, 0.517426, 0.515849, 0.497535, 0.49865, 0.498332, 0.49705, 0.00392336, 0.908332, 0.00367218, 0.511409, 0.513528, 0.514152, 0.514257, 0.513703, 0.514049, 0.506692, 0.504459, 0.497847
0.00995953, 0.871596, 0.87225, 0.871282, 0.874198, 0.876604, 0.876728, 0.87786, 0.878387, 0.877719, 0.876741, 0.877004, 0.877541, 0.877681, 0.877934, 1.09224, 1.08362, 1.08504, 0.846333, 0.846348, 0.845446, 0.845245, 0.84394, 0.842434, 0.841488, 0.840756, 0.84933, 0.848052, 0.84607, 0.855955, 0.855692, 0.85941, 0.877453, 0.875755, 0.875707, 0.875726, 1.02836, 0.00372818, 0.00417791, 0.880302, 1.212, 0.892853, 0.893678, 0.824832, 0.825557, 0.82604, 0.988238, 0.0105317, 0.891667, 0.904689, 0.0105563, 0.886034, 0.829417, 0.967949, 0.829955, 0.916027, 0.831236, 0.82904, 0.828917, 0.835078, 0.829418, 0.829813, 0.830331, 0.831578, 0.83326, 0.834081, 1.02841, 0.822939, 0.82333, 0.952507, 0.95264, 0.93555, 0.805041, 0.800771, 0.799352, 0.800729, 0.799039, 0.798978, 1.12964, 1.12879, 0.959793, 0.779182, 0.77821, 0.77743, 0.777473, 0.778255, 0.778785, 0.778611, 0.776581, 0.778045, 0.77621, 0.776279, 0.777349, 0.781446, 0.780622, 0.780711, 0.87753, 0.788386, 0.79028, 0.790589, 0.79164, 0.789762, 0.788685, 0.788117, 0.790552, 0.788213, 0.788203, 0.786283, 0.785486, 0.784893, 0.784381, 0.780517, 0.780466, 0.781674, 0.783461, 0.784362, 0.784793, 0.942808, 0.794127, 0.793868, 0.795294, 0.80545, 0.805718, 1.0022, 1.04842, 0.9078, 0.0104893, 0.769838, 0.77018, 0.771044, 0.769206, 0.85976, 0.919844, 0.952905, 0.952637, 0.949428, 0.859042, 0.852308, 0.814168, 0.971153, 0.887434, 1.02036, 0.958021, 0.746196, 0.745813, 0.742549, 0.741041, 0.742278, 1.07059, 1.08096, 0.748771, 0.748802, 0.748877, 0.749258, 1.04274, 1.04487, 1.0461, 1.0825, 0.740288, 0.741629, 0.741842, 0.730078, 0.731352, 0.731136, 0.722899, 0.722008, 0.722198, 0.721313, 0.718974, 0.931955, 0.710358, 0.711937, 0.711925, 0.713065, 0.714263, 0.720613, 0.720732, 0.722173, 0.728389, 0.727915, 0.727423, 0.729549, 0.731586, 0.732196, 0.743358, 0.736863, 0.755791, 0.979919, 0.0104072, 0.714106, 0.713377, 0.714326, 0.70395, 0.703812, 0.704934, 0.705439, 0.693667, 0.696236, 1.19528, 0.683833, 0.683161, 0.6823, 0.681183, 0.672278, 0.673296, 0.672985, 0.672514, 1.00183, 1.0134, 0.67465, 0.9967, 0.995597, 0.670221, 0.00409802, 0.859323, 0.87788, 0.878189, 1.04739, 0.636283, 0.638245, 0.636405, 0.633916, 0.631967, 0.631328, 0.625913, 0.626045, 0.62253, 0.621644, 0.621894, 0.617554, 0.612735, 0.607051, 0.604885, 0.601298, 0.601005, 0.629846, 0.589922, 0.582275, 0.581599, 0.00383577, 0.783403, 0.567624, 0.569739, 0.569633, 0.566694, 0.567053, 0.566501, 0.565716, 0.564183, 0.562252, 0.561914, 0.55892, 0.559283, 0.555471, 0.555363, 0.553767, 0.552599, 0.549838, 0.549816, 0.543648, 0.543591, 0.536143, 0.53771, 0.538179, 0.538239, 0.53651, 0.537575, 0.535924, 0.534619, 0.535518, 0.548304, 0.548216, 0.542808, 0.543345, 0.5444, 0.00380218, 0.525699, 0.513502, 0.513688, 0.514827, 0.515233, 0.516937, 0.516743, 0.515335, 0.0103753, 0.500636, 0.501801, 0.495294, 0.496586, 0.496501, 0.0166499, 0.513451, 0.514638, 0.516192, 0.516066, 0.515935, 0.515121, 0.508806, 0.507268, 0.0105265
0.971174, 1.01129, 0.878275, 0.87763, 0.87586, 0.875412, 0.877657, 0.878797, 0.880047, 0.877455, 0.880929, 0.880367, 0.883715, 0.885714, 0.885241, 0.884841, 0.962163, 0.90067, 0.971068, 0.853142, 0.85302, 0.84992, 0.845585, 0.843508, 0.842024, 0.841889, 0.842245, 0.849239, 0.847315, 0.846168, 0.900737, 0.901458, 0.869976, 0.877285, 0.87509, 0.873939, 0.875246, 0.0105297, 0.0101681, 0.885422, 0.868363, 0.878098, 0.965987, 0.891336, 1.00443, 0.821323, 0.816858, 0.816399, 0.00408685, 0.911255, 0.90845, 0.0104688, 0.00406453, 0.901014, 0.916791, 0.830276, 0.831584, 0.831751, 0.909338, 0.89341, 0.831548, 0.831504, 0.832604, 0.835004, 0.834851, 0.834229, 0.855782, 0.823786, 0.828128, 0.971579, 0.00415158, 0.0105436, 0.804881, 0.804812, 0.800958, 0.800276, 0.802654, 0.80235, 1.1812, 1.21982, 0.00370987, 1.11133, 0.777258, 0.777627, 0.778481, 0.778759, 0.808602, 0.811118, 0.780926, 0.782137, 0.779871, 0.780115, 0.779424, 1.06215, 0.780756, 0.787535, 0.787426, 0.958505, 0.794691, 0.0106094, 0.0038579, 0.789205, 0.789805, 0.915655, 0.792654, 0.792826, 0.791804, 0.789909, 0.78913, 0.785841, 0.787062, 0.787536, 0.787937, 0.787499, 0.78451, 0.888363, 0.790704, 1.04745, 0.797392, 0.796907, 0.795694, 0.802433, 0.804178, 0.804002, 0.803125, 0.898371, 0.974889, 0.780337, 0.776513, 0.776432, 0.776117, 0.859899, 0.916211, 0.92016, 0.91955, 0.838702, 0.845875, 0.84358, 0.77503, 0.980594, 0.86749, 0.961033, 0.959299, 0.748051, 0.748324, 0.746837, 0.743634, 0.744583, 0.746347, 0.74672, 0.753738, 0.752365, 0.750765, 0.750159, 0.964014, 0.856809, 1.04731, 1.04839, 0.975714, 0.880817, 0.977191, 0.909241, 0.853026, 0.929173, 1.09463, 0.912466, 0.721786, 0.722504, 0.721841, 0.729117, 0.728513, 0.719056, 0.720711, 0.713341, 0.716524, 0.720433, 0.721951, 0.72386, 0.728131, 0.729428, 0.735501, 0.735815, 0.733222, 0.735927, 0.737205, 0.737002, 0.737742, 0.737506, 1.0137, 0.718951, 0.718351, 0.716007, 0.715027, 0.706483, 0.707369, 0.706357, 0.696235, 0.697034, 0.697252, 0.68365, 0.683959, 0.683397, 0.682912, 0.680544, 0.676601, 0.676041, 0.674427, 0.679612, 0.679516, 0.722612, 0.676179, 0.674556, 0.672717, 0.773246, 0.857453, 0.976777, 0.961066, 0.636742, 0.636527, 0.632114, 0.634446, 0.632218, 0.631907, 0.631273, 0.630958, 0.625657, 0.623782, 0.623845, 0.620223, 0.619951, 0.610756, 0.610319, 0.604554, 0.600396, 0.603131, 0.601596, 0.584223, 0.58464, 0.583932, 0.581695, 0.574813, 0.575423, 0.573151, 0.570846, 0.570049, 0.56695, 0.56679, 0.565913, 0.564483, 0.563669, 0.557716, 0.558423, 0.559985, 0.557892, 0.555588, 0.554791, 0.554116, 0.552554, 0.551883, 0.546399, 0.543899, 0.536862, 0.537813, 0.538271, 0.539734, 0.539896, 0.539638, 0.535611, 0.535976, 0.536192, 0.538116, 0.539355, 0.544135, 0.544709, 0.544919, 0.0100916, 0.00384286, 0.0105427, 0.514767, 0.515158, 0.51622, 0.517691, 0.517413, 0.511304, 0.567242, 0.501201, 0.493924, 0.494329, 0.495521, 0.500189, 0.497861, 0.512037, 0.513521, 0.51572, 0.515369, 0.514465, 0.516735, 0.0105471, 0.00380957, 0.0107823
0.901573, 0.978413, 0.883628, 1.01578, 0.877026, 0.876941, 0.961201, 0.883398, 0.88018, 0.879733, 0.882865, 0.883333, 0.884049, 0.885701, 0.88532, 0.977849, 0.894974, 0.884673, 0.967406, 0.852378, 0.851901, 0.85173, 0.845525, 0.844463, 0.84081, 0.842499, 0.843318, 0.846833, 0.845931, 0.846093, 0.88108, 0.00385574, 0.873762, 0.875021, 0.874876, 0.874851, 0.876834, 0.929126, 0.896008, 0.0038558, 0.88461, 0.904301, 0.903077, 1.1334, 0.898198, 0.818104, 0.813577, 0.812677, 0.812932, 0.812661, 0.8079, 0.807721, 0.966219, 0.818684, 0.0102233, 0.921621, 0.921552, 0.822689, 0.823801, 0.892119, 0.83151, 0.831451, 0.827094, 0.834874, 0.834269, 0.833638, 0.836211, 0.836682, 0.976349, 0.830619, 0.83043, 1.11664, 0.805529, 0.8054, 0.801616, 0.801886, 0.803071, 0.802868, 1.15149, 1.23283, 1.25437, 0.967118, 0.934192, 0.931988, 1.09578, 1.13895, 1.13952, 1.12813, 0.783465, 0.784016, 0.784102, 0.779657, 0.779993, 0.780167, 0.0170386, 0.00392547, 1.08157, 0.94105, 0.795919, 0.796933, 0.803576, 0.804796, 0.859974, 0.804048, 0.796364, 0.793943, 0.793769, 0.793891, 0.790826, 0.788956, 0.787628, 0.787726, 0.786758, 0.790751, 0.793612, 1.08403, 0.969627, 1.04103, 0.891759, 0.864276, 0.797004, 0.805151, 0.804205, 0.804107, 0.798703, 0.797224, 0.80097, 0.781298, 0.77699, 0.7782, 0.778948, 0.857773, 1.01929, 0.914407, 0.829484, 0.867497, 1.05173, 0.774813, 0.775348, 0.775431, 0.777081, 0.763979, 0.764539, 0.763147, 0.925779, 0.747358, 0.745009, 0.745268, 0.745333, 0.747885, 0.753577, 0.753682, 0.755034, 0.783809, 0.784478, 0.828939, 0.785267, 0.877685, 1.19076, 0.977343, 1.31139, 0.864286, 0.8976, 0.752959, 0.916212, 0.867024, 0.864726, 0.730023, 0.729041, 0.731491, 0.732796, 0.732056, 0.734955, 0.831759, 1.00516, 0.721273, 0.724135, 0.723564, 0.72502, 0.727508, 0.729945, 0.740063, 0.741658, 0.742005, 0.736748, 0.737161, 0.737268, 0.736324, 0.73592, 0.71781, 0.71754, 0.718344, 0.709574, 0.708753, 0.706756, 0.703872, 0.704114, 0.696769, 0.696567, 0.697162, 0.681261, 0.681262, 0.682915, 0.681127, 0.680165, 0.675697, 0.676182, 0.677806, 0.678303, 0.676609, 0.675349, 0.847217, 0.908066, 0.673632, 0.0104282, 0.90749, 0.0102428, 0.636305, 0.63614, 0.634059, 0.632561, 0.63301, 0.633281, 0.630921, 0.626404, 0.625784, 0.624061, 0.621687, 0.619275, 0.618686, 0.612596, 0.609731, 0.605731, 0.601799, 0.601452, 0.598906, 0.592666, 0.583678, 0.584083, 0.0106042, 0.575872, 0.576232, 0.573, 0.573626, 0.573704, 0.572866, 0.568873, 0.566979, 0.565052, 0.564091, 0.559734, 0.560315, 0.558262, 0.557874, 0.55362, 0.554691, 0.554593, 0.554008, 0.552626, 0.551554, 0.541927, 0.537093, 0.537856, 0.540437, 0.543351, 0.543711, 0.543932, 0.538674, 0.536603, 0.53798, 0.535109, 0.53789, 0.54459, 0.545732, 0.545276, 0.544805, 0.58433, 0.584645, 0.516901, 0.513291, 0.514988, 0.514854, 0.50773, 0.508697, 0.509012, 0.712719, 0.493869, 0.494815, 0.496425, 0.495278, 0.495449, 0.770235, 0.504637, 0.511442, 0.00996501, 0.00358534, 0.508095, 0.520558, 0.00968836, 0.526198
0.897501, 1.02495, 0.885522, 0.886048, 0.894512, 0.894009, 0.958839, 0.885281, 0.880904, 0.881545, 0.883396, 0.883564, 0.884184, 0.885741, 0.884665, 0.883979, 0.965051, 0.870165, 0.86711, 0.853142, 0.85169, 0.851589, 0.846534, 0.843918, 0.84297, 1.06612, 1.06735, 0.841409, 0.840681, 0.846303, 1.01619, 1.01576, 0.87439, 0.874205, 0.874504, 0.875822, 1.03645, 0.880467, 0.880816, 0.887985, 0.010612, 0.90555, 1.0363, 1.12962, 0.00372147, 0.821003, 0.814388, 0.812588, 0.811669, 0.811309, 0.805725, 0.805999, 0.812563, 0.8108, 0.810588, 0.818424, 0.818401, 1.10548, 0.821921, 0.820491, 0.818217, 0.818142, 0.820425, 0.819964, 0.977934, 0.836044, 0.837641, 0.83724, 0.838455, 0.0104763, 0.0110777, 0.858984, 0.86046, 0.80168, 0.802665, 0.801859, 0.803528, 0.804781, 1.25438, 1.26034, 1.24799, 1.22088, 1.18137, 1.14687, 1.1094, 1.21668, 1.1469, 0.786967, 0.788258, 0.784068, 0.784058, 0.77787, 0.778447, 0.78272, 0.787228, 0.936197, 0.976641, 0.00989125, 0.802187, 0.816103, 0.804526, 0.804305, 0.804579, 0.803325, 0.804045, 0.79127, 0.792074, 0.794775, 0.797074, 0.791824, 0.789815, 0.78686, 0.785421, 0.787728, 1.03561, 0.874393, 0.95085, 1.07948, 1.03385, 1.03403, 0.858984, 0.807013, 0.805538, 0.804368, 0.799593, 0.798711, 1.03594, 0.943312, 0.783961, 0.898463, 1.00433, 1.06464, 0.913588, 0.914803, 0.904451, 0.831406, 0.925896, 0.811046, 0.774053, 0.775051, 0.760283, 0.76491, 0.762733, 0.762587, 0.76327, 0.958138, 0.747764, 0.745293, 0.745921, 0.747041, 0.751588, 0.754681, 0.755814, 0.755882, 0.783608, 1.04594, 0.756539, 0.757719, 0.760176, 0.90181, 0.981423, 0.77343, 0.812101, 0.752575, 0.751991, 0.867345, 0.864236, 0.839542, 0.728479, 0.732922, 0.732502, 0.733318, 0.731837, 0.731344, 0.733552, 0.733712, 0.724223, 0.724827, 0.724715, 0.724629, 0.725367, 0.726725, 0.832464, 0.743287, 0.742048, 0.736612, 0.736254, 0.734973, 0.733539, 0.890928, 0.716137, 0.716344, 0.713387, 0.707127, 0.705662, 0.702989, 0.702691, 0.695086, 0.696293, 0.694984, 0.681041, 0.682443, 0.68252, 0.681063, 0.813313, 0.672808, 0.672855, 1.02531, 0.676991, 0.676782, 0.67644, 0.674492, 0.672969, 0.674486, 0.673145, 0.0106622, 0.853013, 1.04362, 0.630881, 0.631651, 0.630947, 0.630958, 0.629768, 0.630685, 0.625727, 0.625862, 0.624126, 0.617855, 0.618252, 0.617886, 0.615219, 0.611506, 0.604507, 0.603643, 0.600134, 0.598844, 0.597169, 0.581433, 0.583147, 0.583154, 0.576015, 0.576062, 0.571787, 0.572524, 0.573294, 0.572456, 0.571778, 0.568496, 0.563618, 0.562888, 0.559064, 0.558696, 0.557612, 0.557019, 0.555218, 0.554581, 0.554234, 0.552027, 0.551615, 0.828441, 0.539567, 0.541275, 0.54174, 0.542751, 0.544072, 0.544235, 0.544446, 0.542046, 0.538862, 0.537284, 0.537516, 0.534905, 0.534968, 0.544865, 0.544841, 0.544637, 0.528115, 0.52829, 0.728822, 0.51237, 0.506091, 0.506673, 0.507394, 0.508803, 0.508581, 0.508616, 0.714018, 0.493983, 0.494655, 0.500856, 0.503608, 0.00992658, 0.503645, 0.503881, 0.505023, 0.50506, 0.512256, 0.484864, 0.486906, 0.485392
0.898287, 0.898272, 1.01573, 0.885662, 0.886916, 0.885601, 0.885213, 0.885359, 0.884512, 0.88425, 0.885181, 0.889241, 0.890684, 0.889617, 1.03388, 0.970701, 0.96683, 0.870283, 0.971074, 1.23273, 0.850655, 0.849966, 1.00405, 1.00902, 0.835351, 0.834259, 0.838989, 0.83893, 0.838992, 0.842508, 0.860752, 0.895044, 0.873481, 0.874484, 0.87488, 0.876818, 0.880517, 0.891248, 0.882321, 0.0105357, 0.0103922, 0.926559, 1.09105, 0.00371948, 0.922223, 0.821287, 0.820144, 0.821028, 0.814521, 0.805648, 0.805468, 0.805681, 0.805341, 0.808847, 0.809356, 1.12523, 0.818224, 0.81944, 0.819528, 0.819835, 0.81787, 0.817096, 0.818725, 0.81767, 0.817096, 0.957112, 0.835217, 0.836223, 0.838396, 0.83761, 0.00991869, 0.00413226, 0.990593, 0.804474, 0.802172, 0.803696, 0.803964, 0.804924, 0.803824, 1.20354, 1.25063, 1.20175, 1.2265, 0.808385, 0.822126, 1.19312, 0.793695, 0.791756, 0.79074, 0.787235, 0.785673, 0.780932, 0.781942, 0.781858, 0.78161, 0.946611, 1.01299, 0.801979, 0.803431, 0.80358, 0.804173, 0.806041, 0.804981, 0.804412, 0.803739, 0.882072, 0.791035, 0.798811, 0.796418, 0.796843, 0.795424, 0.793974, 0.794297, 0.794683, 0.801534, 0.812663, 0.946553, 0.81549, 1.04322, 0.817982, 0.818126, 0.815252, 0.811534, 0.804252, 0.801857, 1.00619, 1.00593, 0.914498, 0.994184, 0.857186, 1.07745, 1.03042, 0.910637, 0.905803, 0.859057, 0.925813, 0.932956, 0.933745, 0.782766, 1.10852, 0.760665, 0.762368, 0.762988, 0.762948, 0.763846, 0.967942, 0.748736, 0.746249, 0.746566, 0.746159, 0.747122, 0.747196, 0.755735, 0.755534, 1.06882, 0.755988, 0.757213, 0.758166, 0.758907, 0.759251, 0.758951, 0.758111, 0.75793, 0.75714, 0.757807, 0.773034, 0.773311, 0.85983, 0.958876, 0.732018, 0.732276, 0.733385, 0.732175, 0.732107, 0.734527, 0.73408, 0.732848, 0.723202, 0.724387, 0.725221, 0.725931, 0.72573, 0.728577, 0.741678, 0.73888, 0.735069, 0.735485, 0.732109, 0.0108616, 0.716825, 0.717459, 0.717464, 0.717548, 0.70845, 0.706932, 0.701047, 0.701571, 0.699925, 0.697012, 0.696954, 0.679567, 0.68091, 0.680171, 0.678874, 0.677658, 0.673128, 0.672428, 0.814451, 1.02885, 0.676094, 0.673076, 0.672653, 0.846211, 0.673116, 0.911461, 0.904253, 0.627406, 0.627738, 0.627745, 0.628148, 0.628563, 0.630987, 0.628959, 0.626946, 0.624746, 0.625233, 0.623302, 0.619162, 0.620031, 0.618319, 0.614434, 0.612053, 0.605087, 0.847745, 0.598419, 0.59764, 0.595411, 0.581587, 0.581948, 0.579902, 0.57923, 0.57594, 0.572872, 0.572088, 0.570892, 0.571581, 0.572277, 0.568004, 0.56245, 0.562122, 0.557872, 0.557923, 0.55718, 0.556479, 0.555681, 0.555439, 0.555548, 0.549476, 0.54999, 0.549505, 0.541649, 0.542367, 0.542759, 0.543359, 0.54361, 0.544448, 0.544324, 0.542687, 0.54148, 0.541403, 0.536377, 0.535727, 0.534611, 0.543217, 0.542437, 0.527609, 0.528231, 0.527568, 0.52722, 0.00405791, 0.50594, 0.507299, 0.508401, 0.508448, 0.508341, 0.510646, 0.0109021, 0.00393758, 0.503107, 0.502787, 0.503337, 0.503807, 0.506776, 0.508597, 0.506704, 0.505976, 0.505164, 0.659375, 0.486899, 0.485836
1.15004, 0.898798, 0.981814, 1.00079, 0.885924, 0.886535, 0.887054, 0.885885, 0.886328, 0.89173, 0.889204, 0.890255, 0.892587, 0.892768, 0.90726, 0.907413, 0.977797, 0.867343, 0.866799, 0.987743, 1.24349, 1.23621, 1.00776, 0.833866, 0.834198, 0.833967, 0.836793, 0.840034, 0.839901, 0.847382, 0.00387624, 0.887141, 0.877425, 0.87555, 0.876934, 0.884316, 0.883977, 0.883967, 0.88318, 1.1287, 0.0104806, 0.0106574, 0.910686, 0.00381423, 0.819736, 0.820204, 0.820521, 0.820466, 0.812126, 0.812397, 0.81223, 0.805806, 0.80709, 0.810264, 0.810924, 0.812828, 0.819699, 0.819812, 0.822235, 0.821634, 0.817922, 0.819236, 0.818119, 0.817154, 0.816882, 0.95755, 0.0105745, 0.839342, 0.839426, 0.839969, 0.840251, 0.833813, 1.2626, 1.26121, 0.806507, 0.805159, 0.805268, 0.806045, 0.806265, 0.806195, 0.904228, 0.907576, 0.794754, 0.794881, 0.792223, 0.791715, 0.792956, 0.793394, 0.791959, 0.790401, 0.782454, 0.782688, 0.783205, 0.783023, 0.781984, 0.828817, 0.795086, 1.1115, 0.804359, 0.805526, 0.805193, 0.825527, 0.802327, 0.811936, 0.811068, 0.807443, 0.802573, 0.800155, 0.794503, 0.795737, 0.796758, 0.796515, 0.795658, 0.796496, 0.813588, 0.814193, 0.814867, 0.81642, 0.816699, 0.818648, 0.819549, 0.819242, 0.810969, 0.81087, 0.806029, 0.797937, 1.00703, 0.90212, 0.794554, 0.793526, 0.793375, 0.948907, 0.912046, 0.799322, 0.799831, 0.800343, 1.06715, 0.0101005, 1.06718, 1.08092, 1.07653, 0.758095, 0.756368, 0.763586, 0.764603, 0.765246, 0.756263, 0.748728, 0.747969, 0.747408, 0.74878, 0.747537, 0.748397, 0.74953, 0.794145, 0.990481, 0.759265, 0.760512, 0.760558, 0.760217, 0.759661, 0.759665, 0.758317, 0.758402, 0.758638, 0.775523, 0.775472, 0.0107907, 0.953515, 0.880777, 0.974386, 0.878356, 1.03879, 0.732877, 0.734045, 0.735239, 0.736377, 0.737215, 0.738801, 0.726209, 0.726833, 0.728574, 0.730265, 0.735385, 0.736039, 0.73632, 0.733105, 0.0102465, 0.726225, 0.718718, 0.719375, 0.717118, 0.716393, 0.0101352, 0.818944, 0.700921, 0.700794, 0.699621, 0.762061, 0.835023, 0.704375, 1.19112, 0.679973, 0.679431, 0.679622, 0.674551, 0.82146, 0.667333, 0.67529, 0.677031, 0.819312, 0.672989, 0.00384621, 0.0107641, 0.00408163, 1.02969, 0.628894, 0.629319, 0.629127, 0.627995, 0.627713, 0.626161, 0.626782, 0.627787, 0.625424, 0.625626, 0.621185, 0.621684, 0.621201, 0.610904, 0.611548, 0.611686, 0.607006, 0.605928, 0.599405, 0.600506, 0.594271, 0.582793, 0.582968, 0.58019, 0.582033, 0.577034, 0.573892, 0.572655, 0.572078, 0.572542, 0.572944, 0.573833, 0.564651, 0.565769, 0.563693, 0.55857, 0.558404, 0.558925, 0.557875, 0.557469, 0.555849, 0.552864, 0.552049, 0.54119, 0.54171, 0.545334, 0.545149, 0.545685, 0.545777, 0.54493, 0.545587, 0.545573, 0.54286, 0.542581, 0.542053, 0.537771, 0.536519, 0.534392, 0.534038, 0.534541, 0.530343, 0.531309, 0.528629, 0.528791, 0.508122, 0.516822, 0.508039, 0.51823, 0.519203, 0.520405, 0.00363037, 0.581738, 0.504921, 0.505983, 0.505825, 0.50407, 0.51056, 0.511168, 0.510971, 0.507935, 0.00396405, 0.671548, 0.486664, 0.486533
1.05067, 0.994939, 1.01372, 0.888284, 0.887185, 0.887719, 0.888076, 0.887138, 1.0566, 0.893856, 0.894163, 0.894385, 0.894067, 0.894353, 0.907785, 1.16728, 0.86745, 0.868166, 0.867949, 0.951177, 1.00514, 0.866156, 1.00819, 0.833478, 0.83463, 0.835686, 1.1632, 0.842634, 0.843646, 0.846244, 0.87818, 1.03941, 1.05012, 1.13705, 0.880438, 0.884601, 0.885886, 0.886834, 1.34352, 1.13583, 0.910974, 0.860466, 0.847384, 0.00403175, 0.963148, 0.820844, 0.821402, 0.00392323, 0.813716, 0.814458, 0.811884, 0.810745, 0.810338, 0.813007, 0.00998837, 0.818845, 0.821333, 0.821148, 0.821348, 0.823036, 0.822007, 0.821285, 0.820265, 0.818637, 0.81783, 0.820162, 0.00410085, 0.840916, 0.842178, 0.841691, 0.841071, 0.00412541, 0.0104961, 0.0041534, 0.807687, 0.809083, 0.808883, 0.807146, 0.806783, 0.806935, 0.8066, 0.795083, 0.79537, 0.795227, 0.794763, 0.793444, 0.793199, 0.794317, 0.79134, 0.791719, 0.783653, 0.783723, 0.784317, 0.782548, 0.782112, 0.794384, 0.795555, 0.796176, 0.804189, 1.13582, 1.13567, 1.46771, 0.816708, 0.815708, 0.814224, 0.807605, 0.805558, 0.805401, 0.796805, 0.795758, 0.800062, 0.799962, 0.800911, 1.1063, 0.814825, 0.814941, 0.814642, 0.817285, 0.818791, 0.820155, 0.820528, 0.818836, 0.815889, 0.815122, 0.815228, 0.801688, 0.801733, 0.802125, 0.984087, 0.984631, 0.981178, 0.87097, 0.894891, 0.801599, 0.802553, 1.07186, 1.00732, 0.00418884, 0.0104674, 0.918157, 0.763611, 0.757008, 0.756707, 0.763405, 0.764405, 0.766195, 0.764417, 0.755972, 0.753054, 0.749142, 0.748957, 0.748345, 0.748565, 0.748679, 0.787594, 0.758691, 0.759984, 0.761024, 0.761626, 0.761576, 0.760789, 0.760788, 0.761128, 0.76007, 0.758867, 0.759699, 0.757321, 0.885287, 0.795393, 0.878276, 0.759207, 0.877452, 0.888215, 0.733182, 0.987292, 0.987697, 0.92476, 0.741642, 0.740784, 0.739242, 1.02217, 1.30217, 0.736267, 0.737143, 0.738309, 0.738162, 0.736838, 0.010273, 0.0102275, 0.718086, 0.717169, 0.717443, 0.016608, 0.0105206, 0.745502, 0.69931, 0.69773, 0.698383, 0.697501, 0.707645, 0.70248, 1.08417, 0.679971, 0.681029, 0.680963, 0.814829, 0.822072, 0.663039, 0.662233, 0.66313, 0.822397, 0.778548, 0.0102978, 1.01545, 0.00990942, 0.745457, 0.628663, 0.630026, 0.629975, 0.6294, 0.62824, 0.627042, 0.627724, 0.626969, 0.625554, 0.626101, 0.62197, 0.622728, 0.621193, 0.62155, 0.613948, 0.612742, 0.610552, 0.606468, 0.601641, 0.600852, 0.593205, 0.592867, 0.593578, 0.584096, 0.582494, 0.581868, 0.897824, 0.572124, 0.570682, 0.570591, 0.575567, 0.575801, 0.575084, 0.565595, 0.564174, 0.559677, 0.55999, 0.562074, 0.55764, 0.556499, 0.558294, 0.554602, 0.553693, 0.552337, 0.543977, 0.544345, 0.546219, 0.548056, 0.547106, 0.546756, 0.546734, 0.547138, 0.545148, 0.544381, 0.545006, 0.541374, 0.538202, 0.536129, 0.535521, 0.525185, 0.526206, 0.528543, 0.528439, 0.526232, 0.522693, 0.518747, 0.519706, 0.52077, 0.520942, 0.520811, 0.519622, 0.516016, 0.511275, 0.506208, 0.5055, 0.504075, 0.503342, 0.512114, 0.514194, 0.514799, 0.515776, 0.0040981, 0.486011, 0.486101
1.03983, 1.02709, 0.908811, 0.890621, 0.886778, 0.886996, 0.888621, 0.890372, 0.893863, 0.894141, 0.894873, 0.895227, 0.896278, 0.896154, 0.998244, 0.957555, 0.869315, 0.868075, 0.866198, 1.04288, 1.15743, 1.17446, 0.00398588, 1.07516, 1.04691, 1.0398, 1.01272, 0.845616, 0.845773, 0.845347, 0.010147, 1.04646, 0.00419108, 0.908796, 0.890502, 1.15159, 0.889812, 0.889317, 1.03917, 0.922904, 0.0105364, 0.0103714, 0.853058, 0.844845, 0.0037546, 0.963851, 1.08258, 0.0103999, 0.00382084, 0.0102048, 0.81371, 0.0106829, 1.03336, 0.886868, 1.13258, 0.821714, 0.822714, 0.823955, 0.823811, 0.82411, 0.823592, 0.822551, 0.821685, 0.818241, 0.820701, 0.82276, 0.824368, 0.010704, 0.841596, 0.84176, 0.842435, 0.842323, 0.918698, 1.00115, 0.810453, 0.811325, 0.808724, 0.809697, 0.808622, 0.809691, 1.08399, 0.795857, 0.797489, 0.7965, 0.79362, 0.793472, 0.793752, 0.79423, 0.792817, 0.793314, 0.79101, 0.783564, 0.777518, 0.778059, 0.786463, 0.797342, 0.796957, 0.796401, 0.797275, 1.13723, 1.10284, 1.46805, 0.818043, 0.816287, 0.814681, 0.811512, 0.807815, 0.807806, 0.794436, 0.805449, 0.804323, 0.80221, 0.801919, 0.8134, 0.809851, 0.811565, 0.812567, 0.811863, 0.814116, 0.821871, 0.816615, 0.818262, 0.817608, 0.81605, 0.815519, 0.808232, 0.808946, 0.810012, 0.811411, 0.990996, 0.804138, 0.802714, 0.802023, 0.802002, 0.804744, 0.817381, 0.783077, 0.781936, 0.921733, 0.769517, 0.764007, 0.759452, 0.757577, 0.756802, 0.764942, 0.765572, 0.765793, 0.766219, 0.757893, 0.750666, 0.748764, 0.747119, 0.748519, 0.748615, 0.750065, 0.807293, 0.759581, 0.760517, 0.76086, 0.760559, 0.759981, 0.756001, 0.762183, 0.76284, 0.763588, 0.759606, 0.758577, 0.756158, 0.75973, 0.760288, 0.759505, 0.759913, 0.85336, 1.02492, 0.83054, 0.743384, 0.744014, 0.744059, 0.744162, 0.746112, 0.745838, 0.744784, 0.906774, 0.737193, 0.738415, 0.739016, 1.00588, 0.713903, 0.713749, 0.714613, 1.00477, 0.708834, 0.69847, 0.69884, 0.743128, 0.748573, 0.697398, 0.694311, 0.693561, 0.690263, 0.763204, 0.763116, 1.08412, 0.680279, 0.832369, 0.686033, 0.78064, 0.664289, 0.663851, 0.661778, 0.808746, 0.666599, 0.00409339, 0.665521, 0.0102048, 0.901405, 0.631515, 0.631629, 0.629102, 0.628153, 0.628171, 0.62795, 0.626189, 0.625524, 0.627614, 0.624525, 0.623466, 0.622209, 0.620816, 0.610705, 0.613887, 0.613873, 0.613471, 0.608073, 0.609881, 0.602322, 0.59196, 0.593297, 0.591976, 0.590981, 0.584451, 0.583268, 0.91725, 0.571644, 0.570377, 0.572866, 0.575398, 0.575998, 0.575696, 0.564562, 0.569151, 0.563963, 0.562369, 0.560513, 0.559213, 0.558992, 0.558949, 0.556449, 0.55585, 0.553909, 0.544525, 0.548518, 0.548312, 0.546615, 0.547401, 0.547685, 0.548798, 0.547563, 0.546842, 0.546325, 0.545887, 0.541965, 0.539819, 0.539353, 0.537986, 0.536855, 0.527785, 0.528717, 0.52972, 0.525188, 0.524107, 0.519221, 0.520508, 0.519474, 0.520572, 0.521369, 0.518045, 0.50843, 0.509663, 0.50872, 0.504938, 0.503306, 0.503427, 0.513039, 0.515805, 0.516515, 0.516341, 0.00991972, 0.486677, 0.487064
0.950379, 1.02948, 1.03149, 0.893484, 0.889138, 0.888823, 0.888534, 0.890321, 0.894793, 0.895024, 0.895301, 0.896458, 0.896208, 0.890592, 0.909909, 0.993995, 1.16883, 0.862713, 0.860811, 1.03661, 1.00376, 1.1514, 0.846899, 0.845485, 0.844237, 0.84444, 1.16482, 0.848432, 0.846985, 0.846745, 0.010386, 1.03995, 1.14201, 1.03963, 0.886663, 1.15099, 0.983213, 0.0106283, 1.13307, 0.0109088, 1.11279, 1.0778, 0.963618, 1.07389, 0.945433, 0.952408, 0.0102855, 0.0169227, 0.888808, 0.934639, 0.0101172, 0.0102712, 0.0108507, 0.00412818, 1.1257, 0.82575, 0.826668, 0.827041, 0.821964, 0.824116, 0.819913, 0.821884, 0.823709, 0.826505, 0.823701, 0.822075, 0.822546, 0.833245, 0.838996, 0.839053, 0.838646, 0.83731, 1.01586, 0.881786, 0.812734, 0.811524, 0.811338, 0.811152, 0.812878, 0.0103917, 0.950662, 1.09433, 1.00113, 0.794717, 0.79128, 0.792484, 0.794678, 0.793586, 0.791749, 0.792965, 0.794445, 0.784718, 0.7779, 0.778813, 0.783566, 0.79581, 0.795457, 0.794802, 0.858917, 0.0108121, 1.04993, 1.46745, 1.53437, 0.81783, 0.811742, 0.814026, 0.806219, 0.805972, 0.805597, 0.804611, 0.803976, 0.803087, 0.813414, 0.814085, 0.980578, 0.814219, 0.811697, 0.811058, 0.811034, 0.81312, 0.816702, 0.816312, 0.815849, 0.815496, 0.812907, 0.808909, 0.808463, 0.810664, 0.807137, 0.806425, 0.80605, 0.807002, 0.846088, 0.804309, 1.08426, 1.08391, 0.783406, 0.783765, 0.769594, 0.76926, 0.762514, 0.759341, 0.756206, 0.755862, 0.764642, 0.765061, 0.764816, 0.764698, 0.758646, 0.7498, 0.748232, 0.747894, 0.747933, 0.747779, 0.747034, 1.00443, 1.07436, 0.757152, 0.784394, 0.774207, 0.755852, 0.756075, 0.761458, 0.763754, 0.763024, 0.760305, 0.760292, 0.755481, 0.756835, 0.757975, 0.75906, 0.760506, 0.761493, 0.76161, 1.03353, 0.938797, 0.746485, 0.745968, 0.746923, 0.746639, 0.746306, 0.745293, 0.744989, 1.00187, 0.73763, 0.748947, 0.00974024, 1.00518, 0.70894, 0.711231, 0.706396, 0.707136, 0.698768, 0.695642, 0.696307, 0.699504, 0.695299, 0.694523, 0.693358, 0.68718, 0.686383, 0.686529, 0.685884, 0.698995, 0.699931, 1.08003, 0.829515, 1.0541, 0.662859, 0.658073, 0.65753, 0.655976, 0.0104094, 0.00452473, 0.0102235, 0.00977164, 0.632404, 0.632246, 0.631613, 0.626815, 0.626811, 0.627135, 0.62464, 0.625675, 0.62439, 0.624301, 0.624254, 0.625137, 0.611309, 0.610902, 0.611817, 0.612889, 0.612337, 0.609723, 0.607138, 0.6053, 0.602256, 0.590287, 0.59103, 0.590122, 0.586054, 0.585551, 0.0103728, 0.922178, 0.572928, 0.574178, 0.574988, 0.567689, 0.567485, 0.566012, 0.563978, 0.562846, 0.56221, 0.55981, 0.560217, 0.557637, 0.556567, 0.555922, 0.555772, 0.555924, 0.552108, 0.547572, 0.547083, 0.54837, 0.54705, 0.545975, 0.547615, 0.547712, 0.548109, 0.545868, 0.542635, 0.542681, 0.541712, 0.538507, 0.537568, 0.524791, 0.526041, 0.531119, 0.528318, 0.527782, 0.509143, 0.51451, 0.518938, 0.518481, 0.520469, 0.52068, 0.520682, 0.511841, 0.510342, 0.509813, 0.509005, 0.50216, 0.503887, 0.503555, 0.515545, 0.516693, 0.516787, 0.514238, 0.487151, 0.48577
0.982651, 1.02612, 1.0362, 0.891328, 0.889932, 0.889752, 0.891448, 0.892007, 0.895482, 0.895547, 0.895322, 0.895152, 0.896015, 0.0102347, 0.939663, 0.872108, 0.984032, 0.85948, 0.859211, 0.859683, 1.00237, 0.854071, 0.854005, 0.846106, 0.845181, 0.843585, 0.847712, 0.848193, 0.850653, 0.85657, 0.00966044, 1.14098, 1.14131, 0.0101307, 1.14944, 0.921668, 0.922622, 1.05817, 0.933963, 0.0109712, 0.00386794, 0.958888, 0.0100497, 0.950209, 1.07335, 1.07117, 1.07335, 0.850896, 0.00378771, 0.935841, 0.0103102, 0.931301, 1.00257, 0.0111343, 0.831072, 0.832566, 0.831946, 0.890956, 0.824463, 0.824448, 0.820458, 0.82413, 0.826298, 0.828345, 0.987969, 0.822764, 0.823076, 0.911626, 0.837913, 0.838845, 0.838266, 0.837111, 0.8371, 0.0102817, 0.813526, 0.812492, 0.813046, 0.813561, 0.813202, 1.00257, 1.00379, 1.00363, 0.853769, 0.854008, 0.855027, 0.791521, 0.791208, 0.790863, 0.790705, 0.793735, 0.794177, 0.781062, 0.779541, 0.776232, 0.775939, 0.77498, 0.792146, 0.792663, 0.00403726, 0.0102295, 1.46552, 0.80134, 1.53426, 0.81407, 0.813448, 0.81166, 0.807235, 0.807714, 0.807544, 0.807557, 0.806287, 0.806272, 0.00366861, 1.0118, 0.818732, 0.817626, 0.80635, 0.811334, 0.81089, 0.812387, 0.811287, 0.805198, 0.805941, 0.856898, 0.877293, 0.807439, 0.808048, 0.867727, 0.807747, 0.806727, 0.80571, 0.804736, 0.010588, 0.800862, 0.801245, 0.0102504, 0.0101846, 0.762817, 0.763203, 0.763463, 0.762933, 0.761906, 0.759498, 0.755927, 0.756124, 0.763453, 0.764704, 0.764012, 0.757399, 0.753739, 0.752841, 0.746578, 0.746093, 0.743988, 0.745171, 0.74574, 0.998827, 0.783681, 0.755263, 1.0087, 0.752046, 0.75966, 0.76282, 0.761664, 0.759251, 0.759885, 0.760163, 0.751927, 0.750389, 0.749907, 0.750734, 0.761528, 0.762534, 0.762327, 0.762642, 0.751824, 0.751595, 0.746517, 0.747239, 0.747965, 0.74845, 0.74785, 0.0103552, 0.0105927, 0.753654, 0.753865, 0.756075, 1.00735, 1.00683, 0.708041, 0.707127, 0.707614, 0.703533, 0.696792, 0.696633, 0.696132, 0.70515, 0.690773, 0.689109, 0.685552, 0.68553, 0.685741, 0.682305, 0.678589, 0.699027, 0.989354, 1.06297, 0.664457, 0.662523, 0.657844, 0.656221, 0.655276, 0.795355, 0.644271, 0.637217, 0.634785, 0.634824, 0.634454, 0.630171, 0.625187, 0.624482, 0.624365, 0.623778, 0.623633, 0.624391, 0.624401, 0.623765, 0.621517, 0.61846, 0.618295, 0.619517, 0.611745, 0.608919, 0.609348, 0.60822, 0.607141, 0.602374, 0.5952, 0.590661, 0.590211, 0.587212, 0.587022, 0.586247, 0.5864, 0.579575, 0.572132, 0.570614, 0.567448, 0.568035, 0.566545, 0.562138, 0.562509, 0.563464, 0.561862, 0.561409, 0.559692, 0.558515, 0.556563, 0.555745, 0.556705, 0.54735, 0.547976, 0.548144, 0.548486, 0.542298, 0.545879, 0.546253, 0.548254, 0.548154, 0.546337, 0.543494, 0.543473, 0.541899, 0.53711, 0.537783, 0.536774, 0.526792, 0.52782, 0.527462, 0.508239, 0.509664, 0.509915, 0.515, 0.515759, 0.520411, 0.520107, 0.518899, 0.513694, 0.508377, 0.508616, 0.508667, 0.499021, 0.502486, 0.501749, 0.500887, 0.515377, 0.515413, 0.507269, 0.00431786, 0.487146
0.959367, 0.958025, 1.02908, 1.0256, 0.893983, 0.892865, 0.894635, 0.891407, 0.893251, 0.894852, 0.89406, 0.893917, 1.15037, 0.960322, 1.18273, 0.992185, 0.865356, 0.863977, 0.86081, 1.00849, 0.855545, 0.855205, 0.853434, 0.853139, 0.847733, 0.847763, 0.848872, 0.851945, 1.01164, 1.0044, 0.92284, 0.0100909, 0.918576, 0.0103938, 0.890858, 0.892401, 0.892331, 0.924881, 0.0104286, 0.00405795, 0.0103788, 1.07407, 0.959996, 1.07376, 1.07309, 0.00398385, 0.0107783, 1.05054, 0.859345, 0.00422215, 1.0538, 0.93593, 1.05121, 0.836436, 0.835436, 0.835285, 0.834965, 0.832, 0.830583, 0.829495, 0.821929, 0.826165, 0.827888, 0.827998, 0.829638, 0.829214, 0.826222, 0.831213, 0.836448, 0.839442, 0.839917, 0.839652, 0.836822, 0.81877, 0.818458, 0.814231, 0.813892, 0.82026, 0.821072, 0.0103912, 1.0711, 1.00565, 1.00585, 1.00454, 0.0105445, 1.39765, 0.929541, 0.799568, 0.799293, 0.794611, 0.792353, 0.791857, 0.781262, 0.777549, 0.776272, 0.777434, 0.78151, 0.00393644, 0.0105736, 0.947021, 0.948238, 0.00393883, 1.53687, 0.81339, 0.813615, 0.812392, 0.811427, 0.809747, 0.809622, 0.809408, 0.813145, 0.8141, 0.852253, 0.852791, 0.818515, 0.81774, 0.80549, 0.805714, 0.804642, 0.811423, 0.875454, 0.798418, 0.798174, 0.793773, 0.946581, 0.946443, 0.943414, 1.05443, 0.804983, 0.805781, 0.835562, 0.812247, 0.972094, 0.97297, 0.787384, 0.00409363, 0.0103399, 0.761764, 0.762894, 0.76371, 0.762941, 0.762483, 0.761155, 0.758867, 0.758794, 0.76303, 0.763718, 0.763317, 0.0100101, 0.749708, 0.75125, 0.751404, 0.749551, 0.742995, 0.744907, 0.745183, 0.744917, 0.00365666, 0.7523, 0.751909, 0.751367, 0.732539, 0.749666, 0.754296, 0.745722, 0.759177, 0.0100516, 0.745863, 0.746443, 0.746951, 0.748901, 0.749789, 0.750321, 0.760867, 0.762332, 0.756877, 0.752121, 0.750592, 0.749756, 0.750138, 0.749246, 0.748731, 0.760376, 0.00407881, 0.762955, 0.00389162, 0.759055, 0.00374403, 0.707918, 0.708211, 0.707509, 0.707324, 0.704041, 0.698029, 0.696714, 0.742591, 0.921196, 0.0100831, 0.688793, 0.688431, 0.684866, 0.682195, 0.682074, 0.67693, 0.6776, 0.00414218, 1.04372, 1.0783, 0.665991, 0.664013, 0.810875, 0.796744, 0.833306, 0.800417, 0.644674, 0.636531, 0.636183, 0.635859, 0.630113, 0.630228, 0.623308, 0.624202, 0.623928, 0.623202, 0.622165, 0.622894, 0.6214, 0.621728, 0.620256, 0.620207, 0.619893, 0.619127, 0.614407, 0.61012, 0.607556, 0.605622, 0.603872, 0.598769, 0.596567, 0.593341, 0.587945, 0.588832, 0.587678, 0.58706, 0.580111, 0.577083, 0.574156, 0.574331, 0.566909, 0.567259, 0.563055, 0.562461, 0.563011, 0.563229, 0.562349, 0.561955, 0.559169, 0.558279, 0.557147, 0.557444, 0.557408, 0.549518, 0.550174, 0.541191, 0.542631, 0.542393, 0.548112, 0.5487, 0.548372, 0.548608, 0.543518, 0.544131, 0.542751, 0.53897, 0.53787, 0.537694, 0.528855, 0.52801, 0.510538, 0.510184, 0.510785, 0.510621, 0.510772, 0.514166, 0.515747, 0.518208, 0.517476, 0.514183, 0.51423, 0.510217, 0.498873, 0.499789, 0.501991, 0.501751, 0.501106, 0.5145, 0.506632, 0.50737, 0.508283, 0.485994
1.10611, 0.948706, 0.937308, 0.895917, 0.89511, 0.894125, 0.893786, 0.894723, 0.892938, 0.895843, 0.897143, 0.896905, 0.886948, 0.886128, 0.934741, 0.865894, 0.866003, 0.860792, 0.859347, 0.859567, 0.855816, 0.854485, 0.853468, 1.23937, 0.883371, 1.25416, 0.853351, 0.854456, 0.860015, 0.0104018, 0.998144, 0.884418, 0.885053, 0.887113, 0.889252, 0.893787, 0.893652, 0.894101, 0.00400658, 0.0102289, 1.65848, 1.08194, 0.961686, 1.07877, 0.95307, 1.07059, 0.921753, 0.0106388, 0.00400152, 0.891134, 0.00412468, 0.922505, 1.05004, 1.21258, 0.840685, 0.840821, 0.840536, 0.836108, 0.835437, 0.83428, 0.832647, 0.827366, 0.829602, 0.830107, 0.830328, 0.829065, 0.827259, 0.827295, 0.00409569, 0.841202, 0.841259, 0.840983, 0.912106, 0.821732, 0.819415, 0.817336, 0.818625, 0.82163, 0.824961, 0.825999, 1.00678, 0.937252, 0.938247, 1.01088, 0.935708, 0.80792, 0.807944, 0.884171, 0.800702, 0.80015, 0.791002, 0.792314, 0.789227, 0.784187, 0.783659, 0.783927, 0.781359, 0.0101618, 0.010597, 0.899223, 0.893226, 0.991933, 0.925449, 1.25741, 1.25656, 0.81526, 0.814916, 1.16167, 0.814056, 0.811606, 0.814666, 0.815068, 1.1021, 1.00132, 0.821217, 0.821416, 0.807401, 0.804592, 0.804782, 1.03865, 0.798088, 0.798979, 0.800404, 0.793546, 0.793244, 0.891862, 1.03229, 0.927193, 0.926576, 0.893664, 0.894297, 0.811348, 0.786262, 0.785713, 0.785647, 0.771475, 0.769293, 0.763592, 0.765819, 0.764216, 0.764171, 0.763664, 0.763531, 0.762347, 0.759492, 0.759811, 0.759222, 0.759139, 0.752965, 0.751237, 0.751566, 0.750269, 0.750161, 0.744187, 0.745237, 0.742498, 0.742238, 0.745106, 0.746067, 0.74602, 1.00699, 0.731856, 0.732102, 0.732943, 0.73354, 0.941239, 0.945067, 0.746778, 0.747438, 0.747897, 0.749347, 0.75068, 0.751157, 0.75317, 0.754393, 0.754757, 0.756007, 0.751939, 0.750839, 0.751006, 0.752626, 0.755991, 0.0102322, 0.735922, 0.865972, 0.010666, 0.010515, 0.0103568, 0.0104976, 0.0107303, 0.701473, 0.701092, 0.701902, 0.696082, 0.997978, 1.03181, 1.03734, 0.926344, 0.688667, 0.687682, 0.684703, 0.68178, 0.676936, 0.677894, 0.67969, 0.677191, 0.671161, 0.669874, 0.67015, 0.665536, 0.665786, 0.812953, 0.00390598, 0.801386, 0.802115, 0.641454, 0.637113, 0.63878, 0.631363, 0.63102, 0.628814, 0.624132, 0.623745, 0.622738, 0.623994, 0.622719, 0.623117, 0.623265, 0.620951, 0.620048, 0.619987, 0.619067, 0.618643, 0.6091, 0.609472, 0.608175, 0.601922, 0.59882, 0.598872, 0.59689, 0.586314, 0.584367, 0.586693, 0.581082, 0.581446, 0.581871, 0.577902, 0.576894, 0.574763, 0.564215, 0.564397, 0.563384, 0.564103, 0.563656, 0.56519, 0.564588, 0.565124, 0.560766, 0.557677, 0.558332, 0.557317, 0.549939, 0.550702, 0.541688, 0.542506, 0.542264, 0.548355, 0.549116, 0.549632, 0.546612, 0.547589, 0.546427, 0.543086, 0.540632, 0.539852, 0.527574, 0.529676, 0.527564, 0.511576, 0.512667, 0.510929, 0.511846, 0.514779, 0.515983, 0.516929, 0.520991, 0.518423, 0.517835, 0.5104, 0.507383, 0.506869, 0.502183, 0.502968, 0.503139, 0.503434, 0.50769, 0.508903, 0.510367, 0.509939, 0.590788
0.929609, 0.927751, 0.0102579, 0.896879, 0.895642, 0.898071, 0.89692, 1.03545, 0.89729, 0.897009, 0.89771, 0.897988, 0.895146, 0.939714, 1.13029, 0.871633, 0.870341, 0.860958, 0.862072, 0.862794, 0.857977, 0.859468, 0.859546, 1.24232, 0.0104744, 1.07903, 1.02336, 0.859216, 0.00955071, 1.14621, 0.0106121, 0.911023, 0.886407, 0.88702, 0.887615, 0.914959, 0.895717, 0.894868, 0.895311, 0.0103787, 1.65959, 1.09053, 0.964501, 1.08469, 1.07471, 1.09302, 0.876893, 0.0104905, 0.00396828, 1.06429, 0.935241, 0.00397601, 0.0102069, 0.905591, 1.02539, 0.845399, 0.0105788, 0.841133, 0.837054, 0.836467, 0.832304, 0.832473, 0.83208, 0.832783, 0.833238, 0.832668, 0.831827, 0.828279, 0.828714, 0.841983, 0.842443, 0.841801, 0.840619, 0.879345, 0.820897, 0.820906, 0.820561, 0.931829, 0.827938, 0.82802, 0.826872, 0.826192, 0.0106378, 1.0224, 0.810599, 0.809447, 0.809054, 0.808999, 0.81019, 0.805411, 0.801963, 0.794583, 0.79174, 0.791441, 0.784722, 0.784766, 0.0104906, 0.00414122, 0.80357, 0.0109618, 0.894792, 0.922362, 0.925205, 1.26025, 1.25758, 0.819295, 0.820915, 0.822155, 1.16641, 0.817041, 0.817739, 0.819187, 0.827882, 0.828574, 1.17872, 0.86376, 0.805579, 0.805415, 0.806743, 0.806217, 1.02875, 0.800308, 0.798173, 0.946928, 0.78114, 0.778545, 0.778437, 0.973437, 0.852203, 0.892858, 0.895303, 0.805846, 0.787667, 0.786688, 0.0102453, 0.772055, 0.771415, 0.765797, 0.765814, 0.766819, 0.766118, 0.766689, 0.767283, 0.766, 0.760547, 0.760822, 0.760957, 0.758891, 0.756828, 0.754861, 0.75588, 0.752038, 0.752357, 0.75289, 0.743229, 0.743366, 0.745297, 0.747167, 0.747286, 0.746501, 0.740662, 0.735252, 0.736049, 0.73456, 0.733645, 0.73341, 0.736432, 0.736713, 0.74826, 0.747048, 0.748789, 0.748944, 0.753389, 0.754268, 0.755457, 0.755648, 0.756129, 0.755853, 0.751012, 0.750659, 0.755925, 0.757255, 1.08787, 0.768699, 0.867041, 0.874237, 0.0101424, 0.00396781, 0.010556, 0.0104293, 0.704566, 0.703429, 0.693405, 0.695441, 0.697414, 0.0039877, 1.03628, 0.898249, 0.974453, 0.686444, 0.684401, 0.683595, 0.68087, 0.679959, 0.680416, 0.679034, 0.67444, 0.671841, 0.672308, 0.672056, 0.668238, 0.815127, 0.814888, 0.00405871, 0.0104473, 0.636792, 0.637749, 0.636464, 0.63134, 0.631393, 0.631234, 0.62749, 0.628169, 0.621966, 0.622588, 0.62389, 0.623379, 0.623227, 0.62198, 0.621014, 0.619133, 0.61957, 0.617653, 0.617809, 0.609748, 0.607988, 0.603614, 0.603996, 0.600904, 0.597544, 0.583564, 0.581638, 0.582718, 0.582733, 0.582772, 0.583034, 0.582565, 0.576776, 0.575566, 0.5712, 0.569192, 0.56461, 0.565671, 0.565436, 0.565592, 0.56681, 0.565577, 0.565382, 0.559321, 0.557625, 0.557038, 0.556004, 0.548784, 0.547046, 0.542926, 0.543338, 0.548442, 0.548397, 0.548714, 0.54723, 0.547494, 0.547319, 0.547868, 0.541212, 0.0106106, 0.00378954, 0.547335, 0.549061, 0.516166, 0.51708, 0.517211, 0.51748, 0.516787, 0.516488, 0.517267, 0.517145, 0.517229, 0.516949, 0.509066, 0.510242, 0.51043, 0.502045, 0.503287, 0.502848, 0.502785, 0.507772, 0.508793, 0.509912, 0.0106271, 0.596805
1.1647, 0.930515, 0.942418, 1.07914, 0.901886, 0.898719, 0.898402, 0.898971, 0.898444, 0.899392, 0.898207, 0.897059, 0.897352, 0.884001, 1.17128, 0.871791, 0.86996, 0.869732, 0.870952, 0.867034, 0.860979, 0.862449, 0.860944, 1.24359, 1.10995, 1.07741, 0.897374, 0.862152, 0.863044, 1.0711, 0.010049, 0.912426, 0.886265, 0.887737, 0.887057, 0.892799, 0.895653, 0.895837, 1.11903, 0.0104928, 1.06755, 1.08053, 0.968139, 0.968907, 0.99761, 0.874302, 0.900087, 0.886504, 0.884401, 0.0103462, 0.00393277, 0.90544, 0.934627, 0.948052, 0.89108, 0.922656, 0.851146, 1.11276, 0.93934, 1.1202, 0.838545, 0.836357, 0.83539, 0.83464, 0.834372, 0.833445, 0.83254, 0.831309, 0.829772, 1.03666, 0.841921, 0.841763, 0.841022, 0.828007, 0.822289, 0.821139, 0.821472, 0.831392, 0.831714, 0.831986, 0.842949, 0.825201, 0.824891, 0.813928, 0.811171, 0.811281, 0.809339, 0.810848, 0.81007, 0.808248, 0.804231, 0.800647, 0.799444, 0.0102469, 0.784678, 0.785681, 0.796157, 0.797027, 0.798427, 0.815962, 0.815972, 0.816337, 0.815997, 0.943105, 0.919336, 0.818071, 0.928014, 0.82437, 0.824599, 0.819876, 0.819258, 0.819086, 0.828556, 0.828131, 0.828092, 0.916001, 0.808425, 0.806558, 0.80597, 1.03444, 1.08023, 1.07826, 0.949423, 0.948833, 0.782889, 0.779007, 0.981503, 1.00125, 1.00256, 0.811944, 0.906035, 0.785893, 0.00384657, 0.0103845, 0.780667, 0.772453, 0.773366, 0.768598, 0.768022, 0.769243, 0.769423, 0.767907, 0.768064, 0.767729, 0.765109, 0.761142, 0.76224, 0.759954, 0.75781, 0.758122, 0.756756, 0.754882, 0.752475, 0.752969, 0.751973, 0.751053, 0.751009, 0.74723, 0.747363, 0.746955, 0.743194, 0.736278, 0.736621, 0.735019, 0.73506, 0.733497, 0.736828, 0.739824, 0.739039, 0.740978, 0.748562, 0.750212, 0.754452, 0.755249, 0.756408, 0.756193, 0.756108, 0.755966, 0.757155, 0.010473, 1.07367, 0.75935, 0.759211, 0.871122, 0.0107116, 0.877936, 0.00372616, 0.781878, 0.00410925, 0.0106538, 0.0103127, 0.693347, 0.693746, 0.695735, 0.695964, 0.930265, 0.931748, 1.07329, 0.921427, 0.683961, 0.682875, 0.681138, 0.680163, 0.680784, 0.681539, 0.682631, 0.680333, 0.673929, 0.671482, 0.671336, 0.674268, 0.673884, 0.814816, 0.814638, 0.0107495, 0.813986, 0.639302, 0.637899, 0.632327, 0.63229, 0.631718, 0.627813, 0.627618, 0.627976, 0.87346, 0.626026, 0.62542, 0.625584, 0.623478, 0.623012, 0.620782, 0.620589, 0.619214, 0.617613, 0.610385, 0.610431, 0.604677, 0.604012, 0.603106, 0.599759, 0.0105535, 0.58282, 0.582007, 0.582835, 0.582883, 0.582741, 0.580576, 0.57832, 0.0102981, 0.566833, 0.566017, 0.567727, 0.566344, 0.566045, 0.567786, 0.567278, 0.567135, 0.565685, 0.558674, 0.55673, 0.556451, 0.556216, 0.547145, 0.546535, 0.545525, 0.544738, 0.546053, 0.548424, 0.548374, 0.547757, 0.547943, 0.548184, 0.54394, 0.545951, 0.00370569, 0.0106643, 0.548839, 0.548108, 0.516286, 0.517248, 0.519169, 0.519805, 0.516424, 0.518159, 0.517681, 0.517778, 0.516366, 0.515874, 0.511112, 0.512061, 0.51098, 0.502368, 0.503106, 0.50344, 0.484356, 0.485134, 0.653948, 0.010652, 0.00386935, 0.0104283
1.10928, 1.02542, 1.02493, 0.902978, 0.90224, 0.90013, 0.900922, 0.90053, 0.90072, 0.89903, 0.899397, 0.895444, 1.08486, 0.88711, 0.876389, 0.875604, 0.870062, 0.868276, 0.866118, 0.8649, 0.863095, 0.866671, 0.86608, 1.02, 1.14772, 0.888133, 0.862622, 0.862689, 0.863579, 0.863887, 0.0171919, 0.0105906, 0.0100358, 0.887593, 0.888064, 0.888072, 0.887959, 0.896185, 0.00371503, 1.06966, 1.06951, 0.959521, 0.0105633, 0.00395393, 0.0103575, 0.0102278, 0.0106534, 0.908166, 0.883532, 0.0101876, 1.16839, 0.905799, 0.883731, 0.894831, 0.894383, 0.854003, 0.850837, 0.963083, 0.849215, 0.849596, 0.843234, 0.839578, 0.838623, 0.835394, 0.834356, 0.832777, 0.831414, 0.831466, 0.831536, 0.831804, 0.841862, 0.841121, 0.840651, 0.828984, 0.825401, 0.824309, 0.825867, 0.832649, 0.832229, 0.832012, 0.0102922, 1.1677, 0.821223, 0.812497, 0.814365, 0.813339, 0.811035, 0.81106, 0.807785, 0.80738, 0.805254, 0.804156, 0.804591, 0.801076, 0.801769, 1.05605, 0.0102201, 0.798644, 0.798133, 0.814675, 0.816341, 0.816397, 0.818797, 0.819808, 0.821033, 0.817831, 0.819026, 0.925299, 0.826454, 0.821068, 0.821304, 0.822675, 0.822422, 0.829128, 0.829156, 0.811647, 1.09436, 0.806757, 0.806578, 1.03297, 1.03262, 0.866611, 0.945562, 0.77438, 0.776039, 0.77614, 1.00915, 0.792167, 0.793864, 0.790862, 0.790041, 0.786929, 0.879773, 0.774007, 0.774574, 0.770033, 0.770077, 0.771178, 0.771341, 0.770672, 0.765778, 0.76741, 0.76755, 0.767054, 0.764422, 0.762307, 0.762709, 0.760866, 0.757176, 0.756418, 0.755655, 0.755824, 0.749327, 0.749393, 0.749668, 0.75019, 0.752773, 0.747693, 0.746842, 0.74705, 0.836827, 0.856917, 0.8749, 0.732616, 0.842618, 0.7384, 0.739423, 0.739885, 0.740404, 0.74155, 0.744016, 0.746366, 0.752875, 0.75451, 0.755608, 0.7555, 0.755453, 0.952996, 0.0104978, 0.86806, 1.08196, 1.08767, 0.738293, 0.877176, 0.877292, 0.00405526, 0.717984, 0.718945, 0.719221, 0.717574, 0.793304, 0.693378, 0.693635, 0.695292, 0.695958, 0.691519, 0.932118, 0.683554, 0.683738, 0.682924, 0.682932, 0.681888, 0.680605, 0.680571, 0.681838, 0.677513, 0.676493, 0.676685, 0.671596, 0.671456, 0.671628, 0.673428, 0.671271, 0.814544, 0.0105996, 0.0104022, 0.638287, 0.638653, 0.634409, 0.632108, 0.631159, 0.627941, 0.628357, 0.628716, 0.628733, 0.629468, 0.636424, 0.624575, 0.624253, 0.624566, 0.621294, 0.619342, 0.619022, 0.617671, 0.615073, 0.614218, 0.608443, 0.607503, 0.604601, 0.603189, 0.0106868, 0.00374361, 0.580521, 0.580936, 0.581303, 0.0107268, 0.00980762, 0.0103815, 0.56794, 0.566546, 0.567194, 0.567982, 0.567622, 0.56819, 0.566173, 0.566027, 0.565586, 0.565165, 0.562959, 0.556731, 0.557882, 0.557165, 0.548546, 0.548117, 0.545381, 0.54556, 0.545396, 0.545151, 0.548038, 0.546781, 0.548214, 0.547146, 0.543273, 0.541783, 0.548822, 0.0105304, 0.0105014, 0.542953, 0.542536, 0.518045, 0.519104, 0.520903, 0.521651, 0.516449, 0.514559, 0.515348, 0.516538, 0.516953, 0.513703, 0.513837, 0.51214, 0.512545, 0.503253, 0.502853, 0.484924, 0.485787, 0.485725, 0.0103024, 0.0108693, 0.00384262
0.939578, 0.938634, 0.926083, 0.909716, 1.0909, 0.904096, 0.90408, 0.900933, 0.901845, 0.900845, 0.901011, 0.894444, 0.893059, 0.886536, 0.876791, 0.876567, 0.87185, 0.86848, 0.86692, 0.86432, 0.864024, 0.866586, 0.866794, 1.01941, 1.02052, 0.863768, 0.863015, 0.863404, 0.862972, 0.86361, 0.00435432, 0.900713, 0.901058, 0.900784, 0.887285, 0.886846, 0.886409, 0.946205, 0.947134, 0.94688, 1.07104, 0.949704, 0.966423, 1.09772, 0.972241, 1.08342, 0.00389528, 0.0103955, 1.16187, 0.0106681, 1.19517, 1.18819, 0.0105468, 0.897293, 0.942593, 0.951989, 0.856233, 0.848935, 0.84878, 0.849229, 0.844026, 0.842165, 0.839453, 0.838807, 0.834995, 0.831537, 0.831887, 0.83164, 0.831641, 0.831956, 0.838908, 0.840119, 0.839923, 0.0105348, 0.829756, 0.8288, 0.829272, 0.832544, 0.833441, 1.32156, 1.35801, 1.09802, 0.821953, 0.819044, 0.815563, 0.813697, 0.811428, 0.809417, 0.807362, 0.805128, 0.805194, 0.805135, 0.804029, 0.804601, 0.805154, 0.0104784, 0.0105127, 0.815206, 0.0103607, 0.0106502, 0.815757, 0.817551, 0.818333, 0.819953, 0.82046, 0.819922, 0.817318, 0.815569, 0.81855, 0.819841, 0.819942, 0.821666, 0.821804, 0.82184, 0.822379, 0.810941, 0.811118, 0.810918, 1.11839, 0.980432, 0.926014, 0.776205, 0.775344, 0.773916, 0.773018, 0.775785, 0.789864, 0.79081, 0.792092, 0.791879, 0.791216, 1.09122, 0.774242, 0.774666, 0.77032, 0.771737, 0.77231, 0.772497, 0.771869, 0.772045, 0.767177, 0.767012, 0.767664, 0.767138, 0.765815, 0.766113, 0.760128, 0.758409, 0.75797, 0.755674, 0.755632, 0.755292, 0.752598, 0.749514, 0.749606, 0.750245, 0.755812, 0.86808, 0.839013, 0.845958, 0.801326, 0.801786, 0.888082, 1.01899, 0.773468, 0.738314, 0.739354, 0.741632, 0.740449, 0.743467, 0.74593, 0.746586, 0.748997, 0.749522, 0.752908, 0.900892, 0.788216, 0.780818, 0.780317, 0.01095, 0.991069, 0.766713, 0.994211, 0.0104577, 0.0101536, 0.718308, 0.717868, 0.718614, 0.718025, 0.791419, 1.13638, 0.707754, 0.00400327, 0.696346, 0.69581, 0.693596, 0.932164, 0.681544, 0.681718, 0.683363, 0.682079, 0.68278, 0.681114, 0.679422, 0.676366, 0.67636, 0.677756, 0.678736, 0.673172, 0.671558, 0.669393, 0.67067, 0.670027, 0.669818, 0.0104811, 0.821225, 0.821063, 0.800849, 0.635691, 0.629635, 0.629998, 0.62977, 0.628861, 0.628568, 0.62959, 0.630736, 0.631524, 0.624211, 0.624965, 0.624537, 0.623144, 0.62015, 0.61918, 0.618677, 0.617771, 0.615718, 0.610847, 0.608624, 0.607253, 0.604117, 0.606909, 0.6079, 0.00379455, 0.709243, 0.00977737, 0.685258, 0.669356, 0.566337, 0.567824, 0.566394, 0.567569, 0.56791, 0.566607, 0.568597, 0.568366, 0.568364, 0.568214, 0.565682, 0.563467, 0.555755, 0.557435, 0.557439, 0.548464, 0.54823, 0.546509, 0.545505, 0.54526, 0.545669, 0.545043, 0.546274, 0.546342, 0.540227, 0.542683, 0.542629, 0.543096, 0.547965, 0.545109, 0.545057, 0.543375, 0.542919, 0.542074, 0.723305, 0.0112238, 0.0103006, 0.51436, 0.516814, 0.516861, 0.516962, 0.512604, 0.513505, 0.511643, 0.511056, 0.510805, 0.483341, 0.485017, 0.485786, 0.486035, 0.00386721, 0.00383249, 0.0105819
0.933921, 0.932217, 0.0101197, 0.912583, 0.910127, 0.90942, 0.902126, 0.901278, 0.901367, 0.901063, 0.899673, 0.893685, 0.893501, 0.888156, 0.881915, 0.875695, 0.87203, 0.871423, 0.867169, 0.866208, 0.866976, 0.867871, 0.868173, 0.867332, 1.01925, 0.863523, 0.863744, 0.864209, 0.863313, 0.861579, 0.895594, 0.902636, 0.901345, 0.899524, 0.888905, 0.888318, 0.888757, 1.09707, 0.950286, 1.19116, 0.952538, 0.0103971, 1.37473, 0.970667, 0.972835, 1.08853, 0.925185, 0.922234, 1.16535, 0.984093, 0.950121, 0.900909, 0.901518, 1.16696, 1.07386, 0.921273, 0.855663, 0.84863, 0.848235, 0.848642, 0.849224, 0.839836, 0.83892, 0.837591, 0.833152, 0.8322, 0.830694, 0.830695, 0.831373, 0.832652, 0.832661, 0.840379, 0.841083, 0.835578, 0.834159, 0.829655, 0.832238, 0.83312, 0.833667, 0.833236, 0.854824, 0.822517, 0.822159, 0.817811, 0.817382, 1.0768, 0.828214, 0.828902, 0.800398, 0.800417, 0.801074, 0.804044, 0.805061, 0.805718, 0.805345, 0.0099259, 0.0102306, 0.805147, 0.0104236, 0.881575, 0.815567, 0.819983, 0.820218, 0.821367, 0.820131, 0.818504, 0.817919, 0.819444, 0.820034, 0.819374, 0.821166, 0.821533, 0.82173, 0.821941, 0.821569, 0.815403, 0.872619, 1.1206, 1.06658, 1.03326, 0.892754, 1.01728, 0.776644, 0.773401, 0.774007, 0.924626, 0.968188, 0.790699, 0.790996, 0.79032, 0.777934, 0.777731, 0.773874, 0.773748, 0.772306, 0.772294, 0.771909, 0.773419, 0.772192, 0.771884, 0.769311, 0.769368, 0.767559, 0.766384, 0.766162, 0.765664, 0.761958, 0.759332, 0.758108, 0.75455, 0.755847, 0.757514, 0.756537, 0.757498, 0.971084, 0.760071, 0.76044, 0.760599, 0.760497, 0.756509, 0.756493, 0.00407746, 0.754008, 1.00437, 0.0104538, 0.0102406, 1.13731, 1.13714, 0.746097, 0.745685, 0.746825, 0.747133, 0.748444, 0.748802, 0.749659, 0.749131, 0.856305, 0.00416593, 0.787646, 0.0103924, 0.731598, 0.727843, 0.728114, 0.728384, 0.715834, 0.717516, 0.71693, 0.714322, 0.0105731, 0.792256, 0.79227, 0.707417, 0.700939, 0.700623, 0.694842, 0.692567, 0.690517, 0.689239, 0.684081, 0.681967, 0.683224, 0.683067, 0.681222, 0.679526, 0.676444, 0.676341, 0.677441, 0.678873, 0.679769, 0.66918, 0.667694, 0.669511, 0.669194, 0.791263, 0.816076, 0.0104887, 0.823214, 0.823669, 0.0101722, 0.628104, 0.629338, 0.629529, 0.628461, 0.630221, 0.629522, 0.632279, 0.631428, 0.631666, 0.62431, 0.624357, 0.622642, 0.621303, 0.620857, 0.621127, 0.617534, 0.617692, 0.0103678, 0.00370882, 0.60589, 0.605623, 0.606146, 0.920358, 0.0103606, 0.604254, 0.604077, 0.00392795, 0.677545, 0.568868, 0.568848, 0.568584, 0.567549, 0.567419, 0.568225, 0.56895, 0.566913, 0.568804, 0.568088, 0.563624, 0.563745, 0.56364, 0.0105937, 0.0038275, 0.548554, 0.00370769, 0.54815, 0.547017, 0.54864, 0.546904, 0.546754, 0.54537, 0.544905, 0.545133, 0.541969, 0.542077, 0.54118, 0.535462, 0.546156, 0.00382882, 0.543606, 0.543274, 0.543645, 0.544665, 0.0101167, 0.004124, 0.0098033, 0.51689, 0.517308, 0.517314, 0.517121, 0.511632, 0.511314, 0.511406, 0.510335, 0.00391096, 0.475024, 0.476221, 0.477117, 0.477462, 0.010137, 0.0108349
0.935158, 0.93392, 1.11631, 1.07485, 0.911322, 0.911784, 0.908824, 0.899779, 0.898088, 0.900457, 0.900504, 0.893726, 0.893102, 1.00891, 0.880948, 0.876977, 0.873487, 0.8737, 0.874253, 0.873506, 0.87344, 0.870425, 0.870165, 0.870128, 0.865977, 0.0100472, 0.868038, 0.869526, 0.864166, 0.863397, 0.872012, 0.010698, 0.971762, 0.897749, 0.88745, 0.889236, 0.88979, 1.10018, 0.0106653, 1.09596, 0.00393587, 1.02889, 0.96955, 0.969802, 0.971388, 0.971291, 0.924874, 1.11656, 0.898152, 0.898134, 0.934192, 0.950899, 0.902652, 0.922652, 0.942436, 0.856411, 0.856251, 0.847945, 0.847879, 0.848108, 0.847009, 0.846785, 0.848851, 0.838729, 0.836796, 0.835693, 0.831421, 0.832341, 0.83342, 0.833439, 0.89468, 0.840888, 0.843029, 0.842584, 0.835109, 0.833344, 0.832668, 0.832553, 0.832761, 0.827455, 0.826295, 0.824877, 0.82524, 0.818417, 0.819204, 0.993642, 0.00385148, 0.830806, 0.799575, 0.801385, 0.800889, 1.38947, 1.08596, 0.00985784, 0.810964, 0.809138, 0.80908, 0.806323, 0.987681, 0.986536, 0.986032, 0.820281, 0.821797, 0.821414, 0.821544, 0.821051, 0.82201, 0.824603, 0.824546, 0.824874, 0.827162, 0.825698, 0.82284, 0.823631, 0.819108, 0.81945, 1.11863, 1.03225, 1.06799, 1.03593, 1.03232, 0.78551, 0.786115, 0.90807, 0.830467, 0.778382, 0.925173, 0.908494, 0.791449, 0.812828, 0.0105441, 0.776709, 0.777505, 0.770905, 0.769824, 0.76998, 0.770414, 0.770352, 0.771877, 0.771397, 0.76941, 0.769565, 0.76765, 0.767482, 0.766817, 0.766335, 0.756773, 0.757645, 0.759069, 0.755417, 0.755799, 0.756537, 0.757913, 0.75725, 0.758977, 0.761013, 0.761649, 0.760979, 0.760854, 0.760913, 0.759618, 0.759047, 0.757209, 0.0100358, 0.0103627, 0.767951, 0.766059, 0.80896, 0.748997, 0.748204, 0.748765, 0.748495, 0.748838, 0.74884, 0.748739, 0.74919, 0.010344, 0.0106442, 0.721666, 0.722544, 0.723551, 0.728772, 0.727511, 0.726302, 0.71951, 0.718533, 0.711951, 0.712511, 0.714858, 0.715302, 0.714857, 0.712393, 0.702971, 0.702405, 0.701374, 0.69488, 0.69062, 0.690022, 0.685431, 0.684764, 0.685254, 0.685287, 0.68472, 0.679008, 0.675511, 0.676066, 0.678914, 0.680007, 0.679701, 0.679549, 0.672736, 0.670651, 0.669238, 0.671604, 0.672714, 0.0102009, 0.00398313, 0.0105245, 0.00414954, 0.629805, 0.632095, 0.628925, 0.628034, 0.630806, 0.631019, 0.631024, 0.634085, 0.632314, 0.625851, 0.624126, 0.622004, 0.619006, 0.617965, 0.61844, 0.618657, 0.61822, 0.618927, 0.617407, 0.606337, 0.0099256, 0.597086, 0.596505, 0.0111393, 0.595002, 0.596166, 0.665834, 0.569448, 0.569712, 0.569809, 0.569044, 0.56791, 0.567951, 0.568739, 0.568452, 0.566554, 0.567615, 0.568953, 0.568201, 0.565487, 0.56557, 0.00355991, 0.00988973, 0.011043, 0.774056, 0.549752, 0.548615, 0.548198, 0.54866, 0.548276, 0.545685, 0.546462, 0.546333, 0.545009, 0.542717, 0.541516, 0.5351, 0.536204, 0.535895, 0.531711, 0.530494, 0.545218, 0.544271, 0.540076, 0.00993333, 0.519654, 0.519273, 0.518849, 0.51939, 0.520032, 0.512771, 0.511935, 0.511305, 0.510981, 0.0105228, 0.476802, 0.478312, 0.479065, 0.478499, 0.00368018, 0.607547
0.935379, 0.932164, 0.950064, 0.010635, 0.915435, 0.914527, 1.04347, 1.10345, 0.900006, 0.901614, 0.900848, 0.897584, 0.891404, 0.891037, 0.880749, 0.879505, 0.878481, 0.875395, 0.874672, 0.874339, 0.875462, 0.873749, 0.870373, 0.870779, 1.01815, 1.01835, 0.869685, 0.869593, 0.869795, 0.879653, 0.879257, 0.881657, 0.886466, 0.885326, 0.885015, 0.883938, 0.945725, 0.0104103, 0.995469, 0.952557, 1.01624, 0.904652, 0.905144, 0.90582, 0.90629, 0.90629, 0.905005, 0.901174, 0.898993, 0.898685, 1.0219, 1.02861, 1.16662, 0.923761, 0.930871, 0.856471, 0.856516, 0.855628, 0.847563, 0.846685, 0.847227, 0.847091, 0.847097, 0.846378, 0.838225, 0.838466, 0.831604, 0.834744, 0.83584, 0.837598, 0.840863, 0.84221, 0.843427, 0.84395, 0.834519, 0.834136, 0.833535, 0.832148, 0.830164, 0.828509, 0.827869, 0.825441, 0.8254, 0.821755, 0.820346, 0.817841, 0.827506, 0.829465, 0.800142, 0.800394, 0.833064, 0.830577, 1.23398, 0.010477, 0.8151, 0.814464, 0.812663, 0.835168, 0.835589, 0.991655, 0.824428, 0.826533, 0.824391, 0.824857, 0.825671, 0.825646, 0.825605, 0.826073, 0.828522, 0.828004, 0.827783, 0.82744, 0.828382, 0.831289, 0.82919, 0.968703, 0.819076, 0.817753, 0.817766, 1.03271, 0.889691, 0.890255, 0.788892, 0.790344, 0.791194, 0.996165, 0.814315, 0.810255, 0.793824, 0.793539, 0.794643, 0.772352, 0.772555, 0.772723, 0.771195, 0.77082, 0.771048, 0.770964, 0.770334, 0.770113, 0.769293, 0.76813, 0.767933, 0.769991, 0.764384, 0.764228, 0.76265, 0.756809, 0.757048, 0.756187, 0.7558, 0.756982, 0.756954, 0.757311, 0.759992, 0.760301, 0.762383, 0.762381, 0.761828, 0.761434, 0.761355, 0.759637, 0.759571, 0.759492, 0.759713, 0.759659, 0.0106754, 0.00386974, 0.749229, 0.749209, 0.749481, 0.749661, 0.750782, 0.74978, 0.74874, 0.745643, 0.0102977, 0.0104412, 0.722577, 0.723733, 0.72566, 0.72554, 0.725305, 0.0102912, 0.010261, 0.718015, 0.713027, 0.713803, 0.71466, 0.71503, 0.714544, 0.714292, 0.709419, 0.71026, 0.881428, 0.8324, 0.692088, 0.69025, 0.686746, 0.684165, 0.68625, 0.686634, 0.676424, 0.673865, 0.6745, 0.673953, 0.673008, 0.679921, 0.679926, 0.676286, 0.675527, 0.673377, 0.67122, 0.671828, 0.673229, 0.6713, 0.822664, 0.0039804, 0.0103373, 0.630235, 0.631395, 0.627965, 0.628038, 0.628104, 0.629, 0.630524, 0.63134, 0.625187, 0.625662, 0.625338, 0.624462, 0.618841, 0.6205, 0.620979, 0.620066, 0.618662, 0.620369, 0.620795, 0.0102653, 0.935773, 0.592445, 0.593325, 0.601918, 0.597554, 0.00978047, 0.734851, 0.698389, 0.570452, 0.569617, 0.568175, 0.568573, 0.568238, 0.570217, 0.571421, 0.56755, 0.572061, 0.570332, 0.569428, 0.565344, 0.56559, 0.0106371, 0.00987498, 0.0106436, 0.0106957, 0.551559, 0.551763, 0.547365, 0.548953, 0.548493, 0.548339, 0.549269, 0.548118, 0.548324, 0.543135, 0.543697, 0.538394, 0.537971, 0.538374, 0.534099, 0.531991, 0.531874, 0.540687, 0.541197, 0.539088, 0.520117, 0.520943, 0.521527, 0.519644, 0.519854, 0.520532, 0.510923, 0.511438, 0.743861, 0.00981101, 0.476723, 0.479172, 0.479051, 0.010355, 0.0105973, 0.0109506
0.940244, 0.947807, 0.929716, 0.91893, 0.918503, 0.919675, 1.11504, 0.913717, 0.913357, 0.904329, 0.901863, 0.898775, 0.896498, 0.891164, 0.892184, 1.05264, 0.881623, 0.881063, 0.878181, 0.876827, 0.878046, 0.876314, 0.87344, 0.872431, 0.871636, 0.87111, 0.86996, 0.871261, 0.0100113, 0.878787, 0.878394, 0.883102, 0.886752, 0.886606, 0.884719, 0.884269, 1.12116, 1.11901, 0.00360546, 0.0103875, 0.978086, 0.973951, 0.907742, 0.907849, 0.907293, 0.906398, 0.904902, 0.900943, 0.900638, 0.901082, 0.97751, 0.899143, 0.898772, 0.010251, 1.0861, 0.85692, 0.8557, 0.855296, 0.854802, 0.847002, 0.847865, 0.849902, 0.848688, 1.13969, 1.13948, 0.913037, 0.912279, 0.84525, 1.12207, 1.08271, 0.841164, 0.842547, 0.844205, 0.844348, 0.83844, 0.835608, 0.832879, 0.832316, 0.828589, 0.828475, 0.827823, 0.828033, 0.826278, 0.827474, 0.821162, 0.819292, 0.00394429, 1.19167, 1.17543, 1.19336, 1.15828, 1.1685, 0.819809, 0.821305, 0.818769, 0.818425, 0.837434, 0.836588, 0.896807, 0.831071, 0.829795, 0.825936, 0.825254, 0.823861, 0.824136, 0.826558, 0.827088, 0.828124, 0.829386, 0.829561, 0.829338, 0.829566, 0.827978, 0.828598, 0.829208, 0.828456, 0.828246, 0.818721, 0.816618, 0.818537, 0.890573, 0.888707, 0.911987, 0.911964, 0.791417, 0.791511, 0.813363, 0.811851, 0.904598, 0.802463, 0.0107329, 0.770345, 0.771521, 0.770579, 0.770906, 0.77036, 0.770781, 0.7701, 0.769826, 0.770214, 0.770854, 0.768225, 0.767099, 0.767035, 0.767051, 0.766685, 0.755068, 0.751735, 0.752626, 0.755806, 0.757786, 0.757158, 0.757125, 0.758955, 0.760219, 0.759604, 0.762244, 0.763327, 0.762949, 0.762493, 0.761609, 0.760842, 0.761193, 0.759481, 0.760728, 0.76097, 0.760675, 0.964436, 0.750626, 0.750845, 0.751805, 0.750718, 0.750609, 0.749502, 0.748442, 0.745173, 0.00411215, 0.728238, 0.725233, 0.72709, 0.726714, 0.726088, 0.797921, 0.0102674, 0.0108873, 0.706542, 0.710967, 0.710968, 0.714072, 0.714663, 0.714153, 0.7138, 0.71065, 0.710358, 0.00403929, 0.693095, 0.693438, 0.691781, 0.685555, 0.683267, 0.685272, 0.68711, 0.67621, 0.675685, 0.675843, 0.674441, 0.673471, 0.67725, 0.677469, 0.677012, 0.675354, 0.673852, 0.672716, 0.669785, 0.670428, 0.672405, 0.664044, 0.662933, 0.01101, 0.0103468, 0.790309, 0.628497, 0.629114, 0.629479, 0.630289, 0.630434, 0.630145, 0.627956, 0.627375, 0.626714, 0.809421, 0.621637, 0.622226, 0.621543, 0.62096, 0.621078, 0.620449, 0.0105162, 0.626031, 1.10456, 0.592857, 0.593238, 0.593852, 0.602596, 0.7636, 0.639883, 0.601793, 0.663325, 0.567636, 0.567276, 0.567718, 0.567908, 0.571127, 0.576001, 0.573304, 0.573377, 0.573779, 0.571761, 0.568343, 0.567916, 0.56691, 0.01071, 0.00397226, 0.0104994, 0.554639, 0.552927, 0.55364, 0.554406, 0.551679, 0.551546, 0.551233, 0.55064, 0.551749, 0.546331, 0.545226, 0.537075, 0.537794, 0.538706, 0.544403, 0.53243, 0.541407, 0.542715, 0.539871, 0.518665, 0.521085, 0.522697, 0.522663, 0.520759, 0.521822, 0.521836, 0.520948, 0.518945, 0.00388003, 0.566414, 0.00395257, 0.477185, 0.00386082, 0.478773, 0.00399013, 0.0101371
0.941869, 1.17234, 1.18134, 0.918485, 0.919529, 0.919893, 0.920432, 0.916702, 0.00994276, 0.90507, 0.903929, 0.903307, 0.0101419, 0.893038, 0.891558, 0.892314, 0.883768, 0.885862, 0.879753, 0.877552, 0.876803, 0.876694, 0.871893, 0.87154, 0.870969, 0.870361, 1.14615, 1.0467, 1.06826, 0.879533, 0.880458, 0.882824, 0.883978, 0.883562, 0.883965, 0.880534, 0.878889, 0.881727, 0.883119, 0.00413956, 0.898508, 0.980985, 0.907067, 0.906947, 0.907397, 0.905935, 0.904194, 0.904631, 0.904518, 0.898667, 0.897205, 0.897083, 0.896683, 1.037, 1.03725, 0.859204, 0.855632, 0.855824, 0.854337, 0.85368, 1.15883, 0.854049, 1.09292, 1.04408, 1.1942, 0.0109211, 1.06464, 0.846143, 0.845444, 0.855471, 0.845089, 0.842981, 0.842978, 0.835023, 0.835328, 0.835385, 0.831723, 0.83013, 0.828875, 0.828042, 0.828136, 0.828234, 0.826968, 0.824284, 0.821364, 0.821168, 0.820289, 0.818099, 0.8196, 0.818545, 0.818936, 0.819508, 0.82144, 0.822167, 0.823251, 0.824565, 0.825433, 0.825981, 0.831185, 0.830608, 0.83007, 0.828963, 0.824466, 0.823185, 0.82768, 0.828064, 0.827197, 0.828541, 0.830352, 0.829295, 0.828812, 0.828353, 0.829309, 0.829258, 0.830123, 0.830536, 0.824708, 0.821684, 0.816985, 0.817612, 0.811088, 0.809911, 0.800998, 0.796822, 1.04211, 0.934687, 0.813198, 1.19463, 0.99815, 0.00383285, 1.16152, 1.04264, 0.769161, 0.767759, 0.770188, 0.770894, 0.770888, 0.768182, 0.768189, 0.769565, 0.769576, 0.769231, 0.76723, 0.767254, 0.766062, 0.763422, 0.761069, 0.754364, 0.75405, 0.753712, 0.755289, 0.756685, 0.757727, 0.759881, 0.759835, 0.759717, 0.761766, 0.762506, 0.762381, 0.762586, 0.762393, 0.761242, 0.760724, 0.762651, 0.76134, 0.760523, 0.760453, 0.0103493, 0.749749, 0.751642, 0.749299, 0.750798, 0.750096, 0.749353, 0.746319, 0.733924, 0.728137, 0.728554, 0.728479, 0.728122, 0.723364, 0.72336, 0.721706, 0.736134, 0.736609, 0.70568, 0.706826, 0.711106, 0.713045, 0.71396, 0.714273, 0.713443, 0.713668, 0.709729, 0.784985, 0.691158, 0.692084, 0.69212, 0.688518, 0.684235, 0.684596, 0.684422, 0.678428, 0.674868, 0.673932, 0.672872, 0.672041, 0.665604, 0.675952, 0.675337, 0.67516, 0.675262, 0.6739, 0.670899, 0.669512, 0.66943, 0.669477, 0.671076, 0.662542, 0.830333, 0.0103508, 0.628805, 0.628228, 0.631272, 0.631143, 0.630077, 0.628014, 0.627938, 0.626692, 0.638665, 0.637327, 0.621104, 0.622157, 0.622227, 0.621519, 0.621169, 0.62102, 0.0103366, 0.937023, 0.937287, 0.594115, 0.594888, 0.593187, 0.0107061, 0.60289, 0.603184, 0.602016, 0.603322, 0.566913, 0.566239, 0.565888, 0.56577, 0.573162, 0.573904, 0.573693, 0.575064, 0.574157, 0.571269, 0.567363, 0.566469, 0.566463, 0.572095, 0.575804, 0.00372189, 0.0102466, 0.557723, 0.556538, 0.556399, 0.555498, 0.555676, 0.550705, 0.549462, 0.55093, 0.5447, 0.544596, 0.54045, 0.539206, 0.539049, 0.534563, 0.546985, 0.548329, 0.519178, 0.520764, 0.518779, 0.519214, 0.522239, 0.521776, 0.521179, 0.521751, 0.522182, 0.524183, 0.523893, 0.517747, 0.517638, 0.707401, 0.00371764, 0.466133, 0.467925, 0.0103626, 0.0109974
0.941421, 0.940157, 0.0101426, 1.05781, 0.925129, 0.924107, 0.92343, 0.919865, 0.909694, 0.9142, 0.911042, 0.0105871, 0.900004, 0.896446, 0.895204, 0.89256, 0.896331, 0.896922, 0.986686, 0.879721, 0.936421, 1.00175, 0.873037, 0.87208, 0.871243, 1.02453, 0.00411335, 0.0102042, 1.08041, 1.07951, 0.882599, 0.882923, 0.886785, 0.884889, 0.883577, 0.882087, 0.88135, 0.876407, 0.87643, 0.898226, 1.02555, 0.899532, 0.903782, 0.905318, 0.904132, 0.904336, 0.903949, 0.903354, 0.903142, 0.897836, 0.895877, 0.0104086, 0.00428789, 1.0385, 1.03912, 0.856292, 0.855687, 0.853338, 0.854244, 0.85357, 0.852882, 0.858825, 1.01304, 0.857994, 1.38136, 0.919645, 1.05741, 0.938498, 0.853417, 0.0103942, 0.846256, 0.846692, 0.87698, 0.835912, 0.835888, 0.837062, 0.839534, 0.831547, 0.828417, 0.826562, 0.824803, 0.824088, 0.823898, 0.823676, 0.824576, 0.820031, 0.819726, 0.818224, 0.81808, 0.817684, 0.817886, 0.820977, 0.823954, 0.824452, 0.821921, 0.825786, 0.82681, 0.834516, 0.834188, 0.834507, 0.831177, 0.830431, 0.826316, 0.823076, 0.826082, 0.827202, 0.826169, 0.828015, 0.828781, 0.828554, 0.826815, 0.827848, 0.829629, 0.830918, 0.830974, 0.825426, 0.825512, 0.81948, 0.819119, 0.811103, 0.810854, 0.808611, 0.808284, 0.804031, 0.927453, 0.932703, 0.815143, 0.822539, 1.06507, 0.010654, 0.872911, 1.03443, 0.768991, 0.769042, 0.768854, 0.771281, 0.770889, 0.769903, 0.767137, 0.767043, 0.768713, 0.769644, 0.767557, 0.766707, 0.765781, 0.765813, 0.764002, 0.755444, 0.755248, 0.75595, 0.755459, 0.755949, 0.752631, 0.752587, 0.753052, 0.758214, 0.761463, 0.761243, 0.761349, 0.761549, 0.759317, 0.757867, 0.758053, 0.759588, 0.76036, 0.76043, 0.760355, 0.760686, 0.0106826, 0.755935, 0.749982, 0.749608, 0.74904, 0.748901, 0.735458, 0.73433, 0.733132, 0.72844, 0.728655, 0.728441, 0.721693, 0.723156, 0.72344, 0.953647, 0.706088, 0.706661, 0.707085, 0.707428, 0.706268, 0.710359, 0.712834, 0.714833, 0.715738, 0.716323, 0.70354, 0.773735, 0.773346, 0.797583, 0.689015, 0.684704, 0.683815, 0.683064, 0.679835, 0.679502, 0.676101, 0.662407, 0.663404, 0.664821, 0.667007, 0.673455, 0.673402, 0.672674, 0.672975, 0.66954, 0.669906, 0.668772, 0.668986, 0.66553, 0.665937, 0.833584, 0.836985, 0.837768, 0.629523, 0.631119, 0.63373, 0.633817, 0.627967, 0.628175, 0.635339, 0.635894, 0.633189, 0.638763, 0.620606, 0.620089, 0.62079, 0.620962, 0.620455, 0.610499, 0.684558, 0.685462, 0.597064, 0.59686, 0.596334, 0.0109027, 0.601516, 0.602321, 0.736123, 0.602426, 0.565468, 0.566221, 0.565572, 0.565494, 0.731825, 0.57357, 0.572055, 0.571058, 0.571728, 0.572278, 0.566814, 0.568387, 0.569568, 0.573874, 0.574925, 0.574931, 0.556339, 0.55647, 0.558695, 0.558455, 0.558733, 0.556916, 0.556301, 0.555738, 0.542935, 0.54395, 0.544947, 0.545303, 0.538453, 0.545605, 0.548392, 0.548321, 0.0108149, 0.521122, 0.524143, 0.519254, 0.520753, 0.520687, 0.51989, 0.522778, 0.523036, 0.522868, 0.523947, 0.524019, 0.549272, 0.51655, 0.713002, 0.0104747, 0.0109202, 0.470529, 0.469163, 0.469426
0.935507, 0.935366, 0.932835, 0.932207, 0.930749, 0.923763, 0.924406, 0.918837, 0.915104, 0.911885, 0.911006, 0.911843, 0.904956, 0.907964, 0.897601, 0.89765, 0.891013, 0.891083, 0.899381, 0.89943, 0.939251, 0.938696, 0.938527, 0.869357, 1.02867, 0.00417756, 0.0101295, 0.00392558, 1.02201, 0.00992668, 0.887109, 0.88791, 0.886733, 0.884483, 0.883617, 0.883434, 0.882137, 0.877577, 0.988902, 0.946791, 0.89761, 0.898419, 0.896242, 0.895478, 0.900544, 0.898777, 0.900753, 0.900887, 0.901232, 0.902773, 0.00431287, 0.0105587, 1.10517, 0.00396411, 1.08001, 1.04282, 0.851834, 0.851421, 0.854355, 0.855618, 0.859366, 0.859639, 0.862889, 0.862422, 0.86144, 0.0108373, 0.857122, 0.857607, 0.858193, 0.858714, 0.856939, 0.880443, 0.883362, 0.838748, 0.838081, 0.836994, 0.837481, 0.831673, 0.83145, 0.828003, 0.826242, 0.824571, 0.823009, 0.822094, 0.822875, 0.821257, 0.818653, 0.818222, 0.819863, 0.820644, 0.819168, 0.819195, 0.824525, 0.825096, 0.823577, 0.821572, 0.832251, 0.837634, 0.838632, 0.83754, 0.833211, 0.831122, 0.831471, 0.825103, 0.824691, 0.828779, 0.828032, 0.828734, 0.829092, 0.826736, 0.826903, 0.827487, 1.16365, 0.831564, 0.830421, 0.827398, 0.826676, 0.818645, 0.81836, 0.812522, 0.812694, 0.810683, 0.80584, 0.804864, 0.80668, 0.0101624, 0.0106382, 0.0101186, 0.823792, 0.787278, 0.871537, 0.779574, 0.779376, 0.76944, 0.767641, 0.770237, 0.771943, 0.772291, 0.766296, 0.767105, 0.769537, 0.770286, 0.769866, 0.766441, 0.76582, 0.766137, 0.765361, 0.759461, 0.760872, 0.75943, 0.757755, 0.757645, 0.75668, 0.753011, 0.752762, 0.752879, 0.757735, 0.758586, 0.759735, 0.76051, 0.757583, 0.758034, 0.759872, 0.759842, 0.761441, 0.76169, 0.761272, 0.760759, 0.891687, 0.754446, 0.74923, 0.749282, 0.749379, 0.745537, 0.737047, 0.736375, 0.734827, 0.72751, 0.728247, 0.72479, 0.723575, 0.724502, 0.724642, 0.725115, 0.909807, 0.707187, 0.710166, 0.708083, 0.707242, 0.706061, 0.706087, 0.717417, 0.7173, 0.716715, 0.715519, 0.705061, 0.701346, 0.701862, 0.844086, 0.684119, 0.68306, 0.681102, 0.680529, 0.674255, 0.67193, 0.664801, 0.66555, 0.664519, 0.667681, 0.662602, 0.0104546, 0.673152, 0.670586, 0.659567, 0.659575, 0.65846, 0.659775, 0.666624, 0.670167, 0.671071, 0.0105501, 0.837064, 0.801886, 0.633149, 0.634398, 0.634699, 0.633831, 0.638382, 0.637576, 0.637959, 0.637726, 0.718934, 0.0105977, 0.835273, 0.0104673, 1.02026, 0.0100158, 0.613942, 0.612581, 0.605357, 0.597363, 0.596525, 0.596609, 0.59656, 0.74558, 0.745679, 0.604612, 0.603017, 0.600151, 0.565749, 0.565841, 0.56598, 0.56594, 0.569623, 0.57362, 0.573135, 0.574187, 0.57322, 0.571429, 0.571692, 0.572671, 0.575699, 0.576157, 0.576762, 0.559054, 0.558672, 0.558677, 0.558472, 0.56057, 0.558558, 0.558731, 0.551751, 0.544893, 0.54437, 0.547145, 0.546144, 0.72197, 0.0109846, 0.0100512, 0.00389228, 0.0108886, 0.524157, 0.525492, 0.52297, 0.522928, 0.522766, 0.523926, 0.0100921, 0.523992, 0.525286, 0.525005, 0.523337, 0.519927, 0.518677, 0.713167, 0.00353702, 0.468578, 0.469558, 0.469797, 0.476169
0.934867, 0.935634, 0.935782, 0.932834, 0.932303, 0.931896, 0.920093, 0.920194, 0.915709, 0.914693, 0.914468, 0.91214, 0.909851, 0.907534, 0.899998, 0.900859, 0.902035, 0.901953, 0.899903, 0.899202, 1.192, 0.00980878, 0.877154, 0.877417, 0.947125, 0.995844, 1.03988, 0.00988484, 0.994395, 0.888438, 0.890492, 0.888615, 0.887777, 0.887704, 0.885026, 0.884904, 0.884529, 0.964636, 0.890621, 0.897643, 0.898054, 0.897229, 0.894729, 0.895122, 0.896603, 0.898096, 0.900936, 0.897792, 0.898818, 1.1011, 0.909228, 1.1082, 1.1053, 1.07893, 1.08636, 0.943011, 0.855943, 0.856076, 0.856293, 0.8559, 0.859455, 0.860877, 0.00413161, 0.870849, 0.867618, 1.00899, 0.858889, 0.858923, 0.858143, 0.858035, 0.859677, 0.855446, 0.849489, 0.838448, 0.839129, 0.83841, 0.837652, 1.13607, 0.831907, 0.829934, 0.827904, 0.825283, 0.823471, 0.821377, 0.821745, 0.822099, 0.818238, 0.818253, 0.819031, 0.821529, 0.82145, 0.821264, 0.820246, 0.824123, 0.826709, 0.827103, 0.830623, 0.829726, 0.839588, 0.838364, 0.835874, 0.835172, 0.832401, 0.832464, 1.07386, 0.832651, 0.831482, 1.05956, 0.831708, 0.829334, 0.829132, 1.03558, 1.03617, 0.831363, 0.829914, 0.82726, 0.824984, 0.820862, 0.820568, 0.813732, 0.814852, 0.811907, 0.812561, 0.807511, 0.808226, 0.808535, 0.0103848, 1.07408, 0.788721, 0.788865, 0.782994, 0.783274, 0.783594, 1.06257, 1.02332, 0.769959, 0.770643, 0.780618, 0.774215, 0.775223, 0.770461, 0.770013, 0.766719, 0.766365, 0.76641, 0.765694, 0.764702, 0.763943, 0.762634, 0.7607, 0.759655, 0.758011, 0.757352, 0.756309, 0.755068, 0.753889, 0.760593, 0.74625, 0.747222, 0.757403, 0.758823, 0.759819, 0.760486, 0.761234, 0.762151, 0.762887, 0.762399, 0.761423, 0.760425, 0.0107645, 0.755836, 1.07306, 0.749004, 0.74284, 0.742572, 0.736686, 0.737254, 0.728071, 0.728981, 0.72939, 0.725025, 0.725961, 0.72586, 0.715242, 0.709176, 0.709324, 0.709162, 0.709111, 0.708422, 0.706245, 0.704571, 0.717414, 0.717696, 0.717368, 0.715952, 0.824077, 0.817945, 0.762006, 0.84547, 0.846082, 0.681107, 0.680578, 0.678672, 0.676618, 0.671076, 0.6693, 0.666276, 0.665752, 0.665583, 0.662821, 0.654601, 0.655213, 0.654068, 0.660147, 0.660842, 0.657353, 0.657693, 0.670185, 0.671351, 0.671991, 0.67228, 0.0103927, 0.0106393, 0.634934, 0.635248, 0.635708, 0.63526, 0.637941, 0.640058, 0.640224, 0.639599, 0.63601, 0.634109, 0.631749, 0.00425572, 0.0101914, 0.690904, 1.13579, 0.611395, 0.605939, 0.606302, 0.597176, 0.596969, 0.592343, 0.590878, 0.590893, 1.21241, 0.604663, 0.601182, 0.600594, 0.566853, 0.566237, 0.713685, 0.569995, 0.572461, 0.573153, 0.575729, 0.576418, 0.573213, 0.57407, 0.573814, 0.576873, 0.578012, 0.578134, 0.577969, 0.560131, 0.56141, 0.561761, 0.562137, 0.561679, 0.560975, 0.559692, 0.54578, 0.546939, 0.54731, 0.546917, 0.010454, 0.0104783, 0.010121, 0.59691, 0.0100802, 0.531767, 0.526021, 0.524673, 0.525073, 0.524723, 0.525582, 0.528486, 0.0106946, 0.52524, 0.524802, 0.524612, 0.524106, 0.521892, 0.87802, 0.717394, 0.01038, 0.468932, 0.0105854, 0.477793
0.936507, 0.935796, 0.939013, 0.935038, 0.92926, 0.927006, 0.919759, 0.920409, 0.919249, 0.920139, 0.91995, 0.91346, 0.91178, 0.908204, 0.907811, 0.901469, 0.899938, 0.902106, 0.902198, 0.0101729, 0.00990521, 0.880189, 0.878542, 0.876582, 0.877302, 0.949442, 0.884073, 0.941345, 0.888739, 0.892111, 0.891678, 0.891347, 0.890909, 0.887908, 0.887068, 0.887122, 0.995027, 0.894018, 0.893652, 0.897496, 0.897952, 0.895418, 0.894834, 0.898967, 0.899946, 0.898933, 0.897224, 0.897374, 0.894444, 0.886131, 0.885058, 1.0743, 0.919612, 0.0101959, 0.918408, 0.918084, 0.863145, 0.856846, 0.855992, 0.856347, 0.85964, 0.863833, 0.922348, 1.03599, 0.956843, 0.869847, 0.945851, 0.860714, 0.861216, 0.860228, 0.860669, 0.892505, 0.010624, 0.850769, 0.838478, 0.840847, 0.890949, 0.890715, 0.88871, 0.828558, 0.827864, 0.827885, 0.825845, 0.824572, 0.824889, 0.822058, 0.81802, 0.81975, 0.821043, 0.820444, 0.823839, 0.82235, 0.821864, 0.825947, 0.826458, 0.826584, 0.830424, 0.830317, 0.842498, 0.842174, 0.835814, 0.834427, 0.832796, 0.833088, 0.835181, 0.836131, 1.10482, 1.12058, 0.835921, 0.834861, 0.835415, 1.03754, 0.836594, 0.836055, 0.828751, 0.829824, 0.823963, 0.820121, 0.81831, 0.817849, 0.815895, 0.817359, 0.813961, 0.81904, 0.812412, 0.812592, 0.861242, 0.924261, 0.789017, 0.790087, 0.784872, 0.783055, 0.783528, 0.784362, 0.983247, 0.772796, 0.769361, 0.769792, 0.77596, 0.776192, 0.77655, 0.773673, 0.773654, 0.768812, 0.768701, 0.768454, 0.765397, 0.766028, 0.765719, 0.761958, 0.757171, 0.757611, 0.7556, 0.755004, 0.754819, 0.753892, 0.747476, 0.748708, 0.751826, 1.11907, 0.759623, 0.762718, 0.762797, 0.762362, 0.762465, 0.762436, 0.762598, 0.762222, 0.760783, 0.00405602, 0.00393504, 0.00404231, 0.74121, 0.741049, 0.740445, 0.739988, 0.738561, 0.736285, 0.73432, 0.729006, 0.729333, 0.730672, 0.714425, 0.714984, 0.715875, 0.705388, 0.706863, 0.707336, 0.701463, 0.703926, 0.704005, 0.703853, 0.716481, 0.718124, 0.010452, 0.82795, 0.828426, 0.81599, 0.848025, 0.847267, 0.805306, 0.857227, 0.857126, 0.678257, 0.88368, 0.669931, 0.669642, 0.666308, 0.661201, 0.66098, 0.655707, 0.653077, 0.653866, 0.654502, 0.654125, 0.656679, 0.656088, 0.671622, 0.672861, 0.673022, 0.67253, 0.863659, 0.0100885, 0.635343, 0.63593, 0.635178, 0.636307, 0.638113, 0.640385, 0.640325, 0.639544, 0.638734, 0.636688, 0.632944, 0.627579, 0.627738, 0.686124, 0.674813, 0.840288, 0.610773, 0.60761, 0.601765, 0.598153, 0.593685, 0.593149, 0.591182, 0.941823, 0.0107198, 0.601679, 0.601366, 0.732874, 0.569494, 0.570204, 0.736736, 0.572363, 0.738822, 0.578243, 0.577506, 0.57848, 0.578117, 0.5764, 0.577638, 0.579205, 0.579233, 0.578615, 0.563438, 0.562853, 0.563029, 0.561999, 0.563493, 0.5591, 0.559921, 0.5459, 0.547275, 0.547879, 0.857956, 0.0107931, 0.0105822, 0.0107603, 0.00384593, 0.535954, 0.537801, 0.525501, 0.527937, 0.527792, 0.526028, 0.528182, 0.529813, 0.59057, 0.590155, 0.531562, 0.529008, 0.525533, 0.524993, 0.522233, 0.638383, 0.637912, 0.00422378, 0.610378, 0.611009
0.938519, 0.936893, 0.937825, 0.937063, 0.932429, 0.931945, 0.927218, 0.925844, 0.922023, 0.920612, 0.919653, 0.918627, 0.915742, 0.909976, 0.905598, 0.904284, 0.904443, 0.900194, 0.903738, 1.00484, 0.886095, 0.885485, 0.880264, 0.879715, 1.04023, 0.883745, 0.883212, 0.883789, 0.890835, 0.893599, 0.892597, 0.891659, 0.890549, 0.88861, 0.888114, 0.889977, 0.897472, 1.01849, 0.931723, 0.900743, 0.901109, 0.952842, 0.905554, 0.904121, 0.899218, 0.897779, 0.897544, 0.894198, 0.89363, 0.885265, 0.884674, 0.0102452, 0.873158, 0.872311, 0.871271, 0.86779, 0.867125, 0.856406, 0.8561, 0.856483, 0.00388765, 0.010565, 0.924209, 0.882378, 1.01864, 0.0101303, 0.00441943, 0.860043, 0.860659, 0.861489, 0.862407, 0.0105445, 0.00417599, 1.04318, 0.8685, 0.839301, 0.837229, 0.898347, 0.0102316, 0.827983, 0.827798, 0.825725, 0.825553, 0.82484, 0.825346, 0.825006, 0.816353, 0.815493, 0.820073, 0.821233, 0.822062, 0.0104543, 0.00389321, 0.82548, 0.824766, 0.825945, 0.826854, 0.831079, 0.845324, 0.842614, 0.842984, 0.833222, 0.833633, 0.836567, 0.835477, 0.83883, 0.841022, 0.841852, 0.838787, 0.837283, 0.837681, 0.836894, 0.835955, 0.835289, 0.832007, 0.831582, 1.07371, 0.820401, 0.819778, 0.820902, 0.818163, 0.81809, 0.818328, 0.835948, 0.875975, 0.811947, 0.862286, 0.790592, 0.791064, 0.787602, 0.785321, 0.786679, 0.784264, 0.783138, 1.01564, 0.769507, 0.769907, 0.770402, 0.776358, 0.777391, 0.776438, 0.774546, 0.775154, 0.769291, 0.769361, 0.76816, 0.765713, 0.766466, 0.765788, 0.76526, 0.759046, 0.756536, 0.754155, 0.755655, 0.755172, 0.754353, 0.751004, 0.749363, 0.753379, 1.06089, 0.857661, 0.762108, 0.76213, 0.760521, 0.761767, 0.762432, 0.762369, 0.76162, 0.760341, 0.757006, 0.7558, 0.748515, 0.741585, 0.741815, 0.741293, 0.741662, 0.740335, 0.737607, 0.736015, 0.733822, 0.729338, 0.850303, 0.714737, 0.716231, 0.714841, 0.7081, 0.707159, 0.707454, 0.704037, 0.70401, 0.703789, 0.703963, 1.03324, 0.717964, 0.716645, 0.718343, 0.719662, 0.806162, 0.806369, 0.84942, 0.839477, 0.853222, 0.803948, 0.682081, 0.801448, 0.803822, 0.667195, 0.666573, 0.663581, 0.662327, 0.658773, 0.658394, 0.655522, 0.65446, 0.654328, 0.656641, 0.657068, 0.658756, 0.672119, 0.672722, 0.862821, 0.658507, 0.658152, 0.666159, 0.635789, 0.636027, 0.637537, 0.637432, 0.641546, 0.639246, 0.639875, 0.638908, 0.637619, 0.633009, 0.630711, 0.627699, 0.627728, 0.0103651, 0.0103347, 0.0102087, 0.602807, 0.602728, 0.601776, 0.599916, 0.596117, 0.597468, 0.597675, 0.599968, 0.00388552, 0.602916, 0.645423, 0.572202, 0.570549, 0.894356, 0.738633, 0.738916, 0.740357, 0.578337, 0.579425, 0.579053, 0.573831, 0.576711, 0.578568, 0.57935, 0.578932, 0.565852, 0.564694, 0.563368, 0.564252, 0.563227, 0.562315, 0.560461, 0.559759, 0.570465, 0.010473, 0.859272, 0.858851, 0.010311, 0.0105173, 0.00985487, 0.00377381, 0.539005, 0.537675, 0.537715, 0.52961, 0.529016, 0.535281, 0.532252, 0.53298, 0.534201, 0.535612, 0.0104615, 0.0102198, 0.526263, 0.586276, 0.0106867, 0.0105278, 0.645619, 0.684075, 0.614283
0.9389, 0.937404, 0.937626, 0.935403, 0.935298, 0.932713, 0.927111, 0.926431, 1.18396, 0.924848, 0.923074, 0.921786, 0.914659, 0.914971, 0.909274, 0.904613, 0.904336, 0.902451, 0.983741, 0.904445, 0.0102919, 1.02682, 0.957496, 0.886723, 0.886874, 0.886913, 0.885332, 0.886729, 0.888509, 0.891504, 0.892318, 0.89218, 0.891243, 0.888961, 0.889582, 0.89044, 0.953466, 0.938225, 0.939544, 0.941016, 0.945908, 1.02578, 0.908885, 0.908683, 0.902728, 0.986178, 0.891407, 0.890613, 0.890714, 0.884498, 0.883554, 0.872372, 0.871855, 0.87117, 0.86951, 0.868403, 0.866845, 0.866, 0.857426, 0.85784, 0.86645, 0.0104491, 0.880257, 0.879983, 0.880326, 0.880786, 0.85831, 0.859423, 0.860764, 0.864613, 0.864157, 0.86409, 0.0105505, 0.871278, 0.869591, 0.839675, 0.837497, 0.836999, 0.836493, 1.10261, 0.825153, 0.824746, 0.827107, 0.827364, 0.824994, 0.824148, 0.815991, 0.81451, 0.81416, 0.813471, 0.81398, 0.00404304, 1.09597, 0.824493, 0.824312, 0.826291, 0.825997, 0.831506, 1.39942, 0.0039696, 0.0101229, 0.932881, 1.04687, 0.944737, 0.843353, 0.842053, 0.842238, 0.844691, 0.840488, 0.841901, 0.840316, 0.840192, 0.838675, 0.835202, 0.829329, 0.828633, 0.820344, 0.820415, 0.819539, 0.820324, 0.816371, 0.815746, 0.819207, 0.842949, 0.839517, 0.864769, 0.0108263, 1.01451, 0.788161, 0.787722, 0.786911, 0.784612, 0.783824, 0.781814, 0.780321, 0.769359, 0.77051, 0.770916, 0.776446, 0.776436, 0.776202, 0.776383, 0.774858, 0.767912, 0.76763, 0.770223, 0.76771, 0.766561, 0.765182, 0.764453, 0.763132, 0.758246, 0.756198, 0.755512, 0.754764, 0.753775, 0.752234, 0.751986, 0.752202, 0.753616, 0.755799, 0.750633, 0.752155, 0.760084, 0.759213, 0.760956, 0.761115, 0.760615, 0.759336, 0.755118, 0.754427, 0.925754, 0.740777, 0.741607, 0.741208, 0.740706, 0.740225, 0.738643, 0.739965, 0.734635, 0.732998, 0.732674, 0.0105951, 0.892753, 0.8911, 0.704794, 0.706284, 0.708267, 0.707877, 0.70349, 0.703105, 0.703412, 0.923475, 0.721464, 0.718042, 0.718652, 0.719781, 0.716649, 0.771765, 0.805387, 0.805153, 0.804618, 0.829502, 0.68267, 0.80032, 0.677783, 0.801106, 0.666967, 0.665807, 0.662663, 0.662026, 0.657633, 0.65616, 0.654461, 0.654195, 0.654606, 0.659, 0.659447, 0.658557, 0.662923, 0.662709, 0.65918, 0.660114, 0.680247, 0.681245, 0.637128, 0.638692, 0.639342, 0.640187, 0.639476, 0.639405, 0.638484, 0.63637, 0.635199, 0.632079, 0.628474, 0.625226, 0.0107177, 0.0106015, 0.0106046, 0.610362, 0.606091, 0.606926, 0.599742, 0.598853, 0.598505, 0.597883, 0.597764, 0.599259, 0.598955, 0.598083, 0.597885, 0.901209, 0.00399692, 0.894239, 0.737774, 0.58164, 0.578463, 0.582582, 0.574051, 0.574722, 0.575413, 0.57767, 0.579044, 0.578621, 0.577475, 0.565135, 0.565516, 0.563146, 0.559893, 0.561749, 0.561141, 0.560808, 0.611297, 0.0105938, 0.010327, 0.549884, 0.550389, 0.978078, 0.0103712, 0.5385, 0.537365, 0.535842, 0.536864, 0.538756, 0.533306, 0.535732, 0.536302, 0.537308, 0.535138, 0.535501, 0.00368497, 0.0100366, 0.00400934, 0.528971, 0.0104683, 0.0105497, 0.709585, 0.685262, 0.708617
0.93861, 0.938686, 0.93617, 1.0361, 1.1151, 0.949261, 0.0102881, 0.994071, 0.934222, 1.00827, 0.9281, 0.920935, 0.91902, 0.913254, 0.912538, 0.907863, 0.902651, 0.901309, 0.901351, 0.899409, 0.90475, 0.896119, 0.886018, 0.888077, 0.886892, 0.887083, 0.886888, 0.887171, 0.888426, 0.889472, 0.892426, 0.892384, 0.892577, 0.888846, 0.891195, 0.892235, 1.00954, 0.90828, 0.96276, 0.938076, 0.939071, 0.940784, 0.0106026, 0.0107105, 1.03193, 0.896871, 0.894899, 0.888281, 0.888757, 0.883747, 0.957976, 0.978707, 0.873482, 0.871727, 0.871505, 0.868193, 0.867263, 0.0101837, 0.864578, 0.862955, 0.868704, 1.05069, 0.880147, 0.881032, 0.8802, 0.879294, 0.860875, 0.860324, 0.860485, 0.863988, 0.863215, 0.86325, 0.863731, 1.0109, 0.919199, 0.00974002, 0.837402, 0.836424, 0.836993, 0.837151, 0.907701, 0.0107497, 0.00397207, 0.924128, 0.828035, 0.8236, 0.821438, 0.816934, 0.81287, 0.814413, 0.814726, 1.08809, 0.86733, 0.00968322, 0.823612, 0.898836, 0.835075, 0.834961, 0.836005, 1.2448, 0.870061, 1.14256, 0.940205, 0.843983, 0.843874, 0.844726, 0.845368, 0.848318, 0.848605, 0.84664, 0.846008, 0.843395, 0.839912, 0.838757, 0.828555, 0.829177, 0.827931, 0.821071, 0.81644, 0.82093, 0.818511, 0.817793, 0.882303, 0.881605, 0.0106826, 0.865985, 0.866011, 1.05815, 0.794567, 0.787814, 0.777195, 0.777415, 0.778541, 0.780445, 0.778777, 0.778972, 0.767969, 0.767501, 0.7687, 0.774645, 0.776378, 0.776253, 0.767904, 0.767351, 0.767966, 0.767637, 0.76385, 0.76639, 0.765225, 0.762053, 0.760982, 0.756845, 0.753874, 0.755384, 0.753463, 0.753482, 0.752182, 0.752901, 0.752124, 0.75284, 0.752536, 0.74855, 0.748939, 0.756611, 0.757425, 0.759444, 0.760033, 0.760351, 0.759364, 0.75481, 0.756074, 0.745124, 0.745293, 0.741426, 0.740258, 0.738539, 0.738125, 0.738933, 0.73919, 0.0168788, 0.733667, 0.731457, 0.01051, 0.0103816, 0.010398, 0.00994062, 0.0102094, 0.713517, 0.708691, 0.702605, 0.704233, 0.707637, 0.707895, 0.980617, 0.718647, 0.719602, 0.720826, 0.71984, 0.717977, 0.773046, 0.805369, 0.804671, 0.802504, 0.836599, 0.836396, 0.677372, 0.802092, 0.801853, 0.665053, 0.662703, 0.662283, 0.660397, 0.653891, 0.655873, 0.655395, 0.655086, 0.658984, 0.65917, 0.659173, 0.663215, 0.663135, 0.662559, 0.659615, 0.0103767, 0.0106517, 0.638122, 0.639156, 0.637351, 0.641138, 0.642004, 0.643095, 0.642678, 0.64039, 0.635094, 0.634702, 0.63136, 0.624357, 0.624514, 0.847177, 0.846307, 0.607324, 0.606879, 0.607056, 0.606745, 0.601249, 0.602092, 0.599947, 0.599096, 0.60414, 0.6038, 0.60523, 0.747171, 0.607045, 0.893601, 0.894387, 0.581232, 0.582139, 0.583423, 0.584153, 0.583012, 0.576744, 0.576285, 0.577782, 0.578668, 0.578537, 0.577764, 0.565289, 0.565644, 0.566415, 0.567545, 0.569194, 0.563247, 0.561936, 0.560637, 0.0105014, 0.0103772, 0.549969, 0.551426, 0.551846, 0.0103044, 0.739432, 0.010212, 0.538137, 0.538202, 0.537958, 0.53631, 0.536376, 0.538025, 0.53806, 0.53772, 0.778079, 0.779404, 0.01025, 0.00960937, 0.53213, 0.0104647, 0.647206, 0.719769, 0.720676, 0.708494
