0.644060794337388,0.645730578993153,0.64497412771189,0.646085505313006,0.641975505127747,0.64228460945007,0.63757426343276,0.637578923296916,0.631256264281761,0.630940170163205,0.629011763046803,0.628627324253964,0.625112233392572,0.625850045217212,0.724462090478511,0.632293084056388,0.630706400311398,0.835676738348693,0.810529004788847,0.677295722139319,0.607344171367181,0.724145219715929,0.598936223142385,0.59808269135788,0.59916843970614,0.599939647223895,0.60032097944063,0.596100695803688,0.597045094939227,0.597883093843214,0.598950979378877,0.597480792237778,0.596746863633268,0.595180372632952,0.596009828452653,0.593891143549896,0.587774295201615,0.587455094506955,0.588924505004028,0.588552492515604,0.588251931277566,0.585424947023155,0.585971704417415,0.586695536649588,0.588923728360002,0.592205049369587,0.592122725102837,0.591927010808301,0.591614023265849,0.590550020950315,0.590138399616568,0.589764833840092,0.591260650234047,0.59183925003337,0.591944096976872,0.591638099230653,0.591542572015462,0.674996855822545,1.0757529396464,0.583087248505084,0.583603716782332,0.583022787050931,0.581968104463708,0.571746692438349,0.571438364760052,0.57071996903606,0.565761096930451,0.567310501762196,0.563734832666781,0.561302383577545,0.562700342824232,0.562908483423183,0.740981308910196,0.780581611148708,0.549152564435784,0.549978913679381,0.550496935244681,0.549769996436404,0.549874843379905,0.554861674670448,0.556230898088175,0.557318199724487,0.557601674793955,0.547308034874183,0.602158519205998,0.643682568696757,0.53925889618937,0.535451787174225,0.533076809742909,0.531546044367787,0.530861044336911,0.529375324315293,0.527224020363447,0.524341117739168,0.515354569715048,0.516361877016689,0.519231576692527,0.518641327232815,0.518685595942293,0.524251027032159,0.523439434025055,0.52359709276232,0.520438481508833,0.521156100588799,0.519770567646527,0.512275176152207,0.517812648057139,0.517886429239604,0.549194503213184,0.651273487406267,0.651382994213924,0.617227743241258,0.491099200141003,0.493720373728541,0.493236524500383,0.493201575519215,0.48851530546671,0.495019699183934,0.49558820261092,0.493982102765282,0.496945776368259,0.65981967826768,0.4822089559761,0.483408094352147,0.483410424284225,0.526291270888296,0.475043638192804,0.475115866087216,0.532716446914875,0.463400967599979,0.463880156963982,0.463894136556449,0.464583796451481,0.468234800017412,0.469178422508926,0.469718190106952,0.468839805713617,0.439963404185246,0.440584719405996,0.440163778343938,0.440289594676139,0.56899193607835,0.44654623894909,0.44406486128622,0.444646567661647,0.444864804632936,0.445163035938896,0.445275649322656,0.441051482465584,0.443115025642499,0.44715978772958,0.447590048519949,0.448812486216774,0.433133596621154,0.434321085336812,0.434678341588743,0.434460881261481,0.435208789458458,0.43481658422536,0.43389703769865,0.432908369853632,0.422385619946209,0.423356424978631,0.424051521381844,0.424310920486507,0.419084882835976,0.425102320748937
0.791959446128688,0.904122376354539,0.645211780783827,0.646166276291704,0.643218912213272,0.642978929209258,0.636739371104878,0.637178951623558,0.631970776785624,0.632483361842742,0.629832675782218,0.628037074794252,0.626801434148985,0.627249557751951,0.632216972941846,0.777024581509916,0.864140741899292,0.613195407458592,0.613958848536088,0.611923264544106,0.606360940030344,0.605565656547784,0.598088127866061,0.597566223080631,0.599780435198578,0.599447254911451,0.601078984009945,0.599834800280394,0.597820962321139,0.599188632450814,0.598894284364984,0.597176347779611,0.595528309156572,0.595397832960215,0.594990094846598,0.594141222926248,0.590527498273562,0.591923904232197,0.591024550450162,0.590143836124749,0.589875117291775,0.586613212382839,0.586407401715965,0.5865192384557,0.586659034380369,0.58817659680705,0.580659459280004,0.589586205714126,0.587796817878367,0.589824635430089,0.589702702318017,0.590901840694064,0.591412872463131,0.592398433732045,0.5923401854301,0.592136704695304,0.591631109434419,0.591029210314318,0.58689591080828,0.586745241867248,0.582725332388997,0.582668637375104,0.58021677218522,0.574110796853302,0.573124458940361,0.571324198088239,0.566058551592385,0.566397945031719,0.562710439196569,0.563040512907593,0.56403306397274,0.564050926785337,0.560360314374084,0.551863052086304,0.551579577016837,0.551929066828509,0.551016510098033,0.55052955429377,0.549885716396268,0.549230228838377,0.557002105605931,0.55741528022773,0.55729101718358,0.556557865223095,0.63822043126234,0.545696498520363,0.545858817121784,0.656259542052784,0.656925125983012,0.531647784735185,0.530562036386925,0.528786628143632,0.525053300310952,0.525280857010552,0.518738407736057,0.517124541450159,0.5176557659639,0.517631689999096,0.517450731941053,0.673191158462241,0.509615170363372,0.511381258878354,0.513148124037361,0.512942313370487,0.51071101508397,0.513464994799943,0.51988473431834,0.521201145942304,0.522057007658886,0.52272725145327,0.651171747038869,0.622546978174901,0.493171286402204,0.493666008646726,0.494516433855127,0.49378949504685,0.496488333036982,0.496550464559057,0.496089914651676,0.49561693843988,0.493109931524155,0.651349598520809,0.648750170965997,0.507672007010477,0.794514604974021,0.52272725145327,0.476676143935324,0.476500622385462,0.470681228699114,0.470649386294051,0.465236177433268,0.464656800989919,0.464034709125144,0.461045406269311,0.580327055636903,1.00333088422776,1.00847226767946,0.468942322725041,0.468526818171164,0.440066697840695,0.440105530041992,0.440347842978085,0.44307464015315,0.445078381740068,0.445216624376685,0.446195195849366,0.446011131215219,0.444987514389034,0.445318364744083,0.44486014476878,0.447854884132794,0.448901023635731,0.449143336571824,0.434557961764723,0.434888812119772,0.434946283777692,0.435364894907672,0.435720597871551,0.434860852934838,0.435038704416778,0.42976995134482,0.423997932944055,0.424591288979871,0.425308131415811,0.425032422786603,0.560990949323144,0.621781207165327
0.804253721059274,0.871790685554773,0.645242069900839,0.645552727511213,0.642734286341087,0.638541961889078,0.639066196606586,0.635330538841828,0.634475453769271,0.634469240617064,0.632654223528448,0.632293860700413,0.815445161473029,0.628346179116575,0.628494518125529,0.667805908786392,0.836903835909674,0.614239993673477,0.613707215871684,0.608834551252954,0.608257504741683,0.608533990014916,0.609428683932796,0.598747498644082,0.598566540586038,0.598890401144854,0.5984935360476,0.601877374068609,0.602705276600258,0.603085055528941,0.600638626847239,0.59800425031126,0.596196999662904,0.596524743441849,0.595241727511001,0.59384454490834,0.594877481462837,0.592153790863875,0.591795757967918,0.588009618341474,0.588247271413411,0.587312968650208,0.58694561602594,0.586526228251934,0.585334856316146,0.580657905991952,0.582006936665005,0.581114572679203,0.588384737406002,0.589698042453861,0.591252883793788,0.592121948458811,0.592074573173229,0.592092435985826,0.592623660499567,0.592323099261529,0.591883518742849,0.590884754525493,0.588347458492757,0.834154516057856,0.833284674748807,0.576904385414598,0.578647174608801,0.575299062212986,0.575593410298816,0.573571029255275,0.571368466797717,0.568957763741208,0.567049549369481,0.566395615099641,0.565237638856969,0.555201844753808,0.555621232527815,0.554878760839019,0.551885574763057,0.551605982913719,0.550037938625352,0.550117156315998,0.547262212876652,0.547360070023921,0.547806640338834,0.557271601082931,0.557383437822666,0.558469962814952,0.641431854309591,0.636877613741495,0.609967674886797,0.656869207613144,0.623652919267836,0.6237267004503,0.528166866210934,0.525347648396782,0.524899524793817,0.520788747964531,0.520101418001576,0.518872767152544,0.517561792036762,0.517037557319254,0.515013622987662,0.514191156964194,0.508242840369541,0.507567160066976,0.508120130613443,0.51053316360203,0.510154161317373,0.510171247485943,0.521778192453575,0.522653470270806,0.52251134441406,0.52243678658757,0.53161438904207,0.524476253799681,0.493849296636847,0.493407386186089,0.493518446281798,0.494352561965654,0.496373389721143,0.497219155065389,0.497296819467982,0.496845589288913,0.496677057535284,0.492897907705074,0.491466552765272,0.487271898381185,0.530885896945741,0.531924270008419,0.65284619155879,0.651992659774285,0.474403683515431,0.531148402626507,0.466200769313482,0.465373643425859,0.460023342731178,0.459536386926915,0.459337566056275,0.730137805020061,0.468665060807781,0.46638483394763,0.466697044846056,0.441337287467129,0.441241760251938,0.444868687853065,0.571342060900836,0.572857293395439,0.446161800156251,0.44644682851377,0.448956165361573,0.449670677865435,0.446477117630781,0.44652138634026,0.44886685129859,0.449923087173865,0.449894351344905,0.449620972647775,0.435361011687542,0.436671210159298,0.437562020857048,0.436587332604497,0.436599758908912,0.436018052533485,0.435319849554167,0.424880200557519,0.425882071350978,0.42573839220618,0.740530078731126,0.439804192159929,0.469519369236312
0.789761543535286,0.649398668727654,0.648689592731974,0.64683419015401,0.643677132188575,0.640642783979238,0.6369645978724,0.636739371104878,0.637679110376262,0.635312676029231,0.635084342685606,0.635496740663378,0.651166310530688,0.630938616875153,0.630225657659343,0.669984395279146,0.614077675072056,0.613833808847912,0.61296241425081,0.611583871104772,0.608930078468145,0.609454313185652,0.609150645371511,0.608464868696608,0.597673399956211,0.598521495232534,0.598039975936453,0.602841965948823,0.603546382080348,0.603208541929065,0.601670786757709,0.600947731169562,0.59740778769934,0.597331676584798,0.596721234380412,0.59542346221307,0.59498776491452,0.594996307998805,0.594846415701799,0.589366415454786,0.587132010592165,0.58704890968139,0.587131233948139,0.586778637560363,0.586782520780493,0.581718025087357,0.581449306254382,0.869748111766559,0.781265057891533,0.589955111626447,0.591982152534143,0.592104085646215,0.591720423497402,0.592185633268938,0.592218252318028,0.59219495299725,0.59199224890648,0.590835825951859,0.694378007489808,0.808292269994147,0.581499011472042,0.576652752750194,0.575922707365813,0.575848926183349,0.574963551993781,0.574587656285227,0.572651482728566,0.573725581416437,0.57014447581284,0.568219951916568,0.565073766967496,0.556529906038161,0.556505830073357,0.555568420734051,0.548605807041524,0.549710971490432,0.549797178977312,0.545729117569452,0.547837706099872,0.546866124423424,0.547109214003543,0.556982689505283,0.557775643055764,0.556268953645446,0.558776737205197,0.641955312383072,0.624578678946753,0.626962199462354,0.626773474964052,0.625035345634004,0.66518162862275,0.664780103661341,0.529892569236567,0.634215278020582,0.624540623389482,0.51985599848938,0.518332222910492,0.515453203506342,0.514800045880529,0.510125425488413,0.5104873416045,0.509226071706378,0.508669994583807,0.508227307489023,0.510932358631362,0.510609274716572,0.51145271012874,0.522474065500815,0.522611531493406,0.669699366921627,0.670236804587576,0.51348285761254,0.517989722895053,0.494174710483715,0.49430363339202,0.495548593765598,0.496858792237354,0.497527482743686,0.49858760183909,0.498198503182095,0.496992375009815,0.495391711672358,0.491584602657214,0.490157907581567,0.487636144429349,0.533734627232878,0.539973408693232,0.539320251067419,0.474579205065293,0.470508813725356,0.468990474654649,0.467489221752512,0.464286341789547,0.464033155837092,0.462922554880002,0.468363722925718,0.46812995307391,0.467915599322752,0.467561449646924,0.569482775102742,0.443775173064546,0.443695178729874,0.572461981586237,0.573992746961359,0.573212996359318,0.447934878467465,0.449987548628017,0.449989101916069,0.450278013493718,0.445165365870973,0.446456148242081,0.450001528220484,0.450086959063337,0.44998521869594,0.438593404123493,0.439176663786971,0.438541368973755,0.438449724978694,0.436508891557877,0.435692638686617,0.435699628482851,0.435561385846234,0.425292598535292,0.425991578158635,0.667370211487841,0.667304196745637,0.471758433963089
0.652478062290495,0.65135503502899,0.649387795711291,0.644941508662801,0.644589688919051,0.644286797748936,0.635843123898946,0.637558730552242,0.637846088841839,0.635986803043745,0.635798078545442,0.636112619375947,0.653782047610044,0.652584462522049,0.716231993735655,0.633215737159201,0.71940613786966,0.615854636603401,0.612000152302674,0.611229721428944,0.610147079656788,0.609327720209424,0.608168967322726,0.606172992176067,0.649874751515554,0.599275616581719,0.600637073559187,0.603188349184391,0.603707147393717,0.603039233531411,0.60264935823039,0.602633825349872,0.59765243056751,0.597748734426726,0.597555350064268,0.596457175411593,0.59572169351903,0.59535278760671,0.595540735460987,0.590165582157476,0.589472039042314,0.587396069560984,0.587296659125664,0.586854748674905,0.586539431200375,0.585051381246679,0.585095649956157,0.584743830212408,0.586854748674905,0.666724820302288,0.587379760036439,0.588891885954939,0.589210310005573,0.591226477896906,0.591976716025961,0.592104862290241,0.591634216010523,0.590929799878998,0.587159193133073,0.58680038359309,0.579261500033317,0.576382480629168,0.576244237992551,0.576158807149698,0.575984062243862,0.575650105312709,0.574567463540553,0.573176494090099,0.571091981524484,0.570528137961653,0.566919849817149,0.555156022756278,0.557169084071507,0.692857338487023,0.554860898026422,0.549459338826029,0.55036335247222,0.5464521731576,0.546404021227992,0.546720891990574,0.546761277479923,0.716561290802652,0.740070305467771,0.557890586371603,0.558661793889359,0.559725796204893,0.558672666905722,0.599804511163382,0.625693163123973,0.626156819607458,0.624600424979479,0.64478307328151,0.531095590832744,0.530277784673432,0.526897053228527,0.623757766211338,0.517980403166742,0.515358452935178,0.515025272648051,0.514636173991056,0.510709461795918,0.509421009356888,0.509104915238332,0.50894647985704,0.50962138351558,0.512136156871564,0.512463124006484,0.512050726028711,0.51565435430906,0.511007693101878,0.512180425581043,0.512298475472985,0.529127574871019,0.494424789860066,0.494890776275629,0.495803333006105,0.496875878405924,0.497880855775487,0.49819384331794,0.497500300202778,0.49618854844297,0.494079183268524,0.493312635614924,0.491741484750453,0.488549477803851,0.486085186309553,0.487329370039104,0.57924752044085,0.596132538208751,0.470155440693555,0.471572039396864,0.47177163691153,0.464771744305758,0.464720485800046,0.465001630937435,0.465679641172079,0.465648575411041,0.465457520980661,0.494471388501623,0.465897878143367,0.465072305543796,0.700833472633398,0.694318982543837,0.696441550666723,0.573150864837243,0.451549379764177,0.450511006701499,0.451019708538488,0.451643353691316,0.447320553042949,0.447026204957119,0.449768535012703,0.450237628004369,0.450015507812951,0.437287088871866,0.438489333824017,0.439359951777093,0.438167026553253,0.437106907457849,0.436415694274765,0.436159401746205,0.436904203367079,0.445641448658873,0.44560572303368,0.505235674701112,0.427478851468305,0.428518777819035
0.654162603182753,0.653008510160211,0.6530201598206,0.644387761472308,0.645686310283675,0.643640629919356,0.6387671886566,0.635043180552231,0.638333044646101,0.636286587637757,0.636248532080486,0.685076141991158,0.6851732224944,0.695128245618863,0.6734684203795,0.674148760546221,0.825510468049175,0.617508111734621,0.613419080938062,0.604593298227311,0.60537537876143,0.606743825535131,0.607418729193671,0.606222697393727,0.606360163386318,0.597986387498663,0.597372062074147,0.598839142639142,0.602684307211558,0.603620939906838,0.603357657582045,0.60349434693061,0.597282748011164,0.597488558678038,0.597380605158432,0.595119794398929,0.595470060854627,0.594860395294266,0.592835684318648,0.592003121922843,0.589939578745928,0.587109487915413,0.587282679533197,0.586012089906763,0.586529334828038,0.585820258832357,0.585356602348872,0.585383008245754,0.585939862012351,0.585647067214573,0.582399918542129,0.58303443671132,0.588998286186492,0.590475463123825,0.590860678560689,0.591290162707033,0.591748382682336,0.590758938193292,0.587721483407851,0.587052792901519,0.579316641759159,0.579000547640602,0.576644209665909,0.576001148412433,0.575031896668063,0.574073517940057,0.574830745865345,0.575062185785075,0.573882463509676,0.570808506455017,0.569128625426915,0.892216423436922,0.572368784303124,0.670246124315887,0.670832490555469,0.818093517601475,0.552693284550031,0.551961685877599,0.546886317168099,0.548271850110371,0.550495381956629,0.55073225838454,0.684813636310391,0.558532870981053,0.559702496884115,0.560080722524746,0.55995568283657,0.557994656671079,0.600481744754,0.588616177325731,0.659406503645881,0.654948566937002,0.620122295525926,0.650001344491782,0.527021316272677,0.623716604077963,0.518837041527351,0.515924626430086,0.515621735259971,0.514793832728322,0.514611321382226,0.508293322231227,0.509643129548306,0.509547602333116,0.509427999153122,0.512447591125965,0.513351604772156,0.512757472092314,0.515547954077507,0.515919966565931,0.514772086695595,0.512968719267369,0.673932853507011,0.669805767153181,0.495682176538059,0.496893741218521,0.496283299014134,0.500648815083927,0.498526246961041,0.500964132558458,0.499945952240454,0.497424965732262,0.494653899847718,0.493046246714028,0.492709959850797,0.488598406377486,0.485998202178648,0.658766548968509,0.657722739397649,0.472207334210081,0.47157669926102,0.471787169792049,0.472238399971118,0.467262441696939,0.466299403104777,0.466317265917373,0.466782475688909,0.468001030165605,1.02215673541648,0.471071880644161,0.471147215114677,0.472260146003845,0.694348495016822,0.694750796622258,0.576940111039791,0.452888314064893,0.454102208677433,0.454575961533254,0.453894844722507,0.448546873959904,0.448247089365892,0.449749118912055,0.45010559851996,0.450020944321133,0.437822196605737,0.439468681940724,0.440225909866013,0.440584719405996,0.442565161672135,0.442062672987354,0.43778336440444,0.436864594521756,0.436905756655131,0.466440752317497,0.700249436325893,0.427999979609709,0.428665563539937
0.654550925195722,0.652777846884507,0.652124689258694,0.646294422555983,0.645853288749251,0.641637664976464,0.641045085584674,0.641772024392951,0.640454836124962,0.640543373543918,0.737665038919444,0.64151029535621,0.641473793086991,0.675903199400814,0.728337544167938,0.673433471398333,0.625489682389177,0.772985255931016,0.737226235044789,0.604707464899124,0.605891847038678,0.605059284642873,0.604858133840156,0.605525271058436,0.605581189428303,0.597500208338427,0.597727765038026,0.597420214003755,0.605351302796626,0.603634919499305,0.605870101005952,0.604383604340308,0.597375945294277,0.597539817183749,0.771876208261978,0.613788763494408,0.617352782929434,0.592505610607624,0.592375911055293,0.59196351307752,0.588935378020391,0.587157639845021,0.588220088872503,0.587100168187101,0.585461449292374,0.584439385754241,0.584183093225681,0.583741959418949,0.583479453738182,0.584644419777088,0.583976505914782,0.584705774655137,0.585442809835751,0.588884896158705,0.589563683037374,0.590482452920058,0.590511188749018,0.589906183052813,0.589970644506965,0.582754068217957,0.58152231079282,0.58012124497003,0.576199969283073,0.575337117770257,0.575206641573899,0.575492446575444,0.575128977171305,0.575125870595202,0.574095263972783,0.887991479935824,0.564741363324395,0.922210415718617,0.761195799617289,0.564393426800775,0.563864532219112,0.560135087606562,0.558572479826376,0.552576787946141,0.547196198134448,0.547854015624417,0.549541663092778,0.550442570162865,0.552209435321872,0.552645909264449,0.558783727001431,0.561113659079243,0.56010868170968,0.55921787101193,0.638927177325943,0.62516815176244,0.626478350234196,0.624417913633384,0.624584892098961,0.623184602920196,0.62506485810699,0.695194260361068,0.618964319283253,0.540875869051371,0.629247862830688,0.868256955236759,0.630029943364806,0.509627596667787,0.509761179440248,0.509125107983006,0.508961236093533,0.507936065979296,0.511931122848717,0.514464535661324,0.515812789690351,0.516454297655775,0.516458957519931,0.509215198690015,0.508304971891616,0.933526119176522,0.503898293688449,0.501524869545184,0.498609347871816,0.498290923821182,0.498523140384937,0.500366116658486,0.50105732984157,0.49846333879494,0.496496099477241,0.494678752456548,0.494118015469821,0.733305736001858,0.487326263463,0.553622927449078,0.748902301330729,0.472559930597856,0.472922623357969,0.472868258276153,0.472664777541358,0.469329868093983,0.468868541542577,0.466574335089958,0.467029448489157,0.467266324917068,0.469158229764251,0.473345894352105,0.472455860298381,0.528827790277007,0.485106614836872,0.695224549478079,0.453348863972274,0.453678937683297,0.454534022755854,0.454710320949742,0.455149124824396,0.447893716334091,0.44609500877002,0.447788092746563,0.450736233469021,0.450446545247346,0.449717276506991,0.439886516426678,0.440528024392102,0.441692990431008,0.442106165052807,0.442285569822798,0.441606006300103,0.436748097917866,0.437200881384987,0.4365694697919,0.432830705451039,0.429284548828609,0.430856476337106
0.654175806131194,0.652609315130879,0.648994813834167,0.64676351554765,0.646376746822733,0.641493985831666,0.641811633238274,0.643229008585609,0.643953617461809,0.645353906640574,0.644668906609697,0.642990578869647,0.642634875905767,0.64018378735991,0.671865427109966,0.670546685553925,0.684305711117428,0.614849659233838,0.615184392809017,0.611811427804371,0.61126700034219,0.60489929597353,0.604287300481092,0.606930220101356,0.606723632790457,0.600891812799694,0.600637073559187,0.601523224392781,0.605471682620646,0.605949318696597,0.608134794985585,0.807857349339623,0.6046049478877,0.605568763123888,0.606655288116174,0.607153893580826,0.607546098813924,0.602831869576486,0.603501336726843,0.590482452920058,0.588259697717826,0.587855842824338,0.587864385908624,0.586292458400127,0.586295564976231,0.584942651083048,0.583969516118549,0.584033200928675,0.584726744043837,0.584188529733863,0.583468580721819,0.584315122710091,0.584200179394252,0.584907702101881,0.587060559341779,0.589566789613478,0.590120536803971,0.774228663016542,0.588166500434713,0.584166783701137,0.583720213386223,0.769278333995218,0.571945513308989,0.572806034889727,0.575769708492704,0.576198415995021,0.576019011225029,0.576446942083321,0.571760672030816,0.564506816828562,0.564041607057026,0.56460467397583,0.564366244259868,0.564198489150265,0.563417961904198,1.09786399506483,0.687103182898854,0.558069214497569,0.547772468001693,0.548116521305183,0.550471305991825,0.551392405806587,0.551874701746694,0.552847836711193,0.557848647594202,0.559922287143455,0.560079169236694,0.563153126291354,0.587600326939805,0.592023314667517,0.623440118804729,0.662748402889489,0.62434413245092,0.663182546899988,0.624963894383618,0.523180034920392,0.524567897794741,0.601384981756164,0.703663563463913,0.970890463264361,0.507498815392693,0.508700283700818,0.509473044506626,0.5089961850747,0.509157727032095,0.50553623593915,0.505127721181507,0.505794858399787,0.507164081817514,0.507939949199426,0.508642812042899,0.508966672601715,0.50919888916547,0.501663888825827,0.503171354880171,0.502982630381869,0.500872488563397,0.5008126869734,0.500651921660031,0.500484943194454,0.500108270841875,0.500193701684728,0.497324778652916,0.496784234410864,0.568553908847721,0.735050078484113,0.752952499925992,0.597394584750899,0.638972999323473,0.471475735537648,0.472629051916165,0.47269118343824,0.471543303567905,0.47043347925484,0.470995769529619,0.470299896482379,0.466574335089958,0.468784663987776,0.740975872402014,0.473734216365073,0.474572991913086,0.472441880705914,0.55226923691187,0.584171443565292,0.452763274376717,0.453915037467182,0.45408745244094,0.454561205296762,0.454535576043906,0.453696800495894,0.453863002317444,0.449127027047279,0.449937066766331,0.450119578112427,0.45008074591113,0.442471187744997,0.442104611764755,0.443494804571182,0.443250161703012,0.442374107241755,0.442981442870038,0.436804792931759,0.436816442592148,0.43707040518863,0.584353954911388,0.435770303089211,0.43066076204257
0.652450103105562,0.651577931864434,0.650976809388359,0.647385607412425,0.646650125519863,0.643684121984809,0.642881848706015,0.643692665069094,0.644614541527881,0.644871610700467,0.645742228653542,0.645906877187041,0.64484986466774,0.672674690184992,0.672765557536027,0.676025132512886,0.62530950097516,0.617736445078246,0.617190464328013,0.616338485831559,0.611610277001654,0.611107011672847,0.60878562267932,0.607130594260048,0.604153717708631,0.602215990863917,0.601704182450825,0.601590015779012,0.601241302611366,0.606561314189036,0.609716818866419,0.610443757674696,0.606313564744762,0.607004777927846,0.606790424176687,0.607445135090553,0.607955390215593,0.609233746282286,0.604848814111844,0.855923848104876,0.587566154602664,0.588543172787293,0.590126749956179,0.587597997007727,0.587225984519303,0.584019221336209,0.584312016133987,0.585463779224452,0.584746936788512,0.584134164652047,0.585291364250694,0.584694124994748,0.585247872185241,0.587673331478243,0.589846381462815,0.590993484689125,0.592313779533218,0.592828694522414,0.593309437174469,0.582121879980844,0.581176704201278,0.581572792654506,0.57334657913178,0.574308841079916,0.576137061116972,0.575483126847133,0.575165479440524,0.573904986186428,0.572836324006739,0.56577274659084,0.5655529563315,0.565152984658142,0.563922780521057,0.563515819051466,0.562760921058255,0.562197854139451,0.913403272464489,0.916704009574722,0.828609277712665,0.554100563525029,0.554575869668903,0.553818641743614,0.553413233562075,0.553291300450003,0.560938137529381,0.560734656794585,0.561835938023364,0.562867321289809,0.56315001971525,0.588621613833912,0.587674884766295,0.650935647254984,0.549941634766136,0.550561396698834,0.62981325968157,0.524542268541885,0.524610613216168,0.636299013942172,0.657536344831425,0.508320504772135,0.508029263262408,0.507588906099702,0.506858860715321,0.507527551221653,0.508469620425115,0.509502556979611,0.506027851607568,0.506343945726125,0.506686445741563,0.50944741525377,0.50932703542975,0.510092029795298,0.509733220255315,0.508937160128729,0.504882301669311,0.504799200758536,0.502059977279055,0.501310515794026,0.50212599202126,0.502059977279055,0.500428248180561,0.500168849075898,0.497502630134856,0.497499523558752,0.794553437175318,0.738371008339021,0.502690612228116,0.501692624654787,0.694937191188483,0.76012325421747,0.4717677536914,0.471146438470651,0.470384550681206,0.471000429393774,0.471737464574389,0.469189295525289,0.467469805651864,0.460537481076348,0.459411347238739,0.459898303043002,0.474607164250227,0.474131858106353,1.02801263137204,0.475694465886539,0.474264664234788,0.453697577139919,0.455116505775307,0.455469102163082,0.455202713262186,0.455810048890469,0.454391896899107,0.453168682558256,0.451136981786404,0.451052327587577,0.447309680026586,0.44542398833161,0.445123427093573,0.443590331786373,0.443486261486897,0.443570915685724,0.442811357828358,0.437718126306261,0.438287406377273,0.439217825920346,0.438158483468968,0.439169673990738,0.438171686417409
0.652631837807631,0.653780494321992,0.652435346869069,0.645842415732888,0.644629297764374,0.643468991589624,0.646119677650148,0.645153532481882,0.64450581136425,0.645219547224086,0.645671554047182,0.64490345310553,0.645537194630695,0.66966441794046,0.733404369793152,0.875720504326016,0.620850010978229,0.620267527958776,0.620183650403975,0.615450781709913,0.612899506084709,0.613760804309474,0.613194630814566,0.613920792978817,0.604483014775628,0.603183689320235,0.604038774392792,0.602249386557033,0.854836546468564,0.616834761364133,0.611699591064637,0.611290299662968,0.611263893766086,0.611537272463216,0.607362810823803,0.607570174778728,0.607438921938345,0.608156541018311,0.608698638548415,0.61472694947774,0.711907639799236,0.708787860747047,0.717639272710653,0.682354781324274,0.586904453892565,0.584965950403826,0.586543314420504,0.58639885863168,0.586514578591545,0.585821035476383,0.586759221459715,0.586227996945974,0.589287197764141,0.589114782790383,0.590401681941361,0.591414425751183,0.592629873651774,0.594468966705194,0.619443508647257,0.744867635615986,0.58145163618646,0.581361545479452,0.576843030536549,0.576793325318889,0.577368041898082,0.574551154016008,0.574886664235213,0.574996947686896,0.573668109758517,0.573520547393589,0.564510700048692,0.564809707998678,0.564856306640234,0.562566760051771,0.562565983407745,0.562895280474742,0.874757465733854,0.874656502010482,0.554592955837474,0.554106776677237,0.554631011394745,0.554717218881624,0.553710688224009,0.553430319730646,0.560311385800449,0.561274424392612,0.562021555945563,0.562916249863443,0.565178613910998,0.992100611612706,0.587792158014211,0.593113722879933,0.634895618187303,0.633973741728516,0.649849122262698,0.634816400496657,0.526949088378265,0.631670992191612,0.655400573760097,0.506579268865984,0.507030499045053,0.506928758677656,0.507386202008933,0.506926428745578,0.506930311965707,0.506365691758851,0.506276377695868,0.505294699647084,0.505500510313957,0.506135805127174,0.50655519290118,0.509121224762876,0.509043560360283,0.505238781277216,0.50392858280546,0.50388276080793,0.50135556114753,0.502357431940989,0.503642001159889,0.502382284549819,0.500904330968461,0.500470963601988,0.499152998689972,0.506096196281851,0.754656456918898,0.757374711009678,0.506064353876787,0.506087653197566,0.505881842530692,0.769349785245604,0.471200803552466,0.471246625549997,0.470400083561725,0.470377560884973,0.469186188949185,0.468955525673482,0.468698456500897,0.46044739036934,0.460536704432322,0.460324680613242,0.472001523543207,0.471532430551541,1.03247833452118,0.474089919328953,0.448669583716002,0.449150326368057,0.453268869637602,0.455197276754004,0.456609215593158,0.456815026260031,0.455552203073857,0.455166987636993,0.455311443425817,0.453219941063968,0.449944056562565,0.448431154000039,0.446040643688204,0.443116578930551,0.443744883947534,0.444851601684495,0.444849271752417,0.439766136602658,0.439959520965116,0.439588285120718,0.440355609418344,0.439137831585675,0.436890223774612
0.661557030953701,0.655351645186463,0.64954856102466,0.645880471290159,0.643797512012595,0.644727154911642,0.645792710515228,0.646160063139496,0.648534263926786,0.645651361302507,0.64473336806385,0.646902534828292,0.646201225272871,0.645581463340173,0.645992308029894,0.668779043750891,0.62045780574513,0.619902505266585,0.620419750187859,0.617710815825391,0.61635557200013,0.613064931262234,0.611773372247101,0.609338593225787,0.608390310870118,0.604557572602118,0.60470824154315,0.605812629348032,0.606022323235036,0.858774131680066,0.615093525457982,0.614964602549677,0.615287686464467,0.616322952951041,0.607393099940815,0.606851002410711,0.607205152086538,0.609057448088398,0.609587895958113,0.610408808693529,0.614271836078541,0.717526659326892,0.718479601546717,0.723418280907652,0.627550895634015,0.585097203244209,0.586147225967277,0.586612435738813,0.586167418711951,0.586620978823098,0.586292458400127,0.589312050372971,0.589955888270473,0.590885531169519,0.591039306686655,0.59188895525103,0.593881047177559,0.595046013216465,0.621833242315065,0.590500315732654,0.581682299462164,0.581220972910757,0.576035320749574,0.57877920409321,0.575357310514931,0.574961998705729,0.575179459032991,0.57613550782892,0.57506684564923,0.574003619977722,0.571189838671752,0.564244311147795,0.564302559449741,0.563972485738717,0.564464878051162,0.567802117430614,0.566570360005477,0.563487859866533,0.555527258600676,0.557626527402785,0.555500852703794,0.556957060252427,0.557094526245017,0.557339945757214,0.561138511688072,0.561129191959761,0.562601709032938,0.562734515161374,0.562686363231765,0.586704079733873,0.589830071938271,0.590431971058372,0.5923192160414,0.584193966242044,0.585575615964187,0.643801395232725,0.707959958215398,0.519344966720314,0.518283294336857,0.514339495973148,0.511499308770296,0.512032863216115,0.506877500171944,0.507156315377255,0.507473186139837,0.507240969576082,0.506698095401952,0.505344404864744,0.506320646405347,0.50667945594533,0.506347828946254,0.505456241604479,0.505088112336184,0.504663288053997,0.505003458137357,0.503555017028984,0.501291099693377,0.501270906948703,0.501700391095046,0.500922193781057,0.501709710823358,0.499803049739682,0.511770357535348,0.579651375334338,0.510365408492428,0.590194317986435,0.59082417629147,0.505317998967862,0.504566207550755,0.771761264946139,0.471512237806867,0.469718190106952,0.468991251298675,0.469398212768266,0.470056806902261,0.470385327325232,0.46697353011929,0.460798433469063,0.461453921026954,0.461044629625285,0.460687373373354,1.03820220099234,0.455526573821002,0.453826500048225,0.45460935722637,0.45077661895837,0.449946386494643,0.452527174592832,0.454778665624024,0.454383353814822,0.454607027294292,0.455727724623719,0.455844997871636,0.450907871798753,0.449891244768801,0.448991890986766,0.447932548535387,0.447848670980586,0.443979430443367,0.443901766040773,0.444405808013607,0.438413222709475,0.439278404154369,0.440482979038598,0.441927536926841,0.442014521057746,0.437885881415864
0.662867229425458,0.660367988949992,0.648945885260533,0.646901758184266,0.645974445217297,0.646177925952093,0.646925057505044,0.64777082284929,0.648774246930801,0.648914819499496,0.832671125968316,0.845268292069018,0.648277194754201,0.647086599462439,0.641530488100885,0.641729308971525,0.621790526893639,0.621986241188175,0.622729489520997,0.622741139181386,0.615631739767957,0.613996904093359,0.610026699832768,0.609401501391888,0.608243525149216,0.608203916303893,0.607735599956253,0.606478213278261,0.607076229178232,0.617004069761788,0.61526205721161,0.615562618449648,0.615644166072372,0.616903882682442,0.617436660484235,0.61373284512454,0.859597374347559,0.611214188548426,0.610901977649999,0.61059597990378,0.611481354093348,0.616492261348695,0.874470107444257,0.773639966844881,0.769850720642334,0.625061751530886,0.585205933407841,0.585170984426673,0.586077328004942,0.587013960700222,0.766250975582115,0.589881330443983,0.590440514142657,0.597640780907121,0.591159686510675,0.592889272756437,0.592497067523339,0.906118351501198,0.62825919498567,0.59075350168511,0.579090638347611,0.57915199322566,0.576932344599531,0.575266443163896,0.57467697034821,0.576745950033307,0.57643373913488,0.576018234581003,0.575484680135185,0.574228070101218,0.573576465763457,0.570320774006728,0.564974356532176,0.564883489181142,0.56512657876126,0.565982440477843,0.56621232710952,0.566172718264197,0.56414024084832,0.558052128328998,0.556407196282063,0.556737269993086,0.556408749570115,0.555554441141584,0.555294265392895,0.562538024222811,0.563365150110434,0.563578727217567,0.577487645078077,0.573797032666823,0.576189872910736,0.673229990663538,0.596436206022893,0.600839777649957,0.602713819684543,0.603443865068924,0.577479101993791,0.56567721937565,0.520816707149465,0.51501206969961,0.513640516349805,0.512748929008029,0.511858118310279,0.512213044630132,0.506519467275987,0.506627420795592,0.50925247760326,0.509338685090139,0.509057539952749,0.507089523991024,0.506596355034554,0.504987925256838,0.505705544336804,0.504837256315807,0.505647296034859,0.506365691758851,0.502004835553214,0.501194019190135,0.501120238007671,0.5010612130617,0.500838316226256,0.500456984009521,0.717091738672367,0.517085709248862,0.509712250866615,0.509573231585972,1.06330333591063,1.06210730411069,0.506615771135203,0.506698095401952,0.769953237653757,0.469667708245266,0.469648292144618,0.46977022525669,0.47021757221563,0.470052147038105,0.467565332867054,0.468697679856871,0.460622135275176,0.461728853012136,0.457999408399586,0.457729912922585,0.457963682774392,0.455022531848168,0.455473762027238,0.455747140724368,0.45463032661507,0.454808954741036,0.454666052240263,0.454361607782096,0.455427163385682,0.455160774484785,0.455319209866076,0.449125473759227,0.450121131400479,0.449814357010233,0.449770864944781,0.447809838779289,0.444663653830218,0.445613489473939,0.44503411303059,0.439501300989813,0.440000683098491,0.439904379239275,0.441863852116714,0.442143443966052,0.439832151344862
0.658862076183699,0.65907021678265,0.647060193565558,0.646973986078679,0.647233385183342,0.645951922540545,0.646914184488681,0.648658526970936,0.680716839073572,0.735233366474234,0.834931160083794,0.845299357830055,0.850394142640203,0.850603836527206,0.661416458385007,0.641379042515827,0.623347698165643,0.623460311549404,0.623665345572251,0.619834160592303,0.619581751283873,0.613586059403638,0.611433978807766,0.611836280413201,0.609360339258514,0.611226614852841,0.611065849539472,0.610363763340025,0.608634177094262,0.609490815454871,0.625213197115944,0.616402170641686,0.616616524392845,0.617218423512946,0.615892692160672,0.617741881586428,0.618026909943947,0.615057023188763,0.612284404016167,0.611719007165285,0.611371070641665,0.616764086757773,0.616178497162216,0.621586269514817,0.622014200373109,0.990384228315385,0.745350708200119,0.900510981633931,0.631330822108251,0.600497277634518,0.600334959033097,0.598554890925649,0.760078985507992,0.601178394445265,0.599619669885209,0.6015387572733,0.603318825380748,0.603380180258797,0.633018469576613,0.71698611508484,0.656272745001225,0.581179034133356,0.578633195016334,0.575865235707894,0.576075706238923,0.575852809403479,0.576544022586563,0.577117185877705,0.576274527109563,0.573588115423846,0.573473948752033,0.567666204726075,0.566576573157685,0.565890019838756,0.566381635507175,0.56661773529106,0.567349333963492,0.567592423543611,0.714532696606904,0.558836538795195,0.556624656609326,0.557253738270335,0.557118602209822,0.556440591975178,0.554724208677857,0.555396005760293,0.563111187513953,0.58162172122814,0.57190901103977,0.57370771860384,0.574405921583158,0.575126647239227,0.600486404618155,0.600178853583884,0.601176841157213,0.698471698150523,0.706173676955742,0.560813874485231,0.560757956115363,0.637943945989107,0.512040629656374,0.513218021999695,0.514063787343941,0.514751893950921,0.511873651190798,0.510183673790358,0.510468702147877,0.514820238625204,0.512152466396109,0.509887772416476,0.507584246235546,0.507755107921253,0.505539342515254,0.505445368588116,0.505408866318896,0.504539801653873,0.502941468248494,0.501350901283374,0.501040243673,0.499881490786301,0.499071451067249,0.499591025920601,0.724199584797745,0.724394522448255,0.664550993673689,0.630541751777899,0.520692444105315,0.606157459295549,0.506528787004298,0.50624919515496,0.504303701869988,0.600731047486325,0.601896013525231,0.469696444074226,0.469871188980062,0.470910338686766,0.470533666334186,0.466645009696319,0.466193779517249,0.463895689844501,0.457484493410389,0.457661568248303,0.458032027448675,0.455827911703065,0.456273705373953,0.456047701962405,0.456429810823166,0.455472985383212,0.455692775642552,0.454930111209082,0.455915672477996,0.455564629378272,0.453515065793824,0.452723665531394,0.448885490755212,0.450492367244877,0.449258279887662,0.449134016843512,0.444663653830218,0.446005694707037,0.446088018973787,0.439742060637854,0.439293160390862,0.439575858816303,0.439533143394877,0.43232200361405,0.433337853999975
0.661596639799024,0.656572529595236,0.646323158384943,0.64702912780452,0.646697500805445,0.646960783130238,0.646970879502575,0.651040494198486,0.793473901979266,0.844041194508037,0.834791364159125,0.730144794816294,0.822900944122026,0.684507638564172,0.708648841466404,0.638927953969969,0.62632845793719,0.625329693719834,0.626010810530581,0.619842703676588,0.619726207072698,0.619205078931294,0.61143320216374,0.613097550311324,0.613995350805307,0.611533389243086,0.611063519607394,0.610654228205725,0.609371212274877,0.608699415192441,0.604181676893565,0.604171580521227,0.61147902416127,0.616644483577779,0.61716794165126,0.617762850975128,0.617807119684607,0.618194665053549,0.619282743333887,0.619407783022063,0.615992102595991,0.616179273806242,0.615793281725352,0.615250407551222,0.709757889135442,0.770446406610227,0.65709754095677,0.766107296437316,0.601192374037732,0.600028961286878,0.600257294630504,0.600920548628654,1.01750463770111,0.602490922849099,0.604879103228856,0.605762924130373,0.605635554510119,0.606865758647203,0.80517016100988,0.7608936850912,0.603245044198284,0.579638172385897,0.57695176070018,0.576635666581623,0.576958750496413,0.575820966998415,0.575534385352845,0.576310252734756,0.574666097331847,0.573687525859166,0.572270927155856,0.571059362475394,0.56740525233336,0.567849492716196,0.568285190014747,0.567943466643334,0.568083262568003,0.568499543765905,0.568080932635925,0.56571527493292,0.557028511502813,0.557596238285773,0.555529588532754,0.554704015933183,0.555022439983817,0.555434061317564,0.562250665933215,0.584673155606048,0.573998183469541,0.574464946529129,0.576317242530989,0.576039203969704,0.574816766272879,0.606260752950998,0.585609788301328,0.63535694473871,0.649174995248184,0.654874009110512,0.557732150990312,0.892946468821303,0.726902306008006,0.520367030258447,0.520353827310006,0.514522007319244,0.514226105945361,0.512098101314294,0.511801423296386,0.514184943811987,0.514607438162097,0.513615663740975,0.508213327896556,0.508729019529778,0.509061423172879,0.506399864095992,0.505744376538101,0.504783667878017,0.503433860560938,0.502881666658497,0.500661241388342,0.500429801468613,0.49974790801384,0.499212800279969,0.893948339614762,0.896021979164014,0.89496574328874,0.525798878575852,0.522301650527057,0.598359953275139,0.724994091636278,0.501570691542715,0.499955271968765,0.498690118850514,0.629115833346278,0.53646220105197,0.56453011614934,0.473981965809347,0.474113995293757,0.467136625364737,0.467724544892371,0.466590644614503,0.457009963910542,0.457890678235954,0.458119788223606,0.456766097686397,0.456860848257562,0.456361466148884,0.454510723435076,0.455332412814517,0.455410077217111,0.456183614666944,0.45586130739618,0.455426386741656,0.454462571505468,0.454342191681447,0.452139629223889,0.449101397794423,0.450062883098533,0.446346641434424,0.447340745787623,0.445797554108086,0.446213058661963,0.438017910900273,0.439181323651127,0.440010779470828,0.440304350912632,0.433851992345146,0.434390983299146
0.661227733886704,0.656449043195112,0.785761826801709,0.644379218388022,0.64752617998112,0.647570448690598,0.649938436325681,0.650729059944085,0.680566170132541,0.842651001701609,0.849493235570116,0.848157407845504,0.944601062986386,0.669377836294889,0.666358244322045,0.627134614436113,0.626774251608078,0.626081485136942,0.625582103028264,0.625059421598808,0.621359489459244,0.621882947532725,0.61696912078062,0.614152232898546,0.614147573034391,0.611047210082849,0.611081382419991,0.603904414976305,0.604224392314991,0.604579318634844,0.603919171212798,0.60559128580064,0.603245044198284,0.615935407582098,0.616552062938692,0.618738315871705,0.619260997301161,0.619590294368159,0.619405453089986,0.619035770533639,0.619107998428052,0.61662506747713,0.646674201484667,0.791345897348198,0.775004530398453,0.592308343025036,0.592746370255665,0.598109097254761,0.600044494167397,0.596862583593132,0.596404363617829,0.596172147054074,1.00898485273658,0.612116648906565,0.605074817523392,0.607303785877832,0.608374001345573,0.609031042191516,0.609544403892661,0.74907238637241,0.648739297949634,0.831366364004742,0.575507202811937,0.577135048690301,0.574784147223789,0.576178223250347,0.575974742515551,0.576123081524505,0.573349685707883,0.573663449894362,0.573299203846197,0.570222140215434,0.567369526708167,0.566821992669881,0.567803670718666,0.568188109511504,0.56912940207094,0.56854458911941,0.567403699045308,0.5665889994621,0.565976227325635,0.556446805127386,0.555743942283913,0.554691589628768,0.555513279008209,0.5546356712589,0.563036629687463,0.566706272710016,0.585424947023155,0.586798830305038,0.576255111008914,0.57987271888173,0.697068302395654,0.603999942191495,0.608305656671291,0.585814045680149,0.549337405713957,0.657452467276623,0.533405330165881,0.657184525087675,0.525516180150411,0.523727568958677,0.520733606238689,0.516426338470842,0.513300346266444,0.513133367800868,0.511984711286507,0.512819603614389,0.515360782867256,0.515346026630763,0.514691315716898,0.509900975364917,0.509257137467415,0.50842845829174,0.506955164574537,0.506187840276911,0.50341056124016,0.503802766473258,0.499063684626989,0.497229251437726,0.497470787729792,0.49831810636209,0.498088996374438,0.494798355636542,0.898786831896351,0.528746242654283,0.585769776970671,0.711356999184847,0.712605066134528,0.722344958863807,0.747877131216492,0.761970113711149,0.778049751624153,0.776482483979811,0.581787146405665,0.474155157427131,0.474387373990887,0.47541332074915,0.467270984781224,0.465183365639505,0.465503342978191,0.686588267909658,0.45806542314179,0.457413818804029,0.457886795015825,0.456897350526781,0.455519584024768,0.455583268834895,0.454096772169251,0.450245394444629,0.451238722153802,0.454961176970119,0.453371386649026,0.448304561023811,0.448908790075991,0.449148773080005,0.441336510823103,0.442329061888251,0.443246278482882,0.447289487281912,0.447282497485678,0.44718075711828,0.439861663817848,0.440029418927451,0.440044175163943,0.439587508476692,0.434267496899022
0.660208776924674,0.652822892238012,0.646414025735978,0.647913725350062,0.649265862599219,0.649541571228427,0.652483498798677,0.653533521521744,0.654390936526379,0.656933669067297,0.657689343704534,0.891905765826547,0.844429516521006,0.842751965424981,0.798475489506301,0.766848991482086,0.625650447702547,0.625842278776953,0.627173446637409,0.625562686927616,0.62486992045648,0.6219660484435,0.619875322725678,0.616590118495963,0.616726807844528,0.617435883840209,0.664772337221081,0.604506314096406,0.605534590786747,0.604358751731478,0.604558349246144,0.604898519329504,0.604806098690418,0.612953871166525,0.615190605961224,0.615721053830939,0.615088865593826,0.619189546050775,0.619413219530245,0.61982328757594,0.6181333101755,0.611846376785539,0.611328355220239,0.605772243858684,0.608867170302044,0.592183303336861,0.592691228529823,0.597918042824381,0.598151812676188,0.59877079796486,0.597568553012709,0.596838507628328,0.597852028082176,0.598676824037721,0.906561038595982,0.608743683901919,0.609361892546566,0.609519551283831,0.609619738363177,0.609789823404857,0.822900944122026,0.607398536448996,0.607162436665111,0.575335564482205,0.575361970379087,0.575664861549202,0.576340541851767,0.57613162460879,0.576125411456583,0.575306052009219,0.573563262815016,0.805713811828036,0.568119764837222,0.568324798860069,0.568138404293845,0.569379481447292,0.569115422478474,0.567119447331815,0.568099572092548,0.567874345325026,0.566105926877967,0.559928500295662,0.55584568265131,0.554172791419442,0.55382330160777,0.554706345865261,0.562724418789036,0.56423965128364,0.564039277124948,0.59130025907937,0.573776839922149,0.572246074547026,0.586925423281266,0.604194103197979,0.609125792762681,0.60945664311773,0.61697300400075,0.662159706717829,0.533551339242757,0.533484547856526,0.660176934519611,0.525541809403267,0.524311605266182,0.521156877232825,0.517648776167667,0.517032897455099,0.515315737513751,0.514534433623659,0.514797715948451,0.515645034580749,0.514907999400134,0.510080380134909,0.509966213463096,0.509205878961703,0.50749570881659,0.506319093117295,0.506056587436528,0.502758956902399,0.503483565778598,0.497826490693671,0.498265294568326,0.499239206176851,0.500331167677319,0.513471984596176,0.897629632297704,0.898320845480788,0.671011895325461,0.671011118681435,0.492796943981702,0.493060226306495,0.488989834966558,0.489082255605645,0.643023197918736,0.644000216103365,0.586906007180617,0.475779896729392,0.476115406948597,0.474852583762423,0.471900559819836,0.466930038053838,0.46658365481827,0.464488269236291,0.465605083345589,0.457742339227,0.456887254154444,0.456206913987723,0.458272787096716,0.45661465210134,0.456045372030328,0.455071460421802,0.45304364287008,0.453599719992651,0.454125507998211,0.450369657488778,0.449753002132184,0.45008074591113,0.447697225395529,0.443660229748707,0.444546380582301,0.447176873898151,0.447310456670612,0.448078557612264,0.449241970363118,0.440062814620566,0.440196397393027,0.440059708044462,0.439758370162398
0.662377943689117,0.654445301608194,0.648817738996254,0.648724541713141,0.648461259388348,0.652942495418006,0.653468283423565,0.654378510221964,0.847264267215676,0.657673034179989,0.658421719020993,0.878865912631062,0.842130650204232,0.761947591034397,0.782973674748595,0.894243464344618,0.627550118989989,0.624500237900134,0.624946808215047,0.624375974855984,0.624476938579355,0.623579914729398,0.621448803522226,0.61768984643669,0.617226966597232,0.617342686557096,0.618470373682757,0.633404461657504,0.633433974130489,0.611984619422155,0.604275650820703,0.61223236886643,0.607410186109385,0.608879596606459,0.60861942085777,0.609346359666047,0.615919098057553,0.616811462043355,0.609470622710197,0.619662522262571,0.807569991050026,0.813480252087408,0.610112130675621,0.604229828823173,0.606703440045783,0.593692322679257,0.594235973497413,0.59944181840327,0.599333088239638,0.600083326368694,0.599480650604566,0.598538581401105,0.597863677742565,0.598258989551767,0.598039199292427,0.608995316566323,0.6094317905089,0.610798683994549,0.609903213432644,0.609028712259438,0.00369855747963894,0.657990681586598,0.609031042191516,0.608555736047643,0.825891023621884,0.579026953537484,0.578793960329703,0.574656777603536,0.574330587112642,0.574670757196002,0.573349685707883,0.713665961873958,0.566677536881057,0.566725688810665,0.566718699014431,0.567901527865934,0.568774475751087,0.568037440570473,0.567826193395418,0.567786584550095,0.567900751221908,0.605859227989589,0.557810592036932,0.55518242865316,0.555454254062238,0.554787116843958,0.548328545124264,0.723457889752975,0.558727808631563,0.574108466921224,0.57440747487121,0.575211301438055,0.613220260067422,0.612370611503046,0.591311908739759,0.553810098659329,0.622150889721674,0.622368350048936,0.546485568850715,0.546258788795142,0.534404094383236,0.746096286465018,0.526382138239331,0.523151299091432,0.521876826244869,0.515779393997236,0.513814484611615,0.514477738609765,0.512362936927138,0.511640657983017,0.513514700017603,0.514528220471451,0.509599637482854,0.510353758832039,0.5066965421139,0.505393333438378,0.503483565778598,0.503744518171313,0.504040419545195,0.503784127016636,0.5015582652383,0.501547392221937,0.501009954555988,0.501192465902083,0.499490062197229,0.499934302580065,0.898064552952229,0.724567714066039,0.494614291002395,0.494051224083591,0.492164755744589,0.488649664883197,0.489170016380575,0.487501785012862,0.477323865052955,0.477413179115938,0.477620543070863,0.477403859387627,0.476612459125197,0.469270066503986,0.469538785336961,0.468498082342205,0.466270667275817,0.465626829378315,0.457590116997917,0.458126778019839,0.457521772323634,0.456438353907452,0.456953268896648,0.455353382203218,0.453861449029392,0.453634668973818,0.45348710660889,0.452111670038956,0.450982429625243,0.449570490786089,0.447503064389044,0.447736057596825,0.616349358847923,0.44763198729735,0.447672372786699,0.448938302548976,0.449437684657654,0.449743682403873,0.439700121860453,0.44065461736833,0.440491522122883
0.658711407242667,0.651629967014172,0.650722070147852,0.874151683393623,0.652338266365827,0.653229077063577,0.653670987514335,0.653274899061107,0.65543629938529,0.658503266643716,0.658570058029947,0.821611715038971,0.821013699138999,0.754236292500866,0.633460380027371,0.633828509295665,0.623703401129522,0.623737573466663,0.620540906655906,0.622586587020224,0.623018401098645,0.623684761672899,0.620699342037197,0.62035839530981,0.617770617415388,0.61907770931104,0.619850470116848,0.973360191266841,0.638815340586208,0.61633460261143,0.613381025380791,0.61284203442679,0.614069908631797,0.609301314312542,0.609566926569413,0.609211223605534,0.610122227047958,0.608620197501795,0.608469528560764,0.607943740555204,0.608019851669746,0.607282039845106,0.604184006825642,0.603981302734873,0.603034573667255,0.600922101916706,0.600515140447115,0.600151671042976,0.599378910237169,0.599844120008705,0.598628672108113,0.600293796899723,0.59906514605069,0.597914159604251,0.597118876121691,0.596624930521195,0.608733587529582,0.609345583022021,0.609037255343724,0.608747567122049,0.603381733546849,0.655600171274763,0.614099421104782,0.614425611595676,0.840204573019907,0.840491931309504,0.57759404530963,0.574701046313014,0.573812565547342,0.572176176584692,0.574153512274728,0.565218999400347,0.565455875828257,0.567108574315452,0.567574560731014,0.565529657010721,0.567984628776709,0.567908517662167,0.568697587992519,0.568032780706317,0.568016471181772,0.56745495755102,0.630237307319732,0.555259316411728,0.555333874238218,0.548259423805956,0.549036844475919,0.552171379764602,0.558361232651321,0.560020920934749,0.574519311610945,0.75398698976854,0.585030411857979,0.548347184580887,0.548890058755017,0.550092303707168,0.551186595139713,0.551734905822025,0.560121108014095,0.554919922972393,0.576746726677333,0.540085245432967,0.525113878544975,0.525072716411601,0.525508413710151,0.515559603737896,0.517077942808603,0.517046877047565,0.513597024284352,0.512095771382216,0.513983016365243,0.514833441573644,0.515474172895043,0.515839195587233,0.506212692885741,0.504522715485302,0.504603486464,0.504733962660357,0.50418099211389,0.504608146328155,0.503318917245099,0.501010731200014,0.501432448906098,0.502414126954883,0.499630634765924,0.500324954525111,0.500332720965371,0.502120555513078,0.501975323080228,0.496999364806048,0.496649874994377,0.490280617337665,0.488893531107342,0.487900980042194,0.482914925395677,0.478256614528106,0.479514001206098,0.477164653027638,0.476576733500004,0.47441921639595,0.469337634534243,0.465922730752197,0.708312554603173,0.473415792314439,0.458949244043307,0.458925168078503,0.459177577386932,0.458265797300482,0.458207548998537,0.457893008168032,0.456294674762653,0.45441053635573,0.451959447809872,0.452077497701814,0.451983523774676,0.450459748195787,0.449362350187138,0.449578257226348,0.448843551977812,0.448421834271728,0.449255173311559,0.449745235691925,0.449125473759227,0.449638058816346,0.4396356604063,0.438539815685703,0.439531590106825
0.657057155467421,0.655633566967878,0.653557597486548,0.813441419886111,0.655267767631662,0.654394819746508,0.83225950463457,0.661817983346416,0.66251307974963,0.662805097903382,0.771522058586151,0.906328045388201,0.713250457320082,0.781195159929198,0.632578889057932,0.632728781354938,0.799422995217945,0.622397862521922,0.6227116267084,0.623775629023934,0.623958140370029,0.624586445387013,0.621970708307656,0.621443367014045,0.620818945217191,0.620074920240343,0.622133026909077,0.622700753692037,0.623863389798865,0.620335872633058,0.613589165979742,0.613692459635191,0.612988820147692,0.611949670440988,0.609264035399297,0.610126110268088,0.610041456069261,0.609578576229802,0.610291535445612,0.608540203167124,0.608399630598429,0.607891705405466,0.604440299354201,0.608553406115565,0.605891070394652,0.605927572663871,0.605283734766369,0.603464057813598,0.603738213154754,0.603566574825022,0.600272827511022,0.598999131308485,0.599335418171716,0.599122617708609,0.596279323929653,0.596260684473031,0.595898768356944,0.596012158384731,0.649394785507525,0.931017558972745,0.656661843658219,0.923321016675707,0.623078979332668,0.627365277711816,0.581545610113599,0.582476806300697,0.58257000358381,0.573724028128385,0.572165303568329,0.571678347764066,0.56898416963809,0.567986182064761,0.564680008446346,0.567946573219438,0.567871238748922,0.565676442731624,0.565238415500995,0.567457287483098,0.567967542608138,0.568059186603199,0.567957446235801,0.567100031231166,0.565686539103961,0.565972344105506,0.557333732605006,0.54915334107981,0.551041362706863,0.551936833268769,0.552270013555896,0.697994062074571,0.555280285800428,0.555919463833775,0.555479106671068,0.550480625720136,0.548333981632446,0.5503058808143,0.551844412629682,0.552381073651605,0.57972360322875,0.565014742021525,0.551402502178924,0.589903076476709,0.525040097362511,0.525104558816664,0.525139507797831,0.517167256871586,0.517434422416508,0.517096582265225,0.515200017553887,0.512871638764127,0.512223141002469,0.513009104756718,0.516154513061764,0.516425561826816,0.51647060718032,0.506932641897785,0.503910719992864,0.503895963756371,0.503449393441457,0.504064495509999,0.50081657019353,0.50116062349702,0.50160797045596,0.50373364515495,0.500146326399146,0.500964132558458,0.500604546374449,0.501312069082078,0.501629716488686,0.500721042978339,0.497095668665265,0.497752709511207,0.492880821536503,0.488305611579707,0.482910265531521,0.482959970749181,0.476864868433626,0.477195718788676,0.474938014605276,0.474257674438555,0.473508989597552,0.472944369390695,0.483402657843966,0.715512821367637,0.460985604679314,0.460201194213118,0.460959198782432,0.460777464080363,0.460487775858688,0.46057165341349,0.460034992391567,0.456731925349256,0.455519584024768,0.45398804200562,0.455226012582964,0.448877724314953,0.450038807133729,0.449485836587262,0.449398075812331,0.450631386525519,0.450427129146698,0.449601556547127,0.449246630227273,0.449941726630487,0.450489260668773,0.439007355389317,0.440773443904298
0.658316095433465,0.659058567122261,0.817821692192397,0.814552020843201,0.658228334658535,0.658151446899967,0.660778056995686,0.661612949323569,0.663642320163343,0.663756486835156,0.663914145572421,0.71740084299469,0.718543286356844,0.838767781571924,0.632940805174019,0.632775379996494,0.632479478622612,0.623398956671355,0.624577125658701,0.624291320657156,0.624529750373119,0.62617934228421,0.627427409233891,0.627602930783753,0.626062845680319,0.625625595093717,0.622592023528406,0.623244404510193,0.622776088162553,0.893645448444646,0.612129851855006,0.616552062938692,0.615959483546902,0.615202255621613,0.764681378005696,0.61289173964445,0.614010883685826,0.611642119406717,0.611202538888037,0.610945469715451,0.610491132960278,0.610956342731815,0.610888774701558,0.919336832822649,0.607605123759896,0.608026064821954,0.608138678205714,0.606130276754641,0.606344630505799,0.608679999091793,0.597928915840744,0.598491982759548,0.598825163046676,0.600868513478916,0.600969477202288,0.597144505374547,0.596885106269884,0.597472249153493,0.666775302163974,0.603116897934004,0.667490591311862,0.592915678653319,0.62994140594585,0.58217624506266,0.582042662290198,0.582475253012645,0.582121103336818,0.572381987251566,0.573200570054903,0.573299203846197,0.569228035862234,0.56926143155535,0.563807837205219,0.56327816597953,0.56260714554112,0.565281130922422,0.565382871289819,0.565450439320076,0.566077191049007,0.567982298844631,0.567473597007642,0.566523761363921,0.565781289675125,0.565717604864998,0.558491708847679,0.55711316570164,0.551742672262284,0.551908097439809,0.551881691542927,0.552320495417582,0.552496793611469,0.555127286927319,0.555204951329912,0.555227474006665,0.54954709960096,0.55463955447903,0.555205727973938,0.554653534071497,0.551292218727241,0.544348244491336,0.544175052873552,0.592189516489068,0.777909955699484,0.525207075828088,0.526728521474899,0.525999252734544,0.516989405389646,0.517307052796254,0.513444802055269,0.514615981246382,0.512908917677372,0.511964518541832,0.517033674099125,0.516993288609776,0.517114445077822,0.517164150295482,0.502622267553834,0.503809756269492,0.503730538578846,0.502922052147845,0.502069297007366,0.500966462490536,0.501107811703256,0.500590566781982,0.500286898967841,0.500997528251573,0.501216541866887,0.502674302703571,0.502467715392672,0.500136230026809,0.496771031462423,0.496988491789685,0.497466127865637,0.486285560468245,0.485838213509305,0.486350798566423,0.476631875225845,0.476934766395961,0.474397470363224,0.474395917075172,0.473206875071462,0.47261274239162,0.472881461224594,0.47078529899859,0.591145706918208,0.461227917615406,0.461466347331369,0.460089357473383,0.46169934053915,0.460755718047637,0.459436976491595,0.459022248581745,0.458099595478931,0.457364890230395,0.457837089798165,0.457468183885845,0.630135566952334,0.452682503398019,0.451849164358189,0.452167588408823,0.451266681338736,0.450817004447718,0.450625173373312,0.450827877464081,0.451147854802768,0.451301630319903,0.439512174006176
0.660265471938568,0.662339888131846,0.778127416026747,0.812229855205649,0.658971582991356,0.659311753074717,0.659975783716893,0.660176934519611,0.664648850820957,0.66468845966628,0.66442284740941,0.663841917678009,0.83188671550212,0.76987634989519,0.732731796066691,0.782072767678507,0.782732915100554,0.628020765269707,0.7376906681723,0.627308582697923,0.628193956887491,0.627976496560228,0.627975719916202,0.629602012506515,0.628483645109166,0.628287154170603,0.622854529209173,0.624549166473768,0.624266468048327,0.665708969916362,0.627032097424689,0.747171161796915,0.847194369253342,0.635916128437385,0.650993118912904,0.61692718200322,0.615416609372772,0.611107788316872,0.611249137529593,0.611600957273343,0.614285039026981,0.614965379193702,0.613659840586102,0.614593366705279,0.611152833670377,0.610760628437279,0.613324330366897,0.610436767878463,0.610560254278587,0.609590225890191,0.61348820225637,0.803927530568381,0.701327418233894,0.600915888764498,0.600786189212167,0.601954261827176,0.59951637622976,0.599215038347696,0.602494029425203,0.597634567754914,0.597550690200112,0.594559834056228,0.594738462182194,0.582047322154354,0.581460955914771,0.582180904926815,0.582030235985783,0.582483019452905,0.57140807564304,0.572162196992225,0.570089334086999,0.571208478128374,0.563613676198734,0.563072355312656,0.563282049199659,0.563913460792746,0.564592247671415,0.565319963123718,0.564698647902969,0.565768086726684,0.56646861963808,0.566242616226532,0.566656567492356,0.559388732697636,0.558958471907267,0.558992644244408,0.557846317662125,0.557836221289787,0.552875019252101,0.553181793642346,0.552381850295631,0.552600863910945,0.555611912799503,0.554894293719537,0.554588295973318,0.555747048860016,0.555688800558071,0.555435614605616,0.548370483901665,0.54697407794303,0.595274346560091,0.544992859032864,0.769156400883146,0.696367769484259,0.534713198705559,0.535315874469686,0.615003434750974,0.600163320703365,0.518649093673074,0.511717545741584,0.512380799739735,0.512117517414942,0.513001338316459,0.515886570872815,0.517606837390266,0.516796021027188,0.592926551669682,0.506663146420785,0.502369858245404,0.502148514698012,0.499337063324119,0.487945248751672,0.488690050372546,0.498849330875831,0.499272601869966,0.499381332033598,0.49918406445101,0.49960655880112,0.500072545216682,0.500710169961976,0.500296995340178,0.498542556485586,0.49838878096845,0.641086247718049,0.488156495926727,0.488613162613978,0.477457447825416,0.477011654154528,0.473439091635217,0.472370429455528,0.472521875040585,0.472709046250836,0.472951359186929,0.4717467843027,0.471535537127645,0.460250122786752,0.461212384734888,0.460446613725314,0.460255559294933,0.460828722586075,0.46081241306153,0.460225270177922,0.459654436818858,0.458744210020459,0.458482480983719,0.459074283731483,0.459271551314071,0.632869353923633,0.452715899091135,0.453372939937078,0.451941584997275,0.451142418294586,0.450473727788254,0.451969544182209,0.451978087266494,0.451739657550532,0.440357162706396
0.659837541080276,0.895400663943265,0.814707349648389,0.778888527172165,0.660073640864161,0.659885693009885,0.661120557011125,0.662628023065469,0.663119638733887,0.664623998212127,0.664473329271096,0.869996637854859,0.775324507737139,0.790522654680704,0.745806598243344,0.640806655868711,0.641402341836605,0.895913249000383,0.736774228221694,0.629642397995864,0.630392636124919,0.63093162707892,0.631276457026436,0.630540975133873,0.628466558940595,0.630320408230507,0.63031031185817,0.628764790246555,0.628531020394748,0.629012539690829,0.659432132898737,0.630987545448787,0.630429915038164,0.621993230984408,0.621405311456774,0.619908718418793,0.618315821521596,0.617791586804088,0.772301032544165,0.617032805590747,0.616679432558946,0.617202890632428,0.615105951762397,0.614939749940847,0.615302442700959,0.614261739706203,0.612105775890202,0.611476694229193,0.612021121691375,0.61382837233973,0.613256762336641,0.616684092423102,0.609841081910569,0.60873591746166,0.603719573698132,0.602011733485096,0.595943037066422,0.597743297918545,0.597583309249202,0.598411211780851,0.598010463463467,0.597160038255066,0.647342891990999,0.581760740508783,0.582080717847469,0.582595632836666,0.582451953691867,0.581936262058645,0.575250910283377,0.569643540416111,0.570407758137633,0.570582503043469,0.567047996081429,0.567154396312982,0.565566935923966,0.565360348613067,0.565281130922422,0.563951516350017,0.56317875554421,0.559537848350616,0.560378953830706,0.561018131864052,0.56159207179922,0.560874452719254,0.558994974176486,0.558620631755984,0.557911555760303,0.558288228112883,0.557645943503433,0.556720960468542,0.553245478452473,0.555556771073662,0.554864004602526,0.55580762709404,0.555163012552512,0.555791317569495,0.549993669915874,0.547313471382364,0.547762371629356,0.549117615454616,0.549507490755637,0.547295608569768,0.545524083546605,0.547456373883137,0.535864961796024,0.536708397208192,0.535892144336932,0.539373062861182,0.522171950974725,0.520340624361565,0.518108549431022,0.517748963247013,0.513541105914485,0.517227058461583,0.517739643518701,0.517115221721848,0.516277222817862,0.51708415596081,0.601465752734862,0.608234205420905,0.505878735954588,0.498779432913496,0.489888412104567,0.50197299314815,0.499512584873981,0.498856320672064,0.499542097346967,0.500102834333693,0.501598650727649,0.501128781091956,0.500922970425083,0.499664807103065,0.49647901330867,0.492046705852647,0.493298656022458,0.488102130844912,0.477454341249313,0.476907583855053,0.474244471490114,0.472959125627188,0.472236846683066,0.472874471428361,0.473158723141854,0.541881623064959,0.54165794958549,0.462631313370275,0.460987934611392,0.460089357473383,0.460831052518153,0.460525831415959,0.458564805250468,0.459196216843555,0.459077390307586,0.45886458984448,0.459962764497155,0.459311936803419,0.459452509372114,0.633868894785014,0.455901692885529,0.451653450063653,0.450867486309404,0.451658886571834,0.45151831400314,0.450095502147623,0.451491131462232,0.451669759588197,0.451476375225739
0.663782116088012,0.829968404758055,0.980016030569123,0.786825829117243,0.788371350728858,0.665159105945998,0.798568686789414,0.662082818959261,0.662283969761979,0.663709888193599,0.663317682960501,0.753948934211269,0.750888180105051,0.828213189259437,0.639093379147494,0.640700255637158,0.64050298805457,0.640347659249382,0.639007171660615,0.755364756270553,0.633436304062567,0.632821201994025,0.632389387915604,0.632667426476889,0.631888452518874,0.631366547733444,0.631028707582162,0.63077862820581,0.630600000079844,0.630025283500651,0.630901337961908,0.631834087437059,0.662300279286523,0.662776362074423,0.62293530018787,0.620994466767053,0.619493213864916,0.618979075519746,0.618791127665469,0.619306819298691,0.618162822648486,0.618322811317829,0.61355887686273,0.613822159187523,0.616680985846998,0.61662895069726,0.614026416566344,0.612514290647845,0.612309256624997,0.612297606964608,0.612268094491623,0.61308667729496,0.61386099138882,0.633247579564264,0.60274876866571,0.602509562305722,0.598515282080326,0.598977385275759,0.598474896590978,0.598058615393075,0.611546592191527,0.613787210206356,0.646832636865958,0.648093130120054,0.581652786989178,0.58226400583759,0.582815423096006,0.582261675905513,0.73828324756409,0.879580425134924,0.570121176492062,0.570497848844642,0.567917060746452,0.568344214960718,0.567506992700758,0.563076238532786,0.563381459634979,0.562877417662146,0.562487542361125,0.559634928853858,0.559878795078002,0.56040691301564,0.561228602395081,0.561235592191315,0.559457854015944,0.560720677202118,0.558455206578459,0.558146102256136,0.557969804062249,0.557454889073052,0.557027734858787,0.557256844846438,0.557522457103309,0.554736634982272,0.549595251530568,0.550482179008188,0.550069781030415,0.549356045170579,0.547304151654053,0.54796041585597,0.548111861441028,0.55115475273465,0.595933717338111,0.765254541296837,0.536011747516926,0.536421815562621,0.536191928930943,0.622144676569466,0.625892760638639,0.518037098180635,0.518841701391506,0.518820732002806,0.514793056084296,0.517375397470537,0.518611038115803,0.518628124284374,0.519672710499259,0.77331532964204,0.606706546621886,0.608210129456101,0.608773196374905,0.488514528822684,0.494114132249692,0.494424013216041,0.496316694707249,0.49896039097154,0.500789387652622,0.500706286741847,0.501544285645833,0.501392063416749,0.500828996497945,0.496639778622039,0.495984291064148,0.492635402024307,0.492718502935082,0.519680476939518,0.486353128498501,0.482101002456495,0.473292305914315,0.472918740137839,0.472598762799153,0.473424335398724,0.473561801391315,0.472837969159142,0.533811514991446,0.463631630875682,0.464297991449936,0.462063586587315,0.463108172802201,0.463494164883091,0.628323656439822,0.824570728777791,0.551079418264134,0.459324363107834,0.460442730505184,0.461142486772553,0.460660967476472,0.460514958399596,0.459471925472763,0.453166352626178,0.453960082820686,0.453315468279158,0.452785797053469,0.449113824098838,0.45101737860641,0.452044878652725,0.451771499955595
0.668172484766635,0.829525717663271,0.829199527172377,0.787649071784737,0.667377201284075,0.667654463201334,0.65813358408737,0.658110284766592,0.659311753074717,0.662151163633543,0.884714042146369,0.777016815069656,0.775920193705033,0.641193424593628,0.63987778961369,0.64099227379091,0.640665306655991,0.639482477804488,0.639122891620479,0.638065102457153,0.635591491234543,0.634236247409282,0.635015998011323,0.634194308631882,0.634189648767726,0.634902607983536,0.63409722812864,0.633988497965008,0.631916411703808,0.631391400342274,0.631475277897076,0.632685289289486,0.661957779271085,0.662728986788841,0.673368233300154,0.85587724946332,0.622310101746991,0.62073506766239,0.619849693472821,0.619866002997366,0.619559228607121,0.619275753537654,0.613801189798823,0.61447065694918,0.616838644584263,0.616913979054779,0.613422964158191,0.612976393843277,0.612772136464456,0.612107329178254,0.613221036711448,0.613675373466621,0.613555770286626,0.603187572540365,0.603393383207238,0.602647804942338,0.603007391126347,0.599062039474586,0.599549771922875,0.599935764003766,0.603006614482321,0.614227567369062,0.645870374917822,0.648408447594584,0.648561446467694,0.583140060298848,0.584786545633834,0.585145355173817,0.588241058261203,0.882554971754263,0.577014668866281,0.57633044547943,0.573938381879544,0.572880592716217,0.573656460098128,0.570365819360232,0.568903398659393,0.562810626275915,0.562245229425033,0.557809815392906,0.559471056964385,0.561484894923641,0.561734197655966,0.561331896050531,0.559997621613971,0.560131981030458,0.559321164667379,0.556664265454648,0.556785421922695,0.556439038687127,0.557278590879165,0.558812462830391,0.558047468464842,0.550575376291301,0.54982047829809,0.549482638146807,0.549199939721366,0.549433709573173,0.548646969174899,0.548733953305803,0.549700875118095,0.550635177881298,0.551133783345949,0.545886776306718,0.536525885862096,0.538436430165902,0.538024808832155,0.537077303120512,0.541859877032233,0.641158475612461,0.522975000897544,0.517268997238983,0.516659331678623,0.516262466581369,0.517825074361554,0.519190414559152,0.522832098396772,0.524240930659822,0.525360074701197,0.6058475783292,0.60648986293865,0.642450034627594,0.495999823944667,0.49526900191626,0.496558230999316,0.499074557643352,0.499271825225941,0.500372329810694,0.502268894522032,0.502471598612802,0.49500338965939,0.49569149626637,0.496460373852048,0.496482119884774,0.536040483345886,0.549354491882527,0.642448481339542,0.660666996899977,0.472954465763032,0.474406790091535,0.474774919359829,0.474849477186319,0.474576875133215,0.474995486263195,0.560500110298752,0.465928943904404,0.466542492684895,0.461327328050727,0.46239133036626,0.46326505489544,0.463408734040238,0.501183146173772,0.50417322567363,0.571763001962894,0.459812095556123,0.461072588810219,0.462149794074194,0.463255735167129,0.461584397223312,0.45822230523503,0.455239215531405,0.452834725627103,0.453292945602406,0.451385507874704,0.450638376321753,0.452790456917625,0.452684056686071
0.675542836572779,0.957462288055907,0.757182103291246,0.672583046189932,0.673188828530163,0.673459100651189,0.657776327835439,0.658292796112687,0.661197444769692,0.662053306486275,0.661838952735117,0.791058539058601,0.75545329368951,0.640858691018449,0.642359943920585,0.642321111719289,0.644270488224391,0.642904371382768,0.64281971718394,0.639605187560586,0.639138424500998,0.63809616821819,0.636061360870235,0.63575070325986,0.636163877881659,0.637573486788735,0.636448906239178,0.635348401654425,0.634855232697954,0.633819189567354,0.6343954594346,0.634529042207061,0.637839099045605,0.663767359851519,0.664519927912652,0.622773758230475,0.624278117708716,0.622284472494135,0.621802176554028,0.621823145942728,0.621830912382987,0.621596365887154,0.62195284549506,0.708060145294743,0.618194665053549,0.619560781895173,0.619500980305176,0.61573813999951,0.6147976240841,0.617498015362284,0.612899506084709,0.612733304263159,0.607641626029115,0.607540662305743,0.60685488563084,0.605760594198295,0.604842600959637,0.600350491913616,0.600459998721273,0.604305163293688,0.605491098721294,0.605943882188416,0.611962873389429,0.611107788316872,0.694844770549396,0.654927597548301,0.585124385785117,0.586250519622726,0.587212781570862,0.587363450511894,0.577350955729512,0.577433279996261,0.575759612120366,0.573758200465526,0.573702282095659,0.573227752595811,0.570878404417351,0.570703659511515,0.562827712444486,0.559402712290103,0.560323812104864,0.562182321258932,0.562868874577861,0.564309549245974,0.5627562611941,0.559990631817737,0.556245654324668,0.556574951391665,0.554891187143434,0.555133500079526,0.556063142978573,0.556246430968694,0.552205552101743,0.552841623558985,0.552332145077971,0.548338641496601,0.549382451067461,0.549249644939026,0.549168097316302,0.550595569035975,0.550946612135699,0.551432791295935,0.552110801530578,0.547226487251459,0.772197738888716,0.541913465470023,0.53745242218504,0.537482711302051,0.537916078668524,0.717437345263909,0.70528131296994,0.52445916763111,0.516134320317089,0.517554802240528,0.517283753475476,0.517493447362479,0.524309275334104,0.524966316180047,0.525120091697183,0.525535596251059,0.52557753502846,0.525624910314042,0.662941787251947,0.496099234379987,0.499473752672684,0.498203939690277,0.499963815053051,0.500020510066944,0.499768100758515,0.50096568584651,0.500922193781057,0.49606040217869,0.497736399986663,0.49744438183291,0.498003565531585,0.695787616396884,0.592486194506976,0.650882058817195,0.650996225489007,0.474964420502158,0.47528129126474,0.476261416025473,0.47518964726968,0.76460216031505,0.663191866628299,0.616752437097384,0.461211608090862,0.462219692036528,0.463380774855304,0.463386988007512,0.463449896173613,0.561919815578165,0.641566990370104,0.50957556151805,0.572983886371667,0.463647940400227,0.464207124098902,0.463253405235051,0.463233989134402,0.462686455096117,0.456285355034342,0.455356488779321,0.455847327803714,0.455664039813592,0.452659980721267,0.452404464836734,0.451897316287797
0.955947832205329,0.797240625505061,0.677877428514746,0.672422280876563,0.67280516638135,0.673012530336275,0.658787518357209,0.659277580737576,0.662075829163028,0.661994281540304,0.662021464081212,0.69324410721194,0.642434501747076,0.643009218326269,0.643169983639638,0.645864161765614,0.645860278545485,0.645857171969381,0.643414626507808,0.643647619715589,0.639626933593312,0.63975740978967,0.640744524346636,0.636937415331492,0.63921841883567,0.63800452422313,0.637502812182374,0.636646950465792,0.636267171537108,0.635638866520125,0.634344977572914,0.634975612521975,0.635113855158591,0.636611224840598,0.665424718202869,0.667603204695623,0.667700285198865,0.62330808932032,0.622939183408,0.623107715161628,0.623499920394726,0.623289449863697,0.622582703800095,0.621882947532725,0.622148559789596,0.62206545887882,0.621745481540134,0.621940419190645,0.622311655035042,0.617054551623474,0.616721371336347,0.611956660237222,0.611607947069576,0.607713853923527,0.608457878900375,0.604619704124193,0.605537697362851,0.603864029486956,0.604351761935245,0.605452266519998,0.605890293750626,0.605911263139327,0.652022948891296,0.611066626183498,0.703397951207042,0.655911605529164,0.585683569483792,0.655084479641541,0.587143660252554,0.586737475426989,0.57979816105524,0.580522769931439,0.581669873157749,0.578985791404109,0.577078353676408,0.573863047409028,0.573688302503192,0.630093628174933,0.629778310700403,0.565223659264502,0.565374328205534,0.56307546188876,0.564031510684689,0.567888324917493,0.563289815639919,0.563007117214477,0.559262916365434,0.557123262073977,0.554774690539543,0.556257303985057,0.556873182697625,0.555796754077676,0.554617808446304,0.554430637236053,0.554804203012529,0.550159095093398,0.549907462428995,0.548546005451527,0.550169968109761,0.550821572447523,0.552518539644196,0.550071334318467,0.55008220733483,0.549318766257334,0.54842873220361,0.547022229872638,0.537745216982818,0.538486912027588,0.539995931369984,0.716627305544857,0.708466330120309,0.5275579772946,0.526325443225437,0.517470924685727,0.518420760329448,0.518237472339327,0.524585760607338,0.525099898952508,0.526577852533867,0.525603164281316,0.525107665392768,0.524828850187456,0.524395482820983,0.616896892886208,0.499045045170367,0.499626751545794,0.500213894429402,0.500417375164198,0.499462103012295,0.500769194907947,0.501178486309616,0.500002647254348,0.498603134719609,0.498519257164807,0.498321989582219,0.496026229841549,0.572480621042859,0.483253542190986,0.483825152194075,0.484448797346903,0.475542243657455,0.582583983176277,0.68713269537184,0.69225000285874,0.460585633005956,0.460622911919201,0.461562651190585,0.462058150079133,0.463432033361016,0.464179164913968,0.579328291419548,0.501473611039473,0.488145622910364,0.506119495602629,0.515145652472071,0.469141143595681,0.465590327109096,0.463731817955028,0.464319737482663,0.463461545834002,0.463251851946999,0.458816437914872,0.458791585306042,0.458194346050096,0.456562616951602,0.452698036278538,0.453699130427971
0.949291992903047,0.678093335553956,0.678010234643181,0.673543754850016,0.673825676631432,0.799826850111432,0.659493487776786,0.65959212156808,0.661341123914491,0.661748085384082,0.661283652256571,0.695118925890552,0.642071808986963,0.645889014374444,0.645802030243539,0.644955488255268,0.645676990555363,0.645929399863793,0.643416956439886,0.64146447335868,0.639616060576949,0.640774813463648,0.64107071483753,0.638584677310505,0.638653021984787,0.639429666010724,0.637800266844308,0.638273243056104,0.637098180644861,0.637007313293826,0.635875742948036,0.634922024084185,0.635990686263874,0.636928095603181,0.666729480166443,0.667235075427328,0.667100716010841,0.664940092330684,0.797139661781689,0.625053985090627,0.627183543009747,0.624863707304272,0.625183684642958,0.62305568001189,0.623134897702536,0.623069659604357,0.622625419221521,0.622705413556193,0.6221936051431,0.617049891759318,0.614908684179809,0.614244653537633,0.614261739706203,0.60660635954254,0.607609783624051,0.60822177911649,0.605373048829352,0.603136314034653,0.601969018063669,0.605804862907773,0.606711983130068,0.606190078344638,0.652724258446718,0.652865607659438,0.591096778344574,0.59066185769005,0.654308612259629,0.65452063607871,0.587145990184632,0.587246953908004,0.581805009218262,0.581459402626719,0.581254368603872,0.579260723389291,0.580048240431592,0.577243778853932,0.576503637097214,0.57460241252172,0.631170056794882,0.576260547517096,0.569291720672361,0.568348098180848,0.56824635781345,0.566864708091308,0.568570218372266,0.594413048335326,0.845928439491064,0.558555393657805,0.562274741898019,0.557085983160732,0.557875053491084,0.557343828977343,0.557744577294727,0.555152916180174,0.555715983098979,0.555170778992771,0.555028653136025,0.549400313880058,0.550448783315073,0.551620739150212,0.550652264049868,0.551105824161016,0.550261612104822,0.551084078128289,0.548178652827258,0.546494111935001,0.546802439613298,0.539984281709595,0.540727530042417,0.541690568634579,0.638885238548543,0.636883050249676,0.732536081772155,0.651248634797437,0.519209830659801,0.518141945124137,0.524060749245804,0.525078152919782,0.525398906902494,0.525128634781468,0.525162030474583,0.525097569020431,0.524348107535401,0.523907750372695,0.522715601792881,0.49967335018735,0.501381190400386,0.501354007859478,0.501548945509989,0.501393616704801,0.501659228961671,0.501004518047807,0.501642142793101,0.501391286772723,0.494635260391095,0.495522964512742,0.495903520085451,0.485083315516094,0.485202918696088,0.484994778097137,0.493152646945581,0.57368674921514,0.705711573760309,0.462207265732113,0.461377033268386,0.461625559356686,0.462852656917667,0.463434363293094,0.463320196621281,0.574013716350059,0.491347726229303,0.490536909866225,0.49059515816817,0.514708401885469,0.51034210917165,0.520092874917291,0.471089743456757,0.464449437034994,0.466249697887117,0.46556081463611,0.461300922153845,0.461118410807749,0.460403898303887,0.459537940214967,0.461961846219917,0.650376463556309,0.456460876584204
0.683386164590719,0.683699152133171,0.679004338996381,0.719743201376917,0.673872275272988,0.673767428329486,0.65843958183359,0.658695097718123,0.660331486680772,0.660810676044776,0.660674763340237,0.650145800280606,0.651826457952734,0.646561588100906,0.645475839752646,0.645703396452245,0.646172489443911,0.646104144769629,0.644814915686573,0.642087341867482,0.641878424624505,0.641737075411784,0.642139377017219,0.643358708137941,0.639586548103964,0.640842381493904,0.639793912058889,0.639425782790595,0.638437891589603,0.637804150064438,0.637808809928593,0.637321854124331,0.640069620688097,0.639954677372258,0.646842733238295,0.647141741188281,0.647514530320731,0.809954288209653,0.667789599261848,0.629638514775734,0.629056031756281,0.626285742515763,0.627502743704407,0.624782936325575,0.625186014575036,0.624532856949223,0.624042017924831,0.62456392271026,0.627686031694528,0.767933186542295,0.618280872540428,0.619397686649726,0.636497834812812,0.608477295001023,0.609733905034989,0.608944058060611,0.605828162228551,0.603655112243979,0.602914193843235,0.605557113463499,0.605635554510119,0.613166671629632,0.652648923976202,0.651838884257149,0.595355117538788,0.595748099415912,0.593663586850297,0.593352929239922,0.655639780120086,0.584315122710091,0.584611800727999,0.582448847115764,0.579363240400715,0.579983002333413,0.580722367446105,0.579917764235234,0.578527571428807,0.578196721073757,0.574843948813787,0.576033767461522,0.574464169885103,0.570020989412716,0.569360065346644,0.571168869283052,0.569735961055197,0.570911800110466,0.569546459912869,0.563400875735628,0.561900399477517,0.561707015115058,0.560504770162908,0.560451181725118,0.559903647686832,0.559086618171546,0.558146878900162,0.556647955930104,0.555517938872365,0.556565631663354,0.550726045232332,0.55025617559664,0.550748567909085,0.551602876337615,0.550941175627517,0.551167179039065,0.547840812675976,0.547994588193111,0.542781753491021,0.54251614123415,0.541355058415374,0.542120829424948,0.641154592392331,0.544070205930051,0.644444456486201,0.514703742021313,0.585571732744057,0.503842375318581,0.504018673512469,0.503937125889745,0.50343541384899,0.524814093950963,0.524717013447721,0.524754292360966,0.524624592808635,0.522878697038328,0.521215902178796,0.521531996297353,0.501460408091032,0.501485260699862,0.502375294753586,0.501955130335554,0.503118543086408,0.502991173466154,0.502214529440217,0.502226955744632,0.501801354818418,0.4972494441824,0.498690118850514,0.497177992932014,0.496355526908546,0.496768701530345,0.643347835121578,0.701297905760908,0.702939731231739,0.464263819112795,0.464238966503965,0.463887146760216,0.462784312243385,0.463306993672841,0.617203667276453,0.491791966612139,0.492445900881978,0.492179511981082,0.491772550511491,0.490259647948965,0.477432595216586,0.475006359279559,0.475292940925129,0.475411767461098,0.469388893039955,0.461870978868883,0.464138002780593,0.463761330428014,0.463554743117114,0.464822226167444,0.466547929193076,0.464003643364106,0.678132944399279
0.684946442438826,0.684741408415979,0.68171327335885,0.681085744985892,0.716560514158626,0.675241498690715,0.662490557072878,0.662043210113938,0.660200233840389,0.78587055696534,0.747966445279475,0.650548878530067,0.651332512352238,0.650993118912904,0.647469484967226,0.645233526816553,0.647481134627615,0.648669399987299,0.646739439582846,0.644379218388022,0.642144036881375,0.642641089057975,0.642331208091626,0.643149014250938,0.648664740123144,0.647711021259293,0.646222971305597,0.63988555605395,0.639467721567995,0.637812693148723,0.637450777032636,0.637860845078331,0.638126457335202,0.642016667261121,0.64748035798359,0.647902852333699,0.648085363679795,0.647732767292019,0.694759339706543,0.641178668357135,0.632755963895846,0.631767296050828,0.632232505822364,0.629033509079529,0.630043922957273,0.629382998891201,0.628079013571652,0.628305793627226,0.62840442741852,0.765360941528391,0.623113928313836,0.622558627835291,0.63810005143832,0.639544609326563,0.757388690602145,0.648669399987299,0.604615820904063,0.601105389906827,0.601153541836435,0.599216591635748,0.598285395448649,0.598428297949422,0.599127277572765,0.59918940909484,0.598672164173566,0.597480015593752,0.593987447409113,0.594625072154407,0.595312402117361,0.595870032527984,0.58539155133004,0.582263229193565,0.581137095355956,0.579597010252522,0.580526653151569,0.579791171259006,0.578932979610346,0.579527888934214,0.573678982774881,0.574972871722092,0.575598846806997,0.573870037205261,0.567649118557504,0.56980042250935,0.570657060869959,0.570646187853596,0.570721522324112,0.570196510962578,0.562779560514878,0.563334084349397,0.562492202225281,0.562136499261402,0.561568772478442,0.560712910761859,0.558862168048051,0.557450229208897,0.556427389026737,0.556564078375302,0.556887938934118,0.552875795896127,0.550268601901055,0.551491039597881,0.552416022632772,0.552340688162256,0.552921617893657,0.548914134719821,0.546634684503695,0.544906651545985,0.544286889613287,0.543472190030079,0.543188714960612,0.585363592145106,0.781699978546058,0.541519706948873,0.747575016690403,0.50409866784714,0.505141700773974,0.503746848103391,0.502185016967231,0.501327601962596,0.545945024608663,0.523379632435057,0.523544280968556,0.522654246914832,0.52132230241035,0.521332398782687,0.52193585119084,0.522395624454195,0.502946128112649,0.50210113941243,0.502806332187981,0.50271857141305,0.503822959217933,0.5028638038459,0.501420799245709,0.50089112802002,0.49999255088201,0.502169484086712,0.499895470378768,0.671908919175419,0.499316093935419,0.586080434581046,0.475744947748225,0.466131647995174,0.465747985846361,0.465834969977266,0.466083496065566,0.571053925967213,0.767632625304257,0.493236524500383,0.492641615176515,0.492981008615849,0.640376395078342,0.49027595747351,0.480120560190355,0.476471886556502,0.476939426260116,0.477976246034742,0.471707175457377,0.472179375025147,0.463515910915818,0.464174505049812,0.468062385043654,0.46813771951417,0.468953195741404,0.467560673002898,0.464110820239685
0.686297026399931,0.686321879008761,0.686170433423703,0.682302746174536,0.682322162275184,0.773114178839322,0.663410880243613,0.66263345957365,0.660216543364934,0.785404570549778,0.660068981000006,0.654682954680131,0.652273804911674,0.649922126801136,0.649872421583476,0.650351610947479,0.646923504216993,0.647620930552284,0.64671381032999,0.645779507566787,0.644784626569562,0.64331288614041,0.642677591327194,0.642938543719909,0.648510964606008,0.64878589659119,0.649044519051827,0.647163487221007,0.687036391512623,0.637268265686541,0.637689983392625,0.637568826924579,0.637651927835354,0.637724155729766,0.647341338702947,0.647869456640584,0.648546690231201,0.676530727773771,0.676377728900661,0.639958560592388,0.635728180583108,0.635068809805087,0.632667426476889,0.63011149098753,0.63003304994091,0.630125470579997,0.633176904957904,0.629868401407412,0.630533208693614,0.815895615008073,0.620968060870171,0.6198729927936,0.83237600123846,0.626214291265377,0.735498978731105,0.755201661025106,0.608116155528962,0.600842107582034,0.601285571320844,0.599618116597157,0.59955443178703,0.596836954340276,0.598968842191474,0.598123076847228,0.60062697718685,0.638491480027392,0.732295322124114,0.59765631378764,0.597306047331942,0.732587340277866,0.73289644460019,0.582503988841605,0.583823507041672,0.582865128313666,0.584144261024384,0.581431443441786,0.581647350480996,0.580577135013255,0.573714708400074,0.574934039520795,0.575455167662199,0.571521465670827,0.568915824963808,0.569240462166649,0.570508721861005,0.570580949755417,0.571811153892502,0.572694198149992,0.57351278095333,0.573256488424771,0.561533823497275,0.561576538918701,0.562462689752296,0.561567995834416,0.560413902811873,0.560142854046821,0.557433919684352,0.558254832419768,0.558612088671699,0.557948834673548,0.551121357041534,0.552155070240057,0.552753086140029,0.553629140601286,0.553879996621663,0.553494781184798,0.550526447717667,0.548632989582432,0.546807876121479,0.544092728606803,0.543416271660211,0.542591475704666,0.731445673559739,0.731383542037664,0.545742320517893,0.75099535698063,0.753754773204785,0.50247392854488,0.503590742654177,0.502254914929565,0.502477811765009,0.506340062505995,0.507030499045053,0.52169120832267,0.521489280875926,0.522655023558858,0.522359898829002,0.522585125596524,0.522616968001587,0.503123202950563,0.502868463710056,0.502657216535001,0.504112647439607,0.504949869699567,0.50205143419477,0.502485578205269,0.502077840091652,0.502143854833856,0.488046212475044,0.488616269190082,0.488874891650719,0.558732468495719,0.480494902610857,0.592170877032446,0.466045440508295,0.466122328266863,0.700029646066553,0.523079847841046,0.546575659557724,0.494885339767447,0.483622448103306,0.492226887266664,0.643881389567396,0.629695209789628,0.478783179177691,0.479795922987513,0.479848734781277,0.475308473805648,0.475018785583974,0.475823388794845,0.476444704015594,0.471791829656204,0.471738241218415,0.470052923682131,0.469294919112816,0.470117385136284,0.469813717322142
0.689203228344988,0.689862599123009,0.686407309851614,0.684076601129777,0.683876226971085,0.772867206039074,0.662584531000016,0.662748402889489,0.662679281571181,0.784092042145944,0.655520953584117,0.656247892392395,0.655256117971273,0.65251922442387,0.651440465871843,0.64925809615896,0.648110216288625,0.647693935090722,0.647072619869973,0.646290539335854,0.646307625504424,0.645656021166663,0.642020550481251,0.643402976847419,0.649920573513084,0.650973702812255,0.650495290092278,0.651256401237696,0.651552302611578,0.65176044321053,0.636576275859431,0.637563390416397,0.638496916535574,0.637700079764962,0.65249825503517,0.631574688332395,0.00356870259850224,0.635557318897402,0.63407237551981,0.641111876970904,0.63715565230278,0.637949382497288,0.638734569607511,0.629730158770795,0.633337670271273,0.632821978638051,0.633926366442933,0.633054971845832,0.632430550048978,0.633367182744259,0.633180011534008,0.633111666859725,0.639439762383062,0.635491304155197,0.727044431864753,0.712591863186087,0.792611827110475,0.791307065146901,0.611232828005048,0.598290831956831,0.597546030335957,0.598001920379182,0.598268309280079,0.600282147239334,0.600973360422418,0.60133993640266,0.602979431941414,0.737717850713208,0.731517124810125,0.731510911657918,0.591304918943525,0.591977492669987,0.58486576332448,0.58543349010744,0.584051063741272,0.582834062552628,0.581660553429437,0.581649680413074,0.582894640786652,0.576212395587488,0.576064056578534,0.571673687899911,0.569436953105212,0.568239368017216,0.568550802271617,0.570866754756962,0.571464770656934,0.573617627896832,0.573742667585007,0.573374538316713,0.563506499323155,0.562800529903578,0.563412525396017,0.561292287205208,0.560868239567046,0.56137228153988,0.560245371058245,0.560072179440461,0.557040937807228,0.556428942314789,0.557885926507448,0.552260693827584,0.553364304988441,0.553170920625983,0.553630693889337,0.553659429718297,0.54840387959478,0.548764242422815,0.548972383021766,0.545569128900109,0.543445007489171,0.543987881663301,0.593476415640046,0.732352793782033,0.543803817029154,0.543845755806555,0.753873599740753,0.651552302611578,0.501096162042867,0.502099586124378,0.510886536633832,0.512093441450138,0.508367880057717,0.50815507959461,0.509354217970657,0.522406497470558,0.523040238995723,0.522508237837956,0.522303980459134,0.522496588177567,0.503781797084558,0.50583058402498,0.504408548813489,0.504503299384654,0.503727432002742,0.503313480736918,0.498028418140415,0.498447805914421,0.504510289180887,0.490147034565204,0.489681824793668,0.487218309943395,0.658003884535039,0.579095298211767,0.593196047146683,0.55572918604742,0.593087316983051,0.502099586124378,0.590781460870044,0.485206801916218,0.484321427726649,0.485201365408036,0.48456218737469,0.481970526260138,0.479764857226476,0.48158764075535,0.480433547732808,0.480512765423453,0.477451234673209,0.477542102024243,0.477498609958791,0.472464403382666,0.473940027031947,0.472402271860591,0.468237906593516,0.468937662860885,0.470504153861201
