0.829519186366142,0.871320859285958,1.30014,0.965969712468358,0.846949587491857,0.846520786337854,0.844582384890381,0.896508763632228,0.971838789476345,1.00996491648395,1.41439002376245,1.39933198089602,1.39657395990647,1.39410112592423,1.3926955224205,1.21051739087436,1.19248824302145,1.13610967109311,1.12682997911678,1.14818604011365,1.15011177625992,1.20247482804177,1.251675286987,1.248858446133,1.24772533881951,1.21024350394833,1.21155857939303,1.0644437186346,1.02278000003047,1.09451157035995,1.13353999698224,1.17899649640941,1.26328999997824,1.18272009581156,1.09053999681651,1.15241616315861,1.16580640279203,1.16765352147758,1.26058912274723,1.25998894060654,1.37852612045308,1.37902459997199,1.4166799999838,1.19052413169962,1.11964000001771,1.13856047817365,1.26104020978261,1.26613179290035,1.33135021154855,1.32151849530128,1.32132222787629,1.32293497689466,1.29789263839806,1.30641324622677,1.40025999999137,1.41129261244202,1.59263070837191,1.58567956998197,1.57830781197008,1.57411375050367,1.54145754089187,1.57495483696777,1.58239455363858,1.58632913077777,1.73971313922339,1.75487832690045,1.82065,1.8147262776887,1.80386195427383,1.67276164750323,1.75265,1.51640879845014,1.4813274840911,1.47920632720068,1.38844830126506,1.39056232689578,1.39198320656484,1.14810776568823,1.04794914105335,1.05762144237339,1.06819472616768,1.06394823057606,0.967783976764741,0.999112881248931,0.94930901870583,0.891739846262134,0.727855000021241,0.77222911533876,0.771055554075677,0.790141756916694,0.851107711546881,0.851974132117075,0.726540999999999,0.801298501769449,0.7451090000053,0.873368090954592,0.9016060125997,0.940185372520348,1.21048317148683,1.20949119182882,1.23230999997401,0.849299037950233,0.738649918422065,0.732261740039248,0.687934000022795,0.755982121410198,0.818021768294653,0.932562660450284,1.24632,1.08264290146183,1.04964749582729,1.05113731954796,1.27785999998352,1.23191702950067,1.35727,1.0284721672689,0.93297904138896,0.936052565346785,0.923218957884514,0.956478362341835,0.983972920044706,0.994423477990644,1.10834000000248,1.12733233790273,1.1372200224363,1.26372191282214,1.25891516562793,1.25999834995356,1.22961865581494,1.25733272500767,1.29183113178061,0.879573725226541,0.815558245522601,0.83254334345608,0.841176776606173,0.843119684894829,0.853247750118569,0.91338313414195,0.981282999983495,0.826338784335383,0.764162000031036,0.817379836571837,0.83620884523685,0.831632070425369,0.876538002119764,0.813796088926996,0.815125044405785,0.751681352546871,0.69841298991358,0.763937087581477,0.769243922848769,0.781772338103378,0.810895581318344,0.78169683749378,0.777640745005401,0.773976093781399,0.758073314796284,0.781390384864388,0.795752355063978,0.828099324189561,0.977700957627111,0.993626594821963,1.11547,0.833615033180859,0.770083977186049,0.823287151459065,0.83529604962614,0.852581121019313,1.16295,1.14044877849176,1.16577999997766,1.14583873691571,1.14742963925488
0.854001891124665,0.87328764253059,0.968961833223033,0.940468690520226,0.847637587349684,0.847267103736879,0.846456965185281,0.889751614727134,0.978975232947776,0.998446068672558,1.38505863748705,1.40198065641547,1.39981245289855,1.39152400868157,1.38742480293076,1.2102789202399,1.20066701585128,1.1334748739738,1.13176857187726,1.15420481971581,1.17532502330408,1.20371934709073,1.24933959671318,1.24810371925828,1.24735873326195,1.18859100568259,1.1109725436367,1.06364974703374,1.05572612626895,1.08835165682006,1.14732020055136,1.17458075920114,1.20289848214705,1.15784872152063,1.11722692522093,1.1375194310373,1.151201621021,1.15538539018222,1.21173706028141,1.23605586606991,1.37902414875857,1.3795639258642,1.38015193912435,1.18665731376605,1.13608363207065,1.13752258492204,1.25280055345261,1.25781929716297,1.27045906948985,1.32140183834027,1.3209335930698,1.32224348447241,1.30211886777043,1.30212390159581,1.36001128939232,1.40191611828199,1.5272290994045,1.53149359977157,1.5355797890957,1.53646815408516,1.53824425249896,1.55195438190135,1.55569021339969,1.55743434772217,1.76330220339116,1.77820900693186,1.78992783373396,1.56047701766897,1.55321200084857,1.54198663556085,1.53539276715587,1.52739775341978,1.50398857218936,1.50178848265257,1.43703083692205,1.39217641959708,1.39234590903677,1.17544254861674,1.13603236164147,1.10572880549864,1.06797911992763,1.06658355238037,1.03875015496136,1.01382430968311,0.962136902282983,0.913533459429598,0.822592200997645,0.773825650553141,0.773377993302783,0.785880839407486,0.860570414778895,0.866473766750351,0.870394316720903,0.87288300146726,0.872424601022405,0.87197381139545,0.890475219794867,0.92525007865058,0.976093236123527,1.00688926533063,1.03753162813773,0.848107076356499,0.737105379989269,0.736253974242833,0.75728463076629,0.759353067259929,0.812628470238982,0.933224982679445,1.12859363054106,1.09716068192192,1.0367974031258,1.03020858275627,1.02688847263784,1.02176857158296,1.01105215471048,0.996841540376616,0.942461454915017,0.93807096602844,0.936642295860621,0.954081860007011,0.992597879607403,0.99619772091925,1.13792817435913,1.16814869308298,1.1983781711695,1.26303883012946,1.26108577554328,1.26063559357795,1.23462984975354,1.22735339522158,1.21606506834382,0.876997917326239,0.822665121607202,0.828732499145347,0.831667556885511,0.836687190345381,0.863913723261162,0.899431691804226,0.92911694613366,0.823256291858808,0.786910151737848,0.806588725563398,0.823291890958719,0.82609116976201,0.849488465723893,0.795671133291009,0.770472988685618,0.738777542151441,0.729651034877099,0.753787241962844,0.773309615908391,0.776403504859437,0.778502170282123,0.779466577256785,0.779396157797153,0.770217118070707,0.766380772093412,0.77174563598271,0.795536191073422,0.812587606051836,0.820625609293352,0.811053778057865,0.803521625916953,0.798383851804168,0.79091542984149,0.806710848825819,0.819343193818062,0.850998632252733,0.890740390868886,1.01144607812558,1.14579998669002,1.14589642370095,1.14681912058662
0.876664535108936,0.875237258916018,1.11277,0.91924649496275,0.817582645499034,0.816118228547956,0.815500533155776,0.87052943516093,0.985455302453514,0.988126066765394,1.3712700356656,1.40529830117773,1.5138,1.38895698794237,1.38109810697412,1.20967180123551,1.20877216905141,1.13352514087251,1.12460995786106,1.15827979057523,1.19759167048439,1.20486575235709,1.32445999999917,1.27047440910848,1.30375999997622,1.17716667630704,1.03385327366204,1.03889648722069,1.02516476014813,1.08261650125187,1.16398810514307,1.17183990477205,1.30253,1.13471002374981,1.0654599343467,1.11125610334964,1.13975997074799,1.15186297020874,1.19072000001829,1.21166398770381,1.44134999998782,1.38014736751655,1.380855307713,1.18142180563548,1.10922000000618,1.13846458235418,1.24317004869079,1.22512516988208,1.20725047722544,1.32146046079702,1.31967751628369,1.32125413667328,1.26098000004726,1.29830491349037,1.32432987251637,1.39298813424205,1.51956720759263,1.51877369809472,1.51780031743216,1.50728926500659,1.42882000002398,1.47764489047552,1.4782301980786,1.52409968164381,1.78927892434164,1.78779651156367,1.8522,1.53807730151782,1.44683000001328,1.50387298387955,1.45982000003242,1.53351961524817,1.56952004075962,1.50572080169118,1.52918003202342,1.39260513599832,1.39232204101675,1.2528514800154,1.22215000000004,1.13602796290841,1.05036855101739,1.10859079218138,1.29245418029272,1.04131609980945,0.977774012131566,0.937123697535185,0.925582000006121,0.753532085638181,0.719121000023691,0.778748508067665,0.884300060661615,0.867468387469193,1.13673,0.918515756918289,0.94563299997009,0.870093554419525,0.868128704196083,0.911897233760832,0.943707999991283,0.976102644976352,1.13322,0.84951483685945,0.736421728522584,0.735958081640313,0.7801798940124,0.765584908304228,0.807774487940554,0.931550855140907,1.21903,1.11035618404431,1.03542467507407,1.02730379874254,1.00496279883692,1.00092272415235,0.997400670265761,0.974022838741701,0.945422845596009,0.938017991537184,0.933454454440469,0.953975041983758,1.00684817225653,0.999433404594139,1.22260090383606,1.2209090324589,1.25364021793241,1.26835328035763,1.3232299999837,1.26964728148764,1.24142394827043,1.22618891898185,1.19516509207325,0.875621912775112,0.809293254629474,0.821094787522613,0.821982002084177,0.832746927225439,0.881834030054427,0.884221951354267,1.03048,0.821759862239445,0.758844981196731,0.796762888424692,0.81972244877312,0.823309839907651,0.901762999996796,0.786096913913913,0.725550728152751,0.72391288242152,0.66157600000714,0.743403638759716,0.777841833263738,0.755301619970859,0.70807898609898,0.756950040439663,0.781157832100534,0.747852009162121,0.715058252138445,0.764024361697416,0.795428889221535,0.805356060538058,0.835977681993462,0.799207014024234,0.752516794363112,0.771607683495605,0.783579976126453,0.787162450338301,0.792769297543411,0.822617148610828,0.830730992421566,0.983077958119238,1.14735220834054,1.14679330514941,1.14825192056267
0.868312869974202,0.869386231912738,0.928931276677781,0.899598434159379,0.829641296176029,0.815461249587976,0.815357316189492,0.851129356119622,0.882400635855245,0.977834670002023,1.38807267627241,1.40708755306743,1.40817119622387,1.38631454457147,1.37686209630618,1.20350229867583,1.18087532445497,1.13388969775163,1.13415147823148,1.16159636510878,1.20266332144778,1.20542678265501,1.20566957678708,1.20352871852274,1.20263402417632,1.16808530409525,1.04445944693838,1.0430143599511,1.02802523536118,1.07821135871423,1.13837926546551,1.14707060752557,1.18593701100714,1.11225548249019,1.08940816995375,1.10465787448182,1.11430528144381,1.12453002575656,1.14286933415187,1.16911635695511,1.39085746690531,1.37241323564072,1.35823546894191,1.17421938403744,1.13849373791249,1.13973821593792,1.21098251898769,1.20920647464621,1.20871134279032,1.32440587048954,1.32178051503871,1.3220431339881,1.29044032598979,1.29612543032511,1.31686536987857,1.38361842271274,1.4741029444939,1.48311013107527,1.479476926157,1.4818473127599,1.47741336192925,1.47882165391026,1.49031033901556,1.50833943931839,1.51396506456599,1.5197108157091,1.5239956510315,1.52834277026899,1.53672262274544,1.54404264182578,1.54808620732174,1.54949995364611,1.55672358993792,1.48824598659045,1.47816991569971,1.39233825067472,1.39167828262044,1.32197246188752,1.31932954801216,1.31470159610081,1.30907641294784,1.30335305652694,1.2975127455746,1.07014064314662,1.01249975221507,0.959272918378695,0.808396054899295,0.752037164027162,0.751190247935767,0.771250214595209,0.84446616410983,0.849594787406207,0.927897831813287,0.903062920766691,0.894266514182444,0.868745405459737,0.868152145428333,0.894207428735283,0.920906879288851,0.945652796394638,0.963508428017212,0.851436964328562,0.735729168675596,0.735194212662997,0.756372110371559,0.758266679362334,0.850266339431463,0.927221335060141,1.15290613964678,1.12191514232677,1.08200773196073,1.01455767929738,0.993451588956993,0.98381594972808,0.97387280142388,0.959820153786661,0.942750679251012,0.939258591445504,0.938472000779977,0.95596754417891,0.996451138224146,0.996408911050712,1.20692590396132,1.21900489919367,1.26352614571867,1.2699394838456,1.27494657229897,1.27089018344149,1.25836586574632,1.22177056223284,1.19489670410896,0.875143456664946,0.814614582977994,0.819270689643608,0.821094418404137,0.83167113182986,0.858838907592977,0.868371234366275,0.882188518410421,0.814767654874926,0.77088409587314,0.779127027505833,0.784862357600833,0.791950620687302,0.801609521258365,0.776704879411677,0.729365055516001,0.72146454657454,0.717678953908192,0.725918057768052,0.726903324749361,0.725229094882105,0.721028037590141,0.718482068781272,0.717015253047915,0.716212406402971,0.715655094074472,0.743630490226001,0.744176029859165,0.744377919228186,0.744683716716023,0.746015573527583,0.748694664539106,0.766795151643544,0.772413781685152,0.777981481768153,0.782901461897029,0.815173377559854,0.878953320977375,0.956788821836135,1.02999600917843,0.999587601145442,0.969141951147889
0.859455160289536,0.866352384646586,1.0892,0.883491095413682,0.848313021857726,0.812101073914541,0.77172796516238,0.795664008038818,0.80335569990966,0.967279523735985,1.40652381044573,1.40721847570995,1.41375003105384,1.38338772892258,1.37448194543269,1.19667519622278,1.10630997385826,1.12242093080228,1.10669997121767,1.16456461491473,1.21519836601395,1.20733636139622,1.2019134248308,1.2046144009245,1.20168486755968,1.16003857625775,1.04477250932926,1.04446169259907,0.973755000000004,1.07485086083607,1.12046998567124,1.13546738371936,1.3082,1.08703035616848,0.950357355544112,0.956182064363374,0.955025590285662,0.977521197420907,0.990290022926448,1.13900955395621,1.46715,1.3711707261781,1.3371102115487,1.16824655367882,1.13311993340395,1.14268578050014,1.21174878521702,1.20756375428295,1.2021562025415,1.32936051345081,1.52459,1.34000738557156,1.25356000001962,1.2960817724033,1.29768644302233,1.37329778878073,1.45748994222967,1.48057856244351,1.49055379230654,1.47571333460771,1.48948710886147,1.47645488605038,1.49920692459093,1.49993081835002,1.43836000004075,1.4724041952094,1.43650000002966,1.52233780558075,1.87214,1.64654377161019,1.62518832866897,1.59281252426069,1.64517,1.47734789247897,1.461259996399,1.39177336814568,1.38948021861368,1.3287411990473,1.33822283521944,1.31935690797894,1.31975053857457,1.30894290068013,1.2982624349645,1.2402125910753,1.22236000002309,0.98377537007237,0.738644797693923,0.736943233724174,0.708191972957054,0.762322708133767,0.830475958958562,0.842303100494946,0.987704999998286,0.869763738840054,0.833052846330578,0.839554058098629,0.846785124613711,0.869338338896165,0.898616000010204,0.921095321106568,1.00941999998287,0.852360657977826,0.731563768177335,0.733733712255002,0.72997525001713,0.752727050518783,0.912647616450767,0.920623759450571,1.21375999999776,1.13136065907654,1.11855998385941,1.00393093576479,0.967766005455457,0.958163295538452,0.918037424962222,0.918418448575091,0.911093928723797,0.937581916998467,0.938076018980214,0.959234123296154,0.997749230483642,0.994770209745256,1.20165022322599,1.21697907154248,1.28531019893764,1.27746814056295,1.28806967575086,1.28658187330942,1.29444445673544,1.21227632490945,1.19459709581889,0.872279056428829,0.804578734134279,0.7973518634507,0.776593337487118,0.820379433407539,0.847437940544131,0.857842986566751,0.902842046230968,0.801988854010616,0.756033192257163,0.770132285996424,0.776988431114403,0.78798386117168,0.814483458615399,0.764618679399812,0.732784766350213,0.718381502232403,0.711660840056433,0.725375691088548,0.731740362531849,0.728517785801198,0.753848042418064,0.718231205100021,0.71430378447075,0.705491283202442,0.690683180395556,0.743929390638376,0.745748800136755,0.744498504171271,0.744879395764338,0.743841166338097,0.744150126767348,0.742373968179485,0.74440681274223,0.770476811899055,0.780384037840099,0.805790138524925,0.925227997038457,0.933907479633172,1.11889,0.969141951147889,0.939084000001595
0.829188219973132,0.861333119245348,0.897812367908019,0.868733024847678,0.825469909030237,0.811518047073326,0.785743973168731,0.788872338527467,0.857371716956631,0.956169293514918,0.982798954311194,1.22194395896245,1.38195025165878,1.38051126868425,1.37731298545931,1.18575745051781,1.14802333361544,1.13876151394744,1.13355687221411,1.16742390697967,1.20496259169114,1.20614428656471,1.20557069454653,1.20300290261388,1.20194693739913,1.15756509310893,1.07182636912539,1.05104576224599,1.04893195205191,1.06939235541817,1.07138393706195,1.07373582558746,1.07502425759176,1.07427081900703,0.964631693973243,0.957161284725207,0.956176297432007,0.970522750080018,0.977913904527792,1.1139117823341,1.36724577466874,1.36626822990086,1.35452650120751,1.16127873588696,1.14674385665134,1.14525176797415,1.20299133983583,1.20406328646931,1.2171446657677,1.33359953504816,1.3968798196518,1.36683889205132,1.35254281963415,1.31318797610664,1.31402468237281,1.36225692050426,1.47089542950244,1.48400652592033,1.4793249939776,1.48131492804692,1.47713854112163,1.47828052528591,1.4999511747168,1.50013138918184,1.50007072735095,1.49953737040811,1.49919205792824,1.5175722712975,1.66448206135096,1.65311138353087,1.6468692764832,1.58273107812693,1.57272078561992,1.47131771002329,1.4306017849356,1.39203020472347,1.38255210928846,1.3223972020319,1.3190635475283,1.31916983923518,1.31936102274168,1.31072819549125,1.30797680440159,1.26328923950251,1.2419045956009,1.01122361121075,0.795710846158609,0.735849779291543,0.73254808262354,0.747643156254493,0.75849802678987,0.769457278239141,0.781034669556228,0.792684836766606,0.804527556641832,0.816562619721085,0.825591241003472,0.832351433034899,0.847701390167611,0.848745749034941,0.849930050140637,0.85098761212054,0.738566903778706,0.736938881249391,0.73758759192899,0.751038993354332,0.812927697552421,0.885777338185183,1.16197082562929,1.14788547351321,1.1349654489035,0.98846587323588,0.958051033752242,0.950815641343528,0.943661458491449,0.91906934624756,0.919852456078892,0.934541470533972,0.948805410693457,0.962653098124606,0.990671185018677,0.991270349637068,1.19280451058023,1.21503162746294,1.25276923368335,1.26109138875429,1.28533310738133,1.28583732508932,1.28974620438855,1.20389526362548,1.18386747867288,0.865419784818854,0.797475314167768,0.792592432892832,0.783591747049518,0.806754723076856,0.821715843468396,0.835557436638437,0.8540958284846,0.787336646572685,0.758778071990793,0.762076495142593,0.765973389203984,0.770172301899678,0.774384441643772,0.755561036820499,0.727067217168223,0.715258351030623,0.713015747162567,0.724683493780816,0.731076254004527,0.73030275698891,0.71697512332193,0.711997718649826,0.707644256751395,0.704290564232228,0.701295579386903,0.743814411587678,0.744158968801626,0.744276632924684,0.743949190851072,0.743171412067161,0.741964351322638,0.739534890562255,0.741323364772074,0.761987060711219,0.768398705500781,0.793941764204999,0.832452589934993,0.863228806227947,0.894127245313827,0.807908400131225,0.776838711953874
0.79806503333921,0.854371124422802,1.05852,0.853718452245971,0.739000990112808,0.755301696750526,0.740138982390798,0.78608470255627,0.901216000008154,0.944905422983533,0.924579955678951,1.21892219665792,1.38408990205374,1.37882534122738,1.37790178788318,1.17478007927212,1.16759002356756,1.14231304409005,1.12632846587044,1.17079481401242,1.20348553965525,1.20917527126506,1.22586957767595,1.2156541351525,1.21609965677624,1.15912316529327,1.0958100503974,1.0540721604763,1.0219199647697,1.06766341249834,1.06576747610358,1.07445169945087,1.07642573054373,1.07305081760048,0.974124371841899,0.958633793107822,0.896459999999999,0.964455778566149,0.936774976324862,1.09655340853279,1.36748904668722,1.36428298308213,1.36162815836796,1.1423758245413,1.05444000002316,1.14187569875856,1.20287324152207,1.20299873268979,1.23804002621238,1.33639969486729,1.51366,1.38053663358587,1.41194000246637,1.31283741377013,1.31512951267124,1.35143984509631,1.48821668606943,1.48578797074172,1.63526,1.45863205472153,1.42356999912812,1.45907635669531,1.53484001709778,1.51504987879617,1.61943,1.49919164517256,1.49862060719577,1.51238265271912,1.79368,1.65429732635278,1.65817069029178,1.57066309185224,1.55206988959296,1.46480620034049,1.39069714164442,1.39206142188579,1.37854140011353,1.31457278414086,1.25864000001249,1.30945390410968,1.40865,1.31572202468875,1.31893894704685,1.2740266888433,1.28200870479913,1.27316435001424,1.28112993767064,0.735508287891652,0.683209979463085,0.708366965013093,0.697893166641918,0.719173403648787,0.697594000021621,0.748968153307262,0.717239000021206,0.786346496031706,0.795389016766391,0.815249564714742,0.846162539717663,0.848191643885995,0.849414287480294,0.848317736371125,0.73932440475858,0.737664246494639,0.736914295140331,0.735166788893765,0.7365627490855,0.875481869362081,1.1817001000856,1.17865046401056,1.19783999996704,0.965198668107867,0.922132763876651,0.942824924843551,0.967224057580784,0.91947699428897,0.921124260022476,0.930560724104389,0.96736978143263,0.965397681960488,0.987205864827083,0.9893399226387,1.17881205379852,1.2131719378784,1.23929995094579,1.25114958446428,1.28282677619676,1.28406248820488,1.30185002751512,1.19794539192308,1.17034043785947,0.858147788793481,0.774957631150368,0.778131120537003,0.746928000062296,0.772609362264709,0.767790306257381,0.813810750646488,0.904496999988021,0.775810706297847,0.729025808374098,0.752996689000743,0.761145073263766,0.765775897473254,0.778373479151522,0.745789253163986,0.703742082621135,0.705967141240901,0.673433979429672,0.7222437620864,0.736886528464111,0.72996638869846,0.702982967061507,0.703695760054278,0.673425955579805,0.694871385779673,0.694923913688761,0.759539571176682,0.773803918194531,0.773797222980604,0.787376228759482,0.795338810113012,0.818055009825049,0.733918874674554,0.73288393182048,0.744365508901782,0.753605702109217,0.773161722938154,0.79725099999096,0.831632349859592,1.12177,0.776347175453319,0.721731887342272
0.783990529710949,0.844482205299215,0.872856171514189,0.838357819990351,0.780229885780818,0.771022288433949,0.77078245493964,0.783510702965402,0.924652343126502,0.955236657456182,0.98019547113128,1.21336780099571,1.21487336187945,1.17220580348948,1.16935153449146,1.16406770573737,1.15708281226252,1.14804484562053,1.14840538832218,1.17486446576801,1.19695657991149,1.21174165308041,1.21547838859808,1.21520401919803,1.21576327210917,1.16158377304607,1.07846650924303,1.0703544346171,1.06852323653633,1.06983880816364,1.06839813547209,1.07342225641502,1.07516525776057,1.07035284292513,0.965109472599842,0.959259198822086,0.959343212570218,0.978973884202377,0.988428395875457,1.08456904207366,1.20250269987005,1.17303000959595,1.14469472956833,1.11710601033992,1.09598304407834,1.1190061950612,1.14928175247197,1.18950832843888,1.27422482608485,1.33768412604313,1.36057932165228,1.3663436883921,1.37678282905532,1.31106708330909,1.3125448164045,1.33951683671665,1.44566953680235,1.46066754232354,1.48994533702943,1.44649671108414,1.44216488391703,1.45273213618893,1.46158632067753,1.46852656613597,1.47554447785471,1.49054755852428,1.4980738030235,1.50587322713593,1.51589001857327,1.51415592392421,1.51439384196615,1.51356549278449,1.5135854391991,1.45696557398857,1.39217813507908,1.39336211871218,1.34855673638678,1.3098450064122,1.29912159293463,1.30057208865561,1.30521887854469,1.31340413220353,1.31571351730041,1.27099029009716,1.26571549013189,1.26056433116978,1.25734396162597,0.736378141737201,0.701161697682151,0.719148254121589,0.721762200030949,0.726804355229383,0.748233171910233,0.753402922391073,0.765694964325406,0.777448898127376,0.786306512566327,0.795120179576975,0.80212192724144,0.80905540877166,0.839621352961985,0.843083833232867,0.779777103887547,0.736218019331731,0.735057606541912,0.731440380440489,0.760968011455842,0.864860179947682,1.17844708974435,1.17750563919384,1.17679348286633,0.942641948903362,0.919415474732438,0.917646966639114,0.917469274622263,0.919147841062723,0.921988810349058,0.926085076561211,0.950776865198307,0.955405554688262,0.987110764347774,0.988718557396195,1.17019934601191,1.21119487801781,1.22605367251982,1.22428536851246,1.20474122352556,1.20011387129297,1.19425621523191,1.19251787910826,1.16790402749057,0.850724019562709,0.782912526129434,0.780453573591428,0.779743234315635,0.776464393949063,0.775325315101979,0.773726988113381,0.769650078264317,0.757213008510939,0.740892135208039,0.750675518234696,0.756818339039566,0.761159851219616,0.765581639969904,0.736520471657684,0.705964253096879,0.706977223856747,0.707747410125727,0.719226778691537,0.728341015505836,0.728049708071331,0.714000424158404,0.704400310487909,0.687941274207713,0.694984145879932,0.727233992718332,0.762197203763399,0.772603595142404,0.773131624985761,0.788157579604515,0.79941309712772,0.805739679298179,0.73056557514621,0.726551926309931,0.721284414438189,0.717688469185606,0.715918953238763,0.71555128201528,0.71570817571544,0.715553506442819,0.714580648584654,0.710901825267328
0.76919996418201,0.836950690543211,1.06805,0.822749861050792,0.788307146307683,0.771138237959531,0.770623355179812,0.781846884048587,0.984174039647584,0.965356442107252,1.19276715960756,1.20442460812609,1.38828,0.959656479930949,0.885262068797141,0.898704689974355,0.902966856615291,0.9813810312753,1.1554099937501,1.17954452070353,1.18461008854644,1.21437120563351,1.214285368223,1.21622866367863,1.21507240675854,1.16440195050789,1.07054772470553,1.06883200128765,1.07107475372096,1.06777400151064,1.07463041683312,1.07100425983606,1.07640813637046,1.06697022694915,0.956870260783486,0.958369829313279,0.958222710574779,0.98570977996127,1.0009300733761,1.08236566205588,1.26476,1.13948676787867,1.10662999998826,1.08599887640608,1.02970000002641,1.07016419840321,1.07687091872227,1.17398083539758,1.35819999997829,1.33803285379951,1.35063002947777,1.36068104295437,1.38811990687289,1.30809195154367,1.26834995501221,1.33071158308398,1.42823998646312,1.44577513029086,1.60598,1.43010694278452,1.40495004941271,1.39060787087143,1.35124702782716,1.41897756099694,1.42468993941546,1.48180490194666,1.49725977842428,1.50204817580346,1.51717126177491,1.51143170320555,1.50818728151563,1.51167372881884,1.51276299447883,1.45049691434974,1.39250087049578,1.39540732624416,1.27808000001993,1.30475474486601,1.29532475455626,1.29804598198916,1.2954431422828,1.31105005395905,1.35052000604228,1.25578436359729,1.25099600255861,1.25272359603207,1.25555028622748,0.739061361234853,0.668633000016123,0.723968686701522,0.742057874906139,0.73967519636722,0.880618000000001,0.810762301152764,0.883864000000001,0.765465483308954,0.687321000014933,0.736544901805079,0.739697974295773,0.780206006185429,0.835068339790012,0.839627831911809,0.853301999987775,0.729051092059636,0.670603000004281,0.724945413680537,0.778287041933252,0.85572009417094,1.17833928131477,1.17747389167144,1.17766883822319,0.901105889215645,0.806669631940293,0.820892953789103,0.822816313768346,0.898393954898682,0.939982424744433,0.923685593789038,0.908643711909455,0.9491159404418,0.987202816970418,0.989488748313942,1.16608647860048,1.20897446947819,1.22635205309849,1.22089023876387,1.19527021876328,1.19977688550688,1.18122614464991,1.17765587945951,1.1653230658165,0.843273668208934,0.784703895441963,0.781215577367148,0.779179215453029,0.778238344630541,0.834995999963022,0.772391602213411,0.730053038146131,0.724329123217259,0.694294145840235,0.712953707274408,0.722323945223283,0.736419727206681,0.811743999988904,0.734795179440771,0.670316968101249,0.690228950814785,0.707539143384856,0.714347015852161,0.727944056094176,0.724678933645453,0.720704453175708,0.704856588714017,0.677562288787682,0.69552417574215,0.768798432534098,0.766071063350572,0.7707104872536,0.772121716379724,0.789721414307289,0.803072581294534,0.841194999964388,0.729323228458284,0.688118455886847,0.688867230959802,0.67886223887809,0.689157122277432,0.692324937388834,0.703112808323843,0.703375888541973,0.704487902473642,0.668670000021155
0.793135832226075,0.830878220349029,0.84674638866995,0.807039719047163,0.78123244017616,0.771567693726314,0.771330526268637,0.781429943902829,0.815255818357648,0.854223395769527,0.898126591733986,0.928799457245722,0.959654229378465,0.929171144316119,0.892240643320909,0.896945828347792,0.89886837975685,0.9518953026913,1.16764923126483,1.1845130810016,1.20083212662994,1.21431417522389,1.2157160049189,1.21551362055806,1.21592744936538,1.16692002383726,1.07035031381405,1.06958002318956,1.06849301983152,1.07034257917069,1.0693206904298,1.07006403925417,1.06532833402451,1.0626685356985,1.01196460836942,1.01537464341031,1.03414752500877,1.04159898258308,1.04845999209804,1.08123083630837,1.08032099408122,1.0785218878151,1.07567776476318,1.07148055404514,1.06588152424358,1.06798731320704,1.08822744128125,1.16034862839135,1.1922801020066,1.29169366915425,1.3432491918789,1.33165284153023,1.31801985271808,1.3067968892566,1.29331521064897,1.31829058451302,1.33336168014664,1.33463194916411,1.33690767334251,1.34067574154406,1.34448342017242,1.34871983841814,1.35219367565012,1.41124169391296,1.44475990093174,1.47245886644217,1.49978787440726,1.50156912806713,1.50026402827175,1.49752687577057,1.48076986594507,1.46669940672936,1.45427859047077,1.4417364005994,1.41152639796732,1.40106169846157,1.33222618444594,1.32664958061953,1.3229639124227,1.32127717348446,1.31994783476501,1.3097536911275,1.30903394376348,1.25401903691349,1.25134700464015,1.25171836305493,1.25133488805646,0.743822980261951,0.744411048122418,0.72945655061762,0.732905850143835,0.736879534302728,0.73650499996599,0.737050879143219,0.736801284729733,0.734966392796184,0.733862479471298,0.734963076786325,0.736547504315976,0.754990960418317,0.763867149753515,0.752272711450823,0.743693696203971,0.727117640139198,0.719784009713236,0.720052833688317,0.804170891929696,0.846992905204415,0.872125279933605,0.902518925651197,0.933066915538149,0.870623992718468,0.813899494889146,0.819127884287998,0.820940447678514,0.878860575263296,0.916983365567648,0.914297161770666,0.911509355126133,0.939429142987741,0.982392569589991,0.990984088852778,1.18946480712454,1.20670451920062,1.21843555851176,1.21671798873967,1.20862265812579,1.20333664283489,1.19566093375229,1.17585533923755,1.17032031304953,0.835826998975738,0.787856514140197,0.780222118708002,0.779498019471191,0.77659656874366,0.773619439844132,0.772123970946724,0.760546170414507,0.71892544576006,0.702024637105933,0.706623054346289,0.726686754050021,0.730668591853123,0.732331111931773,0.734345977470796,0.679500185116435,0.683695187541562,0.686520280753207,0.689759010750554,0.693286560062036,0.703762773247775,0.705446084308656,0.704894834442354,0.686757109524291,0.696071823242051,0.716129144468847,0.73466945757494,0.752183477403175,0.761080706855824,0.802644540061807,0.80452876440131,0.814522452075939,0.729420100485419,0.688867517660829,0.688230094611853,0.685459052591534,0.688222952877419,0.689129522868123,0.703398421446338,0.704123631538359,0.704919805673324,0.705628188013428
0.816912274222218,0.82545317993287,0.904714999996225,0.790150008017581,0.757512442939797,0.74925196823382,0.6974359774502,0.731861639089459,0.743016988904095,0.823529389935403,0.867574000000477,0.898126591733986,1.33325,0.860267675634951,0.812376515940464,0.832089545119179,0.848225079478111,0.923566133307553,1.17417000824313,1.1892714015571,1.23194652134055,1.22860186174806,1.24468021025021,1.24538955260661,1.24622871418167,1.1684679034578,1.06334496333178,1.06668993644112,1.05046812622321,1.06898325829334,1.09404006904288,1.06706080749944,1.05444594772178,1.0552504511261,1.00554822764366,1.01726240545891,1.0736543384552,1.07389162498655,1.08543238402213,1.08061094013922,0.980861000019555,1.00153435491763,0.971543000015898,1.05155406676504,1.05936026452665,1.06638317304128,1.10886008125444,1.14550247671187,1.14835990307535,1.26699902317056,1.37882999997572,1.32473779166777,1.26204000023189,1.25255628531025,1.19915000002185,1.30810645491737,1.33309000004089,1.33492302241347,1.33603377629731,1.34197130463866,1.34565075064061,1.35063915158234,1.35709065282073,1.40029545529263,1.46169007894028,1.46902572673718,1.55212999998936,1.50336535890817,1.48604840808402,1.49331558977284,1.46261997215764,1.45687863369476,1.43168015114971,1.43116632725681,1.42735468685389,1.40528742998983,1.34077826889248,1.3619822118147,1.39955668587693,1.40123243933912,1.40197344949755,1.30974245456786,1.30866013928464,1.2488734265872,1.22848994317155,1.24357083438427,1.25123685736515,0.749244534810233,0.758289520372981,0.726650318358966,0.697145953301536,0.737372299309823,0.73555230060197,0.738263718686507,0.737556848703044,0.736283867908219,0.762205979595844,0.719489633071223,0.672913842356769,0.725111435960694,0.788635068762645,0.73718992237844,0.69829977640842,0.701030446748659,0.71062732453344,0.717294439050309,0.838648341380119,0.837268946744147,0.825518966440177,0.871343991950203,1.14344,0.840339231960106,0.790886421834858,0.791653779072245,0.784918010554478,0.863365235891001,0.919592087852833,0.908894119583402,0.88948361922421,0.927896986606322,0.977449280889617,0.983674437194771,1.20322430832992,1.20475002444713,1.24232003452977,1.21222042776119,1.21076929563841,1.20449573120887,1.20205748334773,1.17612981026562,1.17795520318862,0.828341071519427,0.791311013691107,0.7714573799945,0.750179601051265,0.747147859885955,0.714258000014024,0.789530585208604,0.829478052198973,0.714461890916771,0.677277095701217,0.706082276460999,0.734664379310257,0.732343273146842,0.731180066901002,0.735315826395497,0.662726259401496,0.668385374862351,0.669895857541652,0.682869895522771,0.687842453906173,0.701725813177774,0.707501548678417,0.70340418716251,0.672663908946155,0.696200160568025,0.695996355947362,0.703192542784824,0.710315358143509,0.756532017548222,0.804365446878399,0.806181363924055,0.822612613724354,0.729872091618901,0.672160498832732,0.669407078281787,0.667901859160176,0.667237902399234,0.648765985578531,0.714874342460651,0.931659000000001,0.78104007471985,0.883614000000001
0.77880610354346,0.775667012735575,0.772370718520341,0.768469183314731,0.763709916024697,0.735679959287627,0.721346570695268,0.726596952025191,0.731909807966887,0.792528895410173,0.811654047110637,0.811928427320696,0.812850042484052,0.813622809824098,0.813483049381232,0.82694036385856,0.832834044766654,0.896306422256936,1.18067454934654,1.19324254403605,1.22454374799698,1.22594143975674,1.24490207545046,1.24553234224934,1.24616679206342,1.16864088133907,1.06537481042893,1.06678142433638,1.06721131501761,1.06768584342245,1.06608875995856,1.06568456136242,1.06306802816108,1.05583114391453,1.01773905243525,1.02116963438198,1.07389582817659,1.07546311654201,1.08002723687012,1.08002769256139,1.0519853044463,1.0063290209756,1.00558538407174,1.04481076034708,1.06190016599237,1.06427423805508,1.0845262849024,1.13777555313252,1.16065730687566,1.25154050567407,1.33008949333644,1.3208848992249,1.28550880148355,1.24471224097469,1.23442337354729,1.30487696727189,1.33558474012985,1.33587803766825,1.33791626809683,1.3410226523264,1.34418258261443,1.34725090823585,1.3516937873253,1.38665971514496,1.42304022700909,1.44704724035833,1.50643127951406,1.50466909112306,1.49871109162089,1.49547978311906,1.47996678353421,1.44387918594734,1.43117448182184,1.43049992201778,1.42900544900711,1.40814981705415,1.40763052989689,1.40611657200683,1.40264785706458,1.40207486283846,1.40201956825672,1.31004467913205,1.27657212183716,1.24366693266496,1.22190761197766,1.21775868318185,1.21410631559857,0.746659412364487,0.736928054937252,0.724613834504129,0.716278645179345,0.739532409696498,0.738022838513769,0.738475069033988,0.738856518043065,0.732411835773293,0.720187719807471,0.707798040312158,0.675624188669818,0.677531294461014,0.681014281029925,0.687612415093417,0.695131951087208,0.699782091497817,0.702368264005848,0.717116573717737,0.837253120032407,0.837171572097468,0.829724452404484,0.817879574444695,0.808969391853408,0.801343633383839,0.792904373956921,0.793728380007456,0.797011263885816,0.847631910640902,0.895152674145769,0.894203802908149,0.8939398023508,0.914017389293724,0.942932527075301,0.96998713739247,1.17422356420235,1.1822229644679,1.21037011715065,1.21038648893567,1.20909408239782,1.206904262062,1.20456982309204,1.17390514491259,1.16501356967978,0.820799817429575,0.772458110487438,0.76506711304865,0.747132137630513,0.745180956182732,0.782061982780327,0.798056605807546,0.809994048782246,0.71155588624975,0.690449510920226,0.701244068130335,0.70760968981637,0.712784676039133,0.73594199042448,0.73884386107573,0.664928086308753,0.667175535797117,0.668464894737088,0.678274845964898,0.691663966240283,0.700266816335481,0.699555261362969,0.703511491081057,0.699626155811937,0.696827598241767,0.696278130661662,0.701034725584381,0.707654550233587,0.751673150894577,0.807127150921653,0.808973188960675,0.81482757296931,0.729325400297603,0.669984342415567,0.668714553753842,0.667611999627798,0.666729860006054,0.699650410222445,0.718135931524983,0.725509723791504,0.735834876472226,0.738522750354969
0.782551255564603,0.730207068958373,0.652985000024644,0.736864564758842,0.982929000000001,0.724151156896039,0.715077823518789,0.701535116959096,0.68353152335745,0.774759977877177,0.812174170254193,0.790746898230958,0.737293126281468,0.748941920074776,0.748824463517925,0.80094988283163,0.818442034379632,0.869893775180018,1.1978760192353,1.19602551718016,1.22105649279449,1.22519557294661,1.2679599999334,1.24607507726132,1.2470061841891,1.16744095473543,1.02548996826733,1.06652558996512,1.0682294456412,1.06752958811263,1.02824000006438,1.07300059013255,1.11945999996877,1.05575824343368,0.998316990919534,1.02625309685354,1.11978999997332,1.08930615731213,1.10312002646969,1.0906584779822,1.26345,1.00927817519329,1.00542483689766,1.03741592961746,1.06947703792489,1.05917815582017,1.05103155146696,1.12761219599915,1.1708699788703,1.23817595124346,1.42426,1.31651011312547,1.30723961313717,1.23556427942502,1.18047997195086,1.30391289969681,1.56697,1.51220901080021,1.56179938605353,1.562085562089,1.56308668918649,1.34342705400691,1.32701998398455,1.37790318096044,1.3881000700875,1.43618577652463,1.51074474504234,1.50495751943261,1.50554888654903,1.49679224005436,1.49852436994782,1.43039962838914,1.41018249963525,1.41963840230924,1.46169999996289,1.40955169976069,1.40775513447124,1.40760317013982,1.32568000003017,1.41034651964161,1.43697999997986,1.31043698389797,1.23276952442995,1.23014179913846,1.21928002863355,1.21567520810472,1.20208996632251,0.745014098346688,0.722253229493156,0.723087727174711,0.677518000034161,0.742438848206954,0.797451069790352,0.792423168616055,0.804172248903824,0.720255587611158,0.686205821786551,0.679456450601197,0.620373000027151,0.664580694318549,0.664362428361291,0.680600948518931,0.681889957037458,0.694700476573345,0.69520275982832,0.718606106870608,0.849810260395352,0.83993168261141,0.844080248592743,0.813489067388357,0.80036098310696,0.782122306287148,0.739000954784245,0.783695166251477,0.800074666367668,0.831727126402641,0.897027134379675,0.894770057978615,0.894474109796684,0.893471738250588,0.894486490541548,0.944159110628323,1.15699995254902,1.17160399647411,1.20990822249899,1.20972666543161,1.2112070957521,1.2084707662918,1.22927003539997,1.17074322282002,1.13940995934248,0.813689987683883,0.753786287470753,0.742521886751364,0.718871980608251,0.742590248717,0.859693039856003,0.845357591962464,0.878662999971313,0.710243681698945,0.654928030395403,0.663128845375933,0.66328526991715,0.708056522381179,0.783259999999398,0.743357199912206,0.60201400000775,0.644370889071499,0.647780185844416,0.673748188958014,0.696278568426127,0.696654762829269,0.70852509507836,0.699599124391119,0.704870066292302,0.694196778613634,0.689825183227492,0.70032222138548,0.703839194282943,0.744078559450025,0.852116006372487,0.829026469279473,0.898702000000001,0.722538730146077,0.653383026709169,0.649185967225203,0.637480822498132,0.665672118304199,0.736102285015181,0.72043133081525,0.601140999999999,0.731649674020067,0.745871619443049
0.655851377689938,0.658866712591606,0.660818611630348,0.662411229790664,0.663439616329652,0.662918403155024,0.664628779466811,0.669639804461192,0.675585492330982,0.760836995229801,0.789413045347228,0.775035864083941,0.743039230173703,0.747541635944823,0.748936148234252,0.782873358818925,0.806796521675367,0.84392760174591,0.878523725498263,0.941433915350434,1.22304889987066,1.2249204836451,1.22534472727989,1.22633432151691,1.22879333315227,1.16525109768825,1.03983305210958,1.0656144305844,1.06578723506443,1.06798305187561,1.07286990621442,1.07683509661018,1.08200314759335,1.05411131700465,1.03750121395591,1.03152412452435,1.05133578180762,1.06400152686827,1.06967895211436,1.08966690593241,1.12568696499834,1.01359617553595,1.01131063362116,1.02862438363169,1.04644179143874,1.05298364579723,1.0685127843458,1.11749155280935,1.18441409787913,1.22333879573846,1.26310719235712,1.24416100366445,1.23415943013916,1.2245388226325,1.20512198363628,1.30195049848716,1.48226196851302,1.49201990423291,1.56147885785713,1.56182296693214,1.56242783400135,1.34072007680251,1.33922437076932,1.36468900622587,1.37162468792663,1.42345193764608,1.45610087343237,1.49609471394823,1.49632347800473,1.49593270659893,1.44052911282636,1.42410502110319,1.41216555671025,1.41342258856519,1.4133311530432,1.41137925627457,1.40952597902941,1.40767947056661,1.41296585179913,1.41377648099369,1.41521620631485,1.31092834914405,1.23066492684318,1.22793492304202,1.19641560288773,1.17999300098308,1.16315768975234,0.744202107287168,0.722388890397634,0.722643349062602,0.737464040651984,0.74504109876755,0.786921746507934,0.78839013778955,0.799156092301617,0.707180402086385,0.679626145104185,0.677661424262945,0.668621711564868,0.66495457875483,0.664539855568924,0.679506685421784,0.688633504150679,0.694155118417824,0.694702266412115,0.720137303972573,0.758839928346836,0.770231634113456,0.786225346779076,0.779698779278698,0.772908357954569,0.766672726891226,0.758893170320451,0.770335506353581,0.779587716359637,0.816380228117747,0.895822430939245,0.893966385112979,0.893140263603721,0.892355555077851,0.892578213542793,0.918520524552923,0.956288181246905,1.02402480107919,1.21026159973491,1.20804963588953,1.20715560342884,1.18695443936169,1.17218706273768,1.16664692873548,1.15469461494216,0.805208478209412,0.742540365822283,0.737506983716913,0.730198044008606,0.741335557398514,0.804691118993101,0.836280819760662,0.842582551510579,0.709910387503721,0.658947849987569,0.662082802353814,0.663149340588897,0.702495891187008,0.74508149165586,0.745265385424944,0.686559410884754,0.642532596303019,0.644372881345263,0.66906075863051,0.681096257320285,0.694670276390011,0.702649517248819,0.706521832075001,0.703563809972144,0.694497865040521,0.694157825617125,0.698214529183874,0.707636014439982,0.736373170197179,0.762273392548192,0.764848703877606,0.766441735916502,0.715102846716968,0.649078795375078,0.646694161618256,0.642329751689092,0.665055695256223,0.725418514789482,0.724056165034931,0.725277971571412,0.727281537511239,0.725451571208279
0.655893582289164,0.660194678089309,0.663677287447279,0.663805567413535,0.667109976753391,0.663251836827909,0.617773000011159,0.670639053935212,0.672968394570145,0.747490092850521,0.866199000000001,0.758199068867427,0.729873841421737,0.724676517155814,0.715529697070677,0.762106519342062,0.79751596981589,0.81835682276388,0.845531999993408,0.913556297865194,1.24988003032713,1.22644369803969,1.21715117410889,1.22506015593232,1.23195994035349,1.16269792846541,1.02319998383906,1.06434579442082,1.06356252783399,1.07019714806966,1.09792060493856,1.09025520322363,1.08877170516193,1.05035146911524,1.04489462434208,1.02943754770732,0.949908000012305,1.0370971101774,1.04325997533915,1.08756549887112,1.21639,1.0203290205811,1.00646002985938,0.993819468532386,0.954133982611245,1.05200203189508,1.09371002903037,1.10891283962715,1.19858004124461,1.20945587848725,1.29217999997188,1.22493333427882,1.10574,1.14139904352241,1.14078651720307,1.29876447015635,1.4607199587319,1.48228651493772,1.56859781119799,1.56200486704597,1.56285339480772,1.34036366302788,1.31768995256989,1.35693394769956,1.36511003549851,1.41181419877849,1.4325799628913,1.4946346946857,1.496250634517,1.49421528396434,1.38126813715348,1.38695123562954,1.3870281844946,1.39147752899169,1.39475917582565,1.39453837161993,1.33626000004869,1.4037934148918,1.41692404582131,1.41551360648319,1.4310400138024,1.31161941883044,1.22040488229147,1.22269964482555,1.14630819033248,1.14687163664108,1.14691903918985,0.744205274109926,0.675712958298236,0.716017405501031,0.751274872377885,0.74767702608779,0.786551357343287,0.786919856512874,0.867565000000001,0.693895184008723,0.625583968640016,0.661806637143857,0.672583002653294,0.662511653744582,0.660264848582607,0.678882723618532,0.692380853458177,0.693155773606662,0.660704000043411,0.721351501821374,0.728571580145793,0.761634172760506,0.80630704073763,0.763729200049822,0.708295840770654,0.715138021832896,0.715506208116172,0.748093416621569,0.75909006252978,0.797615884489244,0.89741281862081,0.841630077222206,0.805185680162339,0.828772737284163,0.847503049323886,0.891907189584811,0.925333999999463,0.996368328088293,1.21515716084618,1.20610815129606,1.20593771772689,1.17605244194989,1.15675260438501,1.15897240585842,1.16246411863675,0.795746105795653,0.711222958335837,0.723959087755664,0.724416696401751,0.741120801012677,0.779721985629346,0.829836746280974,0.945896000000001,0.709462131194818,0.629250965105688,0.649390450113105,0.618192000028159,0.702286251235432,0.742954674488264,0.745091466077198,0.764112999987481,0.638824226338475,0.62630395368081,0.663352157149807,0.669498082807717,0.692532691309532,0.708190768758759,0.707075292710541,0.719428068735085,0.684033777944138,0.658649183859387,0.684634619818854,0.710799335806136,0.726989350312148,0.760440612936101,0.766220435869966,0.768603085686682,0.707030750671474,0.636695518109015,0.635994847698711,0.628713967869961,0.665171606445012,0.728175209198461,0.724730600768153,0.80733899999022,0.728990511853561,0.718184037251635
0.655832009751303,0.659460659714625,0.661592364355869,0.662927896226658,0.664467540046903,0.660259655111945,0.660151514394012,0.668461803914033,0.673279037998879,0.735552320600399,0.757534563096791,0.747901691508312,0.732896178473437,0.71999212155962,0.717642433141866,0.743980974357602,0.765010613087495,0.790629825106271,0.818449757234237,0.888438000367478,1.23225918661478,1.22862017777234,1.22424173553536,1.19090654049239,1.17253462215667,1.16039273455258,1.10687249576902,1.06440886512738,1.06477571324793,1.07263164183507,1.09475262190733,1.09174224638121,1.0902710576185,1.02761929597334,1.02714500690666,1.01583955404655,0.999309749363672,1.0215010471701,1.06236303576046,1.08429316070689,1.08624856609839,1.02740896079487,0.993828394478957,0.985279142354455,0.970517269795169,1.05017798296408,1.06937644464781,1.10299978178836,1.14241637005942,1.20221957250328,1.22067292987075,1.20880395592256,1.1449633161421,1.14311646982924,1.22079810365961,1.29490635843431,1.34072842622487,1.43473194384718,1.52893728130298,1.52978318102981,1.5314801168535,1.34039432766938,1.33598752898436,1.34918389735364,1.3553753397033,1.40670670035677,1.45812884656027,1.49080892747187,1.48928471879208,1.49048156467625,1.38816646684262,1.38796922843244,1.38889232472605,1.39112141952264,1.39327068161535,1.39483429988408,1.39672247636469,1.39843769332083,1.39572445362831,1.39476306660176,1.3871733774973,1.31254167771756,1.24912985677334,1.22182392735927,1.14376784471873,1.14050154147731,1.13845344715671,0.745017019019579,0.69581796453033,0.705001121692555,0.724157209645338,0.732986125993266,0.746968642874153,0.736159317043984,0.709174064903958,0.679188314446276,0.644546496338937,0.646729855884392,0.649539846206078,0.654699142389841,0.657057302799439,0.678534684186839,0.698157286758993,0.702442972192441,0.707756348502013,0.714578725141691,0.72070924386648,0.735587094451217,0.756746484966883,0.75249510339356,0.728283733026158,0.714991444057528,0.715136361562027,0.736878582439839,0.744267496648357,0.778511642476683,0.783536614865471,0.789672554259775,0.795756421311967,0.821265609864975,0.834238419851618,0.864623754749123,0.895193111504175,0.97166304309569,1.20077464741281,1.18677989195931,1.17621984904164,1.16798107775221,1.15707914296999,1.1582065134197,1.15994264494232,0.78551522489636,0.744405324513678,0.723770357282813,0.723960670797823,0.741573510586595,0.7864513009492,0.827582433490878,0.850070843152468,0.705476167346773,0.661921792393032,0.661934237868185,0.677490291416288,0.701027000298733,0.702657126135533,0.703939735144443,0.672827282754195,0.637392836945161,0.636923610096393,0.656352949033216,0.676161279927573,0.69006294741002,0.698154122204197,0.699213644936857,0.683194495792958,0.6784071927734,0.671320715848893,0.679057190658315,0.690596281092316,0.71796611308276,0.762954105593983,0.765529912036536,0.767122970834572,0.697522118150908,0.635822938960977,0.63511289112445,0.657821995345371,0.666289132425628,0.699743303045735,0.722837464636405,0.754991337766049,0.730337669040818,0.707243924407289
0.709834165999027,0.707352102826546,0.86021799999781,0.740515759746777,0.696736062957088,0.657231254110013,0.656776039214385,0.664318321263604,0.672496817307225,0.722237825381315,0.773094016831831,0.741559881505336,0.735819916250772,0.718247549300367,0.690760731664837,0.70064294097955,0.701866148270697,0.750475813813599,0.773001999984985,0.865955308217997,1.23714052005846,1.22998001877712,1.23227918651596,1.17253463508793,1.15714020049025,1.15859741221826,1.16053990327063,1.06397653295279,1.06469274700702,1.07509306352171,1.09459208630069,1.101838313238,1.24334,1.02401133101243,1.01916999108958,1.00881716268998,0.974322981387244,1.00807097357571,1.07296666245157,1.08000684166036,1.08912034778399,1.03425191120308,0.94360709273499,0.96081757802233,0.962346538941157,1.04696075247986,1.04873000857382,1.09241680634105,1.09474458880802,1.19544144695718,1.25762999997051,1.19261041548259,1.14759417056407,1.14345371756673,1.28009087910822,1.28861126042931,1.31003000000006,1.43429334691277,1.5296126435925,1.53098684222564,1.5345111423357,1.33869096171833,1.28490001122551,1.30656435108018,1.31580951723752,1.40826669003253,1.48617326511965,1.48794566680661,1.48658437115765,1.4881523701554,1.38833495805556,1.38816565125534,1.3287092050834,1.31528339476132,1.2720000000106,1.37945256164892,1.41754001478897,1.39666404136067,1.3939158782747,1.39324393213752,1.38172668664835,1.31351751184146,1.2700988275884,1.22132150922037,1.1253699894835,1.13846833091948,1.13582528987054,0.746586314602578,0.649960954048963,0.700372917275125,0.713148969039245,0.721579922099738,0.771037060141025,0.727535406007354,0.626687962647092,0.641649402487157,0.641174548213716,0.644519386614524,0.621904958507804,0.654614389734559,0.654793567779139,0.678266587510526,0.768037999987301,0.718746393832571,0.745750022835785,0.707104071444257,0.694706643941744,0.723159444597565,0.769286006948519,0.746744405354127,0.740919900382262,0.709883415844003,0.680880957145242,0.721437636993363,0.729604544285511,0.764344599292685,0.771425089695808,0.776697838716849,0.776728460344007,0.780476880695418,0.79103896179721,0.793065916063834,0.793900802176814,0.949706889081026,1.23496999998688,1.16498082571801,1.14832846314459,1.1492424145144,1.15012745395138,1.15471924397337,1.22561999999999,0.77502472439402,0.767374033984106,0.718653551820633,0.676795975325041,0.742394726734307,0.792071780689201,0.823215700669725,0.969531000000001,0.700013756660587,0.662291431643892,0.662690083037112,0.690941914147752,0.696735438811651,0.701793616847724,0.703230525928004,0.603775000024061,0.630473238280342,0.631422865841733,0.64863797096705,0.684267905684883,0.687217542292831,0.770993999997677,0.699684938292495,0.670296118999258,0.663478359032058,0.645236469904753,0.670048117423159,0.676684768792423,0.70862478647373,0.845202000000001,0.787907558153929,0.810905020016685,0.686975385229242,0.622834988514194,0.633924396719955,0.671272713019608,0.66842802615903,0.653834990504031,0.720849774002343,0.806124999984661,0.731627592170127,0.68081118803908
0.702350548264771,0.705241575195296,0.800365752084629,0.770838626610091,0.740527273064719,0.654721601676601,0.656757250038103,0.659144900332802,0.671837569459224,0.713823677498131,0.724091464343167,0.724465248405299,0.724726717323502,0.717334790450862,0.695050695035749,0.698952072135373,0.700637695902401,0.725305058567683,0.750475801703783,0.846028591755847,1.14120946783439,1.11766136574427,1.10795023540795,1.09972418010249,1.09349153180455,1.08905227689253,1.08336811124682,1.06300861345869,1.06340565465638,1.07764354901719,1.1069846152674,1.11841107013839,1.13230802044931,1.02163999612667,1.00611724401493,1.00388639152062,0.994336352142321,1.00231066310339,1.01281604213448,1.05077413745336,1.04992028399439,1.04043280085062,0.954783130288626,0.958140164195588,0.960818381972165,1.04181734544654,1.04327351656825,1.0916224694403,1.1367828536471,1.19156773850514,1.20548634716955,1.18188329473395,1.14369046654211,1.14131207779621,1.22393713887897,1.24722352296497,1.27715248168371,1.43349938186058,1.5291844516926,1.53012797363114,1.53172133130952,1.32629391772566,1.29345297877029,1.30202929071654,1.30658708285332,1.41000757379728,1.48741626236247,1.48783825321211,1.48743862565317,1.48771846116638,1.42726302994568,1.39126224179699,1.31540261198452,1.30791936138638,1.30281801108111,1.36956486227753,1.40630622574903,1.39767714430395,1.39201357754058,1.39129055427524,1.36892978140008,1.31416124898269,1.27207279935862,1.22176443697036,1.19800839263043,1.176028581856,1.15508738274176,0.748768696162248,0.67178640673732,0.687846703714161,0.701328428150909,0.70968362757638,0.736280025184936,0.718549002406494,0.64239334219394,0.641629279551771,0.640421929868396,0.648107379914893,0.651538158634412,0.654527567610347,0.654969082107634,0.67781941240862,0.68641590591942,0.688288246184925,0.689261773720932,0.689362949094616,0.689258274405093,0.689689893887829,0.691407001824829,0.694426106647091,0.69729805090385,0.695949123168623,0.691037615739286,0.717116925107208,0.732145120530188,0.757581327987272,0.774041343460414,0.77543878381988,0.777103755823767,0.778475528112705,0.779161685166635,0.780548588251392,0.809801776929578,0.930200451288731,1.13500260644606,1.13526845708647,1.13538237598719,1.13330851290632,1.13168802593933,1.13090834681375,1.13092363804131,0.76617501787721,0.736110302797613,0.716733927020624,0.700336384542247,0.743395053777552,0.798103509699171,0.819408944644547,0.823740095231015,0.691354868457301,0.666989826580874,0.664438130263281,0.68039976790947,0.686108118482157,0.702103447895539,0.702820305702789,0.659956027982647,0.630052421218533,0.630475433864695,0.64276484397583,0.67612952933327,0.677548107102928,0.69785642414955,0.699225178300298,0.674446579528217,0.660350569754243,0.657349045089952,0.66575649445771,0.670001369680985,0.697947540389707,0.774280689012916,0.750292520786118,0.718110136511025,0.677024930490644,0.635009264412761,0.634065732141012,0.658766220960981,0.678187614698923,0.690110488533489,0.718294659965503,0.751302781857134,0.73266270184104,0.680886512902025
0.698952850185185,0.70429493800314,0.862044999982621,0.808691893413455,0.863392999992557,0.650945839758609,0.646281419294912,0.656222321063681,0.670308962542988,0.705166804512069,0.723526633185796,0.724268016215598,0.724840671987756,0.716824945340569,0.632654673571703,0.633464322317667,0.631633334330101,0.69504482390538,0.700712106912197,0.830695131083579,1.24471,0.971913884489668,0.921373675215135,0.977016197647619,0.996492856084029,1.00898320348069,1.01046951333796,1.01191918077595,1.02306266638252,1.08049363935402,1.14297994912303,1.14116531336074,1.15410008386436,1.0126010840482,0.980823999985095,0.966637950093264,0.910112975806966,0.964792086203477,0.961913713683376,1.0504316349492,1.04812456334029,1.04575601244168,0.950199766652166,0.954784141910492,0.924952000034171,1.03205324757698,1.02799229827763,1.09109777216876,1.17733954806602,1.18717091034645,1.26844,1.1484174538417,1.09380993352142,1.13601292415962,1.2056299916283,1.21784722995161,1.22573001157477,1.43220399346907,1.55205079847676,1.54075728092001,1.54863505096378,1.30466452093167,1.24392996954445,1.26917002616584,1.27668797128361,1.41155230816439,1.5225998326391,1.49635115705221,1.49444771320244,1.49554883088457,1.5083700293958,1.392572951494,1.28835998550087,1.30242207028954,1.29201995858017,1.35990430022616,1.44442999996639,1.39866655822997,1.38318166986397,1.38906522483767,1.34413184516501,1.31405052298481,1.2739708223842,1.22253485259046,1.22286314310598,1.21633661349304,1.22771002186974,0.751320147401816,0.619676982393706,0.652283767040399,0.662899006132393,0.696067307300597,0.802540000000001,0.706477811078055,0.642207026148141,0.641296479412192,0.637847012180013,0.651415377457288,0.657275178964956,0.656311337503756,0.64093399643141,0.676993559064498,0.683961482167556,0.677155386650751,0.638309976547246,0.670658450555958,0.678582988815199,0.669954435006938,0.643392975940967,0.694786133129057,0.702641580049133,0.694632280795687,0.683428223448501,0.709866435299704,0.734695125364152,0.74780274349924,0.873282,0.773097813694501,0.769741503633748,0.767742126707814,0.75703976022048,0.774642627509138,0.832642022370928,0.912874216221361,1.13595949425619,1.13630167347203,1.13884640377049,1.13332215260981,1.12981273810766,1.1305712218641,1.13146201090908,0.755203236458319,0.636827972572455,0.64309822528651,0.63725199319214,0.744426464125815,0.808040002120006,0.815175877532307,0.860262999977603,0.682928641096153,0.670228575091957,0.662350940688634,0.628721997364803,0.670556580063816,0.701344736035081,0.702271411276938,0.736759999991191,0.625070598596358,0.58996496420395,0.639022540067753,0.6704668655015,0.675055814998555,0.694120799123879,0.697851442664756,0.873545000000001,0.651591583843422,0.612212093377218,0.615477656953902,0.612447430540588,0.686937475710085,0.827631999990617,0.728444339110781,0.63902000002682,0.663027250907436,0.637505536361021,0.635010939454529,0.59567200000569,0.687604703499834,0.712468123901621,0.715229887419689,0.811258999998491,0.733247255925945,0.626070000022612
0.702532289564929,0.703725711782661,0.81137757828723,0.797672751931698,0.71967443210156,0.64803784082395,0.647130140068669,0.6546350731778,0.663436584137369,0.69713855288107,0.702859054206346,0.724371415505126,0.724510252066658,0.708813592292026,0.635179392418532,0.635119396216782,0.633868877433568,0.69109781112625,0.700434724702445,0.816801037416373,0.920396298342595,0.920734001212938,0.921063223944359,0.952400519881232,1.00047895955916,1.00745538844237,1.00843103201874,1.00763018478919,1.06299149024779,1.08381122670548,1.14116610537788,1.1402577909227,1.13985161072092,0.991586828767069,0.966181384710014,0.955392139297815,0.934854398019522,0.967694213594847,1.00490430732125,1.05116157615265,1.05030769052215,1.05017084947713,0.987983855798252,0.974380448464762,0.95514073120613,1.03577390269123,1.04166797862611,1.09043009491293,1.15849299355119,1.14574844625043,1.13729244504169,1.12717276680631,1.11471265666029,1.13372131448832,1.16357147778304,1.19583999739303,1.27395894727499,1.42982197165629,1.43256890665656,1.33942320004071,1.31044757087476,1.28804976285786,1.26215598829243,1.26418063018438,1.32003281881653,1.412756353135,1.51351858656415,1.49786330463824,1.49726763906986,1.49734045001786,1.47905326738589,1.39435349305898,1.35387838636659,1.30424014081699,1.30497390988739,1.35059435329254,1.41869927764002,1.39960244255022,1.39750710503968,1.39323988426769,1.34917986408586,1.31296010097236,1.29098589546212,1.22259323623045,1.21328193541712,1.21222820990514,1.19207844775763,0.753934715559939,0.632976804035955,0.645925674551548,0.653367568439518,0.674862457181564,0.682500122534647,0.697247139331877,0.692470982363862,0.688431834243286,0.687708958291914,0.683237879575832,0.683120549580418,0.681445866975455,0.678987880191706,0.67569490545457,0.672988359453178,0.670289494014422,0.669596041547562,0.669010429756488,0.668178095726932,0.666992062333592,0.665541448967726,0.695037501092413,0.696465823302054,0.692926050208125,0.690736040969475,0.702195092159422,0.717620658907331,0.739497791199472,0.765530511493139,0.772454238888176,0.771594128020117,0.764642156473031,0.761075126855019,0.773251049883726,0.849757571372739,0.897619886488238,1.12553479773589,1.12393250044606,1.12289672074095,0.998810104291166,0.970359673379195,0.943935521286798,0.919096213051664,0.742826006037245,0.644006967809696,0.652405965583029,0.660431070592389,0.745256269546754,0.788415717577383,0.786057890864616,0.719982566946146,0.674111162859647,0.662208947484182,0.656958279119694,0.645841681651509,0.669863962863972,0.674903590385035,0.667912679261485,0.64370025518444,0.62271428252832,0.613736428989528,0.633175056149808,0.671913131836094,0.673376648161388,0.674243666564377,0.664185506659617,0.651310296204339,0.642689631456906,0.616900437661191,0.619920166635987,0.623311267179376,0.675516999028023,0.684439612573511,0.687320531890166,0.692536900555239,0.697086037820212,0.700683475793749,0.703212830116444,0.704444830346954,0.705619124850904,0.710353092442855,0.71207769938913,0.733994864640117,0.733269933472481,0.66266200695837
0.70697961561805,0.704341092343332,1.0113,0.788720745886018,0.662290543017704,0.64676876799389,0.614770750553817,0.618883330541718,0.623585600277153,0.673438929712789,0.681912049649966,0.760664931277153,1.04599,0.699913710110865,0.63675042743268,0.636710919258895,0.627319993054,0.689518378101878,0.700145048649747,0.802776685398652,0.920064401777658,0.89315256485711,0.869583999305195,0.915643980316398,1.03276003305916,1.00505276039881,1.00245979988316,1.00288827061786,1.08470850127857,1.08747696223296,1.25089,1.13984722796595,1.14028580856382,0.968629665129559,0.851702000022544,0.871156811375666,0.875547581773393,0.970854279558887,1.14689,1.06017912164916,1.0590366530413,1.05350693169034,0.999184027426258,0.99039208578105,0.931161000025071,1.0389993913421,1.05569004380653,1.08904381919687,1.25138,1.11420425329304,1.05136608770725,1.04230875487647,1.03031988735072,1.09571324536593,1.11121002107776,1.17040862020492,1.41460031237361,1.42284510517798,1.50973,1.31001141841285,1.24386004177405,1.23052372690909,1.19535995429915,1.26055980232772,1.35440004121115,1.41337572260244,1.5430799999701,1.50031625557546,1.5041042358861,1.50007262918373,1.45527992143805,1.39655842167713,1.3696700041481,1.30537773790052,1.30766525199714,1.342069435704,1.4405599999654,1.40055049272062,1.40096502828078,1.39725127640846,1.35415879902941,1.31099182922646,1.30664343276701,1.22175413906134,1.19787536041192,1.19952827548107,1.17514997797301,0.756283497252367,0.603069939504585,0.617053571889005,0.590950000028571,0.654269094915949,0.658346163479256,0.700739240426868,0.728192716627422,0.727147305933072,0.725429312379617,0.681357096240361,0.686144363420301,0.681286718329706,0.687377805229711,0.673271795111238,0.640089932581114,0.668457558796199,0.684951118060059,0.661286548889412,0.647737314195536,0.662334998759014,0.663981754433641,0.69390400953354,0.750513999943668,0.690566479406569,0.687720846132286,0.688690383047781,0.690096706228998,0.730498569166877,0.735648812280019,0.776104644257772,1.09404,0.758121474289649,0.700142000024686,0.772633870342798,0.870766004249796,0.881266629930237,1.12883489624129,1.124558459914,1.12323266408265,0.942333122821964,0.794159999999999,0.873948786585052,0.910014999998184,0.72967486884596,0.638082997133253,0.662510868678145,0.675852806108022,0.745490977155446,0.812277999979911,0.782239826488606,0.67354400000222,0.665224692265903,0.598206166499538,0.597272007310067,0.58746097704507,0.667376850919419,0.694334051347473,0.666436924846315,0.577984304668885,0.577061047423629,0.57718554288556,0.624036973925342,0.671561949527055,0.673251374288595,0.67448384790557,0.657463168922608,0.629615846226455,0.633305501456667,0.608541521573738,0.623282957697974,0.626371885889169,0.655442449775168,0.652679752209682,0.682144364311929,0.916828000000001,0.752874947572892,0.922044000000001,0.704906368708556,0.703317348525579,0.705264964047959,0.708428283999452,0.709443296507157,0.743562065668564,0.732029444547718,0.654979632584343
0.667898360300172,0.6952050723303,0.782792986304539,0.782807022883936,0.714224324120275,0.645432179007241,0.61518518390096,0.615523275999629,0.647469828530172,0.668393829869899,0.731444722538,0.790481418661063,0.820724250591589,0.691544872323858,0.680921323393938,0.681962183780545,0.682582448430569,0.688000724338142,0.731140105115795,0.789175491321898,0.82160350408662,0.841323047953537,0.859518758779119,0.885676974984422,0.912916215838143,0.941156999420039,0.970742229900391,1.0019250785466,1.09221441241977,1.09166882218286,1.10106338197921,1.10692851490107,1.11129189869954,0.945573384114363,0.865974354964213,0.867246518185277,0.933904868982579,0.975204920954246,1.06421590655131,1.06235479120149,1.06017799572155,1.0558163744924,1.00377604051192,1.01014506041094,1.0283957373562,1.04131519103995,1.06620470832503,1.08661615132227,1.08726499515006,1.07849320007473,1.05485084511455,1.03596008483876,1.03401808433201,1.07835157615079,1.09253759409813,1.14574073492968,1.27024566563665,1.29951665788608,1.32858459619393,1.2838850659919,1.23085547416622,1.22369118273087,1.21150131368463,1.25885135152589,1.34102639462498,1.41329159120029,1.49798835583674,1.49944605779746,1.50092505034755,1.50008861644852,1.47858047248361,1.39898547291096,1.38621959175511,1.30695287746409,1.30596685326902,1.33466236758407,1.37745743534008,1.38365646459408,1.40138323129274,1.4005553896777,1.37046769668341,1.31284990891396,1.26496160801524,1.22046111284013,1.21827085045918,1.20143809407587,1.16241760233509,0.75803370201399,0.613930580566273,0.626219119766837,0.634350959765879,0.651393671604641,0.673438824669502,0.703951577056659,0.727994581902436,0.727734600053591,0.721174919618273,0.674382252490115,0.673661207867924,0.67341815521739,0.671480155980978,0.670298110566255,0.667647551912245,0.666872968911334,0.665175736768452,0.660589082472579,0.6575951408001,0.660701360864858,0.672945111425644,0.692191580803774,0.717537473126486,0.68761677429247,0.687854162685257,0.688045220563212,0.688362648219586,0.723301157849519,0.764832414457742,0.783986705015049,0.823557066523119,0.747765960011268,0.74009249189768,0.7607462749352,0.832723459649022,0.86003823419601,0.925819995945872,0.93050215220082,0.934548909439383,0.93787796684962,0.882571871026619,0.853276442620035,0.747568574728387,0.715814064392646,0.661347286555921,0.662996051941019,0.677499448481471,0.744684865563085,0.7752703095119,0.774472630175348,0.713113309137232,0.650249581417726,0.597274978904625,0.596665926071897,0.631928380924595,0.659377700682386,0.658870236412948,0.65926100378861,0.627313677042307,0.576045431363707,0.576750220640181,0.615140525430778,0.648993551585806,0.652414604755506,0.658664332943137,0.652490665262439,0.638559446916237,0.636578481202665,0.62631783131,0.627159910868599,0.645605104169041,0.658322181211113,0.665266944052828,0.678064043612132,0.727519319936382,0.728507939919423,0.709062034373813,0.705661147043401,0.705170577933021,0.70599225170336,0.707084302450074,0.708479991112478,0.72991611133794,0.730583467685275,0.685349804006075
0.614616907656858,0.691041714430755,0.782752395132496,0.782786932291254,1.11603,0.640731441817182,0.616650491495284,0.61403315468878,0.663351298453986,0.665449037806027,0.801043000000634,0.831493251194496,1.07382,0.683521696694334,0.678776221999513,0.681723433244359,0.681502923211934,0.686496040052348,0.765838999993037,0.776936595571222,0.805935161917988,0.811304232447202,0.813950377079819,0.814975365462141,0.817206372434468,0.888658086553579,0.909127000022247,0.995564583789898,1.09845113919211,1.09582545718787,1.09517053003024,1.10320278733541,1.1164339130792,0.92238208482192,0.816310000001367,0.865417224344126,0.960686966345961,0.979454781705249,1.06693079054674,1.06595912545531,1.06708619060757,1.05719187215566,0.99673989619566,1.01809816753399,1.0430330904349,1.04256156619859,1.0778576227624,1.08258436712106,1.08730195043251,1.07349220155156,1.0579132254741,1.03283846145805,1.00940994712594,1.06264785599784,1.07861999998479,1.12179480451002,1.2430900000087,1.27024565628307,1.44691,1.26060966300498,1.19635442616563,1.19645193224036,1.15677000001548,1.25823508824723,1.32958999426428,1.41259594576895,1.49603341846339,1.49799806603861,1.52329005614557,1.51295974262597,1.51782002416378,1.40177620958291,1.4068738846115,1.31148712998717,1.28425000003463,1.32960648190918,1.36771000414091,1.37804597856913,1.41673004375422,1.40239953832428,1.43709999999122,1.31417102982838,1.1923300000273,1.21972346243917,1.23992021431282,1.20329526685841,1.13990998402468,0.758882792537463,0.600910975391014,0.634823195656218,0.645372432372377,0.649998470547069,0.683460982204486,0.707622497275429,0.765807065522964,0.729193786086669,0.707564458216772,0.66897364419074,0.637101957995754,0.657885402869544,0.653946458886617,0.665876238029112,0.66651925915547,0.665289660727135,0.663401243027112,0.648555867833884,0.626470574213355,0.650117067943707,0.6881120184855,0.690199772659412,0.965427000000001,0.684322292397404,0.632631000031711,0.686195326872421,0.686915953763463,0.714469018274708,0.802228458866824,0.792290006623528,1.11149,0.739726035180622,0.629168000000167,0.737011954947747,0.813208000019023,0.834847347976524,0.916109644749053,0.860792483161106,0.754324999999999,0.939955686894084,1.18444,0.834911919572502,0.689738367519615,0.684674962443859,0.64628496968168,0.664415364649899,0.692226992147423,0.742603500353211,0.775947372086282,0.770813774865074,0.766983165810432,0.635762319500766,0.54025700001257,0.589226282973254,0.65973278212988,0.658963371993252,0.657266524374011,0.658640420295491,0.856341000000001,0.566919950429696,0.540889998026709,0.606745341017033,0.642211365736643,0.649161217969122,0.670465744622263,0.644452341591492,0.640733795686966,0.636846931782677,0.585685000042016,0.628753748154824,0.664106736101058,0.661246821682076,0.676602054558631,0.675893145952634,0.725605895342308,0.728264829485447,0.630332893906819,0.629284972423156,0.582634000025138,0.626392274434476,0.631825237385243,0.687935634949069,0.729437614684862,0.729916624196432,0.779581000000001
0.633541680555364,0.689035181766874,0.751893108705032,0.756853505704745,0.798625029944968,0.638408390857819,0.613358936429602,0.611995572122104,0.662467256766013,0.66375240588692,0.831493251194496,0.862097721483761,0.8926873776326,0.68286985829879,0.681772748278649,0.682556761496978,0.683675155137925,0.68531399226601,0.725193429733984,0.769141214498589,0.806668575572305,0.809765362065337,0.812344627109416,0.81401244914698,0.815483955050891,0.858382324961045,0.935170808104509,0.983953369663468,1.09792111646364,1.09790703724387,1.09671548062208,1.09688633233803,0.929828529252288,0.899473222491096,0.865186669793501,0.864107780929509,0.97791811553388,0.983830344981445,1.06723073227401,1.06742905667357,1.06731737622499,1.0577709459878,1.034765759947,1.02389332147738,1.02885657940752,1.03373603102664,1.060301718608,1.06169850743535,1.06469511649172,1.06587315987214,1.06307138288187,1.03120401486716,1.03031875312689,1.04765143923656,1.06302658972123,1.09847791479489,1.1318604628148,1.23295222833199,1.2688818183795,1.2397647326685,1.19645179273328,1.19648906418324,1.20451096539149,1.24982799531053,1.31633997233127,1.41144188970842,1.4906644015654,1.49439294667518,1.49938497076894,1.49208719294442,1.48746045233951,1.40070372380668,1.40129775990395,1.3173203494212,1.31715130343853,1.31700971092253,1.3174543325452,1.31769955756335,1.31783490945619,1.31752029567535,1.31655548474688,1.31483424574672,1.25662727267022,1.22025637181517,1.22032255668218,1.20438355828398,1.16926941092383,0.75865170373448,0.660845168582769,0.64606511906144,0.644750863692854,0.649646302608976,0.692283548216488,0.711898765613779,0.746035328579129,0.732665187132532,0.72176856369194,0.665587820922964,0.662708982883428,0.661764384245041,0.662657030208828,0.664406607655397,0.654847943430901,0.650647035179234,0.645851049995942,0.64099163903001,0.635829818713926,0.645388992804838,0.656944897584995,0.672237059218364,0.696087720333917,0.681829000943457,0.681884961404921,0.684318933251998,0.685344356463865,0.705718796807424,0.764307953546808,0.753364857344996,0.747534582067303,0.730296349477981,0.690406530713734,0.712483750123076,0.741056391636137,0.770168146855053,0.800019465334181,0.831363797058079,0.860792483142489,0.941404571663021,0.95229890741301,0.822351678863574,0.746107204611387,0.679689409859305,0.669362860976783,0.6675466266842,0.708237064897695,0.739399356940169,0.757678338574619,0.755948196309519,0.653296228032462,0.622088612426874,0.578352870065847,0.586635170725158,0.599840935553947,0.603920512542799,0.613551254715854,0.603738770216492,0.594839114201098,0.563889186217861,0.562160074823411,0.598534190267467,0.612918153383841,0.624396863432737,0.626462929677842,0.628137867683311,0.637194825585425,0.63496886090783,0.631168014988845,0.628783778941271,0.647707332225281,0.649402610673875,0.676286192354955,0.67495155309409,0.72827681597367,0.729265413084269,0.680290828864665,0.628100589274988,0.60651930252591,0.62305372727961,0.626070306002148,0.682433077073623,0.693290989135179,0.69189331697458,0.661774578112754
0.656072117002803,0.688168662302766,0.73658296745228,0.748640856606617,1.06731,0.637373521433105,0.587419000031416,0.610366189960739,0.66040601458349,0.662001862558403,0.944352627368985,0.942578217787569,0.985635999983958,0.672315963168744,0.644214175519672,0.655837856894549,0.659185196785868,0.658370870708412,0.658621972163312,0.760335773220992,0.804456271414824,0.781200389632017,0.716688973049137,0.769370204969333,0.783777018066374,0.828511931627123,0.96499897404971,0.973065947195437,1.15596999999341,1.10221725053165,1.10711655070995,1.0952894309714,0.782845999999999,0.829268372673948,0.830926880082646,0.861940135392712,0.99356546533448,0.988475213945113,1.07767018186632,1.07305477705596,1.15727,1.06853043514753,1.10507999997559,1.00332751705255,0.968164599404729,1.01542483106,1.0599256849204,1.06057012579056,1.06728922918916,1.06654465691129,1.08880004179799,1.02942746505406,0.984886000052095,1.01091530727688,1.01433417787568,1.07089248454449,1.07795153678741,1.20704308068206,1.47854,1.22339572351712,1.15852995467265,1.19040801094043,1.2155196251565,1.24034634756425,1.29995996581375,1.40988962585491,1.48140814555818,1.49042035304486,1.50878143042471,1.48736714947224,1.47491004951141,1.39944912242571,1.39938372693071,1.32361690233814,1.3297970431399,1.30555341202172,1.28931692065864,1.2922629349979,1.19864,1.27236005611177,1.23232000003408,1.31294324175775,1.31026143143729,1.22157333631046,1.20298641455584,1.20421234821061,1.22266004254794,0.757413532227296,0.672818587705677,0.64758472628118,0.642897595713263,0.649605250369139,0.703881012332807,0.716799925103541,0.803764999959949,0.773623947102618,0.801661999976122,0.664364652652108,0.664217852977116,0.665667520706518,0.669272842514953,0.664261733528466,0.635402318205126,0.634928259291477,0.633205348153449,0.629086048888113,0.562413000021503,0.603518542339746,0.609753497480952,0.659461530984938,0.715355061019958,0.680534550878141,0.680505455848959,0.662003487514861,0.638093615473858,0.697271276054922,0.77862186576145,0.745782728235244,0.736900835261959,0.717854600143262,0.652907385569973,0.652745028410415,0.65062742419542,0.71613007500162,0.731597023187034,0.804325396353505,1.01500999999717,0.984078178183659,0.981556064083376,0.812088809264236,0.802508968315885,0.674959264913764,0.672012372798616,0.669155156942022,0.731323187200983,0.735501853166346,0.759538261596987,0.754355751576739,0.593811055098814,0.589078850478489,0.551336982895299,0.586041023124626,0.597067093779074,0.598884995256059,0.628584469625392,0.597015360736434,0.548337338087525,0.551671460916812,0.542974228468257,0.58266084025502,0.586678447426873,0.612956982830845,0.621608758069021,0.622632731420082,0.830171000000001,0.64786226865184,0.655754913286371,0.627271827401126,0.624837407037701,0.645362493385129,0.678695173242753,0.674801303692735,0.745313809866942,0.740719014740571,0.891587000000001,0.626675821164717,0.574691000031996,0.614693902481873,0.616871519857316,0.676875748983322,0.696221674834627,0.689546064036294,0.628210191706314
0.664712077898553,0.685579842535616,0.711928208856975,0.695705918120275,0.671277392451491,0.630289562245618,0.610739348600814,0.610155201016775,0.643423902960014,0.655967968442155,0.943828045952759,0.942579251440542,0.956802591000585,0.6664459070648,0.648795234071089,0.652914819204441,0.65538235370835,0.657133611912263,0.668947860149197,0.751307138532596,0.777576596548766,0.764623548073222,0.744942220868357,0.759597954787266,0.770312756132679,0.798974970141597,0.829417461048733,0.912748024728215,1.08797110140385,1.09423186067141,1.09481624275724,1.09456345794851,0.915665682781874,0.829533858921029,0.829265472281915,0.861253919723845,0.952104258432923,0.953641334250309,0.95524633619719,0.957924071570736,0.961004979164774,0.968458385175581,0.971363012121206,0.969828864165423,0.968892485036052,0.986018382325817,0.986871884828495,0.98842060756625,0.989464792718244,0.990507947328318,0.99253078771563,0.995708504862881,1.00114380883015,1.00753953952568,1.01091409676528,1.06735008018532,1.09068681972586,1.18568298821302,1.23638574741139,1.20594520352274,1.17460399526312,1.1852011724719,1.1954176858603,1.23127804841267,1.34070373322279,1.40788684013131,1.45689698204245,1.46403804098037,1.4668585113372,1.45016764961291,1.4356599346533,1.39967438115389,1.39891371250781,1.32130355297555,1.30396733430561,1.30006868050498,1.29226534805381,1.29474471323783,1.30112059607785,1.30623782662863,1.309717304648,1.31276345162146,1.312054193159,1.22311847194472,1.21034385291965,1.17660895577171,1.12117975732091,0.755548092241221,0.661763808529145,0.649407736923641,0.650222350663356,0.64956171478965,0.718650574068361,0.722060683978143,0.770330764874527,0.757263469422391,0.733173229931814,0.664953673164303,0.665468779637656,0.666531113326208,0.668173982982267,0.66346642831685,0.64739715811752,0.634915962249949,0.634550684148166,0.625370172626956,0.596090407372558,0.598003419194305,0.630693510179645,0.635166534112784,0.635972798243869,0.638356837945715,0.6419334191432,0.640722635820201,0.639438133107217,0.687402143973487,0.733149064126957,0.733575051101206,0.735029032270596,0.702955984930392,0.654001173546045,0.653712080664862,0.65285317204578,0.702017041519227,0.712506541941979,0.778263768177061,0.986235561881522,0.98468890589889,0.941571403294308,0.76978409079228,0.73164899629086,0.671770681105039,0.670556438445913,0.669096248377045,0.702365295802194,0.714160455359349,0.745519102344483,0.752409871789849,0.648029966890274,0.585489408112677,0.556347877796722,0.555405248442297,0.554268178447572,0.551667766942,0.549474793495343,0.549012953592129,0.550440930143671,0.553949884697856,0.556835252524389,0.579420393165626,0.602069353524347,0.608231683930563,0.614187285203523,0.618368184919732,0.687525967146449,0.643082180622527,0.639294680601752,0.626434290181825,0.625667703281524,0.639803353620119,0.659208716315621,0.671887489724874,0.729184125758771,0.73217363857893,0.736319101753528,0.625287897085447,0.610509891250343,0.611471810905408,0.637564842464361,0.668376986335607,0.684333523633224,0.685928741257702,0.657401024228104
0.672667966278707,0.675691122883914,0.737448017452813,0.683330322085478,0.603654384275589,0.60203698345584,0.599538579875998,0.609680443939091,0.63651199391821,0.652975293513638,0.945828896574478,0.943315999590009,0.988125999987154,0.654765604935103,0.589373000035906,0.636349557046131,0.639243229343579,0.649099463165191,0.691548088719926,0.744642385732532,0.889028000000001,0.752711865398766,0.702975564948619,0.711502695189432,0.712101947564807,0.714627396906631,0.717973984745185,0.88457294082234,1.07752253684655,1.09327774543536,1.0959870212146,1.09475006496632,1.12398999999225,0.832212989727777,0.819983000019188,0.862513667671868,0.940497448199704,0.941785952400938,0.887654000011432,0.948582899969893,0.925557972519348,0.968210044097131,0.976625945051089,0.962716729986121,0.946560904581721,0.972501974257902,0.982771012417223,0.989444439072581,0.989919432157564,0.990295784701866,0.990661075794798,0.994618975560834,1.02651046846627,1.00397748894821,0.996929746393635,1.06380199356344,1.10252001620356,1.17479278735352,1.37217,1.18283329115665,1.12877996914481,1.15842927276444,1.17072986735598,1.22288789684269,1.40232463462307,1.40534427504891,1.4520689562642,1.46388004346755,1.47412202471117,1.44240001027334,1.40419469525684,1.40161580731843,1.43387006432942,1.30231276736336,1.14388000000777,1.18680395572333,1.15796000003219,1.25143849345636,1.52719,1.37825671037965,1.47256,1.34244941817787,1.36742999997099,1.22407213368947,1.21958535894809,1.16414969296701,1.07978000002583,0.753569993975818,0.608576000029584,0.65042569558606,0.652039644867067,0.649122445892814,0.73650005428516,0.725956861893339,0.888227000000001,0.745099625048129,0.708052951604162,0.665721745029059,0.665797400743035,0.666789856408896,0.722905999973342,0.661898594697748,0.661870733664655,0.635219193036062,0.635363982920978,0.619594385383231,0.583762905440793,0.595334406763511,0.65423603825329,0.636230247327809,0.586189000022572,0.637140475938336,0.646985672896266,0.635348804528981,0.629548569421809,0.675022853687424,0.733266550457659,0.73314670404964,0.933633000000001,0.690063486636939,0.625531366921445,0.633975061557101,0.63771601010212,0.68954023168325,0.698237040460143,0.753579042502507,0.985097924078942,0.981187103772,0.92215490878825,0.739440972072122,0.635132416984623,0.660709791181129,0.66352997752862,0.663520179296898,0.663241214821097,0.700115255240992,0.736292750720649,0.755029305616226,0.781983028575363,0.583750046094652,0.557364362868884,0.556118680946816,0.556361053408037,0.55283074981512,0.549213609406835,0.548338537686579,0.543709018064522,0.556147762575182,0.558672079090187,0.577211850324473,0.628950076291727,0.598655632095845,0.592149065679072,0.614888430756378,0.777851000000001,0.628195568140258,0.566148937478467,0.612136432176175,0.624368004407054,0.633836272127574,0.645156275666373,0.670888057094473,0.722167635252488,0.727593011128659,0.742336784000043,0.624347632627518,0.591013969644602,0.607410363113264,0.65262319178115,0.659056247814973,0.681764826405669,0.683952148876294,0.702990067822399
0.670465872604602,0.666080100728472,0.664504449130048,0.663241642863196,0.651244511095738,0.601513683743812,0.600449637939229,0.599784914649913,0.600251553422469,0.602388059490197,0.606331514011528,0.611685095190138,0.617506043186184,0.622868292923668,0.62769629686555,0.634179097995084,0.636340690229357,0.646771636874873,0.667793609937385,0.737086185158878,0.773250652240334,0.742411013748746,0.706736369862221,0.710423061287649,0.712715133903325,0.714305401252677,0.76249786736927,0.858847010078249,1.07831768403297,1.09209465547778,1.09133733646918,1.03201215556722,0.913341153751383,0.836416235365708,0.838226550300798,0.865206123925597,0.941770022554564,0.944095273104278,0.951737063435851,0.955715339124305,0.960128325321669,0.968798302980192,0.969637860697687,0.96162124847829,0.956803797425654,0.967298091447107,0.973157576251988,0.989903500244441,0.990074678049386,0.990208627023662,0.990303798140213,0.990330261718947,0.990765541255968,0.992049979592971,0.99417879985594,1.05610320152322,1.11916577241799,1.16956303647638,1.16883148504773,1.15171024100927,1.14364850510685,1.15216330588603,1.15879138759588,1.21480961043204,1.3772099374158,1.38132801368082,1.41370988960709,1.46267394476224,1.46090860385919,1.43529749179804,1.40787982660068,1.38022755897262,1.35245868115175,1.28278962563221,1.22467173376721,1.19075507070647,1.19163705013869,1.23464369696921,1.34936109193412,1.34949141627066,1.34985448646494,1.32546693847042,1.31419979238643,1.22421215961413,1.22314390503027,1.16520580620746,1.10343354517268,0.751800933588233,0.650765596229799,0.650588719941556,0.649455276473258,0.646865341538181,0.698101996170805,0.721786096084525,0.743066094810287,0.744360612472911,0.724813397874048,0.665627154766119,0.665481036847703,0.663824420961517,0.661979027422358,0.660197410627557,0.65708309482393,0.625597299673355,0.623050778272022,0.612531002650344,0.591632842120619,0.59393893598356,0.622070697949399,0.638641501093609,0.637663696847395,0.636065754408731,0.6337901278531,0.632091255547203,0.630589169144517,0.661027281402043,0.722109437490595,0.729896794528859,0.739428636030368,0.678447173232934,0.628188447824255,0.630996519213852,0.647045967825691,0.672946461191527,0.678956401228298,0.728742538160284,0.972938898513869,0.975922095021002,0.941808550653492,0.709102305791617,0.651230617850239,0.654360188808555,0.657067321746928,0.659390811178425,0.661428710008369,0.687530136952673,0.747855824746815,0.755747518153576,0.76748405415818,0.584134816823356,0.556314703428886,0.555352822613871,0.554206063599351,0.551669082248502,0.549707964863222,0.549951080025659,0.552016809620296,0.555281871284876,0.55707204179807,0.575365620038909,0.583390423276077,0.585215293134226,0.591933257901746,0.593659748174881,0.594425429862371,0.586937717935393,0.585402565219881,0.599326523629214,0.615782783273716,0.625484115540628,0.644461084823516,0.670917714223185,0.718633730826214,0.720485923284909,0.730825525251364,0.624145516592419,0.602456139008861,0.603371196403582,0.647989181189861,0.651129075688701,0.664218689386303,0.682965308101498,0.685510263812562
0.673208399851807,0.662373427644369,0.659726612196837,0.661690527274984,0.898446000000001,0.596979150557725,0.565883331965331,0.582716919343917,0.586351856907283,0.588453914099057,0.55975698978469,0.592734920168126,0.577506969757138,0.618796571590363,0.631952064902796,0.617624204550242,0.588520761511536,0.644668546653733,0.647062937288056,0.72961613362098,1.01258,0.732880378010753,0.633434000014311,0.690265329778532,0.698365151349874,0.70681462366277,0.786330999969114,0.835393983888325,1.07965028013126,1.09192851152624,1.09109746019794,1.03210133662484,0.851877401370141,0.839234627867945,0.840100796557398,0.868386005662801,0.956081609089469,0.949774740653823,0.983656519628016,0.981814422005923,1.06327,0.968587757223364,0.970298094164566,0.957058858489922,0.931378488094904,0.930987615838626,0.931963326791061,0.990207869297281,1.02980012267551,1.02419817543063,1.28879,0.990556562737998,0.934030000022746,0.980371777794282,0.989304256191646,1.04774828910314,1.1325399716123,1.1681201369303,1.16654593293847,1.14548169236368,1.12607827784212,1.14920786825164,1.15657980973829,1.20672022481141,1.36433994247309,1.37349097739876,1.39500976077355,1.46162994161103,1.45758088361029,1.42274516154687,1.41140265932981,1.35434683101064,1.32803000000967,1.2655470626429,1.24975999997803,1.19097445358064,1.19328489298616,1.21802844565723,1.34978525684657,1.34988650888906,1.35078690465627,1.31475911334807,1.3003699399122,1.22495357406904,1.22541250364454,1.16450168981647,1.12670609306825,0.750528258945369,0.651038099846546,0.65168249246249,0.582856000010017,0.642953687191693,0.662693147167072,0.718411710496552,0.740482957436327,0.744147608426802,0.771473999969657,0.662414682636566,0.56718899462009,0.583708304008296,0.574772119225516,0.633269792627788,0.654645910489366,0.620401462053981,0.607961233031915,0.604990813709222,0.591043988602213,0.594504624816775,0.596836765491324,0.641978154926282,0.722142999989546,0.634964538491413,0.632903413025318,0.623257705997645,0.586430948101492,0.648978847240403,0.707388952755449,0.721490035851454,0.760072024623689,0.667047272406734,0.587573988801205,0.626713725697295,0.661075992220972,0.665416671394123,0.670388861786921,0.701924170287717,0.969674769974178,0.972939129140098,0.988106999986089,0.678558003909512,0.647481502281172,0.63209472297051,0.589722426632554,0.586373848985574,0.55558700000528,0.675329390456902,0.825504999989614,0.773758492422925,0.831091999995811,0.586337312650008,0.537842986763173,0.54537992796787,0.537921974669768,0.566893845669147,0.646054002342058,0.615246389141691,0.792033000000001,0.556352026183892,0.519345000042601,0.573395585594764,0.579839667539536,0.583656923602397,0.628265105967134,0.594524754774035,0.594814885912035,0.586083904617883,0.55550104157089,0.564865900917049,0.545955981184097,0.61628226894902,0.643893074355537,0.66788310328078,0.706863232753302,0.713125503746665,0.810270000000001,0.624809476446982,0.603136061471796,0.601455573726236,0.642142309572735,0.643849184335108,0.647463530530437,0.680781902621154,0.720324051658803
0.64342210936567,0.644842536921534,0.651233598655198,0.64909664537728,0.624667677075797,0.592340802122876,0.569099141953283,0.579098732918196,0.58846666772153,0.589695585339407,0.569543253580669,0.596723321336916,0.597758629480164,0.598180790059013,0.597918321310829,0.598039151001766,0.59639500049752,0.640983475176442,0.647721206196037,0.722352983030494,0.752848744991162,0.724176260507267,0.669328410593971,0.68566289490451,0.702987459823605,0.704995119163077,0.750779692684037,0.813934234119788,0.953740644086839,1.09302582393444,1.09175994240267,1.03211311485328,0.846276906757688,0.840891695228623,0.840669790434702,0.870942201289932,0.943132907025546,0.943333627188012,0.982573170377996,0.979917447786196,0.971659624999981,0.96635096063865,0.962229608224323,0.950178446930292,0.930534911007142,0.929906226790057,0.964017009607096,0.990628047198256,1.01410511851477,1.01971495512578,1.02479068696069,0.991228698363497,0.969988074033434,0.975752773283461,1.00057824024546,1.03843321839393,1.14432472328692,1.16767231780366,1.16692056929954,1.14149287180898,1.13870818187186,1.1461551877541,1.14861963181707,1.19857236487114,1.29918576691285,1.3691427652673,1.38604169999771,1.46327331101875,1.46093664985961,1.41386391151689,1.40423357589498,1.32685740963037,1.29704332576399,1.2457939504441,1.21452474608096,1.19007606007261,1.19095707085319,1.21637471907718,1.2230026947248,1.27299170219951,1.28260214117004,1.28014393675712,1.17227073931544,1.17053245106397,1.16696522301286,1.16122272528074,1.14130817112642,0.757352665431628,0.659512060819354,0.653357120054892,0.634832815549398,0.640719530806055,0.688097763251005,0.714598015612963,0.74387504390489,0.746367723346888,0.684793173573486,0.652848689047932,0.602261199766625,0.604209049637873,0.605105178433411,0.60487712197648,0.605286293026562,0.605842969734212,0.609349838507805,0.601951899225584,0.59186291563375,0.593271256851213,0.62045603628695,0.64439045188202,0.670742359351467,0.623592572265047,0.62216173479268,0.620504226417497,0.605278816520724,0.631960241477436,0.657924178582433,0.683001876819504,0.706560493224876,0.654828521307544,0.609399531189647,0.622961838693905,0.639906002773103,0.649707761980577,0.6531634823117,0.656007830732158,0.664078928841539,0.655039579847493,0.649049804365432,0.642384044047571,0.633486489052806,0.617753502708474,0.586377337593821,0.583913573813142,0.624220548090009,0.662751665515511,0.701840459333393,0.731638059515943,0.760012429518355,0.589621527042675,0.581646637397099,0.564342193916037,0.558088824846194,0.571619427063774,0.602018029558194,0.602933093422859,0.580637799005112,0.55854828802282,0.555951177441146,0.57092602447019,0.571110381866142,0.583304868916135,0.594084521717119,0.591644556420892,0.589519575045295,0.586267259533521,0.584204347736813,0.584290872661487,0.583268255366876,0.604120407289626,0.624303524222591,0.665380673965167,0.697777208963224,0.70438401835885,0.741763195670675,0.626286969613448,0.600470785604566,0.599836547043016,0.629880253075277,0.633890490198931,0.65710878825807,0.677432149990957,0.69564147572749
0.640668751618941,0.641330846028576,0.770412000000001,0.643090319419495,0.539950116381289,0.541492037773067,0.530736984917467,0.575515266450759,0.594209389214033,0.592027324616167,0.552196000032017,0.652528260258486,1.00158,0.599575988222439,0.586284191129045,0.582478121740255,0.579616461490745,0.636790059153452,0.648491614045115,0.715649219540085,0.919938000000001,0.719414623498927,0.649901975966334,0.681723751570066,0.705027121361609,0.701759878579067,0.696679866194264,0.7941556565675,0.907674,1.09526964817055,1.10852999998106,1.03202538639183,0.790053886275202,0.805045566521049,0.813344420768215,0.868566536935214,0.922202779540236,0.937319517695437,0.984105055532157,0.975403437390302,0.960626226867778,0.963607875582849,0.953264387351942,0.944264979904323,0.879811000020594,0.925056886118294,0.992254538751847,0.991318062347872,1.00575846503584,1.01414552709717,1.02868290620109,0.987058832865172,0.939715949713196,0.972361593980672,1.01573003177844,1.02912413561276,1.2181799999719,1.16755283743198,1.17782003148553,1.13420087024304,1.08225997443869,1.12598867809129,1.13316130473363,1.19042772191417,1.25373000000336,1.36760349060626,1.37750006882525,1.46609072247066,1.52636,1.40503551317035,1.38803851366611,1.29918858412651,1.26938000000269,1.23196941292854,1.14052589934743,1.13554564102345,1.10658086661468,1.09973327468986,1.07820884004317,1.26893841028303,1.3457,1.27577482771588,0.746269999999999,0.809135213666726,0.732697999999999,1.15315944013836,1.14308335223271,0.767684790760421,0.672746034773825,0.654578147326252,0.59177800002593,0.639872887143788,0.708995106746805,0.711653103589363,0.765752999954113,0.749819563352955,0.639842993362412,0.633522942796695,0.599789695447655,0.603021950028444,0.60604154276273,0.603711774612293,0.599291527094621,0.602980370545888,0.61360602628083,0.59908488925233,0.591739131111619,0.593336720097054,0.645364059597283,0.64542921096429,0.721067999988353,0.621876312510293,0.619302217045063,0.617601606478029,0.562787000046665,0.620136182853131,0.621813811244272,0.657393124040406,0.759836999991869,0.641542502241968,0.596339964140515,0.593597008494645,0.587619668310638,0.626380127798737,0.6505835401872,0.652102774671521,0.678299691657778,0.65242875847424,0.58612997664586,0.594603794520995,0.584483556099133,0.58066736614102,0.579647190550569,0.57983215935905,0.644913001946738,0.650108704942303,0.670542999990534,0.701840459344249,0.818582999996877,0.593163576459272,0.597386140143771,0.567838943680098,0.546360987985482,0.572321914534509,0.60045184177749,0.602794172818515,0.568286829958513,0.562505815185344,0.537846912031534,0.567552922765895,0.564681789990227,0.576727643679184,0.602199878531541,0.583297422675834,0.580307893663566,0.583167693402482,0.584778309824896,0.582212782952747,0.582102970237639,0.584091857651308,0.59080157934698,0.663345458810815,0.684849551472454,0.69702110798724,0.794954999989106,0.628318604841809,0.598195803065016,0.599181719303088,0.600330573711641,0.62629002249724,0.668530005142168,0.673215801386466,0.759470999985622
