0.820480445838007,0.83924216570962,0.826686915216985,0.814243200655936,0.804117593090192,0.791792777157636,0.813261573369198,0.860113588728149,0.926109223206349,1.21041671178702,1.22899270965074,1.23497032991426,1.23871596209488,1.23605172558007,1.20399524384592,1.15311134805923,1.10028125393459,1.04819427018649,1.02800242440361,1.02916874533738,1.04493887645043,1.06729028867785,1.06692369871477,1.06660363990344,1.05272561211246,1.04460940790763,1.05861751067576,1.07502906648232,1.07494707871249,1.10819052781403,1.14022388903661,1.03593238878862,1.02725216574988,1.01556965627879,0.993776790387842,1.06910795361229,1.07549990599461,1.1127573388651,1.15025320474827,1.17896089938555,1.32321889637272,1.29053811671098,1.27335211600591,1.22563045530276,1.19163961489693,1.19127177218941,1.33299707115454,1.33641874519365,1.34132307232142,1.34449138369897,1.34770994606623,1.3491252015512,1.3353729364947,1.33737391147419,1.33982965607735,1.40210553496491,1.47856141840301,1.48537702006379,1.48849000639427,1.48817257658906,1.48653446010165,1.47341408733368,1.40725648995739,1.40576875615632,1.40451438263092,1.40355514311534,1.40214763387535,1.39974720797658,1.39925909862837,1.39846684344716,1.40287188504257,1.38540087608226,1.2903625869687,1.25216318020053,1.23225005498065,1.22455371158468,1.22282985007963,0.804538226326779,0.758800138676036,0.748421528809796,0.712783983035571,0.72337370442478,0.802045920323477,0.80178277867772,0.802497420116275,0.756029522303097,0.707724610147129,0.688598492001151,0.687574262994337,0.685046349356045,0.689527262102025,0.69245586913696,0.694672805653159,0.698357660949873,0.697620784108863,0.696524855948435,0.842673839460815,0.844711087150993,0.847484518057514,0.848563622137765,0.841702258150819,0.80583943065208,0.77543946925573,0.776191825775061,0.776838425878076,0.82217071895483,0.847194939436501,0.872975249804223,0.886325195725278,0.900625570976139,0.912069997741187,0.952086301580206,1.21554304361906,1.2150833626329,1.21624034185499,1.21645922199713,1.21633261661716,1.20434239087713,1.184677097872,1.17411734190397,1.15840622591602,1.16892455684691,0.787093603092873,0.769513672042772,0.767244000850494,0.784371460999378,0.789706867420745,0.793461045271189,0.800613575904891,0.812108716014303,0.680702211707045,0.677739111991153,0.691098274016335,0.722809185008446,0.757193939902819,0.773034023680514,0.730620599484547,0.650326027945006,0.655663620351278,0.659281644331976,0.676645832711459,0.690737406747597,0.690043362319146,0.68967703204412,0.68870632364074,0.67642622570783,0.676568200266619,0.691906011305202,0.705346732611322,0.706940863341422,0.843307636079,0.851434608959956,0.849330277553842,0.774203687323585,0.684321137469025,0.661120198181459,0.663150062157137,0.671574833499376,0.674210670089124,0.675496205071117,0.683431604905238,0.690169456814832,0.695862270668739,0.705866445080679,0.708638854003796,0.710309905417671,0.760012027946631,0.797510147139262,0.796890680163514,0.826197370738416,0.885341639064838,0.883291325025992
0.819730533969809,0.868109138697233,0.771635197007122,0.765752052790783,0.75942386593033,0.753598019291034,0.789900007877898,0.815109769299737,0.898877948274808,1.19143999997152,1.22149295304122,1.23092445018416,1.29464000003746,1.24456064828008,1.27770000005905,1.17052000000283,1.1066591844808,1.02896980495611,1.02899908824132,1.02440101538212,1.05940541785609,1.09025238153109,1.11979005564263,1.07176672115353,1.0510462672823,1.02242945697843,1.10286005781685,1.07306398545943,1.07399614392145,1.13274000005512,1.26488999999972,1.04643018442642,0.957552565803706,0.971835404171197,0.973497952781892,1.0694677700314,1.05076176096684,1.09274450171231,1.1265461928715,1.12558518472565,1.42779999999972,1.28114097621845,1.30668042235092,1.20103274565519,1.14150996422958,1.17363963702384,1.29956063369249,1.56730608999663,1.56884593137625,1.57055431168932,1.56922901224593,1.45132701802682,1.33504284572299,1.3384362941246,1.34162492842572,1.38880799570675,1.46711975906817,1.49881279358309,1.49330933002614,1.50704728947979,1.48095734691018,1.47720152977472,1.40855241008537,1.39664985337943,1.34767955085549,1.40271870771103,1.40426424076543,1.31533999998653,1.38131140516978,1.36816357688975,1.40630830732628,1.37155970464101,1.23514056352232,1.23437177977769,1.23349763512159,1.22063789827356,1.22039796473822,0.749026126234761,0.740176622683024,0.721795209881509,0.676886800633621,0.70720284273378,0.801205877423834,0.801652018602758,0.804294307673843,0.776959098216332,0.679321177443561,0.633828354375863,0.635389978385437,0.622763762971767,0.669381207908634,0.667290707171855,0.700114351481339,0.698847314732201,0.697251671376425,0.697382903803505,0.869946182047464,0.845758641765339,0.847440776987204,0.850741444109384,0.8388104037611,0.698890999937901,0.737794270031092,0.740600742167571,0.732632406550522,0.802122005513562,0.81526278507842,0.862805496976936,0.852266257774172,0.842705986142254,0.856597728380413,0.920105152442103,1.32012000001162,1.26407489977054,1.33074999999972,1.21617209435018,1.21822560665381,1.19564261504874,1.17957823748057,1.14737835120642,1.14135902653012,1.1813788114413,0.740848411918179,0.733921923309951,0.684442864527044,0.711342226711234,0.711586673677974,0.861676236726671,0.841795980023958,0.884329000047288,0.68374522668926,0.628302941353186,0.651965999989668,0.718009407861385,0.78548000001018,0.805145000045753,0.893593999999722,0.605829999938253,0.64150501315311,0.648775047727417,0.657150307177179,0.701388956581705,0.675056271807808,0.689138905049324,0.686625177476829,0.676229968888143,0.665875085256294,0.701913794994889,0.701423436963229,0.70018787589674,0.855271168371572,0.900683833332906,0.902079166666982,0.773870349326219,0.690722763195698,0.657997767278772,0.621948668997102,0.651861267391068,0.652713703824304,0.612431307329317,0.607860732229842,0.608822001345841,0.583793959069676,0.708708459322006,0.724196133359334,0.694236600800685,0.732403421973314,0.798090176826272,0.796196361131135,0.805012716251735,1.02124000000882,0.980174999990765
0.839158529079671,0.847517013505353,0.781542398874386,0.75927192788787,0.758415971515341,0.756396483565008,0.775757637155513,0.830233066656408,0.872284965263516,0.902638121192786,1.21712993682674,1.21824683490362,1.21862994912585,1.21753857721179,1.21664238462282,1.1898641659561,1.090025214639,1.03290125309276,1.03764792918089,1.04529411511957,1.05864849639997,1.09819837062097,1.10466047470754,1.07772067308417,1.05804474011731,1.05395784373024,1.06027232330189,1.06430800084382,1.06827663966742,1.09554684684017,1.12643517828627,1.08393594936298,0.966882124427941,0.969569197772104,0.971836606254453,1.03041619497423,1.07417881224954,1.09350745168233,1.1274600140683,1.16706596877568,1.24076378461495,1.21918391441524,1.19778054037183,1.18050722377234,1.15352703615683,1.16207126092969,1.29930095674413,1.567910871217,1.56913202489773,1.57002524436063,1.56805461435214,1.45137636385387,1.34631459472215,1.33943471382248,1.34046946092186,1.39205969523305,1.44845752346126,1.48183096105642,1.482112077491,1.48252526486618,1.47583045980203,1.43662672538743,1.39609859701187,1.38228491480349,1.37170875248388,1.3834141172415,1.38720251300794,1.39102715218865,1.39409582573147,1.39727498462977,1.40141329876016,1.3560841300008,1.23484538098094,1.233790860097,1.23265522315973,1.19973423774319,1.18650138887428,0.782539545204183,0.729658430738542,0.709200034710477,0.699244208890508,0.719414213043563,0.799585851123986,0.800154517160241,0.801711573085111,0.741732883210467,0.663056972691802,0.635412256740473,0.637415802478112,0.646724120748326,0.675107925008294,0.683042998791579,0.699895838251135,0.69893374575592,0.697505508988798,0.696952996537804,0.757366534285563,0.766809226239356,0.774880433407463,0.785969085248523,0.767293921897421,0.730027750425697,0.741014225576578,0.743994145534471,0.747252577113664,0.786336725333429,0.832480164024669,0.845479832251035,0.844181119868129,0.843322446470467,0.853383338263417,0.908242612423583,0.958399808760753,1.01167548293467,1.21207270783508,1.20742584868665,1.20234039143927,1.1994374767094,1.17320324808365,1.15155670600816,1.14699195921413,0.792430545864729,0.743883732631736,0.727931619460746,0.704770807321243,0.72055722755683,0.757787335530193,0.821308375294603,0.829314155996166,0.841860203202624,0.668417933764706,0.653983692679554,0.683608746034546,0.712897263932029,0.71664225729108,0.727926081924494,0.74501095814454,0.636308112976347,0.63976442611126,0.641627766987112,0.665491639825304,0.69156391805126,0.691248688335868,0.689843063408427,0.688244138296916,0.68732995872729,0.686469283274221,0.690396360619198,0.694729474933162,0.703110259993142,0.768965289905677,0.795572316143442,0.785899267904134,0.773411992721543,0.669794905102179,0.65599671792866,0.639729488724924,0.650380842783397,0.653795906138195,0.667962596388406,0.677570477247868,0.687353154986695,0.6964535049529,0.711479767567435,0.713011976085594,0.702378295771879,0.730483233289477,0.792469562458691,0.793954267832546,0.798200259138377,0.642859801142338,0.611854334262612
0.843515731659856,0.874521000051864,0.788999037938037,0.756493562371651,0.731991140306418,0.69099216691217,0.69010622191409,0.845153547477944,0.844778388436036,0.84467968514548,1.21113937171034,1.21866236899726,1.22114299398856,1.21796977567556,1.21618059207153,1.22798093333237,1.07262978791754,1.01515975996087,1.04340042275641,1.05491605199168,1.05840365953189,1.23173499999979,1.23315499999979,1.08517253901972,1.06688933437593,1.0439303855223,0.95246276207112,0.952433672370407,1.03935448754422,1.04722003682514,1.25686000002623,1.22574999997336,0.963363533872,0.966851928908097,0.953597799667805,0.997797333623829,1.09116014556503,1.0942165291019,1.12851889655714,1.19859959913993,1.29102000002349,1.17464000001389,1.10198416606084,1.10540444126109,1.10855958131183,1.14721999900082,1.29910463369249,1.57886054704128,1.57053925551718,1.57286705054522,1.56503629266347,1.45135901773191,1.35778748025725,1.33072599338872,1.30507991419233,1.39510325175029,1.4319299685194,1.48202747613569,1.48269521075771,1.48374104406592,1.46007974743917,1.40410001749958,1.38793989939623,1.36928483304051,1.30356999994654,1.37950722671267,1.34356996800428,1.44014034639268,1.42216826712484,1.48459999999976,1.41353472983915,1.33710502258897,1.21742066176825,1.23237515401301,1.22989491442939,1.14928945927534,1.17478041403711,0.812085000034892,0.719285804295565,0.676141446943547,0.674681075013838,0.73585823019876,0.798066100883533,0.798665729310185,0.833835000030397,0.717920999984897,0.651838859477697,0.580001999993544,0.641442053757122,0.656999738536339,0.680915548695597,0.700833644286356,0.700819907974905,0.700100890483441,0.664009697142417,0.690862112838433,0.731648941325238,0.760963999560682,0.773816934659513,0.804780978917126,0.711562814568372,0.711849177053717,0.783630018829684,0.747826854051772,0.753359617348126,0.759870751342816,0.900770000009352,0.846947838867381,0.829383958991707,0.798068228098252,0.849715773417731,0.896002844246922,0.926771,0.982643690483732,1.21805086517412,1.19893113630618,1.20051071633092,1.21525631752127,1.16635563066213,1.15852923284095,1.16026642722005,0.707857999944994,0.747025606009341,0.723133351242709,0.666681999945146,0.726363775249405,0.791643764975963,0.808972354472118,0.824610323220693,0.971229999999722,0.00425235000273291,0.625317999977975,0.71493281918259,0.70951444774967,0.691279370259964,0.707995553036796,0.767821332527361,0.63173332535544,0.630401477453984,0.621881476885291,0.672879825557892,0.692387549622102,0.692391127672852,0.700789398563932,0.735448475425978,0.72923194848289,0.68567116817875,0.662688840362932,0.686719691384598,0.705623469402818,0.740693055192573,0.811846069340791,0.773249822374829,0.773182620679559,0.658828888699765,0.654357878507062,0.611368696864057,0.64908812278968,0.655055129600059,0.730970000032912,0.807880999999861,0.877213999999722,0.717915794783342,0.715081177066073,0.71459720001367,0.6700079897419,0.728860472417212,0.776083229390495,0.792698582708698,0.819108216989824,0.565907000020617,0.539272560827807
0.756896550868559,0.781374772849383,0.786484361108185,0.751005445571184,0.715630408662289,0.697125866433664,0.701323996702559,0.769289020002495,0.825072189946681,0.843992940900372,1.21459888501501,1.2173918173669,1.218499651402,1.21389630345394,1.21191969702281,1.14232473479386,1.10621411868631,1.03185083062094,1.04941536680854,1.05726628598851,1.07309792511908,1.13875439976726,1.16787732085155,1.09419893091884,1.08648106456258,1.04681939157581,0.965666135208915,0.959942340297701,1.02838567406,1.06355590253933,1.07072765558926,1.06158537168874,0.996768931870357,0.985789343280261,0.986036152914761,0.988803113163403,1.06329744499059,1.11497996590603,1.13009573286711,1.18944693488667,1.21265877321437,1.15041584881724,1.10214875450954,1.10254854561171,1.12211093666934,1.19389890441202,1.33773362046794,1.496739410687,1.52402714516387,1.52383610464496,1.52213628943144,1.47541901230864,1.34289981115001,1.32732974615239,1.31856646106043,1.35991004677253,1.41365463950967,1.4832611460965,1.48325075309753,1.4832002928922,1.47280364585167,1.38827687068489,1.36661460659915,1.3522830565909,1.33373520106416,1.38351553194522,1.39431795227828,1.39521411615721,1.39696227054953,1.40161712975267,1.4069046051695,1.33655628077585,1.27356508275319,1.26003961981847,1.24630133422577,1.17295616040665,1.15191809802324,0.732751576054015,0.700917891434903,0.676309138411077,0.675822444261647,0.723945410649732,0.740520837942667,0.725704128551065,0.705309394763746,0.678703093021806,0.64920229368862,0.646666361287006,0.644169971105428,0.651741166780334,0.667500781420043,0.696809869034158,0.700730710321765,0.701062884469753,0.70232916277021,0.702419517787799,0.723006218093106,0.76605766275175,0.767970182820888,0.768752432010264,0.733726377580324,0.725635428172354,0.734794427132971,0.741875968391747,0.747380973370449,0.750468667333412,0.793289241347865,0.814340438471572,0.813705234303527,0.803819431116755,0.829739072608209,0.861412202202253,0.89426669326388,0.955352882738276,1.13433378209648,1.13854750855062,1.15410178900117,1.1572410489097,1.15808548864792,1.15845446583047,1.15925535582969,0.765317939063904,0.75938981797394,0.718720769701483,0.703122370545199,0.710973933416377,0.782638547821274,0.815928103187835,0.82238074346003,0.740993400743389,0.710764052146845,0.680253723228292,0.700580047789629,0.701498902047426,0.701583923400163,0.705630567765747,0.730920009946687,0.634624930022007,0.627887650089765,0.624884571799596,0.678479777907967,0.689445261945084,0.701313829233725,0.706301165435608,0.718047276719253,0.701025118734037,0.68531087470546,0.684116119861196,0.686505555426436,0.691495379145871,0.724195163811058,0.796194539183766,0.785744154874496,0.782185742594023,0.718270368283519,0.640504311725455,0.629632230769912,0.657427757710126,0.656427087440994,0.700680736252256,0.750493973702349,0.770890088231152,0.71661545927969,0.715584270803044,0.715068515593221,0.714350903572281,0.7167306099248,0.780612330285672,0.787680964551738,0.788009599751021,0.661652322816484,0.63079559221856
0.74192599999388,0.774761818256606,0.790892710444537,0.742433458065211,0.689464275444432,0.671442779478813,0.705418995830286,0.722403152883556,0.805399171481287,0.843478989617597,1.25443032587287,1.2354792309065,1.23373865029909,1.21202394946289,1.20024134275541,1.09441999998805,1.15817000003801,1.00674999991,1.05549948441658,1.06090131059708,1.09527672503106,1.09748290008524,1.22718000000474,1.10457909723977,1.11857963631852,1.0498993642603,0.976120776340818,0.929236999947626,1.01564500743418,1.07258976690044,1.09086055881586,1.04983317776555,1.01661056450083,0.986081132210872,0.986617021756507,0.964299136983661,1.04718999998185,1.1353957335741,1.13243697644008,1.17980038294093,1.27349000000152,1.11617008253627,1.04713999996671,1.09911051819595,1.14403039473937,1.29680999999986,1.42592152390912,1.46868983926832,1.5240731100504,1.52561074305514,1.52017040624535,1.51120994375809,1.28345769116637,1.29170164210342,1.29140882430886,1.31066697167378,1.38422999996508,1.48475469278451,1.48511244589421,1.64956999999972,1.51928010292277,1.34643000001164,1.32820359016873,1.32880802542165,1.2722699999849,1.39059786367989,1.44447017513244,1.39307832481459,1.39380738016792,1.39311128512572,1.43086693101691,1.33597692685288,1.29100813099062,1.29032997281998,1.29378105079945,1.18936003602728,1.13598996782366,0.662711417456312,0.652611157255229,0.605887955633813,0.636095792645309,0.714481008819492,0.76898715669458,0.715438788517688,0.632122054462229,0.624443930585481,0.62572127185164,0.645799432747324,0.644808943069383,0.639619615053737,0.656302140890265,0.689949712081072,0.701769286069745,0.701852285449742,0.703185132149315,0.701813452065064,0.716062336910872,0.770782594456524,0.769300968961956,0.769925377519784,0.754323145050752,0.691876029241506,0.680253378163914,0.682594134046469,0.68320776997324,0.743879051012348,0.760202999959986,0.814486266882514,0.813612038489538,0.746873999958389,0.793565911900097,0.828140954180961,0.826008936123414,0.929660469358653,1.12876084062148,1.13240946037409,1.14913791356735,0.682789000000278,0.843111495744833,0.781233000000278,1.17143999999972,0.779916494689152,0.768556117709808,0.711790163746757,0.680804724300696,0.703575092985535,0.773225721892013,0.82756709918383,0.827477560897694,0.00448266000272046,0.859939999999722,0.65578983580112,0.700091812636659,0.701085594548348,0.701818249138427,0.702935185429283,0.801938999999722,0.635917860817573,0.620582994664155,0.60406506478388,0.687153465124412,0.686863182826121,0.773585409832961,0.753040051316852,0.876784999999722,0.659631985364608,0.648897747203983,0.681480316939941,0.678964109212052,0.676866032109456,0.704127101426036,0.846772000062907,0.814601810713775,0.823050065398007,0.878269000030337,0.595139676691274,0.60282691517406,0.686420025620929,0.6567079453038,0.655627924815965,0.72109299993281,0.819293000029496,0.684548932208266,0.686399544152548,0.687348336408992,0.712172175280333,0.671038712953472,0.786623916349716,0.787207127902924,0.788405092353214,0.877248720431619,0.883180928369391
0.725497035338517,0.757365373365394,0.742683109067107,0.732191420999459,0.695040678382342,0.689861722317211,0.69622388647095,0.704233806713004,0.78600851442662,0.871492692675677,1.21636104664892,1.2248333786174,1.15193756132211,1.12539757730773,1.10281807284191,1.08662037575137,1.07097968741776,1.03336088946266,1.05973178348006,1.06193122597322,1.10520249965089,1.1112178655868,1.12501469636322,1.06633153970361,1.03613377839676,1.00649454612527,0.976257970136144,0.975764906802863,1.00338992878661,1.02227819092174,1.04448042766574,1.04661870668984,0.996949313180517,0.979141008422455,0.974322908560839,0.969864234727285,1.02071106640795,1.0859277121814,1.12105991823519,1.15510036810447,1.15876108300118,1.10829328852175,1.09569416667687,1.09691524231253,1.12185477872539,1.17411558772992,1.43319513128064,1.49657123013774,1.52295772998036,1.52355600361115,1.52215896277255,1.38059390260786,1.29520922188479,1.29196391263353,1.29164434608156,1.30643805536476,1.42768336808183,1.48590178541252,1.48726247428099,1.49142817208305,1.49228159822062,1.39477727041348,1.32994363282603,1.3289872113513,1.31528048180361,1.38796169963261,1.42270800557141,1.39319517827798,1.39399242637295,1.41169728402904,1.4193182830003,1.3161786360866,1.28919873464464,1.28637255593185,1.28403729192479,1.20319414363575,1.11061657284271,0.676113912199263,0.647309274921295,0.628828695554361,0.632245090469934,0.692856526835603,0.723340137109356,0.705312414636592,0.645951185355578,0.64359226797239,0.641853898930312,0.649852917117578,0.65267428112436,0.656125355093505,0.661328095898803,0.666760049795846,0.669067278193743,0.670208036901372,0.672862000814854,0.677510237309006,0.681847106045076,0.681834585588964,0.681649243817915,0.681198624082249,0.680782569925108,0.680700327955946,0.681050077620953,0.682561098357456,0.689621136528222,0.726324901975771,0.793768020319349,0.812873069384014,0.812574779936243,0.788865724048776,0.791366462204218,0.817259630020671,0.831300659460535,0.905363944103041,1.07957049085073,1.13472279278802,1.13808547120075,1.13828350437161,1.12665007934319,1.12650808449039,1.12904343903025,0.788166093612969,0.731725878188455,0.704677026494917,0.696788402748786,0.714732796206115,0.781061973452086,0.830001283579839,0.830472288909572,0.735355325088138,0.70444455756874,0.668148398160254,0.677552261153578,0.685898257260391,0.692382362601318,0.697071473359248,0.71072226659212,0.620945940934075,0.616573890686984,0.611338061516343,0.674431355200886,0.677007476773905,0.72154969462778,0.740839958745343,0.781347639880404,0.73048983695047,0.677106197020787,0.678129639779202,0.678463610893567,0.677823122430121,0.686391656629086,0.822266489148785,0.818512580578635,0.829679705613102,0.831430502781485,0.596757063129964,0.599121606666454,0.65666969427464,0.656617964185621,0.680834488354983,0.745721181152393,0.761344503145618,0.685956272700276,0.686983860162031,0.687818237687243,0.691917042068552,0.694206120281244,0.738595811296686,0.767207803305399,0.791045324627558,0.85016219896939,0.873150874902098
0.700749987334123,1.06065999999972,0.700349625013676,0.717796044254248,0.700819796915988,0.632111128282602,0.63179774894589,0.692080940481549,0.766972554597989,0.906260000023972,1.19914973509435,1.24485000005283,0.922854166346216,0.921433290098756,0.92044114351726,0.997833590428932,1.06423989832689,1.01146878148435,1.06307600299551,1.06406595805505,1.14291132592189,1.1410759044748,1.13854285303401,1.02216638975247,0.974383073991862,0.956902149884018,0.911130728716216,0.974519640733485,0.987717832094227,0.961924878254319,1.04390253990798,1.06247872772429,0.94829076717534,0.970333763936552,0.949412999952532,0.924713999934577,0.988409809486518,1.05209000002735,1.11288972053193,1.15100108319298,1.16321870715254,0.975284999995956,1.09135146201018,1.09613472990352,1.10421894514742,1.133840133735,1.44093836744427,1.51986484953598,1.52112336740463,1.5508700000202,1.55035000004753,1.34939000000383,1.29818477657797,1.28626707996797,1.27537642204707,1.29807848978654,1.51797982193622,1.61550999999974,1.49478878021859,1.49352121247436,1.49271356775032,1.46675435377102,1.33262657306677,1.32755207760348,1.28971999990687,1.38507518773101,1.46748000002402,1.38171956395225,1.39577535902106,1.55430999999972,1.43415868159011,1.26963982065419,1.28950465097055,1.2840169235834,1.28221937125232,1.22202760680806,1.07476999996843,0.694437411090887,0.641901893910013,0.623847889359331,0.605466100693213,0.674770999999687,0.805792999999722,0.688700901218187,0.648324531168622,0.642931982410967,0.640455054794267,0.65960044063749,0.660215750911426,0.700790448097931,0.760338000011937,0.641776489864357,0.641627408311213,0.664044189519673,0.640513775881337,0.678330284987112,0.68675389215509,0.662782323995378,0.662166155859941,0.647219205659381,0.645208724936971,0.643471912491648,0.661052789384817,0.683946240885487,0.699910897750893,0.697613525760879,0.875383999999861,1.12223999999972,0.842045190002137,0.78606338975898,0.746955999924428,0.808375047935594,0.836588121162805,0.882220781268254,1.04647999999996,1.14640960871167,1.14230780915067,1.14095936523195,1.12559848066041,1.12290759609323,1.13153528052208,0.797446336359513,0.639203183314626,0.640501415197359,0.640074236245771,0.725714991260579,0.789605672673671,0.845444000049054,0.83541289667064,0.881732999999722,0.652727764657989,0.62675678927921,0.635080772140309,0.646569177073959,0.657522588583649,0.670178882944893,0.749281000052655,0.6080283401847,0.604265690877114,0.59220610409463,0.663216988491543,0.670088770250353,0.693007504262235,0.730540753708627,0.915245000007694,0.873536999991889,0.676132065747355,0.613012780050168,0.647902561491406,0.659387309177431,0.657678922672884,0.826578019739119,0.639150960379135,0.837142628857436,0.913734999999722,0.596028605933374,0.598124386248544,0.646804625993818,0.656153580644044,0.704859475218764,0.811338272474698,0.79535772756244,0.630347007390285,0.639895687670282,0.644955532670341,0.650885550446282,0.697464461660752,0.697482848939086,0.755127847255788,0.793366497264562,0.823671888234224,0.871605950868188
0.691589322426157,0.816128199975252,0.785849734533948,0.756030443847119,0.713633019421656,0.633269484276674,0.632618827532845,0.693359337544933,0.749211873579555,0.780668761002405,0.903370842885466,0.934677146637805,0.921889354430889,0.921233508786846,0.920705378764708,1.00127244700729,1.00309429059536,1.00549865187185,1.07239691500315,1.07259356057934,1.0852055318855,1.08774367077858,1.08818628308214,0.991517453618502,0.960170183901887,0.948258143625859,0.933735852608383,0.994181116075027,0.997903369159977,1.02845274492396,1.05212022517349,1.05696189019041,0.989192540924997,0.983493658269004,0.975511756858358,0.967459929564312,0.993739660616159,1.0343070199828,1.10339809289621,1.1551096923247,1.15877040692637,1.03488964388304,1.05350837339661,1.07107645547215,1.08940079971208,1.11938422463746,1.32739251371678,1.44236003528274,1.47224997778879,1.50539354188508,1.50543346203565,1.32045548506404,1.29009820625434,1.28216340479411,1.27904581783026,1.34503924454594,1.52841839759819,1.53542983035537,1.50014988293842,1.49809084158814,1.49575279478534,1.45951180857409,1.37453175287749,1.32575029168472,1.32310719037205,1.35420347285492,1.42408397932252,1.39962862709742,1.39891572833053,1.41312356021435,1.42132466240712,1.32573125175746,1.29854186907277,1.26536019621761,1.26079420752708,1.21349917343546,1.11332352061511,0.667765914262463,0.63640143797811,0.616684120544038,0.614853077303321,0.655942881299642,0.66429091817898,0.66381954702978,0.662862577633243,0.662264819623065,0.661729228079369,0.660619232772122,0.659902998761938,0.692804263801597,0.695308056764825,0.68774106441015,0.687733157141059,0.687348704401045,0.684971207980017,0.681568190014953,0.66866276909813,0.662126974837646,0.66203789723206,0.662850204655538,0.66354634809081,0.667621838457623,0.675945823700689,0.68543358919259,0.691509356878996,0.708083668317837,0.788282331178457,0.90092609022549,0.870824728701828,0.832080399028204,0.777771829129214,0.793729164647994,0.856159008992714,0.862749643240744,0.890218802923151,1.12571292684104,1.12374910697219,1.1240531393831,1.06278808628109,0.967180093478916,0.936636290617154,0.779977580926329,0.641325229666711,0.6416849717598,0.64094281419054,0.746547222749339,0.75106532921973,0.740284104846162,0.730504296631311,0.724132891029674,0.665553455307142,0.62999187548671,0.632381710957601,0.642059381144652,0.675983164501462,0.683613642537605,0.701978512559612,0.603644111729478,0.602107545498491,0.597804061384604,0.636276130451867,0.671966494840942,0.685434320338736,0.721295591305394,0.748738231160633,0.710244054334445,0.654209411361306,0.627998763361497,0.640959693111322,0.646004669256182,0.653882662393541,0.654798040200131,0.655660808381643,0.842560551392628,0.844838021708251,0.682455033759037,0.655840155931716,0.65569930042744,0.655479963106212,0.682702872995082,0.743499422497463,0.744157439505791,0.635366314448314,0.63854273847085,0.640035441756952,0.687707747993362,0.701164211450491,0.705218150798769,0.741447877913856,0.797364566290589,0.851703578434782,0.872523262360406
0.683343274047904,1.03399998527443,1.04690001472515,0.785852210060904,0.725515230771191,0.634948991117462,0.626196713654291,0.694720680031655,0.734581957910507,0.738059869617268,0.883951999976007,0.945779562184149,0.866766999976787,0.897680993145923,0.913618963573046,1.03287030824304,1.00067634778197,1.00030893094625,1.07720760008418,1.07852833601063,1.08309370121108,1.08974675061382,1.08848936699143,0.959305966410261,0.863109154490743,0.851844100046558,0.870896990695502,1.02408829130334,1.00756092792729,1.14609833333782,1.14661166666451,1.10848000000864,0.997812089486005,0.998402656372688,0.99898989441669,0.954458023804451,0.998911548482399,0.998651279109729,1.09297405798046,1.25211999999986,1.31038999999972,0.994552736777886,1.01529857809876,1.03257791020912,1.03968907324873,1.10790996713552,1.29573000000638,1.40851415243114,1.45023956897797,1.50593906410504,1.50605904457317,1.21270197860757,1.19855815871801,1.22114809861434,1.22723655771012,1.40706734871564,1.53463154764443,1.5406577200671,1.50743463175035,1.50380626937465,1.58783999999972,1.45357201472218,1.40687030734479,1.32555131640959,1.28464659614255,1.28523337319692,1.44418022356313,1.40109722715158,1.40211496269258,1.40152519621863,1.4669900000703,1.36846000000726,1.31268026516299,1.25143727412931,1.24363977045015,1.20247175537845,1.14053999998884,0.602346991940715,0.606102163656738,0.602026226393631,0.61080125431586,0.632900912520717,0.665286091162387,0.66416512751834,0.663650116814985,0.728342495861232,0.708967422503888,0.64240785209485,0.658088566951609,0.689512837991044,0.697177827121181,0.803725999999861,0.853113999999722,0.688043783776425,0.687516443261418,0.680885818804193,0.64624151252535,0.648901296493899,0.65878354595278,0.663472097854987,0.663652659124385,0.700041499062424,0.687928253873603,0.686587028560314,0.686199339778005,0.714251269002036,0.740221999981376,1.09251999999972,0.900926090225445,1.09433999999972,0.74525233978229,0.72450979211711,0.873338213602503,0.82482625422476,0.651632000000278,1.12845677667108,1.12239093597459,1.12470499933835,1.04567151712167,0.795433000000278,0.906584999996567,0.765824881596278,0.642527427370313,0.642740606837924,0.640504655521889,0.768214642654164,0.76753945199945,0.68937699993245,0.727531027931621,0.714050082616981,0.684082370186252,0.622132051332254,0.631885388545928,0.63923261282472,0.69452236735408,0.694936711630922,0.722923612910119,0.601221310656912,0.597152093634729,0.578219208396041,0.600776152742912,0.673813206750136,0.680165962284646,0.711222256716631,0.804347000012304,0.67292208049469,0.600820473045636,0.601728565680405,0.628096779492384,0.627711507730143,0.652767540700702,0.649565947933767,0.657208704717934,0.846261509576377,0.920321999999722,0.716536000041219,0.652027840087308,0.689778540975013,0.654756096176442,0.65274577642621,0.743413286074566,0.745387287614991,0.621906263897162,0.625171844882875,0.623057724636929,0.752219131502085,0.730713194209027,0.714373745807079,0.727158957380629,0.801427697857659,1.00589966583437,1.05988000000022
0.72528474063376,0.845246371621049,0.876067100586069,0.8161322054622,0.76133207924967,0.656079560321307,0.646826619955706,0.674449764151043,0.726569008410586,0.749849602346268,0.824358120238832,0.837897590889012,0.854422663715948,0.871361334322422,0.893633601018868,0.924606917162072,0.955504053660054,1.03620388396305,1.081157633084,1.08164881840918,1.08501354873123,1.08768955148467,1.08805151633303,0.929288891821851,0.859819702445469,0.856184578619218,0.878483854241856,0.991603592517471,1.00117150665995,1.07027007470594,1.0746824822601,1.06689253380904,0.997854833219393,0.998341323900627,0.998641074838636,1.00208412850051,1.00516568198204,1.03772083588748,1.08288852348771,1.13472254929687,1.16544478278976,1.01142327654575,1.01336890368374,1.02618264004462,1.04125925248282,1.09320420706011,1.2679249923015,1.40224519612308,1.43252893449955,1.45437927965327,1.4605155490876,1.20820459559156,1.20463500544231,1.2158712901108,1.28366114461976,1.39789886191599,1.51105547390138,1.52021152061958,1.51595556885426,1.51496508047868,1.51401371935862,1.46887860351104,1.39170832687028,1.32658174079696,1.3088191392655,1.29893036178417,1.37715704594932,1.40437615481125,1.40800399411872,1.41192375978004,1.4302811712571,1.30441990962634,1.2737654384041,1.24153458316239,1.22973801195469,1.22382545209759,1.16137770749965,0.616043975937682,0.611129308601225,0.611265317182717,0.61152157300622,0.659097366770737,0.672658809853582,0.677730846483179,0.681990484006535,0.723878006157519,0.718049625353765,0.656126462610208,0.656329049485635,0.66441252134598,0.677424512865304,0.672531719436773,0.668718635507593,0.665631477434663,0.664014529656927,0.663173836003005,0.648152046838112,0.649243672532262,0.654484269612731,0.660253833329605,0.666777832441741,0.67699464625999,0.679938423722804,0.681903135116906,0.68376564920859,0.692991740937649,0.777554713970111,0.868076077760551,0.837945276624026,0.783145140209761,0.736534974112136,0.730371930014713,0.804430472609528,0.796053604817108,0.792044466503967,1.12710307824814,1.12422668949416,1.12418409644739,1.04129424093694,0.967204190755501,0.936651180541602,0.735384938717501,0.647714658833708,0.647240035940722,0.648256480091272,0.715814494856228,0.758199397588037,0.747068372890266,0.735043274772624,0.72725682135351,0.652219660309829,0.625430274150019,0.628622686091694,0.635889494124057,0.69857260917793,0.703808441925808,0.710595574682857,0.596435939371047,0.593722150637848,0.587123243907677,0.591115088992191,0.64695630174358,0.674141459696733,0.698469891583455,0.735607483246693,0.668657184256068,0.601689261453033,0.601995643281982,0.629040683961826,0.64631932665411,0.661990297847819,0.695097042101449,0.734770475544842,0.848042350957153,0.856158029990917,0.681754191520351,0.654310652651727,0.654374939996003,0.654507227976849,0.675897306732137,0.695330368868445,0.710428631584542,0.687175656307621,0.645357272837409,0.640931717245652,0.663660622933242,0.679802737540218,0.695607210488731,0.714522995163451,0.745737435775498,1.02037822468495,1.03179260720143
0.798671666758589,0.798518333273436,0.989151772483612,0.988248449655083,1.05677999999972,0.676633665059154,0.631170163724359,0.642102410898808,0.71662605876197,0.762810108100975,0.807484761072187,0.80422103573906,0.805661439989182,0.814297737450343,0.816751490959377,0.895333999982729,0.904847999974823,1.11854000002688,1.08510380987006,1.10004467004073,1.09264243628007,1.13309027822375,1.11725972186714,0.900000867665678,0.815966054020144,0.816017206045334,0.887502829860074,0.975256034815533,0.995131344361393,1.06355152517982,1.08138294327989,1.06277518976833,0.997561376868173,0.998448589885374,0.998946811997386,1.04302033196803,1.01065776701041,1.06096060458854,1.07462339560929,1.10219000002031,1.27453999999972,1.00920068185401,1.00669534684876,1.0196624367871,1.04288755738937,1.07862012800316,1.24011999999362,1.39825177123961,1.41797327440278,1.44467735973889,1.46521930285217,1.15346999996512,1.20221584203769,1.21199093094085,1.33090429167265,1.38825226189532,1.49512971836059,1.52722455368602,1.51739881851553,1.51985045977739,1.51220536135592,1.4848201520513,1.37661074874956,1.32835967319828,1.32809472898983,1.28122976041689,1.36103999996905,1.41620301987793,1.41285354634792,1.41502708399206,1.48863000000202,1.24666000000014,1.19076993943445,1.21803457200458,1.16119999998418,1.23703031740956,1.18766964858663,0.626547483573505,0.615871536732399,0.610620973766228,0.587885808720725,0.679232009986343,0.675869316171669,0.682117002064459,0.690451232981755,0.771161571261338,0.765944993312849,0.657524216501476,0.656046761625289,0.638730743676262,0.683624693224608,0.657537045617462,0.663340748419312,0.659430054311327,0.65275288235853,0.661902734631034,0.6145464771482,0.615228238340736,0.640233451814189,0.655557486574073,0.701706231235465,0.673009371580934,0.671142482497881,0.661766482166574,0.627849904813715,0.682474758245945,0.814690000020697,1.11191999999972,0.808434052803255,0.680366058719583,0.686277856361208,0.706750795386495,0.813542847592433,0.790582841914134,0.784670886538685,1.12909405525849,0.754485000000278,1.15428000001576,1.03414284961405,1.02232004497921,0.986916999998255,0.701995828001938,0.64761724767872,0.647808652825637,0.648288958711916,0.686761781411509,0.763681887525358,0.777245085168209,0.751007641148089,0.868181999999722,0.542425666596436,0.541044333349534,0.593717260030917,0.62817472670032,0.70382681614658,0.854429833333125,0.853365166666458,0.530298105770064,0.541997802801493,0.542754888513301,0.586007305093505,0.631322989397558,0.667612852449577,0.685657197222685,0.824923999999722,0.664341840533457,0.57839112446961,0.5899528024467,0.630438230927897,0.663884397299902,0.678665579898867,0.726905583406555,0.86817312576692,0.849248022111819,0.921773999999722,0.631822719151769,0.632142967952004,0.590231723669334,0.653740143371556,0.682335296921053,0.682335383477221,0.728897041100279,0.741579657531388,0.653339042794764,0.625371366017808,0.600563381739823,0.611198582382311,0.587397832895745,0.640524961249266,0.587104999983511,1.05726000005052,1.0582999999923
0.767229122415115,0.845281763140305,0.988248449655083,0.987480297814602,0.986646796691426,0.653038251203439,0.637674370523405,0.648834586108722,0.70586366166144,0.762607610026259,0.807184333225745,0.806668899853797,0.808210412203256,0.812201237438943,0.81379442114197,0.86293049289963,0.932411028280754,0.997322557833871,1.04041542470185,1.09719690240144,1.09435181291309,0.931607469698818,0.901228530863286,0.871247493805916,0.816190349732159,0.816368180288224,0.925632496738895,0.960075148435313,0.990733683787825,1.06835252843843,1.07187386243306,1.0546897652538,1.03211129897166,0.998732538784953,0.998935111432068,1.01951509442322,1.03750353504108,1.06312708975315,1.07033098174424,1.07942586503466,1.10478455761849,1.02064590483197,1.01414897523871,1.01614081023205,1.02592631114457,1.06374192864027,1.1561841217589,1.3935095545298,1.41061919793207,1.41899270993009,1.23275554396377,1.19376081547545,1.20731568726446,1.21000775584417,1.32891213899592,1.4084997104831,1.48283115214847,1.48698844736031,1.48903778142642,1.49394095612042,1.49166549431363,1.47461152557119,1.38822848419604,1.33034815832835,1.32945093889127,1.30417341927807,1.31988073610117,1.33436511343214,1.34778291029305,1.35904023048081,1.38296482804624,1.2931328411951,1.22388546910954,1.21943401266428,1.21560949318739,1.21266747178222,1.20378986819163,0.691041202479126,0.646462249980205,0.607465025990244,0.604691226730871,0.660184112157683,0.68365551604479,0.685942762913043,0.691350945376363,0.768794178593126,0.767268963125918,0.678789601680644,0.673546070148479,0.666881803839265,0.663576890677055,0.658305249810472,0.657952760555405,0.656223007735721,0.654119022784033,0.638514399208818,0.614889605511248,0.615107682444709,0.631002999697873,0.641323070257885,0.652930975141232,0.673305953986012,0.672645507209962,0.655667342004753,0.649002645681889,0.680561711022997,0.774436347462296,0.770817372309989,0.767592466860425,0.749107950925519,0.713376392040042,0.710059679017772,0.730668978640494,0.749628933567238,0.76867406598944,0.799185047864547,0.829850020905555,0.965954736472356,0.954757173690783,0.949678123300057,0.860100460027594,0.697601562925083,0.670275246289324,0.670542330679724,0.671039027237184,0.676247003360079,0.674368589142276,0.664372149704979,0.649059060930285,0.633039967905076,0.586981917800612,0.567683131187423,0.581242336847606,0.611100699684653,0.626087989674511,0.625230214001168,0.595416218539204,0.535668536454701,0.540245982512628,0.541911222726755,0.574654337943822,0.605556543010682,0.634361738586681,0.673851693886466,0.705277065276562,0.654250198047218,0.634084900836767,0.633065114968461,0.631717496544616,0.651689301424062,0.656258346521619,0.728797207700471,0.775447661105845,0.804387583296356,0.83176056215771,0.640142221981852,0.618780765935937,0.608391094789758,0.640168699287102,0.657149881223726,0.679449374054065,0.723350825380984,0.719877182553239,0.663362572987801,0.63485870142643,0.611692572032366,0.625862670066013,0.632416235485632,0.661928172372011,0.696775517702122,0.765460352280159,0.796360090860402
0.743089876130996,0.946560068420684,1.09450999999972,0.987078864078642,0.986061976939662,0.63817325919112,0.622910765144948,0.654482109008619,0.695541366977827,0.762532967330286,0.841449000023794,1.15717999999972,0.714898718681797,0.727187461683452,0.728574877801371,0.832193999999767,0.961167346618153,0.963607653424513,1.01157346895087,1.1512600000076,1.10245103180172,0.780383833333542,0.781631166666875,0.821968745843265,0.805435114159391,0.816959890775734,0.992328000036462,0.938762955107672,0.98744144035991,1.0781072824029,1.07740203209171,1.04661078450372,1.10460000001307,0.986440584308747,0.931509672853465,0.967927839718623,1.05920013399793,1.06586721625409,1.03658701978468,0.994722727481599,1.15980000001384,1.03208813705822,0.983533845360291,1.01227834476732,1.01657704425849,1.04792969274894,1.11683997563878,1.38963250792578,1.40314881154495,1.47549000000813,1.15651342719924,1.15652645000695,1.21285406966878,1.2101529424735,1.32688707786125,1.42919004415307,1.46986972725835,1.48511589741373,1.48676057343878,1.50249130693568,1.48803419422989,1.46326994519163,1.39813872331064,1.33278033613829,1.33542222168921,1.28678166670141,1.28542833328096,1.19571843095065,1.19588192949183,1.19646672196374,1.4396000000002,1.36589000003166,1.23101144876763,1.23219322813853,1.30545000003375,1.20954737866124,1.21433353562803,1.07237895449938,0.662061960376074,0.601647431498651,0.602456500511734,0.640413930668598,0.702893005805908,0.702263447608577,0.70146589711735,0.801864833322727,0.79902016672113,0.683325574779593,0.681538318289339,0.688025625880633,0.63286010967428,0.648846801438776,0.649785296389762,0.652984364881155,0.684889156582249,0.618884740717484,0.546240999970218,0.591342941450596,0.608179783139366,0.608134671801442,0.625654708647108,0.693313550352243,0.672930081637168,0.649238936950546,0.639158520385561,0.678816009571133,0.779370860957849,0.736154016816819,0.765313669610727,1.03527999999972,0.716707250684167,0.653670674675984,0.66682858824277,0.666963850098323,0.666866080476243,0.730116028967959,1.01739000003863,0.980905943410316,0.949000057214747,0.939440753270375,0.828947,0.693834985999602,0.670377564483253,0.670360471723218,0.717903949390544,0.731128050727674,0.600262854564524,0.59414614540265,0.633241553202559,0.596400323829364,0.61408878530107,0.547290319006956,0.546594652456871,0.60238699295648,0.62730761686069,0.624758788793179,0.558998905907388,0.492384999954699,0.527156154140714,0.497305999929081,0.564054679905399,0.581978604933062,0.553022850388367,0.659908149556351,0.765911000002174,0.644823694060935,0.635179068281373,0.663757381939397,0.631360052405962,0.625267237204697,0.649329595956779,0.730679183317361,0.743281000036086,0.775448625282173,0.889215000008541,0.647230759941069,0.574877316275834,0.587626502942467,0.620853635973437,0.619472345881929,0.67697568869741,0.739706147577695,0.716938477019417,0.673862871386866,0.649558234069453,0.595439705042916,0.643979947745349,0.642195462587609,0.673549268111919,0.778275000055846,0.710936600392325,0.858843441838807
0.754022542905651,0.947798550782042,0.987743131078862,0.988251768581148,0.986764977546791,0.707200631704709,0.632017165950348,0.647803601883722,0.686288299912482,0.732126597261043,0.797329502669207,0.766458533387579,0.720754814024299,0.725444824346236,0.727066600787459,0.781744833413824,0.813007876299511,0.916628144432642,0.984652840999082,1.08269927936803,1.08797869316745,0.92081675950075,0.890164928313136,0.830715921046755,0.825832838372018,0.822128476534527,0.89370064264521,0.924325350871974,0.983880904261739,1.00700975269547,0.995613976279786,0.983836409111766,0.972454136760373,0.962220367348195,0.949734800673094,0.957620546036245,0.991086717654742,0.999652212443368,0.996857608593546,0.996254888060899,1.00355510464908,1.0114638209847,0.999410559743346,1.00829900508407,1.01860633788885,1.06759579540853,1.1068518301565,1.16558031865217,1.22361130496802,1.25269814148217,1.17684818853874,1.18843529075676,1.19769860389041,1.20879518686585,1.32735958802397,1.39218321415189,1.46536343644227,1.4727080758498,1.47295725681974,1.47350117022526,1.47364769466092,1.43134354182898,1.37008696057153,1.32559442469271,1.30101626489975,1.26541139750276,1.24052840536891,1.19549358196183,1.19542968759819,1.25398949447782,1.36558977235632,1.33484163312348,1.29796703471267,1.23360087510589,1.23419001022612,1.22017153038501,1.12403703913554,1.07527098473658,0.674941379558409,0.642299908199114,0.630867861118265,0.649651384555374,0.709195176327232,0.715903664720578,0.722556679071108,0.763454673215756,0.744522721798611,0.684259074654915,0.663858552738905,0.656784154784613,0.638919294931288,0.648900741200335,0.649404538364941,0.646503275882184,0.632474278112993,0.624964368195883,0.604466799740854,0.600212693009535,0.607261152414132,0.625439660977773,0.62725645057334,0.631024163397648,0.6453018118472,0.642705020306213,0.640365865430643,0.681956952152922,0.744450401656872,0.748713721641446,0.76411258585892,0.812327893196155,0.687473819824445,0.658126357514844,0.661928803135366,0.664587154077601,0.666175253181821,0.714206660055461,0.964446623270876,0.954871002981829,0.945664393097986,0.932512031809657,0.72127601681085,0.681425916489092,0.667843180136609,0.665979510682759,0.664394211294575,0.65878468416364,0.644895935261095,0.642546516316681,0.641917412764185,0.632194030822622,0.585866478899151,0.560347464066792,0.560625055424062,0.594430584440649,0.599341312554659,0.611676418970173,0.557532732826852,0.556861565967998,0.554881907908903,0.551270983098136,0.555948571959014,0.586069308627081,0.589442200616654,0.645165448747889,0.693805298134712,0.674274311932842,0.63278774682094,0.631069705429202,0.629654672429756,0.627571120270693,0.645896186290573,0.71638708958654,0.725973279565913,0.728358206869995,0.732944529405067,0.685356876507236,0.584440828071978,0.587329836953154,0.622397502008262,0.650585284963898,0.672310895055997,0.702998075894519,0.702533186684612,0.683680146362184,0.628307659453335,0.615796967047421,0.625665865338033,0.668965720929875,0.680234734786242,0.72862136045488,0.71995048995847,0.785316853501219
0.764669874895682,0.948973668420684,0.988145518726426,0.991959239064385,1.03891000000663,0.980559999999861,0.607949793936188,0.642542247515118,0.678103739808568,0.705008008165209,0.901975999999722,0.719964000257763,0.687300829497589,0.710555090833196,0.716096790290628,0.710438884903215,0.714125931154546,0.883239000023852,0.959612727952221,1.07563631996899,1.09518887916438,1.09605203826166,1.10308703381885,0.841704276911635,0.841587006426066,0.81787758349045,0.842075793593423,0.888237999962999,0.979224239301659,1.02675030622456,0.919131521864007,0.925983218292705,0.938684536581915,0.940099616919497,0.944699197704016,0.890515999956347,0.961200181832368,1.00235866452092,0.993734962605118,0.990116065539418,1.00137027685163,1.23441999999972,0.99106512309832,1.00401257891393,1.02104870923482,1.086930150638,1.0955698495153,1.10868982299582,1.1960342402325,1.37038999999972,1.12770999995876,1.22875000008503,1.17073968310966,1.20896055604272,1.32781680709022,1.35477999994802,1.44753974786586,1.47322867942452,1.47333206732808,1.47424304548246,1.47391628083411,1.39906102113506,1.34453970041992,1.32367917741162,1.26843090221918,1.14368028440078,1.14675985518254,1.1304195643367,1.18875592728914,1.44386499999979,1.44100499999979,1.29315999991938,1.37397000000809,1.2342276837688,1.23456287606748,1.22849765163039,1.07762497907929,1.07807929102139,0.687636265381645,0.659635698670469,0.607529732732369,0.657112793401675,0.771669000039684,0.732851016283452,0.736607820618823,0.890433999999722,0.719985914500123,0.685337909688553,0.650641648570984,0.609892227005888,0.602930182756384,0.71788200000398,0.659209753080243,0.645311719349124,0.58338294367883,0.631906205577525,0.60749403570041,0.594419038406235,0.605500743169455,0.655374090562953,0.732042999999722,0.611951999909852,0.648044256381485,0.63741943918879,0.621379204075965,0.685284514534363,0.738599450849146,0.763113399578395,0.763343314640171,0.912999999999722,0.616226213339731,0.594867952970891,0.63583663054901,0.649939363444629,0.655304198680964,0.697548084587851,0.984510291367151,0.921834350710133,0.939136203649991,0.922578278522867,0.625046107837004,0.606190734176115,0.66294142508859,0.663267857723898,0.663009381453477,0.654421491530638,0.745456054869741,0.78055500007189,0.754097222203467,0.79115400001502,0.556865249903127,0.558671879020568,0.560155793587865,0.574785960436694,0.580336646985215,0.648100000083252,0.556764790372438,0.558293194578694,0.55658995875689,0.547564677486134,0.540031123173404,0.62783112928946,0.593812780960799,0.629861160984234,0.725477000030175,0.777626999999722,0.563185974969552,0.565568766317203,0.564344308287738,0.556593273937797,0.642843291724763,0.697304842292916,0.722098965920311,0.726286782280626,0.739652696799856,0.758977318789875,0.580689117215134,0.589612602778951,0.624349816744576,0.678008985044366,0.666643351521974,0.703664206690413,0.702275179793678,0.691849985729128,0.603963420048452,0.608214907914247,0.593320030362774,0.713849317955758,0.689355159067168,0.742472558768567,0.712757048238725,0.719122771870922
0.670964048247868,0.701196944814275,0.731706741753701,0.999074416088158,1.00150314764247,0.68049912550075,0.619027218393967,0.63084640667586,0.670660741274188,0.689541731158877,0.710774086367466,0.704395906483085,0.699684023392863,0.707303290627697,0.711187176462369,0.714290431822192,0.720412788329421,0.863767595142448,0.936335076620165,1.07673708274542,1.0841739303667,1.08509803430221,0.893379332740848,0.84263425060599,0.841859008163435,0.826026431968782,0.848233896302824,0.923274915212819,0.973899877267531,0.97616896092144,0.964323481035357,0.956371907650888,0.9500622896519,0.934861238938459,0.930841096685995,0.928395742670668,0.942841839690479,0.988301861270027,0.992807043286951,1.03662514907814,1.0670777797751,1.09743977421875,0.996083294905063,1.00024144487737,1.01172464091798,1.06129851543225,1.11448838451883,1.11816119849217,1.17646904306659,1.17611500414473,1.17635170168438,1.17503078052191,1.17306730412714,1.21019380323198,1.31925880347118,1.38031541282729,1.44144363730933,1.44745310309721,1.44808475308807,1.44895042664006,1.43420453692323,1.41013000704035,1.33695768956311,1.31764390042184,1.27160017002149,1.19223408380273,1.1645740714946,1.1563310536816,1.1805701106374,1.34896556729804,1.34889680122926,1.33115320306716,1.3132343659046,1.22278293387677,1.22101555690234,1.21722778738355,1.10307711751793,0.763682245808826,0.700481249421304,0.639512491777795,0.630885125437792,0.664441306318841,0.693201295047026,0.729113486470902,0.730337624896798,0.730461134018438,0.72463314127821,0.666423769578001,0.635915030203928,0.607804853779327,0.60524331093205,0.622700465954313,0.644265433790096,0.642779302891679,0.626806427493722,0.622279778017404,0.604500213010513,0.603114991508093,0.603810957315577,0.632794436385814,0.664351311027631,0.651098512349448,0.643890017351899,0.635846709331292,0.628756631290385,0.656027892937277,0.687505402855133,0.754830973096317,0.755650230996628,0.773596606827181,0.607758871315067,0.601310265487242,0.641616789109422,0.646409155530185,0.649954841900104,0.679917476939182,0.964704956564858,0.956432358538016,0.948077781361587,0.940580359865534,0.680267290802563,0.619583024075826,0.6301539734881,0.636830474122037,0.639730661228961,0.646015604360097,0.745994182814512,0.746622978602769,0.747112015899981,0.699913250492478,0.572272759143349,0.560038315860985,0.560306271983301,0.570787584686562,0.592368573439143,0.61347062228996,0.597842944001592,0.571766033373084,0.563077525336558,0.562886977183596,0.571157950004911,0.594253335089031,0.59637220694261,0.598506815027824,0.599287000421225,0.59999708193314,0.589621672283812,0.564370739115452,0.562849867800663,0.560046184819786,0.62289422059513,0.666038652953006,0.684308001967363,0.698224205402547,0.716375790131658,0.730860956850427,0.606232230637091,0.596384849991922,0.626786726653411,0.666049072830988,0.666094600582207,0.703751333631467,0.703297494363527,0.697902501262251,0.65703718308858,0.613097066987375,0.616418260795898,0.667059152340393,0.681191766480669,0.734605476520835,0.75530685357646,0.786660970660115
0.656528999997477,0.560163249267377,0.58036705744172,1.00232028226158,1.01128999999972,0.628367262118026,0.587599666143208,0.62782526313475,0.657002301493525,0.66130918777781,0.725097041730737,0.671936815636749,0.693877956591776,0.678891606634527,0.630774999935902,0.718016875188603,0.726334295715368,0.835365835981018,0.914635874680032,1.07900412335399,1.08417517604715,1.08702424031252,0.827695552791984,0.831658988439258,0.84594498647531,0.798589717800716,0.853628524527385,0.958378425038673,0.966832042509136,0.984128586267963,1.06373000003403,1.03703999996571,0.973999130185509,0.92933683203333,0.923784948296025,0.927814695315785,0.929742579692292,0.972840584068102,0.990828942561288,1.08163000000262,1.17753000002479,1.14544999997632,0.932222055995331,0.958330056514692,0.971601706501339,1.04428003158895,1.13711378663885,1.13092630039163,1.17548657966308,1.17457988943547,1.17714397276954,1.134963439031,1.14803766276381,1.20246747092943,1.31025009574525,1.40497008601424,1.42245976453719,1.44654028027966,1.44765030249345,1.44956718823434,1.40688775705439,1.4230108095962,1.32986071832502,1.30808830426284,1.27449588037913,1.2260500000255,1.18190035811667,0.00453647000271755,1.15872096847387,1.34972687240695,1.34932351241551,1.36749016137552,1.29757999996773,1.2202184576515,1.21898012301204,1.19837978289814,1.1264500000481,0.716004040015008,0.711694066370408,0.621683813886745,0.583104999947358,0.675750554662312,0.659722172985897,0.724891560205024,0.720979968486127,0.74274420464827,0.770321056786759,0.647076999999374,0.618945742785721,0.533420999968979,0.604494935184618,0.581677470258076,0.654369096114884,0.637379412441486,0.62997997934467,0.575747262418846,0.581241103891954,0.624691262488377,0.603269652429329,0.573647999946232,0.676134917589235,0.753760999999722,0.638025494641147,0.629073433506997,0.570429545881147,0.57203024190827,0.623715851557772,0.743543308306493,0.75453535988967,0.787939254475746,0.586643030922898,0.586984796171776,0.659843038694444,0.642141685166453,0.632582090927608,0.666978013390099,0.971605264633347,0.983003742715239,0.959998933252222,0.970869179158482,0.865433999999861,0.604371541172969,0.598210418420392,0.60142608468147,0.6047834542349,0.641427102328818,0.745546596707081,0.746485441306836,0.746900869905903,0.665189999964413,0.595417177576626,0.538206779146431,0.53806305075098,0.565619504146437,0.604183745706147,0.738560999999861,0.810969999999722,0.577034918233188,0.562834234669421,0.562669366843705,0.580087279651437,0.591632338559025,0.598137225834489,0.598511600939429,0.598181307331791,0.599960558694836,0.655892000035518,0.546394892703906,0.548500391157163,0.546087835819269,0.600768856535292,0.645392956456924,0.664589094928351,0.666858835678814,0.662382916963694,0.808833000009002,0.621236436672877,0.566406999963772,0.629631083912992,0.666387313473244,0.637322517544944,0.708186435752286,0.731161947513662,0.729600826198414,0.728976384937354,0.601950985184371,0.621369166311528,0.639116266860463,0.673111213883927,0.729261935923464,0.79700800001214,0.845995333431427
0.574202616408981,0.566998331917664,0.630719732746974,1.00378603834964,1.00423657528744,0.613828598958203,0.605416836751837,0.617062756298003,0.654207886689153,0.674731250872615,0.702844334101243,0.688666475964497,0.678765501608602,0.670517677592446,0.660076835945786,0.700385458652971,0.710061955044417,0.849823973682362,0.894255278361984,1.08032427838193,1.082708107558,1.08463896516398,0.826341350821437,0.824278195792545,0.821941380659567,0.820037346084809,0.867790954464942,0.960242154998938,0.961813623993173,0.962173914170805,0.962008041058655,0.962018961670464,0.961666937477748,0.92725972344611,0.926157686313961,0.927346583828937,0.930660068057822,0.982925274429737,0.98806824591413,1.00058640950008,1.01938121693185,1.01258862824714,0.942201062477553,0.952062830177343,0.958313555020417,1.0294606386395,1.14582262514664,1.15309898557755,1.17463380138213,1.1732598662792,1.16002748575184,1.13915092093258,1.14918079425614,1.1933439945763,1.28000144055019,1.3905385115594,1.40397827983259,1.44534824133992,1.44679368201707,1.4474335822181,1.43563987454546,1.39354168150497,1.31296465013521,1.29553605160658,1.28758301967791,1.18083212450341,1.14605508824827,1.12507240198267,1.14223360851983,1.34476409955811,1.34780136537939,1.05236466888499,1.05229475025679,1.05222680408935,1.05222917393909,1.05230127898641,1.05237365923999,0.76368224580882,0.72675006512099,0.632242321640904,0.625308303828195,0.645667351747082,0.666774402564118,0.727428581006195,0.72866580400612,0.733619601342891,0.685539658283391,0.624858541286771,0.60263349649339,0.579003534963554,0.579872975767267,0.580584922861848,0.578257062765416,0.576454530440748,0.575864768584896,0.57571946809338,0.593023934494425,0.5982070816962,0.600425568496955,0.622369212620947,0.691290756605201,0.700582375569247,0.626006636120849,0.619202525057288,0.570819289240444,0.571346681782113,0.63836027284884,0.66678881670839,0.677626084520067,0.699021839979744,0.611780849665127,0.604231699289683,0.620868418913601,0.631631507675112,0.644521309612585,0.656625728242869,0.727570523588239,0.780189142784972,0.779289507618456,0.778561506421335,0.670772297919659,0.601384435640039,0.599220401639226,0.599565317948076,0.614580378966245,0.652096080729694,0.700335712495112,0.746742417626839,0.746935972037424,0.702464834443877,0.596403473581623,0.572649161716807,0.553585606366128,0.559824312493457,0.560583400816269,0.560819448084829,0.561470758349029,0.562170381718116,0.562693244368496,0.562857378953892,0.587283572979464,0.594431401193443,0.59706966086861,0.589702665304091,0.579406626661315,0.574672496797101,0.56749090772461,0.559190066619426,0.558721876256002,0.585048225991494,0.595308870152338,0.659716753399084,0.668299787363834,0.6703119307135,0.724331103924108,0.751531446458506,0.628320512150029,0.631259061655214,0.632956026682603,0.655832380510093,0.658815030639368,0.685724160520904,0.729817072063173,0.72913923444579,0.72873477010053,0.607696325149437,0.612470014406305,0.625119864867422,0.660728777987083,0.697032555134273,0.733906599199467,0.785441064755891
0.556694023313681,0.549907976599741,1.00217452701777,1.00114929652374,1.00119213334959,0.599854900281814,0.569547041999102,0.612575252084946,0.651633100378145,0.687495037356971,0.919010000009558,0.919213999995726,0.648512303805879,0.648415714677131,0.648829697232354,0.690173283015533,0.664129759752785,0.862906102256,0.874856871461188,1.0949677655896,1.09831556938145,1.10436758884145,0.756375175639345,0.759643557274531,0.755644851232261,0.818763359691137,0.886885263224469,0.971478500405454,0.953329699440927,0.936615814178453,0.961745473136393,0.962472523812651,0.962324673028441,0.923153271601485,0.869494799532792,0.879486307213798,0.931946867781655,0.993391006668601,0.985254233396284,0.981954551875729,1.03621004914276,1.00537148853175,0.895838999943584,0.924870057344325,0.93378416483165,1.01478996967733,1.20158999999986,1.28221000003758,1.1999420890312,1.17036649410361,1.08124833329269,1.08128166664061,1.14942861508606,1.18321119230183,1.25107011818461,1.37398829452749,1.37469274038628,1.44457089051564,1.46088814859945,1.52435999999979,1.45014910807399,1.37132690993379,1.26690994711471,1.28631677102823,1.3392500000249,1.14746,1.10351319991289,1.10344671240239,1.12446737135232,1.33987770218762,1.35390449043881,0.75779088830695,0.746034111693467,0.802114748807875,0.732245000000209,0.732497000000209,1.15720002921282,1.13360480528917,0.743398660928956,0.648086369395995,0.591003106803678,0.596899912852075,0.672323328204602,0.727986695826066,0.810426438497592,0.799441696357526,0.639254000000139,0.560895967922988,0.580645761952189,0.577772357657289,0.538255999883631,0.583061454864041,0.57484776218335,0.576301397762606,0.572478156822339,0.545308996733918,0.608256106791807,0.59523695296078,0.598504332413175,0.634845124306904,0.719576051313374,0.719311068592293,0.619930369370374,0.608984558249562,0.565922212303709,0.56242745732003,0.652263203371554,0.646526928238879,0.666588708286363,0.725910060496647,0.625970649813453,0.598318873679437,0.584831791937908,0.620395327178632,0.65149001730858,0.64963602427881,0.661967162938011,0.781501667761979,0.779579810850948,0.778246395034707,0.623242811474861,0.580894195358911,0.582888613962972,0.592398935177002,0.635688269662063,0.662435316818848,0.662359449568201,0.815736000005123,0.75656206150965,0.818991999999722,0.598024165973341,0.592121511522053,0.545110768151921,0.559843072905325,0.561841178036752,0.555946719072627,0.550031060923937,0.533942353980125,0.536148852704606,0.537527694309898,0.607695504463822,0.60173730505005,0.600308370095355,0.584948987564102,0.575313840180811,0.570199962616233,0.559980058346213,0.560054317199227,0.559317119820314,0.607974233030484,0.590551904493532,0.670342068778814,0.674319683514044,0.675618123765556,0.864437000031691,0.795342769709669,0.608796303947113,0.639285797498967,0.635976334812175,0.65365832480392,0.662584360184896,0.664167733149041,0.779637000038945,0.739124396404296,0.868617999999722,0.57422159122984,0.574953404756771,0.605318305098018,0.641956451764588,0.670043000007951,0.685726735551812,0.782646227949722
0.63664508405805,0.66751927529557,1.00074529444338,1.00024138022933,1.00011416615609,0.590174893312002,0.582637728675775,0.59760629663482,0.647465692101424,0.695773979590413,0.839191480666482,0.867862410727068,0.6481141088138,0.648169841449477,0.648377485238481,0.667398053166164,0.679212177807012,0.767180192614528,0.848109829310167,1.08778174991042,1.10022122721633,1.10209506332934,0.775489669207521,0.77532125430839,0.774951042973164,0.798562382688739,0.865672501629845,0.925061375222722,0.948346471135449,0.950541290058118,0.962670397756148,0.963275810726868,0.964124453936932,0.914598959900685,0.879136878934157,0.879212757038677,0.911547932274091,0.960262431256915,0.969240353723276,0.969639090544479,0.955764148991548,0.949123922506276,0.916133617306221,0.919671997187619,0.940556782501155,0.998743531788424,1.10067459956308,1.23868271951183,1.22234981932835,1.19777893684936,1.10121663761558,1.10047044501881,1.13355077556458,1.17131070101331,1.23763281390238,1.32473740715004,1.38562416573153,1.4575593639095,1.46670200783053,1.47251582654845,1.44945232077148,1.37751247488021,1.26097828971228,1.24065747409448,1.06099534014951,1.06103435938033,1.06119493738952,1.06152763121787,1.06194915413243,1.06225271524797,1.07813334221723,1.07824131758803,1.07849801548521,1.07889933324986,1.07934668316981,1.07965461260405,1.13778282381324,1.13542654592186,0.762742509755962,0.6860592028463,0.607244873650807,0.607414326361886,0.693650111483347,0.726465964324504,0.806098446040447,0.802511788093168,0.685525640808621,0.584602090277805,0.582244809494334,0.580425034042491,0.567750406887716,0.581265149870969,0.579702356631885,0.57837338025111,0.580142752425081,0.580416942005803,0.587730070419455,0.591385326152132,0.592589189324245,0.655310501482389,0.662977800797794,0.682261998045958,0.604466899892382,0.598810300616175,0.59268609759054,0.596121950629148,0.605200989943989,0.607432855313988,0.624280776447164,0.624265395144352,0.612793175897836,0.602063525365009,0.590026278549725,0.609466119380714,0.622805049979916,0.633748258859854,0.63743326644354,0.641709254571189,0.658344882618731,0.658273879703419,0.642066873665919,0.61133470662699,0.587695885527237,0.589239889573841,0.62057774302235,0.634576394579453,0.64513101383431,0.711948567600437,0.694969252014774,0.637806671562886,0.583618012734559,0.576964427243999,0.556711474654026,0.558423912266783,0.558955513029319,0.557259228823643,0.552690369275547,0.535533815954989,0.536573983002115,0.537378573905498,0.555713130264818,0.573059159260586,0.591346313149585,0.57992918064397,0.572004115303257,0.570475123894164,0.559665242263095,0.559440589674503,0.559235498123397,0.574759576642454,0.582948182185776,0.659127712821179,0.674507124351433,0.67785242326527,0.821056877212397,0.812948554098804,0.620909005489017,0.628865464506549,0.634207004054585,0.639901922019709,0.645146109686518,0.650019397705618,0.660311361564241,0.660065964387457,0.638909933070343,0.574264896856179,0.574942654246269,0.591609351655679,0.625402945175142,0.650565678510448,0.700342278914164,0.732826838944005
0.686603000019102,0.819164,1.03344950819719,1.02880669118622,1.0533300000412,0.55155716289755,0.549296546384322,0.563298862881039,0.64155338545367,0.702000502073168,0.811063999994299,0.973468999999722,0.625936188614704,0.614968963580526,0.595176653642821,0.619097126349535,0.692513904011853,0.729581763414404,0.821961551964035,1.08199209583622,1.14373000000106,1.22923999999972,0.774897852895721,0.774792228986934,0.773882922633483,0.791202944478791,0.844011946241993,0.905027931576254,0.940530758510522,0.989264943860483,1.01830998146563,0.97563309216126,0.966891887327111,0.904274222375298,0.878102931914935,0.878466574549513,0.897313779633544,0.949199787215961,0.969654355164153,0.970596036285776,0.949756975577123,0.939534586885485,0.900644749466519,0.914561046867643,0.961766349046254,0.973082999940999,1.05325000000014,1.3643200000086,1.30710458739253,1.36819000000047,1.1018795822219,1.09963789685398,1.12560876323435,1.15821188063203,1.22040984315401,1.29378,1.39645858358912,1.48149981382038,1.4749822452004,1.4808786394001,1.44856519783674,1.38356774698519,1.25062982660626,1.23794636894905,0.805615132531397,0.790505149019139,0.787233060963973,0.787051657486186,0.849369291257844,0.786423000000278,1.28760013989855,1.31052003452235,1.25786000003523,1.21925472139499,1.26840000002529,1.20519000001736,1.14200111505121,1.22625999999972,0.783850399365286,0.721879951123987,0.606713696415324,0.60719556625156,0.719591261518209,0.723332478647562,0.936263999999722,0.852470999999861,0.746719110890169,0.586050939213659,0.582446598507103,0.581144233891,0.561626014360168,0.600070043485755,0.61133399251609,0.584243251688534,0.58212426816969,0.581251666113063,0.569687754808838,0.559429368027921,0.585399116746319,0.679688000060635,0.612778019380071,0.756016999999722,0.588219486867812,0.588993211086316,0.590190212953847,0.600751155040317,0.552827796561167,0.598378797904615,0.624521408857737,0.624429210054811,0.603689877638989,0.604520623938295,0.577381476444218,0.582439381564839,0.58495785149827,0.623642976918396,0.623838966491371,0.627088526099054,0.658243550850304,0.658101380598256,0.659663685375854,0.635777042060941,0.566613919368667,0.566565524549019,0.565754913812728,0.61310240628924,0.633171095628268,0.756434000035647,0.678152252116287,0.574120904671712,0.56921797158891,0.509858999954567,0.554904333597243,0.576659280547996,0.604800744836834,0.623678153442389,0.605213302568602,0.526554832346191,0.526727374308001,0.49061858585732,0.545770414224271,0.543302712520288,0.608303212206851,0.576175244125755,0.57142296735703,0.636955000064161,0.501169999986345,0.55820618698925,0.555147870072258,0.542828942676311,0.558831575115126,0.645528699706203,0.690987967016264,0.683276814587442,0.877780000020781,0.832730000037262,0.589794139705605,0.591200491145842,0.618055238919599,0.619109613386629,0.581262403809235,0.59109601305452,0.670226847215821,0.659034509903334,0.623049499702031,0.573189455117597,0.562941357184552,0.564910613844535,0.604366913754476,0.61634034847718,0.71539228389936,0.811173999999722
0.649499198359831,0.850093513742687,1.01648416725298,1.01643113753736,1.01631800012877,0.601221436156205,0.555648572550474,0.568062338940455,0.635246544191219,0.680113853887299,0.753925804071938,0.784759744526501,0.615003133182485,0.612976435767393,0.607727119902796,0.611440639428086,0.658774406664706,0.732648559345795,0.796384532482566,0.840996463476715,1.09838124810289,1.10455121905152,0.828865243521331,0.774792574586206,0.774493213132968,0.780811345843422,0.86978117131865,0.901818292381667,0.93226667713562,0.996557875633913,1.00257600184726,0.987201189447717,0.927155555988047,0.895304053209717,0.878897411454763,0.879026590792257,0.913572667685264,0.960309563477292,0.969441208501556,0.96981289210492,0.960522415871334,0.955343256473266,0.910959737284075,0.912245306151739,0.943574051549017,0.997421963831764,1.10087887016209,1.25785024669243,1.28072811008093,1.30063662942808,1.10205632405683,1.10130690714887,1.11888999540166,1.14392334895766,1.23657155432195,1.24632946349385,1.13438788190136,1.13432540613127,1.13427003455823,1.13428673513304,1.13437141476096,1.13445123785936,1.23378964490717,1.23356984397772,1.05467801170437,1.04972797315922,1.03178330571976,1.02984794577197,1.04792586600386,1.05158812024061,1.27324350646231,1.26432194461316,1.22478086613326,1.20226125585705,1.18439542461125,1.16567575458277,1.13799505195325,1.12359681237163,0.807072499495625,0.730759499996714,0.618650537963969,0.611269426916588,0.660693976287203,0.68867098204521,0.722367218831876,0.753614010995064,0.729644608803466,0.584537718386826,0.583101633031216,0.582157580636235,0.584936747081138,0.599091057378812,0.605409944299342,0.594232628194527,0.587304374194074,0.575478991128428,0.570137698405897,0.570231772306969,0.580642147177713,0.588967017054693,0.599153909406005,0.613700230940112,0.583598035199842,0.579964903341384,0.575555163043685,0.570056155095741,0.563536100264515,0.609936478565447,0.624777792055429,0.624766822447866,0.610661799396235,0.596122565673942,0.578458253970595,0.580760015528516,0.58234493439641,0.599440076814662,0.64103593088512,0.645885747885147,0.658437021388645,0.658592013033404,0.659282984513233,0.600943226844604,0.567053108840264,0.566942372829008,0.56660965171477,0.605720798012121,0.616970395519756,0.692131387118562,0.66154014251449,0.588944223071262,0.555937143516569,0.546559574240655,0.569367314595601,0.584270134822509,0.602689129022487,0.618859924048668,0.613130366966342,0.527267979995101,0.527343099274289,0.514313027976908,0.527788511371106,0.536801323446698,0.551739346320341,0.566204685350846,0.58089463386885,0.601848048051579,0.587313539330861,0.569835222943956,0.552038300924195,0.550693283990692,0.553230874509852,0.602087990468887,0.639983598904354,0.669833915023461,0.823352476345822,0.798824024469253,0.615927572907969,0.617483512428952,0.617663057458318,0.616293385462747,0.613477514104025,0.61461012804419,0.65539143808939,0.656770950290843,0.637740754254947,0.585801149011551,0.577824479690635,0.574103354733886,0.595034328084639,0.602433959600466,0.640810391088714,0.52249774225649
0.621714084152418,0.938601999999861,1.01797507206617,1.01697165989929,1.01770485863028,0.62561928920482,0.546757844829848,0.580503217649156,0.629220048704663,0.660570167925035,0.712100999953552,0.985678999999722,0.597776962921067,0.593378762524987,0.574024578583909,0.59708393586522,0.627695158335427,0.735830347599125,0.771303516620897,0.810043,1.08978058122083,1.11083568586809,1.10966500130841,0.762860557497075,0.721203980003352,0.763866655580082,0.903036485561059,0.898490023142868,0.923895802733787,1.0813099999774,1.08083000002233,1.13267999999972,0.881067204876441,0.866645072818982,0.829419147393802,0.856736370755981,0.928205196786928,0.996607605891417,0.995558639201138,0.992996880842778,0.973761481552469,0.973579217801386,0.901506579327828,0.902707633578658,0.901022413618257,1.01993018353961,1.15964999999986,1.23973999995296,1.25785024912323,1.34921000002585,1.06473979156546,1.07412623631018,1.11282184342442,1.13196931097233,1.24498948334754,1.28820000003951,0.824675982041311,0.847339017959106,0.902576614751985,0.852503015676956,0.837061083335721,0.81645490098788,1.25202000004498,1.22774782417419,1.20509085620168,1.19305988689445,1.03555764105876,1.02983849199784,1.04999834077597,1.27277456706989,1.34092999999972,1.24821832607297,1.18617048482664,1.17332590257613,1.14335746354416,1.14397103074768,1.13483878944926,1.09960672550793,0.83267916223881,0.739639048876014,0.631691418006881,0.588304943533675,0.62173787678397,0.662961121234174,0.688372000011603,0.873521999999722,0.714241833011024,0.536416178505594,0.539606431332158,0.542428672806103,0.59726010580506,0.59815064758441,0.699239999999722,0.603016605256125,0.611969536818326,0.551421833993102,0.50631499993296,0.570406273100758,0.570865500152795,0.571000656184401,0.5899711176779,0.63275234960108,0.508693994316087,0.509688834017602,0.508499954552378,0.536265978817029,0.553449743799834,0.707017999999754,0.639858990813784,0.662715141139775,0.753106999999722,0.51128774272333,0.522335131866772,0.537113332499263,0.54292181138661,0.542269633888332,0.652681188267732,0.728539000000348,0.670879321556926,0.691709556125319,0.675204001102271,0.555586884561292,0.533069903679991,0.532172785161958,0.534269894062306,0.60142262394698,0.581923007259275,0.761576999999722,0.645400010588067,0.603855105465345,0.541606546334981,0.536028241567629,0.62652000006715,0.592148424565976,0.600297842586007,0.625773223593766,0.743077999999722,0.528209489116317,0.528511102934072,0.468838046014674,0.468235783213309,0.486693971523035,0.538867996924137,0.551282701507329,0.587121789328997,0.655431137670998,0.638995981797681,0.586521355669053,0.550559745761065,0.549286703735872,0.500900644013156,0.563060002851082,0.605591611099722,0.645061502479387,0.905778999999722,0.783153984372335,0.612995908738488,0.620825421162792,0.596026783469242,0.5563455685628,0.608878387854652,0.615693030899961,0.652995180957555,0.654693493465347,0.65365763445794,0.604700435438552,0.582742770832311,0.570271442724622,0.570965192818586,0.575037420463346,0.694078000038066,0.460481307780519
0.60974797651653,0.81446615368437,1.01688138120969,1.01668153725049,1.01693242270638,0.604151303466975,0.597413875711947,0.592864499399211,0.623291687868174,0.655794214431769,0.737326100300451,0.762633201925725,0.593030194342052,0.590058717847263,0.582947731293267,0.589058929371376,0.6116394254415,0.720890529179839,0.746565308472289,0.777201064562349,1.06102302421523,1.0666419414162,0.798734702185659,0.761739538505746,0.748625937688138,0.763974163763766,0.845983415123428,0.896994804079176,0.915940245143665,1.0117674746771,1.02693336053832,0.899704434431392,0.867999761112332,0.860143088598059,0.843688963082567,0.848766584471466,0.964436876037011,0.997008196943207,0.996300180439593,0.995152446923543,0.977317198857085,0.973658381050379,0.903315587451589,0.904828030316544,0.907566575754577,1.00110730948319,1.07345981284742,1.12199546305358,1.10058684303659,1.0878149757829,1.06851309351258,1.07153765290612,1.09068588755259,1.11100194261945,1.16073359143179,1.19126907268934,1.14104633089944,1.14097709924798,1.14091031371612,1.14091400629055,1.14098727196894,1.14106033919479,1.21989205274608,1.22235857513657,1.19017654121304,1.16532464366558,1.0332374784077,1.03129524284164,1.05520221660051,1.27053737877732,1.26699296793509,1.26027478603498,1.17089438103122,1.16303784687875,1.14250527851005,1.14118257361122,1.1384339632575,1.09734054012456,0.860856642079301,0.774891979810438,0.640019848760405,0.597086194263705,0.607314337583034,0.629594002381094,0.64279979290634,0.640110494414524,0.636726634680194,0.536449554934092,0.537278164624142,0.550351512282767,0.576681650153136,0.587717158898503,0.602401898952487,0.599572081622708,0.581861882555122,0.559511425130595,0.53386713528342,0.550909939280148,0.561310580169346,0.57487108663592,0.581817722475459,0.605452838450359,0.558141930388977,0.515801112374942,0.517015100015542,0.525932022481777,0.54907666118301,0.588774011373279,0.617321161821888,0.637887250171526,0.665584198350058,0.553832243022158,0.528393650078051,0.532195434529412,0.545737117316509,0.548885773037908,0.592328958330513,0.591539203171984,0.590598742649635,0.589455454157641,0.58815120200093,0.545368326794491,0.530836269072398,0.530439960566422,0.574343321871486,0.590152869911627,0.606751906135889,0.616529083112295,0.622119694190427,0.616366786843969,0.54120276231727,0.538869448591065,0.56000547189131,0.578499117648321,0.599267693711331,0.609126030137567,0.615951957026346,0.577192070522461,0.530359753970845,0.503680824769434,0.487891874534013,0.495495566875663,0.521625317973936,0.539341742957926,0.562294711480506,0.633551838528151,0.636103146572371,0.561446078153229,0.544554580530876,0.536816405304399,0.520528638142397,0.547311782245247,0.605079543657275,0.615562575070562,0.620184641155006,0.629868775108841,0.612958189429623,0.599351750908329,0.586917798717888,0.57562088989184,0.611625593454137,0.61522554866397,0.618891989738724,0.62212186968749,0.624027756789959,0.592333272257461,0.575502522680999,0.56932108082362,0.568652560309621,0.621613537927067,0.646030876732367,0.618672889702388
0.599535964650172,0.770277999978339,1.01626842548593,1.01647364504266,1.01670947836881,0.582970761299588,0.602845767293643,0.588438931395319,0.617868528656781,0.649304304794583,0.760569202351691,0.816524000034566,0.576489066732401,0.570489439893894,0.531778701742182,0.555966704729441,0.597744234979027,0.705806859533962,0.709149969724232,0.711353532905844,1.05345821849389,1.07174627052565,0.68413799996242,0.7141618330016,0.714622420972788,0.764527354921863,0.81152706819632,0.895179762202117,0.908566880057524,0.995112922504607,1.06719000004318,0.852471000000139,0.815637380977839,0.807261171519722,0.760213999967715,0.818278999952236,1.05047999998249,1.07793019470304,1.06310529050719,1.12846999999573,1.17200000000609,0.973763116295783,0.902840855198508,0.905035272667466,0.910043994832037,0.989273817948971,1.03197996196456,1.15008000005879,1.08966042534776,0.887914031216841,0.882855469778274,0.885079498983757,0.91073900002019,1.08293422099979,1.13054999999817,1.23418999996858,1.35099999999033,1.38842000003105,1.34629110997084,1.37892000007163,1.35149999998705,1.28602010482747,1.26700000002341,1.22045214854431,1.17063959763616,1.14719001626684,0.986909831862287,1.00563016808604,1.06831753176212,1.27481438220006,1.13933000000028,1.28559000002905,1.14619362515094,1.14499525542477,1.1286500055853,1.10586994159265,1.19941000000211,1.09484016804524,1.07020537167758,1.06842162981754,0.652413168518553,0.587898420056921,0.590420321966344,0.623692916538854,0.646104192309944,0.603361904310157,0.632693072364588,0.5292074838553,0.533082015665051,0.568671669882946,0.532313852991974,0.576980338691592,0.614554170187729,0.596345106146024,0.564467901245486,0.569014898175164,0.50406687405612,0.534946464467846,0.5522652001452,0.578962938087822,0.575133950475041,0.641783000032351,0.580685903461445,0.515675186059906,0.519024659380318,0.495186894015392,0.543272939521831,0.54762158128845,0.599970111040219,0.601747231474137,0.723354000008014,0.573172366097296,0.508953895349653,0.527772603971045,0.551481317284784,0.551333673636622,0.593051181709347,0.552443254659774,0.552268705319087,0.549270249615687,0.586774247848084,0.531604570649234,0.515901404385102,0.527901346106842,0.645303000010734,0.580336231285344,0.638332000079646,0.548242000000278,0.631985913673076,0.780230999999722,0.542723895176854,0.501335999915963,0.542287949991668,0.565471590701265,0.598082381536442,0.506508000000278,0.626939818415438,0.677279067329129,0.532159096460464,0.522824454903732,0.463039942563969,0.518335885657129,0.484253094564668,0.511493332101069,0.501346599449926,0.631274583204105,0.661947000073682,0.497259082219095,0.492297261474344,0.476312920472385,0.509908053574615,0.508193767022334,0.604461549580257,0.612540522440618,0.61358885075847,0.646677760926402,0.612440693520395,0.58502523309235,0.576810605584554,0.512882999958364,0.621337408580412,0.587758545932839,0.605322907116921,0.609131087419983,0.629139011755499,0.467094000000278,0.562801295430983,0.487599999997563,0.561364623317503,0.662822199966808,0.708317971016904,0.820438499999792
0.658149745641468,0.806163648063147,0.837000137199895,0.66092849482145,0.630004878164028,0.590366166967291,0.595798593112631,0.602101324387871,0.613495454314835,0.628140604954071,0.752031902274213,0.766963839347828,0.571726882308366,0.567718494750672,0.546625594086817,0.550085289153744,0.603098999142359,0.697969344785776,0.698867679147434,0.718435293214353,0.779678991922858,0.810558185545761,0.723352368182447,0.714071542718863,0.714164072593369,0.746349746018368,0.796679925692297,0.866362478467613,0.900517425803037,0.986941676220563,1.01013270986044,0.898759616765609,0.807548646220409,0.806178781249815,0.791561436327894,0.847206295575511,0.91738525689606,1.04594560428504,1.0517359022391,1.08197225416112,1.11161012604981,0.946829040867884,0.905325066765215,0.90673743493783,0.908670005038741,0.968816596122798,1.05697227171473,1.07445988394796,1.07450290518248,0.983347130842914,0.95402152601441,0.958931138562536,0.96225667820965,1.05621994266851,1.09106959465333,1.25005576162312,1.30521199469315,1.33338375069326,1.33399501537326,1.33379133821913,1.31755064128328,1.27382472826894,1.23853573186341,1.21921375415092,1.1919916448498,1.1358456929699,1.03331204909278,1.04874180470702,1.07553316776419,1.23332670718162,1.23370673915962,1.23430778521083,1.14499188490022,1.14400140315372,1.14174870435175,1.14034826224231,1.13985105319862,1.08929870758973,1.07196634411779,1.07024298670984,0.658289485811088,0.610754479276485,0.616671557153925,0.6237146903115,0.622533200935647,0.612232260574195,0.611248157665315,0.528774822430022,0.529045512609371,0.529854761991401,0.531087972466501,0.576356798138332,0.59499274647194,0.594637093760045,0.564937161865823,0.560067935804713,0.528399093259157,0.531421979605189,0.542881806609441,0.558851615506131,0.573910884213418,0.585333034572213,0.572471868113663,0.513117155762123,0.509531913647995,0.502673589618895,0.545805985021799,0.56911021412648,0.598718854315189,0.604176857435979,0.62646520692131,0.582554936143385,0.519283304728187,0.5232983814466,0.550641375156568,0.550596660028663,0.560968539018452,0.556259621238542,0.552588552339507,0.549692350763654,0.548566138296271,0.529220871578764,0.528008772405669,0.528130706482761,0.556278145905163,0.571787233736627,0.588600041766172,0.614797192860336,0.640729740289294,0.676745165097285,0.547120442380405,0.537690242384491,0.539909991799895,0.553071117467673,0.56829157519131,0.591009878527221,0.638824893554782,0.653410110859369,0.534105603714443,0.53102615071214,0.514004130472236,0.50979157621336,0.494828083105194,0.520363198858198,0.527305089904054,0.629996484144773,0.632949794593341,0.555007404265177,0.487832143616807,0.487721397452054,0.494872225470637,0.500972340239109,0.546242085763782,0.579442567715894,0.626888164286457,0.63125571598021,0.625664967935727,0.570812315802438,0.558726252668404,0.542280753893016,0.586270010331524,0.589154376769681,0.590591383366672,0.592425353739369,0.595593263332499,0.532835358612598,0.543646286390913,0.543676171305615,0.558285376446218,0.65400434256821,0.702337274568927,0.697874623682615
0.702141174066607,0.826662000021525,0.994147999999722,0.621219813916912,0.540720012564052,0.561312911672177,0.551654823525596,0.611471801515507,0.610363225978239,0.60923212405368,0.743590864373866,0.934961999999722,0.552714272490663,0.560576471311237,0.543289062051941,0.546109653948099,0.607944508163622,0.681714912542882,0.691669500850538,0.724335595490926,0.726772090357154,1.05056999999972,0.732594585800166,0.711344454188573,0.701217498929594,0.707543758967238,0.783378944911436,0.837676184383695,0.89207742195185,0.97635792501996,1.05336983549414,1.06173016457895,0.799948135228706,0.802253676734267,0.758982999946965,0.875772520755816,0.868523035099448,1.0361201363715,1.0408008087326,1.04394628096479,1.17266000000106,0.918608654861266,0.885566060175471,0.885006710381204,0.884169306073493,0.947510920066302,1.08467296843238,1.07437114768255,1.07445097642208,1.13966000000329,0.944525280168023,0.969825997530049,0.967977534099752,1.03073326957454,1.04793999996818,1.28488166655479,1.28480833344704,1.33238675622818,1.33436542092896,1.33325907602466,1.2975596811065,1.26269926623241,1.21687703300836,1.21803757116026,1.2442700000589,1.1214198538327,1.0036699999396,1.06329095365066,1.07998731620442,1.23316474434565,1.41584999999972,1.23524406969926,1.13982304718728,1.14472099902125,1.17863488674017,1.17841528569627,1.1400129033619,1.08226327986376,1.07618341758442,1.10613020859181,0.666606616663005,0.600121889311759,0.622954409290649,0.623332417276377,0.620705362268988,0.657268947518231,0.597855793822416,0.514048444798479,0.516832712068251,0.465549999964882,0.518837288708919,0.574689783419536,0.64179700003292,0.593009471653551,0.56482252234968,0.551917783445079,0.525813625412728,0.519713134108073,0.529889400204889,0.531742437513865,0.574152542229835,0.596565808267395,0.563098024910804,0.511720745377871,0.4930020524385,0.470717865504756,0.548781786127307,0.586202761482357,0.598152469982014,0.606514831242665,0.665812000074914,0.592354885975753,0.507749669915154,0.51982954532833,0.566461019926798,0.51215699989006,0.566373981637552,0.618552195039902,0.594105241285477,0.659972999999809,0.548404417762405,0.526844783122569,0.526151326728046,0.519845484172694,0.501577093010767,0.503323372381175,0.524886215090243,0.653330571665025,0.652647565027055,0.757087999999722,0.552329204327821,0.535567986773263,0.510820712028672,0.516410713341615,0.507679490704043,0.630872000021214,0.756891296416525,0.756282296416525,0.540208618530395,0.54212548213241,0.518205628803359,0.502061933116998,0.476228695378857,0.526865510097655,0.542049242776727,0.626181761188079,0.635609419776907,0.635773433144443,0.484355403720483,0.455314125538365,0.452710616123036,0.487936678822216,0.489266106698133,0.556228066787903,0.638567274832395,0.638681528439359,0.662337151387081,0.54018929008514,0.543388378040072,0.525440622580753,0.582911963144874,0.621375390919239,0.555802853479216,0.590650099091032,0.600021384564095,0.52170279846761,0.542204305976571,0.542378631898116,0.556534117917407,0.644872907274854,0.739646094020846,0.694223561307501
0.711078056138881,0.859499789111432,0.890307273971738,0.590375947689642,0.542865964670678,0.545509920619131,0.548520917799373,0.59696844149539,0.599967550501819,0.617229418563029,0.748096171681205,0.779475908258814,0.575686016349218,0.569930839611199,0.545095819283083,0.545903608572268,0.621876626666148,0.675686820666861,0.684682713904482,0.704188939634437,0.764882223079925,0.787186620890893,0.716499764351086,0.708591735365908,0.703769027314825,0.706210143318569,0.758667823428508,0.844284073772666,0.883157902642754,0.997698083082723,1.03862902015673,1.04509986015473,0.802339975018041,0.80362566332561,0.806693705325978,0.86585155400891,0.867330229413237,0.963456415778138,1.01025608511651,1.03605886994656,1.07284729826183,0.914016894965615,0.885466588583862,0.885151448632195,0.884758597253676,0.938686667480638,1.05965296981049,1.06892534133316,1.06299116281417,1.06010023485333,0.954173584036111,0.959615667250257,0.962532075397352,1.00708200821023,1.0792695152555,1.10538244502589,1.13264887531064,1.1615669059754,1.33720937266887,1.33565672536077,1.31659194700303,1.25637083252467,1.20035150756478,1.17920904801796,1.15752882906485,1.08609354884246,1.05496445603931,1.07006555157566,1.08362642828641,1.22624272650439,1.24220242092728,1.20094484402086,1.14743238160774,1.14607480595275,1.15250610727822,1.1577607870904,1.10675019697516,1.07921601884276,1.07449119447693,1.06937789912315,0.70426587593695,0.608952141643764,0.614831142581442,0.626285115672463,0.627794628514382,0.640234989788401,0.571898701386504,0.533396121606936,0.51874399539534,0.519667142606085,0.519303031248994,0.581719531973808,0.586935149255009,0.589212866410159,0.571897599382838,0.569264742187656,0.524782345386132,0.523975536981682,0.527783992504465,0.52955655443298,0.576277302751513,0.590657587861844,0.55065045176661,0.512301076697482,0.500328375741682,0.491581221017784,0.52873605008735,0.590791875967168,0.598415548817945,0.622373088015291,0.637284245155531,0.555178539779862,0.514506958626106,0.517671599824158,0.537083777908776,0.548281062799554,0.555963313437699,0.549031075052109,0.543500507697397,0.540581173005878,0.538036977009038,0.533028755043676,0.519205163666248,0.516438576992009,0.500737163283661,0.501209687249892,0.51460761598335,0.652652346951324,0.651840016193314,0.648658774358846,0.597616606032622,0.535814511358274,0.535138751747313,0.535559622003241,0.535411865718216,0.590603579456443,0.756135888078165,0.755932888078165,0.539378551047341,0.524105263986081,0.512455785407191,0.508047502069098,0.521038306628323,0.533561933284936,0.544601849311915,0.620790852666203,0.632953745465493,0.634103290007372,0.482311422058157,0.461528392253806,0.465378558041977,0.489515392425967,0.502413520647368,0.527268499943408,0.533809230521256,0.550629346613077,0.544091789877011,0.543230413610577,0.544409258945933,0.545294335362958,0.571451249866136,0.601124613111054,0.589575203469071,0.581855848209467,0.565496720307304,0.530608253425045,0.541411163317097,0.54091706786761,0.555805227968449,0.629793987905192,0.664651772651337,0.694965846418659
0.719308622462749,0.946249906256275,0.966923093743308,0.559595020948176,0.47976953473294,0.477000686152566,0.487760163896289,0.587490525506061,0.592143049363117,0.627351055570551,0.753122371427442,0.931852999999722,0.589091154230125,0.576222272140737,0.524872999993543,0.49688299996059,0.636928273783968,0.657358043828414,0.670421306416431,0.675839718749343,0.814147920355302,0.824446144663511,0.702233095757435,0.694266693742439,0.666345386972695,0.687293213349088,0.729126954755962,0.850212529561715,0.869976895311344,1.00875985749729,1.02705654277788,1.05251047491096,0.7813508692974,0.801689286344331,0.808225031551686,0.865079033776817,0.850958724147496,0.929486000024979,0.985731860068894,1.02877145280688,1.23829999999972,0.908732603815258,0.828934999948688,0.857198341762765,0.829137999948985,0.929601984160413,1.04064984902703,1.1131100000339,1.06009735380444,1.05398996071041,0.895880554949831,0.904353272573097,0.947587919685166,0.984557432331897,1.13256000001649,1.03704932834957,1.01507097733801,1.02134842769844,1.34007099285948,1.35078018910948,1.33260981097066,1.25106057937985,1.16780009005623,1.15743559778542,1.14191986309309,1.01637146087277,1.01557693141273,1.07768958979738,1.09045638704283,1.21980115737594,1.29509000001822,1.1643599410167,1.1482807845445,1.13592624455734,1.105840072041,1.16438975110024,1.07416006178597,1.03759810482953,1.04932438499352,1.06282998846996,0.922143999999861,0.572194666643029,0.572641333248679,0.629311449767156,0.716040166723031,0.715516833309578,0.538831325980936,0.553676794122724,0.519340725399184,0.520811852493367,0.409334000000278,0.584957644965137,0.585272361657386,0.587555120141088,0.589858520512144,0.583559483235007,0.441989646486067,0.462389651395729,0.481881409544762,0.478805272169871,0.579606967821805,0.598087198436781,0.538935984149596,0.515213304967656,0.519866602312351,0.472821499097774,0.510681908457677,0.597979497928132,0.598482214892595,0.632629083972601,0.669262207987238,0.495112142045292,0.48105885783485,0.502664223275623,0.491815818717977,0.566246585920037,0.565934315431006,0.480863999952157,0.527892886478865,0.51706658345789,0.515830178185016,0.537334015915662,0.500746059388724,0.492504686885125,0.444064999342157,0.442752998307216,0.482745866270025,0.663028535210542,0.653608213230135,0.645564577855571,0.645368410516945,0.458898999970454,0.533203062289613,0.534664074440162,0.533959490543311,0.562464000013128,0.828941833333125,0.830225166666458,0.540181272264273,0.466456103818463,0.476706298588638,0.487388483812706,0.55479083977508,0.541348887270871,0.548622940662365,0.60766781986613,0.629597461450324,0.745757000002294,0.481818099871459,0.447167813137973,0.469593026225545,0.491151163663077,0.519967572576568,0.521533863051943,0.482251999936386,0.559442488022127,0.527199139934272,0.476942999928263,0.530430630168205,0.549429791644636,0.560743820328757,0.615456159625115,0.642382000052554,0.569814762066362,0.546279888709385,0.506586991105711,0.54076223189987,0.536972497880235,0.554360709419376,0.614751034971474,0.614622909213983,0.78446426141936
0.650328007647076,0.661654351374735,0.561031509908752,0.528716884732351,0.480055473914989,0.478786503601617,0.483776014518335,0.560879210932124,0.582274259745538,0.667794246168044,0.763194739092731,0.769166458823654,0.641270449107628,0.610846328988376,0.557237942885957,0.549434157626636,0.595168181041587,0.650379223720259,0.660106435824026,0.6876118208858,0.817035245177104,0.820423170315377,0.694299478558229,0.690232607449595,0.676224531366466,0.681719296952076,0.737659033940114,0.839305948855019,0.857108968960255,1.02678641891721,1.02946071597111,1.03844768535858,0.796362696044891,0.798273463991726,0.800284608535622,0.840442133145756,0.852179638916999,0.910548159205549,0.96124555247314,1.05010898626415,1.05924790756139,0.914122251294527,0.881416376726723,0.881144993376775,0.880351313470782,0.931058844852145,0.979627264229344,1.00048819785099,1.03756926858891,1.03928227854526,0.899343812659524,0.902047968917077,0.931535920439433,0.962796584868489,0.993319298920052,1.02841820505576,1.02223207798268,1.0770251350109,1.34007945492494,1.34946040258961,1.28317765654246,1.13177994212307,1.103438788729,1.0773761232778,1.05316082771115,1.01780549629584,1.01916075159318,1.09819696629642,1.09916050442478,1.20277790305514,1.18748004278039,1.18152350781881,1.15266184098839,1.12339471577707,1.098854608865,1.08103847521519,1.06249959897316,1.03969519926188,1.03918898684493,1.0382989583208,0.635083291673564,0.596948034425363,0.614917866946356,0.631989203943722,0.661337628504575,0.676881805680515,0.534078487012015,0.531551219636221,0.518785312430303,0.519235793493429,0.530130018774029,0.575510275216521,0.559188611067598,0.551038980677301,0.53341891823121,0.514296359210094,0.459803312417196,0.469210436400052,0.484068399761572,0.508359084469098,0.542227829168726,0.5614622545767,0.520816088932506,0.514503658037876,0.508266688662384,0.49808965435235,0.502738184426448,0.545107344972159,0.58786174072785,0.648007637271377,0.658738523294192,0.522582265274442,0.522836025342091,0.52338202996227,0.523506516074431,0.560061519203741,0.559336082383244,0.541930278702793,0.537301098130697,0.511447363932044,0.50387440999911,0.496836615237784,0.490173933384549,0.486225539078371,0.480029313166932,0.482250497846641,0.498579733795234,0.659200044083815,0.656227319174203,0.653279108946343,0.649199044562995,0.513801561451305,0.520131722734522,0.524331230576365,0.527485746689442,0.539991762470717,0.583504908971733,0.581106147268948,0.541791280175553,0.471794146919042,0.47359035202841,0.481185446181599,0.509309582665265,0.53348574766195,0.535439620913498,0.606286579642295,0.659289938972551,0.685373976096027,0.482515163454608,0.480240622109133,0.492486833641749,0.499495312769842,0.521399924665655,0.522940716592405,0.525531401869935,0.52719653448503,0.527671805972762,0.517261776880723,0.524001224332178,0.534317238692657,0.543519747454029,0.551095552113483,0.555680335216202,0.559044395885561,0.552491080668326,0.548940180821311,0.539947552877088,0.538757788817505,0.548666068227872,0.581726279007017,0.657159478577127,0.784505555986115
