1.77597907653359,1.77446248347826,1.77561937177047,1.77368474344989,2.03938018064185,1.7729556121733,1.77304310792649,1.77469580548678,0,1.77227508964847,1.77101126210237,1.82254626073225,1.77100154035202,1.77334448218748,1.77050573108393,1.86723714711247,1.83429013516064,1.83607893722589,0,1.76919329478606,1.76800724124279,1.87347851084014,1.86422340450253,1.86043192186423,1.86189990616778,1.77007797406833,1.87184525678056,1.76798779774208,0,1.86307623796069,1.77032101782719,1.76731699696761,1.86852041815928,1.81641183625848,1.86689688585006,1.81578964423578,1.7690766337818,1.76928079053925,0,1.767190614213,1.76629621318038,1.76673369194634,1.76783224973641,1.76956272129953,1.76821139800024,1.93773928068422,1.98785490376232,1.83176248006844,0,1.91081003220191,1.90875874287708,1.98870069604318,1.99275466594106,1.90480199048275,1.99515593827865,1.91149055472673,1.90455894672388,1.82765990141878,0,1.9006119160799,1.90181741312388,1.8247628198131,1.91675002166858,1.98907984430701,1.89933836678345,1.91718750043454,1.91862631948703,1.89668432893663,0,1.89618851966855,1.99792663712972,1.91828605822461,2.00132924975384,1.92122202683171,1.91908324175369,1.91744026594376,1.8192991961138,1.92026929529696,0,1.92155256634377,1.92158173159483,1.89404973459053,1.8954691101423,1.89477886586713,1.99764470636943,1.99839328114674,1.90022304606572,1.8970343119494,0,1.89954252354089,2.00095010149001,1.90115633409976,1.83083891378475,1.92788142582463,1.90918649989268,1.83658446824433,1.84080370789824,1.92190254935654,0,2.02942510827871,1.9797177987155,1.99110196838077,1.97867757142756,1.90184657837494,1.97760817888855,1.90186602187565,1.97471109728287,1.9760332553311,0,1.90223544838913,1.97850257992117,1.97847341467011,1.90058275082884,1.90149659536217,1.89760789522032,1.98872986129424,1.97722903062472,1.98883680054814,0,1.97572215931975,1.97732624812826,1.90467560772814,1.90574500026715,1.99328936221056,1.99917102117511,1.90665884480048,1.90754352408275,1.9922102479212,0,1.99847105514958,1.99017840209708,2.00137785850561,1.99135473388999,1.98567723168289,1.91263772126858,1.99083948112119,1.98827293902757,1.98742714674672,0,1.99165610815098,1.99245329168006,2.00176672851979,2.01699098957514,2.0284626549936,2.00789143124321,2.00287500806022,1.91855826723454,2.00828030125739,0,2.00134869325455,2.00480963638079,2.01594104053684,2.00241808579355,1.99440736350134,1.99232690892545,1.91909296350405,2.00235003354107,1.99519482528007,0,1.99538926028716,1.92023040829554,2.01970335792408,1.92001652978774,1.9963225483212,1.92169839259909,1.99401849348716,2.0220560215099,2.00795948349569,0,1.99853910740206,1.99719750585312,1.99818912438929,1.99840300289709,1.92175672310122,2.00067789248008,2.00339998257937,2.00431382711271,2.0015722935127,0,2.02829738523757,2.01128432211697,1.86636218958055,2.04565070962058,1.86548723204864,1.86006249535075,1.86160825365714,1.86324150771672,1.8605874698699,0,1.91034338818488,1.90769907208843,1.85937225107558,1.86178324516352,1.85956668608267,1.86094717463302,1.860480530616,1.85926531182167,1.91870409348986,0,1.91722638743596,1.91825689297355,1.86349427322594,1.86322206421601,1.86355260372806,1.86329983821884,1.91567090737922,1.86353316022736,1.86076246137629,0,1.86160825365714,1.86397063899331,1.86329983821884,2.03996348566312,1.95727999889702,1.94082107554664,1.86381509098764,1.86066524387274,1.86315401196353,0,1.86087912238054,1.85964446008551,2.03733861306737,1.90716437581892,1.94833598857077,1.94675134326296,1.85354892261315,1.8540738971323,2.03152500635531,0,1.8534322616089,1.853023948094,1.856368230216,1.78772295096198,1.78499113911233
0,0,0,0,0,0,0,0,0,0,0,0,0,0,0,0,0,0,0,0,0,0,0,0,0,0,0,0,0,0,0,0,0,0,0,0,0,0,0,0,0,0,0,0,0,0,0,0,0,0,0,0,0,0,0,0,0,0,0,0,0,0,0,0,0,0,0,0,0,0,0,0,0,0,0,0,0,0,0,0,0,0,0,0,0,0,0,0,0,0,0,0,0,0,0,0,0,0,0,0,0,0,0,0,0,0,0,0,0,0,0,0,0,0,0,0,0,0,0,0,0,0,0,0,0,0,0,0,0,0,0,0,0,0,0,0,0,0,0,0,0,0,0,0,0,0,0,0,0,0,0,0,0,0,0,0,0,0,0,0,0,0,0,0,0,0,0,0,0,0,0,0,0,0,0,0,0,0,0,0,0,0,0,0,0,0,0,0,0,0,0,0,0,0,0,0,0,0,0,0,0,0,0,0,0,0,0,0,0,0,0,0,0,0,0,0,0,0,0,0,0,0,0,0,0,0,0,0,0,0,0,0,0,0
1.77931363690522,1.77666932080876,1.77780676560026,1.77570686752366,1.77662071205699,1.77741789558607,1.77624156379316,1.77372363045131,0,1.77448192697897,1.77259590741018,1.87356600659333,1.77256674215911,1.77339309093926,1.82017415364572,1.77350003019316,1.85822508453373,1.76994186956336,0,1.76908635553216,1.76947522554634,1.76986409556053,1.76989326081159,1.76965021705272,1.87126195175928,1.77061267033783,1.82594887335637,1.82648356962587,0,1.86674133784438,1.76951411254776,1.76995159131372,1.86522474478906,1.7663351001818,1.76775447573357,1.81710208053366,1.76965993880308,1.77039879183003,0,1.76984465205982,1.76916412953499,1.76986409556053,1.81918253510955,2.01629102354961,1.77050573108393,1.77245008115486,1.77426804847117,1.83353183863298,0,1.99558369529425,1.91341546129695,1.98798128651693,1.99303659670134,1.99454346800631,1.9066977318019,1.91360017455368,1.91266688651964,1.90243960514657,0,1.82929315547836,1.98933260981623,1.90057302907848,1.9916949951524,1.8980842609877,1.92024985179625,1.89804537398628,1.89677182468982,1.89728707745862,0,1.92009430379057,1.82130187668686,2.00092093623894,2.0011445364971,1.89415667384443,1.8943997176033,1.89372891682883,1.89696625969692,1.92377884717498,0,1.89333032506429,1.81752011579891,1.89407889984159,1.89501218787564,1.89390390833521,1.89391363008556,1.89539133613947,1.89547883189266,1.82208933846558,0,1.90108828184728,1.90277014465863,1.92700646829271,1.82993479100177,1.90825321185864,1.83438735266418,1.92582041474945,1.91651669966007,1.92249557612817,0,2.0177492861028,2.00457631437228,1.97547911556088,1.90124382985295,1.98885624404885,1.97891089343607,1.97623741208854,1.98260515857083,1.98194407954671,0,1.98030110373678,1.98168159228714,1.90305207541891,1.90169103036927,1.90241043989551,1.90439367696785,1.99178249090559,1.9787747889311,1.97798732715238,0,1.99261856143609,1.97825953616231,1.9042770159636,1.98946871432119,1.99065476786446,1.98156493128288,1.98325651584459,1.98739798149566,1.99219080442049,0,1.98952704482332,1.98961454057651,1.98267321082331,1.98858403503892,1.98468561314672,2.00156257176235,1.98901179205452,1.99029506310133,1.98943954907013,0,1.98855486978786,2.01493970025031,2.00515961939356,1.91733332668986,1.91440707983312,2.00096954499072,2.00544155015384,2.00638455993824,1.99221996967155,0,2.01126487861627,1.99624477431837,1.91957905102178,2.00506240189001,1.99143250789283,1.91989986878348,1.99822801139071,1.99649753982759,2.01206206214534,0,1.99838355939638,2.01832286937372,1.99491289451978,1.9207748263154,1.99649753982759,2.00166951101625,1.99576840855099,1.99746971486305,2.00142646725738,0,1.99932656918078,1.99974460444603,2.00295278206306,2.00154312826164,2.00107648424462,1.99850994215099,2.00532488914959,1.9947379030134,1.99835439414532,0,2.01174124438364,1.99773220212262,1.86646912883445,1.86444700476069,1.86490392702736,1.86349427322594,1.95876742670128,1.86017915635501,1.86347482972523,0,1.85840007604011,1.85830285853657,1.85886672005713,1.86060691337061,1.86049025236636,1.85967362533657,1.85882783305572,1.86006249535075,1.8609957833848,0,1.860781904877,1.8617249146614,1.86198740192097,1.86296929870679,1.86441783950963,1.86343594272381,1.95468429155234,1.86084023537912,1.86402896949544,0,1.86317345546423,2.02785990647161,1.86412618699899,1.86307623796069,1.86154020140466,1.86274569844863,1.86139437514934,1.86230821968267,1.85903198981316,0,1.90885596038063,1.9075338023324,1.85938197282593,1.90739769782743,1.85522106367415,1.85792371027274,1.85621268221032,2.03924407613688,2.03798024859078,0,1.85532800292805,1.85366558361741,1.85241147782166,1.78880206525134,1.78401896407686
1.78004276818182,1.77911920189813,1.77457914448252,2.03918574563475,2.0428605672688,1.87508259964865,1.77664987730806,1.77645544230096,0,1.77489024049387,1.77517217125415,1.77214870689386,1.7731694906811,1.77566798052224,1.87032866372524,1.82312956575353,1.77303338617613,1.7735972476967,0,1.77294589042294,1.82070884991522,1.77256674215911,1.77070016609102,1.77050573108393,1.87088280349545,1.87133972576212,1.77237230715202,1.8685593051607,0,1.7694849472967,1.76996131306407,1.87084391649403,1.76945578204563,1.8742368073678,1.7701265828201,1.76808501524563,1.86487476177629,1.77060294858748,0,1.81769510730529,1.77120569710946,1.86651773758623,1.94324179138494,1.94717910027857,1.82039775390388,1.8219143469592,1.90946843065297,1.91416403607425,0,1.91256966901609,1.99489345101907,1.98872013954389,1.99401849348716,1.90657134904729,1.99720722760347,1.90674634055367,1.90404369395509,2.0115565311269,0,1.99226857842332,1.90047581157494,1.82663911763155,1.82525862908119,1.90016471556359,1.90023276781607,1.89862867900756,1.90008694156075,1.90024248956643,0,1.92178588835228,1.92368162967143,1.92380801242604,1.81927003086274,1.92326359440618,1.89401084758911,1.82027137114927,1.8938844648345,1.82314900925424,0,1.89208594101889,1.89372891682883,1.81861867358898,1.89336921206571,1.89332060331393,1.89441916110401,1.89667460718628,2.00091121448859,1.82346010526558,0,1.82626969111807,1.90316873642317,1.90550195650828,1.90580333076927,1.92814391308421,1.83538869295071,2.01115793936236,1.91745970944447,1.92792031282605,0,2.00213615503327,1.98398564712118,1.98252738456799,1.9963225483212,1.98033026898784,1.97893033693678,1.97833731016514,1.9822454538077,1.97798732715238,0,1.98006778172827,1.90252710089976,1.90288680566288,1.9029256926643,1.90146743011111,1.90387842419906,1.98109828726586,1.99186026490843,1.98102051326302,0,1.99477679001482,1.98621192795239,1.98472450014813,1.90583249602034,1.97736513512968,2.00236947704178,1.99534065153539,1.90751435883169,1.9077476808402,0,2.00822197075527,2.0080858662503,1.98482171765168,1.99524343403184,1.98787434726303,1.91403765331964,1.98942982731977,1.99743082786163,1.98889513105027,0,1.99752804536518,1.91638059515511,1.9949517815212,2.00423605310987,2.0058790289198,1.99517538177936,2.01471609999216,1.92085260031824,1.91853882373383,0,2.00254446854816,1.99608922631269,2.00186394602334,2.01198428814251,2.02690717493686,2.00816364025314,1.92067760881185,1.99781969787582,2.00887332802903,0,2.00973856381059,2.0018931112744,2.00480963638079,1.99655587032971,2.00573320266448,2.00400273110136,1.99289077044602,1.99585590430418,1.99762526286872,0,1.92213587136505,1.99942378668433,1.99994876120348,2.00134869325455,2.00130008450277,2.00015291796093,1.92425521294235,2.00199032877795,1.99951128243752,0,1.99771275862192,2.02459339835246,1.86400952599473,2.02969731728864,1.8613166011465,1.86160825365714,2.05527524247166,1.86202628892239,2.02840432449147,0,1.85777788401742,1.86123882714366,1.86016943460465,2.04175228772838,2.05433223268726,1.95624949335943,1.86055830461884,1.86087912238054,1.86171519291104,0,2.03186526761772,2.03106808408864,1.86186101916636,2.03030006581062,1.86107355738763,1.86490392702736,1.86291096820466,1.95076642615942,1.91341546129695,0,1.86563305830396,2.02974592604041,2.02894874251133,2.03902047587872,1.86386369973941,1.86397063899331,1.86221100217913,1.86346510797487,1.86050969586707,0,1.94656663000622,1.85837091078905,1.85565854244011,2.04447437782767,1.85955696433231,1.90446172922033,1.85485163716067,1.85421000163727,1.85423916688833,0,1.85382113162308,1.85466692390394,1.85635850846564,1.78701326318609,1.83399848265
1.77974139392083,2.02756825396097,1.77774843509813,1.77690264281728,1.77741789558607,1.77793314835487,1.77931363690522,1.77328615168535,0,1.86872457491673,1.8749659386444,2.04712841567448,1.77660126855628,1.77570686752366,1.86010138235217,1.77511384075202,1.82457810655637,1.77418055271798,0,1.77124458411088,1.82292540899608,1.77163345412507,1.7722264808967,1.82050469315778,1.77406389171372,1.77402500471231,1.77035018307826,1.77105987085414,0,1.77080710534492,1.85881811130536,1.77290700342152,1.88673897832385,1.88710840483733,1.86696493810254,1.77287783817046,1.82046580615636,1.82119493743296,0,1.77212926339315,1.77253757690805,1.94416535766863,1.85341281810819,1.85428777564011,1.927288399053,1.82324622675778,1.90818515960616,1.90859347312105,0,1.90784489834374,1.9171097264317,1.90997396167141,1.99576840855099,1.90687272330828,1.91465012359198,1.90679494930545,1.90186602187565,1.90345066718345,0,1.90250765739905,1.90038831582175,1.92061927830972,1.90021332431536,1.90157436936501,1.89689820744443,1.82200184271239,1.8976565039721,1.89775372147564,0,1.89718985995507,1.89753984296784,1.89691765094514,1.8199213881365,1.99772248037227,2.00180561552121,1.99996820470419,1.99999736995525,1.89655794618202,0,1.89473997886571,1.92565514499342,1.89468164836358,1.89572187565153,1.82044636265565,1.82025192764856,1.82077690216771,1.89865784425862,1.9037617631948,0,1.82452949780459,1.9280175303296,1.82835986744432,1.83081947028404,1.90942954365155,1.93094377718634,1.91442652333383,2.00312777356944,1.92691897253952,0,2.00512073239214,1.99296854444886,1.99167555165169,1.90391731120048,1.97844424941905,1.90202156988132,1.97956225070983,1.98515225716374,1.99447541575382,0,1.90305207541891,1.90332428442884,1.90335344967991,1.90330484092813,1.90454922497353,1.90380065019622,1.97883311943323,1.99809190688575,1.98218712330558,0,1.99500039027297,1.90557973051112,1.98264404557224,1.98467589139636,1.98905067905594,1.9927449441907,1.90844764686573,2.01173152263329,1.91024617068134,0,2.00517906289427,1.98881735704743,1.9945240245056,2.00207782453114,2.01084684335102,2.0123926016574,1.91228773825581,2.00966078980775,1.9914811166446,0,1.9915880558985,1.99019784559779,1.99084920287155,1.99151028189566,2.0080858662503,2.00564570691129,1.99171443865311,2.01558133577372,2.00956357230421,0,1.99535037328574,1.99571979979922,2.00161118051412,2.00434299236377,2.01079823459924,1.99525315578219,2.0091358152886,1.99780025437511,1.92197060160902,0,1.92055122605724,1.99649753982759,1.99637115707298,1.99529204278361,2.01356893345031,1.99696418384461,1.9946309637595,1.99774192387298,2.00459575787299,0,2.00270001655384,2.00396384409994,1.99588506955525,2.00287500806022,2.00039596171979,1.99916129942475,2.00007514395809,2.00842612751271,1.99750860186447,0,2.02028666294536,1.99920018642617,2.02910429051701,1.86423312625289,2.0291917862702,1.86197768017062,1.86084995712948,1.86068468737345,1.86113188788976,0,1.85807925827841,1.85692236998621,1.95502455281475,1.95729944239773,1.8595375208316,2.02914317751842,1.85801120602593,1.86102494863586,1.86050969586707,0,1.86014026935359,2.03522899324042,1.95626893686014,2.03197220687162,1.8640386912458,1.8642525697536,1.86366926473232,1.95397460377645,1.86658578983871,0,1.86374703873516,1.8614235404004,1.86512752728551,1.91152944172815,1.91029477943311,1.86427201325431,2.04850890422484,1.86137493164863,1.8630956814614,0,1.86073329612522,1.85974167758905,1.85643628246848,2.03967183315249,2.03325547791843,1.85493913291387,1.85346142685996,1.85345170510961,2.02750992345885,0,1.85114765027556,1.85370447061883,1.85104071102166,1.78659522792084,1.78592442714637
1.78237598826693,1.77986777667544,1.78047052519742,1.78287179753502,1.77942057615912,1.77817619211373,1.87472289488553,1.77611518103855,0,1.7758040850272,1.77620267679174,1.87705611497064,1.77606657228678,1.77671792956054,1.77615406803997,1.77677626006267,1.77746650433784,1.77604712878607,0,1.77385001320592,1.87319658007985,1.8829572174359,1.77456942273217,1.82280874799182,1.82492808956913,1.77560965002011,1.77488051874351,1.82058246716061,0,1.77273201191514,1.77350975194351,1.82090328492232,1.82096161542444,1.87004673296496,1.77177928038039,1.77294589042294,1.77228481139883,1.7743263789733,0,1.94886096308992,1.77333476043713,1.77469580548678,1.77280978591798,1.82259486948402,1.82376147952658,1.77325698643429,1.91726527443738,1.9115391634785,0,1.91081003220191,1.91022672718063,1.91483483684872,1.8329485336117,1.83196663682588,1.90727131507282,1.90745602832956,1.82845708494786,1.90457839022459,0,1.82922510322588,2.01205234039499,1.82624052586701,1.90024248956643,1.90006749806004,1.82504475057339,1.9000772198104,1.82409201903863,1.8239073057819,0,1.8979773217338,1.90103967309551,1.89491497037209,1.92675370278349,1.99862660315525,1.82043664090529,1.92356496866718,1.8950413531267,1.82039775390388,0,1.92639399802037,1.89421500434656,1.89638295467564,1.82009637964288,2.02598360865317,1.92843556559484,1.89654822443167,1.92878554860761,1.92851333959768,0,1.90115633409976,1.90207990038345,1.90189518712671,1.93368531078634,1.93373391953812,1.91162665923169,1.84085231665001,1.93050629842038,1.9318090129679,0,2.02020888894252,2.0027291818049,1.90445200746998,1.99706140134816,1.90465616422743,1.97816231865876,1.98388842961764,1.98572584043466,1.97538189805734,0,1.90683383630686,1.90247849214799,1.90300346666714,1.90366454569126,1.90451033797211,1.97838591891692,1.97713181312117,1.97894978043749,1.90698938431254,0,1.98879791354672,1.98394676011976,1.90706715831537,2.00466381012547,2.00941774604889,1.90811710735367,1.99785858487723,1.98488004815381,1.98358705535664,0,1.91099474545864,1.91097530195793,1.99760581936801,1.91352240055085,2.00462492312405,1.98965342757793,2.01821593011982,1.9916949951524,1.99101447262758,0,1.99084920287155,2.01024409482903,2.00505268013966,2.01642712805457,2.0105940778418,1.99987098720064,2.00497490613682,2.00227225953824,2.00922331104179,0,1.99434903299921,1.99703223609709,1.99603089581056,2.01099266960634,2.00949552005172,1.92153312284306,1.92259279363171,2.01464804773968,1.92158173159483,0,2.00647205569143,2.01558133577372,1.99833495064461,2.00186394602334,1.99888909041482,1.99844188989851,2.00827057950704,2.00269029480348,1.99931684743043,0,1.99779053262475,2.00530544564888,2.0023014247893,2.00409022685455,1.99939462143327,2.00225281603753,2.00013347446022,1.99814051563752,1.99950156068717,0,1.99792663712972,1.86549695379899,1.91395987931681,1.86430117850537,1.8642525697536,1.86302762920891,1.91029477943311,1.90902123013665,1.90762129808559,0,1.90737825432672,1.85790426677203,1.85807925827841,1.95956461023036,1.85881811130536,1.85702930924011,1.85888616355784,1.85747650975642,1.85892505055926,0,1.8576320577621,1.86295957695643,1.8617249146614,1.91377516606007,1.91217107725155,1.91243356451113,1.86433034375643,1.86382481273799,1.8650011445309,0,1.86470949202027,1.86473865727133,1.91345434829836,1.9271814597991,1.91198636399482,1.8618318539153,1.8641456304997,1.86033470436068,1.86001388659898,0,1.86045136536494,1.85818619753231,1.85982917334224,1.85670849147841,2.03623033352695,1.85634878671529,1.85515301142167,1.85463775865287,1.85277118258478,0,1.85025324924294,1.85339337460748,1.85334476585571,1.86689688585006,1.78562305288538
0,0,0,0,0,0,0,0,0,0,0,0,0,0,0,0,0,0,0,0,0,0,0,0,0,0,0,0,0,0,0,0,0,0,0,0,0,0,0,0,0,0,0,0,0,0,0,0,0,0,0,0,0,0,0,0,0,0,0,0,0,0,0,0,0,0,0,0,0,0,0,0,0,0,0,0,0,0,0,0,0,0,0,0,0,0,0,0,0,0,0,0,0,0,0,0,0,0,0,0,0,0,0,0,0,0,0,0,0,0,0,0,0,0,0,0,0,0,0,0,0,0,0,0,0,0,0,0,0,0,0,0,0,0,0,0,0,0,0,0,0,0,0,0,0,0,0,0,0,0,0,0,0,0,0,0,0,0,0,0,0,0,0,0,0,0,0,0,0,0,0,0,0,0,0,0,0,0,0,0,0,0,0,0,0,0,0,0,0,0,0,0,0,0,0,0,0,0,0,0,0,0,0,0,0,0,0,0,0,0,0,0,0,0,0,0,0,0,0,0,0,0,0,0,0,0,0,0,0,0,0,0,0,0
1.78061635145274,2.03123335384467,2.05297118763761,1.78198711825275,1.78255097977331,1.78007193343288,1.78102466496764,2.0296195432858,0,1.77751511308962,2.02806406322906,1.77750539133926,1.77909975839742,1.77709707782437,1.7789539321421,2.0420050532376,1.77393750895911,1.77568742402295,0,1.77652349455345,1.77776787859884,1.7745402574811,1.7762123985421,1.77489996224422,1.86063607862168,1.82361565327126,1.82347954876629,1.86600248481743,0,1.77291672517188,1.77579436327685,1.82287680024431,1.82297401774785,1.87067864673801,1.7747541359889,1.771604288874,1.77387917845699,2.03181665886595,0,1.77287783817046,1.77529855400876,1.77521105825557,1.82304207000033,1.77635822479742,1.77699986032082,1.9469360565197,1.83590394571951,1.99112141188148,0,1.91714861343312,1.90979897016502,1.90895317788417,1.91757637044873,1.90750463708133,1.90805877685155,1.90731992382459,1.90702827131396,1.90744630657921,0,1.90338261493097,1.90140909960898,1.99488372926872,1.90177852612246,1.90466588597778,1.89964946279479,1.89882311401465,1.89788010423025,1.8979773217338,0,1.92536349248278,1.8964996156799,1.82081578916913,1.81980472713224,1.89755928646855,1.89683015519195,1.89522606638344,1.89415667384443,1.89620796316926,0,1.89408862159195,1.89430250009975,1.8949344138728,2.01517302225882,1.92747311230974,1.92763838206576,1.82350871401736,1.92919386212251,1.9015549258643,0,1.93019520240903,1.92953412338492,1.90412146795792,1.93080767268137,1.93093405543598,2.00589847242051,2.00501379313824,1.9192096245083,1.84668536686279,0,2.04109120870426,1.98096218276089,1.98090385225877,1.98077746950416,2.00519850639498,1.99906408192121,1.98041776474103,1.98086496525735,1.98411202987579,0,1.98501615265877,1.90387842419906,1.90418952021041,1.90377148494516,1.98193435779636,1.98397592537083,1.98049553874387,1.98767019050559,1.98597860594388,0,1.98389815136799,1.99207414341623,1.90773795908984,2.00015291796093,1.90996423992105,2.00161118051412,2.00489713213398,1.99898630791837,2.00592763767158,0,1.91322102628985,1.91116973696503,1.98874930479495,1.98872013954389,1.98802989526871,2.0216282644943,1.99048949810843,1.9915880558985,2.01923671390706,0,1.99151028189566,2.01230510590421,2.01567855327727,1.99356157122049,2.01482303924606,2.00960245930562,2.02091857671841,2.01673822406592,2.01148847887442,0,2.0025153032971,1.99575868680064,2.00547071540491,2.01195512289144,1.9936879539751,1.99812107213681,2.01069129534534,1.92375940367427,2.00546099365455,0,2.00858167551839,1.99899602966873,2.00574292441484,1.99711001009993,2.00191255477511,1.99937517793256,1.99860715965454,2.00076538823327,1.9992585169283,0,2.0050429583893,2.00266112955242,2.0059859681737,2.00406106160349,2.00481935813115,2.00637483818789,1.92500378771966,2.00085288398646,2.00025013546447,0,1.99914185592405,1.865195579538,1.86361093423019,1.86203601067274,1.91058643194375,1.90989618766857,1.85969306883728,1.85930419882309,1.907961559348,0,1.9738264180006,1.90697966256218,1.90673661880332,1.8562807344628,1.86129715764579,1.94427229692253,2.04269529751277,1.85892505055926,1.85955696433231,0,1.95850493944171,1.86006249535075,2.04976301002059,1.86297902045714,1.86157908840608,1.86388314324012,2.0283557157397,2.05280591788159,1.86469977026991,0,1.86351371672665,1.95480095255659,1.86492337052807,1.92937857537924,1.91358073105297,2.04176200947873,2.04532017010852,2.02891957726027,1.86106383563728,0,1.86052913936778,1.9092253868941,1.90765046333665,1.90670745355225,1.90594915702459,1.90526863449977,1.95499538756368,1.8543752713933,1.8512254242784,0,1.9002910983182,1.84959217021882,1.84673397561456,1.78674105417616,1.78665355842297
1.78428145133644,1.78351343305842,1.83201524557766,1.8305278177734,1.78246348402012,1.78166630049104,1.7832606675492,1.7800038811804,0,1.78016915093643,1.78123854347544,1.88036151009121,1.77955668066409,1.77944001965983,1.77902198439458,1.95132056592964,2.02772380196665,1.86779128688268,0,2.04840196497094,1.77472497073784,1.77945946316054,1.77712624307543,1.77691236456763,1.77638739004848,1.82548222933935,1.82539473358615,1.87040643772808,0,1.87486872114085,1.77630961604564,1.77644572055061,1.86542890154651,1.87197163953517,1.86042220011388,1.77333476043713,2.02243516977373,1.77704846907259,0,1.77597907653359,1.77659154680593,1.77473469248819,1.77701930382153,1.77740817383572,2.04081899969433,1.7768540340655,1.91043088393808,1.91599172514092,0,1.91791663171114,1.83642892023866,1.91134472847141,1.90860319487141,1.90792267234658,1.90770879383878,1.90843792511538,1.90552140000899,1.90475338173097,0,1.90537557375367,1.99821828964036,1.9031201276714,1.90410202445721,1.90304235366856,1.82645440437481,1.90384925894799,1.90087440333948,1.92738561655654,0,1.90095217734231,1.82295457424714,1.89799676523451,1.92587874525158,1.82149631169395,1.89663572018486,1.89718985995507,1.89719958170543,1.89673293768841,0,1.89684959869266,1.82003804914076,1.93016603715797,1.89534272738769,1.8957704844033,1.89771483447422,2.00750256122902,1.9013410473565,1.90120494285153,0,1.9315951344601,1.82916677272375,1.9302243676601,1.90622136603452,1.91074197994942,1.91122806746715,1.91373627905865,1.92113453107852,1.84849361242875,0,2.03504427998368,2.01854646963188,1.98467589139636,1.98469533489707,2.00132924975384,1.98074830425309,2.01834231287443,1.98104967851408,1.90654218379622,0,1.98559945768005,1.98453006514104,1.90614359203169,1.90558945226147,1.90518113874658,1.90631858353807,1.98139966152685,1.98314957659068,1.98109828726586,0,1.98212879280345,1.98207046230132,1.98814655627296,1.9984224463978,2.00168895451696,1.90980869191538,2.00196116352689,2.01062324309286,2.00498462788718,0,1.9127835475239,2.01222733190137,1.91396960106716,1.99236579592687,1.9916949951524,1.91440707983312,1.99120890763467,1.9950587207751,1.99475734651411,0,1.99283243994389,2.00937885904747,1.99482539876659,1.9192096245083,2.01248009741059,2.01031214708151,1.9947379030134,1.99518510352971,1.99565174754673,0,1.99784886312688,1.99550592129142,2.00859139726874,1.99679891408858,2.00212643328292,2.01646601505599,1.99805301988433,2.00323471282334,2.01515357875812,0,2.00634567293682,1.91712916993241,2.00898026728293,1.99808218513539,2.00751228297938,2.00771643973683,2.00480963638079,2.00525683689711,1.92496490071824,0,2.01061352134251,2.00652066444321,2.00248613804604,2.00373052209143,2.00331248682618,2.00417772260774,2.0011445364971,2.00051262272405,2.00850390151555,0,1.99951128243752,1.95685224188142,1.95452874354666,1.91137389372247,1.86155964490537,1.90899206488559,1.9442139664204,1.94845264957502,1.97754984838642,0,1.97722903062472,1.85998472134792,1.86011110410253,1.85750567500749,1.8576320577621,1.85861395454791,1.85892505055926,1.85981945159189,1.95745499040341,0,2.05234899561492,1.86168602765998,1.86114160964012,2.04916998324895,1.86302762920891,2.04570904012271,1.86245404593799,1.86246376768835,2.04881027848583,0,1.91405709682035,1.91416403607425,1.9158458988856,1.86666356384155,1.86398036074367,2.04135369596383,1.86450533526282,1.86168602765998,2.04217032299362,0,2.026362756917,1.85777788401742,1.85972223408834,1.90715465406857,1.90593943527424,1.9042770159636,1.90349927593523,1.85474469790677,1.85212954706138,0,1.90290624916359,1.85051573650251,1.78844236048822,1.78765489870949,1.98878819179637
1.78495225211091,1.78309539779317,1.89031658245435,1.78460226909814,1.83338601237766,1.95744526865305,1.78046080344707,1.87700750621887,0,1.87879630828412,1.78101494321728,1.77778732209955,1.77862339263004,1.82838903269538,1.78202600525416,1.78006221168253,1.78023720318891,1.77749566958891,0,2.0388552061227,1.8812656328742,1.77844840112366,1.87684223646284,1.87464512088269,1.77791370485416,1.77655265980451,1.77648460755203,1.77444303997756,0,1.87323546708127,1.77439443122578,1.77444303997756,1.77488051874351,1.77268340316337,1.77401528296195,1.87743526323447,1.77623184204281,1.77704846907259,0,1.77766093934494,1.7754832672655,1.94457367118353,1.77823452261586,1.9427362603665,1.94233766860196,1.94356260914664,1.99394071948432,1.9135321223012,0,1.91761525745014,1.9117530419863,1.91130584146999,1.90913789114091,1.90801016809977,1.90825321185864,1.92259279363171,1.92422604769129,1.90776712434091,0,1.99828634189284,1.90466588597778,1.90226461364019,1.92455658720335,1.90153548236359,1.92555792748987,1.92379829067569,1.90107856009692,1.90032026356926,0,1.92588846700193,1.8969273726955,1.93014659365726,1.92990354989839,1.92899942711541,1.93066184642605,1.89636351117493,1.8949344138728,1.8968204334416,0,2.0058790289198,1.93064240292534,1.823498992267,1.89465248311252,1.89754956471819,1.8987258965111,1.90366454569126,2.0218421430021,1.90286736216218,0,1.93419084180478,1.90366454569126,1.9099545181707,1.91058643194375,1.93443388556365,2.02978481304183,2.01546467476946,1.93352004103031,1.85042824074932,0,2.0270918881936,2.00848445801484,1.98031082548713,1.98259543682047,1.99879187291128,2.00235975529143,1.99570035629851,1.9810885655155,1.98125383527153,0,1.90735881082601,1.90504503424161,1.90473393823026,1.90597832227566,1.9074268630785,1.90709632356644,1.98145799202898,1.98262460207153,1.99205469991552,0,1.98266348907295,1.98232322781054,1.98177880979068,2.00327359982476,1.97569299406869,2.00468325362618,1.91122806746715,2.0091358152886,1.91158777223028,0,1.91203497274659,2.0078719877425,1.99534065153539,2.01190651413967,1.99849049865029,1.99467957251127,1.91613755139624,2.01165374863045,2.00885388452832,0,1.99440736350134,1.99498094677227,1.99469901601198,1.99565174754673,2.01937281841202,2.01132320911839,1.99533092978503,1.99670169658503,1.9217178360998,0,2.02261988303047,2.02033527169713,2.01846869562904,2.0046152013737,2.007035917212,1.92353580341611,1.99795580238078,2.0126939759184,2.00898026728293,0,2.00831918825881,2.02699467069005,2.00583042016803,2.01455083023613,1.99953072593823,2.01387030771131,1.99927796042901,1.99979321319781,1.99857799440348,0,1.99859743790419,2.00017236146164,1.9994723954361,2.00500407138789,2.00485824513257,2.00499434963753,2.00151396301057,2.01008854682336,2.01524107451131,0,1.99999736995525,2.00012375270986,1.86377620398622,1.91273493877212,1.91255022551538,1.91060587544446,1.91053782319198,1.94403897491402,1.97913449369422,0,1.90865180362318,1.90683383630686,1.90595887877495,2.04890749598938,1.85903198981316,1.85839035428976,1.8606749656231,1.95116501792396,1.85979028634082,0,1.85769038826423,1.86040275661317,1.86101522688551,1.86024720860749,1.86344566447416,1.86286235945289,1.86421368275218,1.86473865727133,1.86351371672665,0,1.86416507400041,1.91501955010546,1.86693577285148,1.86628441557771,1.86679966834651,1.86511780553516,1.94016971827288,1.86423312625289,1.94869569333389,0,1.86155964490537,2.05068657630428,1.85710708324295,1.85744734450536,1.85701958748976,1.90418952021041,1.85660155222451,2.03948711989575,2.04201477498795,0,1.85654322172238,1.85142958103585,1.84725895013371,1.8411342474103,1.85580436869543
1.78636190591233,2.05605298250003,1.88093509336214,1.78548694838041,1.78607025340169,1.88573763803732,1.78333844155204,1.78321205879743,0,1.78309539779317,1.89734540796075,1.89841480049976,1.83010006075779,1.7811607694726,1.78022748143856,1.78171490924282,1.78325094579885,1.77773871334777,0,1.77953723716338,2.03968155490284,1.87995319657632,1.7785261751265,1.77934280215629,1.77915808889955,1.87694917571674,1.77337364743855,1.87657974920326,0,1.87406181586142,1.77662071205699,1.77759288709245,1.77813730511231,1.87489788639191,1.77803036585841,1.82609469961169,1.86216239342735,1.82594887335637,0,1.82699882239467,1.82641551737339,1.77879838413643,1.8685593051607,1.77866227963146,1.77668876430947,1.8278057276741,1.78045108169671,1.91167526798347,0,1.92028873879767,1.9126960517707,1.83662335524575,1.91056698844304,1.83750803452802,1.83516509269255,1.92336081190973,1.90986702241751,1.91021700543027,0,1.92359413391824,1.92401216918349,2.0023014247893,1.92433298694519,1.90190490887707,1.90089384684019,1.90717409756928,1.90485059923452,1.90100078609409,0,1.90098134259338,1.90194379587849,1.93035075041471,1.89836619174798,1.82363509677197,1.89707319895082,1.89684959869266,1.89747179071536,1.82359620977055,0,1.89807453923734,1.89628573717209,1.89611074566571,1.89497330087422,1.8245489413053,1.93195483922322,1.89816203499054,1.89737457321181,1.90258543140189,0,1.90294513616501,1.82934176423013,1.90708660181608,2.01071073884605,2.01800205161202,1.93370475428705,1.92071649581327,1.92137757483739,2.01095378260492,0,2.010078825073,2.03065977057375,1.90787406359481,1.9823523930616,1.98159409653394,1.98421896912969,1.98409258637508,2.00938858079782,1.98414119512686,0,1.90805877685155,1.90745602832956,1.90736853257637,1.9072324280714,1.9061824790331,1.90779628959197,1.98723271173963,1.98904095730559,1.9837037163609,0,2.00369163509001,1.98422869088005,1.99822801139071,1.98315929834104,2.0018736677737,2.00119314524887,1.91349323529978,1.91265716476929,1.99596284355808,0,1.99343518846588,1.99615727856518,1.99994876120348,2.00153340651128,2.00885388452832,2.00872750177371,2.00188338952405,1.99127695988715,2.00137785850561,0,1.99453374625595,1.99453374625595,1.99455318975666,2.00404161810278,1.9952725992829,1.99503927727439,1.9949517815212,1.99535037328574,2.00754144823044,0,1.9974599931127,1.99769331512121,2.03197220687162,1.99511705127723,2.01021492957797,2.01578549253117,1.9989376991666,1.99787802837794,1.9978877501283,0,1.99718778410277,2.02456423310139,1.92520794447711,2.00497490613682,1.99990015245171,2.01229538415386,2.01770067735103,1.99825717664177,2.01198428814251,0,2.00635539468718,2.00441104461625,2.00354580883469,2.0048290798815,2.00258335554958,2.00722063046874,2.00228198128859,2.00172784151838,1.99967655219355,0,2.00441104461625,1.86443728301034,1.86434006550679,1.8632026207153,1.86329011646849,1.9103822751863,1.94726659603176,1.94754852679204,1.85758344901032,0,1.85937225107558,1.85726263124862,2.0494810792603,1.85830285853657,1.86013054760324,1.85749595325713,1.85664043922593,1.94894845884311,1.94797628380764,0,1.85839035428976,1.85908059856494,1.8580598147777,1.86075273962593,1.86339705572239,1.86184157566565,2.03490817547872,1.86047080886565,1.86504003153232,0,1.86438867425856,2.02933761252552,1.91405709682035,1.86464143976778,1.92112480932816,1.91506815885723,1.91404737507,1.8609957833848,1.86205545417345,0,1.86185129741601,2.03639560328298,2.04555349211703,2.02270737878366,2.01956725341912,1.90598804402601,2.03649282078652,1.85412250588408,1.85496829816493,0,1.85352947911244,1.85106015452237,1.78974507503574,1.84406049426704,1.88205309465292
0,0,0,0,0,0,0,0,0,0,0,0,0,0,0,0,0,0,0,0,0,0,0,0,0,0,0,0,0,0,0,0,0,0,0,0,0,0,0,0,0,0,0,0,0,0,0,0,0,0,0,0,0,0,0,0,0,0,0,0,0,0,0,0,0,0,0,0,0,0,0,0,0,0,0,0,0,0,0,0,0,0,0,0,0,0,0,0,0,0,0,0,0,0,0,0,0,0,0,0,0,0,0,0,0,0,0,0,0,0,0,0,0,0,0,0,0,0,0,0,0,0,0,0,0,0,0,0,0,0,0,0,0,0,0,0,0,0,0,0,0,0,0,0,0,0,0,0,0,0,0,0,0,0,0,0,0,0,0,0,0,0,0,0,0,0,0,0,0,0,0,0,0,0,0,0,0,0,0,0,0,0,0,0,0,0,0,0,0,0,0,0,0,0,0,0,0,0,0,0,0,0,0,0,0,0,0,0,0,0,0,0,0,0,0,0,0,0,0,0,0,0,0,0,0,0,0,0,0,0,0,0,0,0
1.83729415602022,1.78817015147829,1.7880826557251,1.78761601170807,1.78632301891091,1.78443699934211,1.8864278823125,1.78588554014495,0,1.88558209003165,1.85010742298762,1.83281242910673,1.78434950358892,1.83148054930815,1.78450505159459,1.78237598826693,1.78226904901303,1.78173435274353,0,1.7815690829875,1.78075245595771,1.88150867663306,1.77962473291657,1.78014970743572,1.78241487526835,1.77812758336196,1.77856506212792,1.77677626006267,0,1.87288548406851,1.77707763432366,1.77688319931657,1.87060087273517,1.77991638542721,1.82605581261027,1.82662939588119,1.82750435341311,1.82680438738758,0,1.82782517117481,1.82767934491949,1.94836515382183,1.94767490954665,1.94717910027857,1.93273257925159,1.83006117375638,1.82994451275212,1.99608922631269,0,1.91477650634659,1.91430986232957,1.91437791458205,1.91344462654801,1.91800412746433,1.92107620057639,1.91031422293382,1.92420660419058,1.83256938534787,0,1.90479226873239,1.92471213520902,1.92521766622746,1.90418952021041,1.90355760643735,1.90104939484586,2.00154312826164,1.90047581157494,1.82679466563722,0,1.90016471556359,1.90077718583593,1.89839535699905,1.89720930345578,1.82377120127693,1.8238198100287,1.89820092199196,1.93409362430124,1.82270180873792,0,1.93119654269556,1.89574131915223,1.82066996291381,1.93146875170549,2.0115565311269,1.82518085507835,1.89928975803167,1.8268627178897,1.82790294517765,0,2.00989411181626,2.00919414579073,1.93387974579344,2.01210094914676,1.83677890325142,1.91536953311823,1.91522370686291,2.03449986196382,1.93388946754379,0,2.01557161402336,2.0083872405113,1.9095267611551,1.98558001417934,1.98136077452543,1.90732964557495,1.99648781807723,2.00487768863328,1.90737825432672,0,1.90747547183027,1.90686300155793,1.90837959461325,1.90739769782743,1.90964342215935,1.90908928238914,1.98814655627296,1.99924879517795,1.98511337016232,0,1.98433563013395,1.98512309191267,1.98508420491125,1.98756325125168,1.91147111122602,2.0121787231496,2.01198428814251,2.00138758025596,1.99257967443467,0,1.98859375678928,1.97878451068146,2.01141070487158,1.91727499618773,2.00441104461625,1.99986126545029,2.00745395247725,2.00053206622476,1.9182666147239,0,1.918461049731,2.00207782453114,2.00657899494534,2.00816364025314,2.00533461089994,2.00487768863328,2.02174492549855,1.99950156068717,1.9991515776744,0,2.0183714781255,1.92248585437781,2.00065844897937,1.9996862739439,2.01463832598932,1.92384689942746,1.99749888011411,2.01362726395244,2.00514017589285,0,1.99945295193539,1.92442048269838,2.00768727448576,1.99876270766022,2.00557765465881,2.00205838103043,1.9244593696998,2.00226253778788,2.00898026728293,0,2.00484852338221,1.9991515776744,2.00152368476093,2.00234031179072,2.0052373933964,2.00514017589285,2.00197088527724,2.00726923922051,2.00228198128859,0,2.00106676249426,2.00068761423043,1.86625525032665,1.86345538622452,1.86235682843445,1.91133500672106,1.85831258028692,1.96045901126299,1.95796052142185,0,1.8595375208316,1.85844868479189,1.85774871876635,1.85770011001458,1.8572237442472,1.85747650975642,1.95939934047433,1.85881811130536,1.85686403948408,0,1.90663940129977,1.8581667540316,1.90852542086857,1.86052913936778,1.9441070271665,1.91130584146999,1.8632026207153,1.8620457324231,1.86440811775927,0,1.86607053706991,2.0296195432858,1.91492233260191,1.91425153182744,1.86438867425856,1.8641456304997,1.9476651877963,1.94836515382183,1.86402896949544,0,1.85988750384437,1.857738997016,1.85796259727415,1.85455998465003,2.02670301817941,1.85447248889684,2.02876402925459,2.03635671628156,1.85306283509542,0,1.85192539030393,1.85344198335925,1.78982284903858,1.78781044671517,1.86389286499048
1.79152415535063,1.79010477979886,1.83735248652235,1.7888312305024,2.03569563725744,1.88685563932811,1.78682854992935,1.88416271447987,0,1.787888220718,1.78678966292793,1.83414430890532,1.83635114623582,1.78342593730523,1.78461199084849,1.78605080990098,2.03872882336809,1.7798969419265,0,1.78082050821019,1.78232737951516,1.87263271855929,1.78010109868395,1.78267736252792,1.78022748143856,1.77913864539884,1.88449325399193,1.88119758062171,0,1.77951779366267,1.87676446246,1.77710679957472,1.87272021431248,1.77904142789529,1.77836090537047,1.77639711179884,1.77760260884281,1.82909872047127,0,1.8291570509734,1.86286235945289,1.8639511954926,1.95536481407716,1.78296901503856,1.94924011135375,1.95069837390694,2.00065844897937,1.99961822169142,0,2.00138758025596,1.91243356451113,1.91558341162603,1.91702223067851,1.83673029449965,1.92470241345867,1.92502323122037,1.90810738560332,1.83466928342447,0,1.9070185495636,1.92546070998633,1.92734672955513,1.9068046710558,1.83041115676914,1.90165214336785,1.82641551737339,1.93091461193527,1.93073962042889,0,2.02955149103332,1.90100078609409,2.00448881861909,1.82395591453367,2.01986862768011,1.82338233126275,2.02866681175105,1.90218683963735,1.90030082006855,0,1.89738429496217,1.89705375545011,1.93480331207712,1.93822536820195,1.90244932689693,1.90250765739905,1.93528939959486,2.00785254424179,2.01943114891415,0,2.01802149511273,1.90366454569126,1.93711708866153,1.90750463708133,1.84121202141313,1.93718514091401,1.84518821730817,1.92089148731965,1.93631990513245,0,2.03115557984183,1.99427125899638,1.99442680700205,1.98406342112402,1.98473422189849,1.9853953009226,1.98555084892828,1.98216767980487,1.91103363246006,0,1.91009062267566,1.90779628959197,1.9095267611551,1.90941982190119,1.90824349010828,1.9843453518843,1.98542446617367,1.98515225716374,1.99520454703042,0,2.00531516739923,1.98317874184175,2.00196116352689,1.99549619954106,1.98810766927154,1.98757297300204,1.97744290913252,1.9774040221311,2.00486796688292,0,1.98135105277508,1.99828634189284,1.9159528381395,2.01198428814251,2.00214587678362,1.91744026594376,1.9182666147239,2.00878583227584,1.92083315681753,0,2.01117738286307,1.92024985179625,2.02769463671558,1.92158173159483,1.92342886416221,2.00179589377086,2.01161486162903,1.99834467239497,1.99874326415951,0,2.01541606601769,2.00162090226448,2.00769699623612,2.00541238490278,2.00497490613682,1.99889881216518,2.00066817072972,1.99833495064461,2.00716229996661,0,1.99932656918078,1.99829606364319,2.00331248682618,2.00906776303612,2.00836779701059,1.9975863758673,1.99775164562333,2.00028902246589,1.99978349144745,0,2.00059039672688,2.00107648424462,2.00281667755809,2.00531516739923,2.00290417331129,2.00289445156093,2.00180561552121,1.99909324717227,1.99910296892263,0,2.01808954736521,2.03635671628156,1.86402896949544,1.86316373371388,2.05617936525464,1.86046108711529,1.86175407991246,1.95370239476652,1.9502997821424,0,1.90610470503027,1.85787510152096,1.8551238461706,1.85652377822167,1.95088308716368,1.85802092777628,1.85952779908125,1.85695153523727,1.90731992382459,0,1.90766018508701,1.94510836745303,1.94435979267572,1.90741714132814,1.86151103615359,1.91133500672106,1.86305679445998,1.86374703873516,1.86119021839189,0,2.03106808408864,2.05231983036385,2.04505768284895,2.05204762135392,2.04278279326597,2.03206942437517,1.94837487557218,2.03500539298226,1.86024720860749,0,1.85915837256777,2.0278404629709,2.06262488573976,1.85318921785003,2.02771408021629,1.85473497615642,2.02568223439218,2.02443785034678,1.853325322355,0,1.85156568554081,1.94695550002041,1.78650773216765,1.78640079291375,1.78444672109247
1.79301158315489,1.79143665959744,1.79231161712936,1.78995895354354,1.786517453918,1.788189594979,1.78766462045985,1.78950203127687,0,1.78776183796339,1.78942425727404,1.78628413190949,1.83479566617908,1.78552583538183,1.78537028737616,1.78636190591233,2.04606874488583,1.78288151928537,0,1.78275513653076,1.78285235403431,1.83057642652517,1.83060559177623,1.82981812999751,1.83015839125992,1.78247320577048,1.77893448864139,1.77846784462437,0,1.88390994897065,1.78013998568537,1.86828709615077,1.77762205234352,1.77917753240026,1.77899281914352,1.87677418421036,1.78024692493927,1.78112188247118,0,1.85707791799188,1.86543862329686,1.86618719807417,1.78281346703289,1.78297873678892,1.78303706729105,1.78288151928537,1.9240316126842,1.9149028891012,0,1.91784857945866,2.0049360191354,1.91588478588702,1.91729443968844,1.83805245254788,1.83739137352376,1.90941982190119,1.90910872588985,1.83473733567695,0,2.00521794989569,1.91032394468417,1.90897262138488,1.83129583605141,1.92821196533669,1.90038831582175,1.93165346496223,1.93094377718634,2.01913949640351,0,1.82733908365708,1.93107015994095,1.82773767542162,1.90009666331111,1.90150631711253,1.89838563524869,1.8984050787494,1.82469476756062,1.8237128707748,0,1.89785093897919,1.82324622675778,2.01187734888861,1.90146743011111,1.90068969008274,1.90088412508983,1.90268264890544,1.90404369395509,1.90360621518913,0,2.0116634703808,1.93760317617926,2.01114821761201,1.93646573138777,1.91332796554375,1.91485428034943,1.93753512392678,1.84842556017627,2.03199165037233,0,2.02812239373119,1.98476338714955,1.98476338714955,1.98497726565735,1.91148083297638,1.98546335317509,1.91116973696503,2.00072650123185,2.00118342349852,0,1.91177248548701,1.91098502370829,1.90882679512956,1.9102753359324,1.9814968790304,1.98634803245736,1.99534065153539,1.98482171765168,2.00360413933682,0,2.00777477023895,2.00783310074108,1.91290020852815,1.99476706826446,1.98819516502474,2.00957329405456,2.00170839801767,1.91535981136787,2.00529572389852,0,2.01173152263329,2.0080858662503,2.00894138028151,1.91684723917213,2.00815391850278,2.01106072185882,1.91744998769412,1.99918074292546,1.92090120907001,0,1.92058039130831,2.02561418213969,1.99857799440348,2.01540634426734,2.0077650484886,1.99896686441766,1.99924879517795,2.01506608300492,2.00500407138789,0,2.0015722935127,1.99949183893681,1.99843216814816,1.99802385463326,2.0090288760347,2.00836779701059,1.99983210019922,2.01899367014819,2.0071428564659,0,1.99780025437511,2.00025013546447,2.00147507600916,2.00796920524605,1.9986363249056,2.00112509299639,2.00026957896518,2.00185422427299,2.0025153032971,0,2.00414855735668,2.00142646725738,2.00425549661058,2.00436243586448,2.00743450897654,2.00469297537654,2.0060929074276,2.00042512697086,2.00017236146164,0,2.0009306579893,1.912375234009,1.91607922089411,1.86053886111813,1.95762026015943,1.86302762920891,1.85999444309827,1.85990694734508,1.90873929937637,0,1.85809870177912,2.03280827740212,1.85688348298479,1.85587242094791,1.85744734450536,1.85748623150678,1.85829313678621,1.85834174553798,1.85854590229543,0,1.86027637385856,1.90695049731112,1.86047080886565,1.90832126411112,1.86146242740182,1.86198740192097,1.86160825365714,2.0299403610475,1.86520530128835,0,1.8641456304997,1.86680939009686,2.05501275521209,2.05051158479789,2.02672246168012,1.86207489767416,2.0616527107043,1.86302762920891,2.05091989831279,0,1.85882783305572,1.85947919032948,1.85719457899614,1.85475441965713,1.85485163716067,2.027733523717,1.85442388014507,1.85500718516635,2.03141806710141,0,1.85134208528265,1.85084627601457,1.83766358253369,1.83671085099894,1.78650773216765
1.79398375819036,2.03961350265036,1.79229217362865,1.79119361583858,1.79070752832085,1.7898811795407,1.78708131543857,1.78714936769105,0,1.78773267271233,1.88652509981605,1.78949230952652,1.87872825603164,1.88047817109547,1.88488212400612,1.88457102799477,1.78606053165133,1.88687508282881,0,1.78404812932793,1.83089724428687,1.7829398497875,1.78311484129388,1.780733012457,1.78307595429246,1.82980840824716,1.780733012457,1.88234474716356,0,1.88370579221321,1.7798969419265,1.77975111567118,1.78225932726267,1.87078558599191,1.88314193069264,1.78286207578466,1.78357176356055,1.77745678258749,0,1.82950703398616,1.83115973154645,1.83182081057056,1.78235654476622,1.83307491636631,1.78286207578466,1.78448560809388,1.78595359239743,1.91638059515511,0,1.91557368987567,1.91566118562887,1.92455658720335,1.92386634292817,1.92719118154945,1.83984125461313,1.92736617305584,1.92834806984165,1.93005909790407,0,2.00673454295101,1.83331796012518,1.91001284867283,1.90521030399764,2.00769699623612,1.90430618121466,1.93352004103031,2.00584986366874,1.90307151891962,0,1.90114661234941,1.82725158790389,1.93362698028421,1.82467532405991,1.93712681041188,1.90148687361182,1.90028137656784,1.82464615880885,1.89963974104444,0,1.89804537398628,1.93685460140195,1.9002910983182,1.93774900243458,1.89944530603735,1.90107856009692,1.82743630116063,1.90351871943594,1.90542418250544,0,1.9392655954899,2.01487164799783,2.0174284683411,1.83535952769965,1.9443014621736,1.91875270224164,2.01599937103897,1.85068100625854,1.93738929767146,0,2.0257211213936,1.99044088935665,1.98793267776516,2.00812475325172,2.00098898849142,2.0050429583893,2.01468693474109,1.98613415394955,2.00065844897937,0,1.91124751096786,1.9132113045395,1.91061559719481,1.98690217222757,1.98152604428146,1.98526891816799,1.9859105536914,1.9906450461141,1.98730076399211,0,2.00517906289427,1.98812711277225,1.98767991225594,1.98795212126587,2.00424577486022,1.98963398407722,1.98605637994672,1.98462728264459,1.99900575141908,0,1.99095614212545,1.99079087236942,1.9895950970758,2.01483276099641,1.99533092978503,1.91882075449412,1.92005541678916,2.01163430512974,1.92085260031824,0,1.92106647882604,2.0021944855354,1.99900575141908,1.99784886312688,1.9987238206588,2.00006542220774,2.00072650123185,1.99919046467582,2.0080858662503,0,1.92378856892533,2.01440500398081,2.00833863175952,1.99864604665596,2.01309256768293,1.92520794447711,2.00601513342477,2.00453742737086,2.0052373933964,0,2.00590819417087,2.03062088357233,2.00928164154392,2.00232086829001,1.99979321319781,2.00152368476093,1.92522738797782,1.92516905747569,1.9251885009764,0,2.00074594473256,2.00478047112973,2.00467353187583,2.00163062401483,2.00238892054249,2.00307916481767,1.99913213417369,1.99804329813397,1.99838355939638,0,2.00088204923752,1.86467060501885,1.865195579538,1.95433430853957,1.86049025236636,1.86087912238054,1.86364009948126,2.0517948558447,1.96085760302753,0,1.96047845476369,1.85715569199472,1.85663071747557,1.85610574295642,1.85481275015926,1.85957640783302,1.85694181348692,1.85879866780465,2.0420244967383,0,2.04075094744185,2.05094906356385,1.95664808512397,1.85999444309827,1.86173463641175,1.86359149072948,1.86179296691388,1.86366926473232,1.86311512496211,0,1.86354288197771,1.86194851491955,1.86189990616778,1.86350399497629,1.8626873679465,1.86061663512097,1.85982917334224,2.02847237674395,1.85964446008551,0,1.86030553910962,1.85761261426139,1.85788482327132,1.9060755397792,2.0415967397227,1.85639739546706,1.85384057512379,1.85372391411954,1.85356836611386,0,1.85052545825286,1.84913524795215,1.78983257078893,1.78930759626978,1.78596331414779
0,0,0,0,0,0,0,0,0,0,0,0,0,0,0,0,0,0,0,0,0,0,0,0,0,0,0,0,0,0,0,0,0,0,0,0,0,0,0,0,0,0,0,0,0,0,0,0,0,0,0,0,0,0,0,0,0,0,0,0,0,0,0,0,0,0,0,0,0,0,0,0,0,0,0,0,0,0,0,0,0,0,0,0,0,0,0,0,0,0,0,0,0,0,0,0,0,0,0,0,0,0,0,0,0,0,0,0,0,0,0,0,0,0,0,0,0,0,0,0,0,0,0,0,0,0,0,0,0,0,0,0,0,0,0,0,0,0,0,0,0,0,0,0,0,0,0,0,0,0,0,0,0,0,0,0,0,0,0,0,0,0,0,0,0,0,0,0,0,0,0,0,0,0,0,0,0,0,0,0,0,0,0,0,0,0,0,0,0,0,0,0,0,0,0,0,0,0,0,0,0,0,0,0,0,0,0,0,0,0,0,0,0,0,0,0,0,0,0,0,0,0,0,0,0,0,0,0,0,0,0,0,0,0
1.7960739345166,1.79456706321163,2.06567751535111,2.05841536783621,1.79265187839177,2.05518774671847,1.79117417233787,1.79286575689957,0,1.79067836306978,1.78832569948396,1.78900622200879,1.79012422329957,1.78938537027262,1.78782989021588,1.78715908944141,1.78451477334495,1.7859827576485,0,1.83296797711241,1.8731868583295,1.78442727759176,1.78259958852509,1.83351239513227,1.78053857744991,1.77993582892792,1.88378356621604,1.88436687123732,0,1.78274541478041,1.78123854347544,1.78349398955771,1.78278430178183,1.78343565905559,1.78411618158041,1.88146978963164,1.88266556492526,1.95588006684596,0,1.78213294450807,1.78401896407686,1.78308567604282,1.78352315480878,1.78103438671799,1.87077586424155,1.78602164464992,1.84472157329115,1.93117709919485,0,2.00258335554958,1.91653614316078,1.84171755243157,1.91435847108134,1.91347379179907,2.00293333856235,1.93167290846294,1.92900914886577,1.93143958645442,0,1.90763101983594,1.90655190554658,2.00561654166023,1.83372627364007,1.93174096071542,1.90759213283452,1.90428673771395,1.90520058224729,1.90657134904729,0,1.90357704993806,1.93678654914947,1.90706715831537,1.93516301684025,1.90294513616501,1.82624052586701,1.93724347141614,1.8986189572572,1.82446144555211,0,1.9000772198104,1.89916337527706,1.93841008145869,1.94038359678068,1.90070913358345,1.90202156988132,1.93998500501614,1.94011138777075,1.90496726023878,0,1.90600748752672,1.9378073329367,1.91341546129695,1.90895317788417,1.93870173396933,1.8461895575947,1.84772559415073,1.850282414494,2.0126939759184,0,2.01806038211415,1.99832522889426,1.91356128755227,1.99628366131979,2.00541238490278,2.01723403333401,1.91186970299056,1.99189915190985,1.9122682947551,0,1.91192803349269,1.91060587544446,1.9861244321992,1.98509392666161,1.99080059411978,1.98501615265877,2.00588875067016,1.91220996425297,1.98627998020487,0,1.9913741773907,1.99070337661623,2.00552904590704,1.99052838510985,2.00684148220491,2.00557765465881,1.98926455756374,2.0157563272801,1.99238523942758,0,1.99300743145028,1.99109224663041,2.0096510680574,2.00719146521768,2.01073018234676,2.00762894398363,2.00756089173115,2.00716229996661,2.01138153962052,0,1.92213587136505,2.01514385700776,2.02067553295954,2.01913949640351,1.99823773314107,2.00657899494534,1.9985293856517,1.99891825566589,2.00289445156093,0,1.9999876482049,2.00199032877795,1.92473157870973,1.99885992516376,2.00855251026732,2.01547439651982,1.92418716068987,2.02491421611416,2.02215323901345,0,2.00864972777087,2.00821224900491,1.92454686545299,2.0153285702645,2.00144591075809,2.00055150972547,1.99949183893681,1.92531488373101,1.92563570149271,0,2.00115425824745,2.00271946005455,2.0045082621198,2.00297222556377,2.0075511699808,2.00394440059923,1.92588846700193,2.01621324954677,2.00145563250845,0,2.00921358929144,1.86332900346991,1.86209434117487,2.0320402591241,2.04849918247449,1.86191934966849,1.85798204077486,1.8573306835011,2.03758165682624,0,1.85779732751813,1.96008958474951,1.85727235299898,1.85700014398905,1.85561965543869,1.85754456200891,1.9576494254105,1.85735984875217,2.05201845610286,0,1.85972223408834,1.85719457899614,1.85947919032948,1.86000416484863,1.85989722559473,1.85831258028692,1.85865284154933,2.03242912913829,1.86191934966849,0,1.86356232547842,1.86319289896494,1.91189886824162,2.04588403162909,2.04532017010852,1.86084995712948,1.86080134837771,1.9511358526729,1.91045032743878,0,1.91003229217354,1.85818619753231,1.85676682198054,1.85404473188124,1.85339337460748,1.85243092132237,1.8518670598018,2.03152500635531,1.85166290304436,0,1.85035046674648,1.84890192594364,1.78844236048822,1.78669244542439,1.78611886215346
1.79703638780171,1.79704610955206,1.79629753477476,1.79412958444567,1.79373099268113,1.79377960143291,1.84119257791242,1.79122278108964,0,1.79098945908113,1.84142589992093,1.78906455251091,1.89042352170825,1.78822848198042,1.78946314427545,1.97158069366868,1.78763545520878,1.86533168404296,0,1.78758684645701,1.78690632393219,1.78371758981587,1.87344934558908,1.78712992419034,1.83310408161737,1.88025457083731,1.87975876156923,1.78394119007403,0,1.78418423383289,1.78273569303005,1.78168574399175,1.78355232005984,1.7832606675492,1.78252181452225,1.78276485828112,1.87975876156923,1.7830467890414,0,1.78302734554069,1.78602164464992,1.95833966968568,1.78267736252792,1.78324122404849,1.78437866883998,1.78421339908396,2.00393467884888,1.91728471793809,0,1.84369106775356,1.92871749635513,1.84080370789824,1.84150367392377,1.9139404358161,1.91591395113809,1.91388210531397,2.0052373933964,1.90921566514375,0,1.93326727552109,1.91056698844304,2.02559473863898,1.91094613670687,1.93442416381329,2.01027326008009,2.01809926911557,1.90583249602034,1.90456866847424,0,1.90398536345296,1.90231322239196,1.90332428442884,1.90161325636643,1.90100078609409,1.89742318196358,1.90131188210544,1.90086468158912,1.90244932689693,0,1.90161325636643,2.01451194323471,1.9026048749026,1.82844736319751,1.90358677168842,2.0126064801652,1.90447145097069,1.94127799781331,1.90721298457069,0,1.90788378534516,1.94017944002323,1.91083919745297,1.9403155445282,1.84301054522874,1.91998736453667,1.93968363075515,2.01608686679216,2.01635907580209,0,2.02772380196665,1.87341045858766,1.91465012359198,2.00142646725738,1.99592395655666,1.98981869733396,1.98861320028998,1.98867153079211,1.91376544430971,0,1.98478283065026,1.91244328626148,1.98981869733396,1.99135473388999,1.99236579592687,1.98635775420771,1.98775768625878,1.98759241650275,1.99029506310133,0,1.98847709578502,1.98881735704743,1.91598200339057,1.98898262680346,2.00854278851697,2.00760950048293,1.99239496117793,1.99054782861056,1.91753748344731,0,1.9926380049368,1.99248245693113,1.99332824921198,2.00665676894817,1.98881735704743,1.99047005460772,1.92026929529696,1.9218247753537,1.92201921036079,0,2.01397724696521,2.01197456639215,2.01536745726592,2.02191991700494,2.01482303924606,1.92421632594094,1.92523710972817,1.92624817176505,1.92617039776222,0,1.9251885009764,2.00853306676661,1.92576208424732,1.92693841604023,2.01854646963188,2.00569431566306,2.01426889947584,2.00936913729711,2.01881867864181,0,1.9986168814049,2.03437347920921,2.019207548656,1.92458575245441,1.92702591179342,2.00177645027015,2.0020875462815,2.01498830900209,2.00042512697086,0,2.0018931112744,2.00800809224747,2.00783310074108,2.0074442307269,2.00778449198931,2.0052373933964,2.00282639930845,2.00619012493115,2.01548411827017,0,2.01078851284889,2.0019806070276,1.8624734894387,1.86159853190678,1.86140409689969,1.85770983176493,1.85894449405997,1.85702930924011,1.85742790100465,0,1.94710132627573,2.03809690959504,1.95838827843745,2.06324707776246,1.85806953652806,1.85801120602593,2.05977641288585,1.85798204077486,1.85865284154933,0,1.85708763974224,1.85684459598337,1.85986806034366,1.85961529483444,2.05735569704755,2.05448778069294,1.86250265468977,1.86162769715785,1.86035414786139,0,1.86349427322594,1.86400952599473,1.86396091724296,2.04860612172839,1.86239571543586,1.8636303777309,1.91081975395226,1.91022672718063,1.85751539675784,0,1.86046108711529,1.85837091078905,1.85738901400323,1.85439471489401,1.85354892261315,1.85478358490819,1.85484191541032,1.85275173908407,1.85147818978762,0,1.85114765027556,1.84972827472379,1.78873401299886,1.87657002745291,1.8734007368373
1.79724054455916,1.89755928646855,1.79621976077192,1.79676417879178,1.85524050717486,1.84291332772519,1.84445908603158,1.8426119534642,0,1.84345774574505,1.79080474582439,1.7913394420939,1.89695653794656,1.88525155051959,1.8812850763749,1.78755768120595,1.78981312728822,1.90548251300757,0,1.83644836373937,1.78577860089105,1.84656870585853,1.83561229320887,1.78637162766268,1.78498141736197,1.78438839059034,1.7818899007492,1.78402868582722,0,1.78401896407686,1.7847383736031,1.7815690829875,1.95907852271263,1.95433430853957,1.78147186548395,1.78376619856764,1.78373703331658,1.78401896407686,0,1.78357176356055,1.96034235025873,1.78560360938467,1.78583693139318,1.78758684645701,1.78511752186694,1.78606053165133,1.8444104772798,1.9213095225849,0,2.00556793290845,1.91758609219908,2.01036075583328,2.01106072185882,2.01041908633541,2.00757061348151,1.91464040184163,1.83951071510107,1.91131556322035,0,1.91388210531397,1.91371683555794,2.01073990409712,1.93767122843174,2.01520218750989,1.93745734992394,1.90619220078346,1.90699910606289,1.93561993910691,0,1.90399508520331,1.82876818095921,1.94066552754096,1.90381037194657,1.90253682265012,1.93886700372536,1.90130216035508,1.90181741312388,1.82644468262445,0,1.93820592470124,1.93858507296507,1.82728075315495,1.90318817992388,1.90138965610827,1.90140909960898,1.82999312150389,1.904918651487,1.90761157633523,0,1.9075338023324,1.94139465881756,1.91185998124021,2.02931816902481,2.02525447737657,2.02569195614253,2.01621324954677,1.85157540729116,1.93911004748422,0,2.01609658854251,1.87386738085432,1.98940066206871,1.99069365486587,1.9975863758673,2.00119314524887,2.01064268659357,1.99894742091695,1.91589450763738,0,1.99072282011694,1.99225885667297,1.98879791354672,1.99526287753255,1.99626421781908,1.99470873776234,1.99448513750418,1.98794239951552,1.99122835113538,0,2.00815391850278,2.00944691129995,1.9909658638758,1.9911602988829,1.99115057713254,2.02268793528295,2.0214338294872,2.01823537362053,1.99225885667297,0,1.99233663067581,1.99833495064461,2.00702619546165,1.99547675604035,2.01082739985031,2.01497858725173,1.99438792000063,2.00621929018221,2.00648177744179,0,1.92177616660192,2.01520218750989,1.92434270869555,1.92683147678633,2.01254814966308,1.92325387265583,2.00805670099924,2.0141716819723,2.00085288398646,0,2.0171076505794,2.00705536071271,2.00864000602052,2.00174728501909,2.00096954499072,1.99996820470419,2.00447909686874,2.01065240834392,2.00420688785881,0,2.02140466423614,2.0156493880262,2.03216664187871,1.92662732002888,2.01839092162621,2.01959641867018,2.01178013138506,2.00188338952405,2.00195144177653,0,2.00441104461625,2.00473186237796,2.00462492312405,1.92715229454803,2.00439160111554,2.00515961939356,2.00284584280916,2.00911637178789,2.00079455348433,0,2.01240232340776,1.86493309227842,1.95595784084879,2.04315221977944,2.03564702850567,1.86071385262451,1.85813758878054,2.055887712744,1.85902226806281,0,1.95810634767717,1.85684459598337,1.96193671731689,1.85834174553798,1.94831654507006,1.85844868479189,1.85829313678621,1.85904171156352,1.85877922430394,0,2.04497990884611,1.85929447707274,2.03569563725744,2.03494706248014,2.03262356414538,1.86212350642593,2.05930004711848,1.95680363312965,1.86011110410253,0,1.85818619753231,1.95792163442043,1.86419423925147,2.05096850706456,1.86713020785857,1.86362065598055,1.86158881015643,1.95238995846865,1.85891532880891,0,1.85948891207983,1.86022776510678,1.85754456200891,1.85809870177912,1.85539605518053,1.85670849147841,2.03249718139077,2.0420244967383,1.85108931977343,0,1.85026297099329,1.85052545825286,1.78911316126269,1.78723686344424,1.78438839059034
2.04887833073832,1.80006957391235,2.06253738998657,2.05077407205747,1.7958600560088,1.79531563798894,1.84422576402307,1.79352683592369,0,1.95257467172538,1.79305047015631,1.84208697894505,1.89134708799194,1.79309907890808,1.79084363282581,1.79035754530808,1.79032838005702,1.78996867529389,0,1.78871456949815,1.78826736898183,1.78832569948396,1.78827709073219,1.8921053845196,1.78648828866694,1.87866020377916,1.95523843132255,1.88741950084867,0,1.96589346971122,1.78442727759176,1.78207461400594,1.96149923855093,1.87133000401177,1.83122778379893,1.83193747157482,1.87405209411106,1.96218948282611,0,1.96251030058781,1.96121730779065,1.96292833585306,1.78490364335913,1.83528175369681,1.78826736898183,1.83439707441454,1.78942425727404,1.92399272568278,0,1.9201526342927,1.93103127293953,1.91866520648844,1.92175672310122,1.91590422938773,1.91556396812532,1.93383113704166,1.91495149785298,1.93350059752961,0,1.91329880029269,1.91123778921751,1.90845736861609,1.93419084180478,2.01171207913258,1.93747679342465,1.90707688006573,1.83247216784432,1.90594915702459,0,1.90542418250544,2.01256759316378,1.90419924196076,1.82931259897907,1.90339233668133,1.90595887877495,1.90453950322317,1.90253682265012,1.90273125765721,0,1.82754324041453,1.9015549258643,1.90437423346714,1.90385898069835,2.02898762951275,1.90539501725438,1.90645468804303,1.943270956636,1.83288048135922,0,1.91047949268985,1.91179192898772,1.91262799951822,1.94285292137076,2.01887700914394,2.02849182024466,2.02924039502197,1.92566486674378,2.0350831669851,0,2.02446701559785,2.03274022514964,2.01545495301911,2.00552904590704,2.00529572389852,2.00664704719782,2.0018736677737,1.91403765331964,1.99920990817653,0,1.99440736350134,1.99381433672971,1.99112141188148,1.91410570557212,1.9944170852517,1.9919088736602,1.99280327469283,2.0124995409113,1.99093669862474,0,1.99111169013112,1.99444625050276,2.01885756564323,1.99166582990134,1.99424209374531,2.00121258874958,2.00115425824745,1.99431986774815,1.99513649477794,0,1.99570035629851,1.99477679001482,1.99567119104744,2.00245697279497,1.99781969787582,1.92277750688845,1.92312748990122,1.9989376991666,2.02252266552692,0,1.99970571744461,1.9983155071439,1.92346775116363,2.00731784797229,2.0041874443581,2.03164166735956,2.01367587270421,2.00635539468718,2.00653038619356,0,2.00091121448859,1.99901547316944,2.00734701322335,2.00289445156093,2.02235739577089,2.00824141425598,2.00807614449995,2.00806642274959,2.01880895689146,0,2.00214587678362,1.99964738694249,2.01656323255954,2.00072650123185,1.99888909041482,2.01131348736804,2.02099635072125,1.99948211718646,1.99995848295383,0,2.00199032877795,1.9999876482049,2.00183478077228,2.00547071540491,2.00794976174534,2.00520822814533,2.00794976174534,2.01198428814251,2.00201949402901,0,2.00193199827582,1.86348455147558,1.86423312625289,2.04953940976243,1.85998472134792,1.86158881015643,1.85774871876635,1.85903198981316,1.8570098657394,0,1.85890560705855,1.8595375208316,1.85977084284011,2.0318263806163,1.86025693035785,1.8580598147777,1.95752304265589,1.94724715253105,1.85856534579614,0,2.04825613871562,1.85677654373089,1.85662099572522,2.03569563725744,1.85788482327132,1.95466484805163,1.85882783305572,1.86031526085997,1.85897365931104,0,1.86049025236636,1.86190962791813,1.86098606163444,1.85967362533657,1.86281375070111,1.86082079187841,2.02561418213969,1.85966390358621,2.02660580067587,0,1.85775844051671,1.85725290949827,1.95057199115233,1.85624184746139,2.03451930546453,1.85783621451954,1.85662099572522,2.04849918247449,1.85119625902733,0,1.89998000230685,1.90080635108699,1.87776580274653,1.87719221947561,1.83676918150107
0,0,0,0,0,0,0,0,0,0,0,0,0,0,0,0,0,0,0,0,0,0,0,0,0,0,0,0,0,0,0,0,0,0,0,0,0,0,0,0,0,0,0,0,0,0,0,0,0,0,0,0,0,0,0,0,0,0,0,0,0,0,0,0,0,0,0,0,0,0,0,0,0,0,0,0,0,0,0,0,0,0,0,0,0,0,0,0,0,0,0,0,0,0,0,0,0,0,0,0,0,0,0,0,0,0,0,0,0,0,0,0,0,0,0,0,0,0,0,0,0,0,0,0,0,0,0,0,0,0,0,0,0,0,0,0,0,0,0,0,0,0,0,0,0,0,0,0,0,0,0,0,0,0,0,0,0,0,0,0,0,0,0,0,0,0,0,0,0,0,0,0,0,0,0,0,0,0,0,0,0,0,0,0,0,0,0,0,0,0,0,0,0,0,0,0,0,0,0,0,0,0,0,0,0,0,0,0,0,0,0,0,0,0,0,0,0,0,0,0,0,0,0,0,0,0,0,0,0,0,0,0,0,0
1.7998654171549,1.80177088022441,1.79706555305277,1.79703638780171,1.80018623491661,1.79771691032653,1.79887379861873,1.79685167454497,0,1.88268500842597,1.84223280520037,1.84367162425285,1.79320601816199,1.79330323566553,1.79261299139035,1.97144458916371,1.88671953482314,2.04540766586172,0,1.89108460073237,1.78682854992935,1.89049157396074,1.78948258777616,1.78949230952652,1.78600220114921,1.78729519394637,1.78984229253928,1.78745074195205,0,1.96464908566583,1.89322338581039,1.78640079291375,1.78661467142155,1.87353684134227,1.84473129504151,1.83309435986702,1.78468976485133,1.96724479301051,0,1.96324915361476,1.78499113911233,1.95845633068993,1.78632301891091,1.95603561485163,1.95483983955801,1.78770350746127,1.92188310585583,1.84700618462449,0,2.0115565311269,1.93577548711259,1.92021096479483,1.91977348602887,1.91815967547,1.91528203736503,1.91784857945866,1.91738193544163,2.01143987012265,0,1.91465984534234,1.91127667621893,1.91323074804021,1.91097530195793,1.93522134734237,1.90625053128559,1.93851702071259,1.90752408058204,1.90578388726856,0,1.90705743656502,1.90574500026715,2.01424945597514,1.90492837323736,1.94070441454238,1.9408502407977,1.90485059923452,1.9026048749026,1.94155020682324,0,1.90635747053949,1.8259197081053,2.01555217052266,2.01772012085174,1.90690188855935,1.90537557375367,1.94368899190125,1.90698938431254,1.83422208290816,0,1.91050865794091,1.91378488781042,1.94490421069558,1.91560285512674,1.91778052720617,1.92209698436363,1.92410938668704,1.85342253985854,1.94278486911827,0,2.02945427352977,1.91906379825298,2.01048713858789,1.99288104869567,2.01457999548719,1.99582673905312,2.0044013228659,1.9986168814049,1.9160403338927,0,1.99275466594106,1.99363934522333,1.98826321727722,1.99209358691694,1.99307548370276,1.99142278614247,1.9892742793141,1.98937149681765,2.01103155660775,0,2.01121626986449,1.99117002063325,1.99132556863893,1.9919088736602,1.99404765873822,2.00419716610845,1.99395044123467,1.99815995913823,2.007337291473,0,1.99760581936801,2.00864972777087,1.9946309637595,1.92207754086292,1.92226225411966,2.00651094269285,2.00424577486022,2.02123939448011,1.92365246442037,0,1.99815023738787,1.99759609761766,1.99525315578219,2.0130147936801,2.0118579053879,1.92667592878066,2.01337449844322,2.01445361273258,2.02211435201203,0,2.00184450252263,2.00170839801767,2.00543182840349,2.01250926266166,2.00051262272405,2.01252870616237,2.01182874013683,2.00647205569143,2.01538690076663,0,2.0020875462815,2.00174728501909,2.00008486570844,2.02061720245742,2.00441104461625,2.0020875462815,2.02562390389005,1.92737589480619,2.00066817072972,0,2.00182505902192,2.00238892054249,2.00505268013966,2.00279723405739,2.00217504203469,2.00174728501909,1.99997792645454,2.0021944855354,2.01496886550138,0,2.00124175400064,1.86505947503303,1.86389286499048,1.86263875919473,1.85977084284011,2.04911165274683,1.85884727655643,2.05548912097946,1.85756400550961,0,2.05099767231563,2.05251426537095,1.85680570898195,1.85858478929685,1.8584875717933,1.85831258028692,1.8566890479777,1.85817647578196,2.04625345814257,0,1.95435375204028,1.90645468804303,1.86140409689969,1.86047080886565,2.04890749598938,1.85992639084579,1.86053886111813,1.8603735913621,2.04922831375108,0,1.85847785004295,1.86355260372806,1.8619387931692,1.86093745288267,2.05472110270145,1.86390258674083,2.03870937986738,1.85656266522309,2.02567251264182,0,1.85739873575359,1.85746678800607,1.8565821087238,1.85431694089117,1.85676682198054,1.85526967242592,1.85377252287131,1.85268368683159,1.85021436224152,0,1.90130216035508,1.90012582856217,1.78813126447687,1.78547722663006,1.83503870993794
1.80114868820172,1.8495532832174,1.85000048373371,1.80007929566271,1.80082787044001,1.80028345242015,1.84672425386421,1.8479686379096,0,1.84543126106704,1.84549931331952,1.84536320881456,1.79672529179036,1.91053782319198,1.79255466088823,1.79358516642582,1.8889555374047,1.79256438263858,0,1.89477886586713,1.84133840416774,1.78825764723148,1.89559549289691,1.78796599472084,1.78759656820737,1.89390390833521,1.8906276784657,1.83651641599185,0,1.78723686344424,1.88393911422172,1.78423284258466,1.83600116322305,1.8363122592344,1.78588554014495,1.83436790916348,1.87406181586142,1.78527306987261,0,1.96083815952682,1.96111036853675,1.96036179375944,1.96390051088852,1.965640704202,1.78629385365985,1.95485928305872,1.9215234010927,1.92136785308703,0,1.92285528089129,1.92409966493668,1.92209698436363,1.93533800834663,1.9171097264317,1.9192096245083,1.91481539334801,1.93578520886294,1.91454318433808,0,1.9127835475239,1.83853854006561,1.91197664224446,1.93791427219061,2.03135001484892,1.93919754323742,1.90731992382459,1.93966418725444,1.94000444851685,0,1.94130716306437,1.90447145097069,1.83103334879184,1.83023616526276,1.82870012870673,1.9045978337253,1.90725187157211,1.90081607283735,1.90355760643735,0,1.90350899768558,1.9417932505821,1.94312513038069,1.83036254801737,1.94449589718069,2.01919782690564,1.83299714236347,1.83347350813085,1.83454290066986,0,2.02478783335955,1.83772191303582,1.94495281944736,1.91723610918631,1.84359385025002,1.92353580341611,1.94453478418211,1.92653982427569,1.94558473322041,0,1.94471949743884,1.87735748923163,2.00044457047157,1.992122752168,1.99297826619921,1.9990446384205,2.00581097666732,1.99202553466446,2.00505268013966,0,1.99383378023042,1.91744026594376,1.99397960648574,1.99515593827865,1.99678919233823,1.99782941962617,1.99091725512403,1.99196720416233,2.0119648446418,0,1.99369767572545,1.91710000468135,1.99217136091978,1.99256023093396,1.99474762476375,1.99455318975666,1.99486428576801,1.99512677302758,2.00786226599215,0,2.00829002300775,2.00879555402619,2.00295278206306,2.00603457692548,1.99351296246872,2.00365274808859,1.92244696737639,2.00619012493115,1.92412883018774,0,2.00109592774533,2.00080427523469,2.00055150972547,2.00959273755527,2.0105940778418,2.00823169250562,2.00481935813115,2.01432722997797,1.92699674654236,0,2.00249585979639,2.00942746779924,2.02635303516665,1.92579124949839,2.00270973830419,2.00172784151838,1.92640371977073,1.92525655322888,2.0097580073113,0,2.00951496355243,2.01853674788153,2.00131952800348,2.0118579053879,2.00177645027015,2.00172784151838,2.00193199827582,2.00131952800348,2.00139730200632,0,2.00433327061342,2.00811503150137,2.00226253778788,2.00318610407157,2.00688036920633,2.00560681990987,2.00311805181909,1.92829946108988,2.01043852983612,0,2.00172784151838,1.86598304131672,1.86433034375643,1.86339705572239,1.86297902045714,1.85845840654224,1.85766122301316,1.85951807733089,1.85815703228125,0,1.85945974682877,1.85808898002876,1.85688348298479,1.86082079187841,1.95981737573958,1.95758137315802,1.85975139933941,1.85974167758905,1.90617275728275,0,1.90677550580474,1.90781573309268,1.85832230203728,1.90706715831537,1.86029581735926,1.860480530616,1.86190962791813,1.8600527736004,2.04336609828724,0,1.85997499959756,1.86167630590962,1.86032498261033,1.86012082585288,1.86152075790395,1.86006249535075,1.85963473833515,1.9549273353112,1.8606944091238,0,1.8598388950926,1.85745706625571,1.85614462995784,1.85693209173656,1.94920122435233,1.85317949609968,2.05510025096528,2.06143883219649,1.93779761118635,0,1.90323678867565,1.85342253985854,1.78924926576765,1.83458178767128,1.83259855059893
1.80460963132796,1.80304442952087,1.80142089721164,1.80090564444285,1.80356940404002,1.90209934388416,1.799758477901,1.79955432114356,0,1.79989458240597,1.79745442306696,1.89936753203451,1.90021332431536,1.89876478351252,1.79302130490525,1.88450297574229,1.79656974378469,1.7937601579322,0,1.79436290645419,1.79152415535063,1.79307963540738,1.79329351391518,1.78768406396056,1.8401912376259,1.83870380982164,1.7896673010329,1.78987145779035,0,1.88838195413378,1.88345302670399,1.78417451208254,1.83614698947837,1.83622476348121,1.95390655152397,1.87569506992099,1.87467428613376,1.78487447810807,0,1.78730491569673,1.78834514298467,1.7879757164712,1.88431826248555,1.96041040251121,1.95820356518071,1.78931731802013,1.92490657021611,2.01503691775386,0,2.0092427545425,1.92391495167994,1.93662127939344,1.921202583331,1.91879158924305,1.91943322476646,1.93876006447146,1.93959613500196,1.84033706388122,0,1.91395015756645,1.9143681928317,1.9136390615551,1.91373627905865,1.91492233260191,1.91349323529978,1.91401820981893,1.90801016809977,1.90896289963453,0,2.01846869562904,1.8329485336117,1.83171387131666,1.90494781673807,1.90651301854516,1.83003200850531,1.9033340061792,1.90324651042601,1.90351871943594,0,1.90531724325154,1.94683883901615,1.90394647645154,1.90563806101324,1.90710604531679,1.90508392124303,2.03576368950992,1.91026561418205,1.9104892144402,0,1.83610810247695,1.83878158382448,1.94593471623317,1.91708056118064,1.92180533185299,1.92233030637214,1.94764574429559,1.94628469924594,1.94616803824168,0,2.03893298012553,2.01839092162621,2.01998528868437,1.99513649477794,1.99559341704461,1.99487400751836,1.99329908396091,1.9174111006927,1.99330880571127,0,1.9888465222985,1.91724583093667,1.91682779567142,1.91941378126575,1.91725555268702,1.99517538177936,1.99497122502191,1.99256995268432,1.91736249194092,0,1.99301715320063,2.01218844489995,1.9171097264317,1.91779024895653,2.00542210665313,2.01098294785598,2.00223337253682,1.99828634189284,1.92102759182462,0,1.92020124304448,2.011449591873,2.00533461089994,2.008708058273,2.0172145898333,1.9943101459978,2.02127828148153,2.0194214271638,2.01802149511273,0,2.00524711514675,2.01519246575953,1.99867521190702,2.01479387399499,2.02599333040352,2.02163798624465,2.01225649715244,2.02252266552692,2.02521559037515,0,2.00374024384178,2.01897422664748,2.01153708762619,2.01319950693684,2.01482303924606,2.00205838103043,2.01162458337939,2.01212039264747,2.01416196022194,0,2.0126064801652,2.01547439651982,1.92824113058775,2.00191255477511,2.0015722935127,2.00185422427299,2.00217504203469,2.00697758670987,2.00416800085739,0,2.00246669454533,2.0051498976432,2.00441104461625,2.00327359982476,2.00479019288008,2.00773588323754,2.00484852338221,1.92754116456222,2.00956357230421,0,2.01294674142762,1.86166658415927,2.03137918009999,1.86118049664154,1.86082079187841,1.8599458343465,1.8575251185082,1.85687376123444,1.85757372725997,0,1.85959585133373,1.85837091078905,1.90934204789836,1.90799072459906,2.03263328589573,1.86044164361458,1.86019859985572,1.85920698131955,1.90745602832956,0,1.86059719162026,1.94097662355231,1.85883755480607,1.90759213283452,1.85797231902451,1.85770983176493,2.05616964350429,1.860480530616,1.85993611259614,0,1.85914865081742,1.86128743589544,1.86047080886565,1.85939169457628,1.85956668608267,1.85804037127699,1.85786537977061,1.86034442611104,1.85824452803444,0,1.85643628246848,1.85914865081742,1.85596963845146,1.90446172922033,1.85613490820748,1.85372391411954,2.02576000839501,2.05112405507024,1.85012686648833,0,1.95225385396368,1.85136152878336,1.78971590978467,1.78606053165133,1.8334832298812
1.9034409454331,1.80638871164286,1.80663175540172,2.07778109454262,1.90668801005154,1.80159588871803,1.80093480969391,1.80006957391235,0,1.79948626889107,1.8003806699237,1.90086468158912,1.89887172276642,1.79724054455916,1.90080635108699,1.84559653082307,1.89129847924017,1.89678154644018,0,1.79546146424426,1.79355600117475,1.79284631339886,1.79209773862156,1.89833702649692,1.78992006654212,1.78919093526552,1.79234078238042,1.79040615405985,0,1.78983257078893,1.78830625598325,1.78717853294212,1.87774635924582,1.83688584250532,1.83805245254788,1.78740213320027,1.83773163478618,1.97175568517506,0,1.7872465851946,1.88826529312953,1.78812154272652,1.78815070797758,1.78918121351517,1.96861555981052,1.96501851217931,2.01261620191556,1.92153312284306,0,1.9235163599154,1.92401216918349,1.92200948861044,1.92376912542462,1.9220386538615,1.92044428680334,1.92117341807994,1.93889616897642,1.91754720519766,0,1.91472789759482,1.83959821085426,1.91513621110971,1.91603061214234,1.91185998124021,1.8363122592344,1.83686639900461,1.93901282998068,1.90793239409694,0,1.91148083297638,1.8335901691351,1.83486371843156,2.02647941792126,1.83089724428687,1.90725187157211,1.94524447195799,1.90750463708133,1.90455894672388,0,1.83069308752943,1.90693105381041,2.03409154844893,1.90553112175934,1.83153887981028,1.83290964661028,1.94796656205729,2.03550120225035,1.94744158753814,0,1.91478622809695,1.91535008961752,2.0214338294872,1.91850965848277,1.94925955485446,1.84677286261598,1.92759949506435,1.85823480628408,2.02494338136523,0,2.05488637245748,2.0366483687922,1.99554480829283,1.9945240245056,1.99517538177936,1.92013319079199,1.99540870378787,1.91901518950121,2.00258335554958,0,1.99339630146446,1.99566146929709,1.91840271922887,1.91857771073525,1.91991931228419,1.91984153828135,1.99711001009993,1.99524343403184,1.99440736350134,0,1.99418376324319,2.00654010794392,1.9199387557849,1.99553508654248,2.01516330050847,1.92106647882604,1.92054150430689,2.00467353187583,2.00925247629286,0,2.01125515686591,2.01270369766875,2.00817336200349,2.01535773551556,2.00689009095668,1.92397328218207,1.92548987523739,2.00382773959498,2.00882471927725,0,2.0058790289198,2.00058067497653,2.00117370174816,2.01297590667868,2.01281063692265,2.01562022277514,1.92736617305584,2.01793399935954,2.01964502742195,0,2.02126855973118,2.02074358521203,2.01903255714961,2.00220420728575,2.00222365078646,2.00184450252263,2.00107648424462,1.92694813779059,2.00579153316661,0,2.01224677540208,2.02886124675814,2.02750020170849,2.00467353187583,2.00112509299639,2.00779421373966,2.00140702375667,2.00512073239214,2.00897054553257,0,2.00431382711271,2.00386662659639,2.00141674550703,2.01033159058222,2.00486796688292,2.00428466186164,2.00299166906448,2.01463832598932,2.01533829201485,0,2.01429806472691,1.86450533526282,1.86366926473232,1.86316373371388,1.86064580037203,1.96072149852256,1.96012847175093,1.85819591928267,1.85800148427557,0,1.95970071473532,1.85782649276919,1.8578459362699,1.8565821087238,1.85890560705855,1.85560021193798,1.86012082585288,1.86009166060182,1.85833202378763,0,1.90822404660758,1.90738797607708,1.907961559348,1.85775844051671,1.85997499959756,1.8585750675465,1.86030553910962,2.03410127019928,2.04767283369434,0,1.86003333009969,2.02930844727445,1.85789454502167,1.86189018441742,1.86018887810536,1.85781677101883,2.04966579251704,1.85961529483444,2.02895846426169,0,2.05887229010287,2.02722799269856,2.03875798861915,1.90426729421324,2.02810295023048,2.0257211213936,1.90325623217636,1.90099106434373,1.85312116559755,0,1.93200344797499,1.85086571951528,1.87448957287702,1.83587478046844,1.78486475635772
0,0,0,0,0,0,0,0,0,0,0,0,0,0,0,0,0,0,0,0,0,0,0,0,0,0,0,0,0,0,0,0,0,0,0,0,0,0,0,0,0,0,0,0,0,0,0,0,0,0,0,0,0,0,0,0,0,0,0,0,0,0,0,0,0,0,0,0,0,0,0,0,0,0,0,0,0,0,0,0,0,0,0,0,0,0,0,0,0,0,0,0,0,0,0,0,0,0,0,0,0,0,0,0,0,0,0,0,0,0,0,0,0,0,0,0,0,0,0,0,0,0,0,0,0,0,0,0,0,0,0,0,0,0,0,0,0,0,0,0,0,0,0,0,0,0,0,0,0,0,0,0,0,0,0,0,0,0,0,0,0,0,0,0,0,0,0,0,0,0,0,0,0,0,0,0,0,0,0,0,0,0,0,0,0,0,0,0,0,0,0,0,0,0,0,0,0,0,0,0,0,0,0,0,0,0,0,0,0,0,0,0,0,0,0,0,0,0,0,0,0,0,0,0,0,0,0,0,0,0,0,0,0,0
1.80610678088257,1.90765046333665,2.05595576499648,1.80314164702441,1.9803399907382,1.80337496903292,1.89858007025579,1.89706347720046,0,1.80224724599179,1.90149659536217,1.80068204418469,1.800059852162,1.79779468432937,1.79736692731377,1.7971238835549,1.84557708732236,1.90380065019622,0,1.79689056154639,1.84500350405144,1.7951309247322,1.89511912712954,1.89883283576501,1.90179796962317,1.79275881764567,1.79305047015631,1.89785093897919,0,1.78922010051659,1.97119182365449,1.78880206525134,1.89688848569408,1.79045476281163,1.79004644929673,1.79049364981304,1.78950203127687,1.78946314427545,0,1.88767226635789,1.78955064002865,1.79029921480595,1.79136860734496,1.78915204826411,1.78986173603999,1.79141721609673,1.92727867730264,1.85170179004577,0,2.02158937749288,2.01523135276095,2.02128800323189,1.92164006209696,1.92153312284306,1.92092065257072,1.91903463300192,1.91903463300192,1.84275777971952,0,1.94744158753814,1.91544730712106,1.9170027871778,1.91850965848277,1.83696361650816,1.91151971997779,1.94417507941899,1.91050865794091,1.91314325228702,0,1.91207385974801,1.8335901691351,1.94769435304736,1.90620192253381,1.9070185495636,1.90729075857353,1.94450561893104,1.83112084454503,1.83173331481737,0,1.83218051533368,1.90682411455651,2.02256155252834,1.90789350709552,1.94790823155516,1.90823376835793,1.94789850980481,1.83502898818759,1.90957536990687,0,1.91371683555794,1.91534036786716,1.91491261085156,2.02293097904182,2.02328096205458,1.94721798727998,1.93099238593811,1.93156596920903,1.93445332906436,0,2.0388552061227,1.92190254935654,1.99928768217936,1.99647809632688,2.01211067089712,2.02367955381912,1.99720722760347,2.01795344286025,2.00213615503327,0,2.00107648424462,1.99407682398928,1.91919018100759,1.99649753982759,1.9975669323666,2.00090149273823,1.99192831716091,2.02280459628721,1.9956809127978,0,1.99553508654248,1.99444625050276,1.99506844252546,2.01267453241769,1.9943101459978,1.92248585437781,2.0088149975269,2.00648177744179,1.99700307084603,0,2.0053443326503,2.01183846188719,2.00197088527724,2.03284716440354,2.01430778647726,2.01103155660775,2.0107010170957,2.01553272702195,2.00216532028433,0,2.00158201526306,1.92751199931115,1.92813419133385,2.0259349999014,1.92828973933952,2.02135605548437,2.00793031824463,1.92729812080335,2.02323235330281,0,2.021949082256,1.92868833110406,2.01525079626166,1.92884387910974,2.00856223201768,1.92699674654236,1.92936885362889,1.92721062505016,2.01183846188719,0,2.01243148865882,1.92743422530832,1.92551904048846,2.00595680292264,2.01792427760918,2.01679655456805,2.00314721707015,2.00327359982476,2.00348747833256,0,2.00142646725738,2.00507212364037,2.00786226599215,2.00601513342477,2.00619012493115,2.0084941797652,1.92654954602605,2.00268057305313,1.92853278309839,0,2.00843584926307,1.86332900346991,1.86243460243728,1.86138465339898,1.85985833859331,1.85961529483444,1.86017915635501,1.86246376768835,1.85883755480607,0,1.86027637385856,1.85695153523727,1.95933128822185,1.85844868479189,1.93526995609415,1.93383113704166,1.90721298457069,1.8580598147777,1.85655294347273,0,1.85625156921174,1.85770983176493,1.85968334708692,1.85772927526564,1.85698070048834,2.04230642749859,2.04258835825887,2.03123335384467,1.9589132529566,0,2.02946399528013,1.90953648290545,1.90878790812814,1.85754456200891,1.85996527784721,2.04027458167447,1.85803064952664,1.85879866780465,1.8574181792543,0,1.85589186444862,1.85561965543869,1.85510440266989,1.85410306238337,2.03621089002624,2.02705300119218,1.85445304539613,1.8543752713933,1.85254758232663,0,1.85339337460748,1.85149763328833,1.86755796487417,1.87700750621887,1.8940983433423
1.85988750384437,1.80758448693648,1.80491100558896,1.80501794484286,1.80470684883151,1.80272361175916,1.8032096992769,1.90582277426998,0,1.90734908907566,1.80250973325136,1.80099314019604,1.79936960788682,1.89054990446286,1.79731831856199,1.79955432114356,1.91178220723737,1.90503531249126,0,1.90488948623594,1.79560729049958,1.89393307358627,1.89900782727139,1.90471449472956,1.79571422975348,1.79406153219319,1.79405181044284,1.79389626243716,0,1.97526523705308,1.78917149176481,1.79233106063007,1.78983257078893,1.78962841403148,1.89113320948414,1.89198872351535,1.97407918350982,1.78887983925418,0,1.79097973733078,1.96170339530838,1.78783961196623,1.7894534225251,1.78961869228113,1.84017179412519,1.7922824518783,1.93093405543598,1.85471553265571,0,2.02227962176806,2.01813815611699,2.02211435201203,1.92163034034661,2.02148243823898,1.93715597566294,1.93995583976508,1.9183541104771,1.91893741549837,0,2.01947003591557,1.91550563762319,1.9164680909083,1.9159528381395,1.91564174212816,1.94377648765445,1.91050865794091,1.9105961536941,1.91018784017921,0,1.8347276139266,1.90809766385296,1.90852542086857,1.90976008316361,1.91073225819907,1.90821432485722,1.90799072459906,1.90456866847424,2.03247773789006,0,1.90729075857353,1.90512280824445,1.83265688110106,1.94647913425303,2.0420050532376,1.90935176964871,1.91208358149836,1.91221968600333,1.91148083297638,0,1.91538897661894,2.03519982798936,2.0322346941312,1.92059983480902,1.92373023842321,1.85026297099329,1.85529883767699,1.93221732648279,2.04074122569149,0,2.05603353899932,2.02465172885459,2.0184784173794,2.0186922958872,1.99615727856518,1.99533092978503,1.92078454806575,1.99656559208007,1.99591423480631,0,2.0006292837283,1.92090120907001,1.91870409348986,1.99934601268149,1.9990446384205,2.00158201526306,2.00153340651128,1.92082343506717,1.99806274163468,0,2.01824509537089,1.99538926028716,1.99534065153539,2.00250558154675,2.01212039264747,2.00766783098505,1.92411910843739,2.01446333448294,1.99826689839213,0,1.9235163599154,2.00614151617938,2.00452770562051,2.00509156714108,2.02130744673259,2.0046152013737,1.92678286803456,2.01612575379358,2.01234399290563,0,2.00270973830419,2.00176672851979,2.01232454940492,2.01910060940209,1.93035075041471,2.02887096850849,2.01630074529996,2.01728264208578,2.01934365316096,0,2.03176805011417,1.9292813578757,2.01650490205741,2.0194214271638,2.02095746371983,2.01195512289144,2.01644657155528,2.00259307729994,2.03142778885176,0,1.92920358387286,2.0155424487723,2.03467485347021,2.01562994452549,1.9290674793679,1.92733700780477,2.00296250381341,2.00258335554958,2.00402217460207,0,2.00810530975101,2.00156257176235,2.00815391850278,2.01172180088293,2.00661788194675,2.00444993161767,2.00101815374249,1.92789114757499,2.00871778002335,0,1.927288399053,1.86412618699899,1.86197768017062,1.86100550513515,2.03445125321205,1.86123882714366,1.860480530616,1.8599458343465,1.95714389439206,0,1.95745499040341,2.04515490035249,1.85955696433231,1.85800148427557,1.85804037127699,1.85665988272663,1.95909796621334,1.91801384921468,1.85672793497912,0,2.03478179272411,1.85819591928267,1.85697097873798,1.85899310281174,2.03351796517801,1.86008193885146,1.95447041304453,1.95256494997503,1.95241912371971,0,1.859109763816,1.90931288264729,1.85934308582451,1.85820564103302,1.85947919032948,1.85760289251103,2.0421119924915,1.8573306835011,1.85938197282593,0,1.85906115506423,1.85490024591245,1.91080031045155,1.85414194938479,1.85368502711812,2.0482172517142,2.02526419912693,1.85175039879755,1.85250869532521,0,1.8542683321394,1.78994923179319,1.78816042972793,1.78734380269814,1.87815467276071
1.85997499959756,1.80834278346414,1.80730255617619,1.80987882002017,1.90719354106998,1.80400688280598,1.90748519358062,1.80450269207406,0,1.80311248177335,1.80380272604853,1.84982549222733,1.80327775152938,1.9052394692487,1.79985569540455,1.90190490887707,1.79862103310951,1.79963209514639,0,1.90695049731112,1.79668640478894,1.84500350405144,1.84643260135357,1.79400320169106,1.79420735844851,1.79442123695631,1.79264215664142,1.79363377517759,0,1.79374071443149,1.79388654068681,1.97174596342471,1.89068600896783,1.88312248719193,1.79268104364284,1.79064919781872,1.8391412885876,1.79096029383007,0,1.79174775560879,1.79169914685702,1.79149499009957,1.79157276410241,1.89112348773379,1.88963605992953,1.79423652369958,1.92875638335655,2.01801177336238,0,1.9280175303296,2.01810899086592,2.02473922460778,2.02538086013118,1.92393439518065,2.0248850508631,2.01880895689146,1.94476810619062,1.91841244097922,0,1.91848049323171,1.9443014621736,1.91696390017638,1.91774164020475,1.94654718650551,1.91327935679198,2.02834599398934,1.911004467209,1.94702355227289,0,1.91307520003453,1.91043088393808,1.90861291662176,1.94800544905871,1.94789850980481,1.90571583501608,1.83279298560603,1.95170943594382,1.9505136606502,0,1.90767962858772,1.90782545484304,1.83345406463014,1.9087976298785,1.95223441046297,1.94923038960339,1.83634142448546,1.95173860119489,2.04063428643759,0,1.950727539158,1.95047477364878,1.94977480762325,1.92220392361753,1.92378856892533,1.92549959698775,1.85410306238337,1.85950835558054,1.95117473967432,0,2.03232218988439,2.01065240834392,2.01153708762619,2.01580493603188,1.99865576840631,1.92359413391824,1.99746971486305,1.99736277560915,1.99789747187865,0,1.99911269067298,1.99777108912404,1.99819884613965,1.9203665128005,1.99846133339922,1.99800441113255,1.99739194086021,2.01437583872975,2.01472582174251,0,1.9962156090673,1.99667253133397,1.99671141833539,1.92233030637214,2.0171076505794,2.01235371465598,2.02568223439218,2.01914921815387,1.92402189093384,0,2.00473186237796,2.01512441350705,2.0052373933964,2.01483276099641,2.00915525878931,2.00553876765739,2.02147271648862,1.92748283406009,2.00876638877513,0,2.01212039264747,2.01182874013683,2.0185853566333,1.92777448657073,1.92810502608279,2.03229302463332,2.01125515686591,1.93040908091683,2.01466749124038,0,2.01157597462761,2.01083712160066,2.00942746779924,2.00488741038363,2.00235975529143,2.00469297537654,2.00470269712689,2.02097690722054,2.01953808816805,0,2.00852334501626,2.02098662897089,2.01238287990705,2.00420688785881,2.01118710461343,2.00224309428717,2.02487532911274,2.00479991463044,2.0054512719042,0,2.00789143124321,2.007337291473,2.00512073239214,2.00581097666732,2.00599568992406,2.00357497408576,2.00263196430136,1.92780365182179,2.02109356822479,0,2.00181533727157,1.86297902045714,1.86226933268125,2.06166243245465,1.8611027226387,2.03597756801773,1.85706819624153,1.85787510152096,1.9705696316318,0,1.96882943831832,1.85840007604011,1.85990694734508,1.85895421581033,2.04137313946454,1.9132113045395,1.91286132152673,1.8584681282926,1.91802357096504,0,1.91465984534234,1.8600527736004,2.03418876595248,1.9572411118956,2.0333040866702,2.04592291863051,1.86004305185004,1.85791398852238,1.85495857641457,0,2.04597152738228,1.85945002507841,1.85886672005713,1.85897365931104,1.85863339804862,1.91074197994942,1.85748623150678,1.85748623150678,2.04495074359505,0,1.85503635041741,1.85482247190961,1.85652377822167,1.85621268221032,1.85726263124862,1.85387946212521,1.85316005259897,2.04187867048298,1.85467664565429,0,1.85440443664436,1.85149763328833,1.87957404831249,1.87864076027845,1.783775920318
1.86324150771672,1.85993611259614,1.92096926132249,1.8100440897762,1.80699146016485,1.91094613670687,1.90072857708416,1.91064476244588,0,1.91601116864163,1.91933600726291,1.92414827368845,1.8029083250159,1.80110007944994,1.8030152642698,1.79787245833221,1.79982653015349,1.79797939758611,0,1.84663675811101,1.80133340145845,1.84758948964577,1.84703534987555,1.84840611667556,1.7933518444173,1.98232322781054,1.89678154644018,1.79486843747263,0,1.9809816262616,1.9080684986019,1.98147743552969,1.79485871572227,1.89613018916642,1.84018151587554,1.7932449051634,1.79243799988397,1.79254493913787,0,1.84036622913228,1.84071621214505,1.96703091450271,1.88648621281463,1.89012214744726,1.8891499724118,1.97525551530273,1.9334811540289,2.02465172885459,0,2.02432118934253,2.02551696463615,1.92816335658491,1.92672453753243,2.02781129771984,1.92128035733384,1.92205809736221,1.92258307188136,1.92331220315796,0,1.91933600726291,2.04863528697945,1.84489656479754,2.02126855973118,1.91398904456787,1.91373627905865,1.91421264482603,1.94829710156935,1.91166554623311,0,1.83639003323724,1.91072253644871,2.03220552888013,1.95098030466722,1.90825321185864,1.9080684986019,1.90854486436928,1.90918649989268,1.90834070761183,0,1.90630886178771,1.90769907208843,1.90792267234658,1.90855458611963,1.90887540388134,1.9099545181707,1.91150027647708,1.91345434829836,1.91423208832673,0,1.91482511509837,1.95115529617361,1.84666592336208,1.92134840958632,1.92485796146434,1.92777448657073,1.85397667962876,1.95108724392113,1.95096086116651,0,2.03903019762908,2.01910060940209,1.92342886416221,2.00177645027015,2.01567855327727,1.9981016286361,1.99692529684319,1.99992931770277,2.00204865928008,0,2.0032444345737,1.92269001113526,1.92202893211115,1.99665308783326,2.0016792327666,2.00017236146164,1.99871409890844,1.92129007908419,1.9974599931127,0,1.99834467239497,2.01875062638933,2.02879319450566,1.99827662014248,2.02866681175105,1.99869465540773,2.02058803720635,2.00051262272405,1.92366218617072,0,1.92466352645725,2.00822197075527,2.00193199827582,1.99981265669851,1.92693841604023,1.92716201629839,2.01866313063614,1.92799808682889,2.0124995409113,0,2.01877006989004,1.93034102866435,2.00891221503045,2.01489109149854,2.01092461735385,2.01165374863045,2.01474526524322,2.0137439249567,1.93105071644024,0,2.02186158650281,2.01229538415386,1.93007854140478,2.02133661198366,2.00424577486022,2.00470269712689,2.00527628039782,2.00483880163186,2.00295278206306,0,2.02868625525176,2.00328332157512,2.00358469583611,2.00473186237796,2.00455687087157,1.92698702479201,2.00426521836093,2.01226621890279,2.00234031179072,0,2.01099266960634,2.00864972777087,2.00785254424179,2.00584986366874,2.00615123792973,2.00612207267867,2.00435271411413,1.92789114757499,2.01787566885741,0,2.01670905881486,1.91247245151255,1.91037255343595,1.91024617068134,1.86093745288267,1.85931392057345,2.04220920999504,2.05477943320357,1.85730151825004,0,1.85676682198054,1.85781677101883,1.85640711721741,1.85697097873798,1.96127563829277,1.91020728367992,1.90906011713807,1.85855562404579,1.9569202941339,0,1.85661127397486,1.85661127397486,1.85780704926848,1.96050762001476,2.03450958371418,1.85770983176493,1.95413987353248,1.8603735913621,1.86011110410253,0,1.85931392057345,1.8598388950926,1.85674737847983,1.86022776510678,1.85901254631245,1.91163638098205,1.9047047729792,1.85821536278337,1.85742790100465,0,1.85509468091954,1.94370843540196,1.85654322172238,1.85787510152096,1.85700014398905,2.0361331160234,2.0262558176631,1.85525995067557,2.0246711723553,0,2.02154076874111,1.87317713657915,1.87240911830113,1.87742554148412,1.88181977264441
0,0,0,0,0,0,0,0,0,0,0,0,0,0,0,0,0,0,0,0,0,0,0,0,0,0,0,0,0,0,0,0,0,0,0,0,0,0,0,0,0,0,0,0,0,0,0,0,0,0,0,0,0,0,0,0,0,0,0,0,0,0,0,0,0,0,0,0,0,0,0,0,0,0,0,0,0,0,0,0,0,0,0,0,0,0,0,0,0,0,0,0,0,0,0,0,0,0,0,0,0,0,0,0,0,0,0,0,0,0,0,0,0,0,0,0,0,0,0,0,0,0,0,0,0,0,0,0,0,0,0,0,0,0,0,0,0,0,0,0,0,0,0,0,0,0,0,0,0,0,0,0,0,0,0,0,0,0,0,0,0,0,0,0,0,0,0,0,0,0,0,0,0,0,0,0,0,0,0,0,0,0,0,0,0,0,0,0,0,0,0,0,0,0,0,0,0,0,0,0,0,0,0,0,0,0,0,0,0,0,0,0,0,0,0,0,0,0,0,0,0,0,0,0,0,0,0,0,0,0,0,0,0,0
