1.81299923413448,1.81357433437359,1.81260519459594,1.96061981216234,1.81607195598311,1.99578890018965,1.98291584146699,1.9715134062885,1.97221563328696,1.96566794302571,1.96603034710583,1.98234767013591,1.9839765374435,1.97334505268724,1.81675321195583,1.96731822290019,1.96715626186378,1.94564947239698,1.81697678656379,1.98162627940318,1.89321852693687,1.89351872783087,1.98014917246848,1.97455760737101,1.97863356667374,1.81430521090992,1.81610030439632,1.89457296793527,1.97726491770924,1.97720011293601,1.89888470322549,1.895084993186,1.89388628412605,1.89399261886163,1.89244575197105,1.90333056885611,1.81993188608058,1.89510795296549,1.89829669525467,1.89797803097782,1.98248170261356,1.90665284155462,1.90416851635789,1.90619863142649,1.90425366096019,1.98830299979617,2.00950529656937,1.98054080600662,1.96280497499322,1.9622158112998,1.88743253781372,1.96104931567188,1.96079117216469,1.96097796840036,1.96172381920082,1.97119816952364,1.97129780016218,1.91769422137618,1.89253664057534,1.8923679065992,1.89383924581459,1.89533855075648,1.96883725790575,1.96948126142517,1.98841980461962,1.98509586492741,1.97376041229635,1.97221789471539,1.99062010927774,1.97061180989287,1.9702818638929,1.96965796928474,1.97081818831242,1.97589899504053,1.97440183988408,1.97464721652237,1.98138175702561,1.98083731743544,1.98254109690544,1.99867288329677,1.99245322600371,1.99122531652839,1.90697117273448,1.97795970021318,2.01228542011358,1.98817909171888,1.90707825362202,1.94949045436899,1.98679643589516,1.9809886492482,1.98751740052103,1.99039300929284,2.00525740183338,2.00339252145677,1.91340628896292,1.9137562320975,1.99018581071839,1.99457792549141,1.91371247646638,1.91369304825656,2.00152274926274,1.99290100855513,2.0087232665674,2.00398306916968,1.98889025812691,1.91757647684559,2.00410804463377,2.000661385938,1.98946012758808,1.98903171825034,2.0078859039877,1.9174452489558,1.91734803930377,2.0049569465687,2.01464796827389,1.92012329874151,1.99341508266399,1.94522273652157,1.92135859898775,1.92042242406911,1.91949968262389,1.92308961652693,2.00049646139133,1.99837035850682,1.99854888163557,2.01104114489881,2.02850189021085,1.99717325218023,1.99960572476988,1.99885683019101,1.86592015435422,1.86474044455422,1.86295415916297,1.86194346088443,1.86179428417841,1.859568400918,1.85799395645089,1.85914404706107,1.85929083231562,1.86257176174975,1.86088722255886,2.04314114605905,2.04792928642492,2.04721176911427,1.85991380216799,2.0358678745924,1.9494021050053,1.92988061243693,1.94704969778815,1.86338864797837,2.05560093406325,2.04029029347005,2.04026320188596,1.86004643865537,1.86012577377798,1.86639078311508,1.8618190864736,1.86313602671959,1.86324290930038,1.86265042376803,1.95310569918439,1.86270303279207,1.95293882595995,1.95149367951704,1.91177321443024,1.86027792455311,1.86387918643138,1.86353584814017,1.86383324585561,1.86300780106537,1.86138104330706,1.86265356918231,1.86308801361894,2.03146716687727,2.02972854773205,2.02909531217724
1.81317994792834,1.8383716539735,1.85590204692738,1.87387622881914,1.85214808778933,1.97066371658655,1.97085554370445,1.97127748781795,1.97572307447166,1.97851716778875,1.98080346231574,1.98203558376163,1.97877989082509,1.96923557674184,1.96676900608382,1.96700913729711,1.96863945717579,1.9720833037826,1.97668772855947,1.97517026911447,1.91269729725516,1.89448058330615,1.89387252988986,1.89216371212848,1.89008333342988,1.88592578202886,1.88615856185915,1.89573294975232,1.8975081839652,1.8986953338783,1.89832921589683,1.89530934897037,1.89433061389175,1.8935945898436,1.89244306210124,1.89882583170738,1.8956776218095,1.89480441058158,1.89578075975146,1.92172500096834,1.95100641978738,1.94404935241779,1.93676089035759,1.92743024182761,1.91931665158796,1.98379760227065,1.98380469067292,1.98122550971285,1.9746957594254,1.96110456921621,1.96027076905529,1.96030033087014,1.96017725595053,1.96125996519474,1.96132763540637,1.92980021173158,1.916437173254,1.90946756004027,1.89265752382119,1.89239911376043,1.8932954579398,1.89401296563991,1.92466717280329,1.96993640344751,1.97802981924981,1.97770140702851,1.97664705614395,1.97421308895074,1.9742523889532,1.97328311901655,1.97179165781003,1.97305482506721,1.97447183608543,1.97425066812484,1.973275981851,1.97343271007887,1.98120747020916,1.97994178522512,1.97999248052915,1.98389003822059,1.98743648695032,1.98801882148847,1.98773774043021,1.99035468221745,1.99188035230251,1.99135754409893,1.99359609022603,1.99204644352974,1.98841117822459,1.98625361399754,1.98596238340391,1.99445241520848,2.00452544796609,2.00368638804773,2.0022404173661,1.99920095617777,1.99433206447494,1.99571815993665,2.00005769134678,2.00443514280738,2.0028950460347,1.99998356856246,1.99873939861582,1.99858834452891,1.99905952690404,1.99994900191426,1.99904022595288,1.99885848820051,1.99948432938246,2.00653454022118,2.00671189422635,1.99720535131231,2.00200425295392,2.00218054140438,2.00075719085023,1.99997103238913,1.99383442669901,1.98497778925085,1.98474835913561,1.98456293691917,1.98460438451282,1.98475222585341,1.99926997417399,1.99895785262749,1.99832847551214,1.99732220512788,1.99774667604575,1.99733099971117,1.99692920561724,1.96270586077931,1.91167746003485,1.89682196570198,1.88530133072745,1.86279334502568,1.86203126615082,1.8610907755336,1.86043736457984,1.86079742800926,1.86101341907864,1.86231138808412,1.86216208672694,1.99479828100688,1.99480405170549,1.99480975935898,1.89492576887896,1.91681448435016,1.92017087389217,1.92518781183554,1.93066152933754,1.93593671167925,1.93912202118,2.04216902214996,2.04483392505699,1.89364461013396,1.8613130328378,1.86344596576791,1.8630811403908,1.86363785197678,1.86376537357144,1.86360100575946,1.8856085676296,1.89749790587047,1.90827344536275,1.89665511157992,1.8858649649402,1.86190349065079,1.86283803869366,1.86325817902043,1.86346604272487,1.86316772035116,1.86269234471923,1.86287751264811,1.86366329162572,1.86376825383413,1.86357402149793,1.86292825969088
1.81297653613683,1.96547576717984,1.96441169684757,1.96256246490963,1.8130496187674,1.96540293019884,1.97063729457802,1.97003154589803,1.9823871049742,1.98292483244067,1.98977249755398,1.99043291551281,1.96542976388846,1.96550163230407,1.99164835086582,1.96733137035709,1.97218974483058,1.96907591152865,1.98888765927556,1.96956667957305,1.96884568766628,1.88851065721119,1.81603387897305,1.89357887677379,1.81582973994915,1.88812408092942,1.88801071599249,1.89545388528858,1.89747192214194,1.88756675681585,1.97230411277478,1.89363939894919,1.90361539752657,1.97568692193712,1.89206623567288,1.90135787867057,1.89454982264199,1.89447966350513,1.89554657223975,1.97909728636135,1.979440414518,1.98841217415258,1.98100456836422,1.99534126690711,1.90567954794337,1.98246792896673,1.98653374776476,1.98040029810601,1.97529144973848,1.96204887614802,1.96113340318438,1.96137930612384,1.97152071491722,1.96359918295743,1.96645916316227,1.89058707961002,1.89034262092673,1.89031777971349,1.88989310410923,1.89091849716358,1.89280392285738,1.89291181279713,1.89141980146287,1.97127489725398,1.97106827081986,1.97987513005945,1.97943296382074,1.97640820823312,1.97686851991062,1.9880868312683,1.9724184215498,1.97387621260326,1.97680647136977,1.99502569041868,2.00000390513179,1.97455591871486,1.98441403861619,1.97963347707693,1.97973206859735,1.9049881500122,1.98970195429033,1.90449238694373,2.01424900632689,1.99153718897947,1.97768331987921,1.99101397051319,2.00298280725963,1.99091914568221,1.90983877568394,1.98677971618894,1.98557825856181,1.9985958674516,2.00666664233082,1.98293734553847,2.01349532113494,2.01107551887998,1.9933783345977,1.99394722899388,1.99728149444894,2.00556432941156,1.91584618849745,1.99937629657284,1.99865938838625,1.99081990105876,2.0033472726153,2.00208190893464,1.9913224872502,1.99705136356157,1.91542818598706,2.00898044397048,2.01178027523664,1.98771158347005,2.00830915380591,1.91908318598485,2.00088982392598,2.00163880034707,1.99464394179491,1.99106465172798,1.99380503756745,2.00007165195725,1.99863643548198,1.99776989515254,1.99893734479189,2.00020832034164,2.0090173238338,1.92514890776599,2.0001321961693,1.99881564626172,1.9987170407985,1.94720699271962,1.94114007045854,2.03346523716918,2.03349763955579,1.86398462092297,1.86168922496613,2.03442920862681,1.86057074943015,1.86108499488999,1.86061687003746,2.03902710728711,1.86241487249802,2.03905626943507,1.85725529283129,2.03149355239972,1.86117687692377,1.9118206317934,1.91158109279403,1.9105145342923,1.91082446238713,1.95619688638974,1.86035061634066,2.03655204746607,2.05126537359289,2.04219617890461,1.85988889351987,1.86295993187529,1.86331017910042,1.86372614680325,1.91187042730213,1.86375368558251,1.86321417797774,1.91151075656355,1.93162292605135,1.86297640331162,1.86355137345883,1.86209640538236,1.86262379665597,1.86311508278739,1.86355137559763,1.86346307053591,1.86277010759457,1.86236404768849,1.86358173245223,1.86308279188345,1.86191057040611,1.8619191393174
1.81282961330643,1.96569565476663,1.96567090038006,1.96623494397396,1.96502344116757,1.96544669281617,1.96741830138008,1.96964320693305,1.9709130367904,1.9701711383635,1.97017218848486,1.97060628679778,1.9652186972419,1.96517537599668,1.96973750943043,1.96950234081452,1.96878208808437,1.96623356276697,1.96494874895085,1.92093064163202,1.90634610265943,1.88765230575876,1.88656260936262,1.8906312177222,1.84794711333146,1.86148414307605,1.89165014793532,1.8950691737123,1.89713525797375,1.89882813512223,1.90029092191792,1.90054958259247,1.90103372511508,1.92641383794774,1.90276331482157,1.90025191303496,1.89638801201864,1.89435365615577,1.90052917595323,1.90020055072432,1.90053066217831,1.90218822094977,1.90493833912761,1.90622272472825,1.90664225466531,1.97990241384092,1.9813440067555,1.97952560462607,1.9803249136393,1.97050697979268,1.96846279930641,1.96469498254682,1.96478447305745,1.96362881549166,1.96384027292028,1.92190344361474,1.89012332311347,1.89040252967693,1.89033520171001,1.89135129703352,1.89217616124625,1.89269788229108,1.89209251946798,1.97007878234219,1.97802971448757,1.97864837153268,1.97869131178311,1.97692645280069,1.97628152774784,1.97692570172356,1.97786564136471,1.97761355574947,1.97559030004897,1.97396480843169,1.97409959763873,1.97645973997429,1.97742584581863,1.97705489809721,1.97742534979257,1.97799669537854,1.97700485104349,1.92807253829468,1.94179938679642,1.95044666720193,1.9912823486521,1.99042631774794,1.98850161710163,1.98694547550414,1.98514822363935,1.98439542956219,1.98517947145658,1.98732842243604,1.98950531946395,1.99112239246089,1.98887696246938,1.9876526189457,1.98990297794889,1.99097543902746,1.99466849368425,1.99569237879545,1.99957769832822,2.00008398921498,2.00049689496149,2.00212313008768,2.00319223955286,2.00344609050447,2.00358984684524,2.00307909052729,2.00223181159436,2.00260781844658,2.00302694873588,2.00158092944269,1.99945766273821,1.99648928534583,1.9980716027955,1.99854506144842,1.98965414835053,1.99041575502594,1.99055101585063,1.9906498156635,1.99868788488784,1.99793043536085,1.99877649373068,1.99966993259995,1.99918739901627,1.99851277479484,1.99979929283589,2.00148077789536,2.0029640841084,1.93265478857614,1.92796607569348,1.92266629260975,1.91762945177544,1.8905801887616,1.90129782879778,1.91587426991781,1.89499236652463,1.8615245315997,1.86145710241358,1.86172715644693,1.86213340263661,1.86243942057194,1.86293977108267,1.90903569315392,1.89231600042438,1.91046181057067,1.91028391212478,1.90986754142903,1.90986901869431,1.89573907573716,1.88624997034371,1.89889557582058,1.91586584773655,1.89279758298185,1.8622524968221,1.86296317750522,1.86338149911081,1.86365702244663,1.86325762642281,1.86367838838719,1.86335813749581,1.86306143129609,1.86313043577723,1.86376023026661,1.86380006411846,1.86319651181349,1.86303672427135,1.86294410344028,1.86295525024788,1.86355885964496,1.86370564145432,1.86355349220622,1.86366839590144,1.86233005746183,1.86240355513931,1.86206684648655
1.8127628365858,1.9653158256788,1.96588445561266,1.96702853090001,1.99193996285269,1.81306906059799,1.96444818902989,1.97068697683155,1.97408309631059,1.96546146638186,1.89097087513233,1.96243764532119,1.96585786734651,1.96540900699561,1.9654265901913,1.99172509941725,1.98214289216791,1.96551761574822,1.96813286885146,1.88980102225001,1.89402363808099,1.88813683440282,1.88626805822712,1.89700040884486,1.81458387052176,1.8142663294254,1.8965028739407,1.89607906234498,1.89699862150548,1.89782628155924,1.88676542697072,1.90122118712144,1.8907409509249,1.97584245339286,1.90419893105175,1.89284407503905,1.81613108613266,1.89368717684261,1.98031398274538,1.89730992932794,1.89731543891725,1.90209883718289,1.90657326065129,1.90694993356007,1.9078507009643,2.02210503389059,2.01426674963358,1.97864150401751,1.98193029398228,1.97296931620069,1.97057599909777,1.96328953283873,1.96662487805249,1.8890558974363,1.96259639564748,1.97512429322016,1.88926492747473,1.89001402268834,1.89004935912351,1.89050695315561,1.89269564707869,1.89247422714848,1.89223105751585,1.96943663754859,1.99812025404835,1.9949064025914,1.98084646657685,1.9783479515158,1.97175559638441,1.97777920338323,1.97986971828095,1.97964165104054,1.97513547386852,1.97491417702177,1.90145953100254,1.97886919160892,1.97915765452196,1.97639296929711,1.97803239347262,1.98372010932022,1.98039881446956,1.90672371058635,1.90565610600461,1.90558832953066,2.00105078171725,1.99360360638551,1.99215536754508,1.9876970696952,1.98940970326473,1.99878286744572,1.98485024033408,1.98396037156876,1.98927123510317,1.99425024243008,1.98590921034597,1.91400927090277,1.99089947709568,1.99287797794706,2.01114037640916,1.99520520754556,2.00326122814403,2.00151584659454,2.01850555962913,2.00518795969703,1.98770090424652,2.00499369014583,2.00882555112828,2.00376155771242,2.01594798639332,1.99789725960416,1.99600723050819,2.00511591106071,1.99021998286424,1.99152655450833,1.91999693195213,2.012207651888,1.92002735478476,1.94415892330476,1.92036336603041,1.92007826417555,2.0002928465691,1.92165959319752,1.9986460715658,2.00061475397934,1.92311727989252,1.99944316055765,2.0110921903356,2.00664793456145,2.01151877554486,1.86367229988288,1.86368436340154,1.9107941167039,1.9105014680756,1.86408336800196,2.03955818929501,2.03000160865175,2.04256395693925,1.86145187668005,1.86124973630927,1.86079226885054,1.86092919338369,1.86155680528316,1.86222904302813,2.03101723731652,1.86360616547389,2.04213773640191,1.86095359449273,1.89643158991871,2.05867267429024,1.86140073735338,1.86050753621034,1.86020314521648,2.07184424444819,1.86261830892308,1.86307669592859,1.86267233156079,1.86380541443916,1.86330587319062,1.86167675786341,2.03487636156206,1.85992778997159,1.86127128039324,1.86081517404228,2.04404299673472,1.86391059624193,2.04326533945602,1.91010125031483,1.86239556274891,1.86138673815773,1.91086826243772,1.91047284577076,1.94586701073597,1.94440241646299,1.85969725540948,1.86237861435878,2.03882297225146
1.81310966387231,1.83588524782473,1.84950097792118,1.86625974397214,1.93412003619697,1.93467287561598,1.93548986119925,1.93629101896133,1.96588041880907,1.96549995997196,1.96481868739545,1.96409532514703,1.9649831793358,1.95809703165901,1.95847489422,1.95896873980995,1.95928750034051,1.91618119808505,1.90399983244838,1.89061188795619,1.89094411555188,1.89124740384319,1.89398183023612,1.89586087396006,1.84788731397106,1.86411123301855,1.8873859495615,1.88763557401429,1.88834770050751,1.88814738333841,1.88771102188102,1.89160979769386,1.89332040892032,1.89622251582485,1.89916773115271,1.89393588178402,1.89402002639756,1.89456789174872,1.89554842169923,1.89631335239562,1.89600351536875,1.89908999453571,1.9071066083793,1.90732084188481,1.90749404089873,1.97796820817331,1.97749061626166,1.97735145734042,1.97877793315782,1.97390621920863,1.96538711555472,1.96268538791242,1.96276909400312,1.96048208245021,1.96012097563698,1.96013790305837,1.89010447383816,1.89051612384769,1.89044113210586,1.89160337065211,1.8918598701198,1.89283651994265,1.89292550148218,1.97207477647156,1.97615045496183,1.97709871974798,1.97997504194131,1.97896815337932,1.97930636839266,1.98075514228292,1.98126157700532,1.98218633242266,1.98207461395179,1.9809344264608,1.97862481260158,1.97712478267061,1.97570115605804,1.97432270256285,1.97588074006461,1.97726935524272,1.98025447150375,1.98453585616572,1.98716722869599,1.9907913049015,1.99061722839815,1.98650006984287,1.98514583933966,1.98578057538262,1.98790534939266,1.99479520188322,1.98603684798433,1.98612591431394,1.98665809943957,1.98543098193967,1.98515622433572,1.93169513546728,1.94747321381622,1.9963368483889,1.99737300053593,1.99669430620614,1.99963690173669,1.99926406782863,1.99737599308532,1.99638186517351,1.99626659409756,1.99947527288237,2.00322586093541,2.00193685125364,2.00106134724582,2.00074387998023,1.99841725970984,1.9974036944544,1.99345466524721,1.99236138239199,1.98048178881542,1.97988540748704,1.97910729435561,1.97873211526322,1.97908272612788,1.97990719341293,1.98057333127247,1.93801970283149,1.9483913998348,1.95675532277076,1.96574865465744,1.99697270652642,2.00352076974252,2.00354597465379,2.00347186735078,1.86377266835129,1.863667436558,1.91131639571524,1.91121973015422,1.89985112067612,1.89251368044279,1.88454555995845,1.87683451799494,1.86129919988101,1.86139522349952,1.86168166142925,1.86215145106081,1.86254737425902,1.86280631419767,1.86390506837934,1.8637782909117,1.90238355927342,1.86199083406892,1.86152928025925,1.86096359075147,1.86076534465696,1.86122849597175,1.86216098322648,1.86291519744871,1.86257417899691,1.86264558660765,1.86348028442855,1.86381730069591,1.86380477924695,1.86301716714569,1.90022551552492,1.86339673774905,1.86283746381928,1.86270293896963,1.86311331281796,1.86329368510625,1.86347578350477,1.86310168678012,1.86259795778064,1.86207236574565,1.88914877569464,1.9189913721537,1.92721752878817,1.90976527432541,1.90203027617888,1.89180574698928,1.88038548008163
1.81267106090661,1.81318715228077,1.81495028616901,1.81353300740911,1.96415706538978,1.96474663154116,1.81342872554662,1.93698100526393,1.96541875526066,1.81495487949877,1.96473878134049,1.9643152159894,1.98454249998532,1.89089311324068,1.81503426316801,1.81589616954614,1.98003208198185,1.91402212347789,1.89028242414612,1.81456605085945,1.88624219260363,1.89140710729839,1.89540878941368,1.89632718693576,1.81291352638615,1.99490477743696,1.88716333482232,1.88773919958938,1.88774255751793,1.88751796943396,1.88841345924202,1.88895877690597,1.90313082689398,1.89021779338816,1.90217455536917,1.81662684264807,1.9040469308486,1.89507460510818,1.89435796370142,1.89354753348417,1.89446873307475,1.89799127012017,1.90693211114683,1.90142419754664,1.8303622143329,1.98150880835958,1.98097271412319,1.97895952677929,1.88465241054327,1.97690321451371,1.96423195895663,1.96091173032816,1.9604980201371,1.98316551203437,1.98142784497992,1.96256060545153,1.89036238569319,1.89064690150512,1.89068432107669,1.89127319287484,1.89219776280554,1.89221782300721,1.89403915858497,1.9778226400581,1.9704209384374,1.97071627922654,1.98128480047678,1.97957405900855,1.9878542572013,1.98373335023831,1.98203041187629,1.9947557053344,1.99907582181145,1.98779786859888,1.98976126287891,1.89973895618806,1.99210908779685,1.97331069175608,1.97631119277031,1.97659979511539,1.97838259231684,1.98588119148115,1.98406282247912,1.99806538427295,1.90769050773403,1.98215391504288,1.98616062409086,1.98447076995903,1.98510882971245,1.99827008407906,1.98676613687294,2.00491623543371,1.98654764522387,1.98565551751459,1.98550110805413,1.9144058912894,1.91478823537361,1.99717626302347,1.99627816993696,1.99709165784297,2.0007500343227,1.99997036483411,1.99788721520778,1.99058676470788,1.99133054641656,1.91581702759898,2.00348123165551,2.00144239444063,2.00354131474354,2.00382166335818,2.00522057367784,1.99450382911968,1.99563802814432,2.00929959307028,1.99258956574881,1.91726540740105,1.99994422194829,2.00071581633105,1.99795003289634,1.99628324243203,1.99550570323866,1.92159017819346,1.92182078892594,1.92449267677296,1.99763488609843,1.99723373385951,2.0049985768623,2.00034721430282,1.99986509899839,1.86125732944032,1.86326454533891,1.91260664577875,1.91244225441964,1.91376369060679,1.86004677511687,1.86084894548819,1.86005758375865,1.86092033293003,1.86086505779283,2.04189795828507,2.04194980210365,1.86304685489291,1.86160118522857,1.85952251792387,1.86354262892398,1.94895495298186,1.86047912607457,1.85952164444782,1.86175160779468,2.03668927514106,2.03511451182318,2.05490104189737,1.86265982017981,1.86172556691076,1.86148291134182,1.86387778989972,2.0464440135827,1.86400187091268,1.86290727347908,2.03632474824364,1.86311430173158,1.91714795683835,1.86289534364719,1.86203568914715,1.86176715351183,1.86290286157516,1.86245886667369,1.86233681355947,1.8620152739826,1.86056082907355,1.94845271491484,1.9468714841318,1.8616633720385,2.04745460739165,2.04096188950942,1.86171981166569
1.81373288071046,1.81308998556885,1.81378848897995,1.81315478741735,1.9627210460227,1.96338605959681,1.8526423575952,1.93753824952694,1.96767771549559,1.96862093982306,1.96795037990493,1.91329761320454,1.90077806718951,1.86379232758205,1.84643317071123,1.86368087586817,1.91293254699334,1.91389110172156,1.89069097520458,1.89044709211274,1.8907108396521,1.89109507601732,1.8936362012199,1.89493786006341,1.88980783551808,1.8889394397122,1.88836416520494,1.88819727487448,1.88817953421313,1.88751144299549,1.88784822721554,1.88865743313873,1.8952018346857,1.89817911912879,1.90230809479236,1.90209357112282,1.90279599215917,1.89450675904785,1.89391248672511,1.89306859488693,1.89303986829728,1.90063857252546,1.90520679401345,1.90243212721089,1.90255225849696,1.92570609506957,1.98197732448442,1.9817649878564,1.96213918688525,1.96294279027609,1.96144712836202,1.96037350863304,1.95968252725656,1.97514271463285,1.97775098163304,1.9688306620169,1.891644527648,1.89136213895675,1.89090114834021,1.89171013720791,1.89212818223937,1.89308492653294,1.89332374637156,1.96677158916812,1.96828099236514,1.96885158734251,1.98141642459703,1.97999852706476,1.97934247776381,1.98013036733519,1.97964518276223,1.98611201007103,1.98477461470114,1.98582652812784,1.93650492109475,1.92000236428013,1.93379025854801,1.94723187455667,1.97722731864808,1.9784555816867,1.9805598410538,1.98305359634022,1.98576301610966,1.98760654063295,1.97986628592392,1.98185921673296,1.98415052228347,1.98298124792212,1.98262689367391,1.98207425818851,1.98377370325812,1.99930957073019,1.98497901471286,1.98506359355051,1.98409578784168,1.93071261589951,1.94682066292222,1.99586024656551,1.9954989329683,1.99625287537122,1.9951659424124,1.99623222132682,1.99590118005652,1.99579789513854,1.99624883945856,1.99730054494448,1.99975666400946,1.99879831335126,2.00108332817722,2.00206359541156,2.00116201544184,1.99911643295604,1.99669028909389,2.00414934518767,2.00221554176739,1.99993274054364,2.00170487779439,2.00147599027342,2.00007144012294,1.96477773620829,1.957826356518,1.94897834795383,1.93999031941977,1.93234349444287,1.99635151541573,1.99661368257581,1.99745066797308,1.97774233172376,1.94524886053695,1.90329725550767,1.88683653369794,1.90115166025706,1.89294960987953,1.88438783518327,1.87653786269386,1.86112281884298,1.86083156673538,1.86122521418214,1.86167271873002,1.86230328221318,1.86211042348817,1.8619733067743,1.86200783867761,1.86139107125768,1.86173239380058,1.86043760458384,1.85907953183016,1.85832924337786,1.85924571451091,1.91493456752823,1.89952603036121,1.88817324077006,1.86236959682371,1.86274556061847,1.86339834744848,1.86428003585458,1.86452841460762,1.86418912375454,1.86335161550428,1.90793027792426,1.89058456995779,1.8990336348111,1.89125197712354,1.88175393863872,1.86118825615307,1.86201230923958,1.86228339475786,1.86200714937522,1.86154723586061,1.88983059902061,1.8979239152373,1.89134497256419,1.86177788813332,1.86205959802192,1.8614782684957,1.86044809930333
1.81236029667686,1.81365567868051,1.81234233949587,1.81230106587973,1.96238676853451,1.96788948959634,1.81608247973068,1.93787411284903,1.96755565325654,1.96809570513544,1.99006386528891,1.89093996582613,1.890979820658,1.8173251152006,1.81724086222566,1.89419015889014,1.97011695167844,1.91507781494441,1.89202633806406,1.89056422529397,1.98511601644134,1.88847179103465,1.88701897379004,1.97096265396903,1.8901989457243,1.88801701809081,1.88904151608527,1.88882380567568,1.88939060425303,1.88751836872194,1.89810029860727,1.89031488336326,1.89228136191817,1.90132501828452,1.97954604618266,1.90473000542709,1.99228018412135,1.89421338663244,1.89412908873581,1.90631935941374,1.81956249887509,1.90953872073805,1.90687373049657,1.90115197397866,1.90319732283175,1.90420572131465,1.98666396916424,1.9857978811435,1.96468994754031,1.96638681400686,1.9615234157387,1.96129371074444,1.88721868211224,1.97145438447514,1.98059707768058,1.97244385439799,1.89291373412684,1.89141556473289,1.890641678325,1.89053364834236,1.89302265312061,1.89306618071123,1.89305733611474,1.96772502080933,1.96883986754318,1.96884324907373,1.98338349925851,1.98029412558022,1.97724374434221,1.97041104829646,1.89773649681488,1.98903640671467,1.89866968555805,1.98671062824924,1.90083683680454,1.90075685873342,1.90043246026255,1.94344379818484,1.99083171175712,1.99890319313266,1.99844280793239,1.90449239440316,1.99369415384156,1.9916443108029,1.98089263411465,1.98523000943354,1.99030677943728,1.98298167701975,1.98315549205564,1.98377417428981,1.98499825969401,2.00180602359437,1.91166628279867,1.98714951053497,1.99233995425926,1.91211342743991,2.00353955102532,1.99303529390604,1.99221666810613,1.99695150893035,1.98933050290029,1.91441562568708,1.9135148392082,1.99751209615053,1.99998817261731,2.00159278334472,2.01493287094948,1.99552074674301,1.99079548037849,1.99071143342115,1.99101739155578,2.00806262097563,1.99562004777068,2.00799234084293,2.02207350711484,1.99458592577374,1.92094954644885,1.99998233342562,1.9988046074679,1.92040357439539,1.92008603638831,1.99829406662071,1.99684243970047,1.92358482250985,2.00961859593342,1.99669477305504,2.00055198425905,1.97756825543427,1.92627517268626,2.02997712070626,1.86255721257941,1.91196262636024,1.86250375971063,1.86291202662509,2.0316879667194,1.8615788220099,1.8606945068395,1.86127697401528,1.86127145789452,1.8627959981877,1.86049595822684,1.85988826291855,1.86221945004895,1.86216352133918,1.95539978767907,1.86152714329344,1.93060195665358,1.89788389318992,1.8598885697449,2.04265293434905,1.86406282912259,1.86529774827607,1.86154155747495,1.86267286503301,1.86447894157508,2.06802400306659,1.86382160392291,1.86362481874569,1.86209919336297,2.05420114493772,1.86045754502354,2.04162468725445,2.03910181680822,2.04248858776078,1.85949165271798,1.86119002942935,2.05474550503281,1.86143331864423,1.86040597337063,2.05653411677381,1.91198589686011,1.86023810787214,1.86040254637163,1.86140262521264,1.86093171037222,1.86001323617767
1.8140487669406,1.81382880754825,1.81406736027393,1.84243627692726,1.86060067995744,1.94656091350527,1.94727885120241,1.9483892445215,1.9492385287366,1.91524464708543,1.90748071714538,1.90048952733563,1.87235639649774,1.85885662486623,1.84689096387088,1.90472212669975,1.91517583681813,1.91617739102028,1.88812546975244,1.88759725196021,1.9167012226988,1.88883083027249,1.88745954642786,1.88784321888983,1.88903010878051,1.88841327739606,1.88859703916287,1.88880307823793,1.88851553162351,1.88800069918383,1.88866639843135,1.88982196519791,1.89114002605264,1.89139491955227,1.8918377254351,1.89249829018186,1.89321335556249,1.89364226419189,1.89380042582718,1.89405291445752,1.89573687333106,1.9002863848744,1.90237171074314,1.91481777038485,1.92656248896814,1.93703283595868,1.98671050766765,1.98847635106207,1.96392883120796,1.96516724945346,1.96718195868679,1.96744959811715,1.96621766364927,1.96485875450039,1.96372616220713,1.92063970541271,1.89126486391625,1.89091302729261,1.89076044329615,1.89138675694115,1.89201969298364,1.89246223758625,1.8925228321186,1.96703576997054,1.96750354763181,1.96791557611214,1.97663163754411,1.97806310811704,1.97946068028232,1.98143361040204,1.98161886587739,1.98863893154788,1.98726993373526,1.98541809457498,1.94108613143047,1.93028447533644,1.92207552431972,1.9366240318979,1.99007920298071,1.98979170752506,1.98938462940827,1.98909205351741,1.99051846711027,1.98923831018709,1.98691718698445,1.98598269801205,1.98333837124475,1.98119494932517,1.98051112748247,1.97942390691591,1.97914190372208,2.00016661565088,1.99775063317605,1.99507868060827,1.99217944786638,1.99040671150925,1.99023468395053,1.99068382085576,1.99166939633009,1.99326825907006,1.99238010006085,1.99298811773747,1.99553625192567,1.99780126859782,1.99856072581147,1.99935697699555,1.99551719303456,1.99314356240726,1.99032949100435,1.98964665480401,1.98981461614264,2.00517190177584,2.00112445658964,1.99788278419162,1.9964137925422,1.99507440024159,1.99687859068968,1.99796530752096,1.99838153738613,1.94506249290277,1.95464957393146,1.97005655498672,1.958821880673,1.94705686891331,2.00901790360711,1.99785382384209,1.99967778469967,1.97751388746011,1.92620029585122,1.90154317124511,1.88764332082541,1.90546946003518,1.89976933692842,1.89379140752605,1.88801226625272,1.88285151444281,1.87909408507266,1.86118278028123,1.86241724245274,1.86226347435881,1.86139662344883,1.86099175027762,1.8617565565028,1.88826527145575,1.91010615884888,1.90972556599444,1.91050024626235,1.91040427124401,1.91048506756336,1.92315328233734,1.90600660242665,1.89457631759472,1.88359941216867,1.86385533943609,1.86416749030399,1.86400764223688,1.86389149735587,1.86370388612245,1.86302154364798,1.90953237528481,1.90950573947464,1.91702725890854,1.92455529977127,1.93811147532159,1.89002712213439,1.86232038621042,1.86205950131622,1.86142088381304,1.86039075107388,1.88816307338791,1.89961139484709,1.89228675661715,1.88353723058012,1.86068062843772,1.85927449234607,1.85804603628558
1.81315386709634,1.81481327224864,1.81451620122181,1.98105275716014,1.81335096136084,1.98018758870878,1.964567818715,1.96398198797946,1.96620970277405,1.81706427486734,1.89033924173319,1.96572425237161,1.8157519782095,1.96651371213693,1.81520761141182,1.96690325821793,1.97404997720994,1.9185945180611,1.8136004604563,1.81483174818757,1.96765761053456,1.89069787409343,1.88554636139826,1.88716054581018,1.89035426400065,1.8955885849372,1.81371062785267,1.88994391203041,1.89992329467469,1.88833389728225,1.88913866641506,1.81312738489392,1.88742276282768,1.81595611324518,1.8903238037184,1.89008989358885,1.89343806584276,1.89356549599234,1.89394423219019,1.89401909063421,1.8994818040244,1.82306195662921,1.90128760035828,1.9882620215266,1.9916312939864,1.98961436735946,2.00254578469174,1.99020993423732,1.9647437450088,1.97386329253307,1.96854994929731,1.97111627883485,1.96664079464099,1.96579174130372,1.96416821306945,1.88832318562368,1.89006540773107,1.89013465937824,1.89056430745723,1.89142767852289,1.89176387897676,1.89149824106154,1.89201826672318,1.96772720161572,1.96786995841079,1.96896043972581,1.97653120649783,1.97730124077148,1.9863912314467,1.98444210120685,1.98339423766802,1.99053806753705,1.99067981395179,1.98395183818692,1.98333524654715,1.98544950945538,1.90399925412986,1.92970640486896,1.99819489902278,1.98788908618399,1.98088754781573,1.9982596937867,1.90750581634243,1.98475414903978,2.01125503076003,1.99029559393616,1.98318536703256,1.98063081541488,1.98189753292333,1.91060348265447,1.9109015865369,2.00135489087749,2.00265883433257,1.99774316188843,1.99837080192721,1.98580708083711,1.99407391319499,1.99062159417488,1.99243661626774,1.91341600917271,2.00556893111696,2.01528783318905,1.99799760826702,2.00122427204378,1.99599081446322,2.00291955930123,1.99449144361314,1.99234541573244,1.99301406463417,1.99020119368609,1.99077884909949,2.00861525958382,2.01000613677645,1.99329563438372,1.99362919268236,1.99290183220542,1.99881668338854,1.99724785851786,1.99924968633206,1.92032742784901,1.99593841277008,1.99517371780056,1.92328415222934,1.92227967727128,2.01166329179291,1.92554745520443,2.00108119233348,1.97773656216439,1.92601093070781,1.8610228343787,1.86144942148705,2.04532295478651,2.04022593089936,1.95859494801282,1.86086581619465,1.95684804299125,1.9572212726771,1.86082151422053,1.86234421144745,1.90915834821216,1.86034979554001,1.86104890511132,1.86131820137213,1.91265540236102,1.91138507558723,2.01995506252703,1.9123130326619,1.91113767641136,1.91135373386647,2.03687271816845,2.03486525179259,2.03425201313924,1.95556503893898,1.86428487051004,1.8641591394902,1.86345630125312,1.86367595331605,1.86372599023313,1.86295202649965,1.91080251130391,1.91074269551638,1.86014648513836,1.91186069417692,2.03823000857645,1.9098096352989,1.86325029188787,1.86183179822778,1.86139463906839,1.85873067487455,1.85959739548398,1.90967605726821,1.90921235126281,1.94415292081252,1.86257124237922,1.90971778346944,1.90842184904759
1.85588665868568,1.84454929991768,1.83392170800275,1.84957512230122,1.8663687901352,1.9620344823172,1.96266220845869,1.96454299362868,1.96579346342326,1.91118981720892,1.90511534992972,1.9689452836642,1.97085697488432,1.97005194872776,1.84844214504199,1.86509491717261,1.92070774731329,1.92047370245735,1.85901094939322,1.84631870313177,1.88878835902453,1.88970989052873,1.88970790982714,1.89012030316775,1.89152194801975,1.89298451234297,1.89319833008433,1.8925926642606,1.8946054122658,1.88676345584467,1.88716499918343,1.88723231612673,1.8888227219882,1.88955612443478,1.89024657995023,1.89017896343875,1.89321569525668,1.89331561362587,1.89319711019167,1.89654782866873,1.89793686602505,1.89818310953631,1.89943279032457,1.92242371871233,1.93641499400756,1.98897679847847,1.98978774406405,1.9900117749974,1.96294686538589,1.96707706607582,1.96813934642078,1.96957457709398,1.96436863397525,1.96396218843248,1.96333274961198,1.88900344009493,1.88926548154665,1.8895264615154,1.89006455913845,1.89082601469516,1.89126643750742,1.8914538958392,1.92614485280036,1.96569627373475,1.96946522983797,1.97052883876069,1.97259796686829,1.97841887584551,1.98084189535941,1.98287035502541,1.9832615286924,1.98804743192546,1.98631084230842,1.98467468331286,1.98431756364941,1.98492264650374,1.91385540759056,1.92105643950038,1.93648850243187,1.98688859284922,1.9934312602169,1.99544655527642,1.99340975892149,1.99398954169749,1.9938129789104,1.99145461008991,1.9807790136683,1.97945078574331,1.97980261194539,1.97899945118285,1.97803083731573,1.99234360672812,1.99349414923069,1.99505422570581,1.99544579070921,1.9871188685956,1.98777371503389,1.98838100054283,1.9901823349257,1.99060689001381,1.99149159983738,1.99148262609299,1.99501850247275,1.99649284704864,1.99643499542463,1.99522222452702,1.99361273931551,1.9928061384982,1.98996219786434,1.98935956768218,1.98883682355231,1.98678010872481,1.9894510713115,1.99190351913977,1.9929943518332,1.9935835787087,1.99539660511126,1.99477669411035,1.99582792891104,1.99242838889576,1.99220025335,1.99210089455792,1.99233533157037,1.99264727259802,1.99969845774735,1.99801111969977,1.99837865154578,1.97801419880054,1.94288358847045,1.86167851451792,1.86174131591812,1.89706863727862,1.97839189400485,1.97210869597036,1.89762328028593,1.95583399267391,1.95595798083201,1.85969677887187,1.86008571316048,1.88841337708192,1.85993686374355,1.86014292074731,1.86114434883687,1.88637974080409,1.91100315242533,1.91051901544599,1.91121489259407,1.9109988962048,1.91122323527349,1.91128544915363,1.91128563508974,1.90209865304926,1.88711187680921,1.86410584782223,1.8638880138602,1.86411227777891,1.86421491465558,1.86413671828501,1.86370705009256,1.8888723110661,1.90524500502823,1.90060731701697,1.8944493240572,1.88764312302842,1.88123922286133,1.8763815609137,1.87059010720794,1.86962238119224,1.89073689059433,1.89890529982951,1.90914841842272,1.90883189694056,1.90856154551381,1.90897539684653,1.90881008758577,1.90824555328645
1.96774175110389,1.96219338303869,1.8115655834959,1.81173408347989,1.96411694349593,1.96392533160888,1.98495076924724,1.96925656106347,1.97134860221506,2.00043586540853,1.81656851835214,1.96638334734706,1.96785859111333,1.96800040001431,1.81448100668733,1.81841301145724,1.99416600302219,1.92142112827074,1.9760563091445,1.81557700024441,1.88816231484227,1.81485767233899,1.99045268951641,1.89492960959857,1.89409962762374,1.81299129487008,1.89601004450328,1.8943816834023,1.89652609874445,1.81621857257674,1.89691418483649,1.97846704670847,1.88993878732633,1.89068860859879,1.89052747592104,1.89120336988357,1.90120247113278,1.89329287851902,1.8927617376862,1.9077663387815,1.90719382333586,1.98574786298028,1.89893240303295,1.90138655584045,1.90140331660031,1.9904628552565,1.9940853792959,1.99042143702882,1.84825805246683,1.96839921018759,1.98214846720936,1.97718450247399,1.96366571921736,1.9635356984638,1.97098291743532,1.88989421963931,1.96617930107319,1.96401825140883,1.96420272057557,1.96295089878315,1.8913207062348,1.89161300909608,1.96558361810769,1.96608477555496,1.97680070666907,1.980876338854,1.89722129417014,1.97700079487926,1.96285684853724,1.96387413793027,1.97679412708006,1.99022923999295,1.89942790141079,1.97057915992543,1.97090337102638,1.98479189566781,1.90393521568222,1.90430296922226,1.90383432607938,1.98712545248502,1.99593186564112,1.99639065989248,2.0114191030208,1.9971589611215,1.99460660706395,1.99381567142308,1.98270097734381,1.98045966344365,1.98230544524794,1.9834300504057,1.98203744754401,1.98697643627656,1.98455864966247,2.00198102846433,1.9839158388143,1.91447556897287,1.98411858764227,1.98748934931689,1.99214866871328,1.99408243006371,1.9946624223871,1.914546855624,1.91525970237049,1.98970180770565,1.99033489046589,1.99063698371026,2.0025360768077,1.993565945917,1.99034832162077,1.9910274889612,1.99113117855566,1.91728485660158,1.99276731105286,1.9933101912457,1.99384245109124,1.99392945301908,1.99621376625504,1.99331531854435,1.99564973369593,1.9942537624037,1.92325012824549,1.92160408908976,2.0009705982877,2.00140992561597,2.00358391393489,1.99810335100755,1.99789307443969,2.00046027563899,2.01307938283442,1.86163475034706,1.86146077862732,1.86087510337346,2.03891369847806,2.03822676788188,1.85865332815303,1.95588366526718,1.95600636074661,1.85935240900275,1.85662707085576,1.94967428596466,1.85866910351196,1.85840712363994,1.86138967274967,1.86383115946103,1.91185521710802,1.86170179942528,1.91168416070314,1.91085536797825,1.95056859619852,1.91091249658066,1.91066094000889,1.8618210551737,1.86350297740033,1.86371829959458,1.86281533587881,2.04219649111045,2.05534775809935,1.89329841639873,1.86362166893958,1.86308475903045,2.03213511965465,1.91100528379742,1.86066538962547,1.86196296951671,1.86068873977835,2.05447332498526,1.86290594818677,1.86824766946818,2.03908820820851,2.03859384070921,2.03877714529703,1.9086989876603,1.85872726357459,1.91021041032831,1.90887283062402,1.94389046128979
1.9670846374106,1.96531037335803,1.92429020814686,1.92418492495528,1.92402914839614,1.92391414129599,1.97295724277004,1.97222878415912,1.97208038277493,1.97295191685298,1.96982273418687,1.96544093429534,1.96646733040821,1.96629814223126,1.91400624285606,1.91189525260804,1.90804036670542,1.90299268797631,1.89733560059877,1.89511099640347,1.89386552879747,1.89881242408195,1.90259217961059,1.8939809725985,1.89431132518999,1.88835732490956,1.88875945049417,1.88895412752298,1.88826120061834,1.88780898158698,1.89365853451251,1.89169894940394,1.89010352144035,1.88951534271855,1.88988898629755,1.88994434665428,1.89175002448613,1.89309485882554,1.89364189948709,1.89451326972298,1.89572918717078,1.89712173291443,1.89825220357744,1.9024948034031,1.90239894064047,1.98833890602133,1.9912089477906,1.98993911266291,1.96535255990473,1.96670912295012,1.96645321480612,1.96675148310298,1.96580850498562,1.96402473925751,1.96383909624032,1.96251759191346,1.96408093026269,1.96372768713844,1.96427328444359,1.96403572576085,1.96454966682145,1.96445459149366,1.96491056828782,1.97226513091868,1.97349918656239,1.9764826874197,1.97499894637054,1.97583528678826,1.9762769380091,1.97709456852907,1.97739220137163,1.97656659596498,1.97609995846176,1.97787628844249,1.98000034329302,1.98237804367965,1.90429340618409,1.90444670791114,1.90415842141026,1.92479462507829,1.93554114603245,1.94668943973843,1.99533147727457,1.99632858495367,1.9933286128771,1.99238550955308,1.9807156940718,1.98033891773539,1.98150182617026,1.98071374055434,1.97997224831974,1.98142191386474,1.98100639130393,1.99983009921457,1.98353936799758,1.98342377150067,1.9840898312671,1.98580039605113,1.98674153626209,1.98605754779981,1.98601317571347,1.95628342259622,1.94502902086033,1.98877996874907,1.98877584835528,1.99644485269792,1.99720201307878,1.9922597718458,1.99040038188336,1.99050936124015,1.98996731593571,1.98909196314911,1.99147574601864,1.99191060255877,1.99233027436938,1.99270622317905,1.99187538252759,1.98986137165414,1.99125798910834,1.99244090218046,1.9929552944736,1.99432671518693,1.99903532775772,2.00089359195423,2.0005937354809,1.99919144668834,1.99966502414186,1.99971812293293,1.99965084308708,1.86162426814909,1.86115115360821,1.86071612001492,1.86053367126913,1.86029756373195,1.85955298072511,1.95193574258649,1.95197662956551,1.85923020391858,1.85894031924142,1.85945926829743,1.85992534549569,1.86010144578275,1.86090033904059,1.86263505169528,1.88520706458732,1.89794957467921,1.91072319307842,1.91038592910083,1.91021488247902,1.91053655591924,1.91061485702976,1.86339686242387,1.86395475696974,1.86410757396133,1.89536328338484,2.04037737985268,2.04037744232244,1.90618919736061,1.89493428760625,1.88378174520116,1.89277652769351,1.88470978693171,1.86851934269578,1.86786222332345,1.86691439144629,1.86623169196249,1.86623508006529,1.86692814634444,1.90037005476586,1.90908395917162,1.9373143963614,1.92333361317379,1.91000699848467,1.90939646240307,1.9085719439171,1.90819470198363
1.96994985873706,1.96860635455034,1.96898029492599,1.96424648515837,1.81345788969326,1.81423554697196,1.96870300905375,1.97412754551291,1.88681039515964,1.97660149069839,1.98626785228751,1.96676894096262,1.96911397687825,1.96619751391874,1.96592655744986,1.96686509825876,1.81477018080743,1.86539812838919,1.89362108701342,1.98757535758522,1.81715176131099,1.98928620798718,1.97062242360896,1.81286492238548,1.89547871930114,1.88800112119632,1.88658765415805,1.88604106243819,1.81303989844986,1.88769682840449,1.90208236102147,1.88809364162865,1.88838200238167,1.88886642859111,1.88794027279351,1.89017363334372,1.89063484468101,1.89291987954694,1.90479775091716,1.89283585620036,1.8959343543207,1.89533624988237,1.82319804665299,1.98200538732655,1.90250791884622,2.01452118686451,1.99517373879475,1.98877195118398,1.96996214110382,1.96967823691086,1.9612802519633,1.96062334967384,1.98771145264649,1.96278630553597,1.96389049754922,1.97912315058168,1.96660425474645,1.96522031240501,1.96643711838991,1.96822448150557,1.96684531180412,1.96672771233544,1.96720772154714,1.97689309985985,1.89380932754134,1.9897427798213,1.97450180087414,1.98712796626709,2.00801802600577,1.97823971539429,1.97954515165976,1.97309107676463,1.97470412924144,1.98110882260083,1.98606373220513,1.99635759315949,1.90381119784754,1.90414888326452,1.90352694579033,1.9035122720377,1.90345767399713,1.90454255726926,1.9954104150124,1.99758594317934,1.98192786439321,1.99099835109616,1.98186319283297,1.98166776781848,1.98488369762594,2.00868813188735,1.99622621083677,1.91086270404113,1.91126449360129,2.00497918568662,1.98608392197114,1.98605672202482,1.98737794427176,1.98638924839252,1.98801752128779,1.98772938975549,1.9877994732054,1.98787874154666,1.9147769050718,1.98996470737561,1.98906366515428,2.01246326547198,2.01053926033735,1.99019076034521,1.992447903594,1.99304512211464,1.99119838942886,1.99063375878274,2.01659554261141,2.01059582267743,2.01092988440222,1.99439530308222,1.99124462588072,1.98802090908772,1.92052183733775,1.99359575404356,1.9935707057356,1.99306647249178,1.92321449099692,1.99492081057322,2.00033560798161,1.99811832885073,2.03077421965557,1.99888679111999,1.99748356622,1.86135134572412,1.85993553048997,1.85890185188167,1.85837678924118,1.85837935055656,1.8580116771604,2.04384808847006,2.0345366295358,1.85912157472005,1.85905532185017,1.85823916205655,2.05571757663118,1.95805354223082,1.85874859614551,1.85851596255598,1.86372362898416,2.05467583944568,2.05408611600934,1.90150782115856,1.86144905613572,1.94956669528174,1.95389373859688,1.86384378635167,1.86418760824165,1.86407828803654,2.06631316254797,2.04839787591888,2.03841469643854,1.91744834118323,2.03321411912884,1.86248539142265,1.91034325217654,1.8617544552139,1.86115277858045,2.0443842103962,2.04178680111263,1.85986228942154,2.03557625311289,1.86664423626926,1.86251495297794,1.85728646687382,2.05245193787114,2.06178278068272,1.91099241055695,1.90924415840825,1.85946485592685,1.8602915907449
1.96842692825114,1.9682546496705,1.96775711012248,1.96588238047081,1.96595287719424,1.96696009224409,1.96955185971484,1.97444865617312,1.97336193267266,1.97376056685103,1.97176783253236,1.96735237982528,1.96570116528315,1.96521612657801,1.92141192939846,1.90616741326311,1.84316217293325,1.8542085679501,1.86860589363054,1.89376036296998,1.89392326914566,1.89477442488539,1.89499088147546,1.84646697614213,1.86083514683259,1.88636320882083,1.88664130340643,1.88631758835841,1.88671715525172,1.88775128093748,1.88741100156248,1.8880153093424,1.88884731727955,1.88900103034696,1.88914654081898,1.88928718541517,1.88947979272393,1.89232044352161,1.89798720542271,1.89313272155797,1.89387730944191,1.89376385495731,1.90613056116905,1.92461707905655,1.93987485779271,1.98263964548462,1.98386675921235,1.98561133634805,1.98059369561763,1.96766976733739,1.96146271012891,1.95996362484831,1.96014332260276,1.96035342259093,1.96074664002415,1.96947279286303,1.96759037323938,1.96623775089177,1.96673562941893,1.96697215421583,1.96622600067102,1.96541100291823,1.96577524944328,1.97112091973956,1.98539248558143,1.98645655758938,1.98696915539112,1.98804599064678,1.98902082174201,1.97568018898908,1.97625789310669,1.97593348547067,1.97580533671186,1.97763797497638,1.98583008514143,1.99139128829365,1.9471865070864,1.94402506977108,1.93783606715716,1.92910685095542,1.91950112350867,1.91194847610393,1.99439610449353,1.9955553446656,1.98284149460159,1.98349558209872,1.98254884355702,1.98220406855815,1.98423780610029,1.9845389377159,1.98337281790492,1.98262939395959,1.98567241476532,2.00243741571863,1.99957205445205,1.9966670777384,1.98573858809512,1.98642650230438,1.98665432232287,1.98714573945281,1.98708988596262,1.98616887098082,1.98339076978275,1.98483894712262,1.98486756521078,1.99231251017189,1.9920545580013,1.99125122940068,1.99137488991177,1.99124575415706,1.99084086772363,1.99023877388705,2.00435982953226,2.01071369375605,2.01059082247464,1.99221274096703,1.99114729701575,1.9890413357895,1.99071984367012,1.99278330884141,1.99419241102479,1.99544080603293,1.99685441363108,1.99693296448727,1.99770402035003,2.00077802585013,1.99965455597686,2.0002761271417,2.00178315731015,1.9024143245362,1.8869073533747,1.85856755564641,1.85883818782557,1.85874375301827,1.85852553264669,1.85902585820967,1.8589700091859,1.85839667560805,1.85819528917515,1.85820952917979,1.90701426772363,1.89027892661053,1.85943530354104,1.85906259214214,1.87254685691028,1.87932484940618,1.88767878959996,1.89636032710728,1.90343706164814,1.90591449666973,1.91667250546731,1.86442073028159,1.86478296265738,1.86430350550386,1.88978276570283,1.9018179497129,1.89387658253673,1.88701211248956,1.88174891229274,1.8627618270857,1.86266787254285,1.86205749913023,1.86160780511504,1.90725923421228,1.89035876273013,1.86044420529685,1.86084981275063,1.86115304909568,1.86150138842344,1.8909507641202,1.90707153220793,1.9362881606171,1.92435950458082,1.8905595067682,1.86064596223348,1.86054530264807
1.96827788935664,1.96841478953402,1.9673103470041,1.96605434180284,1.96494636100183,1.96558782393345,1.96601858741503,1.97793789579574,1.99079088019612,1.88722840405697,1.81549923490864,1.96556237614502,1.88786996191891,1.96604064406252,1.8934477653501,1.89349808158509,1.81500347428747,1.8433005286267,1.81314682178731,1.89442994531521,1.97312065291742,1.89575657244306,1.89560639591954,1.81345464820289,1.81359722007923,1.88516456367002,1.88739410765174,1.89322742429432,1.98913067214262,1.88997499406564,1.81643242832838,1.99066670210254,1.97927212528313,1.98706544124742,1.98607466699645,1.88957502345827,1.81367174498888,1.89163521256318,1.98067364923678,1.89338914172894,2.00065944129933,1.82082619195296,1.9101852657687,1.90915235317563,1.99544166425121,1.98551402889009,1.98497160322801,1.9839658538226,1.98086526249797,1.96656297834723,1.96483147626322,1.88813242941133,1.962616194623,1.98393001752964,1.88906561816583,1.9731998715813,1.9693729714683,1.96747857000802,1.96879153360549,1.96812846065003,1.96703754981277,1.89134998642024,1.96754109009587,1.89350798535569,1.9922509340064,1.97115408521554,1.99446415614475,1.99086215183214,1.99257481592671,1.89803783862713,2.00743478341844,1.97721212460788,1.97610110461359,1.9003319279806,1.98697533373006,1.99342400153003,1.99458648249523,1.98263742808266,1.97668042963091,1.97551003869749,1.97228674670022,1.90482352877644,1.99278079886339,2.002131140898,1.98293649266353,1.98502057960778,1.98404850857296,1.98312752061427,1.98771896711919,1.98835456373268,1.98568450404141,1.98181466139064,1.99167254970957,2.00501556717438,2.00388023010757,2.00266215030793,1.98601552944872,1.98891596894002,2.00550767204149,1.98765902669695,1.99480853133498,1.98776249753086,2.02161600431402,2.01176179935306,1.91577814546852,1.99681372745362,1.99643155221549,1.9947436018371,1.99195473427831,1.9911881380873,1.99178687930391,1.9905972130052,1.99124780417312,2.0148716510005,2.01001486818044,1.9934591495647,1.9949336455209,1.99146816257781,1.99439682523897,1.99475856738185,1.99628440939222,2.00108368590273,2.00271483627191,1.99870475801177,1.92109537140502,2.00808684098588,1.99983511667131,2.00177673402242,2.01046343979682,2.0300419282219,2.0287069463079,1.85497727285698,1.90716139340544,1.8581930197087,1.85753876639345,1.85889858960027,1.85910564732297,1.85785664396591,1.85694509500668,1.85799150206183,1.96042539784266,1.86043683554608,1.86002474826065,1.85879363464662,1.90895421403201,1.86036019742406,1.85975839285133,1.89076284976796,1.91000338068372,1.86319878648252,2.05440527997338,1.86405759698636,1.86564535192138,1.86344050101285,1.86235360455149,1.91244452152957,1.86571516831466,1.87208432318769,1.86286440733151,1.86205859818631,1.86156256271437,1.86131443745524,1.8606259820393,2.04406243816669,1.86028488583332,1.8602730360441,1.86024968301492,1.86051712924694,1.86004382396038,2.06112229471814,1.85923274032922,2.0375689958036,2.0592559204234,1.85691937587031,1.86098294617906,2.03382652423582
1.87236522879388,1.96765135771756,1.9676706972902,1.96533654246412,1.96445757670798,1.96415175775161,1.97593404230377,1.97698832089749,1.98550138297903,1.86408569160371,1.84615003546927,1.86409913193776,1.91346709508146,1.92413740885921,1.8937372999738,1.89387561541988,1.89454314945635,1.89359918464513,1.89227718078812,1.89409893425131,1.89657624492504,1.89636827754233,1.89378294949876,1.88935963532528,1.88718744539266,1.88605556256597,1.89191286572978,1.89573243971724,1.90794024523833,1.91644518804381,1.92377153236607,1.92773074322732,1.94370065028346,1.92752252231035,1.9107888231626,1.88928217226165,1.88900417142059,1.8908495808135,1.89701579182603,1.90048347948009,1.92653664086771,1.90041271291375,1.9036896989695,1.91044970388689,1.93612066802291,1.98187193630444,1.98182026649957,1.9814938370195,1.97959454269055,1.97081926859822,1.96109983115253,1.95966384286177,1.96144916169028,1.96232451265536,1.96264336539062,1.965467225934,1.96700443482798,1.96657000510244,1.96718501693789,1.96728237059445,1.96735743655335,1.96614294692058,1.9664943002386,1.96601785810478,1.96713613515035,1.96795890864041,1.9749334523707,1.97516002766827,1.97547484346896,1.97625653501033,1.97541373899402,1.97621887921723,1.97667653747648,1.98186645958041,1.98340852837062,1.98970452733193,1.98786300778264,1.98256956275005,1.98426226512624,1.97461129165669,1.97218427806934,1.97480911874744,1.98479430760493,1.98284524550851,1.98237667939551,1.98253867343894,1.98143998081388,1.9814100273925,1.98424272141555,1.98578970549302,1.98635313401197,1.98647117810918,1.99500825285905,1.99558619420695,1.99372057732684,1.9906776435548,1.98925316757919,1.99218270531388,1.99429382370639,1.99487186612965,1.99448120478457,1.99407832785527,1.99319033587241,1.99322966796096,1.99574198400617,1.99674472375549,1.99644561129408,1.9954078898492,1.99320094790587,1.99160317308981,1.99076400520213,1.98942620869037,1.98948465480768,2.00456285519332,2.00280402828943,1.99133258372577,1.99241279185128,1.9913319078213,1.99300689203215,1.99397435407989,1.99557904904165,1.9978887443044,1.99904350963845,1.99803254158724,1.95692455478163,1.99685894769609,1.99766534574503,2.00262937261232,2.00556949015024,1.92331696640045,1.9142236288979,1.90618482114263,1.90628311978531,1.89144107987097,1.88328724049265,1.87522251593814,1.85767979959119,1.85724649029514,1.85701354280164,1.85726724125322,1.90776329852002,1.89092499699733,1.86087127556153,1.86040234717748,1.86137647313886,1.86274234203294,1.864953887417,1.88352793742549,1.89098653620841,1.8979380681367,1.90786561724772,1.90425790600372,1.90055859026705,1.89613912534297,1.89129861648287,1.8861053775586,1.88088656898772,1.87650036768208,1.86325333579954,1.86290840270104,1.86219565879261,1.86169422200019,1.86152243259457,1.86069499770931,1.86012614451337,1.85985156203483,1.85999504515279,1.8600475589511,1.85991876494178,1.91566576931593,1.90172894088799,1.89258258869232,1.88135010707763,1.85963519729121,1.86102000412236,1.8609676049234
1.81666649100219,1.96704369118148,1.96974290694349,1.96407649025045,1.96389440652951,1.96384442537105,1.98056604221173,1.97749897542801,1.98877747577137,1.81656869065414,1.8176476740059,1.81517687438929,1.96526469382732,1.96541374480574,1.81733645491482,1.98081945997653,1.89668319113566,1.89529189243614,1.97868090246011,1.89313163201233,1.81357620495807,1.8138161674351,1.81327291861937,1.8868990280897,1.88650322221912,1.88629782628762,1.90266804466558,1.89856772726383,1.90014323699841,1.97521384663667,1.97615999632576,1.88695101297623,1.99234822913324,1.90536935170123,1.89106242879158,1.89018208288385,1.88997972902396,1.89064793272748,1.89052902807926,1.90751360510139,1.98381344049952,1.89726191805476,1.89934038228428,1.91075846904247,1.90506550926531,1.9964971436465,1.98136231524908,1.98200663306964,1.98902017782494,1.97470881806429,1.96166764334404,1.9776105739502,1.96298026942537,1.96429867462778,1.96429418346762,1.96632460902536,1.96816283469974,1.96631822283128,1.96687256449142,1.96719392103797,1.96936876556451,1.96523081917654,1.96777426206629,1.96750397241384,1.96790477306043,1.96769417641246,1.89501469210117,1.9628831901648,1.96755768867318,1.97891236029132,1.8976392896373,1.98736403781189,1.97084179488004,1.99062086958339,1.90387026083897,1.9972144246122,1.98108588198206,1.98088867574378,1.9947945112987,1.97736528149497,1.90415216925816,1.97966680431937,1.98742903077925,1.97969303293642,1.98043134160233,1.98308227735525,2.00103424837949,1.97969054078625,1.91017900283511,1.99555539992574,1.98745789473569,1.98729041772418,1.99671024867748,1.98600244285212,1.99434293294375,1.91474126784817,1.91409320634937,1.99373111522867,1.99552057495195,2.00119431288316,1.99388194241157,1.99501560359257,1.98785280191713,1.99264511807454,1.99823505818521,1.99785983943994,1.91334907887743,1.93645639469794,1.91561422554636,1.99920005816572,1.99125222620377,2.00766744504729,1.98973484193795,2.00876048995807,1.99286267709892,1.91884988930457,1.9952824645583,1.99269067376514,1.99533686202647,1.99452032061044,1.99589541731696,1.9965060604753,2.00033309284885,1.9971376899295,1.92191191114116,1.99721159850376,1.9968305658991,2.00168936047932,2.01623726117397,1.85952516608802,1.90648272968989,1.90690497745735,1.90608761542637,1.92403992237469,1.90677678302617,2.04104901621173,1.85414029649535,1.86603483599798,2.03079366084889,1.85672150418524,2.05293648445069,2.04179847783981,1.86153124505329,1.85991001079053,1.86033383594931,1.96137802800907,1.86664019348634,1.87383348323074,1.86301508853769,1.91355437479734,1.9128796988163,1.91360811160877,2.04166142131871,1.91137145023224,1.91207129796089,1.86518180638018,1.91393120456695,1.89069264202802,1.86296250319291,1.9122084740343,1.86127258294604,1.8607727199862,1.95075328543885,1.85932241777921,1.85848443215029,1.85914873737878,1.85915941376213,1.85972469434843,1.85942817961154,2.0661276617866,2.05436719786078,1.85811029288841,1.85896356719032,1.85917330545726,2.03408898356738,1.86053198467075
1.8176257874872,1.85379640533531,1.96734599710494,1.96548204137115,1.96483828088892,1.96395045107384,1.96277940408299,1.96157514930754,1.96203181656387,1.85490978703702,1.81710691934462,1.81659267038835,1.85485942060618,1.88747463672752,1.88690800093082,1.88708026467879,1.88747987440122,1.88857218965864,1.88993740893073,1.89190308487478,1.89005716699131,1.8841620430669,1.88575791937307,1.88783478327186,1.89019022243727,1.89258828449752,1.89518841241381,1.89759553897492,1.89819485434511,1.92782490517668,1.91266761610436,1.89138445591546,1.89564663535894,1.90102055587093,1.89750713968202,1.89225860524379,1.89319467528251,1.89389499346593,1.89460196002697,1.89615631657403,1.89746862989354,1.89887831202302,1.90002361003575,1.91110970236463,1.93707503998603,1.97930664462669,1.98016083752411,1.9807908727987,1.97905527694594,1.97716068146036,1.96679971740259,1.96952446656142,1.96887055786688,1.96806360225092,1.96663484144046,1.96550311391743,1.96538143357935,1.96533632536411,1.96681988502086,1.96755112667421,1.96763418983096,1.96741616141909,1.96721865057175,1.96635643643737,1.96627350153253,1.96662580991063,1.96557340109315,1.96435274169378,1.9660250805574,1.97325206512114,1.97259620144861,1.9737901466092,1.94528203731947,1.93652468146246,1.92336843417263,1.98072836354531,1.97971430374593,1.97981427943261,1.98065473658943,1.98006665195192,1.97977741083161,1.97893454193901,1.97894268349396,1.97960514771072,1.98032835556903,1.98109432331728,1.98283508209462,1.98141039079901,1.98222028535552,1.98350702859914,1.98655909151543,1.98703372716328,1.9878604652169,1.98645371405908,1.98646006343116,1.98696839742348,1.98454552414443,1.99411192835,1.99645215611468,1.99959751335082,1.98989178919469,1.99014287311472,1.98582220785444,1.98706192710411,1.98629312030104,1.98600304124496,1.9321538273337,1.94495508996995,1.95017629919657,1.99674727820389,1.99447317980426,1.9928036885233,1.99167074746891,1.98880451145762,1.98907654716359,1.98924331820556,1.99239398088765,1.9927593146236,1.99428416968215,1.99427076902907,1.99362144892119,1.99454068636486,1.99748515159079,1.99688906328542,1.9960885409012,1.99596513378777,1.99538712170948,2.00365752058658,2.0069436957972,1.86818972498116,1.87635765977802,1.88551891137962,1.89260607396303,1.89731288299699,1.90149463158409,1.88703953284165,1.87121727703155,1.87179159612491,1.90073117713679,1.8588196737459,1.85964708959305,1.86076997563578,1.86112994125729,1.88265666115813,1.89353087399673,1.91302220068782,1.91332053396361,1.91482679925394,1.91575410329444,1.91494181654065,1.91436071486959,1.91408884188645,1.91340607023259,1.91251518278825,1.91243582118429,1.88786214839182,1.91331049173769,1.91318332235862,1.91275056598801,1.91232637682814,1.88634323532409,1.861538062069,1.86162441011741,1.86081268791964,1.8602884535811,1.85996702434499,1.85993567966091,1.85968143655289,1.85929118549873,1.85895224122077,1.85867802173614,1.85903802563383,1.85863823976153,1.8593366240627,1.85947368546232,1.86051208824534
1.81865242063617,1.81621952390278,1.97382543287982,1.96641385939037,1.96670951430051,1.96632742561576,1.96522785599373,1.96286866246054,1.96450955981555,1.96987583449661,1.81677964024492,1.81686918824543,1.81719443216358,1.88878569290552,1.88676323334987,1.88729503016204,1.88740639261185,1.88738944684016,1.88722803074754,1.89401498198882,1.96868800660782,1.88470235947095,1.88655406095913,1.89681281116391,1.89689627179178,1.89811408606699,1.88730073224302,1.88766162020635,1.88897387290442,1.98395925123928,1.88682223345185,1.88669469937666,1.81248581763898,1.90614630538353,1.90586373157455,1.89182120658744,1.98396897195526,1.92349335932416,1.98224840522614,1.89672602672517,1.89564321118163,1.99058877954018,1.90179899781411,1.90977883900197,2.00592807323872,1.98073906359665,1.98703360123613,1.98320822162493,1.98015408588539,1.98070098441394,1.9616029524224,1.97024822889586,1.97461099269784,1.97589817130076,1.98219302066056,1.89063226730329,1.89036656993717,1.96564108382774,1.9687209223259,1.96957697627994,1.96611725884555,1.96940877145637,1.96850077251822,1.97793228778391,1.97780374321895,1.9688939715355,1.96871081680537,1.96705010756777,1.96903181521809,1.96903633731313,1.98753655668494,1.97712584991689,1.89815031880432,1.9002722148926,1.89908350888313,1.98461555955634,1.97736542210024,1.97994289496008,1.98316303812391,1.98922611859189,2.00124385124826,1.97974574626324,1.97976995243666,1.98026076465314,1.98115126204585,1.98136797804658,1.98514592903551,1.98219706771021,1.98365097960294,1.98384258329629,1.9887096998267,1.98717377222029,1.99083288680096,1.98595858309001,1.98547773797733,1.99245881828609,1.98620306839039,1.99198088902494,2.00330264713465,2.00091646394674,1.91460193873998,1.99034421532968,1.91443020627465,1.91475422540207,1.98903323901414,1.98849510507413,1.91355288948773,1.95289133589134,2.01168124727001,2.01171801703591,2.01481970178289,1.91853882888393,1.99479640264608,1.91772228873608,2.01143972053558,1.99128456644494,1.99611583484512,1.99582394827714,1.99844448233161,1.99787936492957,1.92074320198278,1.91904046597637,1.99964088628836,1.99834839423707,1.99704138680599,1.99783515660011,1.9973880742767,2.00289332284312,2.01032253056792,1.8568555290775,1.85470109176635,1.85631885702727,1.85630156558707,1.85503610559243,1.96148495588489,1.85520120642036,1.85624689454959,1.87779134081484,1.95195865422083,1.85831626271215,1.85743288728856,1.85984286625393,1.85976488880788,1.90863054707651,1.90787061331315,1.91175159134035,1.91104597299974,1.91369719429059,2.03843414361211,1.86139757982119,1.86149917869102,1.86082716544816,1.91364786609831,1.91319691678826,1.9129704368563,1.86107967098656,1.91277640900281,1.91339553669352,1.9127920648426,1.94527080302131,1.91241478236525,1.86133148568104,1.86129219445307,1.8612651409262,1.86318236068978,1.9087306311283,1.86006581480881,1.85942702339572,1.8579686080489,1.85766336116989,1.8560247650545,2.04923385907003,1.85624827282438,1.8556421518281,1.85751959752431,2.03515826232559
1.81783903941608,1.85506593930018,1.96768867770768,1.96603355346086,1.96481823542361,1.96397537095565,1.96415546111679,1.96032510296781,1.96042979775058,1.96053444473036,1.88815181505097,1.88710786052437,1.88591503979548,1.8867511225772,1.88676395983729,1.88737514541188,1.88763377691801,1.88764320665152,1.88743405770012,1.91653393981918,1.93361808788431,1.91544417917567,1.89738162835238,1.89728072573262,1.89741282737082,1.89428633780783,1.88769034950566,1.88730815092139,1.88754238500869,1.88718493943228,1.88758797742472,1.88780494599784,1.85268710214904,1.89840100941242,1.90618661268994,1.90565478929484,1.90409625557615,1.90136131756182,1.89861763434315,1.89703707325431,1.89669341494734,1.89840333564086,1.90048465569069,1.91036227170134,1.93738476904682,1.98168212409327,1.98424837435852,1.98381921322028,1.97944458421006,1.97803815032928,1.96594964433337,1.96725580802001,1.97102664322252,1.96862431446673,1.96779930187868,1.91357571421993,1.9282285227529,1.96538668822194,1.96762282797274,1.97000372510973,1.97075330886157,1.96960175872653,1.97034964599654,1.97190315716677,1.97454583977424,1.96784635052233,1.96798709694452,1.96779820112411,1.97084892525589,1.97411494605124,1.9757035446075,1.97674449840014,1.97762242550149,1.97807193862494,1.97736368380465,1.98006719054194,1.97806587758129,1.97803008820402,1.98216487080789,1.98419157809689,1.98375912693818,1.98353184116013,1.97980491856981,1.98026012575224,1.98085002211436,1.98170614326769,1.98234969815179,1.98056339022336,1.9811468816267,1.98256230758224,1.98548055994098,1.98676761358254,1.98828803398737,1.98748722208806,1.987571429601,1.98914875843231,1.98912335766375,1.99006477956239,1.99066622152772,1.99178689645262,1.99245381111495,1.99127231799707,1.9553350724602,1.94326745804789,1.98879423492707,1.98782117921903,1.98760155926411,1.98596967404168,2.00869519541145,2.01087831794901,2.01304054026769,1.99257608560835,1.99274948260288,1.991087230571,1.99093782097746,1.99276506780139,1.99555020218242,1.99672941126206,1.94785755892817,1.93630598787689,1.92011502691933,1.91985434880124,1.94164009605426,1.95677924642855,1.99618992794357,1.99664804610384,1.997660475249,2.00476467336672,2.00739611892012,1.88628610116375,1.85563116592069,1.85559522501173,1.85556256850305,1.85533697738054,1.85642803566654,1.85699748811682,1.85715345901848,1.88440032779064,1.88835151923223,1.87257147312426,1.87960655697912,1.88757948175191,1.89548662603134,1.90875147381471,1.90864376662273,1.90985932762343,1.89717001441629,1.88739810609912,1.87772998330618,1.8618179400543,1.86196688001476,1.88787912323515,1.89838152330663,1.91331800125782,1.91351860804824,1.91409659826734,1.91401933902975,1.91430683746958,1.91425601477749,1.89528892863442,1.88470852799723,1.86113035011384,1.8609312366611,1.86099452280559,1.86116751310966,1.86010457647333,1.85982355798946,1.85918648978276,1.85845889108296,1.85773914866544,1.8570731933221,1.85725050477614,1.85746686444128,1.85714748004036,1.85766214306591,1.89095031276836
1.8153544444761,1.96865376051483,1.96911424961255,1.97749496429082,1.96437967520924,1.81623800810721,1.96625213092576,1.87756520138583,1.81686013983277,1.98422171057084,1.89055521081279,1.88882028855983,1.96792006986612,1.81343844780534,1.99458399380949,1.88795303451337,1.88801690185524,1.88794531441944,1.88717509807836,1.97060298517821,1.99528389024932,1.97498702597309,1.89733060477229,1.89773232453243,1.89861740337856,1.88827330064784,1.88814128989087,1.88688968829997,1.90098717861612,1.887035454928,1.88894042963645,1.88941583891113,1.81332179911726,1.88817229138004,1.90720479354485,1.90568565940575,1.89128813625864,1.89320290279004,1.89256391602112,1.90982462323772,1.89630146692683,1.89643331721729,1.90133807482623,1.90896314882352,1.90849847709943,1.98532999636971,1.99235703539617,1.98713461285236,1.98292170633863,1.88776790344192,1.88774845669224,1.96149818999222,1.98065903008339,1.96526936763181,1.96475527279852,1.89034874509939,1.96682792304556,1.96565885614266,1.96781063421319,1.97268977245702,1.97299849436367,1.96835332972832,1.97213491598918,1.96865153533052,1.9879531587518,1.96797128670197,1.96849888359346,1.96719903117428,1.993669292888,1.97638537571676,1.97689242640137,1.97289228432417,2.01049681484603,1.99212929297278,1.9749005571464,1.99361579817801,1.97633722154653,1.97644409846222,2.00020881973046,1.99467774789153,1.97973273453786,1.99953052078934,1.97967051976059,1.98023810326393,2.01178966751262,1.98337506855317,1.98383471062204,1.98007105181268,1.91015956050211,2.00388446380333,1.98513746282845,1.91018873397669,1.98451910600054,2.003947397293,1.99894017316699,2.00614448191246,1.98892690876893,1.98920251289429,1.98579035049562,1.99319869153351,1.99962885413202,2.00256610407344,2.008543801893,1.91649747086793,1.99132488788425,1.98842434518517,1.99239446767318,1.98845324143145,1.99049419091396,1.98982145216434,2.01495029017085,1.99402119704169,2.00084419689024,1.99217222602597,1.99186221806966,1.99515809131579,1.99604366031625,1.99823552720422,1.92016641419207,1.91937068360681,1.91943834661605,1.91977393928729,1.91910333176899,1.92309413178858,2.03416675411754,2.01574101648727,2.00085658990741,2.0085139477304,2.01173214030931,1.90354948301474,1.85596956823593,1.85469192895733,1.85371604790996,1.85339297813347,1.85488126090531,2.03549848738502,1.856575826299,1.8899827790288,1.9041602065316,1.85639438359705,1.90465129452572,1.96158540282748,1.96078182363949,1.90912662274278,1.85735663779374,1.92960101216898,1.86176329906529,1.8614812363744,1.86112836432177,1.86158011263579,1.86204932635683,2.03584843316043,1.86526283868933,1.9643081078003,2.03460256093928,2.03428501755048,1.86288772325333,1.90144143449207,2.05607724312258,1.86093401524362,1.86201786073867,1.86074166354118,1.8597516696353,1.86039542573166,1.85988365913613,1.85900544069244,1.85941506650071,1.85887499955848,1.8577089696829,1.85794878564885,1.85554312405933,1.85589900651097,2.03110472376037,1.85634124779502,1.85695583478799,2.03688854977069
1.81775992563936,1.96080569412828,1.96147535849391,1.96242869234368,1.96310729622532,1.84172419716054,1.85437431875606,1.8780386785468,1.8775118702303,1.91521010532102,1.8909476302955,1.88954180436703,1.89007407932919,1.89184091706325,1.89358902271976,1.89015639168602,1.88902566098741,1.88872484076557,1.88959127671797,1.89047329171881,1.89246010340525,1.89478727482865,1.8963438323929,1.89764401434024,1.89853561114037,1.8938849376295,1.88650589955442,1.88599952962122,1.88595272169544,1.88663588889008,1.88766490307071,1.88831714093344,1.88873772904906,1.88907227663969,1.89119843877627,1.8927509293489,1.89328207849242,1.89431306322699,1.89434802686438,1.90434580304548,1.89521054302472,1.89549428148749,1.90115142295105,1.90910155422206,1.90833420349654,1.9355475650297,1.98773748471093,1.98586845725356,1.9818184869741,1.92860662761222,1.91710018726933,1.96415810433597,1.9676589669417,1.96559356246618,1.96403978375806,1.96412529766401,1.96539317905356,1.96493449036446,1.96686590744557,1.9701106568939,1.97077245651257,1.96954350881349,1.97034645500629,1.969838126094,1.96839746291736,1.96801868937881,1.96836674463634,1.96749471828924,1.97133601939341,1.97286979331496,1.9734631614581,1.9910080257847,1.99531556330477,1.99239137865127,1.99261099420682,1.99270590165175,1.97665882312205,1.9761147907389,1.9762628502113,1.97770600728024,1.97964496940434,1.98105188550898,1.98135121529774,1.98061857177073,1.97962735876985,1.98012000722521,1.98292052927079,1.98050939759925,1.98004327015703,2.00284433542259,1.9829908836063,1.98249175198056,1.98297135860012,2.00299054468498,2.00122226109789,2.00142662239327,1.98994693682882,1.989841294956,1.99045047824669,1.99131703840257,1.99409911360766,1.99861597251295,1.99783102743443,1.99479268688576,1.99226070272856,1.99068932893574,1.99525838775901,1.99482906127586,1.99483510670796,1.99489054305194,1.99503834336673,1.99279082658593,1.99301347495699,1.99204192468878,1.99290897534375,1.99453030102445,1.99616936978246,1.99845418072231,1.93984976326603,1.91923663383329,1.9195828522804,1.91995185320991,1.92015462289782,1.92194948948332,2.00940272925103,2.01153970315213,2.00909323529873,2.012850952705,2.01544251035307,1.91898034782696,1.8852383152614,1.85412353560047,1.85388886830825,1.85452367077368,1.88173686089186,1.90060991714262,1.89610017428631,1.89423920244182,1.89731643437514,1.89897653088343,1.90011285680335,1.89563964249845,1.89123266086707,1.88570256158616,1.88056002346867,1.87461519041518,1.86186213727643,1.86163186101012,1.86186942038217,1.86234819311295,1.86361146519343,1.86480921056939,1.86502612615284,1.97285055932704,1.97900682257176,1.98265497384204,1.90833604876837,1.89460062134537,1.88605021607138,1.86162662095439,1.86038542066965,1.85909010368815,1.8583369549879,1.85853728714869,1.85869822783944,1.85902415842316,1.85910577817273,1.85856973504296,1.85833530435517,1.85781208433248,1.857326015287,1.8568384633381,1.89633861382113,1.85813773973697,1.85895045438145,1.85950756704737
1.81821758440826,1.97240131993462,1.81767099782023,1.89079684504642,2.00016368478416,1.81686985350568,1.81749198454227,1.87946217931819,1.97109226305957,1.97052198105519,1.89280594601813,1.88810202306965,1.8881244079369,1.99814177585954,1.89659033874114,1.97180835625961,1.88861147540921,1.88809953462792,1.97188612198748,1.88974613259997,1.81377867286487,1.89569729815882,1.89573230371654,1.8863929714189,1.90033655832984,1.9003235199532,1.81314682632573,1.88549735187118,1.88370133205421,1.81355509639722,1.90234790087409,1.90267843067979,1.88938405964684,1.88828441885296,1.81562338610531,1.81611997807593,1.81575558838972,1.84878751185342,1.81602415371781,1.90786550780502,1.82054429118954,1.89614939201189,1.90109378736244,1.99499226388081,1.90454149303163,1.91096704078949,2.01225053502851,1.99444845024134,1.9870366779984,1.9630234414322,1.88658682966017,1.96727233224435,1.97054523213468,1.9668273461708,1.8905431669916,1.96573257745282,1.96799312053903,1.92392961003823,1.89137464144278,1.97100963819096,1.97106937152312,1.89148270533684,1.96708238406161,1.97334061359789,1.96822604309808,1.96866812845562,1.96973753446611,1.96885814910933,1.97268269242728,1.99049809411608,1.89760040310753,1.99550092540316,1.99825230138262,1.97993544985357,1.99282863517766,1.99215266448429,1.97599123181822,1.9743579209376,1.9771482792739,1.97778268511918,2.0078236199048,1.97900854513266,1.98099458096665,2.00097735776592,1.90695011533421,1.9072546974418,1.98876457139836,1.98333438666193,1.98455291447535,2.00838741705849,1.98334569210034,1.9839406063394,1.98398374611797,2.0046936328432,1.98678071585111,2.00121161945484,1.99279447044771,1.99230823732291,1.99327914989741,1.91464567898514,1.91443182665786,2.00895314244734,1.99213149489198,1.99788878937088,2.00401297789259,1.99037866155283,2.00701888966652,2.00509888493506,2.00688981157249,2.0075478645835,1.91699323483765,1.98953339224729,1.99517737630926,1.91719736258726,1.99427130998875,1.99484730750113,1.99417127841822,1.99750247127605,1.99753986870087,1.91809011846697,1.91976182946538,1.91912139214799,1.92044095806524,1.92143577679841,1.99862932986255,2.01427528447731,1.92128977118899,2.01334852185651,2.0212868006168,1.94084787546207,1.92222298267295,1.85347824217134,1.85201066625987,1.85579812799167,1.9048707101599,1.92757910855566,1.90473534886163,1.88218589879922,1.85555956530991,2.03872576509162,1.92349640414664,1.85811485471846,1.85718167299239,1.8584648019379,1.98863491562745,1.86119285216918,1.86246289883636,1.86148039381147,1.91014869718453,1.86140464347978,2.03548876666904,1.86396501837966,1.86365702211306,2.03571234313666,1.86650926229115,2.05155198406392,2.0557810261415,1.88875664805157,1.86457595741956,1.86401904981916,2.05634942317012,1.91354387653815,1.91323934379123,2.03427453425756,2.04086345780501,2.05838105870363,1.85942538080805,1.85845150438268,1.85866209164721,1.85791642801834,2.05390952345821,1.85659751505331,2.03697603621455,1.8571198042601,2.04802849028805,1.85951508295396
1.81882763523939,1.81928408026273,1.81848396133143,1.90744070592732,1.91465240995285,1.83591504310344,1.84593482979728,1.87977832331784,1.88010702051581,1.88033634804002,1.88049590750895,1.88879653552281,1.88870194874601,1.88929034672095,1.88927723263122,1.88840927810241,1.88796377702859,1.88706452709714,1.88766454765897,1.88919395795499,1.89151535703311,1.89352855839267,1.8971291420938,1.89851828272542,1.89911340892508,1.89941314818633,1.89886645516574,1.88548078657966,1.88565863175046,1.88574844500945,1.88661551562079,1.88753812463526,1.88811406159793,1.88823614049073,1.88916172126585,1.89148391571291,1.89551130928363,1.89818680223061,1.8977297669036,1.8953532469512,1.8943242320364,1.89403720594175,1.91690693077389,1.93232829945967,1.90722406964167,1.91295564555198,2.00536612099514,1.99431544816889,1.99573210824483,1.98249599163807,1.96502814631803,1.9660817301805,1.96676907069373,1.96544667717181,1.96388755141199,1.96451936297191,1.92408565156751,1.91535944179725,1.89222704836069,1.8932181743345,1.89337514693252,1.89298696096694,1.92978958928778,1.97144025667507,1.97002511021177,1.96961383709527,1.96918217420957,1.96828841533191,1.968325285352,1.96731389660548,1.93329265865756,1.99330309531205,1.99209321895434,1.98761195739419,1.98946513771537,1.98639430100702,1.97340270155161,1.97324806384363,1.97545464330141,1.97669996270245,1.977118777644,1.97823635809446,1.9895556863741,1.99895761974892,1.99749748100316,1.99366566377719,1.99122566105317,1.9903339529972,1.99170411844854,1.99251269744169,1.97992007995338,1.98080903161554,1.98371260770652,1.99015537875289,1.99170971834474,1.99976801817401,1.99857903839388,1.996428795338,1.99642708944951,1.99664989124301,1.9946172179175,1.99515792734355,1.99633544066077,1.99947067250142,2.00188676596976,2.00323231265839,2.0039061043977,2.00358945457703,2.00429810148711,2.00384571398824,1.98932738176306,1.98988639347179,1.95674896325913,1.94507389307012,1.99349311562154,1.99414521378163,1.99523666141391,1.99741567702401,1.93831668682594,1.91888101836181,1.91976881554437,1.92040807816407,1.9215004612501,1.950970778217,1.99815949123671,2.00742857756801,2.00370670602367,2.00585472018879,2.0034568894796,1.89576643201132,1.87910989680726,1.85307276070351,1.85246738948392,1.87957952999214,1.89484156732007,1.88907465505615,1.88176096072643,1.87376682274798,1.86527162882771,1.88992350171721,1.90998166798711,1.9024037352196,1.89463349610402,1.88644113122493,1.8764706560663,1.86077395136478,1.8612202615971,1.86097903894842,1.89801006849576,1.88963010427532,1.88084119928931,1.86470343201962,1.86535208019978,1.8658538733087,1.86624492204589,1.91188216422621,1.89664693960878,1.8832136869316,1.87674092275014,1.89904194058161,1.93839123381511,1.92654846043671,1.90543661163094,1.89752499531136,1.88834474848088,1.87901186690541,1.85889946793028,1.85787010228986,1.8578073448704,1.85775704941824,1.85777170262275,1.85785976428539,1.85861716180927,1.85897116313433,1.8992640815593,1.88472694390525
1.81823044641759,1.81888522527765,1.81747708243649,1.96765274972066,1.9678666054723,1.81688929562832,1.97042801458992,1.87916750528035,1.81639187681012,1.81634633382328,1.81630633305904,1.88994234808879,1.81782415784283,1.81681986867332,1.81682097995331,1.88707546758351,1.81410917720801,1.88525885079224,1.88509216483315,1.81675321195572,1.89699547976457,1.81322459205375,1.89944301332642,1.89960184739058,1.89823297712055,1.90450406954841,1.98773088904096,1.88614441506938,1.88689234121292,1.90510414327722,1.81284548413034,1.88586924161957,1.88720506847568,1.8877502957268,1.88842027455367,1.89002731800032,1.98133465792367,1.92507009850061,1.98157767582326,1.89388275505259,1.89555624307487,1.82056373262137,1.98610266865778,1.98756077605534,1.83031361075303,1.914000960585,2.00963434286852,1.99515419828959,1.99779879900395,1.98423148353598,1.9665808795415,1.96722192896804,1.97438099289863,1.98169215354236,1.97684262282542,1.96546859560119,1.89023700170694,1.89126946367524,1.89079990671527,1.89305247964468,1.89237102698771,1.89348905676209,1.8941140308926,1.97779902919946,1.97122762782998,1.97148205894624,1.9703148361054,1.96910492256696,1.89710464158368,1.96959197424907,1.89957370750404,2.00615164850311,1.97821283220768,1.90123595458467,2.01099256239003,1.90346199835076,1.97540909756999,1.97397221704086,1.97709715982076,1.97821270099612,1.97862099235865,1.98016397405951,1.99268798932148,2.00372269876241,2.00135523766799,1.9949784649884,1.99334448012738,1.99165487198939,1.99515046753255,1.99561307599338,1.91014499106525,1.91078655826306,1.98814283857757,1.98989151191579,1.99369835043245,2.00316568533643,2.00096853307427,1.99879594442368,2.00069183129505,2.00152014905358,2.0073441578602,1.99477817252133,1.99463141069404,2.00136340039015,1.98900748562468,2.01671419299003,2.01008285733276,2.00340697526114,2.00456572762062,1.98828236312296,1.99306894527537,1.99397419763263,1.91767854270943,1.91719250257411,1.99268212735688,1.99295192710183,1.99379252876903,1.99614239999396,1.91837783738104,1.91817718755821,1.91983821325112,1.92055054014608,1.92355511138965,2.00211554847273,2.00130990503335,2.01072483544067,1.99815378838968,1.99943740357356,1.9985278069215,1.85582845982035,1.85249627360403,1.85282176354861,1.85165205228924,2.03814252213259,1.91098584006194,1.85429333303094,1.85437239884448,1.8539564629946,1.85469723307105,1.85348878143753,2.04981710202906,1.96345054553127,1.95859154741087,1.90812795325998,1.859429753037,1.86045172652379,1.86126120124154,1.86109045355303,1.91658086039137,1.91354650091222,1.86217358528968,1.86328583604661,2.04907832761429,1.86433395280369,1.8653041403947,2.04829094961961,1.86392177335529,1.86476305578924,1.86444231334428,2.05647572113304,2.04197255466324,1.95445687731684,1.86163325773622,1.86297920095028,1.86296214216135,1.86271702481803,1.86046737371227,1.87036581707617,2.05244168923945,2.06910300773418,1.85715139542945,1.85753256231262,1.85767970698859,1.85943454348126,1.9231045944381,1.92151869009599
1.81917509253214,1.81920171177286,1.857347347642,1.89616177934604,1.89629617001276,1.85608081436334,1.87736954939418,1.87837205709877,1.84147151411121,1.85245169544951,1.86143594533868,1.891272187128,1.89340965192983,1.89457306845983,1.89436784052251,1.89359525587672,1.89172086828218,1.89007137647937,1.88856979342836,1.88741363638627,1.8945021309831,1.89562939689767,1.89761894727194,1.89655469773543,1.89516552214866,1.89304519106557,1.89018464141337,1.88713746442358,1.88626660821261,1.88508039073339,1.88438094429339,1.89019551561256,1.89257146340937,1.89522698538045,1.89885421836214,1.89999664003996,1.90116261738789,1.9029382627667,1.90688857370154,1.90279792402882,1.90219158054388,1.90551408568994,1.90604234179758,1.90732725430988,1.91002661555264,1.91140623708075,1.98716791512137,1.98608193318122,1.98536641291279,1.98201892114549,1.96940285167107,1.96793949379526,1.97117814190384,1.96785697281702,1.96678601617323,1.96580595682887,1.89144324361091,1.8919912505952,1.89237712473051,1.89261911413916,1.89283558503484,1.89413666463762,1.92609586100215,1.97161331581537,1.97136338860415,1.97094965573364,1.97024528129136,1.97039122440829,1.97171620673658,1.97090938250973,1.97146223245552,1.97243670598748,1.97337919018616,1.97372468762001,1.97305208025263,1.97279373144081,1.97316775291238,1.97254465167936,1.97493499732989,1.97742864313059,1.97970853426301,1.98028200200643,1.9930695716283,1.99373717152127,1.99497380738858,1.99368064351235,1.99179778216173,1.99017568861829,1.99237481576503,1.99514099462868,1.99425531958363,1.9925331330172,1.98987787301609,1.9906249674244,1.99387266173252,1.99861465683416,1.99949620117601,1.99895450923291,2.00072770133961,2.00149624786526,2.00417016705587,2.00300749479601,2.00261106683616,2.0027524608845,2.00290916134496,2.0023386118801,2.00263381990419,2.0017791411952,2.0016368094437,1.98628574008846,1.99061202812437,1.9934500365557,1.99521147695182,1.99504386811743,1.99438064103066,1.99412426243572,1.99426299686799,1.99450747653466,1.94995373162851,1.9422712743255,1.93281724703166,1.92058356310815,1.92194617087186,1.94259992010607,1.95380824494445,1.9927313861089,1.99507677332037,1.99538786776358,1.99581858287162,1.85472712454078,1.85353955024514,1.85314213113996,1.85291248436784,1.85392875169265,1.85414025455841,1.85399079021081,1.85375014458327,1.85345983183625,1.85377756218509,1.85405992424491,1.97396657973166,1.96147106535374,1.96021830253214,1.89394873863959,1.88314457727193,1.86063231820814,1.86092091034999,1.86155586836717,1.86267077885631,1.86324957719681,1.86339663029145,1.86440624661465,1.86480985363634,1.86517304213899,1.86634158595447,1.86695437529767,1.86577167087961,1.86530818516376,1.86493310067384,1.88802349885843,1.89551496732141,1.88754420683379,1.86312758911483,1.86399414377363,1.86403469031988,1.86331651180976,1.87064855062245,1.87053702286577,1.89915230427251,1.9104164823408,1.87575025895012,1.88695191778584,1.89540770745089,1.90341773231936,1.92026754023441,1.9158923705871
1.96700632256365,1.81804574929294,1.97140008618829,1.89652257490326,1.89692556142899,1.81971802794354,1.97140980690428,1.87887223294384,1.81691845742691,1.99817093800749,1.88995138831054,1.89049509690374,1.89641308662965,1.89585618052294,1.97263461711823,1.89780004191239,1.96790062843415,1.89907936197333,1.89889238122968,1.88667511697186,1.89203653427235,1.90006994146732,1.89921213867409,1.88775859286871,1.8870435203691,1.81324403348569,1.886058184556,1.88663109256416,1.88667503487463,1.81255386265086,1.88419636343607,1.99501170531278,1.90772753957721,1.90871699553596,1.90817129349494,1.90811939936668,1.89180664896037,1.90059184716286,1.9095498967595,1.99410767872629,1.8945611290739,1.99133727467093,1.82401458679568,1.90260840568522,1.91247040262286,1.83258825829324,1.98692115442415,1.98565935209603,1.98709423044965,1.96440758992603,1.97265796081573,1.96398604425187,1.97332448097627,1.96779541560403,1.96781348451172,1.967367974715,1.89156564140391,1.89253571407641,1.89281219182856,1.89271853181015,1.89130942537155,1.89584930657207,1.96783685046917,1.97163275649948,1.97138466462172,1.98514943972745,1.9697609545303,1.97088876595912,1.97826665139639,1.8948202796805,1.97134349045499,1.97220738507538,1.9734334943661,1.97643725079088,1.97611289855978,1.97600207247498,1.9744369571953,1.97158839007977,2.0006587309554,1.98780941388421,1.98647747031711,1.98040263880353,2.00177450123853,1.90662123117629,1.99807912808024,1.9830096583925,1.98942212254703,1.98842349352821,2.02864538562295,2.00090701856855,2.00319631186427,1.99685371616659,1.99974713553419,1.91341601158369,1.99254854460294,1.91338684738477,1.91424225604644,1.99803445112156,2.00339367930009,1.91501992926087,2.00647301008753,2.00858060780868,2.00113588148229,1.98762998033611,2.01718466730725,1.98764212258797,2.00683304481284,2.00085533483495,1.99049030203855,1.91528238673114,2.00790465452416,1.91756675440534,1.99284107498172,1.99158114989645,1.91780005019228,1.99486364525539,1.99392141814053,1.99278450447913,1.99250634890658,1.99407935070354,1.99106461292289,1.91932535160537,1.91945982295902,1.92043821310456,1.92107231097409,1.9934512078315,1.9968239058849,1.9949495591808,1.997105220897,1.85414253592799,1.85295257513168,1.85267491043935,1.85142151698347,1.85324309237455,1.85316746334363,1.85360800832168,2.04551082484826,1.89881283881273,2.03182405674317,1.85528553785533,2.03496384800591,1.85413583134403,2.05135297515449,1.85827477267798,2.06342610440628,1.86063768992316,1.86028696783107,1.86155628036459,1.86271878511241,1.86282971458089,1.86269934927715,1.91251199319799,1.86307212926011,1.8637554312796,2.05096414651514,1.86745311053195,1.8660993556568,1.86501208246085,1.86447495600997,1.86436877541466,1.91208262670336,1.86338068637341,1.86248482116835,1.94746768648787,1.9112339009942,1.86194853304277,2.06196799700872,1.87044509602584,1.86040134926568,2.05616472956643,1.86008131623986,1.94449314343351,2.04144756807332,2.01809840235607,1.92543387581463,1.90557419491039
1.86753459107725,1.85002389537464,1.86755259561441,1.89616355912474,1.89629794979154,1.85874799887596,1.90408805578225,1.89325774896981,1.88597083853913,1.88739584305961,1.88970600905336,1.89116873523347,1.89675005780786,1.89696387232249,1.89814390015934,1.89853785141356,1.89934439737015,1.89922849178387,1.89877149189226,1.89710332413116,1.89423892981148,1.89619961096201,1.89722447993374,1.89625328643799,1.89449222197377,1.89221583327209,1.88966832369877,1.88695399587468,1.88581698880253,1.88360905894692,1.88317553199821,1.93063847137866,1.9091127534751,1.90892463529245,1.90927775294648,1.90954082899215,1.89748287591526,1.89922758379419,1.9038820527279,1.9077162649371,1.89490331964413,1.89550164343618,1.89634661225662,1.91232631674631,1.921118928826,1.93292868684853,1.98749223538194,1.9864884205273,1.98652268410342,1.96601542870304,1.96852631254061,1.97007315003036,1.97069789376955,1.96873375500559,1.9676073578986,1.96738583450063,1.89246711432915,1.89281448322028,1.8931589822471,1.89326445565946,1.8933035301329,1.89429068963793,1.96983222974132,1.97051031627332,1.97075867163309,1.97125921455024,1.97231192396176,1.97283751232006,1.97503266057244,1.97436995696419,1.97379162377223,1.97310847027809,1.97330395293123,1.97405387633019,1.97379730604653,1.97338905207933,1.97343740826242,1.97135753383238,1.98219713895161,1.98473254036965,1.98296491303614,1.9788457106958,1.97472443489968,1.97510618300273,1.99022189348571,1.9920140564066,1.99213801476788,1.99083870911055,1.99272890521235,1.99437501142823,1.99530145913947,1.99567145528894,1.99569195882844,1.99417057916887,1.99164964911849,1.98924975401041,1.98700437375127,1.99030291079476,1.9888891695225,1.98798486061995,2.00670787962733,2.00838559824324,1.99913971616911,1.99833031527936,1.99809161871516,1.99870076228661,2.00019686747864,1.99944628492809,1.9861677726858,1.98354667039323,2.00532360798991,1.99671677992321,1.98906454912187,1.98803247789758,1.98761589732597,1.98954178181943,1.99094112535991,1.99099040439913,1.99214507439458,1.9931401304431,1.99182940178688,1.95778175490697,1.94988316471946,1.94028415231085,1.95186593645842,1.99179956302433,1.99513687213409,1.99483892620982,1.99599976847102,1.85533605440254,1.85504084873789,1.85454382347483,1.85413730226779,1.85389829498262,1.85312355188352,1.8523527774785,1.85176566534082,1.85158458216883,1.85269783587161,1.85456227034259,1.85590383005976,1.85623057905385,1.85747355921441,1.85870432391535,1.85976601939767,1.86027550719483,1.86071136498302,1.86149138094955,1.86239396585993,1.86268896836454,1.86310212434644,1.86328557664544,1.86347227834404,1.86459785097952,1.89734181019608,1.88682954132017,1.86441150348711,1.86393419275398,1.86448725282892,1.8649380713026,1.88380546781527,1.89377644778175,1.90240756473467,1.92261696950366,1.92066604822881,1.92506101715626,1.92719105031037,1.86998982799146,1.86195896582664,1.86229429292701,1.8617880345436,1.90901475429718,1.91010761313319,1.91296568830187,1.91742690792853,1.9162166307121
1.96397345917672,1.81967914415745,1.81971803114076,1.96955529440266,1.96736384389196,1.81974719196421,1.99519639891647,1.89347131126815,1.88663343828572,1.88694482129384,1.89630652205246,1.89178312981688,1.89761251475041,1.89754117632952,1.89153967188476,1.88927817285404,1.89999802448509,1.89947510577763,1.89924970013596,1.89823133324509,1.88993474975952,1.88799844575605,1.90233437684308,1.90341179859202,1.98108191622395,2.00156509683723,1.9949906361899,1.88579319514441,1.88649558499463,1.9054444769153,1.81244693477503,1.99771406435626,1.91050780415748,1.90811309068279,1.89030515131684,1.91029619569186,1.8939578489279,1.89711240865782,1.89369831004893,1.91145105455478,1.89554316861946,1.89613265300129,1.89764690241614,1.99393529872019,1.98634605555449,1.99452895900507,1.99282797766174,1.99031055277096,1.98963461871128,1.96417713434893,1.96370338338897,1.97699650572024,1.97552118829609,1.98539871986062,1.96730572493495,1.96778445080745,1.89252475797623,1.89284931419589,1.89275914651805,1.89433001932742,1.89370534850231,1.89358464622131,1.97326537565189,2.00133013703942,1.98506331473478,1.97061216944178,1.98368994554249,1.96855492629172,1.89712407784064,1.98528422661855,1.9743765574941,1.97340141673553,2.00785277834568,1.97382685890894,1.97387118813915,1.90195528750635,1.97523108771868,1.97383576690828,1.97709471859834,1.9914249748617,1.98276398605812,1.97953522858514,1.90705866014709,1.97973737098508,1.98997345480095,1.99527992755295,1.99453825176453,1.99226051467006,1.99354988413279,1.99389434198522,1.99655890423655,2.00844710244178,1.99397361143861,1.99561027432976,2.00001061345832,1.99120793455347,1.9873858266456,1.98846251092981,1.98961040325199,1.98997539810233,2.00476047757128,2.00884151042485,1.99803476539486,1.99793557698236,1.99710277397606,1.99882896742522,2.00390945916598,1.99817691602742,1.98825365892601,1.98749744641941,2.01178129666892,2.00067888223528,1.98891039203001,2.00630344080102,1.99026293553867,1.9164404055812,1.99315888852485,1.99168591169404,1.99428434995447,1.99545073155777,1.99538352752764,1.99691673880288,1.99643196876954,1.92203940719509,2.00596568732946,1.99370881521208,2.00178319217311,1.99790549593448,2.00168964855323,1.8552621437694,2.05740730155804,2.06525527775372,1.85325802494143,2.03525546948543,1.85247201785068,1.85185564108936,1.8526762856188,1.85264181321997,1.85335694434198,2.03768564848136,1.85660455336488,1.85668298064596,1.8572515022918,1.85517350290579,1.85984450172461,1.85967716285787,1.86036837431754,1.86104392588384,1.9339947710829,1.86213342119703,1.86338558384601,1.86286683093107,1.86242088945335,1.86577005317394,1.91382405058336,1.91421288618273,1.8636306674733,1.86234597971604,2.04276958294085,1.86545581571659,1.86634149735214,1.91327993129417,1.91335769678363,1.95170591661353,1.86170179890945,2.04207940688739,2.06094732613723,1.86985916356176,1.86166142770933,1.86117335564238,1.86142413710464,1.90794766841175,1.90887478428493,1.90756883175804,2.03436561991016,2.0732148654019
1.84324998964169,1.85404458015277,1.86460097823289,1.87957369325985,1.92660231403344,1.92047458390277,1.90881101850263,1.89435547123628,1.89464639966449,1.8952877011462,1.89533257648089,1.89364369421909,1.89396869007861,1.89460807990094,1.89136742992757,1.88985840554398,1.89992911252115,1.89876747718944,1.89978417137646,1.90049011824098,1.90227647167127,1.90342458009248,1.90375360858338,1.90428640049201,1.92508702815037,1.91389505056366,1.90477775413594,1.88474030505038,1.88512594646479,1.88583970800574,1.8863231690938,1.88642576418408,1.88633686261104,1.88680909179944,1.88843622999752,1.90948794976992,1.90773560582158,1.90473915807372,1.90102697183992,1.89742880766343,1.89566203064934,1.90398652023679,1.90792139553909,1.92025036283459,1.93087152481378,1.94230705724196,1.99367248635195,1.99348369984544,1.98079412102044,1.96223176489642,1.96243086884081,1.96205619168102,1.96380936928427,1.96472063579527,1.96607931221873,1.96671659017699,1.89255638300023,1.89277782377865,1.89281367135854,1.91249903415573,1.92385943829651,1.93694333897149,1.97366451009423,1.97519252199742,1.97617819081234,1.97814932849731,1.98090078807813,1.96847510581869,1.92107280726942,1.96884259547782,1.97074887233264,1.97216872898772,1.97241570249234,1.97243529785901,1.97299742157789,1.97312757088792,1.97437923825175,1.9740544128776,1.97552793107063,1.97775826727586,1.97934719466234,1.97833442827751,1.94362647820744,1.97886521366609,1.98757982078264,1.99302392299704,1.99265957111206,1.99137073074824,1.99259707235752,1.99322715143769,1.99422887036728,1.99335420146759,1.99371488758148,1.99493038734452,1.9965296643067,1.98854442349438,1.98709473077349,1.98681513364105,1.98768016736534,1.98808852851097,1.99562517615941,1.99548416531978,1.99777467319348,1.99697237419239,1.99674931084976,1.99717418536539,1.99695276638068,1.99519908078435,1.99325777142945,1.99246328403926,1.99880627444272,1.99907979009384,1.99950559061761,2.00033700867258,1.98827090626166,1.93011297466426,1.94127912693661,1.95038404675174,1.95606213738497,1.99425413239082,1.99518296356308,1.99571307781643,1.99564026025425,1.95666433148866,2.00113859907327,1.99995532923058,1.9990780627275,1.99762228371574,1.99750267041185,1.90339794452184,1.90408835487373,1.90404271653687,1.90327743394533,1.91122939665237,1.89405751603166,1.87853426348496,1.85444403233479,1.85412356350741,1.85442040526372,1.85543874428645,1.85624312682428,1.8570616440363,1.85731040685497,1.85801541549655,1.85936665352438,1.85978822266871,1.86010879576997,1.86088067155358,1.86162573208334,1.86245303647933,1.86324614908653,1.86358775296066,1.87882326048397,1.88734706586366,1.89683188373569,1.90392837756542,1.86171121017008,1.86113292834898,1.89477537779591,1.86800198224663,1.86707968934678,1.88412189033779,1.8936048974075,1.90364685542348,1.89969435891306,1.89472492461532,1.88908015221718,1.87104099297702,1.87259494476825,1.86233057615981,1.86249645695855,1.88114654176254,1.89273397848952,1.90069585258307,2.03025784530302,2.02822431462654
