2.0512, 2.04595, 1.79595, 1.79816, 1.79352, 1.79697, 1.79325, 1.79458, 1.79283, 2.07143, 1.79428, 1.79634, 1.79302, 1.79596, 1.79341, 1.79441, 1.90795, 1.89391, 1.79583, 1.79359, 1.79351, 1.8903, 1.79533, 1.79349, 1.79465, 1.79023, 1.79234, 1.79385, 1.79257, 1.79262, 1.793, 1.7893, 1.79227, 1.79229, 1.79218, 1.79164, 1.78869, 1.89734, 1.78757, 1.78899, 1.83877, 1.88738, 2.06561, 1.90217, 1.78532, 1.78765, 1.78852, 1.78668, 1.78713, 1.78848, 1.90267, 1.7934, 1.86829, 1.86494, 1.86669, 1.87066, 1.87218, 1.86774, 2.03042, 2.02316, 2.02471, 2.02432, 2.02345, 2.02161, 2.02687, 1.86884, 1.86906, 1.86948, 1.94452, 1.94033, 1.94169, 1.9416, 1.94134, 1.94905, 2.02525, 1.93865, 1.94152, 1.95118, 1.951, 1.95289, 1.94137, 1.94406, 2.04096, 1.94089, 1.9406, 1.86456, 1.96094, 1.9604, 1.94612, 2.04097, 2.0392, 1.95162, 1.9496, 2.04778, 1.95723, 1.96394, 2.06356, 2.03806, 2.04604, 2.03774, 2.03814, 2.0178, 2.02785, 2.032, 2.033, 2.0392, 1.94502, 1.94461, 2.02702, 2.02674, 2.02193, 2.02687, 2.02491, 2.03486, 2.03506, 2.02655, 2.02686, 2.02704, 2.02556, 2.04466, 2.03504, 1.95214, 1.95572, 1.95334, 2.04408, 2.03404, 2.04209, 2.04773, 2.05874, 2.03692, 2.03686, 2.03723, 2.03864, 2.03846, 2.04446, 2.04231, 2.04135, 2.04779, 2.04411, 2.04943, 2.04307, 2.04266, 2.05213, 2.04402, 2.06126, 2.05796, 1.96961, 2.04776, 1.96935, 1.96985, 2.04733, 2.04654, 1.96853, 2.06939, 2.06926, 2.07298, 1.97366, 2.05349, 1.97282, 2.06923, 2.04889, 2.05477, 2.05796, 2.05628, 1.97648, 1.97351, 2.05815, 2.05624, 2.05443, 2.05665, 2.05538, 2.06992, 1.91027, 1.90733, 1.91012, 1.91018, 1.90781, 2.01784, 1.90763, 1.9095, 2.00804, 1.9117, 1.90963, 1.9132, 1.91278, 1.96369, 1.96246, 1.9669, 1.96432, 2.097, 1.91471, 1.91503, 1.91411, 1.96883, 1.96828, 1.96788, 1.91455, 1.96706, 1.96715, 2.00116, 1.96736, 1.91469, 1.9148, 1.91422, 1.91766, 1.96357, 1.91379, 1.91086, 1.91053, 1.90802, 2.10811, 1.90867, 1.90787, 1.9107, 2.09363, 1.91405, 1.90928, 1.91016, 1.91137, 1.91272, 1.84168, 1.84263, 1.84052, 1.83799, 1.8357, 1.95063, 1.83101, 1.83092, 1.83068, 1.87812, 1.82539, 1.82357, 1.82369, 1.82234, 1.94906, 1.82222, 1.81971, 1.9157, 1.95108, 1.81824, 1.81787, 1.81551, 1.81491, 1.8164, 1.95358, 1.86724, 1.816, 1.8135, 1.81402, 1.94398, 1.94129, 1.81167, 1.94475, 1.8108, 1.90302, 1.80662, 1.80731, 1.80438, 1.80563, 1.94275, 1.80256, 1.95046, 1.79783, 1.95119, 1.79289, 1.79249, 1.7961, 1.78883, 1.78881, 1.79187
1.90187, 1.90198, 1.79987, 1.79877, 1.79906, 1.79832, 1.79606, 1.79031, 1.79425, 2.04859, 1.79273, 1.79042, 1.79361, 1.79375, 1.84386, 1.79406, 1.79608, 1.79191, 1.7922, 1.79274, 2.07687, 1.79343, 1.79249, 1.79376, 1.79259, 1.79287, 1.79565, 1.7925, 1.79235, 1.79218, 1.79216, 1.79187, 1.88113, 1.79161, 1.79019, 1.89444, 1.89665, 1.85403, 1.78699, 1.89733, 1.90303, 1.78629, 1.90087, 1.78472, 1.78579, 1.7875, 1.78891, 1.89766, 1.78964, 1.78771, 1.78906, 1.79223, 1.8722, 1.86854, 1.86908, 1.94772, 1.86682, 2.02506, 2.0261, 2.03434, 2.02084, 1.86842, 2.02349, 1.86906, 2.04123, 1.9459, 1.94298, 2.02446, 1.86554, 2.05189, 1.94233, 1.9421, 1.9411, 2.02722, 2.05261, 2.03173, 1.95198, 1.95225, 1.95372, 1.94249, 1.94325, 1.95567, 1.94091, 1.94431, 1.94458, 1.86542, 1.9422, 1.96239, 1.96, 1.94448, 1.94616, 1.96476, 1.95102, 1.95127, 1.95625, 1.96338, 1.96328, 2.04351, 2.05181, 2.04149, 1.94201, 1.94198, 2.01787, 2.03759, 2.02185, 2.02137, 1.94466, 2.02424, 2.02546, 2.03074, 2.03058, 2.0244, 2.03014, 2.02435, 2.04507, 2.02451, 2.02566, 2.05095, 2.03464, 2.03514, 2.02978, 2.06826, 2.0493, 2.03119, 2.05117, 2.03299, 2.05773, 2.05181, 2.03658, 2.05698, 2.03648, 2.03728, 2.06959, 2.04173, 2.0427, 1.96504, 2.06144, 2.0428, 1.96507, 2.04204, 2.06156, 2.05593, 2.06386, 2.04603, 2.0426, 2.05142, 2.05903, 2.06154, 2.06598, 1.97156, 2.0499, 2.04522, 2.05211, 2.04788, 2.04672, 2.07285, 2.05225, 2.05846, 2.04988, 2.04898, 2.05336, 2.05298, 1.97551, 1.9744, 1.97401, 1.97532, 1.97363, 1.97868, 2.09261, 2.07359, 2.05682, 2.06943, 1.95824, 1.90967, 1.90749, 1.9067, 1.90513, 1.90795, 2.09398, 1.90966, 1.95887, 1.90973, 1.95941, 2.01815, 2.01691, 1.96409, 1.91072, 1.98504, 1.91532, 1.91417, 1.91473, 1.91518, 2.09434, 1.91883, 2.02016, 2.09314, 2.09265, 1.91641, 2.11515, 1.91416, 1.91666, 1.91454, 1.91299, 1.91448, 1.91344, 1.91171, 1.91316, 1.91085, 1.91135, 1.90796, 1.90838, 2.08946, 1.90867, 1.90958, 2.09541, 1.90809, 1.91271, 1.91104, 1.91136, 1.91324, 1.94447, 1.93301, 1.84, 1.83819, 1.8328, 1.83381, 1.93803, 1.94096, 1.8819, 1.82637, 1.93659, 1.82334, 1.94441, 1.88628, 1.8233, 1.95356, 1.91779, 1.91224, 1.8181, 1.81726, 1.81723, 1.8672, 1.93794, 1.8176, 1.81598, 1.81356, 1.81475, 1.81291, 1.81287, 1.81252, 1.94749, 1.94797, 1.94632, 1.80947, 1.80757, 1.8061, 1.92909, 1.80928, 1.95469, 1.95175, 1.80282, 1.94353, 1.80021, 1.79547, 1.79543, 1.79263, 1.79294, 1.78675, 1.7903, 1.79405
1.79773, 1.79568, 1.79746, 1.79852, 1.79867, 1.79849, 1.79938, 1.79706, 1.79966, 1.97157, 1.79658, 1.79522, 1.79542, 1.79356, 1.79279, 1.79459, 1.79442, 1.79257, 1.79213, 1.79653, 1.79305, 1.79582, 1.7952, 1.79062, 1.79551, 1.79315, 1.79323, 1.79474, 1.792, 1.79298, 1.79458, 1.79315, 1.91057, 1.91406, 1.91647, 1.8422, 1.89379, 1.91782, 1.78692, 1.78696, 1.78495, 1.78536, 1.7895, 1.78565, 1.78438, 1.78508, 1.7862, 1.78574, 1.78576, 1.78868, 1.78882, 1.78965, 1.87487, 1.87206, 1.86943, 1.87003, 1.87032, 2.02907, 1.86961, 1.94512, 2.05763, 1.86891, 1.86987, 2.02787, 2.02699, 1.94767, 1.9419, 1.94204, 2.05555, 1.95133, 2.02846, 1.94304, 2.02854, 1.94404, 1.86589, 1.95095, 1.9497, 1.94052, 1.95514, 1.95513, 1.86524, 1.93771, 1.86566, 1.95692, 1.95743, 1.94447, 1.94209, 1.86766, 1.86852, 1.86783, 1.8682, 1.96251, 1.87285, 1.95152, 1.95572, 2.05231, 1.95904, 1.96528, 2.06993, 2.0459, 2.01942, 1.94079, 2.0243, 2.02888, 2.02423, 1.94486, 2.02259, 2.02595, 1.94544, 2.02789, 2.02782, 1.94538, 2.02369, 2.03118, 2.02424, 2.02502, 2.0275, 2.03168, 2.0477, 1.95212, 2.053, 2.0562, 2.03669, 2.0511, 2.04893, 2.03426, 2.0352, 2.03519, 2.06551, 2.03564, 2.03829, 2.05898, 1.96166, 1.96213, 2.0484, 2.04338, 2.06609, 2.04147, 2.04251, 2.04166, 2.06241, 2.0438, 2.05904, 2.05105, 2.0518, 1.96971, 1.96938, 2.06669, 2.04954, 2.05575, 2.06215, 2.04758, 2.06616, 2.06567, 2.06542, 1.97207, 2.04672, 2.0532, 1.97228, 2.05205, 2.05285, 2.0494, 2.0548, 1.97236, 1.97515, 1.97357, 1.97513, 1.97686, 2.0564, 2.07272, 1.97649, 2.07936, 1.99661, 1.97745, 1.90693, 1.90424, 1.90939, 1.9596, 1.98296, 1.95946, 1.90887, 2.0973, 1.97876, 1.91174, 1.90997, 1.91219, 2.04577, 1.91449, 1.91709, 1.96503, 1.91458, 2.09397, 1.91702, 1.91617, 2.0942, 1.92014, 2.11061, 2.11473, 1.9183, 1.9181, 2.11543, 1.9686, 1.96813, 2.09272, 2.0995, 2.11752, 1.91343, 1.91281, 1.91107, 2.11292, 1.90944, 2.0955, 1.90978, 2.10687, 1.91286, 1.90834, 1.9113, 1.91327, 1.91078, 1.96237, 1.84043, 1.93808, 2.02746, 1.83871, 1.83504, 1.94654, 1.94806, 1.82998, 1.94765, 1.94615, 1.82498, 1.883, 1.94794, 1.82521, 1.82232, 1.82399, 1.82228, 1.82043, 1.82221, 1.8197, 1.81717, 1.81808, 1.8148, 1.86446, 1.81334, 1.81489, 1.81357, 1.95143, 1.94755, 1.81693, 1.81035, 1.8093, 1.80912, 1.86166, 2.0003, 1.94342, 1.80265, 1.80512, 1.92823, 1.80659, 1.92026, 1.92696, 1.79761, 1.79949, 1.79819, 1.94535, 1.93459, 1.79523, 1.94748, 1.94286
2.07163, 1.80125, 1.7996, 1.79979, 1.80088, 1.80092, 1.79961, 2.06265, 2.05967, 1.79589, 2.05295, 2.05291, 1.79614, 1.79604, 1.79662, 1.79687, 1.79631, 1.79403, 1.79296, 1.79397, 1.79546, 1.7942, 1.79589, 1.79563, 1.79427, 1.7957, 1.79579, 1.79353, 1.79376, 1.793, 1.79243, 1.79281, 1.84199, 1.84427, 1.84105, 1.78641, 1.78646, 1.78742, 1.78653, 1.78709, 1.78321, 1.7825, 1.78358, 1.78301, 2.08334, 2.07976, 2.0661, 1.78252, 1.78556, 2.07418, 1.7872, 1.78891, 1.87179, 2.0242, 1.87222, 1.8723, 1.86911, 1.87162, 1.86892, 2.02413, 2.02446, 1.86909, 2.02704, 1.86859, 1.86853, 1.86848, 1.94424, 1.87031, 1.86876, 1.86902, 1.94114, 1.86623, 1.93927, 1.86895, 1.95203, 1.86532, 1.95445, 1.9549, 1.95221, 1.95925, 2.04484, 1.94191, 1.95984, 1.86493, 1.93964, 1.94137, 1.94184, 1.94229, 1.9444, 2.03826, 2.03851, 1.94751, 1.9509, 1.87287, 2.04279, 2.04504, 1.8829, 1.96993, 2.06839, 2.05659, 2.04124, 2.02348, 2.02409, 2.03162, 2.03871, 2.03365, 2.02227, 1.94394, 1.94394, 1.94766, 1.94626, 1.94767, 1.94873, 2.03417, 2.0282, 2.02909, 2.02749, 1.95161, 2.02662, 1.95415, 2.06379, 2.03532, 1.95586, 2.06877, 1.95815, 2.03405, 2.03563, 2.03574, 2.03568, 2.038, 2.04987, 2.06188, 2.05934, 2.05355, 2.05189, 2.05519, 2.05426, 1.96486, 1.96585, 2.04627, 2.04743, 2.05148, 2.06206, 2.05905, 2.05899, 2.06092, 2.06551, 2.05211, 2.05145, 2.05895, 2.04616, 2.07471, 2.06843, 2.06314, 2.04609, 2.05186, 2.05243, 1.9729, 1.97215, 2.04917, 2.04946, 2.04992, 1.97353, 1.97263, 1.97521, 1.97604, 1.97965, 2.05992, 2.05965, 2.06887, 2.05469, 2.0552, 1.9094, 1.90533, 1.90616, 1.90397, 2.0967, 1.96589, 1.90762, 1.90799, 1.90879, 1.90631, 2.10871, 2.02046, 2.01439, 1.96295, 1.9126, 1.91386, 1.91514, 1.97181, 1.96836, 1.91499, 1.9163, 2.10795, 1.91689, 1.9185, 2.10714, 1.91671, 1.91774, 2.11556, 2.10064, 2.01061, 1.9143, 1.91648, 1.91616, 1.91653, 1.91379, 2.11141, 2.12855, 1.91021, 1.9108, 1.9104, 1.91329, 1.97878, 1.97633, 1.90954, 1.91312, 1.91069, 1.91019, 1.91193, 1.84263, 1.83999, 1.83486, 1.94208, 2.03869, 2.03696, 1.83392, 1.99836, 1.82807, 1.95214, 1.95119, 1.82477, 2.00027, 1.8233, 1.94891, 1.95156, 1.95575, 1.82136, 1.87018, 1.8682, 1.86781, 1.86888, 1.93531, 1.93391, 1.814, 1.81327, 1.81513, 1.86248, 1.86332, 1.81075, 1.80922, 1.89017, 1.80987, 1.86059, 1.9134, 1.94288, 1.80656, 1.8058, 1.80623, 1.80552, 1.80684, 1.80108, 1.8001, 1.93973, 1.94489, 1.80207, 1.84849, 1.91702, 1.8485, 1.84634
1.80225, 1.80566, 1.80114, 1.80224, 1.80216, 1.80349, 1.80119, 1.8023, 2.07188, 1.79944, 2.06257, 1.79966, 1.79677, 1.89497, 1.79793, 1.79595, 1.84782, 1.88662, 1.88924, 1.79858, 1.89968, 1.79608, 1.79693, 1.79622, 1.79525, 1.79618, 1.79619, 1.79705, 1.79495, 1.79358, 1.79397, 1.89696, 1.84313, 1.79211, 1.78967, 1.79075, 1.89717, 1.79009, 1.78538, 1.78268, 1.78548, 1.78323, 2.09053, 1.78573, 1.78416, 1.78549, 2.0837, 2.08581, 1.78634, 1.78673, 1.83765, 1.78812, 2.02734, 2.02371, 1.87237, 1.86957, 2.02352, 1.8699, 2.02804, 1.95114, 1.9519, 1.872, 2.02805, 1.86912, 2.05558, 1.94409, 1.94448, 1.95112, 1.95031, 2.02931, 1.95213, 2.02444, 1.95344, 1.94078, 1.94517, 1.95491, 1.95449, 1.94216, 1.94106, 1.86534, 1.94011, 1.94128, 1.86463, 1.93861, 2.05233, 1.96192, 1.96386, 1.96251, 1.9625, 1.94612, 1.96503, 2.0514, 1.94894, 2.04855, 1.87642, 1.95721, 1.9681, 1.88524, 2.04448, 2.04535, 2.0204, 2.03033, 2.02034, 2.0313, 2.02415, 2.02502, 2.02421, 1.94546, 1.94783, 1.94664, 1.94464, 1.95112, 2.02444, 2.02867, 2.02814, 2.04222, 2.02599, 2.03617, 1.94926, 2.02782, 2.02861, 2.03048, 2.03477, 2.03439, 2.03503, 2.0324, 2.05814, 2.04614, 2.04409, 2.0378, 2.05931, 1.9614, 2.05634, 2.03991, 2.04668, 2.08693, 2.05952, 2.06208, 2.05518, 2.05877, 1.96839, 2.04976, 1.96814, 1.96946, 2.06259, 1.97004, 2.0642, 2.06683, 2.05871, 2.04474, 2.07514, 2.04475, 2.06589, 2.04903, 1.97031, 2.06585, 1.97266, 2.05066, 2.04844, 1.9729, 2.05398, 2.05204, 2.04947, 2.05203, 2.04813, 1.97411, 1.97444, 1.97571, 1.97642, 2.05169, 2.05588, 2.05619, 1.90709, 1.90525, 1.90518, 1.90346, 1.90627, 1.90606, 1.90719, 2.10428, 2.0902, 1.90911, 2.09343, 1.90684, 2.11029, 1.91156, 2.12271, 1.91424, 1.91306, 1.91657, 1.91628, 1.91583, 1.96746, 1.91576, 1.91678, 2.10989, 1.92151, 1.92013, 1.91777, 1.91773, 1.96702, 1.91713, 1.91553, 2.00342, 1.96607, 1.91501, 2.12121, 1.91335, 2.11524, 1.91298, 2.00036, 2.1001, 2.07608, 1.98083, 1.96029, 1.90993, 1.91594, 1.91394, 1.91227, 1.84291, 1.95535, 1.95177, 1.83801, 1.83804, 1.83393, 1.83303, 1.88204, 1.94928, 1.82733, 1.9502, 1.82493, 1.82454, 1.82394, 1.82479, 1.82393, 1.82012, 1.81868, 1.95098, 2.0486, 1.81641, 1.86629, 1.81433, 1.81498, 1.95133, 1.81542, 1.9501, 1.94722, 1.81132, 1.81259, 1.94801, 1.94538, 1.9426, 1.9441, 1.80972, 1.94511, 1.94255, 1.80749, 1.94545, 1.80449, 1.80494, 1.80462, 1.80256, 1.94419, 1.94096, 1.80221, 1.80009, 1.79888, 1.92197, 1.91878, 1.79819
1.8047, 1.80421, 1.852, 1.80386, 1.87002, 1.87184, 1.80128, 1.80155, 1.80026, 2.06278, 1.80091, 1.7994, 1.79857, 1.7991, 1.79945, 1.79722, 1.7981, 1.79371, 1.79589, 1.79645, 1.89962, 1.79818, 1.7959, 1.79469, 1.84746, 1.84792, 1.79771, 1.79902, 1.79506, 1.79642, 1.90345, 1.79124, 1.79288, 1.79254, 1.90003, 1.90062, 1.83895, 1.83969, 1.7863, 1.78946, 1.78386, 1.78545, 1.78877, 1.7869, 1.78582, 1.7831, 2.07359, 1.78551, 1.78907, 1.8391, 1.8393, 1.84088, 1.87271, 2.02505, 1.87042, 1.86985, 2.0204, 1.87195, 1.87201, 2.02658, 2.02345, 1.87203, 2.05252, 1.94105, 1.94125, 1.95105, 1.94571, 1.95249, 1.9524, 1.94641, 1.94304, 1.95482, 1.95405, 1.95209, 1.94432, 1.94158, 1.95624, 1.95805, 2.038, 2.05909, 2.05229, 1.94127, 1.96019, 1.86452, 2.05511, 1.96569, 1.96276, 1.94514, 1.96552, 1.94849, 1.94809, 1.9662, 1.95011, 1.9506, 1.95292, 2.05127, 2.04337, 2.05233, 2.05134, 2.04766, 2.02101, 2.0204, 2.03425, 2.03187, 2.04244, 2.02406, 2.02483, 1.94681, 1.94678, 1.94941, 1.94817, 1.94773, 2.02984, 2.05883, 2.04212, 2.02706, 2.04139, 1.95163, 2.04232, 2.03166, 2.03045, 2.06554, 2.03101, 2.03102, 1.9566, 2.03323, 2.0353, 2.04869, 2.04064, 2.03707, 1.96185, 2.03844, 2.04787, 2.0535, 2.05348, 2.05159, 2.05152, 2.0548, 2.06618, 2.0508, 2.05399, 2.05854, 2.04973, 2.04459, 2.04784, 2.04844, 2.06184, 2.06658, 2.05528, 2.05569, 2.05373, 2.0572, 2.06335, 2.04606, 2.04542, 2.06959, 2.05936, 2.04624, 2.06396, 2.04906, 1.9715, 2.05176, 2.05278, 2.05406, 2.05236, 2.05513, 2.05393, 1.97726, 2.0636, 2.05173, 2.0613, 2.06291, 1.90844, 2.11652, 2.12459, 1.90625, 2.09373, 1.90567, 1.90458, 1.90646, 1.90677, 2.09623, 1.91, 1.91016, 1.91091, 1.90766, 1.91346, 1.91256, 1.91385, 1.98956, 1.91506, 1.91744, 1.91605, 1.91549, 1.91964, 1.96871, 1.96931, 1.91795, 2.10146, 1.91892, 1.91996, 1.96823, 1.96835, 2.00778, 1.91519, 2.10075, 2.12016, 1.91509, 1.91372, 1.91447, 1.96259, 1.9643, 1.96203, 2.09415, 2.13278, 2.08921, 1.91212, 1.91359, 1.91307, 1.84551, 1.84136, 1.84447, 1.83737, 1.88943, 1.93534, 1.93456, 1.83222, 1.83088, 1.82768, 1.95153, 1.82396, 1.82343, 1.9478, 1.82125, 1.81846, 1.93885, 1.82013, 1.81982, 1.81713, 1.81673, 1.81492, 1.94821, 1.94762, 1.81495, 1.81369, 1.81319, 1.8124, 1.80738, 1.81035, 1.81326, 1.87358, 1.86044, 1.94436, 1.93876, 1.80607, 1.8073, 1.93653, 1.80777, 1.9069, 1.85606, 1.92112, 1.91941, 1.90651, 1.79986, 1.80295, 1.93213, 1.93004, 1.80064, 1.79987, 1.80003
1.88772, 1.80551, 1.80574, 1.80396, 1.8005, 1.80173, 1.80328, 2.06278, 1.80097, 1.80048, 1.79983, 1.80228, 1.7996, 1.90613, 1.90653, 1.88912, 1.79954, 1.79592, 1.79691, 1.79927, 1.89656, 1.79406, 1.79555, 1.79786, 1.79881, 1.84916, 1.84642, 1.88562, 1.79474, 2.07574, 1.79606, 1.89977, 1.79497, 1.79129, 1.79316, 1.79053, 1.79188, 1.79065, 1.79236, 1.78968, 1.78854, 1.89732, 1.78646, 1.7893, 2.0728, 2.06942, 1.7881, 1.78937, 1.78997, 1.78688, 1.79051, 1.88961, 1.87302, 1.87308, 1.8734, 1.87428, 1.87319, 2.0294, 2.02516, 1.87267, 2.02547, 2.03049, 1.9522, 2.03015, 1.9508, 1.95236, 1.94421, 1.86808, 1.95115, 1.94536, 1.94115, 1.95436, 1.94299, 1.95536, 1.95528, 1.95851, 1.94204, 1.94325, 2.03491, 1.86406, 1.94083, 1.9584, 1.94219, 1.94178, 1.94233, 1.94144, 1.8657, 1.9434, 1.96508, 1.96467, 1.96625, 1.8702, 1.95014, 1.97049, 1.96925, 1.9646, 1.96281, 1.96293, 2.06, 1.94427, 2.01812, 2.01995, 1.946, 2.02357, 2.02228, 2.02229, 2.02383, 1.94624, 1.94677, 2.0204, 2.02145, 2.02745, 2.0324, 2.0319, 2.02456, 2.0562, 2.05192, 1.95095, 2.02424, 2.0251, 2.048, 2.03158, 2.04812, 2.0316, 2.03158, 2.03574, 2.03454, 2.03875, 2.03897, 2.07001, 1.96142, 2.039, 1.96268, 2.03452, 2.0344, 2.0525, 2.05964, 2.06715, 2.04082, 2.04053, 2.06299, 2.06324, 1.96957, 2.04495, 2.0455, 2.04411, 2.05572, 1.96873, 2.05964, 2.05274, 2.07015, 2.04564, 1.97156, 2.06073, 2.0477, 2.05861, 2.06814, 2.06869, 1.97213, 2.04751, 1.96887, 1.97025, 1.97047, 2.05033, 2.05396, 2.0541, 2.05325, 1.97433, 2.05307, 2.06699, 2.08046, 2.05297, 1.95651, 1.90712, 1.90651, 1.95633, 2.00991, 2.0075, 1.95652, 1.9094, 1.90755, 1.90779, 1.90884, 1.91103, 1.90976, 1.91261, 1.96267, 1.91323, 1.91153, 1.91464, 2.11698, 2.10664, 1.91815, 2.11171, 2.11061, 1.9173, 1.97359, 1.91513, 1.96875, 1.92449, 1.91841, 1.91683, 1.91732, 1.96734, 1.96626, 1.91297, 1.91808, 1.96537, 1.91579, 1.91692, 1.91347, 1.91396, 1.91274, 2.09167, 2.09113, 2.08798, 1.91339, 1.91097, 1.91226, 1.84519, 1.84356, 1.94809, 1.84045, 1.88664, 1.88495, 1.88257, 1.88259, 1.88224, 1.88107, 1.82548, 1.91825, 1.95353, 1.82389, 1.82375, 1.8223, 1.95537, 1.82, 1.81776, 1.95167, 1.95077, 1.81563, 1.91389, 1.81389, 1.865, 1.90853, 1.91841, 1.91595, 1.94919, 1.94758, 1.80976, 1.81031, 1.81066, 1.81146, 1.8102, 1.80999, 1.86638, 1.85711, 1.80658, 1.80559, 1.92383, 1.80406, 1.80416, 1.94129, 2.00752, 1.80402, 1.80241, 1.91101, 1.80254, 1.92433, 1.8021
1.80811, 1.8063, 1.80912, 1.80637, 1.80739, 1.80618, 1.80384, 1.80184, 1.80238, 1.80121, 1.8017, 1.80026, 1.79978, 1.79956, 1.79888, 1.79913, 1.80044, 1.79983, 1.7977, 1.79977, 1.79937, 1.79725, 1.90659, 1.90663, 1.9089, 1.79832, 1.7952, 1.84848, 1.84767, 1.79917, 1.79694, 1.79756, 1.7945, 1.79474, 1.79323, 1.794, 1.78974, 1.79299, 1.79258, 1.90906, 1.79188, 1.90619, 1.78827, 1.7909, 1.78582, 1.78973, 1.84034, 1.79069, 1.88984, 1.79277, 1.79313, 1.84385, 1.87575, 1.87422, 1.87271, 1.87341, 1.87366, 1.94609, 2.02851, 2.03472, 2.03732, 1.9462, 1.95237, 1.94597, 1.95234, 1.94549, 1.94529, 1.94537, 1.9445, 1.94797, 1.94692, 1.94476, 1.94316, 1.95574, 2.03551, 1.94498, 1.95914, 1.95993, 2.03829, 1.86541, 1.94152, 1.94208, 1.94173, 2.04853, 1.94225, 1.96344, 1.94252, 1.94435, 1.94499, 1.94509, 1.96598, 2.05626, 1.95004, 1.95238, 1.96741, 1.88167, 1.9687, 2.04481, 2.05938, 2.04555, 2.02067, 2.02368, 2.02231, 2.02315, 2.02456, 2.0258, 2.02408, 2.02046, 1.94824, 1.94719, 2.02694, 2.03098, 2.02322, 2.03387, 2.02793, 2.02751, 2.02758, 1.95053, 2.02974, 2.02843, 2.04821, 2.04801, 2.03196, 2.03318, 2.05781, 2.03593, 2.03582, 2.03588, 2.03449, 2.05349, 2.05576, 2.05819, 1.965, 2.03951, 2.05405, 1.96229, 2.0448, 2.05244, 1.96907, 1.96889, 2.04947, 2.0447, 2.06172, 1.97044, 2.04678, 2.06319, 2.04641, 2.04691, 2.05552, 2.05783, 2.04577, 2.04547, 2.04633, 2.04872, 2.05505, 2.05529, 2.07948, 1.96992, 2.05001, 2.0515, 2.05139, 2.04868, 2.04831, 2.04735, 2.05517, 1.97346, 2.05227, 1.97529, 2.06474, 1.97618, 2.05726, 2.05971, 1.90831, 1.9092, 1.9081, 1.90763, 1.95923, 2.02376, 2.02253, 1.90992, 2.00434, 1.9622, 1.90915, 1.91004, 1.96006, 1.96347, 1.96438, 1.96379, 1.96349, 2.0148, 1.91683, 1.96905, 2.01185, 1.91758, 1.91739, 1.92052, 1.9196, 1.91948, 1.91768, 1.92085, 1.91707, 1.96861, 1.91724, 2.10418, 1.91729, 1.91695, 1.91735, 1.97183, 2.01713, 1.91368, 2.00694, 2.1101, 1.91633, 1.91464, 1.91573, 1.91359, 1.91533, 1.91361, 1.91517, 1.84559, 1.9452, 1.94505, 1.94857, 2.11838, 1.83457, 1.83329, 1.83051, 1.83099, 1.83165, 1.82734, 1.82574, 1.94885, 1.82361, 2.04091, 1.91889, 1.81839, 1.94515, 1.95266, 1.81671, 1.81668, 1.81615, 1.81387, 1.95229, 1.8673, 1.815, 1.81217, 1.81099, 1.86327, 1.80963, 1.94491, 1.94217, 1.91386, 1.80793, 1.80807, 1.80569, 1.80794, 1.85768, 1.85647, 1.85841, 1.80679, 1.91631, 1.80657, 1.80645, 1.85283, 1.8534, 1.93144, 1.93028, 1.93464, 1.80286, 1.80262
1.80626, 1.80947, 1.8077, 1.90954, 1.80415, 1.90718, 1.85831, 1.80879, 1.80403, 1.8068, 1.80501, 1.80415, 1.80354, 1.80335, 1.80388, 1.80273, 1.85098, 1.7998, 1.80258, 1.80263, 1.79976, 1.7977, 1.90703, 1.79638, 1.80048, 1.80262, 1.90427, 2.0851, 1.79965, 1.84923, 1.79621, 1.91734, 1.79718, 1.84895, 1.79584, 1.79564, 1.79588, 1.7955, 1.79421, 1.79482, 1.79359, 1.7934, 1.91958, 1.79219, 1.86313, 1.85389, 1.85433, 1.84477, 1.79366, 1.79528, 1.79775, 1.79692, 2.02874, 2.0311, 1.95486, 1.87247, 1.94766, 1.94864, 1.87428, 1.94806, 1.94799, 2.06293, 2.03243, 1.9523, 2.03135, 1.94764, 1.94732, 1.94516, 1.94523, 1.95457, 2.04904, 1.94455, 1.86557, 1.94349, 1.86624, 1.94379, 1.94411, 1.94493, 2.03833, 1.96141, 1.94109, 1.9394, 1.93838, 1.96006, 1.94428, 2.04335, 1.94513, 1.94546, 1.94595, 1.96693, 1.9483, 2.04427, 1.96956, 1.95447, 1.95587, 1.95923, 2.053, 1.96138, 2.05666, 1.90342, 2.0215, 2.03108, 2.0313, 2.02275, 2.0387, 2.02037, 2.03326, 1.94731, 1.94771, 1.9482, 1.94632, 2.02612, 2.02526, 2.02539, 2.02565, 1.95135, 2.03025, 2.02901, 1.95219, 1.95227, 2.02933, 2.03767, 2.04918, 2.03406, 2.0335, 2.03396, 2.05972, 1.95994, 2.062, 1.96138, 2.0603, 2.05533, 1.96288, 2.06219, 2.04146, 2.0449, 2.05478, 2.06268, 1.96607, 2.04219, 1.96906, 2.05705, 2.06235, 2.07854, 2.05984, 2.06036, 2.06283, 1.97167, 2.06616, 2.0463, 2.04293, 1.97168, 1.97082, 2.05503, 2.0494, 2.05804, 2.04957, 2.04811, 2.04888, 1.97088, 2.05023, 2.04928, 1.9714, 1.97418, 1.97275, 1.97628, 1.96895, 2.05269, 2.05063, 1.97589, 2.0765, 2.06351, 1.9101, 2.08617, 2.10072, 1.91009, 1.90798, 1.91024, 1.90771, 1.90816, 1.99773, 1.90966, 1.91105, 2.09467, 1.91034, 2.01558, 1.91346, 1.91516, 1.91417, 1.91768, 1.91647, 1.9167, 2.10409, 1.91876, 1.91947, 2.09131, 1.91656, 1.91734, 1.96867, 2.10721, 2.09269, 1.91885, 1.92002, 1.91735, 2.09449, 2.00655, 1.92026, 1.91675, 1.91655, 1.91764, 1.91398, 1.96489, 1.91299, 1.9151, 2.08961, 1.9167, 1.96666, 1.91339, 1.96563, 1.89602, 1.93199, 1.96197, 1.94496, 1.94487, 1.95083, 1.94757, 1.83419, 1.83288, 1.94523, 1.94337, 1.94775, 1.94471, 1.82191, 1.94886, 1.95123, 1.9497, 1.81843, 1.86657, 1.8196, 1.81494, 1.81404, 1.81342, 1.86306, 1.81522, 1.9461, 1.94888, 1.81068, 1.91661, 1.81077, 1.94657, 1.81285, 2.11743, 1.81147, 1.81154, 1.87479, 1.81034, 1.80856, 1.9311, 1.93419, 1.86161, 1.80779, 1.80681, 1.80571, 1.80664, 1.80569, 1.80535, 1.92941, 1.80413, 1.80341, 1.8013
1.80853, 1.97931, 1.81208, 1.80973, 1.80866, 1.80653, 1.80451, 1.80544, 2.08337, 1.80626, 1.80522, 1.80586, 1.80609, 1.80169, 1.86231, 1.80445, 1.80394, 1.80043, 1.80372, 1.98106, 1.80258, 1.8034, 2.0815, 1.90775, 1.80128, 1.80159, 1.89959, 1.80152, 1.79958, 1.79782, 1.79984, 1.79777, 1.89604, 1.80234, 1.79683, 1.90366, 1.90478, 1.91224, 1.91292, 1.918, 1.79668, 1.91621, 1.90615, 1.89404, 1.84594, 1.85768, 1.79584, 1.79628, 1.79558, 2.06379, 1.79784, 1.80317, 1.87573, 1.87588, 1.86826, 1.86977, 1.87406, 1.95248, 1.87611, 1.95191, 2.02944, 1.8733, 2.03113, 1.94606, 1.94543, 1.94818, 1.95136, 1.87167, 1.95508, 1.9482, 1.94173, 1.94204, 1.94448, 1.86821, 1.9587, 1.94196, 1.94217, 1.86525, 1.86354, 1.96155, 1.9406, 2.03836, 1.9397, 1.9446, 1.94195, 1.86514, 1.94219, 2.04352, 1.96688, 1.94891, 1.94962, 1.96848, 1.8755, 1.95261, 1.9705, 1.9704, 2.06234, 1.96734, 2.05475, 2.02799, 2.0358, 2.02493, 2.02502, 2.04268, 2.03184, 2.02954, 2.02697, 1.94753, 1.94835, 1.94742, 1.94748, 1.9491, 2.03366, 2.02563, 2.02631, 1.95092, 2.02789, 2.03142, 2.04283, 2.04301, 2.04774, 2.03082, 2.03188, 1.95613, 2.05796, 2.06432, 1.95893, 2.05172, 1.9602, 2.06713, 2.06133, 1.9624, 1.9621, 2.05912, 2.0726, 2.04489, 2.04564, 2.05306, 2.05502, 2.05234, 2.05464, 2.05607, 2.05501, 1.97033, 2.06914, 2.04944, 2.05583, 2.05578, 2.0583, 2.05589, 2.0482, 2.06609, 2.05698, 2.06961, 2.05648, 1.96923, 1.97142, 2.04957, 2.0666, 2.06568, 2.04623, 2.0457, 1.97101, 1.97215, 1.97409, 1.97412, 1.97362, 2.05206, 2.05208, 2.06253, 2.05497, 2.06266, 1.95988, 1.91214, 2.10506, 2.08748, 1.91, 1.90985, 1.9101, 1.90979, 1.96482, 2.01412, 1.96205, 2.00839, 1.90891, 1.91174, 1.9143, 1.91667, 1.91841, 1.91457, 1.91554, 2.00622, 1.91786, 1.96866, 2.09381, 1.92059, 1.91814, 1.91961, 1.91811, 1.91837, 1.91843, 1.91909, 1.91719, 1.91821, 1.91774, 1.96618, 2.10031, 1.91762, 1.91998, 1.91741, 1.91746, 1.91573, 1.96844, 1.91652, 1.9153, 1.91596, 1.98051, 1.98137, 1.91453, 1.84392, 1.94951, 1.8894, 1.83839, 1.94192, 1.93839, 1.88187, 1.87942, 1.82918, 1.92746, 1.9258, 1.82779, 1.82359, 1.82419, 1.82378, 1.92552, 1.87136, 1.87066, 1.93382, 1.93445, 1.87387, 1.814, 1.91809, 1.8657, 1.81474, 1.81472, 1.81249, 1.86274, 1.86252, 1.8137, 1.81188, 1.81111, 1.81067, 1.94748, 1.81154, 1.94251, 1.90698, 1.86189, 1.80822, 1.80936, 1.80786, 1.9014, 1.80693, 1.80757, 1.93332, 1.80878, 1.92373, 1.80341, 1.8024, 1.80305, 1.93516
1.91116, 1.81098, 1.81053, 1.80895, 1.80706, 1.80867, 1.80826, 1.80992, 1.80948, 1.80902, 1.80726, 1.85752, 1.85849, 1.85638, 1.80657, 1.80504, 1.80299, 1.80395, 1.8046, 2.06871, 1.8038, 1.80609, 1.90969, 1.85774, 1.80481, 1.80364, 1.80475, 1.80367, 1.85987, 1.80261, 1.80116, 1.80099, 1.80182, 1.79946, 1.80089, 1.7997, 1.80051, 1.91295, 1.79722, 1.89996, 1.88607, 1.89913, 1.89778, 1.7965, 1.90256, 1.79918, 1.79789, 1.90941, 1.80009, 1.79806, 1.79955, 1.8027, 1.87739, 1.87572, 1.87657, 1.8747, 1.87431, 1.95088, 1.87479, 1.94969, 1.87071, 1.94818, 1.9557, 1.9557, 1.95497, 1.94766, 1.94795, 1.9466, 1.95832, 1.94318, 1.94521, 1.94847, 2.03686, 2.03786, 1.9444, 1.94382, 1.96181, 1.96215, 2.05517, 1.93904, 1.96241, 1.9416, 1.94124, 1.96469, 1.94167, 1.94486, 1.94471, 1.8662, 1.94522, 1.96865, 1.87246, 1.95082, 1.97211, 2.04896, 2.05618, 1.95892, 1.95937, 2.0483, 2.07411, 2.02489, 2.02416, 2.0232, 2.02271, 2.02182, 2.02761, 2.02145, 1.94952, 1.94825, 1.94851, 1.94741, 1.94877, 1.95165, 1.95138, 1.95259, 2.04871, 1.95062, 1.95165, 2.02909, 2.02877, 2.03138, 2.03152, 1.95645, 2.03498, 2.0626, 2.05582, 2.03575, 2.05621, 2.05855, 2.0268, 1.96254, 2.04195, 1.96209, 2.04137, 2.05598, 2.04865, 2.04011, 2.0436, 2.04227, 1.96824, 2.08579, 1.97115, 2.04419, 2.06227, 2.04241, 2.06784, 2.05373, 2.0464, 2.04839, 2.05837, 2.05002, 2.05512, 2.05854, 2.05231, 2.04464, 2.0455, 2.05963, 2.06195, 2.04619, 2.04819, 2.04785, 2.04828, 1.97191, 2.04997, 2.04964, 1.97333, 1.97259, 1.97173, 2.04893, 2.06337, 2.05229, 2.05353, 2.07212, 1.91415, 2.0875, 2.10104, 1.91103, 1.91074, 1.99662, 2.08608, 2.01099, 1.91318, 2.01375, 1.91308, 1.9772, 1.96281, 1.91326, 1.96503, 1.9807, 2.0111, 1.91374, 2.11784, 1.91809, 2.00322, 1.96621, 1.91935, 1.91745, 1.91674, 1.91627, 1.97715, 1.99302, 2.0074, 1.91937, 1.91639, 1.91821, 1.9172, 1.91537, 1.91888, 1.91722, 1.91725, 1.91647, 1.92026, 1.91501, 1.91396, 1.98906, 1.91459, 1.91459, 1.91508, 1.91472, 1.91731, 1.84491, 1.84423, 1.83817, 1.83787, 1.94398, 1.83754, 1.88466, 1.93067, 1.83039, 1.82896, 1.95112, 1.94841, 1.87472, 1.82103, 1.82166, 1.81944, 1.81965, 1.87173, 1.86914, 1.81788, 1.86635, 1.81515, 1.81465, 1.81529, 1.81467, 1.9475, 1.9494, 1.94647, 1.81076, 1.81272, 1.94829, 1.80905, 1.80828, 1.80776, 1.92826, 1.8588, 1.94392, 1.80966, 1.93895, 1.93904, 1.90983, 1.80907, 1.80668, 1.93378, 1.80447, 1.80652, 1.80419, 1.80991, 1.93185, 1.80392, 1.80171
1.81626, 1.81187, 1.81436, 1.81047, 1.81381, 1.81254, 1.8127, 2.08568, 1.81055, 1.81074, 1.85882, 1.80938, 1.89548, 1.85817, 1.8073, 1.80752, 1.80609, 1.80469, 1.80424, 1.80665, 1.80632, 1.80382, 1.80458, 1.80401, 1.90058, 1.80399, 2.08322, 1.80493, 1.80434, 1.80297, 1.80431, 1.80365, 1.85381, 1.80404, 1.90027, 1.92015, 1.9046, 1.80353, 1.80305, 1.90746, 1.8512, 1.80238, 1.80054, 1.90509, 1.80012, 1.8018, 1.80186, 1.91337, 1.80275, 1.80365, 1.80495, 1.80465, 1.87405, 1.95082, 1.94951, 1.94737, 1.87558, 1.87511, 2.03221, 1.95141, 1.95583, 2.03438, 1.95236, 1.95156, 1.94781, 1.94678, 1.94857, 1.94828, 1.94937, 1.94579, 1.94557, 1.96015, 1.95934, 1.94409, 1.96128, 1.94316, 1.94366, 2.04115, 1.94024, 1.86509, 1.94272, 2.0472, 1.9399, 1.93984, 1.94227, 1.94285, 1.94367, 1.94555, 1.94558, 1.96946, 1.8707, 1.97235, 1.87532, 1.95285, 1.95781, 1.9596, 1.97265, 2.0487, 2.05631, 2.04511, 1.94793, 1.94791, 1.95029, 1.94903, 2.04779, 2.02442, 1.94821, 1.94792, 1.94916, 1.95106, 2.02748, 2.02719, 2.02678, 2.03407, 2.04838, 2.04684, 2.03417, 2.02969, 2.03046, 2.03192, 2.03554, 2.03168, 2.03141, 2.03554, 2.04564, 2.03841, 2.04173, 2.05165, 2.05137, 2.04724, 2.05265, 2.05568, 2.06916, 2.05526, 2.05464, 2.05669, 2.05187, 2.0475, 1.96883, 2.04456, 2.04505, 2.05942, 2.05878, 2.05177, 2.05228, 2.07122, 2.0563, 1.96985, 2.04716, 2.04849, 2.04878, 1.97255, 2.05949, 2.06269, 2.04903, 2.05207, 1.97214, 1.97138, 2.04824, 2.06962, 1.97175, 1.97263, 1.97283, 1.97392, 1.9731, 1.97357, 2.05298, 1.97317, 2.05267, 2.05343, 2.05252, 2.0524, 1.97563, 1.91332, 1.9623, 1.96252, 1.91203, 1.91146, 2.00501, 2.01103, 1.91211, 2.10402, 2.09148, 1.96305, 1.96295, 1.96322, 1.91322, 1.96417, 1.96906, 1.91685, 1.91631, 1.91913, 1.96803, 1.91882, 1.96906, 1.92093, 1.91983, 1.91704, 2.10379, 1.92033, 1.915, 1.91869, 1.91668, 1.91784, 1.9697, 1.91786, 1.91607, 2.11292, 2.10433, 2.08702, 2.11412, 1.9188, 1.91692, 1.91484, 1.96491, 1.91506, 1.91163, 1.91987, 1.9122, 1.99542, 1.84164, 1.84063, 1.83863, 1.83666, 1.83256, 1.83124, 1.83555, 1.82883, 1.82879, 1.82726, 1.82671, 1.92428, 1.94895, 1.82282, 1.92392, 1.94593, 1.8179, 1.94795, 1.81814, 1.86662, 1.81457, 1.81252, 1.81667, 1.81371, 1.81576, 1.81389, 1.81008, 1.81381, 1.80989, 1.95046, 1.80675, 1.86233, 1.8107, 1.86088, 1.80921, 1.80922, 1.85788, 1.81041, 1.81006, 1.80895, 1.80784, 1.85754, 1.8605, 1.85889, 1.80657, 1.92391, 1.93146, 1.85532, 1.92479, 1.80353
1.81632, 1.81725, 1.81162, 1.81338, 1.81538, 1.81434, 1.81372, 1.81, 1.81318, 1.81327, 1.81054, 1.8123, 1.86049, 1.85911, 1.80916, 1.80959, 2.06674, 1.80652, 1.98958, 2.07369, 1.80942, 1.80633, 1.91461, 1.91512, 1.9094, 1.80611, 1.80717, 1.85791, 1.85586, 1.90041, 1.80377, 1.80502, 1.80673, 1.8071, 1.80604, 1.80397, 2.06269, 1.80313, 1.91301, 1.80308, 1.80364, 1.8038, 1.8002, 1.80064, 1.7994, 1.80284, 1.80611, 1.85424, 1.80576, 1.80479, 1.80438, 1.80648, 1.87664, 1.95596, 1.87857, 1.956, 1.87928, 1.9551, 1.94812, 1.94885, 2.03458, 1.95021, 1.95693, 1.94892, 1.94856, 1.95652, 1.96215, 1.94716, 1.95891, 1.95898, 1.94753, 1.94812, 1.96562, 1.96488, 1.86784, 1.8667, 1.86568, 1.94608, 1.96338, 2.04339, 1.96589, 1.96536, 2.05543, 1.86591, 1.86833, 2.04554, 1.94454, 1.94478, 1.86946, 1.87128, 2.0464, 1.87352, 1.97129, 1.95484, 1.88241, 2.05161, 1.96185, 2.0556, 2.05917, 2.02529, 2.02605, 2.04636, 2.02736, 2.02725, 1.9474, 2.02821, 2.02568, 2.02625, 1.94985, 1.9517, 2.02899, 1.95096, 1.95487, 2.0297, 2.02898, 2.04146, 2.02997, 2.02962, 1.95446, 2.04802, 2.04584, 1.95548, 2.05901, 1.95829, 2.03492, 2.05656, 2.05673, 2.05632, 2.05099, 2.05583, 2.05272, 2.05708, 1.96539, 2.05455, 2.04128, 2.04466, 1.96653, 2.04431, 1.96862, 2.0648, 2.06175, 1.96918, 2.06624, 1.96956, 1.97235, 1.96943, 2.05136, 1.97204, 2.05715, 2.048, 2.05215, 2.06113, 2.05752, 1.97178, 2.05502, 1.97227, 1.97141, 2.04824, 2.07138, 2.07286, 2.04805, 1.96883, 1.97505, 1.97241, 1.97317, 1.97527, 1.9741, 2.05557, 1.97314, 2.05791, 2.05454, 2.05181, 1.90977, 1.9122, 1.9136, 1.91445, 2.00529, 1.91344, 2.09776, 2.00559, 2.01813, 1.90804, 1.91288, 1.96343, 1.96526, 1.97873, 1.91422, 1.96832, 1.91362, 1.91659, 1.91655, 2.11067, 1.91797, 1.91994, 1.91839, 1.91566, 1.92002, 1.91805, 1.9199, 1.91695, 1.91995, 1.96695, 1.91854, 1.96748, 1.91893, 1.91618, 1.9148, 1.91651, 1.91714, 1.96515, 1.91717, 1.91656, 1.91661, 1.91689, 1.91711, 2.08598, 1.91439, 1.91612, 1.91497, 1.84668, 1.84127, 1.8414, 1.8381, 1.83689, 1.83199, 1.83336, 1.83322, 1.83046, 1.82971, 1.99458, 1.82627, 1.82544, 1.94715, 1.94481, 1.94534, 1.81663, 1.94749, 1.94762, 1.81811, 1.81612, 1.81447, 1.81669, 1.86468, 1.86368, 1.81123, 1.94815, 1.93421, 1.93836, 1.81372, 1.81175, 1.94364, 1.90408, 1.81052, 1.80812, 1.81287, 1.81015, 1.93775, 1.94173, 1.93893, 1.93971, 1.93586, 1.93074, 1.9194, 1.80766, 1.80668, 1.80635, 1.80441, 1.80634, 1.85408, 1.80629
1.8198, 1.81494, 1.81464, 1.8172, 1.8152, 1.81513, 1.81349, 2.06879, 2.07011, 1.8124, 1.81386, 1.81183, 1.98732, 1.98781, 1.81239, 1.81042, 1.89506, 1.80954, 1.80995, 1.80994, 1.80925, 1.81115, 1.80827, 1.80897, 1.91159, 1.80654, 1.91289, 1.80613, 1.80911, 1.80681, 1.80468, 1.80588, 1.80704, 1.80337, 1.98799, 1.9102, 1.80576, 1.90456, 1.80516, 1.90275, 1.80369, 1.90897, 1.80479, 1.80397, 1.80457, 1.80339, 1.80689, 1.80799, 1.8054, 1.80778, 1.80906, 1.8119, 1.87637, 1.95153, 1.87995, 1.95366, 1.87693, 1.87681, 2.03454, 1.94901, 1.95516, 1.95194, 1.94841, 2.03535, 1.95124, 1.95916, 1.94634, 1.94609, 1.94777, 1.94637, 1.96341, 1.96383, 1.94444, 1.94616, 1.96534, 1.94562, 1.94421, 1.94258, 1.94343, 1.94212, 1.9448, 1.96883, 1.8653, 2.04642, 1.94495, 1.94513, 1.94427, 1.94519, 1.87154, 1.8717, 1.8726, 1.95111, 1.95226, 1.95509, 1.97228, 1.96152, 1.96288, 2.06911, 2.05126, 2.03193, 1.95049, 2.04113, 2.03219, 2.03098, 2.02583, 2.02519, 2.02639, 1.95247, 1.94909, 2.0277, 2.02777, 2.03116, 2.03041, 2.02863, 2.03087, 2.03849, 2.03284, 2.03239, 2.03282, 2.04919, 2.04162, 2.05531, 2.05218, 2.05119, 2.03795, 2.05243, 2.03624, 2.05566, 2.05938, 2.05619, 2.04099, 2.04108, 2.04148, 2.05557, 2.04273, 2.04505, 2.04469, 2.04405, 2.05655, 1.96967, 1.9694, 2.06326, 1.97107, 2.04482, 2.04514, 1.96997, 2.06618, 2.05983, 1.96998, 1.97269, 2.0709, 2.0761, 2.07989, 1.97392, 2.05528, 2.05557, 2.05006, 1.97297, 2.05434, 2.062, 2.05855, 1.97244, 1.9715, 1.97069, 1.9744, 1.97359, 1.97204, 1.97542, 2.05318, 2.05898, 2.05176, 2.05012, 1.91344, 2.10137, 1.91515, 1.91234, 2.12717, 1.96233, 1.9132, 1.91321, 1.91175, 2.01531, 2.01412, 2.09557, 1.91326, 2.0903, 2.08909, 1.91694, 1.91665, 1.91716, 2.09045, 1.91932, 1.91717, 1.91802, 2.09376, 1.91762, 1.91985, 1.91917, 1.91865, 2.09981, 2.10436, 1.91464, 1.91765, 2.08288, 2.10078, 1.91692, 1.91374, 1.91711, 2.09277, 1.92064, 2.08823, 1.99365, 1.91331, 2.0869, 2.08438, 2.09258, 2.08967, 1.91427, 2.08961, 1.84323, 1.83901, 1.83785, 1.94584, 1.99378, 1.94352, 1.83396, 1.83257, 1.82836, 1.99984, 1.82773, 1.82088, 1.82486, 1.94884, 1.94589, 1.81976, 1.95464, 1.91289, 1.81824, 1.81662, 1.91372, 1.94914, 1.95147, 1.81115, 1.81353, 1.81094, 1.80978, 1.94175, 1.81232, 1.81039, 1.81103, 1.8099, 1.80997, 1.80966, 1.80643, 1.80917, 1.80852, 1.93976, 1.8097, 1.85842, 1.90143, 1.89946, 1.8042, 1.80679, 1.80788, 1.80619, 1.85603, 1.91384, 1.93011, 1.92724, 1.85538
1.82217, 1.81797, 1.81677, 1.8184, 1.81863, 1.81843, 1.81868, 1.81713, 1.81525, 2.08711, 2.08409, 1.81387, 1.81083, 1.81454, 1.81272, 1.81331, 1.91122, 1.81441, 1.81136, 1.81077, 1.81084, 1.81013, 1.80984, 2.06882, 2.06919, 1.81047, 1.91008, 1.91403, 1.80881, 1.80792, 1.9136, 1.80853, 1.80998, 1.80994, 1.80687, 1.80701, 1.8578, 1.80718, 1.85944, 1.85775, 1.85762, 1.80574, 2.07662, 1.80579, 1.80645, 1.80805, 1.8086, 1.80784, 1.80865, 1.81031, 1.8109, 1.8134, 2.03206, 1.87993, 1.95749, 1.95912, 1.9583, 1.95208, 1.95118, 1.95487, 1.9583, 1.95866, 1.95155, 2.04887, 1.87247, 1.87267, 1.9614, 1.94859, 1.94694, 1.94558, 1.9654, 1.94831, 1.96464, 1.96227, 1.94474, 1.96542, 1.9433, 1.96646, 1.86496, 1.94203, 1.94208, 1.94223, 1.97031, 1.96944, 1.94499, 1.94367, 1.86855, 1.94697, 1.94626, 1.97372, 1.94917, 1.87544, 1.87766, 1.95328, 1.97487, 1.96083, 2.07001, 2.04913, 2.06616, 2.04983, 1.9496, 1.95133, 1.95125, 2.03752, 1.94988, 2.02684, 2.03382, 1.95175, 2.03098, 2.03024, 2.03157, 2.02972, 2.03137, 2.02794, 2.03206, 2.02936, 2.04816, 2.03896, 1.95594, 2.05447, 1.95802, 2.04305, 2.06079, 1.95881, 1.95867, 2.05514, 2.04975, 2.0562, 2.05317, 1.9632, 1.96422, 1.9655, 1.96541, 1.96508, 2.04359, 2.04445, 2.04338, 2.05157, 2.04406, 2.04598, 2.04771, 2.0483, 2.04896, 2.05361, 2.04528, 1.97182, 1.97257, 1.97188, 2.04376, 2.044, 2.05816, 2.05665, 2.04771, 2.04639, 2.06963, 2.05704, 1.97338, 2.06109, 2.04816, 2.04818, 1.97199, 2.04657, 1.97339, 1.97277, 1.97278, 1.9734, 1.97433, 1.97396, 2.0501, 2.08432, 2.05144, 2.06887, 1.91665, 1.91632, 1.91563, 1.91361, 1.91399, 1.9133, 2.01785, 1.91046, 1.91464, 1.91463, 1.91535, 1.91223, 1.91351, 1.91581, 1.91747, 1.91802, 1.91668, 1.91791, 1.91719, 1.91651, 1.91963, 1.9182, 1.91952, 1.91854, 1.91737, 1.91938, 2.08939, 1.91763, 1.91707, 1.91717, 1.91718, 2.08996, 2.08927, 2.08942, 1.91452, 2.10376, 1.91147, 1.91508, 1.91633, 2.10082, 1.91138, 1.91171, 1.91314, 1.91187, 2.09352, 2.09108, 1.91177, 1.84123, 1.8421, 1.83883, 1.83905, 1.94413, 1.94757, 1.83132, 1.94798, 1.82927, 1.82793, 1.82635, 1.87543, 1.87558, 1.82157, 1.82083, 1.81969, 1.81839, 1.81748, 1.86734, 1.94519, 1.93834, 1.81428, 1.94852, 1.81388, 1.81402, 2.02698, 1.80799, 1.94504, 1.8104, 1.94819, 1.81023, 1.94908, 1.80998, 1.80772, 1.80803, 1.80746, 1.94703, 1.93983, 1.80487, 1.81014, 1.85857, 1.80839, 1.80947, 1.93453, 1.93552, 1.93296, 1.80729, 1.8078, 1.93609, 1.80629, 1.85583
1.92535, 1.82053, 1.87139, 1.91133, 1.82149, 1.87062, 1.81916, 1.81724, 1.81698, 1.82035, 1.81736, 1.81795, 1.91297, 1.81785, 2.07108, 1.81599, 1.8131, 1.81513, 1.81528, 1.81495, 1.81641, 1.81401, 1.81345, 1.81266, 1.86143, 1.81268, 1.81295, 1.91583, 1.81088, 1.81099, 1.8098, 1.80716, 1.91554, 1.81012, 1.81003, 1.85981, 1.85954, 1.80923, 1.81022, 1.80938, 1.80813, 1.85874, 1.80924, 1.99211, 1.99068, 1.80691, 1.80991, 1.86094, 1.9224, 1.81113, 1.81286, 1.81541, 2.03667, 2.03893, 1.87999, 1.95458, 1.95605, 1.95545, 1.95516, 1.95835, 1.95329, 1.95254, 1.95088, 2.03744, 1.95104, 1.95132, 1.95156, 1.94921, 1.86928, 1.94791, 1.96582, 1.94781, 1.94436, 1.96629, 2.06566, 1.94469, 1.94377, 2.05578, 1.96988, 1.86886, 2.04679, 1.94386, 1.9445, 1.9723, 1.94431, 1.86929, 1.94745, 1.9467, 1.94481, 1.87408, 1.95036, 1.97443, 1.95426, 2.05222, 1.8837, 1.96285, 2.05144, 2.05538, 2.05363, 2.06609, 2.03052, 2.03205, 2.02762, 2.02871, 1.95251, 2.02999, 2.02815, 1.95189, 1.9531, 1.95178, 1.95325, 1.9528, 1.9551, 2.0381, 2.03092, 2.0323, 2.04528, 2.04228, 1.95567, 2.05754, 2.05476, 2.04186, 1.95868, 2.05233, 2.04832, 2.04157, 2.03946, 2.0415, 2.03892, 2.0699, 2.0627, 2.04938, 2.04188, 2.04473, 2.04436, 1.96953, 2.064, 2.05988, 2.05558, 2.04701, 2.04561, 2.0478, 2.04767, 2.04779, 2.05323, 1.97166, 1.97154, 2.06175, 2.0658, 1.97286, 2.04907, 2.05606, 2.04922, 2.05018, 2.04984, 2.04817, 1.97165, 2.06273, 1.97232, 2.05504, 2.04943, 2.04799, 1.97583, 1.97342, 1.97713, 1.97394, 1.97308, 2.05179, 2.0752, 2.07947, 2.05195, 1.91812, 1.91656, 2.1042, 2.0738, 1.9134, 2.01567, 1.96509, 2.01465, 1.91293, 2.09791, 1.9135, 1.91392, 1.91577, 1.91422, 1.91364, 1.91676, 2.10009, 1.91641, 1.91602, 1.91703, 1.91558, 1.92013, 2.01325, 1.92061, 1.9186, 1.91843, 2.10707, 1.91491, 1.96903, 1.96697, 1.99274, 1.99145, 1.91448, 2.01336, 2.11017, 1.91303, 2.09348, 2.09739, 1.91422, 1.91282, 1.91464, 2.08495, 1.91369, 1.96163, 1.96205, 1.96293, 1.95998, 1.9598, 1.8925, 1.84031, 1.83472, 1.83651, 2.14092, 1.83357, 1.9512, 1.87923, 1.82735, 1.94436, 1.82701, 1.82463, 1.82375, 2.03894, 1.82069, 1.81849, 1.81695, 1.86698, 1.81776, 1.86834, 1.9324, 1.92172, 1.91988, 1.94458, 1.9479, 1.8149, 1.81224, 1.92639, 1.81328, 1.81123, 1.80889, 1.81137, 1.85801, 1.80988, 1.931, 1.8097, 1.8569, 1.8102, 1.94462, 1.94061, 1.80654, 1.8065, 1.86532, 1.86387, 1.8632, 1.92784, 1.80686, 1.80742, 1.96669, 1.8072, 1.80656
1.82507, 1.82149, 1.82204, 1.82089, 1.82358, 1.82043, 2.08237, 1.82036, 1.82055, 1.82019, 1.82033, 1.81907, 1.92246, 1.82036, 1.81857, 1.81746, 2.07368, 2.07705, 1.91316, 1.81716, 1.81611, 1.81413, 1.81369, 1.81471, 1.8172, 1.81405, 1.81407, 1.81386, 1.8143, 1.81393, 1.90918, 1.98994, 1.80865, 1.81008, 1.81201, 1.86129, 1.81112, 1.86066, 1.86097, 1.81007, 1.81248, 1.86149, 1.81089, 1.81001, 1.81282, 1.81114, 1.9142, 2.06892, 1.90656, 1.81577, 1.98677, 1.88056, 2.0348, 1.88173, 1.95598, 1.95589, 1.95557, 1.87881, 1.87903, 1.87852, 1.95554, 2.03804, 1.9532, 1.87522, 2.03864, 1.95371, 1.94762, 1.94797, 1.94782, 1.94776, 1.95027, 1.94881, 1.95123, 2.04217, 1.97297, 1.94575, 1.94493, 1.96893, 1.96999, 1.94143, 2.05166, 1.86756, 1.97519, 1.94768, 1.94688, 1.94592, 1.86956, 1.94812, 1.94791, 1.8727, 1.95093, 1.87869, 1.95514, 1.9554, 1.95865, 1.9629, 1.96567, 1.9769, 2.06836, 2.03148, 2.06206, 1.95296, 2.03297, 2.03494, 2.02999, 2.03086, 2.02817, 1.95233, 1.95212, 1.95523, 1.95457, 2.03169, 2.03468, 2.03359, 2.03248, 2.04927, 1.95599, 2.04108, 2.05698, 2.03101, 2.0382, 2.0365, 2.03591, 2.03431, 2.05877, 2.05528, 2.06229, 2.04349, 1.96487, 1.96501, 2.05882, 1.96568, 1.96619, 2.0593, 2.04321, 2.06589, 1.96941, 1.96968, 2.05302, 2.05048, 2.04689, 2.04708, 2.05519, 2.048, 1.97274, 2.05754, 2.06597, 2.06231, 2.05936, 2.05528, 2.052, 2.06239, 2.05087, 2.05046, 2.05555, 2.05487, 2.06396, 2.04895, 2.05152, 2.05883, 2.04825, 2.04868, 2.0508, 2.04969, 1.97444, 1.97505, 1.97469, 2.053, 1.97358, 2.08896, 2.07375, 1.97675, 1.91995, 1.91576, 2.09016, 2.08433, 1.91656, 1.91505, 2.08627, 2.08488, 1.91547, 2.09708, 1.91157, 1.91362, 1.91341, 1.91468, 1.972, 1.91509, 2.11891, 1.9168, 1.91739, 1.91826, 1.91991, 1.9169, 1.91684, 1.91417, 1.92241, 1.9174, 2.09415, 2.09613, 1.91541, 2.08275, 2.09592, 2.09018, 2.10489, 1.96555, 1.96629, 1.91368, 2.0932, 2.08489, 2.0865, 2.09315, 1.914, 1.96383, 1.96257, 1.9608, 1.91014, 1.90789, 1.96153, 1.97843, 1.83865, 1.93031, 1.8947, 1.83097, 1.82873, 1.83101, 1.88146, 1.82995, 1.82721, 1.87556, 1.82428, 1.82123, 1.82269, 1.87478, 1.82092, 1.93858, 1.81704, 1.93044, 1.9319, 1.92776, 1.93019, 1.81593, 1.81322, 1.81316, 1.81157, 1.81158, 1.94871, 1.94304, 1.81028, 1.80786, 1.80773, 1.80659, 1.85882, 1.81, 1.8581, 1.85844, 1.80863, 1.94128, 1.80751, 1.80721, 1.80859, 1.86812, 1.86513, 1.93829, 1.93724, 1.93495, 1.93266, 1.80368, 1.855, 1.80366
1.87571, 1.87614, 1.82679, 1.82513, 2.09788, 1.82238, 1.82105, 1.82107, 1.82034, 1.82192, 1.82226, 1.8212, 1.81947, 1.82173, 1.81956, 1.81937, 1.81965, 1.86837, 1.86998, 1.81662, 1.81794, 1.81784, 1.91712, 1.81656, 1.86603, 1.81828, 1.81692, 1.86491, 1.918, 1.91999, 2.07173, 1.90403, 1.81478, 1.8137, 1.81324, 2.07571, 1.92149, 1.91812, 1.91881, 1.81209, 1.81438, 1.91659, 1.81308, 1.81309, 1.81432, 1.81466, 1.81443, 1.89829, 1.81573, 1.81429, 1.81677, 1.81865, 1.96027, 2.03819, 2.03998, 1.95575, 1.95476, 1.95536, 1.95686, 1.95666, 1.87829, 1.95447, 1.87655, 2.0514, 1.95213, 2.04182, 2.05178, 2.05685, 1.96715, 1.95183, 1.87194, 1.96881, 1.94852, 1.94949, 1.94902, 1.94619, 1.97241, 1.94518, 1.86925, 1.9443, 1.94671, 1.94435, 1.94582, 2.05793, 1.94329, 1.94803, 1.97572, 1.87006, 1.87267, 1.87494, 1.95085, 1.87839, 1.9568, 1.97751, 1.96174, 1.97581, 1.9687, 2.06351, 2.05469, 2.05433, 1.95404, 2.03486, 2.06223, 2.04514, 2.03929, 2.04308, 2.03088, 1.95502, 1.9548, 1.9561, 1.95437, 2.03786, 2.03688, 2.03132, 2.03194, 2.03128, 1.95737, 2.03422, 2.03253, 2.03728, 2.03797, 2.03551, 2.04265, 2.03663, 2.03868, 2.03868, 2.03768, 2.05442, 2.05202, 2.06242, 2.05434, 2.05251, 2.05385, 2.05379, 2.05245, 2.06819, 2.04883, 2.05435, 2.06018, 1.96842, 2.04561, 2.05569, 2.05913, 2.06204, 2.06214, 2.04837, 2.04971, 2.04791, 2.04937, 1.97418, 2.05928, 2.05914, 2.05846, 1.97288, 2.05914, 2.05114, 2.04914, 2.06435, 2.05361, 2.05144, 2.0516, 2.0521, 1.97532, 2.05133, 1.974, 2.05492, 2.05886, 2.05805, 2.05906, 2.05862, 2.07567, 1.91855, 1.91733, 1.91721, 1.91671, 2.0882, 1.91422, 1.91314, 1.9659, 1.91469, 1.9138, 1.9131, 1.9159, 1.91694, 2.01162, 1.91402, 1.97341, 1.97229, 1.96527, 1.91754, 1.99968, 1.96918, 1.99953, 1.99753, 2.09588, 1.91464, 1.91621, 2.10375, 1.91968, 1.91564, 1.91219, 2.10578, 2.10721, 2.10487, 1.91324, 1.96486, 1.96516, 1.96493, 1.91264, 1.91301, 1.91161, 1.91121, 1.90845, 1.91314, 1.91308, 1.96165, 1.96044, 1.97004, 1.96031, 1.83837, 1.92851, 1.8863, 1.83382, 1.83224, 1.94126, 1.93633, 1.82796, 1.82738, 1.82524, 1.87549, 1.8724, 1.82356, 1.87033, 1.82082, 1.82026, 1.94394, 1.81729, 1.81623, 1.86771, 1.86663, 1.81349, 1.94656, 1.8142, 1.81275, 1.81227, 1.81139, 1.80778, 1.8101, 1.80902, 1.95523, 1.81036, 1.80954, 1.94157, 1.80763, 1.8077, 1.80889, 1.94738, 1.81293, 1.80953, 1.80603, 1.80665, 1.80922, 1.9245, 1.92785, 1.80703, 1.80906, 1.80668, 1.80775, 1.92801, 1.80674
1.82577, 1.82765, 1.82704, 1.82789, 2.10099, 1.87621, 1.87539, 1.87559, 1.82431, 1.82116, 1.921, 1.92284, 1.82037, 1.87325, 1.82153, 2.09782, 1.91731, 1.91289, 1.81875, 1.91718, 1.81988, 1.82059, 1.82168, 1.82211, 1.81989, 1.81853, 1.81783, 1.81864, 1.81766, 1.81667, 1.81679, 1.81729, 1.81679, 1.91819, 1.9179, 1.81425, 1.81625, 1.81581, 1.81506, 1.8163, 1.81705, 1.91709, 1.81397, 1.91751, 1.81314, 1.81384, 1.81744, 1.8163, 1.81739, 1.81858, 1.82016, 2.03718, 1.88351, 2.04304, 1.96178, 1.96132, 1.95586, 2.04381, 1.96353, 2.04522, 1.95495, 1.87922, 1.95435, 1.9542, 1.95176, 1.96532, 1.94973, 1.96819, 1.95101, 1.94868, 1.87216, 2.05571, 1.95222, 1.94728, 1.86963, 1.86895, 1.97214, 1.9448, 1.9452, 2.06633, 2.06675, 1.94492, 1.97592, 1.94511, 1.94523, 1.9451, 1.94778, 1.94951, 1.97634, 1.95147, 1.95211, 1.95441, 1.97986, 1.97857, 1.98028, 1.96546, 1.97901, 1.98201, 2.07927, 1.91382, 2.03021, 2.03057, 2.03103, 2.03101, 1.95491, 1.95412, 2.04394, 1.95493, 1.95357, 1.95431, 2.03461, 2.03461, 2.03386, 2.03164, 2.04742, 2.0496, 2.03362, 2.03332, 2.04209, 2.03686, 2.04542, 2.04281, 1.96003, 1.96114, 2.03856, 2.04091, 2.04959, 1.96417, 1.96403, 1.96507, 2.04459, 2.04249, 2.0426, 2.05143, 1.96947, 2.04962, 2.05213, 2.06739, 2.05216, 2.07633, 2.0483, 2.04918, 2.04857, 2.06672, 2.0767, 1.97298, 1.9723, 2.05393, 2.05436, 2.05217, 2.063, 1.97544, 2.05881, 2.05178, 2.06564, 2.06155, 2.06477, 1.97497, 1.97523, 2.05455, 2.0527, 2.05184, 2.05123, 2.05394, 1.97703, 2.05575, 2.05465, 1.97606, 2.07661, 2.07335, 2.05697, 2.05496, 2.09316, 1.91586, 1.91556, 1.91428, 1.91159, 1.91231, 1.96664, 1.96893, 1.91397, 1.91617, 1.9143, 2.09074, 1.9144, 2.0946, 2.0973, 1.91694, 1.91666, 1.91429, 1.96818, 1.96821, 1.96852, 1.96821, 1.91345, 1.91702, 2.09753, 1.91629, 1.91513, 1.92003, 2.1008, 1.91628, 1.91597, 1.91696, 1.9143, 1.91412, 1.91332, 2.10722, 2.09806, 1.91312, 2.00546, 1.91028, 1.90779, 1.90925, 1.91061, 2.08373, 1.9062, 1.9098, 1.90652, 1.83824, 1.83678, 1.83429, 1.8325, 1.83102, 1.83105, 1.93936, 1.828, 1.82702, 1.93699, 1.82248, 1.9349, 1.82103, 1.82054, 1.94067, 1.81967, 1.81965, 1.8168, 1.93882, 1.81505, 1.89153, 1.8165, 1.81419, 1.91193, 1.86503, 1.80991, 1.94495, 1.80998, 1.80855, 1.94457, 1.81127, 1.94228, 1.93958, 1.8067, 1.81026, 1.80971, 1.80797, 1.80745, 1.80913, 1.81044, 1.81027, 1.81021, 1.8588, 1.85764, 1.80677, 1.80897, 1.92939, 1.9032, 1.90027, 1.93379, 1.80393
1.83089, 1.83166, 1.82861, 1.82972, 1.82982, 1.8787, 1.90988, 1.82677, 1.82772, 1.82651, 1.82338, 1.8263, 1.8238, 2.10464, 1.82236, 1.82037, 2.0808, 1.87102, 1.82267, 1.82385, 1.82016, 1.82235, 1.82264, 1.82127, 1.82079, 1.82143, 1.9307, 1.81644, 1.81698, 1.81689, 1.91797, 1.81707, 1.908, 1.92191, 1.81366, 1.91663, 1.81812, 1.81719, 1.91715, 1.92007, 1.81624, 1.81714, 1.81613, 1.81768, 1.81779, 1.81649, 1.81781, 1.81911, 2.07662, 1.81994, 1.82013, 2.04002, 1.96548, 2.04451, 2.04404, 2.04383, 1.96644, 1.95726, 1.95889, 1.96263, 2.06145, 2.05865, 1.96757, 1.9581, 1.96998, 1.95104, 1.9691, 1.95251, 1.94971, 1.94933, 1.8752, 1.94964, 1.95077, 1.94806, 1.94765, 1.8725, 1.94634, 1.9743, 1.94428, 1.94511, 1.94647, 1.948, 1.94758, 2.07305, 1.94726, 1.97661, 1.87229, 2.06975, 1.95022, 2.07332, 1.98028, 1.97978, 2.05715, 1.98206, 1.96306, 1.96614, 1.97882, 1.97978, 2.08685, 2.03572, 1.95517, 2.03101, 2.03803, 2.03044, 2.05252, 2.03479, 2.03431, 2.04244, 1.95386, 2.03167, 1.95565, 1.95552, 1.95434, 1.95662, 2.03791, 2.03108, 2.03246, 2.04139, 2.03738, 2.04556, 2.0384, 2.03889, 2.04042, 2.03923, 2.05525, 2.0518, 2.05257, 2.06204, 2.06182, 2.05481, 2.05477, 2.05547, 2.04423, 1.96945, 2.04931, 1.96924, 2.06287, 2.05245, 2.04644, 1.97164, 1.97227, 2.05974, 1.97605, 1.97397, 2.09068, 2.04929, 1.97473, 2.0513, 2.05788, 2.05833, 2.06238, 2.06678, 2.07047, 1.97613, 2.05736, 2.05425, 2.0645, 2.06937, 1.97548, 1.97547, 2.06767, 1.97657, 1.97631, 1.97723, 2.05163, 1.97716, 2.05874, 1.97868, 1.97922, 2.05579, 2.06986, 1.92026, 2.0063, 2.08316, 2.08109, 1.91715, 1.9143, 1.91567, 1.97193, 1.9726, 1.91489, 1.91232, 1.91193, 1.91357, 1.91038, 2.00627, 2.00387, 1.91769, 1.97243, 1.97292, 1.91749, 1.91698, 1.91536, 1.91901, 2.09755, 2.09439, 1.91727, 1.91574, 1.91624, 1.91802, 2.10738, 1.91659, 1.91393, 2.08461, 2.0958, 1.91343, 1.91345, 1.91162, 2.10368, 1.99699, 1.91293, 1.91057, 1.90879, 1.90896, 2.09414, 1.90872, 1.90785, 1.9069, 1.83734, 1.83759, 1.93438, 1.9481, 1.8314, 1.93917, 1.8291, 1.87686, 1.82857, 1.82492, 1.82599, 1.82438, 1.93698, 1.93616, 1.82247, 1.81929, 1.8185, 1.81744, 1.93914, 1.81473, 1.81326, 1.81636, 1.81483, 1.86214, 1.81297, 1.81329, 1.94286, 1.81095, 1.81026, 1.8097, 1.93021, 1.95158, 1.94135, 1.80818, 1.80754, 1.80809, 1.8075, 1.80575, 2.13172, 1.80885, 1.94034, 1.80988, 1.80668, 1.8083, 1.86121, 1.85797, 1.93574, 1.9328, 1.90313, 1.93089, 1.93092, 1.80173
1.89824, 1.83255, 1.83064, 1.8313, 1.90007, 1.87927, 1.88906, 1.82746, 1.82759, 1.8244, 1.82671, 1.82751, 1.82452, 1.82535, 1.82443, 1.82443, 1.82448, 1.82245, 1.82088, 1.91009, 1.91852, 1.82314, 1.82166, 1.87191, 1.87238, 1.88907, 1.82091, 1.82053, 2.07686, 1.91746, 1.91738, 1.86986, 1.81837, 1.81982, 1.87073, 1.81608, 1.94906, 1.81831, 1.92164, 1.86936, 1.8186, 1.81976, 1.8203, 1.81981, 1.82013, 1.81967, 1.81941, 1.81947, 2.08048, 1.82051, 1.82105, 1.82174, 1.96583, 2.04363, 1.9649, 1.96916, 1.96251, 1.96076, 2.05183, 1.95909, 2.04714, 1.95551, 1.95581, 1.95726, 1.95606, 1.95564, 2.06805, 2.05611, 1.97184, 1.95205, 1.87199, 1.95103, 2.05129, 1.87199, 1.94827, 1.94834, 1.94789, 1.97298, 2.07605, 1.97792, 1.97799, 1.94558, 1.86944, 1.87159, 1.97896, 2.05506, 1.94786, 1.97968, 1.9518, 1.87679, 2.05941, 2.08664, 1.88326, 1.98202, 1.96548, 1.98292, 1.97104, 1.89676, 2.05951, 2.03446, 2.04781, 1.9566, 1.95733, 2.03452, 2.03419, 2.03236, 2.03166, 2.03478, 2.03786, 2.035, 2.03462, 1.95568, 1.95494, 2.03628, 1.95793, 2.04923, 2.03419, 1.95884, 2.05294, 2.05555, 2.05204, 2.04607, 2.06057, 2.07328, 2.06467, 2.0581, 2.04553, 2.06591, 1.96689, 2.05201, 2.06616, 2.0453, 2.07332, 2.04433, 2.05919, 2.04995, 1.97248, 1.97183, 2.0755, 2.06546, 2.06057, 2.06594, 2.04814, 2.06623, 2.05235, 2.0681, 1.97518, 2.07002, 2.04786, 2.04643, 2.07581, 2.05303, 2.05365, 1.97696, 2.05291, 1.97595, 2.07236, 2.05241, 2.0665, 2.05401, 2.0563, 2.05832, 2.05568, 2.05868, 2.05803, 2.05807, 2.0584, 2.05869, 2.05944, 2.05355, 2.05912, 2.06906, 1.92129, 1.91828, 1.91735, 2.01457, 2.01318, 1.91638, 1.9166, 1.96369, 1.9632, 1.91324, 1.91268, 2.01245, 1.91048, 1.91343, 1.9133, 1.97323, 1.97256, 1.97249, 1.91926, 1.91674, 1.91849, 1.91569, 1.97096, 1.9183, 1.91534, 1.91691, 1.91793, 2.09508, 2.10101, 1.91588, 1.99736, 1.96518, 1.96471, 1.91325, 1.91295, 1.91109, 1.90982, 2.09037, 1.91104, 1.9079, 2.09561, 1.90763, 2.08465, 1.90962, 1.90817, 1.90586, 1.94198, 1.94026, 1.83276, 1.83191, 1.83206, 1.83075, 1.87792, 1.82692, 1.8756, 1.94064, 1.89897, 1.87344, 1.93734, 1.93539, 1.93369, 1.82189, 1.81584, 1.81928, 1.81951, 1.81586, 1.81464, 1.93625, 1.93519, 1.9364, 1.93729, 1.90983, 1.94469, 1.94326, 2.01102, 1.80846, 1.81049, 1.93767, 1.80931, 1.94137, 1.94383, 1.91776, 1.94048, 1.81016, 1.8084, 1.80756, 1.85885, 1.92078, 1.85811, 1.92381, 1.92039, 1.81117, 1.85706, 1.80679, 1.8082, 1.93024, 1.92915, 1.92674
1.83163, 1.83396, 1.83382, 1.83566, 1.83134, 1.83025, 1.83221, 1.83051, 1.83384, 1.8316, 1.83018, 1.82495, 1.82701, 2.09115, 1.9259, 1.82744, 1.8276, 1.82558, 1.82552, 1.82379, 1.824, 1.82577, 1.92335, 1.875, 1.82372, 1.82429, 1.82406, 1.8251, 1.82327, 1.82152, 1.82151, 1.92434, 1.92464, 1.82262, 1.82121, 1.81991, 1.87226, 1.82239, 1.92684, 1.92815, 1.82076, 1.81854, 1.91826, 1.82115, 1.86981, 1.82188, 1.92038, 1.99874, 2.00258, 1.87262, 1.8738, 1.96533, 1.96869, 1.9671, 2.04506, 2.04582, 2.05116, 1.96115, 2.05475, 1.96168, 1.95812, 1.95905, 2.0493, 1.95492, 1.87944, 1.87838, 1.95441, 1.95441, 1.95383, 1.9547, 2.06566, 1.97707, 1.94884, 2.05441, 1.97878, 1.97849, 1.94767, 1.87216, 1.94854, 1.97943, 1.95096, 1.94783, 1.87061, 1.94748, 1.94753, 1.94945, 1.98132, 2.05828, 1.87557, 1.98258, 1.95771, 1.96, 1.96009, 1.98322, 2.07961, 2.06819, 1.97207, 1.89923, 2.05965, 2.04101, 2.03069, 2.0529, 2.05565, 2.03544, 2.03477, 2.03851, 2.03501, 2.03692, 1.95707, 1.95745, 1.9572, 1.95842, 1.95839, 2.03762, 2.04862, 1.95816, 2.05197, 2.04255, 2.04145, 1.9616, 2.03387, 2.06043, 2.05259, 1.96202, 2.05118, 2.06512, 2.04867, 2.0418, 2.05227, 2.04462, 1.96894, 2.05908, 2.05477, 2.04608, 2.05443, 2.04979, 2.06953, 2.04529, 2.06281, 2.05294, 2.07208, 2.05993, 1.97374, 2.05965, 2.05337, 2.0591, 2.07002, 1.97696, 2.06635, 1.97558, 2.07655, 2.06691, 2.06693, 2.0656, 2.06247, 2.05436, 2.05481, 2.06271, 2.05948, 2.05473, 2.05484, 1.97703, 2.05688, 2.05886, 2.05876, 2.0591, 2.05889, 2.05875, 2.0573, 2.07768, 2.05488, 2.07049, 1.91744, 2.08769, 1.91491, 1.91476, 1.91399, 1.91547, 1.91344, 2.08652, 1.91432, 1.91321, 2.10038, 2.11365, 2.01253, 1.91362, 1.91369, 1.91323, 2.09, 2.08919, 1.91357, 2.08832, 1.91401, 1.91847, 2.00822, 2.00653, 1.96813, 1.91865, 2.08795, 2.08716, 2.10816, 1.91703, 1.91779, 1.91587, 1.91684, 1.91426, 2.00228, 1.911, 1.90869, 1.91038, 1.91259, 1.95909, 1.91293, 1.90741, 1.90692, 1.90797, 1.90829, 1.90914, 1.88885, 1.88654, 1.88384, 1.83152, 1.82919, 1.82739, 1.87877, 1.93876, 1.93703, 1.8248, 1.92045, 1.91989, 1.92862, 1.87192, 1.87316, 1.86975, 1.86909, 1.81786, 1.81811, 1.81826, 1.81541, 1.81487, 1.90756, 1.81025, 1.90908, 1.90762, 1.90605, 1.81292, 1.80949, 1.80797, 1.80852, 1.93103, 1.80959, 1.81002, 1.80692, 1.80925, 1.80532, 1.80739, 1.80842, 1.86026, 1.92444, 1.86126, 1.8591, 1.9201, 1.85977, 1.9202, 1.85815, 1.80826, 1.80687, 1.80775, 1.80986, 1.80729
1.83654, 2.08999, 2.10474, 1.83613, 1.83562, 1.8372, 1.83365, 2.10151, 1.8822, 1.83238, 1.83114, 2.11469, 1.83024, 1.82916, 1.83068, 1.82961, 1.82688, 1.82842, 1.82641, 1.93045, 1.82867, 1.83036, 1.82605, 1.82673, 1.82715, 2.11025, 1.8262, 1.91302, 1.82425, 1.82578, 1.82402, 1.82463, 1.82444, 1.82568, 1.82429, 1.87384, 1.87431, 1.87251, 1.824, 1.94307, 1.8726, 1.87426, 1.87384, 1.82094, 1.82102, 1.92627, 1.82428, 1.90869, 1.90913, 1.82298, 1.87611, 1.96581, 1.88873, 1.96456, 1.96471, 1.96297, 1.96143, 1.96172, 2.05348, 1.97361, 1.95819, 2.06594, 1.97533, 1.95596, 1.95671, 1.95511, 1.95439, 1.97746, 1.87566, 2.06279, 1.95364, 2.05796, 1.95201, 1.94927, 1.98214, 2.05632, 1.95074, 1.98283, 2.05926, 1.94937, 1.95148, 2.05848, 1.94983, 1.9821, 1.95139, 1.95197, 1.95233, 1.95409, 1.95278, 1.95555, 1.95568, 1.95588, 1.98688, 1.98669, 1.88949, 1.96637, 1.97275, 2.06364, 2.07277, 1.91884, 2.0501, 2.04237, 2.06978, 2.065, 2.0366, 2.04167, 2.04438, 1.9605, 1.95875, 1.95773, 1.95743, 1.95772, 1.95883, 2.03598, 2.03673, 2.03689, 2.05223, 1.95841, 2.06032, 2.04312, 1.96184, 2.06511, 2.05856, 2.05874, 2.04037, 2.05542, 2.0768, 2.04625, 2.04358, 1.96907, 2.04609, 1.96913, 2.04793, 2.04817, 2.04634, 2.04684, 2.07263, 1.97272, 2.05243, 2.05222, 2.0517, 1.9753, 1.97631, 1.97663, 2.07297, 1.97747, 2.05113, 2.06956, 2.06728, 2.05863, 2.07458, 1.97735, 2.05551, 2.06981, 2.06844, 2.05451, 2.05479, 2.07216, 2.05347, 2.05467, 2.05528, 2.05572, 2.06271, 2.06177, 2.05869, 2.05537, 2.05846, 2.05643, 1.97866, 2.05595, 1.9792, 2.05744, 1.9164, 1.91919, 1.91729, 1.91562, 1.91348, 1.91656, 1.96216, 1.91248, 1.91085, 1.91157, 2.0143, 1.91115, 2.10935, 2.0174, 1.90996, 1.91382, 1.91357, 1.91307, 2.01341, 1.9167, 1.96832, 1.96798, 1.91712, 1.91759, 1.91848, 2.09709, 1.96827, 1.91757, 1.91788, 1.9175, 1.91901, 1.91683, 1.91677, 1.91619, 1.91316, 1.91329, 1.91301, 1.91009, 1.91043, 1.91006, 1.9082, 1.90704, 2.0837, 1.90705, 1.90664, 1.90429, 1.92137, 1.88568, 1.88364, 1.93086, 1.92892, 1.93833, 1.93665, 1.82494, 1.94951, 1.92333, 1.92169, 1.92053, 1.92021, 1.91502, 1.91373, 1.86994, 1.86961, 2.02034, 1.81478, 1.81532, 1.8175, 1.81608, 1.81448, 1.81387, 1.86444, 1.86212, 1.86207, 1.81261, 1.8102, 1.81027, 1.80731, 1.80991, 1.80784, 1.88099, 1.87875, 1.80935, 1.80597, 1.86943, 1.80738, 1.80749, 1.93845, 2.11408, 1.8062, 1.93711, 1.80734, 1.80988, 1.80814, 1.80992, 1.92898, 1.92733, 1.92412, 1.80665
1.89735, 1.83829, 1.84105, 1.83846, 1.83822, 1.83691, 1.83873, 2.10156, 1.83184, 1.83176, 2.08961, 1.83231, 1.83302, 2.08936, 1.83093, 1.83205, 1.83046, 1.82881, 1.83011, 1.82906, 1.83142, 2.08684, 1.83032, 1.82579, 1.8254, 1.82677, 1.82856, 1.82847, 1.82469, 1.82807, 1.82439, 1.98773, 1.87599, 1.87615, 1.91985, 1.91992, 1.82609, 1.82554, 1.87553, 1.92492, 1.82514, 1.82656, 1.82515, 2.0011, 1.92176, 1.82527, 1.82506, 1.87569, 1.82773, 2.0036, 1.82638, 1.96828, 2.04839, 1.97212, 1.97245, 1.96575, 1.96347, 1.96407, 1.96268, 1.88297, 1.96181, 1.97574, 1.95848, 1.88255, 1.95576, 1.96163, 1.95811, 1.95441, 1.95296, 1.95248, 1.95284, 1.95437, 1.95108, 1.95086, 1.87219, 1.95216, 1.95097, 1.94979, 1.94941, 1.95123, 1.94863, 1.94834, 1.94934, 2.06518, 1.98272, 1.95121, 1.87608, 1.98486, 1.95526, 1.9864, 1.9854, 1.9587, 1.88637, 1.88703, 1.96663, 1.98607, 1.98622, 1.9, 2.09755, 2.06273, 2.03847, 2.05502, 2.03293, 2.03533, 2.03725, 2.03817, 2.0358, 2.03811, 1.95884, 1.95886, 1.95856, 1.95957, 2.04117, 2.03743, 2.03804, 2.04282, 2.04056, 2.0467, 2.05559, 1.96234, 1.96353, 2.05906, 2.05543, 2.05694, 2.06208, 1.96897, 1.96605, 2.05969, 2.04681, 2.04564, 2.06645, 2.07451, 2.04881, 2.07963, 2.04942, 2.06925, 2.06516, 2.0514, 2.07996, 2.07223, 2.07914, 2.07551, 1.97582, 2.06953, 2.05183, 2.06249, 2.06937, 2.05235, 2.06734, 2.0598, 1.97937, 1.97887, 1.97912, 2.06593, 2.06313, 2.05502, 2.07939, 2.05549, 2.0557, 2.06691, 2.07229, 2.05474, 2.0622, 2.06286, 2.06114, 2.06273, 2.06351, 2.07956, 2.0581, 2.05984, 2.05733, 1.91907, 1.91799, 1.91705, 1.96556, 1.96532, 1.91356, 1.9142, 1.96473, 2.031, 1.91299, 1.91158, 1.91141, 1.91086, 1.9118, 2.11694, 1.91332, 1.9128, 1.91082, 1.91317, 1.91353, 1.91661, 1.91655, 2.09106, 2.09579, 1.91571, 1.91956, 2.01276, 2.01109, 1.96947, 1.98541, 1.96847, 2.10075, 2.10425, 2.08724, 1.91477, 2.08298, 1.96456, 1.9627, 1.91066, 1.96129, 1.95883, 2.01124, 1.90926, 1.90536, 1.95495, 1.90325, 1.90235, 1.83665, 1.8306, 1.8335, 1.8335, 1.82999, 1.82873, 1.82843, 1.82694, 1.929, 1.82409, 1.82348, 1.92258, 1.92266, 1.92434, 1.82086, 1.81985, 1.92867, 1.91577, 1.81792, 1.81428, 1.81611, 1.81568, 1.81653, 1.81324, 1.81304, 1.81324, 1.92066, 1.92021, 1.85946, 1.80951, 1.94104, 1.80796, 1.9414, 1.80945, 1.80798, 1.90969, 1.90684, 1.85982, 1.80621, 1.80473, 1.9331, 1.93408, 1.80479, 1.93103, 1.8081, 1.93113, 1.93198, 1.80944, 1.80644, 1.90007, 1.80704, 1.80649
1.89141, 1.89091, 1.89264, 1.83713, 1.83709, 1.9321, 1.9312, 1.83587, 1.83834, 1.83563, 1.8348, 1.94449, 1.88561, 1.92078, 1.83371, 1.83421, 1.92864, 1.93133, 1.83296, 2.09082, 2.0931, 1.8331, 1.83389, 1.83084, 1.83101, 1.82981, 1.82592, 1.82698, 1.82793, 1.83112, 1.9275, 1.8269, 1.82696, 1.82732, 1.92581, 1.8277, 1.92864, 1.82423, 1.82537, 1.82753, 1.82437, 1.92933, 1.82676, 1.92783, 1.82891, 1.82772, 2.00084, 1.99788, 1.99805, 2.00356, 1.99958, 1.96875, 1.97261, 1.96645, 1.97616, 1.96654, 1.96547, 1.96234, 1.96265, 1.96201, 1.96138, 1.96177, 2.05485, 1.95902, 1.95918, 1.9792, 1.98084, 1.98039, 1.97962, 1.95714, 1.95665, 1.95388, 1.95123, 1.95211, 1.98415, 1.95327, 1.98582, 1.94894, 2.05982, 1.98571, 1.95121, 1.87369, 1.87384, 1.9856, 1.87509, 1.95317, 1.9558, 2.06727, 2.06492, 1.95808, 1.9602, 1.96438, 1.96453, 1.96556, 2.07889, 1.98803, 2.06576, 2.09035, 2.06983, 2.06275, 2.04197, 2.03884, 2.03851, 2.05967, 2.03861, 2.03802, 1.96114, 2.04177, 1.96108, 1.96027, 1.95943, 1.96015, 1.96154, 2.04405, 2.03812, 2.0399, 2.04921, 2.03894, 2.0538, 2.05929, 2.05499, 2.05957, 2.04753, 1.9656, 2.05531, 2.05527, 2.05979, 1.96873, 2.06959, 1.96967, 2.06972, 1.97155, 2.06937, 2.05185, 2.0654, 2.05141, 2.05065, 2.05171, 2.05267, 1.97619, 2.05216, 2.05317, 2.05448, 2.05342, 2.05279, 2.05232, 2.06196, 2.06237, 2.06163, 2.05552, 2.06116, 2.06489, 2.05204, 2.08331, 2.06309, 2.07682, 2.07026, 1.9794, 2.05617, 2.05535, 2.05615, 2.05461, 2.05618, 2.05888, 2.06319, 2.06138, 2.06218, 2.06251, 1.98141, 2.0565, 1.97929, 2.05761, 1.96832, 1.96672, 1.99487, 1.96496, 1.96481, 2.00451, 2.03566, 2.03416, 1.96174, 2.00489, 1.91218, 1.91017, 1.91314, 1.91322, 2.01725, 1.91278, 1.91062, 1.91361, 1.91479, 1.91355, 1.91674, 2.0902, 1.91727, 1.91695, 1.91679, 2.02205, 1.96935, 1.9201, 1.9198, 2.08328, 1.9172, 1.91997, 1.91638, 1.91442, 1.9143, 1.91182, 1.9135, 2.10061, 1.96179, 1.95931, 1.90795, 1.90709, 2.09103, 1.90522, 1.90285, 1.90025, 1.89279, 1.83466, 1.8353, 1.83398, 1.8335, 1.82859, 1.829, 1.82767, 1.82644, 1.82445, 1.92103, 1.87216, 1.91947, 1.91826, 1.90693, 1.81989, 1.81762, 1.81588, 1.81475, 1.81632, 1.9273, 1.81325, 1.86328, 1.86493, 1.86228, 1.86318, 1.86237, 1.91437, 1.81114, 1.80944, 1.81275, 1.81078, 1.80983, 1.8068, 1.90765, 1.80849, 1.80716, 1.80422, 1.80727, 1.80767, 1.91974, 1.91314, 1.91659, 1.91338, 1.80816, 1.91336, 1.80757, 1.85767, 1.85719, 1.80444, 1.80599, 1.80965
1.89471, 1.89423, 1.84131, 1.84426, 1.84072, 1.83908, 1.84115, 1.88976, 1.88922, 1.88936, 2.11397, 1.83801, 1.93686, 1.8355, 1.83723, 1.83728, 1.83697, 1.83482, 1.95287, 1.83575, 1.92067, 2.07953, 1.83124, 2.11775, 1.83023, 1.82858, 1.83098, 1.93296, 1.83071, 1.93185, 1.83107, 1.83131, 2.09065, 1.93435, 1.92972, 1.91473, 1.82827, 1.8302, 1.82774, 1.82764, 1.8297, 1.8786, 1.91426, 1.8296, 1.87962, 1.88016, 1.83041, 1.92385, 1.82869, 1.88202, 1.88067, 1.97184, 1.96841, 1.96759, 1.97668, 1.97655, 1.9677, 1.96651, 1.88885, 1.9632, 2.06535, 2.05292, 1.97856, 1.95907, 2.0614, 1.96002, 1.95624, 1.98241, 2.06027, 1.95301, 1.95477, 1.95867, 1.95714, 1.95401, 1.95136, 1.95219, 1.98584, 1.95231, 1.98824, 1.9514, 1.95274, 1.95165, 1.95149, 1.95012, 1.87608, 1.95346, 1.87873, 1.95443, 1.98776, 2.06674, 2.06649, 1.96191, 2.06803, 1.99064, 2.07941, 2.08126, 1.89943, 2.08278, 2.06958, 2.06985, 1.96254, 2.0394, 2.05809, 2.04126, 2.04122, 2.05653, 2.04171, 1.96188, 1.96222, 1.96132, 1.96545, 1.96483, 1.96426, 2.04231, 1.96276, 1.96194, 2.05571, 2.04137, 2.04168, 2.04096, 2.06277, 2.05312, 2.05831, 2.05539, 2.05576, 2.05108, 1.96879, 2.06181, 2.05849, 2.05435, 1.97234, 2.06301, 2.06335, 1.97443, 2.05297, 2.05046, 2.06621, 2.06974, 2.05349, 2.06533, 2.05231, 2.05437, 2.06622, 2.05599, 2.06417, 2.0806, 2.05523, 2.0703, 2.0572, 2.05328, 2.0631, 1.97943, 1.97923, 2.05952, 2.05481, 2.05484, 2.05628, 1.97926, 2.05956, 1.97958, 2.05842, 2.06422, 2.0619, 2.06264, 2.06355, 2.06058, 2.06253, 2.0582, 2.0597, 2.05721, 2.05734, 1.91997, 1.91487, 1.91711, 1.91663, 1.96571, 2.01541, 2.01465, 1.91222, 2.00126, 1.91168, 2.10028, 1.9139, 1.9121, 1.91096, 1.91048, 2.00677, 1.9105, 1.99968, 1.96381, 1.96372, 1.96501, 1.96486, 1.91608, 2.09116, 1.91809, 1.91772, 1.91899, 2.09514, 1.92018, 1.91833, 1.97634, 1.91795, 1.91716, 1.91599, 2.09743, 1.91288, 2.11105, 1.91155, 2.08145, 2.07958, 1.96121, 2.09454, 1.90649, 1.90402, 1.90675, 1.90373, 1.84113, 1.84029, 1.93794, 1.9206, 1.83154, 1.94517, 1.87918, 1.87686, 1.82672, 1.82649, 1.90601, 1.82473, 1.87466, 1.90707, 1.91645, 1.82194, 1.82178, 1.82035, 1.91512, 1.86834, 1.86617, 1.8147, 1.89985, 1.86807, 1.81295, 1.92397, 1.80998, 1.81074, 1.80984, 1.81034, 1.80967, 1.80659, 1.80711, 1.93449, 1.93875, 1.80779, 1.85664, 1.80687, 1.85881, 1.93851, 1.92721, 1.91831, 1.80786, 1.93485, 1.8576, 1.80969, 1.80604, 1.92798, 1.80698, 1.8048, 1.93173, 1.93071, 1.80574
1.84756, 1.84575, 1.84576, 1.84775, 1.8436, 1.89535, 1.89398, 1.8417, 1.84117, 1.84376, 1.84178, 1.84032, 1.84025, 1.83927, 1.94054, 1.83794, 1.93848, 1.83927, 1.83797, 1.88706, 1.88885, 1.88546, 1.83589, 1.83741, 1.93823, 1.83101, 1.83237, 1.83332, 1.93688, 1.83129, 1.83374, 1.83145, 1.83024, 1.93863, 1.82847, 1.83053, 1.93057, 1.93102, 1.92644, 1.83083, 1.83047, 1.82769, 1.82879, 1.88169, 1.88177, 1.91629, 1.91734, 1.92888, 1.83373, 1.83407, 2.00692, 2.05706, 2.05708, 2.05853, 1.96684, 1.97057, 1.97915, 1.88928, 1.98015, 1.9804, 1.96258, 1.88715, 1.98097, 1.96148, 1.98261, 1.9615, 1.8827, 1.95614, 1.87873, 1.9862, 1.98608, 2.08743, 1.95544, 2.06229, 1.87622, 2.07831, 1.87563, 1.9555, 1.9572, 1.95524, 1.87522, 1.95173, 1.99064, 1.9937, 1.95661, 1.95707, 1.99065, 2.06547, 2.07722, 1.96092, 1.95818, 1.99282, 1.96215, 1.89363, 1.99208, 1.89787, 1.97607, 1.99175, 2.08849, 2.04352, 2.05134, 2.04079, 2.04176, 2.04242, 2.04264, 2.03913, 1.96546, 1.96504, 1.96304, 1.96385, 1.96458, 1.96334, 2.04124, 2.04215, 2.04193, 2.04161, 2.06305, 2.06342, 2.05921, 2.05426, 2.04472, 2.04416, 2.03409, 2.03427, 2.06239, 2.03822, 2.05573, 2.0699, 2.069, 2.05948, 1.97263, 1.97319, 2.06616, 1.97579, 2.079, 1.97543, 2.08597, 1.9777, 2.06001, 2.05907, 2.06979, 2.05546, 2.05633, 2.0727, 2.0591, 2.06523, 2.05631, 2.062, 2.06339, 2.05812, 2.05571, 2.05846, 2.05672, 2.05559, 2.0605, 2.06666, 2.06621, 2.05497, 2.05482, 2.05755, 2.05745, 2.05837, 2.05811, 2.06011, 2.06248, 2.05978, 2.06246, 2.05966, 2.05637, 2.07679, 2.07632, 1.92081, 1.91685, 1.91624, 2.1149, 1.91396, 2.08914, 2.02326, 2.0063, 1.91434, 1.9128, 1.90833, 1.90947, 2.00678, 1.91133, 1.9119, 1.91007, 1.96216, 1.96191, 2.00064, 1.96317, 1.96199, 1.91487, 1.91443, 1.91544, 1.91642, 1.91463, 2.08939, 2.11136, 2.08868, 2.11036, 2.10111, 2.09036, 2.0044, 2.09336, 1.91362, 1.91258, 2.08599, 2.12141, 2.11038, 2.08593, 1.90802, 2.08391, 2.08226, 1.90664, 1.90468, 1.90406, 1.90082, 1.83745, 1.88893, 1.83449, 1.83188, 1.83372, 1.82986, 2.13954, 1.82794, 1.91355, 1.82659, 1.82316, 1.8222, 1.82157, 1.82226, 1.82183, 1.81979, 1.8204, 1.81694, 1.86826, 1.87438, 1.91536, 1.81521, 1.86445, 1.86363, 1.86233, 1.86079, 1.81003, 1.80718, 1.80989, 1.80759, 1.9373, 1.80924, 1.93038, 1.80655, 1.93715, 1.8069, 1.80669, 1.93577, 1.80668, 1.93437, 1.93462, 1.80981, 1.80985, 1.80479, 1.80359, 1.92589, 1.92677, 1.92338, 1.80738, 1.92323, 1.80772, 1.97513
1.84816, 1.84821, 1.84942, 1.94151, 1.94411, 1.89647, 1.89647, 1.84557, 1.84827, 1.84491, 1.93789, 1.84447, 2.1082, 1.83927, 1.89199, 1.84059, 1.83778, 1.8391, 1.8404, 1.84021, 1.93144, 1.93549, 1.83821, 1.83679, 1.83556, 1.94256, 1.83618, 1.83708, 1.88399, 1.83388, 1.92412, 1.92416, 1.88195, 1.83149, 1.93584, 1.83141, 1.82995, 1.93365, 1.93399, 1.92432, 1.83122, 1.83301, 1.83268, 1.83377, 1.9102, 1.88343, 1.88281, 1.83371, 1.83469, 1.83523, 1.83682, 1.97927, 1.97081, 1.97041, 1.98202, 1.97144, 1.97958, 1.98195, 1.89255, 1.96555, 1.96617, 2.08656, 2.06362, 1.98554, 1.88509, 1.98668, 1.98679, 1.98833, 1.9579, 1.98837, 1.95527, 1.9552, 1.95521, 1.98769, 1.87671, 1.9906, 1.99092, 1.95441, 1.95439, 1.95505, 1.99079, 1.99042, 1.95531, 1.95517, 1.95846, 1.95471, 1.87969, 1.95878, 1.9593, 1.99462, 2.07694, 1.88719, 1.99296, 1.99382, 1.97445, 2.07276, 1.97637, 2.07604, 2.08623, 2.09304, 2.05777, 2.04324, 2.06826, 2.04255, 2.05555, 1.96638, 1.96526, 1.96553, 1.96575, 1.96517, 2.04258, 2.04215, 2.04618, 2.04211, 2.06582, 2.04559, 2.045, 2.0443, 2.04518, 2.04675, 2.04461, 2.07417, 2.0729, 2.04169, 2.04824, 2.04734, 1.97245, 2.06052, 2.05914, 1.97409, 2.06492, 1.97422, 2.06184, 1.97612, 2.0665, 2.06929, 2.05464, 2.05561, 2.05335, 2.05411, 2.06582, 2.07357, 2.07943, 2.06854, 2.05634, 2.05681, 2.05732, 2.05575, 2.06503, 2.07215, 2.07298, 2.05946, 2.07968, 2.06852, 2.05849, 2.05656, 2.05673, 2.05862, 2.05928, 2.0676, 2.06232, 2.05889, 2.06257, 2.06155, 2.05956, 2.06102, 2.06344, 1.9796, 2.05764, 2.05922, 2.05742, 1.92105, 1.97208, 1.91659, 2.11002, 1.91421, 1.914, 1.9134, 1.91377, 1.9114, 1.90875, 1.91106, 1.90828, 1.9108, 1.91196, 2.10063, 1.91064, 1.91062, 1.91163, 1.96272, 1.96318, 1.91336, 1.91543, 1.96185, 1.91455, 2.08951, 1.91692, 1.9165, 1.91558, 2.10755, 1.91549, 1.91888, 1.91639, 2.08906, 2.11383, 1.91346, 1.91421, 1.91315, 1.96076, 1.96097, 1.90721, 2.08617, 1.90743, 2.10367, 1.90604, 1.90533, 1.90367, 1.90106, 1.8907, 1.83769, 1.83392, 1.82998, 1.88277, 1.87912, 1.90695, 1.82768, 1.82518, 1.8234, 1.82134, 1.87293, 1.8209, 1.82252, 1.91021, 1.81789, 1.8164, 1.81713, 1.9115, 1.90975, 1.81646, 1.81407, 1.86448, 1.86243, 1.86119, 1.81189, 1.81063, 1.81141, 1.92474, 1.89941, 1.89596, 1.8592, 1.80666, 1.91718, 1.80768, 1.80828, 1.807, 1.9325, 1.80781, 1.80469, 1.8071, 1.93419, 1.93068, 1.80689, 1.80679, 1.80985, 1.80426, 1.80505, 1.80642, 1.80589, 1.91186, 1.9085
1.85266, 1.84859, 1.84972, 1.84863, 1.85165, 1.85071, 1.89883, 1.89781, 1.84575, 1.8469, 1.84613, 1.84547, 2.10234, 2.10994, 2.10873, 1.84341, 1.84485, 1.84405, 1.83887, 1.84016, 1.83813, 1.84077, 1.84004, 1.84049, 1.83611, 1.83718, 1.88568, 1.92679, 1.83685, 1.83416, 1.88691, 1.8851, 1.83103, 1.83419, 1.83394, 1.83424, 1.83287, 1.83689, 1.83351, 1.83538, 1.88334, 1.83226, 1.8339, 2.01191, 1.83376, 1.83504, 1.83572, 1.83492, 1.83341, 1.92475, 1.83544, 2.05927, 1.97233, 1.8952, 2.06918, 1.97272, 2.06054, 1.98354, 2.06103, 1.88995, 1.98617, 1.98654, 1.98669, 1.96245, 1.96371, 1.96184, 1.98905, 1.96099, 2.06654, 1.99024, 1.98965, 1.95799, 1.99331, 1.99348, 1.99021, 1.95399, 1.87912, 1.87705, 1.95239, 1.99449, 1.95534, 1.95445, 1.99496, 1.99605, 1.95596, 1.95678, 1.99529, 1.99668, 1.95928, 1.96117, 1.99367, 2.10128, 1.99388, 1.99424, 1.89906, 1.9026, 2.06975, 1.90596, 2.08762, 2.08897, 2.05173, 1.9692, 2.06007, 2.05918, 2.04522, 2.04866, 1.96664, 1.96693, 1.96594, 2.04268, 2.04378, 2.04332, 2.04203, 2.04872, 1.96676, 2.0438, 2.04745, 1.96923, 2.06413, 2.0485, 2.04763, 2.06564, 2.04851, 2.0758, 2.05176, 2.05154, 2.04784, 1.9733, 2.05673, 1.97502, 2.05654, 1.97548, 2.06918, 2.07033, 2.06997, 1.97608, 2.0802, 2.07642, 2.05598, 2.08219, 2.05586, 2.0561, 2.05968, 2.07484, 2.06659, 1.97994, 2.06251, 2.06611, 2.05855, 1.97917, 1.9807, 2.05478, 2.05564, 2.06667, 2.06954, 2.07592, 2.05864, 2.0581, 2.07504, 1.98002, 1.98111, 2.06192, 2.05852, 2.06198, 2.06067, 2.06612, 2.06185, 1.98047, 2.0723, 2.0573, 2.05807, 1.91756, 2.09287, 2.09122, 1.91479, 1.91506, 1.91297, 1.91094, 2.09671, 2.09075, 2.01395, 1.91091, 1.91, 2.09368, 1.90966, 2.11468, 1.90974, 1.90943, 1.91336, 2.10471, 1.91313, 1.91482, 1.91369, 1.91325, 1.91294, 2.09119, 1.91599, 1.91711, 1.9171, 1.96702, 1.91681, 1.91688, 1.91423, 1.96548, 1.96396, 1.91232, 1.96247, 1.96191, 1.90993, 1.9081, 1.90734, 1.90615, 1.90505, 1.90603, 1.90643, 1.9039, 1.90239, 1.84052, 1.83919, 1.83847, 1.8349, 1.83309, 1.83043, 1.82841, 1.82594, 1.82787, 1.90075, 1.87435, 1.90296, 1.9, 1.87017, 1.82133, 1.81827, 1.81886, 1.81763, 1.81695, 1.816, 1.92389, 1.92262, 1.92216, 1.9212, 1.92981, 1.81102, 1.81129, 1.8132, 1.81115, 1.81362, 1.93488, 1.86909, 1.80865, 1.93396, 1.93167, 1.80714, 1.93007, 1.92721, 1.85543, 1.92805, 1.80604, 1.93017, 1.92302, 1.8097, 1.80747, 1.90202, 1.93031, 1.92969, 1.80506, 1.80348, 1.80668, 1.86227, 1.855
1.90421, 1.85504, 1.85274, 1.94897, 2.13825, 1.85208, 1.84953, 1.85174, 1.84695, 1.84849, 1.84645, 1.95186, 1.84749, 1.89577, 1.89547, 1.89579, 1.8947, 1.89564, 1.89345, 1.84201, 1.8413, 1.84155, 1.84263, 1.83898, 1.83889, 1.95965, 1.88814, 1.84076, 1.8994, 1.89989, 1.88695, 1.8381, 1.83459, 1.83124, 1.83498, 1.83526, 1.8341, 1.93772, 1.83237, 2.01031, 1.83774, 1.83401, 1.83311, 1.83362, 1.83419, 1.83426, 1.83689, 1.83708, 1.83707, 1.8383, 1.88862, 1.8969, 1.89652, 2.0628, 1.97185, 1.9721, 1.89447, 2.06569, 1.98831, 1.96829, 1.96864, 1.98751, 1.96551, 1.88737, 2.06845, 1.96496, 1.96214, 1.98735, 1.96131, 1.98942, 2.08191, 1.95859, 1.95914, 1.99604, 1.95784, 1.95844, 1.95519, 1.95547, 1.87875, 1.87824, 1.99311, 1.99413, 1.99631, 1.95689, 1.95517, 1.88208, 1.88206, 1.88527, 1.99762, 1.96573, 1.99613, 2.07332, 1.99601, 1.99738, 2.07437, 1.98001, 1.90345, 2.07311, 2.07399, 1.92757, 2.04534, 2.04644, 2.06611, 2.05782, 2.04784, 2.0463, 1.96975, 2.04814, 2.04931, 2.05234, 2.0555, 2.05325, 2.05067, 2.05114, 2.04477, 2.04785, 2.04605, 2.04781, 2.04775, 1.97004, 2.04629, 2.06742, 2.0774, 2.0496, 2.04912, 2.0492, 2.07051, 1.97509, 2.05163, 2.0462, 2.07129, 2.07929, 2.05843, 2.07886, 1.97683, 2.06346, 1.97986, 2.07014, 2.08595, 2.07052, 2.0697, 2.06995, 2.05849, 2.06618, 2.0675, 2.06627, 2.0567, 2.07069, 2.05805, 2.07392, 2.0659, 2.07331, 2.06269, 2.07697, 2.09047, 1.98246, 1.98039, 2.06543, 1.98095, 2.05939, 2.05876, 2.05922, 2.05977, 2.06122, 2.06365, 2.06495, 2.05997, 2.06021, 2.06124, 2.05883, 2.06829, 1.91807, 2.01322, 1.91638, 1.91446, 2.09063, 1.91638, 1.9135, 1.91473, 2.1065, 2.11813, 2.11097, 1.91261, 1.91099, 2.01731, 2.1103, 1.90866, 1.91118, 1.91405, 1.91289, 2.10058, 2.09302, 1.91568, 1.91435, 2.11768, 2.10694, 1.91391, 1.91712, 2.08937, 1.91679, 1.91722, 2.10291, 1.91667, 1.91623, 1.91462, 2.01497, 1.90854, 1.9132, 1.91143, 1.91097, 1.90908, 1.91037, 1.90734, 1.90496, 1.90265, 1.90409, 1.90166, 1.84278, 1.83768, 1.83515, 1.83443, 1.92296, 1.83138, 1.82739, 1.82751, 1.82693, 1.82378, 1.82476, 1.82077, 1.91441, 1.91315, 1.81909, 1.81953, 1.81672, 1.81809, 1.8903, 1.81707, 1.81672, 1.81589, 1.81369, 1.81279, 1.81125, 1.90295, 1.81102, 1.93475, 1.93437, 1.80756, 1.85886, 1.80703, 1.8097, 1.93629, 1.80868, 1.92684, 1.85713, 1.80713, 1.8575, 1.80314, 1.93563, 1.80731, 1.805, 1.93081, 1.8065, 1.8044, 1.92657, 1.92432, 1.92693, 1.927, 1.80501, 1.85394, 1.80346
1.85663, 1.85783, 1.8551, 1.85683, 1.85434, 1.8554, 1.85322, 1.85069, 1.85258, 1.85095, 1.85179, 2.12134, 2.11814, 1.84787, 1.84763, 1.84928, 2.00968, 1.93551, 1.89576, 1.84735, 1.84364, 1.84109, 1.84246, 2.02764, 1.9477, 1.94216, 1.84157, 2.1247, 1.83951, 1.84037, 1.83862, 1.94751, 1.83793, 1.83785, 1.94128, 2.0237, 1.94615, 1.83369, 1.93972, 1.92632, 1.89618, 1.83637, 1.83486, 2.01811, 2.02429, 2.01829, 1.83851, 1.83696, 1.88826, 1.88807, 1.88859, 1.88948, 1.89932, 2.06571, 1.97552, 1.97408, 1.97456, 1.97165, 1.98949, 1.97048, 1.98986, 1.99002, 1.96686, 1.8892, 1.96337, 1.98977, 1.9646, 1.96279, 1.9624, 1.96326, 1.95998, 1.96019, 1.99413, 1.88291, 1.95677, 1.95835, 1.9619, 1.99708, 1.99761, 2.09436, 1.9963, 1.95602, 1.95867, 1.99638, 2.07533, 1.96001, 1.96113, 1.96199, 1.88615, 1.96583, 1.96743, 1.96882, 1.99802, 1.9991, 1.89956, 1.97926, 1.98166, 1.99778, 2.08405, 2.08338, 2.06845, 2.04967, 1.97352, 2.05262, 2.06123, 2.07283, 1.97013, 2.05104, 2.04843, 2.05409, 2.05168, 2.0525, 2.05269, 2.04509, 2.069, 2.04785, 2.04851, 2.06577, 2.0471, 2.07662, 2.05188, 2.05043, 2.05748, 2.05882, 2.066, 2.05472, 2.05958, 2.05526, 2.06191, 2.06618, 1.97945, 2.05571, 2.06287, 2.06878, 2.05853, 2.05771, 2.0724, 2.06917, 2.06638, 2.06161, 2.07206, 2.07297, 2.06517, 2.07257, 2.05716, 2.06662, 2.07067, 2.05801, 2.05843, 2.0627, 2.07222, 2.06228, 1.98086, 2.08238, 2.0971, 2.09728, 2.05633, 2.05977, 1.98002, 2.06653, 2.06152, 2.05981, 2.06206, 2.06074, 2.06227, 2.0622, 2.0593, 2.05985, 2.05909, 2.06959, 2.07587, 1.91763, 2.10144, 2.10747, 2.12189, 1.91344, 1.91319, 1.91409, 1.91332, 1.9122, 2.09109, 1.91343, 1.91022, 1.91347, 1.91245, 2.01024, 2.11021, 1.91257, 1.91155, 1.91019, 1.91285, 1.91336, 2.11148, 2.01102, 1.91386, 1.91351, 1.91054, 2.10389, 1.91649, 1.91466, 1.91318, 2.08752, 2.11477, 2.08446, 1.91472, 1.9131, 2.10084, 1.9099, 2.00726, 1.90978, 1.90836, 2.09521, 1.90607, 1.90497, 1.90407, 1.95633, 1.95539, 1.83967, 1.93106, 1.88642, 1.83131, 1.83224, 1.83022, 1.82695, 1.91223, 1.91006, 1.82444, 1.82388, 1.82337, 1.82347, 1.87136, 1.91151, 1.81795, 1.91623, 1.81676, 1.81655, 1.91862, 1.81479, 1.81144, 1.81057, 1.81077, 1.92789, 1.92765, 1.8101, 1.80984, 1.80695, 1.88699, 1.80673, 1.80663, 1.80806, 1.80807, 1.81016, 1.80708, 1.93162, 1.80554, 1.80904, 1.80763, 1.80751, 1.93422, 1.80582, 1.80668, 1.92848, 1.80371, 1.80401, 1.80446, 1.92537, 1.80242, 1.85663, 1.85751, 1.80249
1.86014, 1.85993, 1.90856, 1.90744, 1.9092, 1.95478, 1.95551, 1.95408, 1.85544, 1.95311, 1.9025, 1.90295, 1.8518, 1.85262, 1.85196, 1.84889, 1.8482, 1.89839, 1.89881, 1.89836, 1.84836, 1.96529, 1.84416, 1.84538, 1.94321, 1.84406, 1.94915, 1.89421, 1.8394, 1.94999, 1.83949, 1.83884, 1.94844, 1.94471, 1.88922, 1.8386, 1.93801, 1.83558, 1.88858, 1.88902, 1.83699, 1.8871, 1.83764, 1.83673, 2.017, 1.83664, 2.01651, 2.02039, 2.02194, 2.10655, 2.01082, 1.97678, 1.97633, 1.97828, 1.97935, 1.97727, 1.99066, 1.97219, 1.97428, 1.96998, 1.99153, 1.9696, 1.96813, 1.8914, 1.96753, 1.96532, 2.08955, 1.99491, 1.96184, 1.99543, 1.99508, 1.99703, 1.95942, 1.88355, 1.88264, 1.88124, 1.95934, 1.96176, 1.95545, 1.95804, 1.95822, 1.99766, 1.99897, 1.88296, 2.00031, 2.07715, 1.88571, 1.88603, 1.88742, 2.08265, 1.89062, 2.0009, 2.00151, 2.00139, 1.97862, 2.00038, 1.98195, 2.00149, 2.00048, 1.93098, 2.08074, 2.04941, 2.05004, 2.05507, 2.06409, 2.04933, 1.97342, 2.0512, 1.97258, 2.05079, 2.05245, 2.05426, 2.0551, 2.04834, 2.04933, 2.06978, 2.05086, 2.06301, 2.04936, 2.04984, 2.05197, 2.06992, 2.06341, 2.05209, 2.06592, 2.06577, 2.06639, 2.0606, 2.06312, 2.05091, 2.06166, 1.97783, 2.06417, 1.97937, 2.05852, 2.05835, 2.05803, 2.06742, 2.06856, 2.06594, 2.0625, 2.07224, 1.98209, 2.0602, 2.06675, 2.08481, 1.98131, 2.06007, 2.0589, 2.06616, 2.08303, 2.06712, 2.06725, 2.05913, 2.05885, 2.06933, 2.05951, 2.05902, 2.05954, 2.05876, 2.05882, 2.06138, 2.06558, 2.05968, 2.06404, 2.06528, 2.06349, 2.06027, 2.05883, 2.06679, 2.06646, 1.91946, 1.91776, 1.91686, 1.9161, 1.91178, 1.91065, 1.913, 1.91161, 1.9129, 1.91144, 1.91001, 1.9141, 2.01622, 2.01366, 1.9131, 1.91293, 1.96093, 1.96145, 1.96268, 1.91187, 1.96165, 1.91375, 1.91374, 1.91512, 1.91347, 1.91274, 1.91346, 1.91484, 1.91376, 1.91382, 1.91421, 1.91349, 1.91291, 1.9099, 1.91355, 1.91303, 1.91031, 1.90934, 1.91003, 2.00498, 1.90642, 2.11403, 1.9042, 1.9933, 1.95783, 1.90644, 1.84049, 1.88717, 1.88519, 1.92363, 1.9272, 1.92564, 1.87918, 1.94331, 1.94092, 1.82385, 1.82183, 1.82041, 1.87136, 1.81913, 1.9192, 1.867, 1.81741, 1.81495, 1.81341, 1.9091, 1.92226, 1.80995, 1.8082, 1.81306, 1.92745, 1.80997, 1.80875, 1.92665, 1.90252, 1.85756, 1.9285, 1.81044, 1.80796, 1.80883, 1.80725, 1.93426, 1.93162, 1.80338, 1.93342, 1.80678, 1.80418, 1.80809, 1.91826, 1.93096, 1.80389, 1.804, 1.80656, 1.85785, 1.92878, 1.92747, 1.80387, 1.80594, 1.92396
1.86115, 1.86277, 1.94518, 1.94492, 1.92801, 1.85866, 1.85837, 1.85867, 1.95789, 1.85496, 1.8573, 1.95726, 1.85352, 1.95775, 1.85109, 1.85099, 1.84936, 1.85096, 1.85109, 1.85202, 1.84752, 1.84809, 1.84484, 1.89637, 1.84778, 1.95254, 2.0292, 1.84424, 1.84378, 1.84539, 1.83975, 1.84057, 1.83925, 1.84139, 1.83927, 1.84019, 1.93755, 1.89246, 1.8902, 1.93047, 1.88981, 1.89007, 1.89092, 1.8373, 1.94446, 2.02393, 1.84032, 1.84146, 1.83839, 2.02078, 1.84067, 1.97547, 1.99166, 1.97955, 1.90044, 1.97623, 1.9777, 1.99586, 1.97605, 1.99471, 1.97271, 1.97249, 1.97001, 1.96982, 1.97229, 1.96874, 1.96664, 1.96604, 1.99604, 1.96317, 1.99996, 1.96548, 2.08163, 1.88525, 2.09277, 2.08785, 1.95879, 1.96536, 1.95973, 2.00363, 1.96064, 1.95991, 2.09258, 1.9597, 1.88366, 1.96105, 2.08165, 1.96626, 1.96587, 2.09064, 1.96953, 1.97158, 1.97243, 1.97405, 2.00312, 2.07401, 1.91049, 2.00231, 2.09194, 1.93241, 2.05468, 2.08505, 2.05297, 2.0527, 2.05281, 1.97284, 2.05809, 2.05598, 2.05266, 1.97383, 1.97476, 1.97533, 1.97328, 2.05153, 2.05133, 2.04987, 2.0502, 2.06267, 1.97255, 2.05181, 2.07569, 2.06652, 2.06643, 2.05377, 2.0664, 2.06677, 1.97766, 2.05972, 2.0588, 2.06681, 2.0532, 2.07972, 2.09069, 2.07106, 2.06037, 2.06917, 2.05761, 2.0568, 2.06741, 2.06908, 1.98236, 1.98525, 2.06603, 2.07717, 2.07747, 2.06995, 2.05916, 2.06574, 2.05862, 2.06585, 2.07302, 2.06239, 1.98315, 1.9837, 2.08694, 2.05958, 2.05887, 2.05977, 2.05956, 2.06524, 2.06334, 2.0586, 2.0635, 2.06565, 2.06507, 2.06217, 2.06178, 2.06046, 2.07405, 2.05805, 2.06702, 1.91836, 1.91735, 1.91522, 1.91444, 1.91347, 1.91114, 1.96368, 1.91125, 2.01451, 1.9129, 2.01339, 1.91231, 1.91298, 2.10389, 1.91218, 1.91456, 1.91257, 1.96445, 2.0829, 1.91293, 1.96233, 1.91376, 1.91161, 2.11741, 1.91363, 1.91371, 1.91352, 1.9133, 2.09073, 2.10484, 1.91237, 1.91375, 2.08784, 1.91314, 1.91208, 1.91192, 2.08601, 1.90993, 1.91064, 2.08907, 1.95831, 1.90707, 1.90753, 1.90505, 1.90552, 1.90304, 1.83756, 1.88731, 1.92078, 1.83123, 1.82944, 1.82744, 1.82656, 1.82318, 1.87291, 1.87555, 1.89606, 1.82013, 1.81812, 1.81709, 1.81717, 1.81517, 1.81432, 1.9258, 1.81211, 1.80973, 1.92728, 1.80676, 1.93106, 1.93023, 1.92734, 1.81084, 1.85781, 1.80679, 1.86363, 1.80699, 1.85601, 1.92681, 1.80742, 1.80599, 1.85889, 1.8579, 1.8064, 1.91791, 1.8033, 1.80655, 1.80643, 1.80421, 1.80055, 1.80629, 1.80497, 1.81043, 1.80478, 1.80436, 1.80298, 1.92514, 1.80184, 1.80329, 1.80048
1.95932, 1.86482, 1.8658, 1.91393, 1.91365, 1.86317, 1.85895, 1.86144, 1.91037, 1.85842, 1.96275, 1.96172, 1.95642, 2.03733, 1.85481, 1.95353, 1.85339, 1.85278, 1.85279, 1.85058, 1.85141, 1.95613, 1.84834, 1.84761, 1.84699, 1.95755, 1.84757, 1.89787, 1.8474, 1.94958, 1.9525, 1.84306, 1.84426, 1.84469, 1.95298, 1.84133, 1.84104, 1.84036, 1.95199, 1.84198, 1.84161, 1.83847, 1.83688, 1.83895, 1.94139, 1.8417, 1.84172, 1.89065, 1.84075, 1.8405, 1.84194, 1.90463, 1.90521, 1.98166, 2.0788, 2.07905, 2.07554, 1.9779, 1.97601, 1.97507, 1.97362, 1.97354, 1.99675, 1.96841, 1.97198, 1.97139, 1.96831, 1.96702, 1.96481, 1.96555, 1.96851, 1.96813, 1.88547, 2.09694, 2.09326, 1.96203, 1.88493, 1.99969, 2.00344, 1.96094, 1.96122, 1.96102, 2.08279, 1.96522, 2.00329, 1.88638, 2.00478, 2.00544, 1.96559, 1.96694, 2.09718, 2.00637, 1.89634, 1.90277, 2.00381, 2.00299, 1.98809, 2.09757, 2.00809, 2.08066, 2.05705, 1.97729, 2.0532, 2.08432, 2.0808, 2.07667, 2.05855, 2.05209, 2.05025, 1.9756, 1.97656, 2.05635, 2.05277, 2.05093, 2.05324, 2.066, 2.06201, 2.05192, 2.07128, 2.05249, 2.06803, 2.05869, 2.05601, 2.05543, 2.05476, 2.06572, 2.06901, 2.06013, 2.07997, 2.07093, 2.0686, 1.98369, 2.06608, 2.06281, 2.05912, 2.05895, 2.05897, 2.06981, 1.98269, 2.06428, 1.98337, 1.98326, 2.06957, 2.0801, 2.0659, 2.07277, 2.05863, 1.98475, 1.98251, 1.98442, 2.0723, 2.06889, 2.0668, 1.98253, 2.08477, 2.09027, 2.07694, 2.07338, 1.98225, 2.06138, 2.06278, 2.06133, 2.06539, 2.06511, 2.063, 2.06361, 2.05907, 2.06542, 2.0601, 2.05918, 1.98256, 2.01017, 1.91609, 1.91447, 1.91342, 1.91271, 1.91244, 1.91327, 1.91145, 1.91239, 1.91294, 1.90953, 1.91236, 1.99127, 1.98979, 2.01346, 1.91124, 1.91058, 2.08954, 2.09759, 1.91438, 2.11275, 2.09264, 2.10442, 1.91132, 2.09955, 1.91078, 1.91385, 2.08416, 1.91107, 1.91703, 1.91428, 2.08686, 1.91254, 1.91307, 1.91145, 1.90969, 1.90973, 1.90796, 1.90776, 1.90704, 2.09274, 1.9093, 1.90624, 1.9072, 1.9063, 1.90665, 1.92212, 1.93105, 1.93095, 1.92822, 1.83045, 1.93207, 1.98285, 1.87487, 1.87372, 1.87298, 1.87524, 1.8164, 1.81774, 1.81429, 2.03555, 2.03202, 1.86478, 1.90326, 1.86098, 1.81007, 1.8593, 1.91155, 1.90977, 1.80815, 1.9137, 1.80948, 1.80781, 1.80724, 1.85792, 1.80925, 1.9152, 1.91227, 1.9823, 1.92929, 1.92793, 1.80464, 1.80702, 1.93224, 1.93246, 1.80454, 1.9175, 1.80638, 1.80446, 1.80416, 1.80373, 1.92818, 1.93391, 1.92727, 1.92503, 1.80587, 1.9271, 1.92756, 1.80162
1.86478, 1.86822, 1.86762, 1.96859, 1.96307, 1.96196, 1.86438, 1.91336, 1.91271, 1.9131, 2.13545, 1.86115, 1.86114, 1.85692, 1.85764, 1.85278, 1.85549, 1.85423, 1.8535, 1.90272, 1.90275, 1.85246, 1.85095, 1.85181, 1.97073, 1.8511, 1.9583, 1.84843, 1.89751, 1.84746, 2.03816, 2.03461, 2.02618, 1.84609, 1.84508, 1.84712, 1.84462, 2.02762, 1.94369, 1.93588, 2.02457, 1.89234, 1.89225, 1.84277, 1.84414, 1.84114, 1.84205, 1.94165, 1.94192, 1.94452, 1.84546, 1.98429, 1.98323, 1.98392, 2.08253, 1.98003, 1.97789, 2.08347, 1.97886, 1.97608, 2.00013, 1.89733, 1.97255, 1.97084, 1.99938, 1.99997, 1.8922, 2.00138, 1.96858, 1.96573, 1.96709, 1.96859, 2.09118, 1.88823, 2.00423, 1.96512, 1.88642, 1.96337, 2.00645, 1.96168, 1.96296, 1.96233, 1.96189, 1.96277, 2.00753, 2.0065, 1.96787, 1.96862, 1.89157, 2.0967, 2.00644, 1.89747, 1.97694, 1.97904, 1.98043, 1.90708, 1.99107, 2.00627, 2.09001, 2.06537, 2.06788, 2.0727, 2.05529, 2.0728, 2.07159, 2.05448, 2.06307, 2.05617, 2.05936, 1.97514, 2.05597, 2.05663, 2.05639, 2.05566, 2.05439, 2.06243, 2.05399, 2.05427, 2.0768, 2.05416, 2.07655, 2.08856, 2.08342, 2.07761, 2.08344, 2.07391, 2.06477, 2.07089, 2.07018, 2.06412, 2.06183, 1.98137, 1.98299, 1.9835, 2.06921, 1.98302, 2.07379, 2.07488, 2.06686, 2.06963, 1.98511, 2.06651, 2.09011, 1.98432, 2.06924, 2.07957, 2.07319, 2.06611, 2.063, 2.06187, 1.98369, 2.07108, 2.05852, 2.06926, 2.08231, 2.06223, 2.05967, 2.05948, 2.08342, 2.08216, 2.09053, 2.0648, 2.06139, 2.06212, 2.06942, 2.06501, 2.06102, 2.06053, 2.05928, 2.05863, 2.07642, 1.91567, 1.91671, 2.11534, 2.094, 2.09363, 1.91375, 1.91278, 1.91033, 2.02519, 2.01145, 1.9128, 1.91152, 1.91214, 1.91031, 1.9666, 1.97511, 1.97284, 1.96893, 2.1012, 1.91034, 1.91025, 2.09233, 2.10229, 2.01163, 1.91262, 2.01058, 2.10994, 1.91357, 1.91367, 1.91212, 2.01141, 2.01065, 1.91106, 1.91109, 1.90875, 1.90804, 1.90837, 1.90849, 1.909, 1.90749, 1.90589, 1.90594, 1.90734, 1.90779, 1.90552, 1.90521, 1.93382, 1.93161, 1.83489, 1.92788, 1.83051, 1.9328, 1.9325, 1.823, 1.82216, 1.9342, 1.82073, 1.8189, 1.81702, 1.86681, 1.8156, 1.81347, 1.8131, 1.92674, 1.81106, 1.85907, 1.8604, 1.85901, 1.80934, 1.80788, 1.80764, 1.93723, 2.14567, 1.80771, 1.80914, 1.80746, 1.92775, 1.80822, 1.80719, 1.93285, 1.80694, 1.80837, 1.85839, 1.85605, 1.85513, 1.93094, 1.80489, 1.80736, 1.80691, 1.92859, 1.80627, 1.85203, 1.80173, 1.80099, 1.80467, 1.80308, 1.8532, 1.928, 1.80414
1.86939, 1.86876, 1.91983, 1.87012, 1.8692, 1.93858, 2.14813, 1.86519, 1.91601, 1.91698, 1.91386, 1.97726, 1.95736, 1.96324, 1.96776, 1.8615, 1.95894, 1.97673, 1.97589, 1.9792, 1.85421, 1.85496, 1.96218, 1.96439, 1.85351, 1.85245, 1.90255, 1.85249, 1.85229, 2.02411, 1.94462, 1.84524, 1.84513, 1.9031, 1.84749, 1.84688, 1.84748, 1.95245, 1.84602, 1.95202, 1.95359, 1.89415, 1.89353, 1.93548, 1.84431, 1.84431, 1.94591, 1.84431, 1.84545, 1.84493, 1.84729, 2.00053, 1.98478, 1.98185, 1.98406, 1.98273, 1.90286, 1.98034, 1.97995, 1.98008, 1.97772, 1.97927, 1.9739, 1.97246, 1.97196, 2.00545, 1.96903, 1.9692, 1.96821, 2.00391, 1.96906, 1.96853, 1.96677, 1.96494, 1.88908, 1.9652, 1.962, 1.96495, 2.09974, 1.96266, 2.00546, 1.96352, 1.96321, 1.96461, 1.88796, 1.88879, 1.9671, 1.96707, 2.09691, 1.97039, 1.97248, 1.97695, 1.90105, 1.9825, 1.98043, 2.11005, 2.08313, 2.00464, 2.00981, 1.97916, 1.98005, 2.06987, 2.07345, 2.05519, 2.05507, 2.05532, 2.05373, 2.05924, 1.97923, 1.9767, 2.05868, 2.0583, 2.05838, 2.07041, 2.06243, 2.06922, 2.05487, 2.05556, 1.97937, 2.0782, 1.97921, 2.06365, 2.05604, 2.07429, 2.05677, 2.05504, 2.08212, 1.98307, 1.9821, 2.06453, 1.9833, 1.98353, 1.98126, 2.06585, 2.07804, 1.98591, 2.08002, 2.07207, 2.06698, 2.06841, 1.98615, 2.06765, 2.06763, 2.06812, 1.98636, 2.09702, 2.0632, 2.06209, 2.07272, 2.0684, 2.06217, 2.09471, 2.08119, 2.06139, 2.06345, 2.0802, 2.08418, 2.06214, 2.06171, 2.07258, 2.06042, 2.06326, 2.06374, 2.06288, 2.06274, 2.06464, 2.06635, 1.9814, 1.98238, 2.08266, 1.98434, 1.9689, 1.98887, 1.91672, 1.91365, 2.10848, 1.91313, 2.10305, 1.91115, 1.91132, 2.0207, 2.09725, 1.91161, 2.01495, 2.09227, 1.96308, 1.96387, 2.01624, 1.91177, 1.90967, 1.91208, 2.09415, 2.09285, 1.91048, 2.01221, 1.91472, 1.91329, 2.00626, 1.99926, 1.91086, 1.91408, 1.91082, 1.91212, 1.91331, 1.91057, 1.91013, 1.90738, 1.99963, 1.90613, 2.10327, 1.90852, 1.90712, 1.90944, 1.91013, 2.08051, 1.90606, 1.89098, 1.83793, 1.93145, 1.95213, 1.93476, 1.89071, 1.82747, 1.82475, 1.82456, 1.93819, 1.93456, 1.82195, 1.8196, 1.90792, 1.8163, 1.81212, 1.81282, 1.93397, 1.93879, 1.80623, 1.81018, 1.81024, 1.80647, 1.80764, 1.80642, 1.80501, 1.80655, 1.80937, 1.80683, 1.80527, 1.80615, 1.80467, 1.80808, 1.93227, 1.80581, 1.93593, 1.93323, 1.85627, 1.80593, 1.80731, 1.80656, 1.93056, 1.92206, 1.93366, 1.9166, 1.80688, 1.80579, 1.9912, 1.92842, 1.9269, 1.9249, 1.93041, 1.80313, 1.80204
1.96877, 1.8726, 1.95896, 1.87228, 1.87268, 1.96981, 1.87169, 1.86992, 1.86796, 1.86627, 1.91704, 1.96172, 1.95435, 1.95569, 1.86174, 1.8615, 1.86199, 1.86158, 1.85847, 1.8591, 1.9629, 1.95158, 2.04438, 1.85543, 1.96866, 1.85254, 1.85484, 1.85296, 2.04458, 1.85167, 1.85216, 1.90229, 1.85077, 1.94585, 1.94514, 1.90021, 1.84603, 1.84702, 1.92291, 1.89595, 1.94879, 1.84256, 1.84587, 1.84533, 1.95092, 1.84638, 1.94791, 1.84744, 2.03855, 2.12596, 1.84822, 1.98778, 2.07943, 1.98628, 2.08385, 2.08766, 1.98241, 2.08142, 1.97996, 1.9821, 1.97892, 1.89994, 1.97661, 1.97607, 2.0853, 1.97422, 2.00351, 1.97274, 2.00514, 2.00377, 1.96845, 1.96864, 2.00752, 1.97082, 1.96508, 2.00863, 1.96496, 1.96552, 1.96576, 1.96528, 1.9648, 1.96522, 1.96672, 1.96624, 1.96518, 1.96883, 1.97206, 1.97089, 1.89349, 1.89418, 2.08701, 2.01043, 2.01036, 1.90476, 1.98509, 1.98644, 2.08293, 1.99347, 2.09173, 2.10973, 1.98252, 1.98244, 1.9841, 2.07429, 2.05864, 1.98167, 2.05553, 1.97978, 1.97931, 1.97966, 1.97895, 2.06179, 2.05661, 2.05522, 2.05558, 2.06902, 1.98006, 2.08203, 2.05611, 2.05645, 2.0562, 2.08308, 2.05677, 2.07569, 2.09417, 2.06292, 2.06695, 2.07686, 2.07327, 1.98341, 1.98441, 2.08306, 2.0591, 2.07269, 2.07762, 2.07873, 2.06684, 2.07067, 2.06917, 2.07137, 1.98674, 1.98694, 2.07179, 2.06753, 2.06993, 1.98516, 1.98607, 2.07706, 2.07769, 1.98771, 1.98945, 2.08337, 2.0646, 1.98575, 2.06174, 2.06344, 2.07048, 2.06614, 2.06539, 2.06008, 2.0611, 2.06051, 2.06641, 1.98356, 2.06559, 2.06223, 2.06084, 2.06078, 2.05997, 1.98423, 2.05887, 1.91499, 2.10493, 2.00353, 1.9128, 1.91205, 1.91313, 1.91128, 1.91041, 1.91138, 2.01698, 2.01377, 2.01274, 1.90979, 2.00658, 2.1, 2.01653, 1.91194, 1.91172, 1.91189, 2.01012, 1.96323, 1.91331, 1.91137, 1.91083, 1.91154, 1.91202, 1.9948, 1.99288, 1.91018, 1.91215, 1.91077, 2.10355, 1.91068, 1.91278, 2.00645, 2.08602, 2.10072, 2.09829, 2.09916, 1.90751, 1.90753, 1.90814, 2.08327, 2.09017, 1.90764, 1.84067, 1.90025, 1.83692, 1.88285, 1.88177, 1.87895, 1.82774, 1.875, 1.92207, 1.82108, 1.82054, 1.81678, 1.81523, 1.91353, 1.94057, 1.8114, 1.93573, 1.81005, 2.12805, 1.80948, 1.93577, 1.93276, 1.93284, 1.93702, 1.93448, 1.8056, 1.93417, 1.93283, 1.80717, 1.80492, 1.80606, 1.80356, 1.92095, 1.80681, 1.80623, 1.93576, 1.92958, 1.80701, 1.80297, 1.9248, 1.80327, 1.80653, 1.93064, 1.80368, 1.80279, 1.80407, 1.80349, 1.92899, 1.805, 1.93149, 1.85939, 1.85851, 1.80023, 1.7998
1.92404, 1.87565, 1.96154, 1.92505, 1.87294, 1.87443, 2.05239, 1.87024, 1.97075, 1.97249, 1.86943, 1.96683, 1.97026, 1.86588, 1.8638, 1.86276, 1.97189, 1.86167, 1.86161, 1.86229, 1.86062, 2.02794, 1.91001, 1.85823, 1.8579, 1.8575, 1.85617, 1.85306, 1.85421, 1.85438, 1.85163, 1.85149, 1.85032, 1.85089, 1.89938, 1.85164, 1.84846, 1.969, 1.84873, 1.84808, 1.84788, 1.84776, 2.02798, 1.95074, 1.84407, 1.84554, 1.84768, 2.03906, 1.8482, 1.85054, 1.85171, 1.91332, 2.00543, 1.9875, 1.98738, 1.98862, 1.98273, 2.00705, 1.98444, 1.98215, 1.98442, 1.97748, 1.97777, 1.9779, 1.97588, 1.97529, 1.9752, 1.89593, 1.97277, 2.00792, 1.97057, 2.10521, 1.96883, 1.96667, 1.8912, 1.89027, 2.00956, 1.96544, 1.88959, 2.01133, 2.00831, 2.00824, 2.01039, 1.88956, 1.96843, 1.9694, 1.89124, 2.01188, 1.97186, 1.97251, 1.97432, 1.97701, 1.97886, 2.08982, 1.98545, 2.01133, 1.99225, 1.99292, 2.11028, 2.09659, 2.07299, 2.08336, 1.98289, 1.98281, 2.05874, 2.06585, 2.06593, 1.98192, 1.98052, 1.98261, 2.05875, 1.98215, 1.97962, 2.06259, 2.06539, 2.05694, 2.0693, 2.07261, 2.05925, 2.05933, 2.05847, 2.05873, 2.09669, 2.07546, 2.07933, 2.06736, 1.98378, 2.08768, 2.08423, 2.0828, 2.08334, 2.07569, 2.07199, 2.07606, 1.98733, 2.09108, 1.98655, 2.08235, 1.98564, 2.07591, 2.07208, 2.08348, 2.07959, 2.06819, 2.07762, 2.07728, 2.07252, 2.07206, 2.06954, 2.07352, 1.98827, 2.09554, 2.06666, 1.98368, 2.08594, 2.08304, 2.08336, 2.0614, 2.06189, 2.06958, 2.06852, 1.98572, 2.06511, 2.06343, 2.06707, 1.98465, 2.06444, 2.06606, 2.06176, 2.07479, 2.05945, 2.03115, 1.91423, 1.91322, 1.91195, 1.91346, 1.96288, 1.91348, 2.00119, 1.95894, 1.91, 1.96122, 2.07913, 1.95968, 1.91026, 1.91031, 2.0951, 1.9124, 1.91021, 1.91403, 1.91293, 2.00987, 1.91046, 1.91177, 2.01346, 1.91256, 1.91083, 1.91093, 2.02035, 1.9138, 1.91291, 1.91116, 1.91123, 1.91006, 2.08913, 1.91039, 1.90971, 1.91077, 1.91014, 2.08325, 1.9074, 1.90838, 1.90645, 1.90615, 1.90962, 1.90649, 1.93584, 1.83956, 1.83503, 1.83423, 1.83312, 1.93802, 1.91213, 1.82679, 1.93907, 1.93703, 1.81818, 1.81547, 1.92811, 1.81596, 1.81411, 1.81144, 1.92836, 1.80996, 1.85951, 1.80632, 1.94397, 1.94122, 1.80624, 1.80439, 1.85639, 1.91761, 1.85544, 1.93793, 1.9371, 1.80549, 1.90055, 1.93619, 1.85649, 1.80683, 1.85735, 1.80559, 1.80618, 1.85621, 1.85605, 1.91411, 1.80355, 1.80383, 1.91381, 1.80318, 1.80095, 1.80598, 1.80463, 1.80257, 1.80192, 1.79955, 1.85792, 1.85807, 1.80198, 1.8035
1.9263, 2.03879, 1.96187, 2.11834, 1.87724, 2.13403, 1.87016, 1.86976, 1.9758, 1.97699, 1.87133, 1.87238, 1.86847, 1.86765, 1.97255, 1.86865, 1.97241, 1.95803, 1.86406, 1.86597, 1.91427, 1.85592, 1.8619, 1.85894, 1.97229, 1.85983, 1.85957, 1.85639, 1.85517, 1.85635, 1.85497, 1.85314, 2.04526, 1.85422, 1.90192, 1.90294, 1.85358, 1.95964, 1.90002, 1.90118, 2.0352, 1.84813, 1.95606, 1.84863, 2.03095, 1.95448, 1.84764, 1.84952, 1.85194, 1.85186, 1.85333, 1.99187, 1.99153, 1.99253, 2.09031, 1.98681, 1.91068, 1.98351, 2.00784, 1.9842, 1.98264, 2.08723, 1.98157, 1.97889, 2.0101, 1.97567, 1.97448, 1.89768, 1.97191, 1.97193, 1.9728, 1.96991, 1.96966, 1.96825, 1.89341, 1.96864, 1.96849, 1.96787, 1.89041, 1.96842, 1.96848, 1.96691, 1.97212, 1.97594, 1.97033, 1.97072, 1.97175, 1.97235, 1.97345, 1.97263, 1.97231, 1.98104, 1.9059, 2.10045, 1.99001, 1.99073, 1.91723, 2.00049, 2.11114, 1.94079, 2.07556, 2.07616, 2.08366, 2.06068, 1.98344, 2.05846, 2.05921, 1.98018, 1.98257, 1.98229, 1.9819, 2.06548, 2.06195, 2.06295, 2.05968, 2.05925, 2.09041, 2.07207, 1.98134, 1.98192, 1.9835, 2.08107, 1.98256, 1.98188, 2.08126, 2.07951, 2.07692, 1.98383, 2.0615, 1.9862, 2.06482, 2.06625, 1.98708, 2.07829, 2.0846, 2.08508, 2.07532, 2.07135, 1.99033, 2.07515, 2.07593, 2.06539, 2.07598, 2.07794, 2.07594, 2.08025, 2.08632, 2.07588, 2.08046, 2.07025, 2.07273, 1.98667, 1.98604, 1.98759, 2.06984, 2.09349, 2.06336, 2.06281, 2.06184, 2.06058, 1.98337, 1.98252, 1.98449, 2.0595, 1.98855, 1.98339, 1.98515, 1.98428, 2.08606, 2.06317, 2.07262, 2.02863, 2.02732, 2.11122, 2.10385, 2.12214, 1.91112, 1.91214, 2.11385, 1.90872, 1.90703, 2.00348, 2.07955, 2.00012, 1.96071, 1.96086, 1.91029, 2.10341, 1.91069, 1.91197, 1.91152, 1.91089, 2.1322, 1.91154, 1.91077, 2.11116, 1.91133, 2.00688, 2.00123, 1.91068, 2.01061, 1.96054, 1.91136, 1.90941, 1.90835, 1.90889, 1.90992, 1.90987, 2.08628, 2.09869, 1.90964, 2.08608, 1.9085, 2.06714, 1.99948, 1.90989, 1.93751, 1.83683, 1.83557, 1.93692, 1.827, 1.82453, 1.93771, 1.93758, 1.82299, 1.93735, 1.81909, 1.81646, 1.81628, 1.81625, 1.93745, 1.93207, 1.86143, 1.80903, 1.81052, 1.80786, 1.80754, 1.93751, 1.93603, 1.80681, 1.80574, 1.80391, 1.8027, 1.9322, 1.8068, 1.93135, 1.80265, 1.85806, 1.85593, 1.8059, 1.93465, 1.93387, 1.80404, 1.88343, 1.80517, 1.80608, 1.80707, 1.80654, 1.8049, 1.80488, 1.93139, 1.80439, 1.80237, 1.8047, 1.89807, 1.9307, 1.8028, 1.85806, 1.92828, 1.80662
