1.87151, 1.92389, 1.92399, 1.87374, 1.87108, 1.95859, 1.91684, 1.96728, 1.86497, 1.86476, 1.97976, 1.86248, 2.02868, 1.85505, 1.96282, 1.85213, 1.85476, 1.90271, 1.97027, 1.95794, 1.8478, 1.96623, 1.84744, 2.04267, 1.95198, 1.95229, 1.84747, 1.84842, 1.84942, 1.91199, 1.98633, 1.98603, 2.08953, 1.98254, 1.98018, 1.97936, 1.97598, 1.97421, 1.89364, 1.89356, 1.9691, 1.96599, 1.96608, 2.00733, 1.96586, 2.00708, 1.88823, 2.00994, 1.9695, 2.01079, 1.97392, 1.97867, 2.08986, 1.98605, 2.01047, 2.10007, 1.9826, 1.98291, 2.06029, 1.98247, 1.98035, 1.98146, 1.97922, 2.05712, 2.05613, 2.05686, 2.07271, 2.05944, 2.08423, 2.08244, 2.06966, 2.07525, 2.0829, 1.9831, 2.08274, 1.98637, 2.07014, 2.0669, 2.06855, 2.06902, 2.08975, 1.98591, 2.09002, 2.06926, 1.98571, 2.06271, 2.06298, 2.06298, 2.06633, 2.05979, 2.0605, 2.06742, 2.0626, 2.06087, 2.07143, 2.08016, 1.91312, 2.09565, 1.91066, 1.95943, 1.96172, 1.96018, 1.91182, 1.91097, 1.91207, 1.91358, 2.01127, 1.91291, 2.09279, 1.91303, 1.91314, 1.9117, 1.91057, 2.10908, 1.90992, 1.90958, 2.10022, 1.9086, 2.0838, 2.09088, 1.90682, 1.93545, 1.88242, 1.93756, 1.93465, 1.82157, 1.81698, 1.81717, 1.81344, 1.92705, 1.80849, 1.80897, 1.94099, 1.80663, 1.85559, 1.80333, 1.80584, 1.80623, 1.85461, 1.80452, 1.85476, 1.80439, 1.93154, 1.80658, 1.93376, 1.9263, 1.9323, 1.80264, 1.8032, 1.80239
1.92472, 1.96017, 1.87512, 1.87519, 1.8692, 1.97164, 1.95806, 1.86702, 1.86385, 1.86437, 1.86202, 1.96495, 1.86032, 1.85969, 1.85771, 1.90492, 1.85492, 1.85259, 1.85152, 1.89927, 1.85104, 1.84791, 1.84757, 1.84701, 1.84646, 1.84502, 1.8485, 1.84915, 1.84852, 1.98978, 1.98743, 2.08983, 2.00708, 1.98369, 1.97839, 1.97873, 1.97504, 1.97274, 1.97268, 1.96942, 2.00799, 2.00808, 1.89013, 2.01078, 1.96585, 1.96318, 1.88963, 2.09944, 1.96869, 2.01195, 1.97088, 1.97929, 1.90825, 2.01108, 2.01028, 2.10707, 1.98251, 1.9845, 2.06928, 2.05508, 1.98221, 1.98147, 2.06274, 2.05988, 2.05596, 2.07264, 2.05912, 2.05908, 2.07478, 2.0704, 2.07752, 2.05868, 2.07673, 2.07214, 2.0772, 2.07888, 2.06815, 1.98663, 2.08633, 2.06307, 2.07539, 2.08239, 1.98714, 1.98664, 2.10415, 2.08052, 2.06341, 2.06237, 2.06838, 2.06381, 2.06389, 2.06415, 1.98466, 2.06539, 2.06215, 2.05838, 2.00187, 1.91292, 1.91179, 1.91137, 1.91063, 1.96158, 1.90952, 1.91036, 2.10347, 1.91151, 1.9121, 1.9105, 1.91202, 1.97601, 1.91205, 1.91256, 1.91018, 1.91064, 1.90776, 1.9115, 1.90937, 1.90859, 1.90561, 1.98922, 1.90662, 1.83557, 1.83317, 1.83113, 1.93693, 1.82088, 1.86702, 1.81649, 1.81315, 1.81204, 1.80777, 1.8064, 1.80806, 1.80329, 1.9197, 1.8063, 1.80288, 1.93867, 1.93533, 1.80433, 1.80671, 1.85659, 1.80376, 1.93526, 1.91395, 1.80174, 1.80387, 1.98091, 1.8594, 1.80034
1.92712, 1.87542, 1.876, 1.87619, 1.8686, 1.87194, 1.87214, 1.86714, 1.86675, 1.97178, 1.97034, 1.8649, 1.96886, 1.96251, 1.85911, 1.85626, 2.0469, 2.04534, 1.85171, 1.85422, 1.85182, 1.95885, 2.0342, 1.84818, 1.84812, 1.95213, 1.84752, 1.85094, 1.85196, 1.99083, 1.99274, 1.98478, 2.08718, 1.9828, 1.98279, 1.97879, 1.9771, 1.97269, 1.97214, 1.97204, 2.01129, 1.96553, 1.96686, 1.96612, 2.10268, 1.88966, 1.97255, 1.96932, 1.97092, 1.97324, 2.0114, 1.98119, 2.01403, 1.99072, 2.0095, 2.11695, 2.07398, 1.98291, 2.06017, 2.05717, 2.06885, 1.98195, 2.06001, 2.06158, 1.98235, 2.06871, 1.98192, 2.06721, 1.98241, 2.07313, 1.98301, 2.07186, 2.06655, 1.98603, 2.07286, 2.07369, 2.07296, 2.07691, 1.98752, 2.08251, 1.98614, 2.07248, 2.08639, 1.98582, 2.07264, 1.98609, 2.07615, 2.07211, 2.06968, 1.98334, 2.06257, 1.98568, 1.98396, 1.98321, 2.06305, 2.02808, 1.91521, 1.91316, 1.91172, 1.91316, 1.9099, 2.07937, 2.07669, 1.91078, 1.91143, 2.0997, 1.90972, 2.0932, 2.11094, 1.91171, 1.91338, 2.01115, 1.91319, 1.9102, 1.9087, 1.90956, 2.09697, 1.90764, 1.95846, 1.91272, 1.90717, 1.83685, 1.93595, 1.8261, 1.93537, 1.9373, 1.81736, 1.81632, 1.81374, 1.9374, 1.80852, 1.93536, 1.80919, 1.80706, 1.80609, 1.93195, 1.93162, 1.93037, 1.85532, 1.93458, 1.93417, 1.88177, 1.80415, 1.80612, 1.80494, 1.90336, 1.80472, 1.80167, 1.86156, 1.80212
1.92762, 1.87665, 1.93609, 1.87588, 1.87274, 1.87149, 1.87194, 1.87199, 1.87053, 1.86864, 1.9756, 1.91412, 1.86424, 1.86075, 2.04903, 1.85882, 1.85554, 1.85614, 1.85431, 1.85354, 1.90185, 1.85212, 1.96029, 1.84953, 1.84915, 1.85047, 1.85017, 1.85122, 1.94774, 1.99127, 1.98766, 1.91055, 1.98483, 1.98394, 2.00844, 1.97782, 2.01037, 1.97672, 2.00985, 1.97221, 2.01109, 1.96827, 1.96958, 2.08833, 2.01378, 1.9688, 1.96943, 1.89238, 1.97166, 1.97336, 2.1004, 1.90654, 2.10026, 1.99076, 2.09023, 2.11046, 2.06658, 1.98582, 2.06084, 1.98345, 1.98282, 2.05981, 2.06074, 2.06153, 1.98321, 2.0593, 2.08565, 2.07415, 1.98317, 2.07875, 2.06016, 2.06268, 2.07821, 1.98689, 2.076, 1.98732, 2.07604, 2.08637, 2.07655, 2.06245, 2.07436, 1.98865, 2.08013, 2.07916, 1.98563, 2.08041, 2.06262, 1.98462, 2.06184, 2.05996, 1.98571, 1.98375, 1.9852, 2.08022, 2.0727, 1.91689, 2.01702, 2.12213, 1.91245, 2.1096, 1.91042, 1.90984, 2.0787, 1.95994, 1.90853, 2.01409, 1.90892, 1.91019, 1.91299, 1.91004, 1.913, 2.07376, 1.96197, 1.90948, 1.90844, 1.91014, 1.91019, 1.90878, 1.90889, 2.00089, 1.90766, 1.83452, 1.83124, 1.92062, 1.93881, 1.94052, 1.93691, 1.81315, 1.81426, 1.80848, 1.80875, 1.80811, 1.80756, 1.80582, 1.935, 1.80383, 1.80368, 1.91843, 1.80369, 1.80418, 1.93619, 1.93082, 1.80585, 1.80681, 1.80438, 1.79975, 1.80057, 1.89939, 1.80195, 1.8007
1.87943, 1.93035, 1.87852, 1.87706, 1.87265, 1.87477, 1.87346, 1.87237, 1.97511, 2.05174, 1.86893, 1.86587, 1.97183, 1.91328, 1.96826, 1.86143, 2.0503, 1.85773, 1.85499, 1.85499, 1.85443, 1.85436, 1.85254, 1.8511, 1.8515, 1.85126, 1.84932, 1.85137, 1.90371, 1.98967, 1.91347, 1.98972, 1.98705, 1.98648, 2.01343, 1.97891, 1.97947, 1.90015, 1.97567, 2.01082, 2.08898, 1.96948, 2.09794, 1.96841, 2.01675, 2.09252, 2.09645, 1.89364, 2.01366, 2.01439, 2.0131, 2.09028, 1.98583, 2.01301, 2.01389, 2.11372, 2.06211, 2.06196, 2.06263, 2.06249, 1.98234, 2.06496, 1.98285, 2.06547, 2.06007, 2.06027, 1.98222, 1.98346, 2.07948, 1.98337, 2.06935, 1.98674, 2.07262, 2.0665, 1.98658, 2.07865, 2.0728, 2.07379, 2.07611, 2.06292, 2.07769, 2.08273, 2.07905, 2.05936, 2.08516, 2.06519, 1.98557, 2.06973, 2.06575, 2.05959, 1.983, 1.9833, 1.98377, 1.98454, 2.0621, 2.06905, 1.91495, 2.09642, 1.90979, 2.10963, 1.90977, 1.90924, 1.9589, 1.91064, 1.91017, 1.90864, 2.00794, 1.9132, 1.91296, 1.91349, 1.91016, 1.91088, 1.9107, 1.90968, 1.90864, 1.90988, 1.9104, 1.90684, 1.90977, 1.90995, 1.88911, 1.83467, 1.83094, 1.94424, 1.93894, 1.93769, 1.93728, 1.92339, 1.89936, 1.81063, 1.80962, 1.80941, 1.80735, 1.94122, 1.80326, 1.80274, 1.93261, 1.90306, 1.93158, 1.93225, 1.80641, 1.80447, 1.92066, 1.80402, 1.80327, 1.93216, 1.93024, 1.85157, 1.80233, 1.80078
1.93107, 1.92913, 1.98298, 1.87751, 1.97655, 1.97732, 1.97817, 1.86934, 1.87227, 1.86898, 1.86712, 1.86864, 1.86541, 1.86559, 2.05142, 1.97322, 1.85786, 1.92017, 1.90641, 1.90568, 1.85332, 1.85352, 1.96541, 1.95705, 1.85164, 1.84971, 1.85205, 2.12449, 1.85494, 1.91722, 1.991, 2.01438, 1.98946, 1.98698, 1.98351, 2.01366, 1.97997, 1.90271, 1.97412, 1.97318, 1.97196, 1.97075, 1.97031, 1.97213, 1.96802, 1.9704, 1.96808, 2.09825, 1.97187, 1.97591, 2.10769, 2.10339, 2.11375, 1.91395, 1.99485, 2.10747, 2.06573, 2.08884, 2.08644, 2.05646, 1.98299, 2.06552, 1.98366, 1.9831, 2.07963, 2.07348, 2.07237, 1.98564, 1.98597, 2.06245, 2.0768, 1.98693, 2.08008, 2.07617, 2.06267, 2.07407, 2.07325, 1.98905, 2.07211, 1.98946, 1.99152, 2.09305, 2.07869, 2.07811, 2.07786, 2.07531, 2.06351, 1.98552, 1.98473, 2.06291, 2.06218, 2.06007, 2.05962, 2.07269, 1.98348, 1.91569, 1.91361, 1.91274, 2.09707, 2.09742, 1.90585, 1.90985, 1.90937, 1.90791, 1.91047, 1.91039, 2.02817, 1.91357, 2.09782, 1.91133, 1.96196, 1.91358, 1.9115, 1.91037, 1.91153, 1.90801, 1.9075, 1.90852, 1.96134, 1.90905, 1.90514, 1.88536, 1.926, 1.82763, 1.8217, 1.94162, 1.81634, 1.86315, 1.92361, 1.86377, 1.80955, 1.80838, 1.80622, 1.93792, 1.85582, 1.80355, 1.8058, 1.80408, 1.80669, 1.806, 1.93746, 1.80592, 1.8032, 1.85544, 1.92961, 1.80377, 1.80344, 1.85318, 1.91354, 1.91279
1.87968, 1.87947, 1.88007, 1.98415, 1.99764, 1.87657, 1.92726, 1.8734, 1.87391, 1.97231, 1.87201, 2.05234, 1.95944, 1.86867, 1.8646, 1.91266, 1.86123, 1.95712, 2.02969, 1.85618, 1.85431, 1.85399, 2.03573, 2.03858, 1.96189, 1.85277, 1.85475, 2.03187, 1.85674, 1.99749, 1.99262, 1.99312, 2.01507, 1.98643, 2.01396, 2.10758, 2.0151, 1.98025, 1.97779, 1.97355, 1.97312, 1.97209, 1.97202, 1.96903, 2.01679, 1.89381, 1.9715, 2.01773, 1.97582, 1.97719, 1.98198, 1.98089, 1.98886, 1.99134, 2.09505, 2.09642, 2.06542, 2.10036, 2.09003, 2.05917, 1.98341, 1.98418, 1.98619, 2.06819, 2.06306, 2.0623, 2.06211, 2.07735, 2.08676, 1.98602, 2.0753, 2.08426, 1.98658, 2.0684, 2.09314, 2.06682, 2.06616, 2.07429, 2.07042, 2.07325, 2.08901, 2.09055, 1.98926, 1.98826, 2.066, 2.07873, 2.07976, 2.06945, 1.98546, 2.08293, 1.98872, 1.98273, 1.98453, 2.07638, 2.05918, 2.07585, 1.91442, 1.91388, 1.91, 1.90958, 1.90759, 1.90925, 1.90953, 1.90842, 2.091, 1.91071, 1.91186, 1.96882, 1.91006, 1.91367, 2.09389, 1.91064, 1.91104, 1.9086, 1.91001, 1.90978, 1.91024, 1.90803, 1.90992, 2.08063, 2.08638, 1.88525, 1.83024, 1.93746, 1.87227, 1.86983, 1.86795, 1.81367, 1.8101, 1.81026, 1.80793, 1.80674, 1.8045, 1.92217, 1.80652, 1.92015, 1.90318, 1.80343, 1.93512, 1.80304, 1.80405, 1.91841, 1.80535, 1.85429, 1.8072, 1.80529, 1.93186, 1.80318, 1.85345, 1.85065
1.88356, 1.88186, 1.98524, 1.88, 1.99382, 1.87998, 1.92893, 1.87544, 1.87329, 1.87303, 1.872, 1.96894, 1.97901, 1.97376, 1.86556, 1.86549, 1.86246, 1.86148, 1.91037, 1.86065, 1.8579, 1.90696, 1.85491, 1.90523, 1.85341, 1.85393, 1.85387, 1.85826, 1.85851, 1.99602, 1.91931, 1.99316, 1.98988, 2.01582, 1.98615, 1.98434, 2.09398, 2.01647, 1.97896, 1.97605, 1.9763, 1.9739, 2.10417, 1.9717, 1.96936, 1.9713, 1.97253, 1.89616, 1.97604, 1.90059, 2.01801, 1.98302, 2.01657, 1.99465, 1.9963, 2.11043, 2.0839, 2.08832, 1.98744, 2.07921, 1.98489, 1.98588, 1.98392, 2.06283, 2.06148, 2.08642, 2.10356, 2.08284, 2.07711, 2.06253, 2.08075, 2.07565, 1.98735, 2.07439, 2.09767, 2.08402, 2.09003, 1.98658, 2.07616, 2.07334, 2.07671, 2.07948, 1.98942, 2.08067, 2.08162, 2.0738, 1.98616, 2.06293, 2.06346, 2.08195, 1.98462, 1.98408, 1.9842, 2.06472, 2.08407, 1.9176, 1.91678, 1.96254, 1.91231, 1.91035, 1.90995, 1.91014, 1.90786, 2.01701, 1.91019, 1.90974, 1.91072, 1.91166, 1.9131, 1.91135, 1.90978, 1.91071, 1.99408, 1.96025, 1.95835, 1.90887, 1.90828, 1.90842, 1.90962, 1.9079, 1.89212, 1.83461, 1.92509, 1.82463, 1.8215, 1.89713, 1.81374, 1.81261, 1.81148, 1.9359, 1.8074, 1.80744, 1.80697, 1.85516, 1.80544, 1.80397, 1.93704, 1.93192, 1.80605, 1.80363, 1.80427, 1.80268, 1.93052, 1.85462, 1.80403, 1.93323, 1.80358, 1.80005, 1.79997, 1.92798
1.88277, 1.97613, 1.88565, 1.88115, 1.9325, 1.93191, 1.87868, 1.87611, 1.87574, 1.87354, 2.05505, 1.87241, 1.98227, 1.97544, 1.86935, 1.91542, 1.91495, 1.91374, 1.95919, 1.85847, 2.04972, 1.85624, 1.85636, 1.85575, 1.85649, 1.9061, 1.95492, 1.90714, 1.8574, 1.99925, 2.09479, 1.99314, 2.01685, 2.01708, 1.98664, 1.90989, 1.98311, 1.98067, 1.98188, 1.97676, 1.97672, 1.97552, 1.89683, 1.97228, 1.97012, 1.89466, 1.97123, 1.97335, 1.9753, 1.97521, 1.98348, 1.98523, 2.01772, 1.99636, 2.01753, 2.10667, 2.08341, 2.0793, 2.09093, 2.07829, 1.9861, 1.98692, 2.06344, 2.06343, 2.06319, 2.06446, 2.08628, 2.06311, 2.07841, 2.08407, 2.08005, 2.07619, 2.08408, 1.98824, 2.0735, 2.06663, 2.08057, 1.98926, 2.08247, 2.07277, 1.98912, 1.98994, 2.07689, 2.07976, 1.98866, 1.98924, 2.06228, 1.987, 1.98585, 1.98611, 1.98407, 1.98328, 1.98535, 1.98328, 2.07345, 1.91516, 1.91605, 1.96338, 1.96212, 1.91047, 2.01312, 1.90976, 1.90829, 1.91122, 1.90994, 1.91069, 1.91112, 1.91115, 1.91258, 1.91079, 1.91137, 2.00479, 2.00363, 1.90961, 1.90983, 1.91032, 2.11143, 1.9066, 1.90671, 2.07578, 1.90748, 1.83435, 1.8268, 1.93873, 1.94386, 1.81888, 1.81691, 1.81246, 1.81037, 1.80741, 1.80791, 1.93849, 1.94462, 1.80596, 1.85476, 1.91894, 1.80118, 1.93422, 1.93432, 1.80241, 1.93197, 1.8061, 1.80643, 1.92222, 1.80497, 1.80248, 1.80279, 1.803, 1.80043, 1.80114
1.88793, 1.88554, 2.0667, 1.88353, 1.87879, 1.88136, 1.88061, 1.87959, 1.87528, 1.8755, 1.92645, 1.98399, 1.87197, 2.05898, 1.97564, 1.86609, 1.86854, 1.91519, 1.86274, 1.86204, 1.858, 1.85832, 1.85824, 2.02743, 1.90867, 1.90707, 1.85843, 1.85858, 1.95196, 1.9972, 1.99627, 1.99681, 1.99344, 2.0186, 1.98791, 1.91038, 1.90716, 2.02104, 2.09433, 1.97751, 1.90013, 1.89977, 2.0173, 1.97385, 1.97336, 2.02078, 1.97328, 1.97305, 2.10414, 1.97929, 1.9817, 1.98582, 2.01831, 1.91907, 1.92473, 1.94596, 2.09307, 1.99024, 2.07991, 2.09374, 1.98693, 1.98685, 2.06665, 2.06561, 1.98738, 2.06427, 2.06412, 2.06502, 2.06324, 1.98834, 2.07628, 2.07708, 2.07358, 2.07298, 2.07652, 1.9909, 1.99103, 2.07478, 2.08329, 2.0737, 1.98945, 1.99033, 2.07443, 2.07319, 2.07364, 2.08593, 2.08091, 2.0659, 2.08411, 2.07596, 1.98618, 1.98601, 2.06311, 2.06234, 1.98451, 1.91928, 1.91726, 2.01056, 1.91174, 2.02033, 1.90807, 1.90955, 1.9074, 1.9073, 2.10208, 1.90837, 1.91028, 1.9121, 1.96177, 2.00418, 1.91098, 2.0149, 1.90943, 2.00465, 1.95856, 1.91023, 1.90739, 1.9079, 1.90611, 1.90953, 1.94048, 1.83125, 1.94461, 1.82297, 1.94026, 1.81762, 1.81409, 1.81357, 1.94116, 1.80923, 1.80825, 1.93816, 1.80796, 1.91999, 1.80501, 1.80364, 1.80258, 1.8059, 1.93363, 1.80417, 1.91133, 1.91806, 1.8038, 1.92161, 1.92686, 1.80296, 1.8032, 1.8026, 1.80158, 1.92516
1.8859, 1.93781, 1.88632, 1.8856, 1.88263, 1.8825, 1.88159, 1.98705, 1.87841, 1.98867, 1.87942, 2.05847, 1.92364, 1.87254, 1.87231, 1.8702, 1.8672, 1.86287, 1.86491, 1.8622, 1.85971, 2.04855, 1.90957, 1.9093, 1.85841, 1.85958, 1.85868, 1.86171, 1.99998, 2.00049, 1.92109, 2.01968, 2.02044, 1.99083, 1.99206, 2.02072, 2.02108, 1.98565, 1.90352, 1.97644, 1.9771, 2.02398, 1.97409, 1.97302, 2.02122, 1.97374, 1.97416, 2.10987, 1.90058, 1.9775, 1.90473, 2.10617, 1.91451, 1.99371, 2.02109, 2.11169, 2.08277, 1.99303, 2.07989, 1.98783, 1.98664, 1.9885, 1.98694, 2.06543, 2.08916, 2.07663, 2.07974, 2.07777, 2.08267, 1.98931, 1.98968, 1.98982, 2.07407, 2.08382, 1.99257, 1.99312, 2.07924, 2.09431, 2.0796, 2.06303, 2.08168, 2.07327, 2.09714, 2.06914, 1.98821, 1.98939, 2.08298, 1.9874, 1.9855, 1.98602, 1.98866, 1.98734, 2.06587, 2.06353, 2.07725, 2.07611, 1.91315, 1.91253, 1.91369, 1.90855, 1.9078, 1.90787, 1.90623, 1.90922, 1.907, 2.01829, 1.90862, 1.90991, 1.91071, 2.0097, 1.91077, 1.90922, 2.01061, 2.10249, 1.90645, 1.90583, 1.90963, 1.9077, 1.90729, 1.90943, 1.83381, 1.94175, 1.82594, 1.82345, 1.81834, 1.93107, 1.81385, 1.86186, 1.81155, 1.80787, 1.85862, 1.80707, 1.80592, 1.80559, 1.85481, 1.80646, 1.80433, 1.93447, 1.93057, 1.80253, 1.80556, 1.9212, 1.8007, 1.80082, 1.92636, 1.85783, 1.85584, 1.80082, 1.79923, 1.79618
1.88954, 1.88666, 1.88612, 1.88513, 1.88588, 1.88451, 1.88597, 1.88405, 1.88215, 1.88131, 2.06672, 1.98501, 1.92562, 1.87549, 1.87386, 2.0559, 1.96828, 2.06026, 2.06556, 1.86514, 1.86304, 1.86423, 1.86106, 1.86133, 2.04532, 1.85816, 2.04141, 1.86129, 1.86388, 1.99979, 1.99809, 1.99611, 2.02079, 1.91555, 1.91404, 2.10601, 2.02105, 1.90758, 1.98286, 2.11163, 1.97939, 2.02041, 1.97574, 1.89973, 1.89982, 1.97629, 1.9732, 2.02258, 1.9767, 1.98128, 1.90774, 1.98542, 2.02094, 2.01801, 2.0033, 2.12475, 2.08067, 2.09032, 2.08375, 2.08725, 1.98927, 1.98828, 2.06675, 2.06643, 1.98869, 2.08244, 1.98932, 2.07941, 2.08598, 1.98952, 2.06618, 2.0737, 1.99273, 2.07185, 2.07999, 2.07797, 2.08756, 2.07287, 1.99048, 2.07757, 2.08729, 2.08406, 2.08339, 2.07226, 2.08535, 2.07939, 2.09066, 2.07472, 2.07748, 2.06501, 1.98531, 2.06919, 2.06871, 2.06666, 2.06321, 1.96826, 1.91496, 1.91276, 1.91222, 1.9094, 1.90973, 1.90846, 1.90767, 1.90729, 2.02119, 1.90731, 2.00957, 1.91, 2.00713, 1.91064, 2.01222, 1.90962, 1.90811, 2.11028, 2.12517, 1.90694, 1.90798, 1.90827, 1.9088, 1.9079, 1.93229, 1.83074, 1.82412, 1.92707, 1.81696, 1.81449, 1.81278, 1.86277, 1.8965, 1.93944, 1.80664, 1.80674, 1.93717, 1.92743, 1.80636, 1.80448, 1.93435, 1.89936, 1.7999, 1.93411, 1.93031, 1.92335, 1.80156, 1.80075, 1.9316, 1.85699, 1.85375, 1.80215, 1.79933, 1.79965
1.89105, 1.88787, 1.88806, 1.88883, 1.88745, 1.88916, 1.88516, 1.8835, 1.97477, 1.93145, 1.87981, 1.87934, 1.87566, 1.87633, 1.924, 1.87249, 2.06627, 1.98104, 1.86884, 1.86669, 1.86384, 1.8629, 2.15191, 1.86129, 1.86218, 2.0561, 1.86364, 2.03928, 2.00251, 1.92374, 2.00025, 1.99894, 1.99697, 1.91784, 2.02184, 1.99057, 2.11423, 1.98444, 1.98413, 1.90597, 2.02436, 1.97688, 1.97595, 1.89999, 2.02213, 2.11781, 2.0232, 1.97678, 2.10765, 1.98024, 1.90694, 1.98787, 1.99607, 1.99921, 2.02119, 2.02099, 2.08706, 2.09589, 2.0918, 2.07598, 1.99116, 1.98959, 2.07279, 2.06623, 2.08666, 2.08197, 1.98997, 1.99141, 2.08367, 2.06804, 2.08264, 2.08956, 1.99302, 2.07099, 2.08651, 2.08172, 2.09687, 2.09366, 2.08293, 2.08732, 2.07446, 1.99298, 2.10113, 2.08532, 1.99013, 1.98994, 2.09103, 2.07404, 2.0881, 1.9866, 1.98759, 1.98656, 2.06514, 2.067, 1.98561, 1.9188, 1.91429, 1.9127, 1.90934, 2.11407, 1.90765, 1.90651, 1.90418, 1.90784, 1.90827, 1.90882, 1.95902, 2.00475, 2.00744, 1.95943, 2.095, 1.91028, 1.90843, 1.90718, 2.09134, 1.90728, 1.90744, 1.91348, 1.90802, 1.90984, 1.90948, 1.82876, 1.82447, 1.94122, 1.81801, 1.8161, 1.81284, 1.86132, 1.80955, 1.92431, 1.94077, 1.93785, 1.80608, 1.80632, 1.80671, 1.93667, 1.93473, 1.85344, 1.8011, 1.80047, 1.80202, 1.80031, 1.92927, 1.93437, 1.80008, 1.8564, 1.85545, 1.7997, 1.79983, 1.79899
1.94159, 1.89007, 1.89236, 1.93911, 1.93823, 1.88659, 1.88946, 1.8838, 1.96276, 1.93267, 1.93165, 1.87985, 2.0723, 2.06304, 1.87546, 1.98288, 1.87184, 1.86703, 1.98393, 1.91649, 2.06633, 1.86311, 1.86296, 1.91374, 1.86489, 1.86283, 1.86295, 1.86525, 1.86587, 1.92685, 2.00157, 2.00013, 1.92096, 1.9945, 1.99139, 1.9915, 1.98657, 1.98671, 1.98597, 1.98196, 1.97909, 1.9033, 1.97851, 1.97533, 1.97735, 2.02324, 1.97789, 1.90395, 1.98073, 1.98104, 2.024, 1.98597, 1.99374, 2.00076, 2.02365, 2.11767, 1.99294, 2.09529, 2.06941, 2.06898, 1.99003, 2.06845, 2.06925, 2.06594, 2.07499, 2.08341, 1.99063, 1.99007, 2.09082, 2.06733, 2.08439, 2.08245, 2.07664, 2.0833, 2.07667, 2.06857, 1.9929, 2.0836, 2.08274, 2.07963, 2.10078, 2.08098, 2.08109, 2.08157, 1.99092, 1.99042, 2.06513, 2.08072, 2.07975, 2.06999, 1.98631, 1.98674, 2.06697, 2.06715, 2.06432, 1.91999, 1.91693, 1.911, 1.9114, 1.90957, 1.90789, 1.90656, 1.90774, 1.90429, 1.90691, 2.11086, 2.10041, 1.90723, 2.0069, 1.95929, 1.90864, 1.95907, 1.90963, 1.9101, 1.90729, 1.90483, 1.90763, 2.00656, 1.95909, 1.90787, 1.82888, 1.82672, 1.82349, 1.94174, 1.81797, 1.815, 1.81263, 1.81084, 1.80983, 1.85888, 1.94198, 1.80638, 1.8067, 1.80586, 1.93482, 1.8043, 1.93269, 1.92161, 1.93304, 1.93004, 1.80243, 1.7996, 1.79935, 1.79757, 1.80022, 1.85561, 1.85532, 1.92554, 1.92409, 1.92752
1.89402, 2.01971, 1.89304, 1.99758, 1.99545, 1.89058, 1.88913, 1.88737, 1.88692, 1.99178, 1.93308, 1.88095, 1.88149, 1.88043, 1.98031, 1.9245, 1.92406, 1.92199, 1.9859, 1.94575, 1.92017, 1.86615, 1.86523, 1.86606, 1.86607, 1.96145, 1.86545, 1.86701, 2.02943, 1.92892, 2.02827, 2.00241, 1.99917, 1.99714, 1.99584, 1.91664, 1.91506, 1.98789, 1.98323, 1.98564, 1.98102, 1.98037, 2.02733, 1.90379, 1.97922, 1.97633, 1.97689, 1.97954, 1.97981, 1.98302, 1.98469, 1.98996, 1.91677, 2.10045, 2.02203, 2.0243, 2.08995, 2.08668, 2.07966, 2.07922, 1.99158, 2.06845, 1.99093, 1.9915, 2.0835, 2.07764, 2.09216, 2.09371, 2.08649, 2.07692, 2.07081, 1.99321, 2.09038, 1.99288, 1.99238, 1.99356, 2.07863, 2.08374, 1.99221, 2.07708, 2.06939, 2.07891, 2.08088, 1.99183, 2.07994, 2.07958, 2.07991, 1.98871, 1.989, 2.07536, 1.98777, 1.98672, 1.98683, 2.06375, 2.067, 2.05802, 1.91654, 1.9108, 1.91046, 1.91018, 1.90472, 1.90534, 1.90466, 1.9054, 1.90513, 1.90648, 1.90748, 1.90769, 1.90691, 1.9076, 1.91019, 1.90646, 1.90701, 1.90745, 2.12006, 1.9087, 1.90829, 1.90649, 1.90776, 2.09614, 1.83139, 1.8254, 1.82282, 1.81951, 1.81412, 1.81345, 1.94148, 1.94061, 1.9414, 1.80881, 1.80709, 1.80752, 1.80688, 1.80359, 1.804, 1.80317, 1.80232, 1.80327, 1.80075, 1.80077, 1.92749, 1.8005, 1.79993, 1.79881, 1.79968, 1.85314, 1.79978, 1.7981, 1.92697, 1.79732
1.89654, 1.94285, 1.89209, 2.00143, 1.89239, 2.0021, 1.95064, 1.95123, 1.88909, 1.88525, 1.8861, 1.93202, 1.88059, 1.98971, 1.98545, 1.87298, 1.98655, 1.92379, 1.92344, 1.98783, 1.869, 1.97975, 1.86576, 1.86684, 1.86835, 1.86834, 1.9161, 1.91703, 2.0062, 2.02905, 2.00369, 2.00293, 1.99853, 1.92089, 1.99916, 1.99143, 2.02772, 1.98813, 1.98686, 1.98549, 1.98228, 1.98262, 2.02852, 1.98232, 1.98124, 1.97871, 1.97963, 1.90328, 1.98091, 1.98853, 1.91048, 2.02608, 1.99424, 2.00152, 2.022, 2.10566, 1.99433, 2.07252, 2.08062, 2.07574, 2.07031, 1.99319, 1.99201, 1.99118, 2.08619, 1.99143, 2.07573, 2.06858, 2.07985, 2.07651, 2.07087, 2.08352, 2.07572, 2.09349, 2.07982, 2.07693, 2.07586, 2.08611, 2.08438, 2.08352, 2.08528, 2.07622, 2.08193, 1.9925, 1.99122, 1.99093, 1.99101, 2.08554, 2.07065, 2.08051, 1.98907, 1.98713, 1.98545, 1.98637, 2.06276, 1.91855, 2.02819, 2.02377, 2.12144, 1.90765, 1.90571, 2.03881, 2.02021, 1.90292, 1.90535, 1.99292, 2.09052, 1.90826, 1.90744, 2.01141, 1.90913, 1.9082, 1.95857, 1.95759, 1.9066, 1.90746, 1.90969, 1.95837, 1.90813, 1.90869, 1.82901, 1.82771, 1.82184, 1.82019, 1.81646, 1.81245, 1.9431, 1.88338, 1.91077, 1.80742, 1.80793, 1.93563, 1.80357, 1.803, 1.80356, 1.80503, 1.80279, 1.79972, 1.92425, 1.9309, 1.91705, 1.84849, 1.79961, 1.79925, 1.79995, 1.89958, 1.89776, 1.92783, 1.92527, 1.92424
1.8968, 2.0101, 2.01319, 1.8924, 1.89269, 2.02067, 1.88987, 1.93969, 2.00268, 1.88848, 1.98661, 1.97263, 1.8838, 1.88082, 1.88073, 1.9276, 1.8761, 1.87568, 1.87208, 1.87126, 1.86895, 1.98307, 2.05682, 1.91711, 1.86897, 1.86699, 1.91728, 1.9541, 1.93327, 2.00701, 2.00549, 2.00278, 1.92458, 2.02819, 1.99488, 1.99395, 1.98821, 1.98862, 1.98883, 1.98798, 1.98551, 1.98108, 2.11511, 1.90326, 2.1153, 1.98002, 1.98051, 1.97992, 2.02558, 2.0288, 2.02627, 1.99148, 1.92063, 1.99976, 2.01055, 2.11533, 1.99667, 2.07275, 2.08395, 2.07434, 2.07142, 1.99135, 1.99129, 1.99207, 2.06906, 2.086, 2.06962, 1.99228, 2.08299, 1.99376, 2.08937, 1.99646, 2.07857, 2.06909, 1.9961, 2.08517, 2.09076, 2.08819, 1.99329, 2.07376, 2.07348, 2.0903, 2.0785, 2.08991, 2.07088, 1.99127, 2.08988, 2.06951, 2.0659, 2.07683, 1.98729, 1.98512, 1.98653, 2.07321, 2.06406, 2.12481, 1.91589, 1.91393, 2.02126, 1.90747, 2.02071, 1.90368, 1.90651, 1.90074, 2.01746, 2.01025, 1.90561, 1.90557, 1.90725, 1.99688, 2.08719, 1.90718, 2.01791, 1.90729, 1.90617, 1.90843, 1.90787, 2.08745, 1.90877, 1.90869, 1.9275, 1.97575, 1.81978, 1.81801, 1.81571, 1.94402, 1.81038, 1.81092, 1.80776, 1.80825, 1.80488, 1.93779, 1.80565, 1.80077, 1.93131, 1.93187, 1.80174, 1.79909, 1.85448, 1.79971, 1.7999, 1.79756, 1.93198, 1.93038, 1.90721, 1.84738, 1.79857, 1.92865, 1.79671, 1.92432
1.89971, 2.15951, 1.89317, 1.89349, 2.16288, 1.89096, 1.89264, 1.89143, 2.07947, 1.89019, 1.88533, 1.99629, 1.88328, 1.93258, 1.99299, 1.88078, 1.87791, 1.87503, 1.87437, 1.86954, 1.98446, 2.06002, 1.96974, 1.86854, 1.86637, 1.86879, 1.86826, 1.87018, 1.86969, 2.00887, 1.93145, 2.00439, 1.92647, 1.99789, 1.99747, 1.99962, 1.99281, 1.98987, 1.99088, 1.98819, 1.90813, 1.98263, 1.98296, 1.90414, 1.97994, 1.97959, 1.98155, 1.98052, 1.90733, 2.02845, 1.98883, 1.99408, 2.12516, 2.00272, 2.02493, 2.11364, 1.99647, 2.0754, 2.07695, 2.0742, 2.0723, 1.99332, 2.07181, 2.06767, 2.07206, 2.07395, 2.07009, 2.07648, 2.08973, 2.08926, 2.09075, 2.09261, 2.08647, 2.08371, 2.08017, 1.99523, 2.07612, 1.99399, 2.07884, 2.09459, 2.07252, 2.08368, 2.06808, 2.07775, 2.0738, 1.99174, 2.08618, 2.09348, 2.06786, 1.99049, 1.99012, 1.98876, 1.98735, 1.98923, 2.08538, 1.9172, 1.91508, 2.02305, 2.0217, 2.02176, 1.90312, 1.90441, 1.9038, 1.90148, 1.90343, 1.90258, 2.10713, 1.90402, 1.95637, 1.95675, 1.99908, 1.90668, 2.01358, 1.90744, 1.9067, 2.00826, 1.90695, 1.95788, 1.95747, 1.90847, 2.00033, 1.99879, 1.82009, 1.81494, 1.81303, 1.9448, 1.8115, 1.80977, 1.80695, 1.93704, 1.80357, 1.80626, 1.80652, 1.93403, 1.80142, 1.80303, 1.80026, 1.85249, 1.80088, 1.79925, 1.9203, 1.7973, 1.79682, 1.84849, 1.92332, 1.79715, 1.84749, 1.91388, 1.79644, 1.92739
1.89962, 2.16634, 1.89673, 2.08949, 1.89581, 2.00325, 2.08355, 1.89464, 1.88926, 2.00275, 2.08135, 2.00091, 1.88591, 1.88415, 1.99328, 1.88092, 1.87897, 1.87692, 1.87729, 1.87348, 1.87444, 2.06427, 1.87022, 1.9199, 1.87042, 1.87083, 1.87171, 1.87389, 1.87157, 1.93437, 2.00711, 2.00669, 1.92613, 2.00207, 1.99872, 1.99524, 1.91726, 1.99173, 2.03232, 2.03328, 1.98671, 2.03179, 2.03051, 1.98616, 2.03192, 1.98281, 1.98272, 1.98252, 1.98847, 1.98594, 1.91284, 2.10503, 1.92322, 2.0017, 2.00404, 2.02601, 1.99852, 2.07659, 2.07235, 2.07302, 2.07267, 1.9963, 1.99415, 1.99393, 1.99249, 2.08347, 2.08811, 2.0982, 2.08696, 2.08299, 1.99605, 2.08388, 1.99606, 2.09391, 2.0755, 2.07701, 1.99615, 2.07073, 2.09048, 2.08747, 1.99316, 2.08456, 2.09677, 2.07941, 1.99303, 1.99252, 2.08248, 2.08917, 2.08079, 2.07779, 1.98714, 2.06603, 1.98648, 2.06709, 1.98642, 2.02917, 2.01877, 2.02427, 2.10594, 2.02362, 1.90525, 1.90383, 1.90034, 1.9006, 1.90339, 1.90289, 1.90189, 2.01846, 2.09752, 2.01029, 2.0175, 2.01766, 1.90496, 2.1216, 1.90693, 1.90752, 1.90708, 1.90769, 1.90459, 1.91006, 1.9242, 1.92616, 1.8206, 1.94304, 1.94467, 1.8109, 1.80969, 1.93483, 1.90562, 1.806, 1.80628, 1.93488, 1.93507, 1.80301, 1.93571, 1.80171, 1.7999, 1.9317, 1.79916, 1.92044, 1.9285, 1.92518, 1.93402, 1.7973, 1.92735, 1.79694, 1.79703, 1.79638, 1.79618, 1.79401
1.90282, 1.90024, 2.16627, 1.89677, 1.89411, 1.89381, 2.18006, 2.16633, 2.08253, 1.89067, 1.88902, 1.99985, 1.88439, 1.93378, 1.98402, 1.88357, 1.87754, 1.87968, 1.8778, 1.87566, 1.87513, 1.8742, 1.87203, 1.92145, 1.98324, 1.87234, 1.87215, 1.87197, 1.96517, 2.03768, 1.93565, 1.93091, 2.03492, 2.00248, 2.11794, 2.00354, 1.99646, 2.12165, 1.98933, 1.98984, 2.03073, 1.986, 2.11071, 1.98652, 1.98347, 1.90678, 1.98547, 1.90794, 2.1101, 1.91146, 1.99297, 2.10649, 2.00097, 2.00243, 2.10461, 2.02709, 2.08646, 1.99973, 2.08402, 1.99808, 2.07698, 2.07253, 1.99485, 1.99429, 2.07244, 2.0941, 2.09036, 2.10382, 2.08399, 2.08, 2.09333, 2.08826, 2.08422, 2.08973, 2.08355, 2.07348, 2.07975, 2.07834, 2.08888, 2.08361, 1.99572, 2.08745, 2.08018, 2.07906, 2.09073, 2.06895, 2.08406, 2.08476, 1.98976, 2.07265, 1.98883, 1.99024, 1.98889, 2.06955, 2.07175, 2.02861, 1.91453, 1.91122, 1.90935, 1.90603, 2.02672, 1.90292, 1.90002, 2.02028, 2.01365, 1.95225, 1.90354, 2.11514, 1.90649, 1.95595, 1.90428, 2.00688, 2.00611, 1.95999, 1.90637, 1.90927, 1.90693, 1.90859, 1.96634, 1.95803, 1.82087, 1.87197, 1.89258, 1.81559, 1.81171, 1.81028, 1.81003, 1.94228, 1.80396, 1.80745, 1.93773, 1.93651, 1.93542, 1.80386, 1.9368, 1.93354, 1.80047, 1.79946, 1.80091, 1.79885, 1.79882, 1.84868, 1.79754, 1.79395, 1.79681, 1.79542, 1.79698, 1.84443, 1.79517, 1.92142
1.95542, 1.95316, 1.95199, 1.8997, 1.94836, 1.89627, 1.89663, 1.89599, 1.89583, 2.00468, 1.99714, 1.88798, 1.88624, 1.88555, 1.93405, 1.88314, 1.87971, 1.93041, 1.92828, 2.07837, 1.9667, 1.87296, 1.87284, 1.87342, 1.87272, 1.87243, 1.92408, 2.04919, 2.04333, 2.01526, 2.01065, 2.0089, 2.00625, 2.00641, 2.00067, 1.99657, 1.91989, 1.99328, 1.99124, 1.91416, 1.98733, 1.98821, 1.98971, 1.98295, 1.98199, 1.90768, 1.90741, 1.91008, 2.10961, 2.03173, 2.03251, 1.99395, 2.0009, 2.00388, 2.02994, 2.13541, 2.08898, 2.09421, 2.09606, 2.09632, 2.07644, 1.99502, 1.99723, 2.09367, 2.07189, 2.07972, 1.99652, 1.99709, 1.99663, 2.08447, 1.99763, 1.99809, 1.99747, 1.99827, 2.08789, 2.08681, 2.08679, 2.08032, 2.08603, 1.99683, 2.09301, 2.08343, 2.09457, 2.09524, 2.07212, 2.07181, 2.07634, 2.0938, 1.98996, 1.98887, 1.98776, 1.98897, 1.99002, 1.98732, 1.98905, 2.07552, 1.91551, 1.9091, 2.01705, 1.90581, 1.90189, 1.90295, 2.09999, 2.0017, 1.90027, 1.95221, 1.90245, 2.13108, 1.90305, 1.90509, 2.01452, 2.006, 1.95492, 1.9575, 1.90691, 1.90669, 1.9054, 1.90757, 1.90683, 1.90796, 1.87519, 1.87151, 1.81492, 1.93572, 1.8119, 1.80957, 1.86042, 1.81008, 1.93399, 1.8073, 1.80649, 1.93834, 1.91132, 1.93222, 1.93483, 1.80142, 1.89908, 1.79957, 1.80005, 1.92715, 1.79787, 1.79694, 1.92808, 1.79712, 1.79515, 1.79538, 1.79535, 1.93048, 1.79268, 1.79586
2.00946, 1.98766, 1.99502, 1.95098, 1.89959, 1.89733, 1.89824, 1.89841, 1.89575, 1.89439, 1.94231, 1.94143, 1.88867, 1.88689, 1.88583, 1.884, 1.88234, 1.93027, 1.97888, 1.87616, 1.87701, 1.98941, 1.87513, 2.06239, 1.98232, 1.87402, 1.87306, 2.05147, 1.8759, 2.01446, 2.01345, 2.0117, 2.03779, 2.0042, 2.03636, 1.99913, 2.03634, 1.99486, 1.99424, 1.99608, 2.03484, 1.98704, 1.98549, 1.91062, 1.98604, 1.98303, 1.98603, 1.98681, 1.98694, 1.9889, 1.99299, 1.99476, 2.03241, 2.00601, 1.93598, 2.1247, 2.00336, 2.00028, 2.08082, 2.08386, 1.99769, 1.9978, 1.99488, 1.99683, 2.07272, 2.07244, 2.07995, 2.08768, 2.08324, 2.09313, 2.08245, 2.07522, 2.07401, 2.07612, 2.08235, 1.99752, 2.07361, 2.08235, 2.0827, 2.08866, 2.08086, 2.08302, 2.10786, 1.99336, 2.08042, 2.07871, 1.99214, 2.07811, 1.99177, 2.06873, 2.06907, 2.06719, 1.98854, 1.9899, 2.076, 2.03071, 1.91194, 2.02339, 1.90583, 2.02451, 1.90354, 1.90072, 2.1204, 1.89919, 2.02318, 1.89992, 1.89939, 1.89995, 1.90133, 1.90349, 1.90613, 1.90495, 1.90678, 1.90391, 1.95527, 1.90655, 1.90705, 1.90695, 1.90747, 1.90763, 1.82083, 1.81643, 1.81617, 1.93494, 1.93107, 1.81032, 1.92906, 1.85679, 1.8083, 1.90255, 1.80384, 1.93262, 1.8534, 1.85163, 1.80152, 1.80114, 1.79968, 1.79862, 1.93332, 1.93202, 1.84973, 1.79524, 1.79323, 1.79362, 1.93126, 1.89604, 1.92907, 1.79346, 1.92528, 1.91362
2.01414, 2.04372, 1.95461, 1.90374, 1.99705, 1.95114, 1.94874, 1.89786, 1.89595, 1.89581, 1.94476, 2.01391, 2.00711, 1.88822, 2.08551, 2.07229, 1.88534, 1.99789, 1.93089, 1.92782, 1.92737, 1.98744, 1.98735, 1.87552, 1.87592, 1.87499, 1.87547, 1.87907, 1.94179, 1.93925, 1.9381, 2.04279, 2.12161, 2.00665, 2.0393, 2.00086, 1.92147, 2.03733, 1.99498, 2.03749, 1.91343, 1.98964, 1.98797, 1.91096, 1.98513, 1.98667, 1.98615, 1.98574, 2.11127, 1.91391, 1.9962, 1.99852, 2.11079, 2.00785, 1.93424, 2.12844, 2.09528, 2.07933, 2.07873, 2.08526, 1.9979, 1.99683, 1.99508, 1.99754, 2.08841, 2.08318, 2.07191, 1.99899, 2.0879, 1.99679, 1.99784, 2.08304, 2.09678, 2.10721, 1.99937, 2.09231, 2.07712, 2.08908, 2.08818, 1.9968, 2.09127, 2.07668, 2.09252, 2.07293, 1.99578, 2.08079, 2.08384, 2.06857, 2.06772, 1.99022, 1.98958, 1.99073, 1.98852, 2.09995, 2.07677, 1.91577, 1.91174, 1.90762, 1.90573, 1.90378, 1.90235, 2.00808, 1.90002, 1.89946, 1.89836, 1.89843, 2.11061, 2.11066, 2.10127, 1.95563, 2.10044, 1.90579, 2.00676, 1.90581, 1.90561, 1.90732, 1.90631, 1.90228, 1.90668, 2.08051, 1.82099, 1.81795, 1.81612, 1.81509, 1.81135, 1.8081, 1.80642, 1.94095, 1.9377, 1.93541, 1.80503, 1.80462, 1.85242, 1.85235, 1.79953, 1.80253, 1.93607, 1.9308, 1.79604, 1.79804, 1.79841, 1.79904, 1.79653, 1.92838, 1.89342, 1.92521, 1.79375, 1.79288, 1.79565, 1.79325
1.90709, 1.90736, 1.90756, 1.90657, 1.90069, 1.95142, 1.90039, 2.01464, 1.99587, 1.89544, 1.94489, 1.89295, 1.89286, 1.99695, 1.88568, 1.88887, 1.88565, 2.07299, 1.93216, 1.88181, 1.8769, 1.87764, 1.98885, 1.98305, 1.87595, 1.8765, 1.87862, 2.05578, 1.93104, 1.93925, 2.11954, 2.01117, 2.00994, 2.00971, 2.12142, 2.00303, 2.03943, 1.99795, 2.03606, 1.99054, 2.03807, 1.99228, 1.98935, 1.98685, 1.98788, 1.99009, 2.11816, 2.03685, 2.03597, 1.99036, 2.0349, 1.92019, 2.00129, 2.03089, 2.01321, 2.12477, 2.1169, 2.09563, 2.00153, 2.07828, 1.9999, 1.99924, 1.99855, 1.99595, 2.0747, 2.0786, 2.07215, 2.11857, 2.09008, 1.99828, 2.00025, 1.99985, 2.09748, 2.09269, 2.10135, 2.09775, 1.99968, 2.08442, 2.09364, 2.09637, 2.08533, 2.09382, 2.08296, 2.08412, 2.09157, 2.08498, 2.08313, 2.07, 2.07718, 2.06989, 1.9897, 1.98675, 1.98957, 1.98973, 1.98832, 1.91526, 1.91064, 1.90902, 1.90395, 1.90349, 1.9, 2.02437, 2.025, 1.90016, 1.89942, 1.8979, 1.8994, 1.90103, 1.90008, 1.95131, 1.95217, 2.01042, 1.96662, 2.07848, 1.90544, 1.90624, 2.08664, 1.95567, 1.90658, 1.9065, 1.82003, 1.81779, 1.81683, 1.81468, 1.80788, 1.80937, 1.81007, 1.9378, 1.80639, 1.80457, 1.89335, 1.85295, 1.80263, 1.85194, 1.79977, 1.79867, 1.79826, 1.8483, 1.79904, 1.90267, 2.00564, 1.79411, 1.91836, 1.92866, 1.93033, 1.92708, 1.79318, 1.92359, 1.92547, 1.79309
1.9113, 1.9101, 1.90911, 1.90471, 1.90497, 1.95245, 1.90284, 1.90159, 1.89913, 1.99508, 2.01182, 1.94387, 1.89271, 2.08587, 1.93953, 2.07751, 1.97937, 1.88535, 1.93216, 1.93124, 1.87874, 1.87948, 1.87899, 1.9282, 1.92749, 1.87858, 1.88075, 1.94477, 2.12135, 2.04347, 2.11928, 1.93767, 2.12098, 2.04213, 1.9312, 2.00139, 1.92431, 1.99756, 1.91989, 2.1173, 1.99174, 2.03943, 1.91336, 1.98966, 1.9889, 2.11842, 1.99002, 2.03752, 1.9915, 1.99214, 1.99322, 1.99788, 2.00437, 1.93145, 2.03411, 2.10831, 2.00377, 2.09408, 2.09373, 2.09076, 2.07758, 1.99972, 1.99689, 1.99978, 1.99915, 2.07473, 2.08036, 2.09662, 1.9992, 2.00013, 2.09027, 2.0003, 2.00154, 2.08783, 2.00113, 2.08493, 2.07951, 2.09248, 2.09176, 1.99671, 2.08288, 2.0868, 1.99766, 2.09039, 1.99551, 2.0834, 1.99419, 2.08699, 2.08395, 2.09047, 1.99151, 1.99007, 1.98916, 1.98934, 2.08638, 1.91404, 1.9096, 1.90741, 2.02461, 2.01123, 2.1072, 1.89921, 1.89784, 1.89851, 1.89691, 1.94817, 1.89973, 1.8999, 1.89985, 1.90243, 1.90196, 2.07785, 2.00357, 1.9633, 1.90446, 1.90377, 1.90725, 1.95551, 1.90598, 1.9056, 2.12827, 1.81739, 1.81664, 1.81125, 1.80793, 1.80963, 1.80897, 1.80483, 1.92575, 1.92348, 1.80337, 1.85248, 1.85136, 1.85275, 1.80001, 2.12846, 1.79811, 1.79718, 1.79606, 1.79873, 1.79727, 1.79586, 1.79311, 1.79459, 1.7935, 1.79406, 1.79454, 1.79255, 1.79126, 1.79397
1.91208, 1.91105, 2.02197, 1.90794, 1.90676, 1.90399, 2.00035, 1.90257, 2.01097, 1.89964, 1.89431, 1.89489, 1.89446, 1.89073, 1.89071, 1.88678, 1.88692, 2.0797, 1.88541, 1.93179, 1.93071, 1.88028, 1.92863, 1.98976, 1.87937, 1.88017, 1.88117, 1.88193, 1.94463, 2.01839, 2.01817, 2.0145, 2.01067, 2.12501, 2.01001, 2.00577, 2.00346, 1.92318, 1.99738, 2.12825, 1.99337, 2.04096, 2.03947, 1.99042, 1.98972, 1.98984, 1.91276, 1.98871, 1.99097, 2.03818, 1.99706, 1.9237, 1.92839, 2.0072, 2.03184, 2.12959, 2.00646, 2.09677, 2.08972, 2.07901, 2.07931, 2.00087, 1.99861, 2.07534, 2.09087, 2.00006, 2.00008, 2.07681, 2.08695, 2.00022, 2.10036, 2.10228, 2.00118, 2.00151, 2.0003, 2.08938, 2.08253, 2.09866, 1.99952, 1.99989, 2.09051, 1.99996, 2.08505, 2.08674, 1.99675, 2.07334, 2.09735, 2.06945, 2.08853, 1.99409, 1.99151, 1.99137, 1.99005, 1.98925, 2.08011, 1.96195, 1.96038, 2.10064, 1.90311, 1.90282, 1.89883, 1.89993, 2.02332, 1.89929, 1.89891, 1.89725, 1.89763, 1.89929, 2.11412, 1.90293, 1.9497, 1.90284, 1.90327, 1.90136, 2.00395, 1.90399, 1.90602, 1.90591, 1.90596, 1.90333, 1.81967, 1.8169, 1.94219, 1.81298, 1.93687, 1.93692, 1.80712, 1.80734, 1.80669, 1.80353, 1.9373, 1.93594, 1.80227, 1.80081, 1.85162, 1.79889, 1.84792, 1.93459, 1.79882, 1.79599, 1.79339, 1.93065, 1.79546, 1.92737, 1.84494, 1.79294, 1.79353, 1.9266, 1.79287, 1.86942
1.90899, 2.0201, 1.90949, 2.01746, 1.90741, 1.97434, 1.90513, 1.95632, 1.90039, 2.09152, 1.94927, 1.89688, 1.89416, 1.89226, 2.01069, 1.88686, 1.88675, 2.07616, 1.98025, 1.88258, 1.8814, 1.88, 1.93042, 1.87879, 1.87995, 1.87713, 1.88196, 1.88214, 2.02398, 2.02057, 2.01718, 2.04476, 2.12695, 1.93501, 2.12077, 2.00704, 2.00241, 2.00341, 1.99924, 1.9962, 1.99519, 1.99197, 2.04195, 1.99068, 1.98925, 1.98794, 1.98894, 1.99041, 1.99093, 1.91549, 1.99798, 2.11585, 2.03391, 2.03501, 2.034, 2.03483, 2.09443, 2.081, 2.07967, 2.00388, 2.08103, 2.00094, 2.07935, 2.0795, 2.08684, 2.08256, 2.0008, 2.07883, 2.07776, 2.09784, 2.07972, 2.09375, 2.09967, 2.08856, 2.08384, 2.07557, 2.00132, 2.07661, 2.09, 2.09526, 2.07701, 2.07644, 2.10038, 2.08986, 2.08381, 2.08069, 2.07164, 2.10143, 2.08466, 2.07965, 1.99221, 1.99088, 1.9905, 1.98991, 2.07235, 1.96317, 1.91022, 2.09971, 2.12041, 1.90167, 1.97286, 1.97199, 2.02444, 1.89454, 2.02583, 1.89679, 2.01718, 1.94856, 1.94883, 1.89914, 1.99961, 1.90003, 1.95212, 1.95226, 2.01032, 1.90341, 1.90377, 1.90499, 2.00684, 1.90449, 1.82352, 1.81803, 1.81416, 1.86258, 1.81149, 1.8092, 1.8069, 1.80554, 1.93844, 1.80193, 1.80264, 1.9374, 1.93593, 1.93179, 1.79957, 1.79873, 1.93081, 1.93473, 1.79752, 1.9305, 1.79651, 1.79302, 1.92623, 1.7933, 1.88537, 1.79094, 1.79421, 1.79398, 1.79327, 1.88384
1.91371, 1.91433, 1.91346, 1.91011, 1.90861, 2.02007, 2.01843, 1.90435, 2.00958, 2.01463, 1.89833, 1.89655, 1.89313, 1.89233, 1.89047, 2.08581, 1.88642, 2.07966, 1.88548, 1.94194, 1.88248, 1.87994, 1.93063, 1.93078, 1.99363, 1.94494, 1.88214, 1.99015, 2.04815, 2.01872, 2.12268, 2.12489, 2.12802, 2.01107, 2.01057, 2.12096, 2.00487, 2.04511, 2.13095, 1.92321, 1.99677, 2.04321, 2.04305, 1.98945, 1.98976, 1.91683, 1.98988, 1.99211, 1.91771, 1.99381, 2.0395, 2.00196, 2.04137, 1.93197, 2.0171, 2.03487, 2.00813, 2.09066, 2.08254, 2.00404, 2.08068, 2.07777, 2.00377, 2.00115, 2.07872, 2.08274, 2.08375, 2.00307, 2.08274, 2.00217, 2.0037, 2.09742, 2.0019, 2.00318, 2.00328, 2.09678, 2.08176, 2.08871, 2.0867, 2.07913, 2.07911, 2.07867, 2.09553, 2.09837, 2.08613, 2.08306, 2.09789, 1.99452, 2.0803, 2.06942, 1.9936, 2.06921, 2.07089, 2.07312, 2.07044, 1.91069, 1.9099, 1.90592, 1.90294, 1.90338, 1.90016, 1.89986, 1.89595, 1.89664, 1.8971, 1.94553, 1.89646, 2.02384, 2.02005, 1.94933, 1.90001, 1.89948, 1.90006, 1.90314, 1.9562, 1.95253, 1.90339, 1.90476, 1.9044, 1.90664, 1.82082, 1.81754, 1.9379, 1.81183, 1.81022, 1.8099, 1.8072, 1.94127, 1.93407, 1.80123, 1.93439, 1.80022, 1.79972, 1.93598, 1.93768, 1.93505, 1.79799, 1.79403, 1.8458, 1.79455, 1.79479, 1.79312, 1.79544, 1.79563, 1.79559, 1.79091, 1.78965, 1.90777, 1.84253, 1.89948
1.91469, 1.96554, 1.91536, 1.91341, 1.96166, 1.90754, 2.01956, 1.90541, 1.90238, 2.01717, 1.90078, 1.89779, 1.89684, 1.89251, 1.9856, 2.09017, 1.8892, 1.88958, 1.88661, 1.88603, 1.88414, 1.88161, 1.88208, 1.8804, 1.88138, 1.88342, 1.93378, 1.88883, 2.02544, 2.02334, 2.02026, 2.13022, 2.12505, 2.01319, 1.93368, 2.00767, 2.00588, 2.00411, 2.13126, 1.91954, 1.99722, 1.99346, 1.99533, 1.99296, 1.99353, 1.9893, 1.99298, 2.04106, 1.91714, 2.12518, 2.04113, 2.00309, 1.92959, 2.00841, 2.0168, 2.13767, 2.1025, 2.10562, 2.09338, 2.09061, 2.08647, 2.00342, 2.08202, 2.07988, 2.09366, 2.07975, 2.08108, 2.07934, 2.09344, 2.09042, 2.10025, 2.09878, 2.0962, 2.09512, 2.09624, 2.00174, 2.09252, 2.08557, 2.00079, 2.0014, 2.10048, 2.08676, 2.08333, 2.08939, 2.09127, 2.09476, 2.08663, 1.9959, 2.0858, 2.08333, 2.06649, 1.99242, 2.06928, 2.06853, 2.07978, 1.91151, 1.90941, 1.9564, 1.90364, 2.13244, 1.89987, 1.89802, 1.89798, 2.11694, 1.8957, 1.94589, 2.01817, 1.89732, 1.89692, 2.12091, 1.89814, 1.89936, 1.89674, 2.01458, 1.90068, 1.90335, 1.90246, 1.90101, 1.90252, 1.90274, 1.81964, 1.81977, 1.86585, 1.80967, 1.80887, 1.92847, 1.85573, 1.93108, 1.80284, 1.79879, 1.80098, 1.89872, 1.9344, 1.79584, 1.84786, 1.797, 1.93111, 1.79632, 1.84566, 1.79468, 1.79604, 1.84423, 1.7936, 1.78987, 1.79207, 1.79188, 1.79221, 1.87209, 1.78936, 1.78934
1.96593, 1.96581, 1.91615, 1.9163, 1.91134, 2.00859, 2.01474, 1.9054, 1.90628, 1.90316, 2.09548, 1.89772, 2.08928, 1.8975, 2.01037, 2.01036, 1.89006, 1.8874, 1.88812, 1.93494, 1.93485, 1.93382, 1.88068, 2.07065, 1.88196, 1.88533, 1.88538, 1.88706, 2.02629, 2.02427, 2.04848, 2.0175, 2.01393, 2.01454, 2.01401, 1.93319, 2.00672, 1.92701, 2.00369, 2.00086, 1.9986, 2.12275, 1.91805, 1.9936, 1.9927, 1.99255, 2.04463, 1.9936, 2.04126, 1.9958, 1.99711, 2.04165, 2.04146, 1.9362, 2.13062, 2.13269, 2.10619, 2.09154, 2.00669, 2.08257, 2.08538, 2.00561, 2.00345, 2.08906, 2.00339, 2.08963, 2.08323, 2.08152, 2.1034, 2.09771, 2.09624, 2.10185, 2.00408, 2.00343, 2.00369, 2.00347, 2.09828, 2.07975, 2.08751, 2.09005, 2.08021, 2.09031, 2.09103, 2.0906, 2.09983, 1.99786, 2.08604, 2.08333, 1.99557, 2.08593, 1.99265, 1.99291, 2.07043, 2.0701, 2.06985, 1.91322, 1.90829, 1.95751, 2.02435, 2.11879, 2.12123, 1.89883, 2.02519, 1.89559, 1.94498, 2.00552, 1.89513, 1.89599, 1.89564, 2.09432, 1.8964, 1.89725, 1.89598, 1.90095, 2.01109, 1.90028, 1.90035, 1.95249, 1.95245, 1.9035, 1.94391, 1.92039, 1.81515, 1.93795, 1.80765, 1.80737, 1.80616, 1.80258, 1.80234, 1.93417, 1.80191, 1.79811, 1.79835, 1.8477, 1.84775, 1.79912, 1.79541, 1.98038, 1.93159, 1.92817, 1.79576, 1.79377, 1.84192, 1.92758, 1.79159, 1.92273, 1.79087, 1.92348, 1.79227, 1.79143
2.04858, 1.91846, 2.02409, 2.02482, 2.02367, 2.0089, 1.90932, 1.90955, 1.95563, 1.90434, 1.90201, 2.09924, 2.09957, 2.18415, 1.89359, 1.88994, 1.89059, 2.08652, 1.88891, 1.93642, 1.88689, 1.88544, 1.88174, 1.88531, 2.07275, 1.99112, 1.88684, 1.95087, 1.88985, 2.02777, 2.02095, 2.02144, 2.13207, 2.01585, 2.04852, 2.01062, 2.00831, 2.0067, 2.0011, 2.00062, 2.04647, 1.99539, 2.14974, 1.91699, 1.99456, 1.99318, 1.91662, 1.99541, 1.99472, 1.99607, 1.99933, 2.0051, 2.00689, 2.01125, 2.0185, 2.03805, 2.00978, 2.00958, 2.10053, 2.094, 2.00623, 2.0053, 2.00363, 2.09092, 2.08688, 2.09511, 2.09672, 2.09678, 2.10198, 2.00416, 2.00606, 2.09067, 2.09612, 2.09615, 2.09729, 2.0913, 2.09582, 2.08295, 2.08642, 2.09615, 2.10339, 2.0797, 2.09342, 1.99966, 2.07492, 2.09413, 1.99788, 1.99705, 2.08602, 1.99388, 1.99314, 1.99166, 1.99154, 2.07675, 2.06901, 2.10096, 1.91098, 1.90653, 2.11478, 1.89914, 1.89874, 2.11727, 1.89695, 2.02182, 1.89375, 1.89428, 1.89266, 1.895, 1.99395, 2.10065, 1.89659, 1.89656, 2.0145, 1.89674, 1.8996, 1.89916, 2.09704, 1.95129, 1.95147, 1.90286, 1.82084, 1.81591, 1.93297, 1.80956, 1.938, 1.98678, 1.90601, 1.80098, 1.80257, 1.93434, 1.93738, 1.79638, 1.93504, 1.84765, 1.84601, 1.79511, 1.92911, 1.79423, 1.98048, 1.98109, 1.79518, 1.79377, 1.92598, 1.92336, 1.79327, 1.79042, 1.9241, 1.79177, 1.79143, 1.79197
2.19797, 2.02587, 1.91724, 2.03109, 1.91743, 1.91281, 1.99864, 1.95959, 1.95692, 1.90647, 2.02391, 2.09777, 2.09336, 1.99487, 1.9942, 2.01427, 1.99264, 1.89276, 1.89197, 1.8884, 1.88646, 2.07734, 1.88616, 2.08072, 1.88402, 1.88808, 1.88542, 1.95184, 1.95542, 2.02753, 2.02182, 2.02217, 2.0208, 2.01816, 2.13403, 2.01036, 2.00864, 1.93082, 1.92774, 2.12502, 1.92417, 1.99797, 1.92071, 2.04778, 1.99436, 2.12162, 2.13081, 1.99497, 2.04329, 2.00157, 2.00026, 2.12558, 2.11453, 2.01153, 1.94412, 2.03949, 2.10004, 2.08929, 2.00804, 2.09766, 2.00718, 2.0068, 2.00363, 2.07969, 2.1035, 2.00414, 2.09252, 2.08597, 2.09308, 2.09676, 2.09454, 2.0053, 2.09145, 2.09019, 2.08047, 2.00383, 2.09802, 2.0046, 2.0889, 2.09162, 2.09693, 2.09942, 2.00154, 2.09205, 2.00114, 2.0936, 2.10036, 2.0863, 1.99757, 2.07783, 1.99454, 1.99194, 1.99206, 2.08667, 2.07971, 1.9109, 2.02908, 1.90487, 1.95492, 1.89745, 2.02198, 1.94828, 1.89602, 1.89558, 1.89485, 1.8939, 1.8931, 1.94507, 1.99245, 2.11863, 2.02112, 1.89504, 1.89596, 1.94736, 1.89935, 2.11089, 2.09622, 1.99194, 2.00973, 1.89817, 1.93506, 1.81604, 1.93419, 1.93789, 1.80922, 1.93277, 1.80443, 1.80303, 1.91705, 1.84912, 1.79735, 1.79769, 1.7961, 1.79446, 1.848, 1.98595, 1.92837, 1.9281, 1.79258, 1.92673, 1.8997, 1.79228, 1.79413, 1.79207, 1.79338, 1.79224, 1.79074, 1.78962, 1.78957, 1.78958
1.92162, 1.92225, 1.92107, 1.91697, 1.96508, 2.02147, 2.02084, 1.96131, 1.90673, 1.90766, 1.90328, 2.00493, 1.95257, 1.89836, 1.89624, 1.89273, 1.89424, 1.89034, 1.89273, 1.88944, 2.00414, 1.88711, 1.88534, 2.08157, 1.88675, 1.88964, 1.88981, 1.95234, 1.95305, 2.02846, 2.02471, 2.02362, 2.0193, 2.01864, 2.01793, 2.01363, 2.01132, 2.05252, 2.13372, 1.92857, 1.92416, 1.99877, 1.92058, 2.04838, 1.91769, 1.91979, 1.9938, 1.9961, 1.99483, 2.13783, 2.00256, 2.00402, 2.00755, 1.93765, 2.01986, 2.1384, 2.01298, 2.11522, 2.1, 2.00784, 2.00878, 2.00558, 2.07965, 2.0999, 2.00496, 2.10782, 2.07914, 2.09176, 2.00455, 2.10014, 2.09683, 2.10083, 2.09259, 2.09075, 2.11142, 2.0044, 2.00609, 2.00402, 2.09408, 2.00388, 2.09635, 2.09642, 2.00118, 2.09657, 2.08734, 2.09265, 2.08892, 2.08301, 1.99565, 2.07095, 1.99394, 1.99587, 1.99205, 1.99295, 2.07332, 1.91203, 2.11752, 2.01832, 1.90323, 1.90079, 1.89961, 1.94903, 1.89636, 1.89449, 2.1106, 1.89414, 2.10844, 1.89117, 1.89324, 1.893, 1.89522, 1.94443, 1.98405, 1.9474, 1.89604, 1.89739, 2.00907, 1.90034, 1.8992, 1.99374, 1.8207, 1.81824, 1.93486, 1.93131, 1.92992, 1.80483, 1.80341, 1.80257, 1.80031, 1.7996, 1.84904, 1.93064, 1.79609, 1.90991, 1.85106, 1.93135, 1.79549, 1.79262, 1.79276, 1.79377, 1.78961, 1.92792, 1.79294, 1.84323, 1.79295, 1.92195, 1.79109, 1.78935, 1.78887, 1.78964
1.9234, 1.92469, 1.92403, 1.92182, 1.96741, 2.01398, 2.02328, 2.10743, 1.90851, 1.90653, 2.00797, 2.08791, 1.90328, 1.95138, 1.89814, 2.17952, 1.89689, 2.01296, 2.0857, 2.08565, 1.88969, 2.00421, 1.88642, 1.88835, 1.88786, 1.88807, 1.99272, 1.95313, 1.95485, 2.0287, 2.05194, 2.02533, 2.02135, 2.01998, 1.94404, 2.01165, 2.14252, 2.0087, 2.0062, 1.92744, 2.05112, 1.92465, 1.92236, 1.92174, 1.99469, 1.91988, 1.99591, 1.99671, 1.99741, 1.92456, 2.00304, 2.00505, 2.0114, 2.01369, 2.04134, 2.0413, 2.09157, 2.09622, 2.08751, 2.00845, 2.00707, 2.00532, 2.0065, 2.08477, 2.09517, 2.09512, 2.00731, 2.09904, 2.10129, 2.00697, 2.10483, 2.10398, 2.08784, 2.10118, 2.0055, 2.0982, 2.00548, 2.09908, 2.00471, 2.00394, 2.10382, 2.10392, 2.08901, 2.09014, 2.10433, 2.00205, 2.07639, 2.08438, 2.08141, 2.07195, 1.99571, 1.9957, 1.99365, 1.99358, 2.08974, 1.91229, 2.03237, 2.02004, 1.96686, 2.02185, 2.11494, 1.89888, 1.89638, 1.8944, 1.89562, 1.89219, 1.89262, 1.89221, 2.11227, 1.89222, 1.8947, 1.89318, 1.89564, 2.073, 1.89637, 2.01428, 1.89594, 2.00461, 1.89824, 1.99658, 1.81995, 1.81668, 2.1207, 1.92691, 1.925, 1.90699, 1.80172, 1.80039, 1.79903, 1.84879, 1.8483, 1.79636, 1.79339, 1.93082, 1.79394, 1.9309, 1.85833, 1.84401, 1.84425, 1.7934, 1.9244, 1.92229, 1.92478, 1.79087, 1.78977, 1.79144, 1.78963, 1.79227, 1.78868, 1.86165
1.92387, 1.92721, 2.03839, 1.92217, 1.96865, 1.96624, 2.03201, 1.91317, 1.96148, 1.90791, 1.90861, 1.90393, 2.08695, 1.90317, 2.02209, 2.01708, 1.89927, 1.98495, 2.01136, 1.89267, 1.94202, 2.09798, 1.88856, 1.88996, 1.88912, 2.07549, 1.89219, 1.89557, 1.95505, 2.05496, 2.0513, 2.02556, 1.94772, 2.01959, 2.0528, 2.05134, 2.01271, 2.05289, 2.00917, 2.00722, 2.00347, 2.00164, 2.00052, 1.92384, 1.99716, 1.99811, 1.99793, 1.99701, 1.99861, 1.99935, 2.00217, 2.00517, 2.00842, 2.04207, 2.04112, 2.13309, 2.1069, 2.10659, 2.11159, 2.01071, 2.00775, 2.00938, 2.0067, 2.0843, 2.09152, 2.10707, 2.10037, 2.08407, 2.08285, 2.00877, 2.10174, 2.09065, 2.09778, 2.00666, 2.00644, 2.00648, 2.00634, 2.00617, 2.10312, 2.09062, 2.09472, 2.09077, 2.0023, 2.08866, 2.00196, 2.00166, 2.08973, 2.08729, 2.08246, 1.99644, 1.99414, 1.99564, 1.99355, 2.0894, 2.09365, 2.03099, 2.03092, 1.95688, 2.01412, 1.9036, 1.89786, 2.01873, 2.01458, 1.99913, 1.89362, 1.89299, 1.89349, 1.89247, 2.10946, 2.01723, 1.89254, 1.89209, 2.01922, 1.8948, 1.94742, 1.89612, 1.89499, 1.89622, 1.89591, 1.94828, 1.9835, 1.81639, 1.92841, 1.92591, 1.85885, 1.80622, 1.93479, 1.80297, 1.79978, 1.84796, 1.79658, 1.79617, 1.93145, 1.79371, 1.79119, 1.79549, 1.79346, 1.79295, 1.79192, 1.84253, 1.79057, 1.78895, 1.79137, 1.7924, 1.78991, 1.79056, 1.88552, 1.92397, 1.78792, 1.91113
1.92668, 1.92636, 2.02794, 1.92071, 2.03321, 1.92019, 1.91724, 1.96726, 2.10624, 1.96668, 1.95877, 2.00859, 1.95468, 1.95297, 2.01198, 1.89878, 2.09375, 1.8961, 1.94418, 1.94298, 1.94139, 1.89045, 1.88961, 1.99621, 2.00108, 1.89293, 2.07329, 2.17685, 2.05902, 2.13577, 2.02898, 2.0237, 2.02436, 2.02064, 2.01815, 2.01671, 2.01387, 2.0122, 2.01012, 1.92929, 2.00375, 2.0026, 2.0015, 2.04969, 1.99865, 1.99731, 1.99873, 2.04736, 2.04907, 2.00173, 2.00642, 1.92928, 1.9325, 2.04373, 2.04237, 2.04172, 2.01355, 2.10042, 2.1113, 2.08761, 2.09073, 2.01011, 2.00793, 2.10133, 2.00745, 2.09755, 2.08444, 2.00739, 2.09385, 2.09353, 2.1036, 2.00792, 2.10386, 2.10659, 2.09828, 2.10193, 2.09797, 2.08343, 2.10321, 2.09384, 2.08577, 2.00362, 2.11174, 2.08393, 2.09414, 2.09849, 2.08702, 2.09179, 2.09403, 2.09832, 1.99606, 1.9943, 1.99427, 2.07281, 2.07057, 2.02487, 2.02222, 1.90703, 1.90406, 1.90357, 1.90019, 1.89653, 1.89698, 1.99793, 1.8934, 1.89007, 1.88894, 2.11417, 1.88979, 2.01839, 1.89051, 2.01504, 1.89204, 1.89647, 1.89343, 1.89324, 1.99572, 1.8945, 1.89699, 1.94744, 1.92908, 1.93276, 1.92851, 1.80999, 1.85865, 1.85516, 1.80417, 1.79904, 1.92837, 1.79705, 1.79458, 1.79348, 1.84473, 1.79169, 1.79265, 1.79318, 1.79043, 1.78979, 1.7896, 1.8519, 1.91255, 1.78898, 1.78869, 1.84024, 1.79038, 1.91868, 1.78973, 1.7903, 1.79072, 1.91445
1.92791, 1.92633, 1.9254, 1.92176, 1.92211, 1.91839, 1.91763, 2.02815, 2.03437, 1.90877, 2.01463, 1.90735, 2.02354, 2.02458, 1.90402, 1.89949, 1.89621, 2.01813, 2.00066, 2.00304, 1.89281, 1.89166, 2.01281, 2.01046, 1.98679, 1.98577, 1.89362, 1.89449, 1.95583, 2.05984, 2.05717, 2.02816, 2.02524, 2.02181, 2.0218, 2.0557, 2.01407, 2.01323, 2.1349, 1.9315, 2.00648, 1.92714, 2.00109, 2.00419, 1.99972, 1.92238, 1.99816, 1.99686, 1.92365, 2.04672, 2.00463, 2.00583, 2.04426, 2.04826, 2.0206, 2.12809, 2.09468, 2.11068, 2.09065, 2.08904, 2.00963, 2.01009, 2.00942, 2.0869, 2.11137, 2.00778, 2.11026, 2.1032, 2.09843, 2.10517, 2.00816, 2.00774, 2.09819, 2.09893, 2.10072, 2.09579, 2.09331, 2.0831, 2.09593, 2.00709, 2.09299, 2.00496, 2.0904, 2.00078, 2.09311, 2.08714, 2.09616, 2.09498, 2.08978, 1.99717, 1.99659, 1.99498, 1.99449, 1.99355, 1.99333, 1.91194, 1.90962, 1.90467, 2.02105, 1.90058, 2.02561, 1.89898, 1.94369, 2.02175, 1.89288, 1.94134, 1.88892, 2.02147, 1.89097, 1.8888, 1.89065, 1.98583, 1.89038, 1.88967, 2.09397, 1.89329, 1.89371, 1.89287, 2.02083, 1.94579, 1.82097, 1.81727, 1.81168, 1.86165, 1.8582, 1.85446, 1.89826, 1.79936, 1.92783, 1.92799, 1.79395, 1.89608, 1.79549, 1.89914, 1.79246, 1.79141, 1.79045, 1.84267, 1.84271, 1.79028, 1.79157, 1.90642, 1.79091, 1.84056, 1.7904, 1.88552, 1.78869, 1.78832, 1.79132, 1.91082
1.92877, 1.92777, 1.92451, 1.92189, 2.03576, 2.03566, 1.9184, 1.91438, 2.03182, 1.91176, 2.02757, 1.90811, 2.02531, 1.90325, 1.90089, 1.90006, 1.94901, 1.9486, 1.89805, 1.8948, 1.89476, 2.00989, 2.01196, 1.94656, 1.89358, 1.94459, 2.00295, 1.89857, 2.03773, 1.93831, 1.95622, 2.02929, 2.02505, 1.94465, 2.01939, 2.0139, 2.02125, 2.01129, 2.01062, 2.007, 2.00624, 2.0029, 2.00141, 1.99996, 1.99984, 1.99863, 1.99752, 1.99964, 1.92398, 2.00406, 2.00613, 2.00752, 2.04684, 2.14616, 1.94841, 2.13476, 2.01635, 2.10295, 2.01434, 2.09727, 2.08963, 2.08738, 2.01367, 2.08694, 2.10074, 2.00732, 2.00914, 2.00967, 2.01013, 2.0847, 2.10329, 2.09322, 2.09103, 2.00702, 2.09099, 2.00738, 2.10693, 2.00719, 2.00626, 2.0911, 2.09146, 2.00657, 2.07971, 2.09628, 2.00288, 2.08768, 2.0872, 2.09861, 1.99689, 1.99675, 1.99622, 1.99593, 1.99403, 2.07674, 2.07613, 1.96523, 1.90934, 1.90361, 1.90115, 1.95103, 1.89998, 1.94469, 2.12783, 2.02228, 2.11317, 1.88941, 2.01738, 1.89035, 1.89057, 1.89035, 1.89022, 1.88918, 1.89126, 1.89065, 1.89014, 1.89519, 2.08698, 1.8936, 2.08328, 1.96863, 1.81897, 1.81771, 1.81289, 1.85993, 1.80616, 1.80106, 1.80078, 1.79834, 1.79804, 2.04052, 1.79633, 1.79283, 1.84431, 1.79305, 1.92467, 1.78961, 1.79036, 1.78908, 1.78766, 1.7886, 1.78953, 1.78853, 1.78735, 1.91066, 1.7868, 1.78971, 1.78642, 1.91968, 1.78573, 1.78884
1.92787, 1.92742, 1.97595, 2.03983, 2.03462, 1.92171, 1.91931, 1.91881, 1.9162, 2.0305, 1.91204, 1.91045, 2.00635, 1.90401, 1.95433, 1.90435, 1.9508, 2.00275, 1.89838, 2.01703, 1.89654, 1.89596, 1.94552, 1.8955, 1.89221, 1.96881, 1.89838, 1.98993, 2.03589, 2.13877, 2.03286, 1.95493, 2.02372, 2.05727, 2.02461, 2.01888, 2.01512, 1.93906, 2.01086, 2.01012, 2.05918, 2.05649, 2.00207, 1.92357, 2.00328, 2.00034, 2.00325, 2.05306, 2.00318, 1.92842, 2.00531, 2.00774, 2.04601, 2.02009, 2.04581, 2.1337, 2.01714, 2.01414, 2.10008, 2.09133, 2.01241, 2.01108, 2.011, 2.09644, 2.08526, 2.01068, 2.10008, 2.10696, 2.10649, 2.10297, 2.09857, 2.00999, 2.00693, 2.09849, 2.00816, 2.0092, 2.09663, 2.08322, 2.10284, 2.00819, 2.10477, 2.00625, 2.00667, 2.11221, 2.10363, 2.09054, 2.08488, 1.99959, 1.99736, 2.08233, 1.99738, 1.99619, 1.99567, 2.07056, 2.06905, 1.96414, 2.0239, 1.90688, 1.9025, 1.95, 2.02273, 1.89683, 1.89237, 1.89238, 1.88616, 1.88907, 1.88699, 1.88735, 1.88703, 2.01512, 1.88993, 1.88976, 1.89072, 2.01397, 2.01093, 1.98278, 1.89315, 2.0077, 1.89304, 1.91689, 1.8195, 1.92432, 1.92452, 1.80727, 1.91279, 1.86795, 1.80257, 1.79935, 1.90023, 1.92391, 1.92627, 1.7938, 1.79301, 1.79261, 1.92744, 1.78999, 1.78916, 1.78922, 1.78842, 1.79, 1.79012, 1.91618, 1.92517, 1.7885, 1.78903, 1.78863, 1.78611, 1.8378, 1.83768, 1.83733
1.98617, 1.92679, 1.92815, 2.04135, 2.03867, 1.92131, 1.92028, 2.03447, 1.91545, 1.91444, 2.03065, 2.00694, 2.19066, 2.02832, 1.90559, 1.90411, 2.02195, 1.89914, 1.89907, 1.94854, 2.01621, 1.8966, 1.89596, 1.89665, 1.89597, 1.89848, 1.8981, 1.98625, 2.03835, 2.03752, 2.13963, 1.95548, 2.02857, 2.02503, 2.02182, 2.01996, 2.02043, 2.14228, 2.13686, 2.00997, 2.0071, 2.00601, 2.0039, 1.92762, 1.9214, 2.00104, 2.00078, 2.00121, 2.05012, 2.05154, 2.00509, 2.00796, 2.14398, 2.01921, 2.02386, 2.13031, 2.10802, 2.01687, 2.10357, 2.10421, 2.09139, 2.01029, 2.08628, 2.01087, 2.09308, 2.01036, 2.1085, 2.11428, 2.101, 2.00817, 2.10186, 2.10062, 2.01096, 2.00992, 2.00836, 2.09756, 2.10176, 2.09087, 2.09669, 2.10307, 2.09252, 2.08627, 2.09277, 2.10338, 2.09332, 2.08415, 2.07968, 2.1012, 2.09957, 2.07943, 1.99627, 1.99344, 1.99642, 2.08408, 1.99325, 1.91045, 1.90774, 2.0224, 1.90141, 1.89969, 1.99973, 1.89548, 1.89195, 1.89183, 1.88959, 1.88766, 1.88395, 1.88735, 1.88817, 1.88646, 1.88824, 1.88941, 2.01413, 1.89138, 1.88868, 2.011, 1.89312, 1.89046, 1.88949, 1.91669, 1.82072, 1.92276, 1.81347, 1.8069, 1.86866, 1.86775, 1.79987, 1.92688, 1.79565, 1.79619, 1.7955, 1.79217, 1.90336, 1.79288, 1.79171, 1.79243, 1.79025, 1.91969, 1.91998, 1.79063, 1.78743, 1.7886, 1.78585, 1.78916, 1.90749, 1.78896, 1.78947, 1.83908, 1.83711, 1.78791
1.93187, 1.92957, 1.92783, 1.92617, 1.97577, 1.97427, 2.03984, 2.04044, 1.91825, 1.96478, 1.96254, 2.11158, 1.90926, 1.9076, 1.90754, 1.90415, 2.02332, 1.90173, 1.90235, 1.89916, 1.95532, 2.01414, 2.08899, 1.89804, 1.89682, 1.89687, 1.89968, 1.90051, 2.04084, 2.04122, 2.03459, 2.03457, 2.02765, 2.06028, 2.02588, 2.05897, 2.15662, 2.05938, 2.01164, 1.93398, 2.00791, 1.93069, 2.00494, 2.00097, 2.00375, 1.9247, 2.00043, 2.00094, 1.92688, 1.93017, 2.05242, 2.04899, 2.01544, 2.01924, 2.02428, 2.045, 2.0933, 2.01683, 2.09319, 2.01524, 2.09352, 2.01335, 2.01158, 2.01101, 2.08766, 2.09712, 2.01097, 2.1005, 2.01103, 2.09396, 2.08505, 2.00991, 2.01015, 2.09384, 2.09327, 2.11641, 2.11268, 2.10624, 2.09724, 2.10404, 2.00622, 2.08622, 2.09376, 2.00361, 2.09144, 2.00315, 2.0794, 2.08133, 2.09187, 2.0779, 1.99409, 1.99638, 1.99608, 2.08922, 2.08634, 1.91331, 1.90832, 1.90445, 1.90068, 1.8991, 1.89572, 1.89582, 1.94151, 1.8892, 1.89011, 1.88676, 2.01765, 1.88708, 1.88882, 1.88644, 2.01743, 2.01458, 2.08688, 1.88935, 1.93947, 1.88803, 1.93955, 1.99049, 1.98358, 1.82024, 1.81789, 1.81588, 1.80983, 1.91948, 1.80624, 1.8031, 1.79919, 1.7954, 1.79229, 1.79426, 1.79265, 1.79274, 1.79057, 1.92393, 1.92054, 1.7924, 1.89057, 1.78931, 1.7898, 1.9201, 1.92013, 1.91698, 1.78575, 1.78793, 1.78707, 1.78587, 1.78868, 1.7867, 1.83752, 1.83815
1.93136, 1.93088, 1.9299, 2.04637, 1.92433, 1.92487, 1.92475, 1.9195, 2.03731, 1.96625, 1.9655, 2.03186, 2.01558, 2.01647, 1.90772, 1.90303, 2.028, 1.90289, 1.90004, 1.95174, 1.94829, 1.8963, 1.89677, 1.89748, 1.8976, 2.00798, 1.90134, 1.90207, 2.03768, 2.14197, 2.03286, 2.03488, 2.03471, 2.02727, 2.06126, 2.05947, 2.01845, 2.01713, 2.01367, 1.93542, 1.93209, 2.05886, 2.00446, 2.00258, 2.00206, 2.13215, 2.00191, 2.0002, 2.00446, 2.05398, 2.00969, 2.01146, 2.01492, 1.94304, 2.04755, 2.13993, 2.09808, 2.10892, 2.10661, 2.09607, 2.09015, 2.09416, 2.01237, 2.10107, 2.0872, 2.10044, 2.09323, 2.10504, 2.09102, 2.10028, 2.08687, 2.09086, 2.10709, 2.09177, 2.09313, 2.09704, 2.09746, 2.09701, 2.10116, 2.09103, 2.10283, 2.00645, 2.09617, 2.00455, 2.0931, 2.07954, 2.08262, 2.10013, 2.09593, 2.07371, 2.06657, 1.99577, 1.99489, 1.99309, 2.08642, 1.9137, 1.95836, 1.9059, 1.90203, 2.02413, 1.89601, 1.88991, 1.94104, 1.88986, 1.88925, 1.88697, 1.88707, 1.88685, 1.88615, 1.88258, 1.88913, 1.88725, 1.88908, 1.88804, 1.88735, 1.88995, 1.99837, 1.89044, 1.88989, 1.91621, 1.81719, 1.81343, 1.80957, 1.91713, 1.80576, 1.79909, 1.7986, 1.79792, 1.92, 1.79413, 1.92016, 1.79382, 1.91379, 1.79097, 1.78995, 1.92198, 1.92208, 1.91961, 1.78728, 1.92438, 1.92182, 1.78447, 1.92034, 1.78722, 1.78727, 1.91811, 1.78828, 1.78664, 1.83781, 1.78718
1.93112, 1.92955, 1.93005, 2.04648, 1.97704, 2.02691, 1.97474, 1.97234, 1.91988, 1.91921, 2.03832, 2.03649, 2.0159, 1.91053, 1.95855, 1.90755, 1.90395, 1.90353, 1.89819, 1.8976, 1.95009, 1.89724, 1.89968, 1.89941, 2.01034, 1.89941, 1.90168, 2.07625, 2.04187, 2.04061, 2.1434, 2.03438, 2.03042, 2.02776, 2.02423, 1.94678, 2.01792, 2.0624, 2.0158, 2.01068, 2.01137, 2.00849, 2.13851, 2.00521, 2.00396, 2.14293, 2.00445, 2.00343, 2.00346, 2.15577, 1.9335, 1.9349, 2.01643, 2.0239, 2.04838, 2.14241, 2.09849, 2.09668, 2.09618, 2.0995, 2.09472, 2.09425, 2.01291, 2.01342, 2.08755, 2.10714, 2.0949, 2.0871, 2.08759, 2.01191, 2.09028, 2.11385, 2.10281, 2.10539, 2.00999, 2.10562, 2.10426, 2.09857, 2.09898, 2.1042, 2.1015, 2.09613, 2.00717, 2.10426, 2.0967, 2.07756, 2.08084, 2.00061, 1.99745, 2.0891, 1.99452, 1.99456, 1.99355, 1.99306, 2.08391, 1.91524, 1.90941, 1.90103, 2.02511, 2.09958, 1.89427, 1.88963, 1.9417, 1.88892, 1.88629, 1.8859, 1.8862, 2.02103, 1.95896, 1.88661, 1.95099, 1.93768, 1.88447, 1.88897, 2.10546, 1.99317, 1.88774, 1.93911, 1.89003, 1.88854, 1.91457, 1.81105, 1.91882, 1.80697, 1.80312, 1.8512, 1.79978, 1.7962, 1.79342, 1.91704, 1.79283, 1.79082, 1.79248, 1.78879, 1.79095, 1.91875, 1.78944, 1.91961, 1.78648, 1.92254, 1.92007, 1.7874, 1.78606, 1.78788, 1.78685, 1.91691, 1.78639, 1.78643, 1.78822, 1.83787
2.04859, 1.93043, 1.93005, 1.92992, 1.97559, 1.92764, 2.0313, 1.92164, 1.92201, 1.91899, 1.91397, 2.03789, 2.03733, 1.91186, 2.01821, 1.9579, 1.9589, 1.95873, 2.11161, 1.90164, 1.89938, 1.8968, 1.89937, 1.99918, 1.89982, 1.90039, 1.90308, 1.90553, 2.06887, 2.03847, 2.14638, 2.14301, 2.14498, 2.02765, 2.06415, 1.94771, 2.02062, 1.94236, 1.9399, 2.01104, 1.93493, 2.06253, 2.00772, 2.00658, 2.00446, 2.00265, 2.00479, 2.00594, 2.05708, 2.00714, 2.00864, 2.01111, 2.05135, 2.02092, 2.04858, 2.15181, 2.11737, 2.09883, 2.10445, 2.10905, 2.09692, 2.09588, 2.01451, 2.09037, 2.01225, 2.10134, 2.0935, 2.01273, 2.09001, 2.09461, 2.0989, 2.10216, 2.09796, 2.09729, 2.10342, 2.09952, 2.09564, 2.10312, 2.10732, 2.10264, 2.09679, 2.09302, 2.10765, 2.09861, 2.08999, 2.09073, 2.00288, 2.09988, 2.0907, 1.99739, 1.99628, 1.99449, 1.99077, 2.07547, 2.06915, 2.02898, 1.90633, 1.9014, 1.9009, 1.89798, 1.89491, 1.89293, 2.02248, 1.88736, 1.88672, 2.023, 2.02097, 1.88164, 1.8833, 1.8839, 2.01901, 1.88629, 1.88654, 1.88595, 1.88653, 2.10075, 1.88561, 1.93903, 1.88558, 1.8869, 1.86681, 1.81014, 1.80826, 1.80406, 1.80442, 1.85088, 1.84761, 1.79479, 1.79188, 1.78998, 1.79107, 1.79052, 1.79293, 1.8992, 1.79, 1.91822, 1.92413, 1.83788, 1.91697, 1.78574, 1.78727, 1.78587, 1.78508, 1.84844, 1.78601, 1.78538, 1.78642, 1.91573, 1.78733, 1.89843
1.93275, 1.93443, 1.93134, 1.93103, 1.92774, 1.92567, 1.92518, 1.92192, 1.92164, 1.92009, 2.10384, 1.91455, 2.03102, 2.03422, 1.90986, 1.95823, 2.01542, 1.95856, 2.1042, 1.90314, 2.01856, 2.01898, 1.89985, 1.89911, 1.9004, 1.90024, 1.90072, 1.90316, 2.06994, 2.06973, 2.06734, 2.06554, 2.0654, 2.0294, 2.02734, 2.02447, 2.02107, 2.06358, 2.06304, 1.93882, 2.01105, 2.01305, 2.00914, 2.00523, 2.06226, 2.00598, 2.05611, 2.00658, 2.05289, 2.00719, 2.01016, 2.01178, 2.05178, 2.0204, 2.02733, 2.1463, 2.1178, 2.10515, 2.09346, 2.018, 2.01763, 2.01574, 2.09319, 2.01377, 2.08971, 2.10074, 2.01353, 2.10167, 2.08956, 2.09826, 2.09706, 2.01163, 2.0968, 2.10548, 2.1132, 2.098, 2.1003, 2.10165, 2.10092, 2.00693, 2.10282, 2.09045, 2.09152, 2.09294, 2.00242, 2.09477, 2.09306, 2.08579, 2.09634, 1.99469, 1.99668, 1.99446, 1.99311, 2.0691, 2.08414, 1.90961, 1.90683, 1.95425, 1.89958, 1.89676, 1.89323, 1.89091, 2.02395, 1.88635, 1.93703, 1.88537, 1.88555, 1.88527, 1.88426, 1.88545, 1.88361, 1.88345, 1.88623, 1.889, 1.88675, 1.8865, 1.97694, 1.8864, 2.01048, 1.8205, 1.81713, 1.81132, 1.80981, 1.91551, 1.80178, 1.89747, 1.79682, 1.79651, 1.79238, 1.79117, 1.7923, 1.91415, 1.78931, 1.79015, 1.91745, 1.78625, 1.83804, 1.83812, 1.83734, 1.7867, 1.78406, 1.90903, 1.91844, 1.78696, 1.8479, 1.90818, 1.78644, 1.91751, 1.91837, 1.91534
1.93414, 2.21781, 1.92897, 1.92995, 1.93005, 1.92746, 2.04414, 1.92315, 2.02738, 2.0326, 2.03461, 1.96631, 1.96339, 2.11495, 2.03412, 2.03209, 2.02978, 1.90656, 1.9021, 1.90368, 2.01835, 2.02003, 1.89963, 1.96357, 1.90194, 2.01386, 1.90267, 2.08103, 2.04503, 2.04162, 2.06605, 2.03793, 2.03381, 2.14949, 2.02679, 2.02642, 2.02329, 2.01778, 2.01716, 2.01489, 1.93852, 2.06428, 2.01062, 2.00697, 2.00759, 2.00492, 1.92837, 2.00571, 2.00546, 1.93404, 2.01346, 2.0543, 2.1349, 2.05204, 2.02621, 2.14105, 2.12206, 2.11125, 2.09999, 2.01852, 2.01755, 2.01627, 2.01551, 2.09362, 2.11215, 2.01377, 2.11006, 2.09657, 2.11305, 2.01346, 2.1033, 2.10378, 2.09686, 2.01141, 2.10274, 2.08776, 2.10469, 2.00987, 2.0938, 2.09998, 2.09048, 2.09398, 2.09121, 2.09474, 2.00427, 2.00302, 2.08845, 2.09292, 2.09385, 2.06951, 1.99638, 1.99389, 1.99281, 2.0858, 1.99133, 1.91028, 1.90753, 1.95482, 1.89999, 1.89564, 1.89312, 1.89026, 1.88863, 1.95504, 1.8836, 1.88167, 1.88394, 1.88332, 1.88465, 1.88438, 1.88316, 1.88545, 1.88637, 1.88342, 1.88492, 1.88565, 1.88667, 1.88557, 1.88465, 1.91277, 1.81727, 1.81284, 1.91673, 1.91683, 1.85119, 1.79932, 1.84839, 1.79267, 1.79077, 1.90717, 1.90686, 1.7898, 1.91442, 1.90816, 1.91011, 1.83919, 1.83744, 1.83727, 1.78589, 1.78579, 1.78502, 1.78553, 1.91851, 1.78639, 1.90568, 1.907, 1.78616, 1.91044, 1.78898, 1.78676
1.93527, 1.93151, 1.932, 1.9271, 1.92796, 1.92544, 1.92635, 1.97602, 1.92063, 2.02105, 1.91804, 2.04244, 1.96378, 1.91308, 2.03458, 2.12088, 1.90823, 1.90785, 2.02792, 1.90449, 1.90197, 2.02013, 1.90061, 2.10001, 2.01779, 1.90374, 1.90446, 1.90846, 2.04557, 2.04416, 2.03833, 2.03925, 2.03419, 2.03098, 2.03157, 2.02436, 2.16197, 2.06556, 1.94221, 1.94034, 2.01686, 2.06508, 2.00796, 2.00617, 2.00677, 2.00641, 2.15517, 2.00435, 1.93123, 2.15227, 1.93418, 2.01345, 2.01859, 1.94749, 2.02709, 2.15331, 2.02129, 2.11226, 2.09473, 2.11145, 2.01748, 2.01597, 2.01449, 2.01508, 2.0143, 2.09831, 2.01518, 2.01361, 2.10074, 2.10848, 2.08713, 2.10052, 2.09631, 2.10026, 2.01105, 2.01078, 2.10051, 2.09995, 2.09282, 2.00759, 2.00828, 2.08941, 2.09108, 2.09274, 2.00332, 2.09001, 2.0932, 1.99963, 1.99636, 2.0832, 1.99717, 1.99485, 1.99281, 1.99309, 1.99271, 1.96624, 2.02378, 1.90175, 1.95555, 1.89604, 1.89343, 1.89054, 1.88589, 1.93758, 1.88547, 1.88355, 1.88434, 1.87993, 2.02556, 1.88378, 1.88382, 1.88419, 2.10729, 1.98593, 1.88392, 1.93639, 1.9344, 1.97004, 1.88431, 1.96653, 1.81426, 1.91684, 1.80775, 1.91746, 1.79951, 1.79897, 1.79626, 1.89631, 1.79466, 1.90979, 1.90952, 1.78961, 1.78925, 1.7892, 1.89048, 1.78705, 1.78514, 1.83635, 1.78515, 1.78374, 1.7846, 1.91703, 1.78573, 1.78464, 1.91182, 1.83861, 1.78585, 1.78478, 1.91332, 1.78487
1.93438, 1.9339, 2.05178, 1.9336, 1.92823, 1.93082, 1.92579, 1.92501, 1.92284, 1.92051, 1.91758, 2.0441, 1.91689, 1.9135, 2.00766, 2.11157, 1.95847, 1.98579, 2.02779, 1.90263, 1.90305, 2.10049, 1.90366, 1.95805, 1.90327, 1.90395, 1.9047, 1.90784, 1.97069, 2.04449, 2.06929, 2.06893, 1.95928, 2.06902, 2.1598, 2.02559, 1.94808, 2.02143, 1.94223, 2.01526, 2.01371, 2.01177, 1.93486, 2.00929, 2.00817, 2.05964, 2.06131, 2.00923, 2.13942, 2.01034, 2.01253, 2.01392, 2.01941, 2.15253, 2.03125, 2.13864, 2.11166, 2.11881, 2.12084, 2.11143, 2.01756, 2.01673, 2.01614, 2.09772, 2.09161, 2.11481, 2.10217, 2.09644, 2.10959, 2.1112, 2.08669, 2.09451, 2.11128, 2.10393, 2.10769, 2.09371, 2.09984, 2.09227, 2.09457, 2.10171, 2.00804, 2.10077, 2.09002, 2.0068, 2.10152, 2.00293, 2.08658, 2.08662, 2.07968, 1.99482, 1.99561, 1.99372, 1.99252, 1.98988, 2.09418, 1.96626, 1.90678, 1.90235, 1.95594, 2.02183, 1.89632, 1.94037, 1.88901, 1.88611, 1.88298, 2.11125, 1.88198, 1.88232, 1.882, 1.88285, 1.88384, 1.88354, 1.8831, 1.88292, 1.93788, 1.97712, 1.96825, 1.88497, 1.88472, 1.81531, 1.81151, 1.80768, 1.80491, 1.80216, 1.79696, 1.79768, 1.84597, 1.79188, 1.79282, 1.90926, 1.79014, 1.78738, 1.78992, 2.03465, 1.78868, 1.83744, 1.78717, 1.78291, 1.86183, 1.78425, 1.91911, 1.78257, 1.78309, 1.78227, 1.78293, 1.78379, 1.78469, 1.78415, 1.78725, 1.78677
1.93737, 1.93538, 1.93264, 2.00234, 1.93112, 1.93067, 1.92824, 1.92822, 2.04506, 1.92364, 1.91988, 1.91864, 1.91638, 2.04123, 1.91153, 1.91129, 1.91054, 1.90989, 1.90717, 1.90642, 1.95511, 1.90419, 2.02462, 1.95794, 1.96091, 1.90522, 1.90539, 2.08255, 2.04662, 2.04514, 2.04183, 2.04202, 2.03537, 2.14677, 2.03064, 2.14797, 2.14629, 2.02209, 2.0216, 2.01441, 2.01478, 2.06472, 2.06553, 2.01096, 1.93292, 2.06162, 2.05979, 2.00637, 2.00856, 2.01144, 2.05679, 2.05806, 2.02131, 1.94818, 2.03179, 2.05181, 2.11109, 2.09842, 2.10822, 2.09688, 2.0191, 2.01696, 2.01784, 2.01627, 2.10538, 2.0156, 2.01581, 2.09181, 2.09779, 2.09011, 2.08983, 2.1047, 2.09162, 2.08938, 2.08768, 2.08845, 2.08633, 2.09136, 2.09791, 2.09801, 2.00843, 2.00679, 2.10049, 2.09723, 2.09012, 2.09974, 2.00043, 2.08291, 2.09668, 2.09074, 1.9939, 1.99346, 1.99571, 1.99144, 1.99068, 1.91133, 1.90975, 1.902, 1.89926, 1.95663, 1.89156, 1.93892, 1.9922, 2.02418, 1.88527, 1.88463, 1.88449, 2.02179, 1.88267, 1.88289, 1.88151, 1.88114, 1.88371, 1.88155, 1.88175, 1.97486, 1.88265, 1.88171, 2.00535, 1.81547, 1.80909, 1.80957, 1.80409, 1.80122, 1.79907, 1.79594, 1.7935, 1.79051, 1.7895, 1.78867, 1.78881, 1.78897, 1.78612, 1.91516, 1.83867, 1.83728, 1.84449, 1.83611, 1.78548, 1.78527, 1.78545, 1.78439, 1.78518, 1.8385, 1.90072, 1.9158, 1.78567, 1.78582, 1.90999, 1.78436
1.93668, 1.93603, 1.98356, 1.98499, 1.9339, 1.93144, 2.0283, 2.04883, 2.0482, 1.92443, 2.13058, 1.91781, 2.01039, 1.91323, 1.91407, 1.91109, 2.03492, 1.9595, 1.90928, 1.95696, 2.10689, 2.02391, 1.90398, 1.90386, 2.01718, 1.90654, 1.90458, 2.08272, 2.04526, 2.04473, 2.04158, 1.96267, 2.06969, 2.06981, 2.03137, 2.15607, 2.02424, 2.06919, 2.02565, 2.06733, 2.1492, 2.01117, 2.06636, 2.01242, 2.06294, 2.00852, 2.00671, 2.06344, 1.9335, 2.01065, 2.05734, 2.14645, 2.05596, 1.95136, 2.05467, 2.05238, 2.12379, 2.11076, 2.11865, 2.12505, 2.09308, 2.01836, 2.01817, 2.01763, 2.11227, 2.09045, 2.01474, 2.10796, 2.01485, 2.11114, 2.11031, 2.09723, 2.0972, 2.09009, 2.10197, 2.1083, 2.08722, 2.08561, 2.08636, 2.09577, 2.00948, 2.10401, 2.00732, 2.10384, 2.10105, 2.10059, 1.99945, 2.08944, 2.07272, 2.06936, 1.99321, 1.99241, 1.99164, 1.99062, 2.0902, 2.02435, 1.90793, 1.90344, 1.89936, 1.95443, 1.8921, 1.88971, 1.88891, 2.12194, 1.88345, 1.88339, 1.97268, 1.93115, 2.0037, 1.88233, 1.98454, 1.97789, 1.88305, 1.88371, 1.97634, 1.88288, 2.01055, 1.9801, 1.97735, 1.81558, 1.89598, 1.85899, 1.80257, 1.80044, 1.79793, 1.91156, 1.79267, 1.79055, 1.90413, 1.91053, 1.83936, 1.78755, 1.90456, 1.78585, 1.78705, 1.78649, 1.83729, 1.78539, 1.92002, 1.78287, 1.7849, 1.91443, 1.91269, 1.784, 1.78344, 1.88281, 1.78327, 1.88911, 1.78522, 1.7874
2.04207, 1.98663, 1.93244, 1.98374, 1.93598, 2.04592, 1.98308, 1.92833, 2.04765, 1.92642, 1.92128, 1.92069, 1.91181, 2.2076, 1.91163, 1.91162, 1.91068, 1.96203, 1.90961, 1.90791, 1.90625, 1.90785, 1.90564, 1.90642, 1.90608, 1.90618, 2.11441, 2.08368, 2.05232, 2.04842, 1.96657, 1.9665, 2.03787, 2.03603, 2.03467, 2.03188, 2.14573, 2.02261, 2.02026, 2.01827, 2.01874, 2.01655, 2.06479, 2.06492, 2.06406, 1.93421, 2.00738, 2.00778, 2.00672, 2.01366, 2.01308, 2.01299, 2.01998, 2.05195, 2.05509, 2.05265, 2.02794, 2.02343, 2.10093, 2.09727, 2.0196, 2.01718, 2.01855, 2.01741, 2.092, 2.10408, 2.10808, 2.10456, 2.10218, 2.01472, 2.11374, 2.11154, 2.10396, 2.11502, 2.10555, 2.01133, 2.10043, 2.09808, 2.0954, 2.09721, 2.00698, 2.08756, 2.08695, 2.07962, 2.08797, 2.09326, 2.09447, 2.08443, 1.99767, 2.06937, 1.99326, 1.99316, 1.99299, 2.09277, 2.07729, 1.96406, 1.90621, 2.09689, 1.90017, 2.02396, 1.89278, 2.11535, 1.88685, 2.11387, 1.8841, 1.93333, 1.93306, 1.88192, 1.88218, 1.98265, 1.97914, 1.87955, 1.87968, 1.88149, 2.01002, 1.88136, 1.87851, 1.87995, 1.87984, 1.90917, 1.81005, 1.88603, 1.91612, 1.80117, 1.91366, 1.79405, 1.79527, 1.78923, 1.78829, 1.83953, 1.83747, 1.90721, 1.90124, 1.78793, 1.78533, 1.78531, 1.7853, 1.78529, 1.91728, 1.78288, 1.83451, 1.78311, 1.7817, 1.78619, 1.91814, 1.91643, 1.78209, 1.78522, 1.78916, 1.91169
1.94322, 1.94146, 2.04264, 1.9344, 1.93194, 1.93435, 1.93167, 1.93018, 1.9272, 2.11787, 2.13489, 2.12808, 1.91801, 1.96578, 1.91449, 1.91293, 1.91351, 1.96386, 1.90926, 1.90932, 1.9064, 2.02726, 1.95496, 1.9563, 1.90672, 1.90868, 1.90999, 2.11074, 2.05008, 1.97136, 2.04541, 2.0426, 2.03831, 2.17264, 2.03258, 2.02821, 2.02775, 2.1665, 2.02271, 1.94302, 1.94174, 2.01619, 2.01151, 2.01092, 2.01077, 2.00928, 2.06557, 2.01342, 2.06211, 2.06054, 1.93767, 2.14652, 1.9454, 1.94998, 2.0315, 2.05231, 2.13189, 2.11157, 2.10152, 2.02152, 2.09745, 2.01783, 2.01881, 2.01762, 2.10006, 2.10005, 2.0158, 2.12753, 2.10461, 2.10794, 2.10273, 2.10724, 2.1039, 2.10426, 2.10264, 2.01177, 2.09787, 2.09679, 2.08899, 2.10704, 2.09159, 2.09226, 2.09733, 2.09276, 2.00305, 1.99948, 2.08954, 2.09102, 2.0894, 2.07073, 1.99322, 1.99164, 1.98922, 1.98977, 2.08448, 2.01646, 2.1211, 1.90109, 2.02513, 1.89454, 1.89153, 2.02538, 1.88732, 1.88414, 1.93502, 1.88322, 1.88105, 1.88083, 1.88131, 1.8819, 1.88019, 2.01503, 1.87965, 1.8767, 1.8795, 1.8784, 1.88069, 1.88266, 1.93028, 1.8138, 1.80878, 1.80924, 1.80158, 1.7983, 1.79509, 1.79353, 1.79007, 1.90234, 1.78753, 1.78847, 1.78651, 1.90732, 1.78629, 1.78533, 1.91359, 1.78367, 1.78373, 1.78028, 1.78508, 1.78332, 1.91747, 1.91387, 1.78178, 1.78344, 1.91373, 1.78589, 1.78204, 1.83347, 1.83468, 1.89388
1.99256, 1.93909, 1.93922, 1.93906, 1.93294, 1.93097, 1.93191, 1.93014, 1.92548, 1.97834, 1.92385, 1.92082, 1.91703, 2.04484, 1.96611, 1.91417, 1.91217, 1.9109, 2.02943, 1.90988, 1.90945, 1.90829, 1.90867, 1.90595, 1.90676, 1.90721, 1.91297, 2.11436, 2.052, 2.04976, 2.04599, 2.04283, 2.15157, 2.03551, 2.14906, 2.03449, 2.02796, 2.15605, 2.02261, 1.9447, 2.01777, 2.06962, 2.06971, 2.01123, 2.01173, 2.0119, 2.01109, 2.01071, 2.01011, 2.01748, 2.01413, 1.94085, 2.01894, 2.05768, 2.13096, 2.05317, 2.02568, 2.11221, 2.11434, 2.11494, 2.02102, 2.01897, 2.01748, 2.01827, 2.10112, 2.0179, 2.01713, 2.12099, 2.01728, 2.0164, 2.10105, 2.10998, 2.01395, 2.08962, 2.10433, 2.10032, 2.08954, 2.10063, 2.10007, 2.08649, 2.00684, 2.09003, 2.0909, 2.09261, 2.10431, 2.10369, 2.07472, 2.0742, 2.08444, 1.99374, 1.99436, 1.98994, 1.98932, 1.99084, 1.99062, 1.9087, 1.90591, 1.95277, 1.89748, 1.94725, 1.89177, 1.88977, 1.88814, 2.11432, 1.884, 1.88258, 1.88266, 1.88015, 1.97369, 1.881, 2.10535, 1.87934, 1.87926, 1.87952, 2.01064, 1.8801, 1.87896, 2.00779, 1.93152, 1.80959, 1.80771, 1.90882, 1.91003, 1.79665, 1.90296, 1.84706, 1.7927, 1.91749, 1.78611, 1.7856, 1.78627, 1.78608, 1.7868, 1.7892, 1.7852, 1.78549, 1.7846, 1.91447, 1.78377, 1.78147, 1.91701, 1.91478, 1.78256, 1.78368, 1.78227, 1.78316, 1.78501, 1.91016, 1.78394, 1.83404
1.94339, 1.94167, 1.93959, 1.94095, 1.93452, 1.93486, 1.93225, 1.98639, 1.98037, 1.92424, 1.92434, 1.92387, 1.91856, 2.04311, 1.91346, 1.91453, 1.91351, 1.96273, 1.91144, 2.10999, 1.90805, 1.90716, 2.10132, 1.91026, 2.10228, 1.90825, 2.00727, 1.91204, 2.07943, 2.15574, 2.04716, 2.04749, 2.04084, 2.039, 2.07312, 1.95599, 2.029, 1.95195, 2.07015, 1.94466, 2.01994, 2.0179, 2.01423, 1.9373, 2.01213, 2.06569, 2.00991, 2.0097, 2.01145, 2.0123, 2.01478, 2.05933, 2.02411, 2.02534, 2.03142, 2.05514, 2.12083, 2.11149, 2.11836, 2.02252, 2.02003, 2.01943, 2.02059, 2.01989, 2.10193, 2.01668, 2.11174, 2.01787, 2.1035, 2.1184, 2.0153, 2.10681, 2.0875, 2.09455, 2.08786, 2.00979, 2.09131, 2.01123, 2.10129, 2.08424, 2.09272, 2.08858, 2.09939, 2.09733, 2.00035, 1.99952, 2.09089, 1.99722, 2.08613, 2.07063, 2.07102, 1.99064, 1.98932, 1.9904, 2.08228, 1.91219, 2.02092, 1.90682, 1.89773, 1.94632, 1.89083, 1.88942, 1.93919, 1.88371, 1.88384, 1.88262, 1.88331, 2.01334, 1.88074, 2.10163, 1.87978, 2.01372, 1.87989, 1.92757, 1.92823, 1.87938, 2.01166, 1.87846, 1.87868, 1.88285, 1.89664, 1.80273, 1.79824, 1.79609, 1.79268, 1.79255, 1.9173, 1.78848, 1.78618, 1.91544, 1.7856, 1.78427, 1.78622, 1.78656, 1.78415, 1.78573, 1.91439, 1.78317, 1.9143, 1.78278, 1.78254, 1.91481, 1.78178, 1.78286, 1.78037, 1.7828, 1.91271, 1.9069, 1.78641, 1.78261
2.04598, 2.04795, 1.94112, 1.93913, 1.9382, 1.93602, 1.98349, 1.93176, 1.9789, 2.0593, 1.9753, 1.97259, 1.97014, 2.01555, 1.96712, 1.96511, 1.96532, 1.96396, 1.91396, 2.1082, 1.90964, 1.91012, 1.90933, 1.90932, 1.91024, 1.9103, 1.91105, 2.08837, 2.07967, 2.08001, 2.04737, 2.04222, 2.03972, 2.04157, 2.0373, 2.07196, 2.07243, 2.0312, 1.94975, 2.02011, 2.02065, 2.01802, 2.01361, 2.06676, 1.93718, 1.93569, 2.01037, 2.01349, 2.01336, 2.01409, 2.01762, 2.01779, 2.05945, 1.95416, 2.13125, 1.96575, 2.11989, 2.1075, 2.11862, 2.11991, 2.02089, 2.02212, 2.02056, 2.01921, 2.10731, 2.11813, 2.01778, 2.01844, 2.01669, 2.10424, 2.1064, 2.09364, 2.10095, 2.01266, 2.12125, 2.01141, 2.08815, 2.01001, 2.00853, 2.11026, 2.10311, 2.09497, 2.08777, 2.09589, 2.00169, 2.10421, 2.09167, 2.09347, 2.08098, 2.08325, 1.9937, 1.99233, 1.99048, 2.06376, 2.08005, 1.9114, 2.022, 2.11428, 1.89999, 1.89667, 1.94437, 1.94099, 1.93833, 1.88609, 1.8841, 1.88292, 1.88256, 1.88178, 2.11327, 1.88003, 1.8792, 1.87762, 1.9795, 1.87867, 1.99572, 1.92795, 1.87787, 1.87621, 1.99993, 1.9016, 1.89809, 1.90929, 1.80023, 1.79676, 1.90616, 1.91612, 1.9171, 1.78732, 1.78687, 1.78571, 1.78593, 1.90506, 1.78325, 1.78586, 1.7822, 1.7847, 1.78318, 1.91542, 1.87701, 1.77987, 1.78149, 1.78206, 1.83244, 1.77842, 1.83081, 1.78221, 1.7833, 1.90245, 1.89669, 1.78408
1.94237, 1.94374, 1.94453, 1.94135, 1.93617, 1.98544, 1.98626, 2.04412, 1.93228, 1.92774, 1.92531, 1.92253, 1.92225, 1.91984, 1.91833, 1.9138, 1.91441, 2.02357, 2.01868, 1.91036, 1.91164, 2.00188, 1.91155, 1.91007, 1.91323, 2.01173, 2.09073, 2.01402, 2.05186, 2.05098, 1.97317, 2.0464, 1.96744, 2.03914, 2.15214, 1.95762, 1.95573, 2.02642, 2.02414, 2.02124, 1.94479, 1.94439, 2.0151, 2.06979, 1.93737, 2.01491, 2.01244, 2.01147, 1.93608, 2.01465, 2.01705, 2.0191, 2.02176, 2.02969, 2.05602, 2.14419, 2.11886, 2.12482, 2.1229, 2.10271, 2.02197, 2.02138, 2.02086, 2.02115, 2.11802, 2.11409, 2.01815, 2.01861, 2.01703, 2.01716, 2.10181, 2.09298, 2.09731, 2.01347, 2.11066, 2.01025, 2.11812, 2.11411, 2.00782, 2.00623, 2.10228, 2.09667, 2.09378, 2.10407, 2.1037, 1.99994, 2.09663, 1.99737, 1.9943, 2.06752, 1.99321, 1.99328, 1.99082, 2.07209, 2.08673, 1.96162, 1.95795, 1.90346, 1.90005, 1.94825, 1.94437, 1.89047, 1.88922, 1.88749, 1.88524, 1.88543, 1.88236, 1.88212, 2.11172, 1.87859, 1.8785, 1.87595, 1.87881, 1.92803, 1.87654, 1.92729, 1.87905, 2.10744, 1.87921, 1.86083, 1.80562, 1.80313, 1.79642, 1.91395, 1.91278, 1.88249, 1.78948, 1.78604, 1.91123, 1.78385, 1.78514, 1.78381, 1.78454, 1.78244, 1.78165, 1.78066, 1.7843, 1.78195, 1.78191, 1.77962, 1.78093, 1.91527, 1.78039, 1.78226, 1.77989, 1.92242, 1.78007, 1.78003, 1.78108, 1.78145
1.94445, 1.94524, 1.94485, 2.06505, 1.93858, 1.93431, 1.98548, 1.93416, 1.93373, 2.13595, 1.92518, 2.02248, 2.13355, 1.92074, 1.91852, 2.1181, 1.91482, 1.91308, 2.01743, 1.97871, 1.91064, 1.91143, 1.91079, 1.9112, 2.0965, 1.91347, 1.91321, 2.01428, 2.08913, 2.04953, 2.04689, 1.97422, 2.0778, 2.04136, 2.03716, 2.15273, 2.16966, 2.07368, 1.94944, 2.02407, 2.02363, 2.01815, 2.07224, 2.01478, 1.93885, 2.16674, 2.01125, 2.01246, 2.01138, 2.01416, 2.01479, 2.0202, 2.02364, 2.02593, 1.95574, 2.05594, 2.1179, 2.02758, 2.02574, 2.10061, 2.02359, 2.0212, 2.01938, 2.11059, 2.11156, 2.12704, 2.11552, 2.11506, 2.01743, 2.01796, 2.11662, 2.09227, 2.09804, 2.1074, 2.09692, 2.10845, 2.10628, 2.01012, 2.00794, 2.08154, 2.09947, 2.00624, 2.08386, 2.08859, 2.08633, 2.10031, 1.99748, 2.08655, 2.09607, 2.07586, 1.99283, 1.99239, 1.98982, 1.99065, 2.0736, 1.91045, 1.90868, 1.90637, 1.90008, 2.01837, 1.89252, 1.88965, 1.88695, 1.88923, 1.88529, 1.88427, 1.88078, 1.93116, 2.0137, 1.87963, 1.97302, 2.01163, 1.87686, 1.9955, 1.94045, 1.92537, 2.09123, 1.87779, 1.87568, 1.85893, 1.89427, 1.84858, 1.79614, 1.79268, 1.79084, 1.78859, 1.78603, 1.78665, 1.78498, 1.91062, 1.90976, 1.78367, 1.78247, 1.78052, 1.78039, 1.91676, 1.91081, 1.90993, 1.78144, 1.78074, 1.78138, 1.78008, 1.78093, 1.78171, 1.78235, 1.78091, 1.90949, 1.90592, 1.82993, 1.90302
1.94706, 1.94718, 1.94259, 1.94154, 2.06485, 2.24369, 2.06153, 2.04004, 2.05976, 1.92881, 1.92721, 1.92574, 2.01747, 1.91991, 1.96856, 1.91564, 1.91556, 1.91423, 2.03496, 2.03536, 1.9123, 1.9126, 1.91277, 1.91204, 1.91227, 1.91396, 2.04217, 1.91737, 2.08326, 1.97579, 2.08087, 2.0463, 2.04414, 2.04291, 2.03721, 2.03413, 2.03132, 2.07554, 2.02716, 2.02551, 2.02186, 2.02188, 1.94091, 2.01561, 2.01702, 2.01262, 1.93602, 2.0148, 2.01506, 2.01399, 2.01724, 2.02087, 2.02379, 2.059, 2.03446, 2.0568, 2.11431, 2.12802, 2.10111, 2.09995, 2.10455, 2.02133, 2.02394, 2.02091, 2.11263, 2.11799, 2.1283, 2.10427, 2.12434, 2.11456, 2.11701, 2.10346, 2.10793, 2.01393, 2.11356, 2.09997, 2.09799, 2.09939, 2.09483, 2.00733, 2.00578, 2.08991, 2.08569, 2.08665, 2.08231, 2.09145, 2.10431, 2.08061, 2.07279, 2.07519, 2.06985, 2.06574, 2.08345, 2.07152, 2.07542, 1.9145, 1.90792, 1.90516, 1.89926, 1.98815, 1.89341, 2.0208, 1.889, 2.11403, 1.88484, 1.88219, 1.88005, 2.01355, 2.01353, 1.97202, 1.87707, 2.01319, 1.97535, 1.87617, 1.92474, 1.87323, 1.87422, 1.8754, 2.0016, 1.80654, 1.92361, 1.79655, 1.91034, 1.8935, 1.79007, 1.78785, 1.91789, 1.78502, 1.90637, 1.78306, 1.78184, 1.91687, 1.7786, 1.83108, 1.7816, 1.78013, 1.83221, 1.83068, 1.82987, 1.91229, 1.87518, 1.77908, 1.78071, 1.78099, 1.83124, 1.77874, 1.90705, 1.78065, 1.7798, 1.78034
1.95076, 1.9462, 2.00335, 2.06498, 2.22194, 1.93847, 1.93691, 1.98487, 1.9326, 1.98261, 1.92708, 2.04908, 1.92414, 1.92028, 1.91966, 1.91712, 1.91749, 1.96613, 1.91484, 1.91371, 1.91447, 1.91323, 1.91371, 1.91159, 1.91322, 1.9647, 1.91283, 2.01469, 2.084, 2.08588, 2.08253, 2.04935, 2.07961, 2.04229, 2.16288, 1.95879, 2.03175, 1.95449, 2.02777, 2.0246, 2.02181, 2.074, 2.16296, 2.01431, 2.15504, 2.01377, 2.01552, 1.93741, 1.93777, 2.06482, 2.06252, 2.02088, 2.06249, 2.03147, 2.06185, 2.15551, 2.0285, 2.12419, 2.11874, 2.10986, 2.09982, 2.02151, 2.02405, 2.01987, 2.02034, 2.1115, 2.11496, 2.11148, 2.11068, 2.11701, 2.09317, 2.09264, 2.01476, 2.09434, 2.10445, 2.01175, 2.09371, 2.10515, 2.09643, 2.09334, 2.08881, 2.0897, 2.09439, 2.00291, 2.00053, 1.99948, 2.08797, 2.08675, 2.08617, 2.0902, 2.07156, 1.98957, 1.99125, 1.98996, 2.08531, 1.96502, 1.90868, 1.90499, 1.90026, 1.89809, 1.89536, 1.89144, 1.9415, 1.88728, 1.88106, 1.88391, 1.88352, 1.88167, 2.10123, 2.10795, 1.87565, 1.8736, 1.87326, 2.01126, 2.01264, 1.87577, 2.11057, 1.96712, 1.98543, 1.8035, 1.80128, 1.79988, 1.90195, 2.01281, 1.7874, 1.78807, 1.7848, 1.90667, 1.8324, 1.89294, 1.78196, 1.91304, 1.77923, 1.83051, 1.77872, 1.77989, 1.83666, 1.82976, 1.77954, 1.77914, 1.9142, 1.83045, 1.89672, 1.77795, 1.77676, 1.77758, 1.91255, 1.7788, 1.9062, 1.77992
1.94653, 2.04239, 2.00307, 2.06591, 1.94199, 1.98824, 1.98796, 1.98581, 2.04169, 1.93052, 2.05427, 1.92753, 2.055, 2.10851, 1.92073, 1.96907, 1.96795, 1.91646, 1.91455, 1.91624, 2.11416, 1.91079, 2.00323, 1.91409, 1.91512, 1.96353, 1.91685, 1.91724, 2.16378, 2.08407, 2.04905, 2.04856, 2.08238, 2.04478, 1.96397, 2.03532, 2.0351, 2.03437, 2.02889, 2.16644, 2.15586, 2.02114, 2.02047, 2.01811, 2.17101, 2.01477, 2.01534, 2.01375, 2.01427, 2.01744, 2.06202, 2.02507, 1.94854, 2.03036, 2.03321, 2.16354, 2.13426, 2.10802, 2.11493, 2.02549, 2.10162, 2.02216, 2.02191, 2.11728, 2.11622, 2.10332, 2.0206, 2.1112, 2.02023, 2.01764, 2.10765, 2.09174, 2.08942, 2.08971, 2.01305, 2.10763, 2.01088, 2.11176, 2.09444, 2.00716, 2.09062, 2.10348, 2.08403, 2.09304, 2.00011, 2.10059, 2.08632, 2.07269, 2.10381, 2.06995, 2.07149, 2.06921, 2.06901, 1.98932, 2.06889, 1.91048, 1.95901, 2.10364, 1.90346, 1.89637, 2.00987, 1.94137, 1.93967, 1.88611, 1.88545, 1.8821, 1.88072, 1.88216, 1.88032, 2.01262, 2.01272, 1.87611, 1.87509, 1.87506, 1.8742, 1.87297, 1.87326, 1.87299, 1.87478, 1.95813, 1.96137, 1.79703, 1.79581, 1.78979, 1.78846, 1.78544, 1.90996, 1.78272, 1.78222, 1.7793, 1.77724, 1.88055, 1.90678, 1.7757, 1.87657, 1.83713, 1.77815, 1.77884, 1.77853, 1.7765, 1.96572, 1.77757, 1.9052, 1.89421, 1.77603, 1.9098, 1.89583, 1.77826, 1.77983, 1.78081
2.00699, 1.94752, 2.07309, 1.99396, 1.94031, 1.93711, 1.93717, 2.06322, 2.14221, 1.9308, 1.93273, 1.92826, 1.92702, 1.92415, 1.97091, 1.96964, 1.91734, 1.91679, 2.00941, 2.11388, 1.91594, 1.91481, 1.91372, 1.91605, 2.02375, 2.00351, 1.91683, 1.91828, 2.06065, 2.05547, 2.05257, 2.08168, 2.0479, 2.04419, 2.04054, 2.16813, 2.03568, 2.15697, 2.07745, 2.15878, 2.15297, 2.15237, 2.02036, 2.0204, 2.01629, 2.01737, 2.01396, 1.93895, 1.94068, 2.14891, 2.0171, 2.06587, 2.02464, 2.0311, 2.03108, 2.13775, 2.12849, 2.13512, 2.02577, 2.12229, 2.02422, 2.02398, 2.02204, 2.11469, 2.0994, 2.02152, 2.02011, 2.09196, 2.01848, 2.11071, 2.11198, 2.01752, 2.09985, 2.10387, 2.09712, 2.09368, 2.10697, 2.0947, 2.09035, 2.0926, 2.09253, 2.09462, 2.09471, 2.10025, 2.09654, 2.08737, 1.99961, 2.08099, 2.09787, 2.0687, 1.99137, 1.98989, 1.98919, 2.06854, 2.06484, 2.11479, 2.02101, 1.90598, 1.90121, 1.96385, 1.89656, 1.94203, 2.08688, 1.93736, 2.01288, 1.88226, 1.88164, 1.87871, 1.88012, 1.87619, 1.8762, 1.8759, 1.87404, 2.01049, 1.87303, 1.87363, 2.0063, 1.87502, 1.87403, 1.95834, 1.96171, 2.03481, 1.79032, 1.79064, 1.78586, 1.90784, 1.78281, 1.77871, 1.91077, 1.7807, 1.77981, 1.78052, 1.77666, 1.77555, 1.91372, 1.77692, 1.77723, 1.77643, 1.82805, 1.88903, 1.90788, 1.7771, 1.77621, 1.91273, 1.77706, 1.90736, 1.77739, 1.91437, 1.77493, 1.7778
2.01727, 2.05293, 1.94631, 2.05005, 1.94189, 2.06936, 1.99123, 2.02733, 1.93268, 1.93421, 1.93206, 1.9278, 1.9268, 1.98919, 1.92326, 1.9198, 1.9208, 2.12203, 1.91707, 1.9165, 1.91661, 1.91468, 1.96508, 1.9658, 1.91719, 1.91726, 1.97324, 1.91987, 2.0563, 1.98083, 2.08406, 1.97521, 2.048, 2.04306, 1.96391, 2.03722, 2.07967, 2.03402, 2.07709, 2.07425, 2.02428, 2.02123, 2.07493, 2.01747, 2.01801, 2.07221, 2.0147, 2.01519, 1.9397, 2.01724, 2.06494, 2.06422, 2.0278, 2.02996, 2.05948, 2.06203, 2.11525, 2.11558, 2.12744, 2.10986, 2.02364, 2.02303, 2.02198, 2.10195, 2.11364, 2.098, 2.09744, 2.09407, 2.11469, 2.1137, 2.1109, 2.11031, 2.10114, 2.09459, 2.10674, 2.10995, 2.10279, 2.10982, 2.10665, 2.10911, 2.0864, 2.095, 2.00329, 2.08691, 2.11402, 2.09325, 2.09604, 1.99344, 2.09418, 1.99226, 1.99253, 1.9912, 1.98888, 1.98704, 2.07308, 1.915, 1.91002, 1.90418, 1.90199, 1.89787, 1.89442, 1.94183, 2.00322, 1.88729, 1.93527, 1.88424, 1.88227, 1.93003, 1.87846, 1.87671, 1.87306, 1.87619, 1.87496, 1.87512, 1.87403, 1.87363, 2.00953, 2.00314, 1.87279, 1.80342, 1.95889, 1.79599, 1.79196, 1.83891, 1.78601, 1.86604, 1.78169, 1.78219, 1.78113, 1.77923, 1.77992, 1.77747, 1.77593, 1.77808, 1.77806, 1.775, 1.77813, 1.9078, 1.77557, 1.77828, 1.78125, 1.77823, 1.77835, 1.91067, 1.77917, 1.77783, 1.77507, 1.77521, 1.77377, 1.77736
1.99926, 1.94616, 1.94585, 2.05479, 2.05694, 2.07061, 1.9894, 1.98944, 1.93511, 2.02834, 1.93347, 2.04822, 1.9274, 1.92495, 1.98919, 1.92193, 2.123, 1.9177, 1.91612, 1.91476, 2.0173, 1.96666, 1.96549, 1.96559, 2.02446, 1.91683, 2.00607, 1.9684, 2.05757, 2.05956, 2.05288, 2.05486, 2.04614, 2.04549, 2.0418, 2.03923, 2.08031, 2.03359, 2.0302, 1.95085, 2.02496, 2.07445, 2.02072, 1.94434, 2.01488, 2.01682, 2.01752, 2.01554, 1.93936, 2.06684, 2.01843, 2.02163, 2.15234, 2.03209, 2.03496, 2.06158, 2.12733, 2.11924, 2.1279, 2.11564, 2.02499, 2.02387, 2.02364, 2.10885, 2.11104, 2.10627, 2.13034, 2.09287, 2.12067, 2.11271, 2.09067, 2.01758, 2.01719, 2.08929, 2.11138, 2.11312, 2.01073, 2.01027, 2.11008, 2.09712, 2.10776, 2.08376, 2.00287, 2.00304, 2.09041, 1.99948, 2.0862, 2.08422, 1.99325, 1.9911, 1.99123, 1.98971, 1.99082, 1.98828, 2.07976, 1.91619, 1.91044, 1.90404, 1.90279, 1.94797, 1.89685, 2.1043, 1.8884, 1.88685, 1.88696, 1.8834, 1.88096, 1.93144, 1.92939, 1.87628, 1.87529, 1.87477, 1.87378, 1.87327, 2.10306, 1.87464, 1.87294, 1.97778, 1.87299, 1.8017, 1.88977, 1.79337, 1.7929, 1.83958, 1.78596, 1.78395, 1.77973, 1.7792, 1.88394, 1.77642, 1.77771, 1.91291, 1.7742, 1.91378, 1.77608, 1.77661, 1.91105, 1.77499, 1.91022, 1.88227, 1.77868, 1.77684, 1.77666, 1.77275, 1.77394, 1.7769, 1.77533, 1.77843, 1.77362, 1.77579
1.94936, 1.94789, 1.94552, 2.06529, 1.99314, 2.063, 1.94078, 1.98964, 1.93679, 1.98354, 1.98493, 2.14502, 1.92871, 1.92798, 1.92416, 1.92156, 1.91816, 1.91848, 1.91946, 2.03792, 1.9171, 1.91787, 1.96596, 1.91677, 1.91475, 1.91649, 2.00689, 1.91962, 2.05892, 2.05872, 2.05498, 2.05131, 1.97233, 2.045, 2.04167, 2.03855, 1.95829, 2.16278, 2.02971, 1.95278, 2.02477, 1.94709, 2.02085, 1.94472, 2.01735, 2.01792, 2.0163, 2.0177, 1.9396, 2.01633, 2.0217, 2.02178, 2.02467, 2.06191, 1.9617, 2.14744, 2.12103, 2.11399, 2.12558, 2.10124, 2.02504, 2.0235, 2.02421, 2.02229, 2.02186, 2.10488, 2.1104, 2.02021, 2.02082, 2.02153, 2.09312, 2.01734, 2.11434, 2.10027, 2.01505, 2.10161, 2.10728, 2.01142, 2.08457, 2.00707, 2.09313, 2.00642, 2.00407, 2.08927, 2.00123, 2.08936, 2.08264, 2.083, 2.10075, 2.08445, 1.9907, 1.98995, 1.98701, 1.98969, 2.06087, 1.91225, 1.90778, 1.96304, 1.95151, 1.9492, 1.89416, 1.89157, 1.88919, 1.88712, 1.88634, 2.01647, 1.87844, 1.8769, 1.87947, 1.87782, 1.87538, 1.87282, 2.01035, 2.09609, 1.96892, 1.87375, 1.9626, 1.98615, 1.87782, 1.85423, 1.79986, 1.79329, 1.8411, 1.78651, 1.78611, 1.78188, 1.96034, 1.78044, 1.90779, 1.77788, 1.77549, 1.77641, 1.91124, 1.90884, 1.77463, 1.91473, 1.77255, 1.77298, 1.77497, 1.77255, 1.77157, 1.91152, 1.77504, 1.77472, 1.91069, 1.77582, 1.77474, 1.90776, 1.77437, 1.96522
1.95115, 1.94936, 1.94631, 1.94494, 1.94651, 1.99311, 2.02834, 1.93933, 1.93591, 1.98448, 2.05466, 2.14527, 1.92837, 2.12845, 1.925, 2.0343, 2.04228, 1.91829, 1.91941, 2.0421, 1.91763, 1.91543, 1.91722, 2.02881, 2.10773, 1.91673, 1.92021, 1.92022, 2.06151, 2.05868, 2.05852, 2.05209, 2.04958, 2.0831, 1.9664, 2.04242, 2.03567, 2.18107, 1.95802, 2.03054, 2.02519, 2.07805, 2.02173, 2.15157, 2.01782, 2.01595, 1.94113, 2.01677, 2.15137, 2.01821, 2.06554, 2.02394, 2.02463, 1.95356, 2.03728, 2.14987, 2.11797, 2.12336, 2.10502, 2.12792, 2.02488, 2.02345, 2.02191, 2.02035, 2.11553, 2.11048, 2.10842, 2.02138, 2.11491, 2.12872, 2.09322, 2.01548, 2.01677, 2.10748, 2.11156, 2.01208, 2.08546, 2.09689, 2.10362, 2.00783, 2.00697, 2.09299, 2.08889, 2.07226, 2.00005, 1.99999, 2.08288, 2.08718, 2.07734, 2.08263, 1.99087, 1.98936, 1.98844, 1.98935, 2.08596, 2.02369, 1.90743, 1.90598, 1.90194, 1.89632, 2.01786, 2.02027, 1.88771, 2.01626, 2.0067, 1.88289, 1.88189, 2.01321, 1.87821, 1.87739, 1.87347, 1.92432, 1.87279, 1.87204, 1.87113, 1.98227, 1.92073, 1.92195, 1.85209, 1.79828, 1.79577, 1.9103, 1.78932, 1.8862, 1.90672, 1.90826, 1.78244, 1.90616, 1.90598, 1.77865, 1.90076, 1.77485, 1.77378, 1.77402, 1.77331, 1.91057, 1.77294, 1.77428, 1.9081, 1.91166, 1.77408, 1.77373, 1.77415, 1.77437, 1.77285, 1.77105, 1.91736, 1.77491, 1.77505, 1.77305
1.95237, 1.94962, 2.04241, 1.94806, 1.99589, 1.94243, 2.06766, 2.05021, 2.0482, 1.98682, 1.9346, 1.93116, 1.93133, 1.92709, 2.04015, 2.03461, 1.92076, 1.9235, 2.04559, 1.91681, 1.91536, 1.91694, 1.91691, 1.91735, 1.91773, 2.09958, 1.92053, 1.91793, 2.06056, 2.05837, 2.05821, 2.08777, 2.04952, 1.97088, 2.04355, 2.04151, 2.03729, 2.1654, 2.03393, 2.03055, 2.02503, 2.08073, 1.94492, 2.0208, 2.01729, 2.0737, 2.15549, 2.01783, 2.01769, 2.0172, 2.01993, 2.02284, 2.02762, 2.03437, 2.03381, 1.96666, 2.11033, 2.10826, 2.10477, 2.10166, 2.10156, 2.02369, 2.02359, 2.02424, 2.10772, 2.11161, 2.02147, 2.11286, 2.11751, 2.11548, 2.09282, 2.11742, 2.10173, 2.01543, 2.01383, 2.1027, 2.0856, 2.01096, 2.0084, 2.00774, 2.09156, 2.10818, 2.08659, 2.09407, 2.08645, 2.09971, 2.09727, 2.10343, 2.08289, 2.09911, 1.99073, 1.98931, 1.98794, 2.07056, 2.06448, 1.91109, 1.90994, 2.01676, 1.90145, 1.89674, 1.89282, 1.89146, 2.10971, 1.88586, 1.88501, 1.97288, 1.93224, 1.87925, 1.87554, 2.00696, 1.87535, 1.92481, 1.87299, 2.00811, 2.00766, 1.87018, 2.00043, 2.00396, 1.8704, 1.80011, 1.84527, 1.79141, 1.78742, 1.88024, 1.78529, 1.78182, 1.77983, 1.77779, 1.8266, 1.77472, 1.77534, 1.77313, 1.77251, 1.77194, 1.77481, 1.77197, 1.77337, 1.77501, 1.90819, 1.77253, 1.77541, 1.82522, 1.82384, 1.77222, 1.77292, 1.77279, 1.77242, 1.77306, 1.77326, 1.90508
1.9524, 2.07542, 1.94719, 1.94859, 2.14553, 2.14569, 1.94281, 1.94054, 1.9896, 1.93784, 1.93453, 1.93228, 2.05508, 1.97958, 2.11396, 1.9753, 1.92015, 1.9706, 1.97056, 1.91668, 1.91531, 1.91736, 1.9688, 2.02439, 2.02381, 1.92061, 1.91908, 1.92018, 2.06128, 2.05885, 2.08937, 2.05516, 2.05469, 2.04643, 2.0852, 2.04212, 1.96208, 2.03485, 2.16034, 1.95462, 2.02582, 2.02497, 2.02469, 2.01931, 2.02124, 1.94249, 2.07612, 2.07303, 2.01728, 2.01912, 2.0201, 2.02157, 2.02665, 2.03333, 2.03813, 2.14914, 2.12244, 2.10728, 2.12575, 2.02782, 2.10186, 2.02422, 2.02275, 2.0227, 2.12181, 2.0208, 2.1168, 2.11568, 2.02002, 2.11684, 2.02067, 2.10528, 2.10118, 2.09694, 2.01484, 2.10569, 2.10083, 2.01175, 2.10994, 2.00757, 2.10289, 2.09576, 2.09655, 2.09569, 2.08123, 2.08176, 2.0851, 2.06672, 2.08941, 2.06883, 1.99013, 1.98878, 1.98806, 2.08222, 2.06338, 1.91349, 1.90709, 1.90457, 1.9002, 2.10642, 1.8936, 1.88994, 1.88916, 2.1081, 2.01746, 1.88222, 1.8798, 1.87716, 1.87711, 1.87631, 1.87516, 1.87249, 1.87047, 1.87289, 1.87015, 1.86941, 1.86919, 1.87163, 2.00247, 1.89676, 1.793, 1.79098, 1.78788, 1.90582, 1.88858, 1.83019, 1.88881, 1.77602, 1.7756, 1.77235, 1.77212, 1.90882, 1.90749, 1.82189, 1.82021, 1.77092, 1.90936, 1.76962, 1.77431, 1.77003, 1.77055, 1.82405, 1.89456, 2.08285, 1.77222, 1.90797, 1.77308, 1.77356, 1.77306, 1.77355
1.95275, 1.95231, 1.9997, 1.94902, 1.94362, 1.9942, 1.94155, 1.93901, 1.93845, 1.93722, 2.06052, 1.98291, 1.93172, 1.92994, 1.92802, 1.97577, 2.01005, 2.01164, 1.92077, 1.96965, 1.91918, 1.96885, 1.9181, 2.03246, 2.11012, 1.92059, 1.92088, 1.9221, 2.09329, 2.0628, 2.05559, 2.05352, 2.05012, 2.04606, 2.04367, 2.16366, 2.08377, 2.03903, 2.03285, 2.02826, 2.03097, 1.95058, 2.08291, 2.01952, 2.02064, 2.01706, 2.01627, 2.01778, 2.01858, 2.01903, 2.01807, 1.94837, 2.02612, 2.06634, 1.95934, 2.06227, 2.03213, 2.12256, 2.11756, 2.10734, 2.02555, 2.10193, 2.02274, 2.02437, 2.10516, 2.02184, 2.02082, 2.02064, 2.10311, 2.11572, 2.11843, 2.09061, 2.01773, 2.10837, 2.11513, 2.01392, 2.01197, 2.10406, 2.10732, 2.10025, 2.0984, 2.10026, 2.11351, 2.08758, 2.08068, 2.08285, 2.10403, 2.08432, 2.08265, 2.06854, 2.07147, 1.98709, 1.98786, 2.06334, 2.07614, 1.96349, 1.90798, 2.11961, 1.89827, 1.89447, 1.8939, 1.88998, 1.98627, 1.88586, 1.88326, 2.01126, 1.8789, 1.88102, 1.87586, 1.87561, 2.09774, 1.98166, 1.87358, 1.92171, 1.87237, 1.87059, 1.86821, 1.92035, 1.92177, 1.84742, 1.90339, 1.84222, 1.78654, 1.78392, 1.95656, 1.77996, 1.77584, 1.77558, 1.91256, 1.91023, 1.95866, 1.76995, 1.90704, 1.82118, 1.82175, 1.81991, 1.9019, 2.02682, 1.77096, 1.9081, 1.83534, 1.77088, 1.77249, 1.77103, 1.77151, 1.90729, 1.90478, 1.77085, 1.77323, 1.77597
2.00341, 1.95234, 1.94933, 2.00029, 1.94793, 2.03763, 1.94194, 2.0648, 1.93829, 2.06203, 2.06202, 2.04489, 1.93462, 1.93196, 1.92723, 1.9261, 1.92437, 1.97269, 1.971, 1.96913, 2.03804, 1.96856, 1.96932, 1.91839, 1.91996, 1.92124, 1.92116, 2.08675, 2.06294, 2.06224, 2.05329, 2.05355, 2.05217, 2.04911, 2.04507, 2.16608, 2.16126, 2.03677, 2.03391, 2.03099, 1.9519, 2.15849, 2.07913, 2.07662, 2.07612, 2.01782, 2.0177, 2.07298, 2.16728, 2.07014, 2.02202, 2.02421, 1.9511, 2.06532, 2.03841, 2.06196, 2.12628, 2.12973, 2.13824, 2.12059, 2.02544, 2.02454, 2.02163, 2.10977, 2.10721, 2.02487, 2.09571, 2.10664, 2.1113, 2.1093, 2.10308, 2.09339, 2.01799, 2.10106, 2.11105, 2.01391, 2.01308, 2.09688, 2.11229, 2.00957, 2.0077, 2.10961, 2.09337, 2.087, 2.00315, 1.99986, 2.08919, 2.08245, 1.99347, 2.09514, 2.06919, 2.06871, 1.9896, 2.07992, 2.06413, 1.91256, 1.90759, 2.11134, 1.90014, 1.8983, 1.89399, 1.94087, 1.88684, 1.93634, 1.9341, 1.88288, 1.87874, 1.87709, 1.87745, 2.0085, 2.0863, 1.87258, 1.86864, 1.8693, 1.87173, 1.9198, 1.86798, 1.86962, 1.84829, 1.88702, 1.9028, 1.78839, 1.90652, 1.78327, 1.77991, 1.77672, 1.77424, 1.77314, 1.91044, 1.90465, 1.76941, 2.01021, 1.76953, 1.77008, 1.77167, 1.76928, 1.77014, 1.90658, 1.9118, 1.77102, 1.77001, 1.82265, 1.82055, 1.8233, 1.7715, 1.77014, 1.77262, 1.77405, 1.77231, 1.77522
2.00376, 2.06015, 1.95133, 1.95126, 1.94906, 2.03734, 1.99641, 1.9424, 2.14752, 1.93753, 2.13768, 1.93559, 2.0557, 2.14293, 1.93153, 1.92788, 2.04765, 1.92057, 1.97217, 1.97008, 1.97162, 1.91849, 2.11449, 1.97184, 1.91887, 1.92003, 2.10094, 1.92142, 2.09636, 2.05998, 1.97999, 2.05498, 2.05201, 1.97183, 2.0882, 2.04501, 2.18476, 2.08355, 2.03265, 2.08303, 2.02774, 2.08112, 2.0209, 1.94599, 2.02017, 1.93964, 1.94263, 2.01842, 2.02099, 2.0207, 2.02113, 2.02404, 2.02756, 2.06373, 2.06219, 2.06297, 2.12567, 2.12033, 2.12265, 2.10776, 2.02698, 2.0253, 2.02403, 2.1031, 2.10754, 2.10663, 2.11778, 2.10362, 2.10328, 2.02155, 2.10153, 2.10651, 2.01767, 2.10756, 2.10787, 2.1042, 2.0111, 2.09696, 2.01032, 2.10244, 2.00693, 2.00723, 2.08909, 2.00446, 2.085, 2.09847, 2.09038, 2.07378, 2.0714, 2.09318, 2.07028, 1.9873, 2.05977, 1.98789, 2.06283, 1.91209, 1.90654, 2.01818, 1.89986, 1.89739, 1.89287, 1.94128, 1.88677, 1.99301, 1.88291, 1.93137, 1.87947, 1.94731, 1.87613, 1.8753, 1.8726, 2.00686, 1.87057, 2.00709, 1.86968, 1.97002, 1.86751, 1.96018, 2.10091, 1.89824, 1.90402, 1.8388, 1.90429, 1.78077, 1.87207, 1.77695, 1.9073, 1.77365, 1.77232, 1.90801, 1.89096, 1.90974, 2.00644, 1.90743, 1.76763, 1.90859, 1.76694, 1.90659, 1.76531, 1.76978, 1.76852, 1.76913, 1.82089, 1.8207, 1.77074, 1.77272, 1.77176, 1.7693, 1.77183, 1.77286
1.95283, 1.95182, 2.05831, 2.00025, 1.94736, 1.94516, 1.94335, 2.13073, 1.99272, 1.99034, 1.93732, 1.93524, 1.98316, 1.93279, 1.9821, 1.97798, 1.92644, 2.05524, 1.9193, 1.92006, 2.04626, 1.92138, 1.91942, 1.91998, 2.02151, 1.92102, 2.02464, 1.92354, 2.0648, 2.0597, 2.05623, 2.05579, 2.05215, 2.04892, 2.04551, 2.04421, 2.08367, 2.16989, 2.03419, 2.03277, 2.03155, 2.03041, 2.0206, 2.02054, 2.01924, 2.01923, 2.01804, 2.01932, 2.02006, 2.06961, 2.02467, 2.02442, 1.95343, 2.03373, 2.06328, 2.15353, 2.13208, 2.03129, 2.10674, 2.10007, 2.02486, 2.02457, 2.02337, 2.12167, 2.11459, 2.09545, 2.11399, 2.11644, 2.10649, 2.11779, 2.11449, 2.01719, 2.1031, 2.09731, 2.10765, 2.0903, 2.11107, 2.09688, 2.01066, 2.09746, 2.08981, 2.09313, 2.08819, 2.0996, 2.09326, 2.08395, 2.09652, 2.06975, 2.07107, 2.0656, 1.99061, 2.06326, 1.98942, 1.98814, 2.06614, 2.03865, 1.90685, 1.90272, 1.95008, 1.8954, 1.89361, 1.89031, 1.88836, 1.88522, 2.01738, 1.88151, 1.87738, 1.87551, 1.96814, 1.87443, 1.87177, 1.87195, 1.97751, 1.86838, 1.86967, 1.86869, 2.00718, 1.86686, 1.86834, 1.90144, 1.78948, 1.78569, 1.83379, 1.78189, 1.77827, 1.77489, 1.77322, 1.77358, 1.90154, 1.7702, 1.76823, 1.90027, 1.91013, 1.76628, 1.76711, 1.76567, 1.76645, 1.76598, 1.76657, 1.76826, 1.76949, 1.90808, 1.76562, 1.82072, 1.77211, 1.76996, 1.7751, 1.77222, 1.77229, 1.82411
