1.94508, 2.04295, 2.05162, 2.05188, 1.94766, 1.94367, 1.94202, 1.93928, 1.93776, 1.93768, 1.93796, 1.98749, 2.00974, 1.98568, 1.9377, 2.04167, 1.98333, 1.98284, 1.99674, 2.01476, 1.97883, 1.92827, 1.97416, 2.02749, 1.92235, 1.92192, 1.97246, 2.03226, 1.92103, 1.91939, 1.91778, 2.03505, 1.91946, 1.91925, 2.03397, 2.11766, 2.11066, 2.01098, 1.97057, 1.92297, 1.92139, 2.01575, 1.97352, 1.97551, 2.06906, 2.06891, 1.98334, 2.0697, 2.06904, 2.06722, 2.05117, 2.04952, 2.0495, 2.04799, 2.04564, 2.04533, 2.04404, 2.0376, 2.03829, 2.03508, 2.03362, 2.06217, 2.06394, 2.06455, 2.02513, 2.02236, 2.02445, 2.01945, 1.94081, 2.01686, 2.15571, 2.0135, 2.01319, 2.01393, 2.01016, 2.01098, 2.05662, 1.93414, 1.93542, 1.93446, 2.01007, 2.05903, 2.01199, 2.05184, 2.01444, 2.02071, 2.02183, 2.02355, 2.04755, 2.14328, 2.02019, 2.02048, 2.11379, 2.09251, 2.09111, 2.1042, 2.09375, 2.08972, 2.08747, 2.01012, 2.00988, 2.00978, 2.09403, 2.08343, 2.09262, 2.10027, 2.09356, 2.00675, 2.00806, 2.09086, 2.09406, 2.11299, 2.09064, 2.0901, 2.00291, 2.10739, 2.00014, 2.09086, 2.0971, 2.10686, 2.08719, 2.09633, 2.09813, 2.0897, 2.07883, 2.07581, 2.08747, 2.09434, 2.07626, 2.06369, 2.07682, 2.07699, 2.06221, 2.06026, 1.98613, 2.08011, 2.07577, 2.08807, 1.98091, 1.97897, 2.0632, 2.06576, 2.06652, 1.9757, 1.97509, 1.97204, 1.97225, 2.0538, 1.97033, 2.04971, 1.97055, 1.91026, 1.90722, 1.90688, 1.95492, 1.95338, 1.95135, 1.90003, 1.89917, 1.89653, 2.00349, 1.99971, 1.89441, 2.00134, 1.89525, 1.89398, 1.99729, 1.89159, 1.8925, 2.08754, 1.89281, 1.98362, 1.89274, 1.9808, 1.89052, 1.88718, 2.07744, 1.9864, 1.88669, 1.88565, 1.88586, 1.88516, 2.06646, 1.88458, 1.88565, 2.07404, 1.98039, 1.72893, 1.91542, 1.72451, 1.77389, 1.77254, 1.76941, 1.71622, 1.715, 1.71471, 1.7115, 1.82046, 1.70996, 1.70911, 1.70528, 1.89651, 1.70463, 1.89573, 1.70377, 1.7035, 1.70225, 1.70323, 1.70055, 1.7002, 1.79633, 1.70445, 1.70263, 1.70126, 1.70067, 1.70193, 1.70298, 1.70604, 1.88697, 1.88461, 1.88166, 1.70378, 1.70605, 1.70403, 1.86165, 1.75883, 1.76016, 1.7074, 1.76422, 1.76083, 1.71053, 1.71603, 1.71715, 1.71594, 1.86522, 1.71971, 1.72019, 1.7224, 1.85523, 1.72352
2.05195, 1.9453, 1.94679, 1.94411, 1.94161, 1.94363, 1.94112, 1.94225, 1.93971, 1.93976, 1.93582, 1.93727, 1.93775, 1.93432, 1.98569, 1.9812, 1.93116, 1.92797, 1.98297, 1.93067, 2.20823, 2.11626, 1.97589, 1.97573, 1.92377, 1.9729, 1.92148, 2.02971, 2.03873, 2.0331, 1.91843, 2.03527, 1.91705, 2.03893, 1.91658, 1.91785, 2.02742, 1.96926, 1.96917, 1.97192, 1.91925, 1.92205, 1.92454, 2.02386, 2.06157, 2.06051, 2.15507, 2.05904, 2.05309, 2.06451, 2.06164, 2.06665, 1.97315, 2.04491, 2.0433, 2.06401, 2.04127, 2.03738, 2.03503, 2.06558, 2.15119, 1.9555, 2.02664, 2.02786, 2.03064, 1.94495, 2.023, 2.14542, 2.06287, 2.06243, 1.93906, 2.0153, 2.0136, 1.93519, 2.15917, 2.00901, 2.01302, 2.01029, 2.01015, 2.00893, 2.01064, 2.01339, 1.93757, 1.93566, 2.01795, 2.05087, 2.05014, 2.02359, 2.13496, 2.1324, 2.11373, 2.12008, 2.01737, 2.10075, 2.10422, 2.09079, 2.08802, 2.08985, 2.01033, 2.01061, 2.01458, 2.00783, 2.11003, 2.09086, 2.10716, 2.09359, 2.10054, 2.00677, 2.08958, 2.08076, 2.10375, 2.09307, 2.08782, 2.09728, 2.00333, 2.08938, 2.09923, 2.10588, 2.09514, 2.0977, 2.09025, 2.08897, 2.093, 2.0829, 2.09734, 1.99459, 1.99365, 2.08335, 1.99088, 2.07027, 2.07509, 1.98999, 1.9893, 2.08124, 2.07035, 1.98384, 1.98254, 1.98283, 2.07728, 2.0722, 2.07596, 2.0694, 1.97539, 1.97422, 1.97527, 1.97366, 1.97092, 1.97066, 2.04761, 2.059, 2.04892, 1.90806, 2.1103, 1.98181, 1.9538, 1.90304, 1.90254, 1.90017, 1.89952, 1.89949, 2.08246, 1.89546, 1.89298, 1.89462, 1.89538, 1.89451, 2.08286, 1.89286, 1.99689, 1.89276, 1.9658, 1.89063, 1.99202, 1.88978, 1.8895, 2.08287, 1.88582, 1.88717, 1.88696, 1.88499, 1.88599, 1.88502, 1.88083, 1.88579, 1.88334, 1.88335, 1.8804, 1.72472, 1.91078, 1.72128, 1.90939, 1.90805, 1.71727, 1.71639, 1.7132, 1.71135, 1.71025, 1.89851, 1.7103, 1.70782, 1.80752, 1.70273, 1.89312, 1.7039, 1.70439, 1.7004, 1.70213, 1.89215, 1.70194, 1.70005, 1.6991, 1.70063, 1.70082, 1.69884, 1.69943, 1.70259, 1.69927, 1.70314, 1.70101, 1.70267, 1.70437, 1.78973, 1.7043, 1.86155, 1.90907, 1.90693, 1.85591, 1.70465, 1.75976, 1.71033, 1.76298, 1.71281, 1.71061, 1.71373, 1.81816, 1.71813, 1.71951, 1.85459, 1.7172, 1.72034
1.942, 1.94503, 1.99323, 1.99524, 1.99964, 2.04464, 2.05196, 1.94016, 2.04666, 2.0469, 2.0341, 1.93624, 1.93462, 2.04726, 2.06117, 1.93144, 1.92941, 1.92822, 1.98274, 2.04624, 1.92622, 1.92709, 1.92648, 1.97282, 1.92147, 1.98638, 2.02848, 2.03108, 1.91539, 2.036, 1.91815, 1.91779, 1.91676, 1.91642, 1.91669, 1.96726, 1.91566, 1.91701, 1.96864, 1.96992, 1.92362, 2.09468, 1.9245, 2.10348, 2.06585, 2.16495, 2.06614, 2.14459, 2.06282, 2.06557, 2.04947, 2.06595, 1.97077, 2.04434, 2.04468, 2.06422, 2.04084, 2.03816, 2.03431, 1.95788, 2.02945, 2.0296, 2.02497, 2.14913, 2.06263, 2.15546, 2.02488, 2.01799, 2.01888, 2.01961, 2.01503, 1.93687, 2.01345, 2.00989, 1.93431, 2.01396, 2.01246, 2.05634, 2.05572, 2.00969, 2.05473, 2.01082, 1.93665, 2.01644, 1.94138, 2.04804, 1.94328, 2.02448, 2.02791, 2.04618, 2.01862, 2.10053, 2.09708, 2.10331, 2.10771, 2.09612, 2.01292, 2.08878, 2.01093, 2.00864, 2.00808, 2.00742, 2.09417, 2.09765, 2.09778, 2.08994, 2.00682, 2.00521, 2.1044, 2.07857, 2.10015, 2.09358, 2.00336, 2.00299, 2.00088, 2.00121, 2.10077, 2.10722, 2.09649, 2.09389, 2.0859, 2.08353, 2.09916, 2.08377, 2.08857, 2.07999, 1.9904, 1.98962, 2.07365, 2.07464, 2.08337, 2.07853, 2.06733, 2.0768, 2.07597, 1.98488, 2.07725, 1.98076, 2.0723, 1.97908, 1.97722, 2.05956, 2.06307, 2.04925, 1.97264, 1.971, 1.9718, 1.9684, 1.97008, 1.96906, 2.04767, 1.90605, 2.00194, 1.90436, 1.90247, 1.90015, 1.90006, 1.90099, 1.8999, 2.0901, 1.94543, 1.99989, 1.9975, 1.89479, 1.89365, 1.89258, 1.89391, 1.89128, 1.89158, 1.99111, 1.99264, 1.98755, 1.89046, 1.88983, 2.08214, 1.88936, 1.88696, 1.88386, 2.06135, 1.8847, 2.06296, 1.93399, 1.99152, 1.93113, 1.93121, 2.07387, 1.87992, 1.72837, 1.7223, 1.72277, 1.71649, 1.71578, 1.71413, 1.71074, 1.70894, 1.71061, 1.71013, 1.71018, 1.70628, 1.70698, 1.89439, 1.70327, 1.79438, 1.70216, 1.89456, 1.89283, 1.95137, 1.74887, 1.69803, 1.69773, 1.69755, 1.6968, 1.69862, 1.69789, 1.69783, 1.88474, 1.79761, 1.88319, 1.88093, 1.81073, 1.70159, 1.70275, 1.75482, 1.70225, 1.85776, 1.90704, 1.75508, 1.70736, 1.70936, 1.70849, 1.71121, 1.70974, 1.71351, 1.71384, 1.7135, 1.71257, 1.71376, 1.85201, 1.85117, 1.71909
2.06504, 1.94424, 1.94287, 1.94092, 1.99076, 2.038, 1.94132, 1.98986, 1.9347, 1.98548, 1.98706, 1.93486, 2.04289, 1.93419, 2.04414, 1.93239, 1.93068, 1.92776, 1.92793, 1.92787, 1.92534, 1.9273, 1.92244, 2.04199, 1.92112, 1.92129, 2.03604, 2.02779, 1.91744, 1.9168, 1.96524, 1.91807, 1.91619, 1.96531, 1.96479, 1.91769, 1.91775, 1.91803, 1.9682, 1.92072, 1.9199, 2.0801, 1.92409, 1.92457, 2.06055, 2.06523, 2.06525, 2.05535, 2.05181, 2.05016, 2.04902, 2.05001, 2.04712, 1.96873, 2.05948, 2.0413, 2.06253, 2.03583, 2.03389, 2.03222, 1.95482, 2.05966, 2.02412, 2.02467, 2.02476, 1.94221, 2.02045, 2.01426, 2.01377, 2.0144, 1.934, 2.01183, 2.0602, 2.01053, 2.01041, 2.13606, 2.00754, 1.93434, 2.00893, 1.93264, 1.93361, 2.01033, 2.01154, 2.01542, 2.01675, 2.01756, 2.0466, 2.13913, 2.04836, 2.14062, 2.11767, 2.01759, 2.1101, 2.12451, 2.09979, 2.08986, 2.01062, 2.01013, 2.01135, 2.01003, 2.00877, 2.00763, 2.09768, 2.00761, 2.09982, 2.09711, 2.0908, 2.09077, 2.10197, 2.09114, 2.0785, 2.00358, 2.00288, 2.00362, 2.09177, 2.08841, 2.08633, 1.99726, 2.10005, 2.08081, 2.0916, 2.08589, 2.08646, 2.08581, 1.99014, 2.07382, 2.07648, 2.09266, 2.08351, 2.08233, 2.07931, 2.07725, 2.08254, 2.07644, 2.07888, 1.98272, 2.07162, 2.06522, 2.06868, 2.05963, 2.06113, 2.05973, 2.05883, 2.05128, 1.97305, 2.04886, 1.96997, 1.96951, 1.96803, 2.05513, 2.04471, 1.91095, 2.07394, 1.90286, 1.90361, 1.90273, 1.89915, 1.89958, 1.89954, 1.89878, 1.94599, 1.89559, 2.09367, 2.09089, 1.94392, 1.94219, 1.9415, 1.89204, 1.9911, 1.94179, 1.89221, 1.9855, 1.88931, 1.89122, 1.88728, 2.08342, 1.88625, 1.9789, 1.88746, 1.88427, 1.88435, 1.881, 1.93171, 1.96697, 1.87852, 2.0655, 1.92793, 1.82424, 1.71914, 1.91097, 1.71669, 1.71409, 1.71276, 1.90336, 1.70992, 1.71048, 1.89656, 1.70807, 1.70459, 1.75452, 1.70143, 1.70262, 1.70269, 1.7017, 1.70305, 1.75238, 1.6977, 1.89287, 1.69883, 1.6962, 1.88695, 1.74832, 1.74724, 1.88766, 1.88619, 1.69774, 1.88445, 1.698, 1.69893, 1.88118, 1.80366, 1.70283, 1.70063, 1.70277, 1.69992, 1.70331, 1.75387, 1.85202, 1.75489, 1.75795, 1.75765, 1.75962, 1.71248, 1.8616, 1.71335, 1.86135, 1.71321, 1.71443, 1.71824, 1.71658
1.94369, 1.94305, 1.94297, 1.93997, 1.94008, 1.93851, 1.94069, 1.98667, 1.98715, 1.99662, 1.98558, 1.9336, 1.9327, 2.0414, 1.93244, 1.92906, 1.93032, 1.92735, 1.92613, 1.92428, 1.92685, 2.03469, 1.9226, 1.92113, 1.92151, 1.91927, 2.0354, 1.91752, 1.91659, 1.91795, 2.03897, 1.91551, 1.91512, 1.91387, 2.01163, 1.91727, 1.91744, 1.91517, 2.08767, 2.08393, 1.96915, 1.91988, 2.19137, 1.92426, 2.06963, 2.06506, 2.058, 2.06058, 2.14211, 1.97333, 2.04808, 2.04759, 1.96747, 2.04256, 2.06072, 2.04153, 2.03893, 2.03485, 1.9588, 2.03228, 2.03279, 2.03079, 2.03077, 2.02787, 2.13835, 2.05917, 2.05981, 2.01225, 2.01306, 2.01373, 2.01422, 1.93437, 1.93498, 1.93492, 2.00854, 2.00695, 2.05497, 1.93081, 2.00687, 2.00857, 2.01, 1.93382, 2.13938, 2.01468, 2.01668, 2.019, 2.02153, 1.94586, 2.02434, 2.04841, 2.12267, 2.10904, 2.01467, 2.11097, 2.08754, 2.09646, 2.01042, 2.0097, 2.01042, 2.00861, 2.00729, 2.00659, 2.00656, 2.00663, 2.09013, 2.08194, 2.0808, 2.08001, 2.09596, 2.09018, 2.09698, 2.08672, 2.09083, 2.09018, 2.07614, 2.08869, 2.09334, 1.99494, 2.09569, 2.07179, 2.08208, 2.07673, 2.09273, 2.08605, 2.08863, 1.98961, 2.07709, 1.99093, 2.09287, 1.98729, 1.9866, 2.07975, 1.98603, 1.98623, 2.07029, 2.07831, 2.06346, 2.09018, 2.06675, 2.07742, 2.067, 2.05056, 2.0493, 2.05173, 1.97032, 1.96803, 1.96892, 1.96948, 1.96741, 1.96683, 2.06373, 1.90981, 2.09695, 1.90237, 1.90381, 1.9021, 1.89803, 2.00781, 2.00647, 1.98323, 1.94548, 1.94447, 1.94491, 1.94306, 1.95112, 1.94103, 1.94136, 1.89105, 1.8891, 1.88925, 1.8902, 1.98761, 1.88882, 1.97995, 1.88906, 1.88655, 1.88634, 1.88587, 1.98004, 1.88372, 1.88344, 1.88208, 2.06574, 1.8783, 1.87576, 1.92803, 1.92735, 1.71976, 1.71811, 1.71802, 1.90509, 1.71059, 1.71272, 1.82036, 1.75895, 1.70786, 1.75661, 1.70247, 1.70335, 1.75377, 1.75264, 1.70091, 1.69759, 1.69799, 1.69769, 1.75157, 1.69516, 1.69735, 1.69582, 1.69577, 1.89257, 1.74698, 1.69902, 1.69337, 1.69564, 1.69602, 1.69616, 1.69581, 1.69879, 1.79936, 1.75752, 1.75522, 1.87619, 1.70011, 1.8563, 1.85417, 1.70097, 1.85196, 1.75494, 1.75465, 1.84743, 1.70785, 1.86184, 1.71057, 1.85491, 1.85568, 1.71715, 1.71709, 1.71524, 1.84626
2.06711, 1.99101, 1.99298, 1.93961, 1.9385, 2.00977, 2.02831, 1.98553, 1.93524, 2.1035, 1.93345, 1.98385, 1.93066, 1.93097, 1.93396, 1.92878, 1.92925, 2.0416, 1.97827, 1.97759, 1.92501, 1.97367, 1.92265, 1.92107, 1.92189, 1.92091, 1.9192, 1.91818, 2.02005, 2.02164, 2.03605, 2.03226, 1.91504, 1.91631, 2.10409, 1.91378, 1.91671, 1.91411, 1.91588, 1.96598, 1.96721, 1.91878, 1.92026, 2.14461, 2.05928, 2.06411, 2.16273, 2.06089, 1.97573, 2.05256, 2.05227, 2.04652, 2.04554, 2.05724, 2.05898, 1.96558, 2.14115, 2.14156, 2.06235, 2.03084, 2.03081, 2.05884, 2.0272, 2.02272, 2.05917, 2.02179, 2.13437, 1.93912, 2.01534, 1.93807, 2.01129, 1.93472, 2.06232, 2.01083, 2.00977, 2.00896, 2.0073, 2.00798, 2.00764, 1.9309, 2.00745, 2.00767, 2.01291, 1.93418, 2.13793, 2.04824, 1.94099, 2.02081, 2.04743, 2.14143, 2.10781, 2.10407, 2.09335, 2.11039, 2.10263, 2.10434, 2.00991, 2.00806, 2.00769, 2.01038, 2.00737, 2.10255, 2.10091, 2.08309, 2.08752, 2.09645, 2.00203, 2.00362, 2.10019, 2.0935, 2.09604, 2.00088, 2.08036, 2.07685, 1.99817, 1.99758, 1.99771, 2.0853, 1.99476, 2.09562, 2.0859, 2.07626, 2.07553, 2.07006, 2.08788, 2.07062, 2.07712, 2.082, 2.08363, 2.08055, 2.07501, 1.98638, 2.06637, 1.9856, 2.07253, 1.98252, 2.07525, 1.97982, 2.0565, 2.05505, 2.06528, 2.05705, 2.05508, 2.04527, 1.9699, 1.97092, 1.96777, 1.96479, 1.96675, 2.05943, 2.06216, 1.90692, 1.90524, 1.90435, 2.09067, 1.89974, 1.94847, 2.0061, 2.0048, 1.94492, 1.94387, 1.8932, 1.94381, 1.89263, 1.95454, 1.94082, 1.94038, 1.88922, 2.08018, 2.08004, 1.88533, 1.88726, 1.88694, 1.88616, 1.88594, 1.88543, 1.88317, 2.06631, 1.98306, 1.88292, 1.87986, 1.87976, 2.07527, 2.05911, 2.07317, 1.87606, 1.87312, 1.71784, 1.90316, 1.71584, 1.71352, 1.71175, 1.70968, 1.70569, 1.70622, 1.75648, 1.70459, 1.89143, 1.70153, 1.88182, 1.69769, 1.6967, 1.69922, 1.69897, 1.74737, 1.69716, 1.80669, 1.80265, 1.6924, 1.69383, 1.89013, 1.69583, 1.88799, 1.69642, 1.88217, 1.74544, 1.69569, 1.74511, 1.86441, 1.87943, 1.8773, 1.69465, 1.79759, 1.69467, 1.75169, 1.7503, 1.75124, 1.69956, 1.84889, 1.75894, 1.70695, 1.70576, 1.70402, 1.70948, 1.71165, 1.76154, 1.70791, 1.76352, 1.83153, 1.71468
1.94324, 1.94092, 1.93914, 1.93898, 1.93805, 1.93748, 1.93714, 1.98639, 1.98619, 1.93399, 1.93395, 1.93164, 1.93055, 1.93104, 1.92919, 2.04126, 1.92855, 1.99763, 1.9754, 1.97546, 1.97222, 1.97256, 1.92158, 2.0181, 1.92075, 1.96647, 1.96846, 1.96573, 1.96592, 1.91589, 2.01671, 1.91706, 1.914, 1.91262, 1.91402, 1.91365, 1.91296, 1.91519, 1.9145, 1.91789, 1.92042, 2.10328, 1.92108, 1.92233, 2.06543, 2.06204, 2.06007, 2.05861, 2.06106, 2.14213, 2.04617, 1.96879, 2.0467, 2.05885, 1.96468, 2.0411, 2.05905, 2.0344, 2.0376, 2.03268, 2.02765, 2.02791, 1.94947, 1.9481, 1.94233, 2.02082, 2.01749, 2.01722, 2.14235, 2.0135, 2.01164, 1.93473, 2.00672, 1.93029, 2.00761, 2.006, 2.00693, 2.13943, 2.00789, 2.01065, 2.04976, 1.93223, 1.9341, 2.01308, 2.01385, 1.93938, 2.04459, 2.0489, 2.13115, 2.15092, 2.1029, 2.09349, 2.01125, 2.10717, 2.01043, 2.10254, 2.0076, 2.00681, 2.00715, 2.00632, 2.08476, 2.00614, 2.08051, 2.08079, 2.08259, 2.00403, 2.0924, 2.10654, 2.00382, 2.10854, 2.00076, 2.10751, 2.09389, 1.99947, 2.09425, 1.99738, 2.09112, 2.08944, 2.0762, 2.09005, 2.08983, 2.08419, 1.98978, 2.08291, 1.98959, 2.06558, 2.0969, 2.06973, 2.06904, 2.07261, 1.98642, 1.98552, 2.08235, 2.08621, 1.98297, 1.98068, 1.97912, 2.07236, 2.06291, 2.06847, 2.0549, 2.04985, 2.05566, 2.04495, 2.04357, 1.96602, 1.96536, 1.96619, 1.96665, 2.06221, 2.05844, 1.90598, 1.90461, 1.90294, 1.89965, 2.09366, 1.89819, 1.9454, 1.94443, 1.94442, 1.95355, 1.89311, 2.01697, 2.00288, 1.88726, 1.88897, 1.88993, 2.07934, 1.98733, 1.88733, 1.88554, 1.93704, 1.9377, 2.06323, 2.06264, 1.88353, 1.97928, 1.88177, 1.88193, 1.87916, 1.88066, 1.87831, 1.87717, 1.87599, 1.87446, 1.87305, 1.87186, 1.71841, 1.90696, 1.71457, 1.71199, 1.89955, 1.70866, 1.70449, 1.70244, 1.7015, 1.70055, 1.70114, 1.70019, 1.69978, 1.69873, 1.80013, 1.76578, 1.79997, 1.69672, 1.80277, 1.69292, 1.693, 1.81313, 1.74432, 1.69101, 1.69108, 1.69028, 1.77396, 1.88082, 1.69358, 1.75395, 1.69214, 1.6934, 1.87515, 1.69058, 1.69519, 1.87581, 1.69825, 1.87483, 1.69776, 1.69991, 1.69895, 1.70299, 1.70106, 1.70349, 1.8551, 1.7046, 1.70432, 1.70787, 1.70907, 1.71088, 1.76196, 1.71094, 1.76542
2.06293, 1.94242, 1.94146, 1.94287, 1.94039, 1.93878, 1.93789, 1.98436, 1.98529, 1.93186, 1.93208, 1.982, 1.98298, 2.03388, 2.02361, 2.0237, 1.9269, 1.92585, 2.01974, 1.92207, 1.92329, 1.92035, 2.03428, 1.91975, 1.92042, 1.96624, 1.96652, 1.96812, 1.96534, 1.96457, 1.91398, 1.96197, 1.91318, 1.91176, 2.20488, 2.10713, 2.10227, 2.02773, 2.10438, 2.10409, 1.91773, 1.91754, 2.0942, 1.92092, 2.06035, 2.13822, 2.05533, 2.14229, 2.05302, 2.05897, 2.05274, 2.04664, 2.05483, 2.04604, 2.05718, 2.13588, 2.03835, 2.03363, 2.15385, 1.95307, 2.0277, 2.02548, 2.13537, 2.02392, 2.02114, 2.02212, 2.01725, 2.01506, 1.93866, 2.01487, 2.0102, 2.01033, 2.01078, 2.12955, 2.00784, 2.00802, 2.0103, 2.00664, 2.0072, 2.0052, 2.00608, 2.04662, 1.93263, 1.93351, 2.13939, 2.0479, 2.04815, 2.01988, 2.02218, 2.0417, 2.10312, 2.09105, 2.01127, 2.09132, 2.09645, 2.0098, 2.00843, 2.00678, 2.00543, 2.00449, 2.08992, 2.00346, 2.07974, 2.08012, 2.08653, 2.00323, 2.09445, 2.1049, 2.09495, 2.00122, 2.10735, 2.09564, 2.00098, 2.10542, 1.99625, 2.09475, 1.9966, 2.08097, 2.0824, 2.09893, 2.09055, 2.07164, 2.08416, 1.98834, 1.98757, 2.06161, 2.08011, 1.9887, 2.09109, 1.9855, 1.98563, 2.07277, 2.07393, 2.07094, 1.982, 2.06874, 2.06938, 2.08234, 2.06786, 2.05, 2.06141, 2.05658, 2.04694, 1.9688, 1.96842, 1.9669, 1.96614, 1.96523, 1.96594, 1.9644, 2.03478, 2.09379, 1.90275, 1.90018, 1.89878, 1.94937, 1.89669, 1.89334, 1.94434, 1.94323, 1.94161, 1.89117, 1.89196, 1.88892, 2.09073, 1.88586, 2.08103, 1.9819, 1.88728, 1.88521, 1.97955, 1.88558, 1.93437, 1.88243, 1.98119, 1.88233, 1.87987, 1.93074, 1.87959, 1.87837, 1.87735, 1.87755, 1.92704, 1.87547, 1.87493, 1.8712, 1.97646, 1.71629, 1.90362, 1.70961, 1.70805, 1.89296, 1.70634, 1.70596, 1.70306, 1.70076, 1.69653, 1.88608, 1.69872, 1.69721, 1.69495, 1.88265, 1.78427, 1.69549, 1.69301, 1.69514, 1.69357, 1.69025, 1.69049, 1.69025, 1.68849, 1.69264, 1.74145, 1.88211, 1.7972, 1.87544, 1.87546, 1.69031, 1.87517, 1.87374, 1.69231, 1.69305, 1.69217, 1.87184, 1.87137, 1.86874, 1.69298, 1.69392, 1.79883, 1.85901, 1.70011, 1.70269, 1.85537, 1.84894, 1.85041, 1.7058, 1.7085, 1.70962, 1.84462, 1.84402
1.93887, 1.93866, 1.94202, 1.94078, 2.20639, 2.03882, 1.93756, 1.9322, 1.98379, 1.9301, 2.02741, 2.02421, 1.97936, 1.98039, 2.02139, 2.02136, 2.02324, 1.97527, 1.92274, 1.92131, 1.92029, 1.92164, 1.92034, 1.91725, 2.03582, 1.96568, 1.96501, 1.96527, 1.91422, 1.9131, 1.91301, 1.96258, 1.91098, 1.97949, 1.91234, 2.02736, 2.02768, 1.91129, 1.91473, 1.9153, 1.91646, 1.91782, 1.91916, 1.92311, 1.9818, 2.06263, 2.15589, 2.05549, 2.05803, 2.0584, 2.05628, 2.04515, 2.04208, 2.05463, 2.03784, 2.1514, 2.13537, 2.13577, 2.03425, 2.14839, 2.02792, 2.02397, 2.024, 2.02301, 2.02125, 2.01824, 2.01755, 2.05621, 2.01427, 2.05857, 1.93254, 2.00763, 1.93396, 2.00812, 2.05165, 2.00701, 2.00745, 2.00392, 2.01023, 2.00664, 2.04733, 2.0076, 2.00663, 2.00957, 2.01044, 1.93652, 1.93941, 2.04293, 2.02415, 2.16696, 2.08785, 2.08782, 2.09579, 2.0965, 2.09754, 2.00802, 2.00633, 2.00532, 2.00549, 2.00414, 2.0034, 2.08089, 2.08101, 2.07897, 2.08055, 2.08029, 2.00348, 2.00193, 2.00071, 2.09283, 2.09001, 1.99993, 2.08763, 2.08801, 2.0813, 2.09089, 2.08991, 2.08254, 2.08631, 2.07717, 2.07905, 2.07611, 2.08452, 2.08707, 2.08666, 2.08729, 2.07988, 2.08043, 2.08356, 2.07223, 2.0899, 2.06928, 2.0638, 2.06384, 2.06934, 1.97726, 2.06372, 1.97715, 2.06244, 2.07335, 2.07346, 2.06121, 2.04479, 2.0417, 1.96646, 1.96585, 1.96686, 1.96572, 1.96438, 1.96216, 2.07268, 1.90474, 1.90378, 1.9012, 1.94826, 1.94732, 1.89613, 1.89266, 1.89424, 1.89025, 1.89108, 1.93983, 1.8888, 2.08792, 2.07956, 1.88813, 2.0844, 1.98431, 1.98396, 1.88601, 1.97663, 1.88313, 1.87952, 2.07165, 1.98131, 1.88106, 1.87845, 1.87629, 1.87358, 1.87908, 1.8761, 1.87307, 1.87463, 1.87212, 1.87171, 1.87157, 1.86983, 1.90327, 1.89927, 1.71011, 1.89361, 1.70665, 1.70219, 1.69941, 1.70022, 1.69717, 1.69736, 1.77898, 1.69749, 1.69542, 1.6944, 1.69193, 1.69033, 1.69403, 1.69189, 1.69195, 1.6921, 1.8868, 1.69058, 1.68982, 1.68986, 1.68983, 1.68893, 1.68957, 1.69277, 1.68784, 1.68791, 1.68877, 1.87875, 1.87881, 1.68888, 1.8712, 1.69121, 1.69048, 1.6903, 1.69103, 1.86204, 1.69533, 1.69452, 1.81047, 1.69726, 1.69954, 1.70279, 1.70109, 1.69924, 1.7053, 1.84484, 1.70475, 1.70735, 1.71006
1.94069, 2.03846, 1.93885, 2.03994, 1.93807, 1.93561, 1.93388, 2.04128, 1.93316, 1.92752, 1.93042, 2.02169, 1.92788, 1.97849, 2.00996, 2.01216, 1.92561, 1.92426, 1.92268, 1.91822, 1.92332, 2.03059, 1.92008, 2.03648, 1.91682, 1.91728, 2.0313, 1.91507, 2.03222, 1.91118, 1.91356, 1.96128, 1.96151, 1.97788, 1.91117, 1.96141, 1.91193, 1.96207, 1.96503, 1.91283, 1.91684, 2.02609, 1.91876, 1.9717, 2.06125, 2.05694, 2.05947, 2.05001, 2.05603, 2.04904, 2.05503, 2.05911, 2.04306, 2.04001, 2.04045, 2.03818, 2.03313, 2.05515, 2.03331, 2.13193, 2.14321, 2.05582, 2.0211, 2.02123, 2.15587, 1.94222, 2.01585, 2.01775, 2.05531, 1.93495, 1.9347, 2.0094, 1.93118, 2.05254, 2.00476, 2.13813, 2.13553, 2.00683, 2.0076, 2.04739, 2.1324, 2.00752, 2.00844, 2.00962, 2.0102, 2.01241, 2.12352, 2.04108, 2.04052, 2.14083, 2.0936, 2.01164, 2.11491, 2.0844, 2.1064, 2.08376, 2.08488, 2.08411, 2.08514, 2.08595, 2.00273, 2.07675, 2.07919, 2.10617, 2.10336, 2.10731, 2.09538, 2.10181, 2.08176, 2.08954, 2.1005, 2.08019, 2.08798, 2.08348, 2.0763, 2.08625, 2.09527, 1.99068, 2.07237, 2.08598, 2.08979, 1.98927, 2.07165, 1.98682, 2.06552, 2.06551, 2.08326, 1.9859, 2.07233, 1.98396, 2.0729, 2.06941, 2.07183, 2.07317, 2.0667, 2.07586, 2.06354, 1.97606, 2.05968, 2.05974, 2.05922, 2.07384, 2.04577, 2.04168, 1.96665, 1.96823, 1.96594, 1.96472, 1.96375, 1.96226, 2.04979, 1.90335, 1.9027, 1.90058, 1.94654, 1.89707, 1.89557, 1.89389, 1.89284, 1.89068, 2.08386, 1.88884, 1.9371, 1.88676, 1.88667, 1.88289, 1.98311, 1.98181, 1.88288, 1.88223, 1.88257, 1.87992, 1.88263, 1.88134, 1.88103, 1.96891, 1.87682, 1.87487, 1.87358, 1.87441, 1.8742, 1.97288, 1.86912, 1.86865, 1.87168, 1.86878, 1.86717, 1.71227, 1.70931, 1.80314, 1.70565, 1.70216, 1.70258, 1.70024, 1.69972, 1.77822, 1.69674, 1.69637, 1.69348, 1.69568, 1.6919, 1.69179, 1.6906, 1.68936, 1.68989, 1.93182, 1.6895, 1.68961, 1.7404, 1.73796, 1.68754, 1.68866, 1.68684, 1.68932, 1.68893, 1.68546, 1.68746, 1.6879, 1.68876, 1.68827, 1.6884, 1.68793, 1.86608, 1.6904, 1.86901, 1.86227, 1.69052, 1.69579, 1.85583, 1.69382, 1.8516, 1.85204, 1.85281, 1.85172, 1.70264, 1.70562, 1.70399, 1.83678, 1.70744, 1.77394
1.93847, 1.93805, 2.04079, 2.04247, 1.93617, 2.03812, 2.04017, 1.9331, 1.93098, 1.93209, 2.04121, 1.93407, 2.11829, 1.92741, 1.92814, 1.92502, 1.92111, 1.97263, 1.97183, 1.92122, 1.92057, 1.91878, 1.91879, 2.03539, 2.03787, 1.9154, 1.91359, 1.91527, 1.91255, 1.91335, 1.90884, 2.03486, 1.90946, 1.9105, 1.91131, 1.96021, 1.91126, 1.96215, 1.97367, 2.10026, 1.91488, 1.91615, 1.91843, 2.05812, 1.98119, 2.05594, 2.05295, 2.0571, 2.05685, 2.04828, 2.05394, 2.04134, 2.04294, 2.04282, 1.96045, 2.03641, 2.04106, 1.95555, 1.95474, 1.95508, 2.05609, 2.02179, 2.02364, 2.02201, 2.01909, 2.01732, 2.0153, 2.01328, 2.01156, 2.0136, 2.05327, 2.0078, 2.00349, 2.00388, 2.00353, 2.00366, 2.00371, 2.00212, 1.92736, 2.0041, 2.00501, 2.04473, 2.04421, 2.04313, 2.01214, 2.01376, 2.0153, 2.03599, 1.94494, 2.13252, 2.01027, 2.0938, 2.09696, 2.08288, 2.10466, 2.10754, 2.08103, 2.08323, 2.00289, 2.00117, 2.08081, 2.00257, 2.09757, 2.00008, 2.09053, 2.10182, 1.99902, 2.07303, 2.08372, 2.08409, 2.08139, 2.09141, 2.08285, 2.07834, 2.08952, 2.08071, 2.08067, 2.07646, 2.07745, 2.06384, 1.98981, 2.07417, 2.09026, 1.98638, 1.98607, 1.98518, 1.98425, 2.08567, 1.98633, 2.07269, 2.08628, 2.07305, 1.97979, 2.07147, 2.06963, 2.06385, 2.06129, 2.06647, 2.06971, 2.07256, 2.06929, 2.05649, 2.05743, 2.05233, 1.96521, 1.96528, 1.96378, 1.96204, 1.96217, 1.96477, 2.0514, 1.90088, 1.90096, 1.89772, 1.89744, 1.89434, 1.89406, 1.89126, 2.09366, 1.892, 1.88751, 1.88585, 1.93547, 1.93537, 1.88414, 1.9794, 1.88252, 1.99572, 1.99298, 1.88154, 1.8809, 1.97762, 1.98191, 1.97601, 1.87621, 1.87604, 1.87646, 1.87646, 2.07264, 1.87116, 1.8709, 1.92156, 1.86618, 2.08608, 1.86838, 1.8661, 1.86469, 1.71054, 1.70772, 1.70456, 1.8898, 1.69934, 1.69732, 1.69873, 1.69748, 1.69591, 1.6957, 1.74403, 1.77236, 1.77894, 1.69194, 1.88246, 1.69265, 1.87965, 1.68853, 1.88267, 1.68731, 1.73876, 1.73835, 1.68509, 1.73931, 1.68714, 1.86898, 1.87463, 1.87236, 1.6854, 1.68372, 1.68399, 1.68563, 1.68472, 1.68604, 1.68809, 1.68648, 1.86618, 1.68678, 1.6891, 1.68895, 1.85886, 1.85414, 1.85219, 1.69614, 1.85156, 1.8491, 1.7, 1.70226, 1.70318, 1.83522, 1.70464, 1.70672, 1.70755
1.93693, 1.93919, 1.94102, 2.05155, 2.19306, 1.93511, 1.93117, 1.93267, 1.93142, 2.02871, 1.92731, 2.19487, 1.93029, 1.92577, 1.92464, 2.03069, 2.02763, 1.92254, 1.97114, 1.92035, 1.96874, 2.03189, 1.91658, 1.91418, 1.91301, 2.03422, 1.91385, 1.96145, 1.91082, 1.91078, 2.02994, 2.21514, 1.91118, 1.90758, 2.04093, 1.90937, 2.02404, 1.9603, 1.91198, 1.91711, 1.91648, 2.09992, 2.08974, 2.09334, 2.05381, 2.05391, 2.05133, 2.05643, 2.04796, 2.05686, 2.04317, 2.05816, 2.04112, 2.03981, 1.95827, 2.03703, 2.14633, 2.13813, 2.02739, 2.13867, 2.02766, 2.02273, 2.02107, 2.02032, 2.01717, 2.01416, 2.0139, 2.12785, 2.01022, 2.0107, 2.0059, 2.00406, 2.14114, 2.00444, 2.00349, 2.0041, 2.14171, 1.92411, 2.00207, 1.99981, 2.00361, 1.92739, 2.04103, 1.93447, 2.01011, 2.01023, 1.93716, 2.01769, 2.03747, 2.12832, 2.09605, 2.08719, 2.08429, 2.10955, 2.1048, 2.08114, 2.00321, 2.08331, 2.07929, 2.07913, 2.07592, 2.07742, 2.10077, 2.07658, 2.0756, 2.07352, 2.08713, 2.07341, 1.99717, 1.99658, 1.99626, 2.08627, 2.06912, 2.08728, 2.09364, 2.08666, 2.0811, 2.07826, 1.98906, 1.98916, 1.98786, 2.077, 2.07237, 2.08206, 2.08204, 1.98368, 2.06464, 2.07297, 2.07288, 2.07406, 2.07276, 1.97988, 2.07265, 2.08056, 1.97841, 2.0631, 2.0603, 2.06221, 2.05787, 2.05853, 2.05612, 2.06259, 2.05905, 2.04128, 1.96665, 1.96461, 1.9634, 1.9621, 1.96172, 1.96216, 1.95981, 1.9034, 1.89875, 1.89871, 1.89556, 2.06347, 1.89074, 1.89232, 1.88903, 1.88939, 1.88583, 2.08391, 2.00419, 1.99632, 1.98772, 1.98385, 1.87987, 1.98032, 1.98301, 1.87779, 1.87628, 1.87636, 2.08277, 1.87713, 1.97485, 1.87517, 1.97622, 1.86935, 1.8695, 2.06282, 1.86862, 1.86746, 1.86643, 1.86592, 1.97035, 1.86177, 1.86192, 1.70639, 1.70548, 1.89018, 1.88956, 1.8873, 1.69754, 1.69635, 1.88232, 1.69272, 1.69196, 1.74195, 1.68905, 1.77336, 1.74066, 1.68776, 1.68758, 1.68915, 1.88159, 1.68661, 1.68647, 1.74787, 1.68556, 1.85941, 1.73695, 1.68546, 1.68528, 1.68571, 1.86952, 1.68227, 1.68293, 1.68359, 1.68203, 1.86518, 1.68272, 1.68363, 1.68614, 1.86226, 1.68589, 1.85821, 1.85662, 1.85468, 1.69202, 1.69285, 1.69359, 1.84842, 1.69424, 1.69732, 1.70005, 1.70089, 1.70108, 1.83055, 1.70421, 1.70515
1.93767, 2.20052, 1.9369, 1.93445, 1.93286, 2.03461, 1.93771, 2.03561, 1.92957, 1.93172, 2.0362, 2.029, 1.9249, 2.03441, 1.92648, 1.92211, 2.03139, 2.03404, 1.96919, 1.96872, 1.9174, 2.0308, 2.01738, 1.91708, 1.91334, 2.02842, 1.91462, 1.9132, 1.90979, 1.90902, 1.90972, 1.90714, 1.90852, 1.90986, 2.03951, 1.90706, 2.02056, 1.91135, 1.91085, 2.01354, 1.91374, 1.91255, 2.18772, 2.0875, 2.05835, 1.97429, 2.0534, 2.05594, 2.04971, 2.05297, 2.04305, 2.05586, 2.05758, 2.039, 2.03393, 2.03466, 1.95709, 2.03039, 2.05156, 1.94973, 2.15042, 2.02228, 2.13121, 2.14439, 2.05439, 2.01448, 2.01194, 2.05288, 2.00994, 2.00732, 2.00773, 2.00342, 2.0038, 2.00547, 2.00684, 1.92652, 2.00348, 1.92705, 2.00135, 1.92546, 2.14026, 2.00459, 2.00412, 2.04206, 2.04051, 2.04161, 2.01307, 1.9377, 2.01777, 2.1144, 2.08621, 2.09066, 2.08295, 2.08721, 2.08918, 2.07962, 2.07986, 2.08239, 1.9994, 2.00128, 1.99953, 2.09031, 2.11045, 1.99971, 2.09636, 2.09994, 1.99714, 1.99691, 2.08676, 2.0845, 2.0869, 1.99623, 1.99437, 2.07941, 2.074, 2.0901, 2.0888, 2.07191, 2.07329, 1.98918, 1.98884, 2.08354, 2.06904, 2.08372, 1.98427, 1.98408, 2.09116, 2.07579, 2.07303, 2.06128, 1.97971, 2.04912, 1.97878, 1.97873, 1.97644, 1.97624, 2.06636, 2.07438, 2.05498, 1.97103, 1.97099, 2.04486, 2.05435, 2.05971, 1.96299, 1.96237, 1.962, 1.9621, 1.9607, 1.96036, 2.05384, 1.9517, 1.89614, 1.89723, 1.94377, 1.89372, 1.89227, 1.93798, 1.88741, 1.88585, 2.08366, 1.88403, 1.88289, 1.88216, 1.87978, 1.87825, 2.00635, 2.00387, 1.87857, 2.07003, 2.07703, 1.87418, 2.0673, 2.0596, 1.97893, 1.8729, 1.87242, 1.86971, 1.86833, 1.97256, 1.86465, 1.8664, 1.96906, 1.86167, 1.86171, 1.86184, 1.91019, 1.70409, 1.70287, 1.70316, 1.7004, 1.699, 1.69567, 1.99031, 1.87727, 1.87597, 1.88252, 1.6881, 1.68995, 1.88053, 1.68667, 1.73714, 1.68603, 1.68452, 1.68383, 1.68377, 1.68556, 1.73686, 1.68256, 1.73574, 1.73773, 1.79967, 1.68171, 1.68037, 1.68209, 1.80576, 1.80348, 1.68197, 1.68218, 1.86252, 1.6828, 1.68153, 1.68346, 1.85843, 1.68279, 1.68835, 1.68893, 1.85357, 1.80178, 1.69247, 1.79241, 1.84582, 1.69259, 1.8407, 1.69589, 1.79597, 1.69875, 1.70254, 1.70059, 1.70165
1.93368, 1.93742, 2.03502, 1.93495, 1.93358, 1.93332, 1.93406, 1.93122, 1.93053, 1.92622, 2.03685, 2.03526, 2.03835, 2.03867, 1.92175, 1.92243, 1.9202, 1.92056, 1.92425, 1.92002, 2.01553, 1.91669, 2.01676, 2.01415, 1.91594, 1.97436, 1.91386, 2.00659, 1.91111, 1.91089, 2.02951, 1.90795, 2.02773, 2.02673, 2.02792, 2.02365, 2.01434, 1.98411, 1.91101, 1.91181, 1.9118, 1.91368, 1.91614, 1.91693, 2.05902, 2.05596, 2.05022, 2.05237, 2.05791, 2.04685, 2.04516, 2.04234, 2.04093, 2.03934, 2.03569, 2.0344, 2.03111, 2.02886, 2.02847, 1.94884, 2.02451, 1.94524, 1.94409, 2.05237, 2.0177, 1.93763, 2.01341, 2.01342, 2.01103, 2.00742, 1.93056, 2.04949, 1.92801, 2.13894, 2.00225, 2.00032, 2.13814, 2.003, 1.92563, 2.00141, 2.00405, 2.00255, 1.92606, 2.04118, 2.01006, 2.12477, 2.01344, 2.03687, 1.94221, 2.13226, 2.08408, 2.00488, 2.10444, 2.09602, 2.08713, 2.07982, 2.08016, 1.99857, 1.99861, 2.00081, 1.99706, 2.0897, 2.07698, 2.08889, 2.07743, 2.08045, 2.09447, 2.0811, 2.10101, 1.99646, 2.08563, 2.07964, 2.07658, 2.09073, 1.99179, 1.99098, 1.98973, 2.07304, 2.07261, 2.06599, 2.07421, 1.98358, 2.07242, 2.06845, 2.06552, 2.07237, 1.98259, 2.07188, 1.98123, 2.07979, 2.0657, 2.04821, 2.06924, 2.06903, 2.07369, 2.05994, 1.97231, 2.06476, 2.05899, 1.96978, 2.0666, 1.9668, 2.057, 2.05941, 1.96192, 1.96174, 1.96187, 1.96121, 1.95985, 2.04852, 1.95831, 1.95156, 1.89497, 1.94476, 1.8899, 2.07963, 1.88861, 1.8867, 1.88584, 1.88396, 1.8827, 1.88202, 1.8804, 1.87884, 1.87837, 1.87771, 2.0759, 1.87579, 1.87238, 1.87579, 1.87307, 1.87193, 1.97977, 1.8685, 1.92092, 1.86877, 2.0737, 2.05594, 1.97211, 1.97238, 1.86531, 1.96626, 1.86201, 1.86144, 1.85905, 1.8587, 1.80175, 1.70355, 1.70269, 1.93803, 1.69719, 1.69649, 1.79596, 1.69106, 1.69119, 1.68927, 1.68863, 1.68699, 1.87689, 1.79954, 1.73686, 1.68321, 1.78057, 1.68187, 1.81688, 1.81407, 1.68269, 1.6822, 1.67972, 1.68273, 1.73715, 1.73048, 1.68016, 1.68043, 1.68016, 1.68012, 1.68165, 1.67979, 1.68245, 1.68199, 1.68202, 1.86091, 1.68099, 1.6816, 1.68341, 1.78773, 1.68576, 1.68661, 1.84767, 1.69016, 1.84464, 1.69216, 1.69392, 1.83733, 1.69488, 1.69535, 1.69858, 1.83724, 1.83742, 1.83038
1.96065, 1.9376, 1.9362, 1.93423, 1.93468, 1.93202, 1.92957, 1.92997, 2.02778, 2.03664, 2.03475, 2.03491, 2.03503, 1.92442, 2.03412, 1.9218, 1.92386, 2.02061, 1.91708, 2.02865, 2.0308, 1.91555, 1.96361, 2.01719, 2.02351, 1.91308, 1.91016, 1.91071, 1.90946, 1.90885, 1.91053, 1.90675, 2.01791, 2.02799, 1.90463, 2.09992, 2.00993, 1.98308, 1.98233, 2.02563, 1.96344, 1.91329, 2.09447, 2.16569, 2.05915, 2.05112, 2.05582, 2.04806, 2.04707, 2.04573, 2.05077, 2.13212, 2.13092, 2.05128, 2.13176, 2.04975, 2.03079, 2.02868, 2.02786, 1.94824, 2.02486, 2.04889, 2.04974, 2.05208, 2.01694, 2.01422, 2.012, 2.01321, 1.93205, 1.93001, 2.00624, 2.00556, 2.04594, 2.0031, 2.00214, 2.04534, 2.12968, 1.99975, 2.04509, 2.00089, 2.00271, 2.00342, 2.00465, 2.00506, 2.00596, 2.01096, 2.03571, 2.03447, 2.02426, 2.12191, 2.00716, 2.09915, 2.09753, 2.0984, 2.09279, 2.08969, 2.00259, 2.0766, 1.9983, 1.99813, 1.99661, 2.07476, 2.0894, 1.99497, 2.06677, 1.99593, 2.08634, 2.08639, 1.99534, 1.9943, 1.99242, 2.08376, 1.99116, 2.08086, 2.07794, 1.98808, 2.09377, 2.08685, 1.98712, 2.0796, 2.08022, 2.09028, 1.98285, 2.08027, 1.98301, 1.98261, 2.08282, 2.0789, 2.063, 2.06133, 2.07596, 2.06291, 2.06458, 2.06655, 2.05854, 2.06265, 2.0614, 2.06485, 2.05861, 1.96915, 2.06972, 2.0542, 2.06579, 2.03758, 1.96173, 1.96149, 1.95844, 1.95849, 1.95738, 1.95954, 2.05544, 1.89943, 1.89393, 1.94401, 1.88973, 1.88804, 1.88569, 1.88384, 1.88213, 1.88201, 1.97222, 1.87943, 1.99238, 1.87747, 1.87552, 1.87619, 1.87564, 2.08681, 1.87193, 1.87003, 1.87025, 1.97622, 1.97593, 1.86725, 1.91826, 2.04809, 1.95719, 2.0345, 1.86111, 1.86234, 1.86143, 1.97819, 1.85703, 2.06017, 1.85687, 1.85481, 1.8529, 1.99264, 1.69755, 1.6953, 1.8824, 1.69226, 1.69076, 1.68787, 1.78633, 1.68707, 1.87843, 1.8788, 1.68547, 1.79589, 1.75715, 1.73235, 1.68233, 1.6831, 1.6823, 1.67931, 1.68023, 1.68019, 1.7822, 1.78163, 1.67912, 1.67958, 1.68143, 1.68008, 1.86119, 1.67777, 1.6769, 1.67717, 1.78556, 1.67966, 1.67695, 1.85461, 1.85501, 1.68025, 1.85137, 1.6809, 1.84953, 1.68582, 1.6865, 1.68745, 1.68918, 1.68912, 1.69231, 1.69021, 1.69213, 1.69574, 1.69572, 1.69629, 1.69604, 1.69834
1.93814, 1.94092, 1.93591, 1.9849, 1.93188, 2.0559, 2.0574, 1.92924, 1.9304, 1.9253, 1.92412, 1.92581, 2.02104, 1.97282, 1.97098, 1.97263, 1.9182, 2.03026, 1.91909, 1.91698, 2.03226, 2.01781, 1.91349, 2.02521, 1.96174, 1.91072, 1.91387, 1.909, 1.90701, 2.02836, 2.02734, 1.90569, 2.20082, 1.90388, 2.0961, 2.02105, 2.10359, 1.90837, 2.01371, 2.02306, 1.91176, 1.96351, 1.91649, 2.05149, 2.05374, 2.05189, 2.0521, 2.05114, 2.05484, 2.05085, 2.05172, 1.96245, 2.03864, 2.03837, 2.04648, 2.03824, 2.02609, 1.95326, 2.02471, 2.13698, 2.0496, 2.05485, 2.02093, 2.05139, 2.01747, 2.01354, 2.01144, 2.00923, 1.93492, 2.00442, 2.00408, 2.0022, 2.04609, 2.00216, 2.00177, 2.0008, 2.00302, 1.99949, 1.99989, 2.00015, 2.00107, 1.92478, 2.04001, 2.00351, 2.00393, 2.00681, 2.12592, 1.93848, 2.11733, 2.12487, 2.08853, 2.00299, 2.08646, 2.09341, 2.08929, 1.9999, 1.99762, 1.9978, 1.99675, 1.99458, 1.9948, 1.99418, 2.06918, 1.99423, 2.09124, 2.08426, 1.99324, 2.0933, 2.08517, 1.9927, 2.10066, 2.08611, 2.07735, 2.07809, 1.99022, 2.07957, 2.07127, 1.98787, 2.06775, 2.07345, 1.98618, 2.06976, 2.07879, 2.07589, 2.06358, 1.98175, 1.97979, 1.98093, 2.07232, 2.06342, 2.06694, 2.06537, 2.06316, 2.06265, 2.06625, 2.05343, 2.06235, 2.05802, 2.0506, 2.04615, 2.04797, 2.04111, 2.04433, 2.06206, 2.0372, 2.03822, 1.96095, 2.03227, 1.95668, 1.95881, 1.95777, 1.89635, 1.89521, 2.07203, 1.88719, 1.88642, 1.99395, 1.99236, 1.99095, 1.98998, 1.98009, 2.07984, 2.08171, 1.87269, 1.92152, 1.92081, 1.86961, 1.92002, 1.86869, 1.86587, 1.8668, 2.07561, 1.86519, 1.86501, 1.96214, 1.91443, 1.86311, 1.86212, 1.86195, 1.85888, 2.05258, 2.04757, 1.85397, 1.85568, 1.85426, 1.95604, 1.84874, 1.69749, 1.88254, 1.69622, 1.69254, 1.74088, 1.73856, 1.98248, 1.68584, 1.6833, 1.68428, 1.68539, 1.68517, 1.87027, 1.87012, 1.77506, 1.91716, 1.67911, 1.68013, 1.67927, 1.67575, 1.67827, 1.86438, 1.86189, 1.67667, 1.86187, 1.67547, 1.67451, 1.80902, 1.67564, 1.67863, 1.67708, 1.67301, 1.67637, 1.67678, 1.6788, 1.67563, 1.68221, 1.68071, 1.68349, 1.7871, 1.84527, 1.94767, 1.68805, 1.78551, 1.83551, 1.6892, 1.69194, 1.79276, 1.83228, 1.83009, 1.82681, 1.8253, 1.82621
1.93617, 2.02812, 1.98412, 1.98335, 1.99263, 1.97974, 2.05491, 1.92738, 1.92823, 1.93037, 1.92697, 1.92357, 2.03043, 1.92081, 1.9697, 1.92065, 1.96932, 1.91705, 1.91908, 1.91874, 1.91322, 2.02505, 1.91343, 1.91222, 1.91103, 1.91142, 2.01363, 1.90834, 1.90771, 1.90387, 2.01349, 2.0248, 1.90516, 1.90582, 2.01132, 2.02343, 2.09697, 1.90579, 2.00488, 2.01002, 1.91071, 1.91407, 1.91372, 1.96994, 2.05808, 2.05499, 2.13073, 2.13104, 2.05361, 2.04401, 2.04567, 2.03974, 2.03551, 2.03571, 2.03439, 2.03389, 2.03033, 2.05248, 2.02402, 1.94488, 2.02057, 2.0196, 2.02095, 1.93763, 2.01317, 1.93476, 2.01036, 2.04968, 2.00707, 2.00414, 2.00347, 2.00263, 2.14555, 2.00063, 1.99959, 1.99936, 1.99824, 2.00023, 1.92237, 2.11889, 2.00085, 1.92376, 2.12828, 2.00473, 2.00519, 2.0346, 1.93134, 2.01741, 2.01835, 2.11581, 2.09005, 2.09377, 2.0003, 2.09675, 2.08764, 2.08334, 1.9967, 1.99658, 1.99502, 1.99356, 1.99291, 2.08286, 1.99308, 2.08399, 2.08278, 1.99318, 2.08292, 2.08426, 2.08883, 2.09116, 1.99183, 2.08436, 2.0929, 2.08182, 2.0874, 2.08352, 2.07, 2.0653, 1.98576, 2.07396, 1.98333, 2.07346, 1.9818, 2.07202, 2.07222, 2.08027, 1.97943, 1.9795, 2.06589, 2.06975, 2.08016, 2.07928, 2.06622, 2.06332, 1.97313, 1.97198, 1.97113, 2.06122, 2.06807, 2.0559, 2.0395, 2.03918, 2.06577, 2.0354, 2.03676, 2.03726, 2.03445, 1.95668, 1.95838, 1.95769, 2.05365, 1.89681, 1.89571, 1.88948, 1.88829, 2.05887, 1.99156, 1.87944, 1.98889, 1.87887, 2.07922, 1.98567, 2.08277, 1.87139, 1.87141, 1.86887, 1.86872, 1.92391, 1.92406, 1.86476, 1.8631, 2.06575, 1.97593, 2.05937, 1.9731, 1.86037, 1.85804, 1.85771, 1.85696, 1.85668, 1.95441, 1.85468, 1.85154, 2.05834, 1.95821, 1.95573, 1.84739, 1.69842, 1.69607, 1.74228, 1.74063, 1.68706, 1.7538, 1.6876, 1.68559, 1.68326, 1.67968, 1.8666, 1.86809, 1.68161, 1.67921, 1.67811, 1.91448, 1.86676, 1.67697, 1.67518, 1.72679, 1.67549, 1.67336, 1.67595, 1.6759, 1.67521, 1.6753, 1.67309, 1.67635, 1.6754, 1.67108, 1.72549, 1.67457, 1.67185, 1.67823, 1.67632, 1.72649, 1.67701, 1.84653, 1.68165, 1.67991, 1.84249, 1.84106, 1.68485, 1.83722, 1.68795, 1.68642, 1.68948, 1.78461, 1.6917, 1.68765, 1.8305, 1.69298, 1.69214
2.03445, 1.93262, 1.9838, 1.93225, 1.97955, 1.98, 2.03454, 1.92623, 1.92697, 1.92446, 1.92286, 1.92379, 2.02783, 2.0315, 1.91958, 2.01785, 2.03195, 1.91706, 1.91703, 1.91729, 2.03111, 2.02801, 1.91481, 1.9131, 1.91482, 2.0102, 2.01189, 1.9616, 1.96254, 1.90347, 2.02549, 1.90396, 2.20788, 1.90507, 1.9008, 2.09932, 1.90402, 1.90506, 1.96408, 1.90978, 1.91026, 2.09309, 1.91384, 1.96709, 2.0549, 2.05558, 2.04775, 2.04484, 2.04316, 2.04347, 2.04422, 1.9622, 2.03764, 2.0361, 2.03077, 2.12563, 2.02782, 2.05172, 2.04775, 1.94463, 2.04954, 2.01794, 2.01858, 2.01439, 2.01416, 2.01326, 2.01316, 2.00816, 2.00638, 1.92821, 2.007, 2.00459, 2.13828, 2.04429, 2.04421, 1.92033, 1.99717, 1.99971, 2.00096, 1.99927, 2.03931, 2.03795, 2.0004, 2.00313, 2.0351, 1.92779, 2.12462, 2.12193, 2.01663, 2.11769, 2.00379, 2.0791, 2.09078, 2.00004, 2.09764, 2.07049, 1.99454, 1.99963, 1.9926, 1.99353, 1.99192, 2.09331, 2.08582, 2.08083, 2.08385, 2.09091, 2.08263, 2.08293, 2.09094, 2.08971, 2.08004, 2.07906, 2.0819, 2.07386, 2.07199, 1.98756, 1.98665, 2.08085, 1.98371, 2.07315, 2.07812, 2.07277, 2.07251, 2.0724, 2.07114, 1.98061, 2.07612, 2.06985, 2.06367, 2.06608, 2.0627, 1.97417, 2.06563, 1.97323, 2.06354, 2.06295, 2.05592, 2.05843, 2.05641, 1.96541, 2.06346, 2.05854, 2.06602, 1.9589, 2.04143, 2.03585, 2.0308, 1.95459, 1.95494, 1.95365, 2.04567, 1.89328, 2.08474, 1.97943, 2.00201, 1.98072, 1.98594, 1.9849, 1.87714, 1.87554, 1.87319, 1.87213, 1.8707, 1.86891, 1.91633, 1.8662, 1.91648, 1.94179, 1.94052, 1.8631, 1.86148, 1.9663, 1.96889, 2.0604, 1.85799, 1.90757, 1.906, 1.90579, 1.90565, 1.90277, 1.85224, 1.85054, 1.84921, 1.84812, 1.84743, 1.84488, 1.84442, 1.69492, 1.69309, 1.81563, 1.6894, 1.68836, 1.6828, 1.68462, 1.73343, 1.68172, 1.73087, 1.80495, 1.73013, 1.67799, 1.77322, 1.67807, 1.67614, 1.67484, 1.86424, 1.67435, 1.67249, 1.85664, 1.67437, 1.67367, 1.66992, 1.85724, 1.8551, 1.67284, 1.67231, 1.67468, 1.67226, 1.67302, 1.85161, 1.66891, 1.80258, 1.67443, 1.7279, 1.72686, 1.72741, 1.67965, 1.67787, 1.68019, 1.68178, 1.8337, 1.68543, 1.68577, 1.78349, 1.78166, 1.87689, 1.8255, 1.82514, 1.69237, 1.68943, 1.69277
1.93121, 2.03276, 1.98141, 1.93038, 1.9309, 1.9787, 1.92889, 2.00031, 1.92394, 1.92314, 2.032, 2.02275, 1.92325, 2.02818, 1.91957, 1.97089, 2.03178, 2.03295, 1.91366, 1.96428, 1.96466, 1.96281, 2.01827, 2.01943, 1.91121, 1.91372, 1.90778, 1.90589, 1.90384, 1.90274, 1.9035, 1.90382, 1.9016, 1.90298, 1.90328, 2.01738, 1.90522, 2.01101, 1.95813, 1.90619, 1.91113, 2.08621, 1.91116, 2.05158, 2.05177, 2.04869, 2.04799, 2.04856, 2.05163, 2.04284, 2.04849, 2.03641, 2.03607, 2.04978, 2.02994, 2.03149, 2.02953, 2.12449, 2.02267, 2.0214, 2.02014, 2.02414, 1.93821, 2.0148, 1.93485, 2.01389, 2.01126, 2.0073, 2.00448, 2.0042, 2.12038, 2.00094, 2.00027, 1.99997, 1.924, 2.00036, 2.00293, 2.03971, 1.9967, 1.92035, 1.92266, 1.99653, 2.00005, 2.00055, 2.032, 2.03079, 2.03196, 2.01096, 2.12512, 2.11392, 2.09606, 2.10016, 2.09214, 2.08783, 2.07558, 1.99582, 1.9947, 1.99445, 1.99124, 2.06733, 1.99015, 2.09382, 1.99017, 2.06709, 2.08751, 2.08578, 2.0838, 2.0803, 2.07869, 2.07412, 2.06199, 2.08146, 2.07365, 2.09103, 2.07893, 2.06846, 2.09008, 2.05803, 2.06547, 2.05976, 2.05947, 2.05976, 2.07147, 2.07182, 2.05439, 2.05304, 2.0687, 2.06544, 2.06157, 1.97602, 2.06213, 2.06165, 1.97285, 1.97159, 2.0594, 2.05821, 2.05596, 2.05003, 2.0618, 2.06968, 2.0698, 2.05476, 2.05792, 2.03845, 2.03754, 2.0354, 1.95875, 2.03159, 1.95205, 1.95212, 2.0413, 1.89305, 1.88867, 2.07341, 1.88232, 1.88045, 1.92852, 1.97962, 1.87637, 1.98436, 1.87114, 1.86906, 1.98447, 1.86596, 1.86432, 1.86158, 1.86151, 1.91068, 1.85792, 1.90806, 1.8573, 1.85664, 2.06886, 2.06947, 1.85089, 1.90305, 1.90138, 1.85108, 1.92669, 1.96253, 1.96046, 1.84742, 1.84591, 1.95845, 2.04894, 1.84132, 1.7456, 1.74189, 1.74062, 1.81094, 1.68767, 1.86923, 1.68348, 1.68055, 1.73318, 1.72947, 1.72799, 1.72805, 1.67563, 1.67471, 1.67546, 1.85914, 1.67284, 1.72298, 1.85613, 1.85794, 1.85531, 1.67132, 1.67274, 1.79322, 1.76184, 1.85265, 1.67003, 1.85002, 1.85087, 1.67107, 1.72079, 1.72025, 1.66899, 1.66627, 1.84403, 1.67077, 1.67229, 1.7604, 1.75744, 1.67732, 1.95413, 1.68028, 1.83189, 1.8318, 1.68488, 1.9506, 1.68303, 1.68323, 1.68583, 1.68587, 1.8261, 1.78492, 1.68902, 1.68943
1.94176, 1.93445, 1.93056, 2.00458, 1.92935, 2.02499, 1.92594, 2.02452, 2.02929, 1.92261, 1.9207, 1.92232, 1.92121, 1.92029, 1.96958, 1.96958, 1.91681, 1.91397, 1.96474, 2.01074, 1.96314, 1.96126, 2.01804, 2.02376, 1.90978, 1.91111, 1.90438, 2.02065, 1.90253, 1.90392, 1.95307, 1.95193, 1.90334, 2.0022, 1.95182, 1.96558, 2.03626, 1.90346, 1.95623, 1.95802, 1.9079, 1.91118, 1.91306, 2.05196, 1.97145, 2.12965, 2.04576, 2.04342, 2.04148, 2.03953, 2.0483, 2.03642, 2.03603, 2.05177, 2.04393, 2.0287, 2.13146, 2.1302, 1.94522, 2.02064, 2.01839, 2.01981, 2.13503, 2.01534, 2.01082, 1.93301, 1.93071, 2.04543, 2.00393, 2.00311, 2.0013, 2.12708, 1.99785, 2.12781, 2.04488, 1.91993, 1.9995, 1.91947, 2.03819, 1.99415, 1.99578, 1.99923, 1.99691, 2.11829, 2.00325, 2.0077, 2.10772, 2.00851, 2.02816, 2.14569, 2.10448, 2.08658, 1.997, 2.07346, 2.09769, 2.06893, 1.99451, 1.99171, 1.99131, 1.98888, 1.98946, 1.98919, 2.0981, 2.06675, 2.08121, 2.09679, 2.08006, 2.07736, 1.98685, 2.06622, 2.08097, 2.0922, 2.07711, 2.081, 2.07575, 2.08434, 2.06936, 2.06289, 2.05938, 2.07637, 2.05662, 2.05554, 1.9788, 2.05866, 2.05233, 2.05929, 2.06083, 1.97594, 2.07383, 2.04851, 2.06108, 2.07191, 1.97007, 1.97155, 2.05614, 2.0743, 2.06203, 2.0524, 2.05528, 2.05299, 2.05086, 2.04867, 2.04802, 2.05283, 1.95637, 1.95638, 1.95599, 1.95445, 1.95437, 2.03816, 2.04552, 1.93898, 1.88664, 1.88613, 1.88094, 1.87932, 1.99299, 1.8736, 1.87183, 1.86829, 1.86907, 1.86581, 2.06882, 1.86258, 1.86094, 1.85853, 1.8585, 1.97773, 1.8576, 1.85482, 1.9726, 2.0781, 1.85139, 2.06628, 1.97115, 1.96587, 1.84664, 1.96648, 1.94446, 2.04116, 1.84374, 1.84421, 1.84145, 1.83982, 2.0461, 1.83843, 1.74243, 1.85198, 1.73926, 1.68658, 1.6851, 1.6796, 1.67941, 1.67904, 1.6777, 1.67614, 1.84646, 1.67348, 1.67494, 1.67194, 1.67431, 1.66924, 1.66921, 1.74053, 1.66835, 1.66571, 1.66692, 1.66852, 1.85123, 1.84769, 1.84511, 1.78592, 1.66791, 1.66774, 1.84693, 1.71757, 1.79917, 1.79791, 1.83743, 1.84347, 1.76972, 1.84252, 1.84138, 1.67135, 1.67148, 1.67257, 1.83383, 1.67726, 1.77616, 1.68152, 1.68165, 1.8269, 1.82913, 1.82671, 1.82143, 1.81874, 1.68665, 1.6854, 1.68878, 1.68633
1.8792, 1.93065, 1.92914, 1.93094, 2.1113, 1.92668, 1.92458, 1.92759, 2.18314, 2.03749, 2.03852, 1.91818, 1.91868, 1.92154, 1.91589, 2.02875, 1.9176, 1.91449, 1.91305, 1.91673, 1.96275, 1.91057, 1.91015, 1.90933, 2.0242, 2.01453, 2.20017, 2.01707, 1.905, 1.99438, 1.99618, 1.903, 1.95073, 1.89948, 1.95083, 1.95138, 2.03397, 1.90242, 2.01131, 2.00869, 2.01411, 1.90798, 1.91289, 2.05059, 2.0511, 2.04605, 2.04503, 2.04852, 2.04061, 1.96311, 1.96064, 2.04973, 2.03446, 2.03155, 1.95274, 2.02959, 2.02844, 1.947, 1.94623, 2.02049, 2.01835, 2.04405, 2.04364, 2.01593, 2.01034, 2.00709, 2.00709, 1.92896, 2.13249, 2.00364, 2.0004, 2.04137, 1.99932, 1.99769, 1.99673, 1.99636, 1.9168, 1.91862, 1.99574, 1.99662, 1.99466, 2.03516, 2.11073, 2.10828, 2.00012, 2.10693, 1.92922, 2.00796, 2.02778, 2.10442, 1.9986, 2.07942, 2.087, 2.08685, 2.08277, 2.09331, 1.99351, 1.9889, 1.99067, 1.9904, 1.98897, 2.08341, 2.09282, 1.98969, 2.0978, 2.0894, 2.0794, 2.07292, 2.07661, 2.08587, 2.07894, 2.07888, 1.98522, 1.98609, 2.07947, 2.08499, 2.06524, 2.07038, 2.06014, 2.0573, 2.05467, 2.05578, 2.07525, 1.97699, 2.06025, 2.06248, 1.97619, 2.06684, 2.08653, 2.05808, 2.06426, 2.07694, 2.07649, 1.9702, 2.0648, 1.96602, 2.06274, 2.05404, 2.05763, 1.961, 1.96124, 2.03555, 2.04798, 2.06296, 1.9565, 1.95571, 1.95316, 1.9535, 1.95468, 1.95265, 1.95142, 1.88844, 2.08274, 2.0614, 1.87745, 1.98513, 1.9768, 1.86915, 1.86898, 2.0949, 1.86474, 1.86379, 1.86149, 1.85946, 2.08723, 1.98198, 1.85452, 1.85347, 1.85171, 1.95649, 2.06147, 1.8498, 1.84783, 1.89901, 1.89654, 1.89641, 1.96665, 1.84127, 1.84238, 1.95176, 1.96507, 1.96133, 1.83532, 1.83341, 1.95588, 1.9539, 1.69212, 1.7384, 1.68733, 1.8611, 1.6795, 1.73047, 1.78661, 1.72738, 1.85639, 1.78945, 1.78829, 1.67148, 1.67122, 1.67083, 1.79265, 1.66912, 1.78861, 1.71818, 1.71854, 1.6678, 1.66764, 1.66672, 1.66293, 1.66588, 1.66674, 1.66298, 1.66201, 1.66419, 1.95816, 1.6635, 1.79691, 1.77998, 1.71638, 1.83929, 1.66784, 1.84219, 1.83991, 1.66876, 1.83387, 1.83128, 1.83014, 1.67571, 1.67554, 1.8211, 1.67966, 1.81949, 1.68006, 1.68154, 1.68279, 1.68394, 1.68619, 1.68909, 1.80731, 1.81356
1.93186, 1.93067, 1.97932, 1.92785, 1.93132, 2.02204, 1.92256, 1.92409, 2.19589, 1.92243, 1.91856, 1.91818, 1.91689, 1.91426, 1.9155, 1.9144, 1.91395, 1.91629, 1.91325, 1.91418, 2.00688, 1.96055, 1.90815, 2.02803, 1.9077, 1.90776, 1.90397, 1.90567, 2.0312, 1.95135, 1.95176, 1.95135, 1.94938, 1.95063, 1.96032, 1.90252, 1.90247, 2.09019, 2.08936, 2.01068, 2.08634, 1.90788, 2.0655, 2.04814, 2.05156, 2.04575, 2.04483, 2.04774, 2.04168, 2.04841, 2.04853, 2.03409, 2.03176, 2.03255, 2.03033, 2.02781, 2.02536, 2.02439, 2.0201, 2.11933, 2.02071, 1.93865, 2.04203, 1.93277, 2.00807, 2.0416, 2.00753, 2.00636, 2.00121, 2.00051, 1.99991, 2.04149, 1.99644, 2.03803, 1.99624, 1.99761, 2.03633, 1.99327, 1.91892, 2.03764, 1.99307, 1.99622, 1.99567, 1.99903, 2.00048, 2.00334, 2.02905, 2.0278, 1.93214, 2.02725, 2.11504, 2.07185, 2.09998, 2.08513, 1.99256, 2.087, 1.99067, 1.99153, 1.98988, 1.98773, 1.98783, 1.98629, 2.09311, 1.98747, 2.06958, 1.98566, 1.9863, 1.98645, 1.98602, 1.98589, 2.07634, 1.98374, 1.98319, 2.07947, 2.09572, 1.98227, 2.08269, 2.06705, 2.06762, 2.0553, 2.07678, 2.06555, 2.05233, 2.0685, 2.05904, 2.07259, 2.04904, 1.97221, 2.05772, 2.06204, 2.07362, 1.97004, 2.06284, 2.06416, 2.05283, 2.0544, 2.03889, 2.03684, 2.05248, 2.05178, 2.04812, 1.9587, 1.95893, 1.95602, 1.95423, 1.95495, 1.95287, 1.95216, 1.95206, 1.95149, 2.05538, 1.8866, 2.08843, 2.05848, 2.0487, 1.99017, 1.87017, 1.86878, 1.86586, 1.86158, 1.98002, 1.90974, 1.97705, 1.85758, 1.85346, 1.85172, 1.85407, 1.8505, 1.84622, 1.8466, 2.06399, 2.06819, 2.05642, 1.95344, 1.84288, 1.89053, 1.96622, 1.95808, 1.95063, 1.9489, 1.83679, 1.83357, 1.83082, 1.94151, 1.83058, 1.83017, 1.73956, 1.68542, 1.68564, 1.85858, 1.67835, 1.67825, 1.67811, 1.67408, 1.67208, 1.67366, 1.67147, 1.78628, 1.66781, 1.67075, 1.66892, 1.66865, 1.66682, 1.7795, 1.66616, 1.66562, 1.84861, 1.66542, 1.66452, 1.66217, 1.66293, 1.66331, 1.66524, 1.66264, 1.83807, 1.83693, 1.71338, 1.76697, 1.76452, 1.76651, 1.66272, 1.66463, 1.8392, 1.83767, 1.66611, 1.82451, 1.67021, 1.82335, 1.82042, 1.77075, 1.82215, 1.8196, 1.67833, 1.6785, 1.68133, 1.68016, 1.68129, 1.68287, 1.68384, 1.81274
1.92813, 1.92878, 1.93051, 1.98641, 1.92419, 1.92561, 1.92569, 1.92118, 2.02407, 1.92134, 1.91911, 2.02974, 1.9211, 1.91692, 1.91453, 1.91413, 1.91325, 1.91126, 1.91305, 1.91301, 1.95951, 1.91018, 2.0307, 1.906, 1.9074, 1.90637, 2.02252, 1.95134, 1.90026, 1.95, 1.8997, 1.95149, 1.94985, 2.02092, 1.90057, 1.90019, 1.90199, 1.9026, 1.90177, 1.90172, 2.01023, 2.08624, 2.0764, 2.04666, 2.04728, 2.04547, 2.14683, 2.04428, 2.04521, 2.03849, 2.0446, 1.95735, 2.03382, 2.02856, 1.95169, 2.02502, 2.02423, 2.14201, 2.04203, 2.01884, 2.01758, 2.01494, 2.0411, 2.13216, 2.0067, 2.0066, 2.13621, 2.03899, 2.003, 1.99966, 2.00006, 1.99706, 1.99636, 1.99689, 2.03715, 2.11481, 1.99207, 2.03763, 2.12129, 1.99587, 1.99622, 1.99511, 2.03071, 2.03057, 2.00062, 1.92278, 2.00217, 2.00726, 2.00788, 2.12482, 2.09403, 2.06856, 2.08484, 2.08549, 2.0838, 2.06633, 1.99243, 1.98976, 1.98843, 1.98796, 1.98567, 1.98592, 2.09384, 1.98524, 2.08359, 2.07085, 2.0777, 1.98503, 1.98606, 2.0847, 1.98456, 2.08755, 1.98234, 2.0749, 2.08303, 2.07017, 2.06417, 1.98012, 2.07641, 2.06215, 2.06773, 2.07915, 2.07882, 2.06668, 2.05991, 2.08454, 1.97106, 2.07114, 2.07171, 2.06264, 2.05973, 1.96995, 2.06545, 2.05934, 2.06983, 2.04231, 2.06461, 2.06566, 2.04882, 1.95898, 1.95832, 1.95872, 1.95789, 1.95822, 1.95493, 1.95214, 1.95213, 1.95151, 1.95103, 2.04236, 2.04492, 1.88265, 1.87975, 1.87645, 1.87501, 1.97563, 1.86868, 1.96192, 1.97636, 1.97527, 1.85659, 1.90633, 1.85521, 1.95653, 1.85169, 1.85107, 2.0563, 1.84514, 1.97176, 1.84283, 1.97454, 1.84055, 1.89136, 2.04517, 1.83706, 1.88665, 1.83554, 1.83408, 1.83429, 1.83438, 1.8297, 1.88191, 1.82906, 1.95416, 1.82735, 1.87402, 1.73745, 1.6831, 1.68203, 1.67863, 1.85218, 1.77943, 1.67454, 1.67079, 1.67106, 1.67067, 1.71946, 1.66817, 1.66684, 1.66739, 1.66679, 1.66559, 1.66433, 1.66375, 1.66369, 1.6645, 1.66383, 1.66419, 1.6612, 1.66189, 1.66103, 1.66251, 1.71209, 1.71162, 1.76758, 1.76493, 1.66122, 1.66102, 1.66116, 1.66043, 1.82383, 1.66412, 1.66324, 1.66208, 1.82919, 1.82186, 1.66924, 1.67035, 1.81904, 1.67502, 1.67534, 1.68134, 1.67621, 1.81058, 1.80977, 1.68197, 1.67951, 1.80538, 1.80192, 1.80251
1.93636, 2.02043, 1.92795, 1.92801, 1.92779, 1.92597, 1.92524, 1.92581, 1.9237, 1.97216, 1.91733, 1.91698, 2.10055, 1.91472, 1.91607, 1.91385, 1.91397, 1.96238, 2.01514, 2.02455, 2.02412, 1.90868, 1.90725, 1.90701, 1.90947, 2.01133, 2.00684, 1.90417, 1.90181, 2.02484, 2.02692, 1.89904, 1.89574, 1.89913, 2.01615, 2.01418, 2.01381, 1.90048, 2.09326, 2.0103, 1.90494, 1.90572, 1.90698, 2.05217, 2.04986, 2.04607, 2.0477, 2.04808, 2.12464, 2.0449, 1.95801, 2.04093, 2.03151, 2.12198, 1.95139, 2.04295, 2.02275, 2.02369, 2.12725, 2.04208, 2.04297, 2.04118, 2.04093, 2.00812, 2.01069, 2.00389, 1.9258, 2.00711, 2.00188, 2.12788, 1.99662, 1.99854, 1.99571, 2.11819, 2.12073, 2.03593, 1.91502, 1.99393, 1.9927, 1.99304, 1.91423, 1.99344, 1.99498, 1.99665, 1.99683, 1.9979, 2.00179, 2.00769, 1.93172, 2.12438, 2.12554, 2.08929, 2.08771, 1.99339, 2.087, 2.07712, 1.98749, 1.9871, 1.98801, 1.98869, 1.98556, 1.98448, 2.0597, 2.09647, 2.07705, 2.06926, 2.06942, 2.07993, 2.0526, 2.07045, 2.08271, 2.07033, 2.07181, 2.08305, 2.08097, 1.97936, 2.05491, 2.06172, 2.07231, 2.07332, 2.06615, 2.05075, 2.0688, 2.0695, 2.0566, 2.08387, 2.05681, 1.96773, 2.08577, 2.06039, 2.06179, 2.06163, 1.96632, 1.96559, 2.0623, 2.06158, 1.96233, 2.06122, 1.95879, 2.04909, 1.95828, 2.0587, 2.05162, 2.04791, 1.95311, 1.95305, 1.94887, 1.94931, 1.95004, 2.04172, 1.94815, 1.88016, 2.09261, 1.86947, 1.86788, 1.86825, 1.86468, 1.86286, 1.9746, 1.97618, 1.85609, 1.8515, 1.85106, 1.96669, 1.89751, 1.89557, 1.84183, 1.96395, 1.84128, 1.96618, 1.83565, 1.83437, 1.88626, 1.9487, 1.83415, 1.83091, 1.88117, 1.82868, 1.82783, 1.82746, 1.82632, 1.8229, 1.95853, 1.82154, 1.82079, 1.81816, 1.68523, 1.68261, 1.6809, 1.67666, 1.67524, 1.77496, 1.67085, 1.77192, 1.6709, 1.66547, 1.66589, 1.66614, 1.66563, 1.83908, 1.83926, 1.84082, 1.66083, 1.6623, 1.71342, 1.6604, 1.66224, 1.66049, 1.66051, 1.65769, 1.83118, 1.83012, 1.71001, 1.74772, 1.74492, 1.65932, 1.65538, 1.65921, 1.66115, 1.65956, 1.66169, 1.81991, 1.81768, 1.66178, 1.66181, 1.66508, 1.81473, 1.813, 1.67406, 1.78619, 1.6749, 1.67424, 1.67659, 1.67577, 1.68182, 1.80339, 1.68053, 1.7933, 1.79002, 1.78832
1.92611, 1.92643, 1.92696, 1.92774, 1.97509, 1.9236, 2.02196, 1.9216, 2.03121, 1.96882, 1.96945, 1.9169, 1.91633, 2.19322, 1.91295, 2.02489, 1.91171, 1.91324, 1.91258, 1.91316, 1.90918, 1.90996, 1.90686, 1.90534, 1.90489, 1.90486, 1.90528, 1.90355, 1.90095, 1.90287, 2.02421, 2.02404, 1.89762, 1.89609, 2.01311, 1.89927, 1.89818, 1.89903, 1.90027, 1.90032, 1.90648, 1.90302, 1.90522, 2.04412, 2.04525, 2.0438, 2.04032, 2.04457, 2.03754, 2.12168, 2.12212, 2.12414, 2.12042, 2.03156, 2.0409, 2.04166, 1.94558, 1.94413, 2.01539, 2.01567, 2.13862, 2.0407, 2.03929, 2.03935, 2.01061, 1.92586, 1.92726, 2.00259, 2.00156, 1.99933, 1.99684, 1.99614, 1.9974, 2.11155, 1.99252, 1.99285, 2.03394, 1.91351, 1.99098, 1.91363, 1.91493, 2.0315, 1.99358, 2.12217, 1.99659, 2.00032, 2.02476, 2.00537, 2.11393, 2.11395, 2.0284, 2.08695, 2.06876, 2.0773, 2.0826, 2.06572, 2.06217, 2.07233, 1.98688, 1.98519, 1.9855, 2.07175, 2.05813, 2.08219, 2.06418, 2.06606, 2.06152, 2.07662, 1.97973, 1.98122, 2.06659, 2.07231, 2.06311, 2.06328, 2.07926, 1.97839, 2.07177, 2.06531, 2.06893, 2.06978, 1.97591, 2.06878, 2.07294, 2.06542, 2.06754, 2.06123, 2.04622, 1.96842, 1.96978, 2.0674, 2.0671, 2.06192, 2.03954, 2.0531, 2.06096, 2.05668, 2.06343, 2.0524, 2.06514, 2.06255, 2.05137, 2.04876, 2.02977, 1.95072, 1.95113, 1.94975, 1.94862, 1.94962, 1.94814, 1.9503, 2.03923, 1.87663, 1.92139, 1.86901, 1.8643, 1.86256, 1.96884, 1.85646, 1.9576, 1.90395, 1.85154, 1.90184, 1.89932, 1.94531, 1.89574, 1.89274, 1.83924, 1.83839, 1.93257, 1.88552, 1.94286, 1.89556, 1.89281, 1.83015, 1.87842, 1.82804, 1.82768, 1.82476, 1.82544, 2.0523, 2.05504, 1.81996, 1.81866, 1.81641, 1.91302, 1.91458, 1.68006, 1.68001, 1.84126, 1.67466, 1.67491, 1.67009, 1.66858, 1.66885, 1.66553, 1.83554, 1.66398, 1.66295, 1.71437, 1.66165, 1.66225, 1.6618, 1.66062, 1.65681, 1.70996, 1.70975, 1.65889, 1.65724, 1.65869, 1.82737, 1.65809, 1.65613, 1.73956, 1.70835, 1.65756, 1.65744, 1.65524, 1.65824, 1.65645, 1.65795, 1.65854, 1.66102, 1.65945, 1.65863, 1.81244, 1.76243, 1.66684, 1.66777, 1.80851, 1.80641, 1.67546, 1.67281, 1.67425, 1.67283, 1.67547, 1.85588, 1.80522, 1.80399, 1.80578, 1.6814
1.9272, 1.92559, 1.92469, 1.97276, 1.97421, 1.9217, 1.92308, 1.92286, 2.02011, 1.96681, 2.02849, 2.03011, 1.96789, 1.91558, 1.91714, 1.9634, 1.90938, 1.91116, 1.91097, 1.95764, 1.90863, 1.9062, 1.90149, 1.90338, 1.90496, 2.01529, 2.01642, 1.90119, 1.90292, 1.89704, 2.01487, 1.89542, 2.01347, 2.01301, 2.0119, 2.01226, 1.89947, 1.8992, 1.90028, 1.99812, 2.07974, 1.90218, 2.07616, 2.04832, 2.04081, 2.12109, 2.03921, 2.04045, 2.04318, 2.03736, 2.12189, 2.03237, 2.02916, 2.02724, 2.02451, 2.04113, 2.02193, 2.03842, 2.01759, 2.11207, 1.93527, 2.01168, 2.00993, 2.00722, 2.00731, 2.00524, 2.03512, 1.9984, 1.99954, 1.99646, 1.91811, 1.99705, 2.12568, 1.99079, 1.9138, 1.99044, 1.99279, 1.9908, 1.99003, 1.98733, 2.1244, 1.9937, 2.02922, 1.99674, 1.91839, 2.02382, 2.00284, 2.09822, 2.11463, 2.11764, 2.14137, 2.07663, 2.07527, 1.9894, 2.09029, 2.08633, 2.06881, 1.98619, 1.98359, 1.98358, 1.9831, 2.06163, 2.0553, 2.06439, 2.07847, 2.07358, 2.08077, 1.98149, 2.07713, 2.07987, 1.9788, 1.97817, 1.97962, 2.07681, 2.06688, 2.07444, 2.06942, 2.07206, 2.06941, 2.04983, 2.04284, 1.9722, 2.06274, 2.05105, 1.96981, 2.0653, 2.05308, 2.05484, 2.05507, 1.96581, 2.05196, 1.964, 2.06581, 2.06239, 2.05478, 2.06687, 2.04517, 2.05777, 2.05903, 2.06201, 2.05353, 2.03187, 2.03744, 2.03772, 1.95093, 1.95201, 1.9478, 1.94785, 1.94621, 1.94502, 2.03632, 1.87085, 1.86904, 1.86676, 1.86515, 1.86132, 1.85913, 1.85429, 1.90296, 1.93781, 1.84775, 1.84556, 1.84397, 1.83893, 1.83747, 1.83522, 1.94407, 1.94397, 1.83203, 1.88121, 1.94032, 1.93887, 1.82729, 1.8258, 1.96196, 1.82324, 2.05251, 2.04569, 2.03292, 1.95669, 1.9234, 1.81619, 1.81404, 2.0523, 1.94986, 1.94854, 1.68165, 1.67851, 1.67681, 1.67349, 1.67125, 1.66895, 1.84203, 1.84075, 1.66448, 1.66448, 1.66191, 1.81368, 1.70985, 1.65927, 1.65835, 1.87513, 1.65609, 1.7081, 1.65575, 1.70841, 1.6554, 1.6561, 1.65467, 1.65315, 1.65428, 1.70601, 1.74086, 1.73906, 1.65393, 1.76655, 1.75596, 1.80962, 1.65798, 1.77259, 1.65508, 1.65823, 1.65596, 1.66228, 1.81376, 1.66119, 1.66483, 1.80623, 1.80498, 1.66851, 1.67155, 1.8043, 1.80202, 1.67616, 1.67578, 1.67517, 1.67366, 1.8005, 1.79746, 1.67735
1.92301, 1.92329, 1.92675, 2.02468, 2.02505, 1.92407, 1.92251, 2.0293, 1.99297, 1.99668, 1.99931, 2.02781, 1.91134, 2.00435, 1.96225, 1.90824, 2.02152, 2.09533, 1.90948, 2.02029, 2.01984, 1.90374, 2.01627, 2.01437, 1.90271, 1.90277, 2.01361, 2.01478, 1.89991, 1.89861, 1.8984, 1.89971, 1.89707, 1.89714, 1.89674, 1.89667, 2.01084, 1.89682, 1.89796, 1.89982, 1.90063, 1.90122, 1.90343, 2.14584, 2.12046, 2.12776, 2.14139, 2.11882, 2.12107, 2.03903, 2.12534, 2.03963, 1.9511, 2.02562, 1.94671, 1.94525, 2.02343, 2.01876, 2.01954, 2.12355, 2.01319, 2.01168, 2.00665, 2.0103, 2.00548, 2.00734, 2.00376, 1.99784, 1.99639, 1.91776, 2.12081, 1.99384, 1.9169, 1.99008, 1.99091, 2.11694, 1.98977, 1.98874, 2.12767, 2.03051, 2.02697, 1.99051, 1.99168, 2.03087, 1.9948, 2.02419, 2.11469, 2.0236, 2.11957, 2.0189, 2.01216, 2.09216, 2.09001, 2.09449, 2.08165, 2.083, 2.06155, 2.06348, 2.06022, 1.98299, 1.98267, 2.07373, 1.98088, 1.98089, 1.98002, 2.07245, 2.05552, 2.07941, 2.07917, 2.07775, 2.06931, 2.09625, 2.05847, 2.06489, 2.06301, 1.9757, 2.06867, 2.06231, 1.97219, 2.06828, 2.08008, 2.06814, 2.0557, 2.0535, 2.0515, 2.0561, 2.05623, 1.96535, 2.04844, 2.05079, 2.05181, 2.04557, 1.96293, 1.96189, 1.96151, 1.95999, 2.04705, 2.05106, 2.05185, 2.052, 1.95445, 2.02807, 2.04523, 1.94848, 1.94797, 1.94763, 1.94681, 1.9455, 1.94444, 1.94258, 2.05479, 1.91858, 1.86281, 1.8621, 1.86035, 2.04851, 1.85147, 1.95919, 1.89983, 1.93479, 1.8955, 1.84045, 1.84006, 1.92264, 1.83429, 1.8323, 2.06171, 1.82986, 1.82683, 1.82392, 1.82549, 1.82405, 1.82257, 1.82037, 1.95867, 1.96172, 1.8175, 1.81383, 1.81214, 1.81129, 1.93919, 1.86022, 2.03398, 1.80688, 1.9061, 2.04181, 1.78301, 1.72646, 1.78093, 1.66948, 1.83576, 1.83423, 1.66545, 1.6634, 1.66268, 1.82555, 1.6601, 1.65825, 1.70807, 1.82211, 1.65683, 1.82339, 1.70681, 1.6559, 1.65383, 1.70484, 1.65587, 1.70443, 1.65409, 1.82007, 1.65187, 1.65194, 1.81714, 1.65314, 1.8134, 1.75457, 1.65072, 1.65398, 1.77142, 1.65444, 1.65414, 1.65637, 1.65756, 1.65766, 1.80841, 1.66412, 1.66306, 1.66462, 1.79993, 1.66866, 1.66878, 1.67103, 1.67335, 1.80265, 1.80097, 1.67375, 1.67505, 1.76813, 1.67611, 1.67547
1.92239, 1.92325, 2.02671, 1.92348, 2.10351, 1.96856, 1.92014, 2.02735, 1.91855, 1.91762, 1.96511, 1.91351, 1.99972, 2.00115, 1.9102, 1.91021, 1.95945, 1.91006, 1.90829, 2.15847, 1.90603, 2.01508, 2.08692, 1.90355, 1.95185, 1.96474, 1.89966, 1.99929, 1.94589, 1.94588, 1.94557, 1.89434, 1.89593, 1.89544, 1.89206, 1.89272, 1.89398, 2.00477, 2.00363, 2.00175, 1.90094, 1.90414, 1.90381, 2.04068, 2.1411, 2.04176, 2.03641, 2.03882, 2.04039, 2.04027, 2.02962, 2.03452, 2.03634, 2.03725, 2.02469, 2.03732, 2.01883, 2.12491, 2.01707, 2.11476, 1.93478, 2.00814, 2.00762, 2.0069, 2.00356, 2.00293, 2.00088, 1.99771, 1.99635, 1.99507, 1.91805, 2.03105, 1.91413, 2.03122, 1.98888, 1.98883, 1.9872, 1.98816, 1.91026, 1.98787, 1.98762, 1.99293, 1.91321, 1.99351, 2.02432, 2.02525, 1.99969, 2.00131, 2.01807, 2.01819, 2.01882, 1.98942, 1.98966, 2.08693, 2.06165, 1.98618, 2.06954, 1.98449, 1.98316, 2.05986, 1.97951, 1.98057, 2.05592, 2.06625, 1.98118, 2.07824, 2.06582, 2.07585, 2.05204, 2.07592, 2.08077, 2.06972, 2.06741, 2.05627, 2.06299, 1.97335, 2.06734, 2.06614, 2.0581, 1.96957, 2.06385, 2.05172, 2.06506, 2.06974, 1.96605, 2.05702, 1.96561, 2.04232, 2.05155, 2.04742, 2.06302, 1.96156, 2.05949, 1.96226, 2.05341, 2.0491, 2.04684, 2.05233, 2.04211, 1.9523, 2.05514, 2.04996, 2.02454, 1.94729, 1.94685, 1.94634, 1.94446, 1.94476, 1.94239, 1.94172, 2.02004, 1.9613, 1.85971, 1.85955, 1.85442, 1.903, 1.85114, 1.89966, 1.84543, 1.83896, 1.83798, 1.9699, 1.95013, 1.83266, 1.97244, 1.97124, 2.04036, 1.96599, 1.82203, 1.8221, 1.96354, 1.96162, 2.07087, 1.8136, 1.81316, 1.81104, 1.81385, 1.89824, 1.80875, 1.85799, 2.02878, 2.02249, 1.80167, 1.85193, 1.80006, 2.03175, 1.67725, 1.67254, 1.67123, 1.66907, 1.66579, 1.66484, 1.66305, 1.82075, 1.82362, 1.66116, 1.81995, 1.77895, 1.81694, 1.80283, 1.65377, 1.65372, 1.65488, 1.65395, 1.7035, 1.70339, 1.70296, 1.651, 1.65208, 1.6517, 1.64755, 1.64758, 1.64776, 1.64533, 1.64848, 1.65132, 1.80883, 1.65258, 1.6522, 1.65273, 1.65418, 1.80747, 1.80456, 1.70742, 1.65811, 1.65946, 1.66242, 1.66019, 1.66668, 1.79692, 1.668, 1.66883, 1.72091, 1.67174, 1.67433, 1.67204, 1.79252, 1.78844, 1.67507, 1.79282
1.93053, 1.92087, 1.92396, 1.92105, 1.9176, 1.91844, 2.03083, 1.91907, 1.92014, 2.02556, 1.91362, 2.01716, 2.02383, 2.17873, 1.91014, 1.95877, 1.91032, 2.02332, 1.90947, 1.95681, 2.00482, 1.99754, 1.90059, 1.95306, 1.94887, 1.94891, 1.94807, 1.94688, 1.9511, 1.89745, 1.94559, 1.99421, 1.94468, 1.89532, 2.01892, 1.89309, 1.89554, 1.89591, 1.89718, 1.89896, 1.89889, 1.90031, 2.17353, 2.04053, 2.04161, 2.13493, 2.03668, 2.04373, 2.03801, 2.02765, 2.02794, 2.03012, 2.03823, 2.02503, 2.02194, 2.02103, 2.13299, 2.0171, 2.01695, 2.01315, 2.01373, 2.0081, 2.03404, 2.00745, 2.03188, 2.00129, 2.03388, 2.00016, 2.03421, 1.91655, 1.99267, 1.99366, 1.91177, 1.98859, 2.02879, 1.98977, 1.98549, 1.98502, 1.98648, 1.9863, 1.98779, 2.02433, 1.98691, 1.9902, 1.9932, 2.0207, 2.10771, 1.99897, 1.92364, 2.11774, 2.11398, 2.07285, 2.07394, 2.07596, 2.05857, 2.084, 2.06207, 2.06216, 1.98263, 1.97964, 2.06222, 1.97868, 1.97909, 2.0556, 2.06522, 2.07045, 2.05235, 2.05177, 2.07641, 2.07676, 2.06268, 2.08257, 1.97508, 2.05282, 2.079, 2.06279, 2.0525, 1.97041, 2.06804, 1.96968, 1.96926, 2.0556, 2.06598, 2.07986, 2.05148, 1.96518, 2.06244, 2.05117, 2.04914, 2.0506, 2.045, 2.0589, 1.95834, 2.05438, 2.04623, 2.0529, 2.0447, 2.06196, 1.95189, 2.04644, 2.04953, 2.0319, 2.04886, 1.94721, 1.94562, 1.94429, 1.94148, 2.02113, 2.01984, 1.94197, 2.02486, 1.9111, 1.85702, 1.90412, 1.85089, 1.93765, 1.95517, 1.9652, 1.84018, 1.83596, 1.83428, 1.83383, 1.82984, 1.87951, 1.82489, 2.05683, 1.82351, 1.82176, 1.82012, 1.86815, 1.81402, 1.9307, 1.81116, 1.81032, 1.85965, 1.80696, 1.85773, 1.93763, 1.93534, 1.85562, 1.85421, 1.79593, 1.79697, 1.93156, 1.86634, 1.79205, 1.82762, 1.67073, 1.79565, 1.71773, 1.71574, 1.71396, 1.65965, 1.65776, 1.65783, 1.65627, 1.6547, 1.65527, 1.65223, 1.70369, 1.65211, 1.65416, 1.65061, 1.64983, 1.7001, 1.64971, 1.85971, 1.6484, 1.80842, 1.64799, 1.64696, 1.64805, 1.80287, 1.64836, 1.64721, 1.64579, 1.65015, 1.80691, 1.80813, 1.6506, 1.65107, 1.78695, 1.78986, 1.70544, 1.70706, 1.65994, 1.65835, 1.66593, 1.66333, 1.66528, 1.79388, 1.66817, 1.78976, 1.66882, 1.67057, 1.6709, 1.67254, 1.72376, 1.78687, 1.78949
1.92403, 1.92115, 1.92029, 1.92056, 1.92056, 2.19046, 1.91492, 1.9152, 1.91766, 2.01785, 2.01372, 2.09669, 1.91017, 1.90867, 1.90719, 1.95944, 1.90875, 1.90702, 2.00326, 1.90415, 2.00765, 2.00987, 1.95244, 1.89988, 1.90219, 1.94986, 1.89931, 1.9459, 1.99328, 2.00469, 1.89118, 1.89207, 1.89278, 1.89463, 2.01605, 1.89526, 1.8964, 1.89594, 1.89477, 1.89692, 1.89803, 1.8977, 1.90029, 2.0415, 2.03846, 2.04445, 2.04148, 2.03759, 2.03159, 2.02886, 2.03158, 2.02477, 2.02799, 2.03546, 1.94438, 2.0338, 2.13543, 2.03395, 2.03471, 2.03217, 1.93045, 1.93095, 2.00482, 2.02706, 2.02715, 1.9217, 1.99791, 1.99953, 1.91707, 1.99245, 2.03086, 1.99244, 1.91319, 2.02893, 1.90822, 1.9856, 1.98601, 1.98318, 1.98446, 2.02404, 1.98617, 1.90668, 1.98407, 1.98982, 1.99018, 1.9923, 1.99774, 1.91954, 1.99867, 2.11376, 2.06177, 2.08018, 2.0906, 2.05966, 2.06129, 2.06638, 2.05591, 1.98233, 2.05304, 1.97947, 1.98029, 1.97895, 2.06593, 2.06862, 1.97776, 2.05203, 2.05261, 2.06993, 2.06655, 1.97359, 2.06583, 2.06916, 2.06863, 2.04972, 2.0697, 1.96917, 2.06166, 1.96837, 2.06335, 2.05181, 1.9667, 1.96637, 2.06298, 2.07702, 2.06563, 1.96241, 2.07031, 2.05681, 1.96137, 2.06233, 1.96016, 1.95831, 2.03881, 2.05581, 2.04433, 2.05301, 2.04763, 2.04386, 2.04854, 1.95014, 2.04597, 2.023, 2.03484, 2.02022, 2.02358, 1.94298, 1.94264, 1.93992, 1.94072, 2.03445, 1.93828, 1.90664, 1.90337, 1.85055, 1.99057, 1.84411, 1.84072, 1.96812, 2.05521, 1.96616, 1.94473, 1.82995, 1.8271, 1.87513, 1.82262, 1.82021, 1.93603, 1.93461, 1.81657, 1.86379, 1.86179, 1.89716, 1.80751, 2.04737, 1.80535, 1.80274, 1.80381, 2.05281, 2.04014, 1.79633, 2.0153, 2.01706, 1.78997, 1.84001, 1.85225, 1.8506, 1.67, 1.66823, 1.81614, 1.66446, 1.66433, 1.71083, 1.79639, 1.70606, 1.81037, 1.65036, 1.652, 1.65389, 1.65498, 1.6492, 1.64747, 1.64932, 1.64987, 1.64718, 1.64483, 1.64802, 1.64804, 1.64373, 1.80529, 1.6442, 1.80303, 1.6441, 1.64561, 1.7717, 1.76782, 1.76161, 1.64842, 1.64797, 1.80267, 1.79991, 1.79899, 1.79237, 1.65232, 1.65444, 1.7925, 1.65546, 1.65714, 1.79025, 1.79041, 1.78875, 1.78994, 1.79006, 1.67141, 1.66549, 1.66807, 1.72307, 1.77251, 1.67181, 1.67181, 1.67312
2.18744, 2.19516, 1.92007, 1.91871, 1.96859, 1.96806, 2.01542, 2.02223, 2.02114, 1.90876, 1.91213, 2.09566, 1.91067, 1.91013, 1.91105, 1.90606, 1.90681, 1.90855, 1.90444, 1.90026, 1.90158, 1.97408, 1.89974, 1.89973, 1.94652, 1.94751, 1.89557, 1.89536, 1.89253, 2.00829, 1.89315, 1.89129, 1.89236, 1.94183, 1.89288, 1.97572, 1.89362, 2.0027, 1.89316, 1.89597, 1.89834, 1.89455, 2.07256, 2.03683, 2.036, 2.03485, 2.03534, 1.95494, 2.0315, 2.03901, 1.94854, 1.94904, 2.02361, 2.03473, 2.02078, 2.0321, 2.13402, 2.0327, 2.01177, 1.93139, 2.13076, 2.03138, 2.11557, 2.0025, 2.11746, 1.99752, 2.02766, 1.99625, 2.02816, 1.9937, 1.99043, 1.98872, 1.9877, 2.02751, 2.11643, 2.02488, 1.98593, 1.98577, 2.10206, 1.9084, 2.11036, 1.9081, 1.98318, 1.9865, 1.98796, 1.99271, 2.01911, 1.99502, 2.10528, 2.09301, 2.08699, 2.09653, 2.0756, 2.0592, 2.07407, 1.97962, 2.06511, 1.98039, 1.97953, 1.97793, 1.97663, 1.97819, 2.05923, 2.06967, 2.07372, 2.07657, 2.05827, 2.073, 2.05985, 2.07411, 1.97222, 2.05847, 1.97009, 2.04566, 1.9698, 1.96826, 2.06948, 1.96718, 2.05703, 2.06197, 2.05284, 1.96264, 2.05908, 2.04784, 1.9632, 2.05104, 2.0584, 2.04504, 2.03171, 1.95903, 2.05563, 2.05188, 2.04762, 2.04862, 1.95446, 2.0491, 1.95182, 1.95143, 2.05527, 1.94758, 2.03882, 2.02853, 2.02945, 2.03215, 1.94238, 1.94067, 1.94076, 1.93886, 2.0165, 2.01401, 2.03411, 1.96603, 2.05658, 1.84678, 1.96555, 1.83965, 1.83749, 1.83218, 1.83319, 1.82969, 2.06737, 2.05946, 1.8206, 1.82051, 1.81827, 1.81464, 2.05284, 1.81018, 1.80749, 1.80653, 1.80583, 1.80214, 1.80312, 2.04914, 1.95532, 1.93323, 1.79655, 1.79523, 1.7933, 2.04187, 1.78973, 1.78913, 1.7876, 1.78532, 1.78367, 1.78312, 1.669, 1.66755, 1.66286, 1.66225, 1.7099, 1.7071, 1.70441, 1.652, 1.65205, 1.65171, 1.79774, 1.79726, 1.64344, 1.64829, 1.64483, 1.6466, 1.79918, 1.79805, 1.64449, 1.64447, 1.64103, 1.64056, 1.64109, 1.79484, 1.76816, 1.64126, 1.70366, 1.64038, 1.6426, 1.64341, 1.79571, 1.64413, 1.64238, 1.70802, 1.64846, 1.69909, 1.76113, 1.64991, 1.65001, 1.78527, 1.65802, 1.65635, 1.65857, 1.6599, 1.77439, 1.78716, 1.66586, 1.66816, 1.78125, 1.71717, 1.6674, 1.78341, 1.8732, 1.66879
1.91798, 2.00776, 1.96948, 2.02147, 1.92066, 1.91751, 1.96816, 1.91186, 1.91156, 1.91413, 1.91291, 1.9151, 2.01458, 2.01498, 1.9078, 1.9065, 2.01068, 2.01324, 1.90225, 2.01355, 1.90137, 2.00754, 1.90082, 2.0095, 2.01387, 2.01096, 2.01069, 2.01075, 1.89226, 1.89121, 2.16552, 2.00639, 1.88978, 1.89047, 1.89259, 1.89419, 2.00069, 1.98695, 1.95061, 1.89135, 1.8944, 1.99416, 1.90002, 2.03837, 2.12107, 2.13481, 2.03598, 2.03402, 2.03394, 1.94981, 2.02358, 2.02344, 1.94557, 2.01833, 2.01692, 2.03188, 2.11005, 2.03118, 2.03083, 2.00645, 2.0055, 2.00463, 2.00419, 2.00369, 1.99704, 1.99671, 1.99521, 1.99393, 1.99394, 1.98993, 2.11436, 1.98886, 1.98668, 2.02438, 1.98425, 2.11509, 2.0237, 1.98246, 2.02226, 1.98198, 1.98276, 1.90638, 1.98243, 2.01751, 1.98711, 2.09415, 1.99322, 2.10058, 1.92084, 2.11737, 2.09404, 2.06576, 1.98287, 2.06027, 2.07357, 2.0727, 2.05269, 1.9797, 1.97876, 1.97607, 1.97515, 1.97482, 2.08019, 2.08314, 2.06221, 2.05004, 1.97245, 2.04454, 2.0663, 2.06266, 2.05874, 2.06672, 1.96907, 2.06652, 2.06275, 2.06346, 2.05482, 2.05604, 2.05926, 2.06042, 2.05298, 2.05894, 2.04946, 2.06243, 1.95981, 2.04198, 2.04812, 2.05509, 2.04757, 2.05381, 2.04458, 1.9551, 2.04569, 2.04525, 2.04582, 2.05712, 2.0458, 1.94901, 2.03931, 2.04258, 1.94509, 2.03224, 2.03309, 1.94224, 1.94168, 1.93872, 1.93861, 1.93705, 1.93463, 1.93799, 2.02284, 1.84536, 1.84448, 2.06831, 2.06741, 1.8351, 1.83126, 1.82986, 1.82888, 1.95921, 1.96137, 2.04548, 1.81856, 1.81646, 1.81211, 2.0498, 2.04957, 1.80518, 1.80336, 1.80195, 2.04165, 2.0484, 1.79831, 1.952, 1.79403, 1.91526, 1.95228, 1.78826, 1.78529, 1.78541, 1.78407, 1.78219, 1.7791, 1.77637, 1.7776, 1.77538, 1.66566, 1.66117, 1.65981, 1.7711, 1.76596, 1.65405, 1.76504, 1.76353, 1.80091, 1.79918, 1.64717, 1.64554, 1.64407, 1.64442, 1.69436, 1.64167, 1.64027, 1.73889, 1.64063, 1.64154, 1.6391, 1.64381, 1.63862, 1.63699, 1.64013, 1.63997, 1.73125, 1.73743, 1.64037, 1.64175, 1.64172, 1.64073, 1.64081, 1.78913, 1.78773, 1.76384, 1.64546, 1.6507, 1.65104, 1.64961, 1.65548, 1.75456, 1.78118, 1.65923, 1.66095, 1.7825, 1.77867, 1.66663, 1.77634, 1.66544, 1.66474, 1.71968, 1.77944, 1.77641
1.97534, 1.92077, 1.92061, 2.02881, 2.02814, 1.91473, 1.96381, 1.96319, 2.01398, 1.91138, 1.91264, 1.91338, 1.91069, 1.90479, 2.01327, 2.18057, 2.08807, 2.17948, 1.90132, 1.90041, 2.00717, 1.89805, 1.89764, 2.00627, 1.89487, 1.89597, 1.89224, 2.01398, 2.01162, 1.88994, 1.88824, 1.99408, 1.89125, 1.88934, 1.8909, 1.88964, 1.89268, 1.89286, 1.89207, 1.94896, 1.89289, 1.89518, 1.89597, 2.03367, 2.03415, 2.12454, 2.03837, 2.0298, 2.03414, 2.03365, 2.03505, 2.03108, 2.02158, 2.01827, 2.03194, 2.0308, 2.10692, 2.02328, 2.0273, 1.93084, 2.00376, 2.02754, 2.0015, 1.99992, 1.99961, 1.99695, 2.03076, 1.99744, 1.99091, 1.91169, 1.99025, 1.98609, 1.98391, 1.98416, 1.98364, 2.02491, 1.90437, 1.98374, 1.98107, 1.98002, 1.98219, 1.98275, 2.0194, 2.02089, 1.98803, 1.98909, 1.91461, 1.91637, 2.01326, 2.13107, 2.0725, 1.98294, 2.0766, 2.06638, 2.05505, 1.9794, 1.97897, 1.97741, 1.97686, 1.97519, 1.97564, 2.0543, 1.97338, 2.05148, 2.07286, 2.08653, 2.07594, 1.97195, 1.97118, 2.05282, 2.07408, 2.05523, 2.04737, 2.05758, 1.96516, 2.06263, 2.06594, 2.05883, 2.0436, 1.96193, 2.05608, 2.05673, 2.05563, 2.05238, 2.05477, 2.0309, 2.04959, 2.05436, 2.05525, 1.9552, 2.05739, 1.9528, 2.04853, 2.05168, 2.03538, 1.9497, 2.03479, 1.94568, 2.04539, 2.03443, 1.94225, 2.01988, 2.01674, 1.94015, 1.93969, 1.93813, 1.93667, 1.93743, 1.93593, 1.93542, 2.03312, 1.84273, 1.83852, 1.83525, 1.83346, 1.82896, 1.82814, 2.05372, 1.82323, 1.8206, 1.81743, 2.05083, 1.81301, 1.96211, 1.80476, 1.80285, 1.80334, 1.7994, 1.79839, 1.84764, 1.79576, 1.79432, 1.95252, 1.79265, 1.88604, 1.94974, 1.78447, 1.78186, 1.77971, 1.94822, 1.94733, 1.94771, 1.77478, 1.77272, 1.77129, 1.76923, 1.66238, 1.65967, 1.65801, 1.65578, 1.65213, 1.70373, 1.7629, 1.69898, 1.64596, 1.64722, 1.64561, 1.64209, 1.64215, 1.64132, 1.64038, 1.64386, 1.64177, 1.6398, 1.63719, 1.68961, 1.70749, 1.68833, 1.68622, 1.63592, 1.63494, 1.63654, 1.63794, 1.63702, 1.76065, 1.63741, 1.75201, 1.74902, 1.64104, 1.639, 1.6418, 1.76507, 1.7548, 1.64535, 1.65089, 1.64914, 1.76167, 1.65115, 1.65579, 1.65499, 1.77946, 1.65845, 1.76992, 1.66424, 1.77582, 1.66571, 1.66345, 1.66527, 1.66422, 1.77613
1.92347, 1.91653, 1.91854, 1.91741, 1.91418, 1.91393, 1.91467, 1.96219, 1.90949, 1.91132, 2.19985, 2.01416, 1.9095, 1.90837, 1.90992, 2.08949, 2.08965, 2.01442, 1.90143, 2.01354, 2.02675, 1.8986, 1.89519, 1.8957, 1.89387, 1.89356, 2.00672, 2.17308, 2.17408, 1.88757, 2.00504, 2.00279, 1.98537, 2.00003, 1.88808, 1.99439, 1.89113, 1.88933, 1.94641, 1.89223, 1.9899, 1.89247, 1.97927, 2.03529, 2.03085, 2.03561, 2.03547, 1.95271, 2.03325, 2.02894, 1.94541, 2.02139, 2.01912, 2.02914, 2.10379, 2.02585, 2.03133, 1.93292, 2.12832, 2.00627, 2.00728, 1.92786, 1.99963, 1.99744, 1.99985, 1.91548, 2.02522, 1.99476, 1.98901, 1.91021, 2.02463, 1.98464, 1.90826, 1.98246, 1.98248, 2.0969, 1.98028, 2.0185, 1.97725, 1.97983, 1.97993, 1.97953, 2.01773, 2.0174, 1.98525, 1.9878, 2.01385, 1.99243, 2.08739, 2.11843, 2.07366, 2.0753, 2.05908, 2.07385, 1.97912, 1.97684, 1.97706, 1.97543, 1.97549, 1.97666, 1.9747, 2.05007, 2.04844, 2.06884, 2.07257, 2.06916, 2.06651, 2.05963, 2.05543, 1.96709, 2.05025, 2.05688, 1.96588, 1.96821, 2.04347, 2.05147, 2.05107, 2.07534, 2.05364, 2.05313, 2.05662, 2.04975, 2.05299, 2.05159, 2.05398, 1.95574, 1.95337, 2.03927, 2.04202, 2.04521, 2.0363, 2.04155, 2.04212, 2.02446, 2.05652, 1.94889, 2.04448, 1.9451, 2.03495, 1.9445, 2.01857, 2.01869, 1.93891, 1.93766, 1.93694, 1.93631, 1.93797, 1.93403, 1.93516, 2.01318, 2.02858, 1.96125, 1.83468, 1.83239, 1.9614, 1.82388, 1.82341, 1.82138, 1.81814, 1.81515, 2.04516, 1.80949, 1.80716, 1.85535, 1.80018, 1.79973, 1.79849, 1.9372, 2.03916, 1.79208, 1.78851, 1.89365, 1.88546, 1.94852, 1.78151, 1.78178, 1.90213, 1.89964, 1.77551, 1.77273, 1.77242, 2.03957, 1.76889, 1.76523, 1.83234, 1.83042, 1.6608, 1.65745, 1.65487, 1.65267, 1.64956, 1.76779, 1.78749, 1.64658, 1.64272, 1.6413, 1.64109, 1.78657, 1.63717, 1.6373, 1.63829, 1.63791, 1.77431, 1.78268, 1.63459, 1.73169, 1.63371, 1.63452, 1.63722, 1.63457, 1.68568, 1.63043, 1.74078, 1.75429, 1.63438, 1.76227, 1.68579, 1.68833, 1.68753, 1.68839, 1.63979, 1.75549, 1.7522, 1.76815, 1.77323, 1.76852, 1.75921, 1.65224, 1.65077, 1.65294, 1.65508, 1.77206, 1.65689, 1.77798, 1.75899, 1.66269, 1.65876, 1.66261, 1.66181, 1.75491
2.19001, 1.91358, 1.91406, 1.91505, 1.91131, 1.91349, 1.96158, 1.91027, 1.91136, 1.99406, 1.90778, 1.90455, 2.00464, 1.90487, 1.90329, 1.90336, 2.08352, 1.90101, 1.90389, 1.897, 2.02079, 1.99094, 1.94664, 1.89344, 1.89431, 1.8894, 1.89078, 1.94148, 1.98772, 1.88948, 1.885, 1.88744, 1.88952, 2.00049, 2.00052, 1.88785, 2.00013, 1.99711, 1.98361, 1.88908, 1.89261, 1.99658, 1.96709, 2.12164, 2.11486, 2.03562, 2.11818, 2.02486, 2.02538, 2.03116, 2.02895, 1.94275, 2.01737, 2.0205, 2.01565, 2.11099, 2.10491, 2.02468, 2.02424, 2.00415, 2.02589, 2.00244, 2.02483, 2.09961, 1.99682, 1.99471, 1.99274, 1.91398, 2.11806, 1.99003, 1.98368, 1.98252, 1.98339, 1.98009, 1.98236, 1.98004, 1.9765, 1.97805, 1.97899, 1.9783, 2.0176, 2.01593, 1.98232, 2.01362, 2.01339, 1.98596, 1.98828, 1.99099, 2.00846, 2.11908, 2.08928, 2.05836, 2.05622, 2.05617, 2.06997, 2.07051, 1.975, 1.97342, 1.97391, 1.97223, 1.97255, 1.97227, 2.05599, 2.05554, 2.0689, 2.04305, 2.07525, 2.05832, 1.96855, 2.05195, 2.05276, 2.06177, 2.05412, 2.04959, 2.04472, 2.04757, 2.04564, 2.05228, 2.04868, 2.05568, 2.03518, 2.04906, 1.95611, 1.95504, 2.05123, 2.04835, 2.04364, 1.95374, 2.06045, 1.95233, 2.05645, 2.04256, 2.04496, 2.02997, 2.0371, 2.05161, 2.04132, 2.03199, 2.03522, 1.94182, 2.03832, 1.93794, 2.03473, 1.93745, 1.93521, 1.93425, 1.93096, 1.93138, 1.93117, 2.0068, 2.01361, 1.93343, 1.82939, 1.91941, 1.91795, 1.95223, 1.81693, 1.93063, 1.88404, 1.81084, 2.04012, 1.80615, 1.80042, 1.84983, 1.79598, 1.91391, 2.03223, 1.78891, 1.78735, 1.78529, 1.89289, 1.9478, 1.9521, 1.7784, 1.77613, 1.88089, 1.89852, 1.77003, 1.82158, 1.76561, 1.76577, 1.76208, 1.76182, 1.87972, 1.87744, 1.65852, 1.65637, 1.78678, 1.65016, 1.64869, 1.64629, 1.64529, 1.74432, 1.64271, 1.69256, 1.6432, 1.63707, 1.64008, 1.71693, 1.76484, 1.74128, 1.686, 1.63668, 1.72853, 1.63155, 1.63305, 1.63334, 1.77928, 1.74979, 1.74723, 1.63146, 1.75735, 1.75496, 1.7449, 1.6314, 1.63049, 1.68382, 1.68322, 1.63394, 1.75874, 1.7563, 1.69034, 1.63659, 1.64381, 1.64161, 1.64715, 1.76723, 1.64529, 1.65048, 1.65058, 1.7681, 1.70633, 1.70679, 1.7086, 1.70958, 1.65957, 1.65896, 1.7701, 1.6616, 1.77233
1.91478, 2.18107, 2.01987, 1.96213, 1.96209, 1.90975, 2.00784, 1.91, 1.91242, 2.01736, 1.95833, 1.90963, 2.012, 1.90101, 1.90682, 1.95637, 1.90266, 1.90244, 1.90073, 1.94617, 1.99072, 1.94557, 1.94525, 1.99647, 1.94352, 1.89205, 2.00709, 2.15979, 1.88891, 1.9406, 1.8873, 1.88521, 1.88587, 1.8863, 1.99569, 1.99601, 1.88621, 1.88722, 1.88715, 1.9406, 1.94216, 1.94442, 1.99439, 2.02821, 2.02922, 2.10714, 2.02966, 2.03395, 2.02713, 2.02589, 1.94204, 2.01704, 2.10789, 2.01769, 2.02475, 2.11715, 2.01007, 2.00729, 2.02405, 2.02411, 2.00072, 2.00118, 1.99736, 1.99767, 2.09702, 1.91505, 1.99375, 2.02446, 2.11005, 2.11116, 2.11054, 1.98517, 2.01789, 1.98074, 2.01762, 1.9786, 2.01739, 2.11019, 1.97532, 1.97608, 2.01437, 1.97645, 1.97955, 1.90317, 2.00964, 1.98582, 1.98664, 1.91143, 1.99136, 2.08321, 1.98032, 2.05311, 2.07102, 2.05299, 2.05202, 2.06481, 1.97593, 1.97308, 1.97065, 1.97217, 1.97274, 2.04583, 2.05871, 2.06209, 2.05764, 2.05961, 2.07041, 2.05903, 2.0561, 1.96502, 2.0632, 2.05623, 1.96285, 2.04636, 2.06172, 1.95917, 1.96162, 2.04203, 2.05487, 2.03147, 2.0521, 2.05249, 2.03914, 1.95269, 2.06289, 2.04143, 2.03177, 2.02449, 2.03963, 2.04516, 2.03224, 2.0477, 2.05187, 2.02852, 2.02137, 2.03056, 1.94343, 1.94109, 1.94099, 1.93867, 2.03545, 2.02843, 2.02438, 2.02813, 1.93407, 1.93136, 1.9312, 1.93109, 1.9285, 1.9275, 1.92837, 1.82718, 1.91835, 1.91702, 1.91556, 1.81521, 1.89957, 1.80985, 1.8066, 1.80394, 2.05606, 2.03069, 1.79605, 1.7931, 1.79093, 1.9098, 1.83769, 1.85746, 1.84274, 1.94759, 1.7762, 1.775, 1.82445, 1.77033, 1.88544, 1.76903, 1.76786, 1.92816, 1.89375, 1.7609, 1.76122, 1.75465, 1.75527, 2.01869, 1.75385, 1.75199, 1.65161, 1.65047, 1.77952, 1.64568, 1.64193, 1.77517, 1.78528, 1.63781, 1.63568, 1.68849, 1.63638, 1.63534, 1.63383, 1.77497, 1.6344, 1.75861, 1.69118, 1.77273, 1.77323, 1.62975, 1.77355, 1.77904, 1.81918, 1.68003, 1.62632, 1.73708, 1.73419, 1.6285, 1.75926, 1.62817, 1.62999, 1.67996, 1.75128, 1.63376, 1.63148, 1.82443, 1.80177, 1.77158, 1.64153, 1.64198, 1.64478, 1.75173, 1.6482, 1.65112, 1.651, 1.70305, 1.70481, 1.70766, 1.7057, 1.65459, 1.77355, 1.6584, 1.66035, 1.65849
1.91326, 1.91385, 1.9176, 1.91309, 1.9158, 1.91178, 1.90913, 2.01389, 1.90868, 2.17051, 1.90811, 1.95452, 1.95569, 1.90301, 1.90207, 1.9516, 1.90075, 1.90026, 1.90119, 1.89578, 1.89306, 2.00361, 1.89169, 1.8927, 1.89088, 1.89082, 1.88917, 1.89038, 1.98003, 1.88341, 1.93883, 1.88569, 1.88612, 1.88554, 1.8834, 1.88579, 1.88426, 1.8862, 1.88629, 1.93851, 1.94108, 1.94053, 1.89059, 2.03133, 2.02959, 2.03129, 2.02868, 2.02437, 2.03145, 2.1078, 2.02531, 2.10011, 2.01719, 1.93815, 2.01725, 2.01024, 2.02135, 2.02454, 2.01006, 2.00143, 2.00125, 2.02112, 2.11371, 2.11539, 1.99631, 1.99165, 1.98934, 1.99006, 1.98383, 1.98418, 1.98429, 1.98289, 1.98091, 1.97939, 1.97784, 1.97758, 1.89999, 2.10738, 1.9752, 1.97594, 1.97706, 1.90018, 2.10008, 2.10489, 1.98165, 1.98418, 2.08427, 1.9876, 1.9899, 2.08331, 2.0887, 2.08928, 2.06488, 1.97527, 2.06679, 2.06395, 1.97245, 1.97179, 1.97047, 1.96939, 1.96871, 2.06408, 2.06084, 1.96656, 2.05276, 2.0594, 2.05517, 2.05112, 1.96479, 1.96566, 1.9642, 1.96242, 2.05601, 2.04792, 2.05259, 2.04569, 1.95833, 2.0445, 2.04254, 2.03543, 2.04508, 2.04857, 2.04131, 2.03864, 1.95099, 2.05312, 2.03198, 2.04226, 2.04143, 2.04536, 2.03586, 2.04818, 2.04907, 2.03788, 2.0413, 2.04154, 2.03012, 2.04218, 2.0241, 2.0352, 2.0331, 1.93505, 1.93385, 1.93363, 1.931, 1.93416, 1.92907, 1.9294, 1.92876, 1.9289, 2.04173, 1.82046, 1.81879, 2.04258, 1.91002, 1.90692, 1.80381, 1.89693, 1.89509, 1.9562, 2.04105, 1.95776, 1.79084, 1.89716, 1.78355, 1.95111, 1.78035, 1.77949, 1.94974, 1.9487, 1.7716, 1.93104, 1.7665, 1.92885, 1.76479, 1.7618, 1.85775, 1.85629, 1.75821, 1.75722, 1.75397, 2.04096, 1.75037, 1.74775, 1.74739, 1.65033, 1.64804, 1.64829, 1.64513, 1.64459, 1.64347, 1.64048, 1.63963, 1.76992, 1.6369, 1.63635, 1.63333, 1.68533, 1.6822, 1.62972, 1.76645, 1.62999, 1.62864, 1.67803, 1.76597, 1.67902, 1.62678, 1.62691, 1.62459, 1.62752, 1.62686, 1.62539, 1.76449, 1.62466, 1.62718, 1.62706, 1.62652, 1.62602, 1.62631, 1.62929, 1.6274, 1.63366, 1.63387, 1.63461, 1.76895, 1.63893, 1.69277, 1.75202, 1.64692, 1.64677, 1.64724, 1.65018, 1.65038, 1.65121, 1.76429, 1.76131, 1.65476, 1.65624, 1.65794, 1.76358
1.85782, 1.91238, 1.91312, 1.91313, 1.99995, 1.91053, 1.90853, 1.9064, 1.96153, 1.9069, 1.90603, 1.9049, 1.95181, 1.90254, 1.90008, 1.9013, 1.8997, 2.00669, 1.89616, 1.89349, 1.89343, 2.00634, 1.89527, 1.89332, 1.8896, 1.88691, 1.93767, 1.8891, 1.88898, 1.88961, 1.88518, 1.88569, 1.88417, 1.96934, 1.97925, 1.88393, 1.88223, 1.8856, 1.88578, 1.98017, 1.9383, 1.8876, 1.88608, 2.03056, 2.02288, 2.11757, 2.02835, 2.03155, 2.01941, 2.02078, 2.02445, 2.02703, 2.01998, 2.0159, 2.01251, 2.02059, 2.01028, 2.0065, 2.00326, 1.99976, 2.00079, 2.11791, 2.10031, 1.99366, 1.99136, 1.9894, 1.98967, 1.9128, 1.98353, 1.98217, 1.9801, 1.97906, 1.97903, 1.97854, 1.97668, 1.97638, 1.97926, 1.97241, 1.89829, 1.97436, 2.01026, 2.01084, 1.97945, 1.90156, 2.00779, 1.98193, 1.90849, 2.00712, 1.99216, 2.00529, 1.93022, 2.06305, 1.97622, 2.07352, 2.06059, 1.97238, 1.97128, 1.96983, 1.96949, 2.04849, 1.96691, 2.06258, 2.05566, 2.06312, 2.05344, 2.05377, 2.04931, 2.05166, 1.96272, 2.04483, 2.05766, 2.05345, 2.05154, 2.05604, 2.03548, 2.0431, 2.04251, 2.03483, 2.04007, 2.04231, 2.05198, 2.04499, 2.04903, 2.04226, 2.02452, 2.02512, 2.0328, 2.03678, 1.94661, 2.01889, 2.03715, 1.94397, 1.94278, 2.03094, 2.02976, 2.01678, 2.01579, 1.93791, 2.01044, 1.93512, 2.02357, 2.03535, 2.02903, 1.93011, 1.93068, 1.93421, 1.92813, 1.92717, 1.92688, 1.92483, 2.02854, 1.81702, 1.81203, 1.80944, 2.04546, 1.80078, 1.79776, 1.79809, 1.79473, 1.79042, 1.79012, 1.78825, 1.78342, 1.8825, 1.77834, 1.95472, 1.7748, 1.7715, 1.9483, 1.7674, 1.7658, 1.76322, 1.76326, 1.75913, 1.75658, 1.84048, 1.8373, 1.75139, 1.87889, 1.74981, 1.74768, 2.03822, 2.03842, 1.74384, 1.74285, 1.64928, 1.64741, 1.64589, 1.744, 1.6409, 1.63843, 1.63673, 1.76789, 1.63337, 1.63307, 1.76515, 1.63081, 1.62985, 1.67871, 1.62737, 1.76525, 1.62651, 1.73585, 1.75898, 1.76061, 1.76138, 1.6232, 1.62743, 1.75108, 1.62488, 1.62347, 1.62183, 1.62515, 1.76179, 1.62271, 1.62034, 1.62066, 1.62691, 1.62155, 1.62681, 1.75923, 1.62815, 1.76813, 1.75808, 1.63325, 1.63496, 1.63842, 1.64379, 1.64276, 1.64229, 1.64396, 1.64551, 1.64984, 1.76153, 1.76116, 1.65223, 1.75853, 1.64908, 1.76447, 1.76225
1.91265, 2.03066, 1.911, 1.96034, 2.00403, 1.90889, 1.90979, 1.90747, 1.90835, 1.90453, 1.90631, 2.01021, 1.90671, 1.99054, 1.90087, 1.90155, 1.94743, 1.89563, 1.89577, 1.89616, 2.01462, 2.00271, 1.89039, 2.00376, 1.88662, 1.88882, 1.88456, 1.88425, 1.99417, 1.99565, 1.98943, 1.98992, 1.8838, 1.93187, 1.88324, 1.88098, 1.88167, 1.88361, 1.8837, 1.97615, 1.93718, 1.88536, 1.88663, 2.02781, 2.02129, 2.02242, 2.11048, 2.02036, 2.02498, 2.02112, 2.02256, 2.02359, 2.02043, 2.01837, 2.00683, 2.00584, 2.0064, 2.10741, 2.10165, 1.92405, 1.99661, 1.99516, 1.99377, 2.10061, 1.99117, 1.98727, 1.91014, 1.98476, 1.98477, 1.98281, 2.01388, 1.98132, 1.98276, 1.97829, 2.1074, 1.97385, 2.01089, 1.97566, 1.97384, 1.97519, 1.97591, 1.89643, 2.10334, 2.00843, 1.97714, 2.00521, 1.9033, 1.98545, 1.98568, 2.09967, 2.06567, 2.05874, 1.97381, 2.06253, 1.96995, 1.96992, 2.05163, 1.9691, 2.04747, 2.04341, 2.04232, 2.04456, 2.06478, 2.05867, 2.05759, 2.04634, 1.96245, 2.05705, 1.96299, 2.04474, 2.05592, 1.9586, 2.04182, 2.05367, 2.03145, 2.03134, 2.0328, 1.95366, 2.03551, 2.02778, 2.024, 2.03929, 2.04556, 1.94639, 1.94867, 1.94801, 2.02704, 1.94473, 2.02767, 2.01664, 2.02376, 2.01585, 2.02028, 2.0314, 2.0117, 2.01335, 2.01441, 2.00999, 1.93431, 1.93339, 2.02152, 2.02582, 2.01556, 2.01105, 1.92917, 1.92705, 1.92688, 1.92504, 1.92432, 2.02522, 1.92443, 1.80649, 1.80604, 1.80309, 1.79879, 2.03399, 2.03761, 1.78986, 1.94905, 1.95147, 1.95037, 1.77962, 1.95202, 1.94843, 1.77161, 1.86384, 1.76655, 1.94442, 1.76471, 1.76156, 1.7584, 2.01541, 1.80689, 1.83444, 1.8028, 1.75064, 1.93783, 1.84401, 1.87725, 1.7429, 1.74335, 2.0307, 1.73771, 1.73849, 1.73667, 1.73485, 1.64302, 1.6424, 1.63833, 1.75051, 1.63434, 1.63726, 1.63339, 1.63089, 1.68194, 1.63095, 1.62763, 1.62679, 1.75809, 1.75929, 1.62344, 1.62118, 1.62316, 1.62382, 1.62296, 1.69567, 1.62026, 1.75763, 1.62072, 1.62077, 1.67107, 1.61908, 1.62138, 1.61962, 1.6194, 1.61933, 1.62136, 1.61886, 1.62033, 1.62024, 1.62399, 1.62469, 1.75998, 1.62798, 1.62975, 1.74262, 1.68451, 1.63406, 1.7567, 1.76242, 1.64261, 1.76032, 1.75613, 1.75911, 1.64746, 1.75866, 1.75758, 1.64894, 1.81031, 1.6542
1.85475, 1.91195, 1.90763, 1.90835, 1.90816, 1.90753, 1.90984, 1.90244, 1.90243, 1.90348, 1.90581, 1.90283, 1.90049, 1.95068, 1.98976, 1.89673, 1.89604, 2.00437, 2.00101, 1.89322, 1.89097, 1.89006, 1.89226, 1.88883, 1.88877, 1.88635, 1.9965, 1.88493, 1.93188, 1.93385, 1.88201, 1.98606, 1.88242, 1.93129, 1.88451, 1.8798, 1.98687, 1.98587, 1.98598, 1.88082, 1.88099, 1.88177, 1.88594, 2.115, 2.02742, 2.02403, 2.10009, 2.02415, 2.0233, 2.02079, 1.93811, 2.01239, 2.01324, 2.0105, 2.01137, 2.00884, 2.00434, 2.10103, 1.92434, 2.10209, 2.09056, 1.99527, 2.09255, 1.99213, 1.9892, 1.98858, 1.98782, 2.09984, 2.10011, 1.98098, 1.97865, 1.97881, 1.8989, 2.09762, 1.89715, 1.97416, 1.97264, 2.09654, 1.97261, 1.97292, 1.9708, 1.97344, 1.97297, 2.09724, 1.97564, 1.97893, 1.90247, 1.9829, 1.9984, 2.09631, 2.05961, 2.04099, 2.05761, 1.9715, 1.96965, 1.96904, 1.96846, 2.04106, 2.04597, 2.04832, 2.04313, 2.05573, 2.03879, 2.05661, 2.05616, 2.05627, 2.05698, 2.05903, 2.0628, 2.05481, 1.9583, 1.9569, 2.04174, 2.06622, 1.95555, 2.04848, 1.95262, 2.05249, 2.04325, 2.03836, 2.03859, 2.04356, 2.02137, 1.94405, 1.94551, 2.03591, 2.01899, 2.04046, 2.03462, 2.03112, 2.03164, 2.02638, 2.03315, 1.9376, 2.02598, 1.93601, 2.03475, 1.93415, 1.93357, 2.01459, 2.01758, 2.00845, 2.01852, 2.00101, 1.92705, 1.92523, 1.92419, 1.92273, 1.92161, 1.92166, 2.01716, 1.80253, 1.895, 1.79581, 1.7913, 1.78926, 1.78835, 1.78304, 1.78174, 1.77719, 1.77888, 1.94937, 1.76904, 1.76751, 1.87603, 1.945, 1.76164, 1.75756, 1.7551, 1.75728, 1.87929, 1.74926, 1.75107, 1.83126, 1.79585, 1.84271, 1.84165, 1.73988, 1.93786, 1.73561, 1.84139, 1.73423, 1.73367, 1.73075, 1.72866, 1.64183, 1.6404, 1.63848, 1.63818, 1.74856, 1.63476, 1.63207, 1.63113, 1.62891, 1.67762, 1.62581, 1.62601, 1.62276, 1.62125, 1.67444, 1.62296, 1.62346, 1.6191, 1.62113, 1.62003, 1.62016, 1.6174, 1.61985, 1.61909, 1.73526, 1.61635, 1.61776, 1.61722, 1.61627, 1.61697, 1.75295, 1.61957, 1.61913, 1.61856, 1.62049, 1.62043, 1.62005, 1.62248, 1.62594, 1.75035, 1.74401, 1.75956, 1.63179, 1.75823, 1.63967, 1.63941, 1.75811, 1.64064, 1.64719, 1.64385, 1.75663, 1.64828, 1.64777, 1.64886, 1.7566
1.98613, 1.91031, 1.90797, 1.91026, 1.90673, 1.90777, 1.90421, 1.90593, 2.00993, 1.9031, 1.90366, 2.20076, 1.9031, 1.90038, 1.89759, 1.89764, 2.00297, 1.89396, 1.99742, 1.99294, 1.89291, 1.98359, 1.98627, 1.88895, 1.9794, 1.88803, 1.88675, 1.88599, 1.88298, 1.93052, 1.88104, 1.87906, 1.88067, 1.98674, 1.87908, 1.98875, 1.99008, 2.14191, 1.88059, 1.93067, 1.93146, 1.87893, 1.94084, 1.9467, 1.94521, 2.02162, 2.02389, 2.02125, 2.02159, 2.02776, 2.01827, 2.01677, 2.01745, 2.00889, 2.01619, 2.00653, 2.00347, 1.92309, 1.99666, 1.99958, 2.10569, 2.01323, 2.0135, 1.99018, 1.98795, 1.98763, 1.90691, 1.98312, 2.01159, 1.97793, 1.98019, 1.97723, 1.97507, 1.97236, 1.97395, 2.00761, 1.97127, 2.00674, 1.96992, 1.96968, 1.97304, 1.89291, 2.00606, 1.97335, 2.09469, 1.97635, 2.00045, 1.90567, 1.99836, 2.08824, 2.04512, 2.04515, 2.04532, 1.96892, 2.05922, 1.96946, 2.04291, 2.045, 2.04443, 2.04835, 2.0456, 2.03969, 1.96132, 1.96008, 2.06149, 2.0588, 1.95923, 1.95904, 2.05503, 2.0623, 2.05526, 2.04894, 2.03614, 2.03942, 2.04515, 1.95205, 2.04327, 1.95002, 2.0382, 2.0321, 2.03971, 1.94446, 2.01947, 2.01676, 2.03896, 2.03912, 2.03148, 2.0309, 2.04635, 2.02473, 1.93736, 2.02382, 2.02765, 1.93591, 2.0218, 2.02496, 1.93293, 2.03337, 2.04816, 2.02519, 2.01351, 2.0111, 2.00385, 2.00028, 1.9251, 1.92404, 1.92112, 1.92106, 1.92094, 1.91887, 1.92012, 1.79562, 1.79223, 1.78718, 2.0421, 2.04529, 1.83095, 1.77514, 1.87965, 1.87816, 1.87905, 1.94793, 1.94576, 1.85766, 1.87183, 1.86824, 1.94811, 1.75164, 1.84507, 1.74773, 1.74771, 1.74483, 1.94092, 1.74145, 1.73901, 1.73875, 1.7398, 1.73213, 1.93609, 1.83811, 1.83777, 1.73134, 1.72629, 1.72331, 2.02396, 1.63945, 1.63554, 1.74947, 1.74803, 1.74403, 1.62977, 1.67986, 1.62434, 1.72657, 1.7541, 1.75198, 1.62032, 1.62155, 1.67132, 1.68248, 1.61958, 1.61754, 1.61393, 1.61622, 1.73903, 1.73779, 1.61727, 1.74663, 1.61933, 1.61498, 1.75526, 1.61751, 1.61625, 1.74663, 1.61376, 1.61144, 1.61589, 1.8663, 1.6169, 1.61603, 1.61992, 1.7507, 1.62202, 1.75147, 1.62754, 1.74492, 1.62876, 1.74376, 1.6313, 1.63202, 1.74031, 1.63857, 1.74691, 1.75014, 1.64132, 1.64379, 1.64172, 1.7101, 1.64649, 1.64512
1.95857, 1.95821, 1.96112, 1.90656, 1.90536, 1.90359, 1.90463, 1.90778, 1.90593, 1.90585, 1.9035, 1.90278, 1.8988, 1.903, 1.99881, 1.89699, 2.00033, 1.8966, 1.99644, 1.88925, 1.98937, 1.88967, 1.88886, 2.00273, 1.93508, 1.88314, 1.93343, 2.00873, 1.8821, 1.88449, 1.88354, 1.8793, 1.87951, 1.87649, 1.87763, 1.97056, 1.98548, 1.87867, 1.98264, 1.92874, 1.87809, 1.93084, 1.93157, 2.02179, 2.02592, 2.1145, 2.01494, 2.02037, 2.01737, 2.02333, 2.02045, 2.02084, 2.01725, 2.00523, 2.01448, 2.00311, 2.00331, 2.01199, 1.92101, 2.01137, 1.91747, 1.99019, 1.98953, 2.01045, 1.98736, 1.9861, 1.98225, 1.98202, 1.97836, 1.97766, 1.97791, 1.97323, 1.97266, 1.9739, 2.08592, 2.07989, 1.89186, 1.96836, 1.96983, 2.00302, 1.96992, 1.96937, 2.00099, 1.97207, 2.00068, 1.9752, 1.89961, 1.90308, 1.90801, 2.1093, 1.9693, 2.05166, 2.04641, 2.03881, 2.04656, 1.96532, 2.04198, 2.04272, 2.0415, 2.03893, 2.04521, 2.04429, 2.03833, 2.06592, 2.07279, 2.07297, 1.95923, 1.95873, 2.05653, 2.05638, 2.0521, 1.95567, 2.04145, 2.04251, 1.95147, 1.94832, 2.04341, 1.94799, 1.9463, 2.03494, 1.9457, 2.01532, 2.01371, 2.04911, 1.94145, 2.03019, 2.0393, 1.93802, 1.93741, 1.93713, 2.03637, 2.0291, 2.02122, 2.02103, 2.02811, 2.0246, 1.93033, 2.02455, 1.92947, 1.92743, 2.01118, 2.00223, 2.00033, 2.00348, 2.00485, 1.92124, 1.92008, 1.92347, 1.91765, 1.9191, 1.91831, 1.78903, 1.78892, 1.78222, 1.78137, 1.7764, 1.77301, 1.82367, 1.81944, 1.76222, 1.76076, 2.02124, 1.85669, 1.8541, 1.75065, 1.74966, 1.74583, 1.74748, 1.74258, 1.74102, 1.74102, 1.7385, 1.73733, 1.7361, 1.82977, 2.00889, 1.73065, 1.7301, 1.72717, 1.84518, 1.77529, 1.7893, 1.77421, 1.72014, 1.92694, 1.63706, 1.63048, 1.63227, 1.68083, 1.62782, 1.74474, 1.73954, 1.62481, 1.74815, 1.62154, 1.72511, 1.61759, 1.74468, 1.67095, 1.66687, 1.61526, 1.66509, 1.61467, 1.6136, 1.66674, 1.66608, 1.6643, 1.66641, 1.66536, 1.61279, 1.67252, 1.61593, 1.61258, 1.6126, 1.61216, 1.74384, 1.61615, 1.6131, 1.61652, 1.61276, 1.61395, 1.74555, 1.61967, 1.62382, 1.67845, 1.62706, 1.74472, 1.75168, 1.74699, 1.68302, 1.74064, 1.6866, 1.63382, 1.63212, 1.63858, 1.63769, 1.64216, 1.64103, 1.64471, 1.64248
1.99942, 2.00061, 1.90979, 1.958, 1.95908, 1.90509, 1.90421, 1.90298, 1.90594, 1.90296, 1.99733, 1.99831, 2.00011, 2.00122, 1.89691, 1.9969, 1.99715, 1.99419, 1.98937, 1.88968, 1.88731, 1.88915, 1.88399, 1.88554, 1.88579, 1.88291, 1.87998, 1.88017, 1.88108, 1.87999, 2.06565, 1.87856, 1.87717, 1.87545, 1.87835, 1.87613, 1.87702, 1.87999, 1.8765, 1.87848, 1.92678, 1.92734, 1.87876, 2.01894, 2.02251, 2.01824, 2.01837, 2.02179, 2.01681, 2.01363, 2.01631, 2.01466, 2.00693, 2.01462, 2.01433, 2.00257, 2.01692, 1.99991, 1.9951, 1.9917, 2.01048, 1.99044, 2.00879, 1.98591, 1.98605, 1.9806, 1.90425, 1.98259, 1.97649, 1.89794, 1.97493, 1.89642, 2.08699, 1.97007, 1.89319, 1.96916, 1.96927, 1.96869, 2.08653, 1.96948, 1.89062, 1.99814, 1.96898, 1.99748, 1.97177, 1.9724, 1.97525, 1.97896, 1.98057, 2.08741, 2.0894, 2.06663, 2.06742, 1.96523, 2.04101, 1.9631, 2.04469, 2.03815, 2.04807, 2.04575, 2.04414, 2.07673, 2.03482, 2.03423, 2.03552, 2.0276, 1.95669, 1.95546, 2.04884, 2.06249, 2.0476, 2.04159, 2.04365, 1.95085, 1.9484, 1.94786, 1.94673, 2.03449, 1.94552, 2.03746, 1.94263, 2.04352, 1.94049, 2.03892, 1.93874, 1.93818, 1.93702, 1.93567, 1.93421, 1.93466, 2.03753, 1.93287, 1.93172, 2.01647, 2.02116, 2.02146, 2.02469, 2.02468, 2.02467, 1.92506, 2.03717, 2.00868, 2.00791, 2.00138, 2.00276, 1.91974, 1.91827, 1.92003, 1.91746, 1.91656, 1.9167, 1.77846, 1.84914, 1.77465, 1.77179, 1.94862, 1.88198, 1.85202, 1.75944, 1.85918, 1.85174, 1.75163, 2.01936, 1.84683, 1.9439, 1.74198, 1.74141, 1.80994, 1.73664, 1.73651, 1.73531, 1.73093, 1.73351, 1.9375, 1.93574, 1.93257, 1.93104, 1.72455, 1.72239, 1.84057, 1.71945, 1.76817, 1.71916, 1.71509, 1.7134, 1.6299, 1.62639, 1.62816, 1.62721, 1.67574, 1.67476, 1.62169, 1.62031, 1.62007, 1.61928, 1.61825, 1.61608, 1.73428, 1.728, 1.70061, 1.6114, 1.74141, 1.61167, 1.66163, 1.66311, 1.66147, 1.61139, 1.66153, 1.66148, 1.61245, 1.61209, 1.61072, 1.74303, 1.61257, 1.61106, 1.73809, 1.61285, 1.74119, 1.61191, 1.74069, 1.79269, 1.61547, 1.61654, 1.618, 1.62172, 1.62384, 1.62404, 1.62375, 1.6245, 1.74836, 1.63086, 1.63055, 1.63603, 1.63312, 1.63445, 1.73232, 1.63671, 1.75174, 1.744, 1.64086
1.93159, 2.00045, 1.90737, 1.90475, 1.90602, 1.9032, 1.90404, 1.90043, 1.90237, 1.90184, 1.8993, 1.89497, 1.89464, 1.99759, 1.89627, 2.17905, 1.99508, 1.88733, 1.88756, 1.88787, 1.8868, 1.88368, 1.88333, 1.88232, 1.99061, 1.87964, 1.88065, 1.87327, 1.8791, 1.87923, 1.87675, 1.87827, 1.98687, 1.98661, 1.87338, 1.8735, 1.97977, 1.87589, 1.98295, 1.97656, 1.87566, 1.87324, 2.05811, 2.0176, 2.01952, 2.02, 2.01444, 2.01544, 2.01351, 2.01643, 2.01746, 2.00501, 2.0166, 2.00366, 2.00294, 2.002, 1.92321, 2.01217, 1.99463, 2.10368, 1.91379, 1.9907, 1.98676, 1.98621, 1.98279, 2.00531, 1.97913, 2.00501, 1.97423, 1.97449, 1.89596, 1.89387, 1.9672, 1.96951, 1.96983, 1.9696, 1.96803, 1.96699, 1.96655, 1.96666, 2.08298, 2.08118, 1.96855, 1.97078, 2.00018, 1.99549, 1.97448, 1.97605, 2.08565, 1.98342, 2.07786, 1.96532, 2.07294, 2.04028, 2.03976, 2.03922, 2.04229, 2.03526, 2.03473, 2.04501, 2.03559, 2.03495, 2.03901, 2.03117, 2.03085, 1.95412, 2.02901, 2.02957, 2.04676, 2.04418, 2.04258, 1.94887, 1.94899, 2.0393, 2.03802, 2.03874, 2.03594, 2.03854, 2.02113, 2.02181, 1.941, 2.04383, 2.02814, 1.93901, 2.02966, 2.03109, 2.03398, 2.03562, 2.04859, 2.02357, 2.02406, 2.03238, 1.92894, 2.02084, 2.01844, 2.02535, 2.01148, 1.925, 1.9239, 2.03456, 1.92244, 2.00695, 1.99782, 2.00001, 2.02168, 1.99802, 1.91904, 2.02087, 2.01763, 2.00671, 2.01051, 1.77331, 1.76817, 1.76787, 1.76535, 1.87922, 1.87783, 1.75765, 1.85551, 1.85539, 1.94449, 1.94224, 1.74356, 1.9413, 2.03068, 1.73644, 1.73586, 1.73404, 1.73326, 1.72877, 1.72852, 1.7268, 1.72599, 1.72266, 1.72203, 1.81693, 1.72077, 1.71962, 1.93235, 1.71577, 1.71569, 1.7111, 1.70975, 1.70933, 1.70773, 1.62742, 1.62615, 1.62599, 1.62404, 1.62059, 1.72132, 1.72213, 1.6179, 1.66731, 1.61599, 1.72985, 1.73216, 1.727, 1.61037, 1.66042, 1.60814, 1.61081, 1.60824, 1.71944, 1.72344, 1.71986, 1.60596, 1.72674, 1.60876, 1.72658, 1.60972, 1.60839, 1.60924, 1.60936, 1.60893, 1.60888, 1.61042, 1.60978, 1.60986, 1.61146, 1.61334, 1.73984, 1.613, 1.61104, 1.73417, 1.61753, 1.73927, 1.62079, 1.74337, 1.74099, 1.62973, 1.63095, 1.63113, 1.63244, 1.63517, 1.68648, 1.63485, 1.74307, 1.73974, 1.76524
