1.79056899593133,0,1.78880538227634,1.78766818877204,1.78856445144916,1.89252128476246,0,1.88860856812899,1.78629970167363,1.78410241252971,1.78490230287596,0,1.78160636916009,1.78129797770129,2.04395112826407,1.89402469312409,0,1.8879146873467,1.78011259803155,1.78143289896452,1.88516807591681,0,1.88786650118127,1.77930307045221,1.77785748548911,1.77789603442146,0,1.7774816333987,1.77483139429968,1.86491061196719,1.77384839652477,0,1.86477569070396,1.77353036783289,1.95656069862793,1.77285576151677,0,1.77353036783289,1.94474545086284,1.77381948482551,1.77442663051001,0,1.86812944781836,1.77646972392453,1.77750090786488,1.91221978919301,0,2.00405298328242,1.83427384798248,2.00447702153827,1.90636998870899,0,1.90569538239287,1.92143298402453,2.02376112494606,1.90149354876679,0,1.90142608813518,1.8989685936979,1.89747482256936,1.90029853186396,0,1.92656962926009,1.89359101763516,1.82085881952489,1.8941692516204,0,2.00977749973631,1.89147082635594,1.81798692406485,1.81729304328257,0,1.89175030611547,1.89055528921264,1.89102751363392,1.81725449435022,0,1.8913455423258,1.88979394779874,1.93225559678163,1.89018907435532,0,1.81709066138773,1.93316149669184,1.82018421320877,1.93026068953254,0,2.00808134671294,1.89834217354722,1.90036599249557,1.90776738750666,0,1.83359924166637,1.91132352651589,1.93063654162295,1.93086783521705,0,2.01900033180091,2.01585859381443,1.98117419193304,1.90530025583629,0,1.97840830603697,1.97822519860831,1.97959368570671,1.97903472618765,0,1.98149222062492,1.98230174820426,1.90215851784981,1.98085616324116,0,1.98119346639921,1.97719401466796,1.97740603379588,1.97889016769134,0,1.99929219013727,1.97797463054804,1.97812882627744,1.99827064343001,0,1.98383406826515,1.99147639410342,1.98089471217351,1.98097181003821,0,1.99070541545643,1.98828646995151,1.98847921461326,1.98705290411633,0,1.9930183513974,2.00105580379225,1.90952136392855,1.91096694889166,0,1.91057182233508,1.98457613521288,1.99731655735436,1.99978368902472,0,1.98301490345272,1.91157409457616,1.99242084294598,2.01821007868775,0,2.01061593901491,1.98650358183035,1.91149699671146,2.00392769925229,0,1.99616972661696,2.00105580379225,2.0077247690887,1.91127534035045,0,1.99295089076579,1.91097658612474,1.99577460006038,1.91109223292179,0,1.99016573040354,1.9863108371686,1.98683124775532,2.00478541299706,0,1.98556877022087,1.99068614099026,1.99184260896074,1.98857558694413,0,1.98892252733527,1.9903488378322,1.98419064588938,1.98274506092628,0,1.91116933078649,1.84777561153787,1.84664805526665,1.84711064245484,0,1.84352559174635,1.84496153947636,1.84442185442347,1.8439399927691,0,1.93970517795815,2.02816534046698,1.84225347697882,2.01479849817482,0,1.84093317604585,1.94224940749321,1.94116040015434,1.84162705682814,0,1.84084644094806,1.84181980148988,1.84419056082937,1.8426486035354,0,2.01521289919758,2.03220334113059,1.84439294272421,2.02717270545899,0,1.84329429815225,1.89189486461178,1.84133793983552,1.84564578302556,0,1.84380507150588,2.02295159736672
1.79245789361645,0,1.89056492644573,1.79004858534461,1.7884584418852,1.78619369210967,0,1.7873116111478,1.78758145367425,1.78643462293685,1.78545162516194,0,1.88830981390329,1.78406386359736,1.78361091364226,1.78362055087535,0,1.78353381577756,1.78092212561089,1.8283180379345,1.77925488428677,0,1.9602421216673,1.7790043162265,1.77788639718837,1.7781658769479,0,1.77734671213548,1.77574693144298,1.9538429988973,1.8805229295687,0,1.88104334015542,1.77382912205859,1.77524579532243,1.82199601302919,0,1.7748121198335,1.77327016253953,1.77446517944236,1.7742820720137,0,1.87193615488787,1.82540759354212,1.83760833063071,1.9985790348888,0,1.91097658612474,1.99950420926519,1.92799593975701,1.90580139195684,0,1.9072758886192,1.92394830186032,1.90215851784981,1.90214888061673,0,1.90075148181906,1.90050091375879,1.89852528097588,1.89830362461487,0,1.8226031587137,1.89780248849433,1.89414997715422,1.89468966220711,0,1.81867116761406,1.89335972404106,1.9312051383751,1.93074255118691,0,1.81783272833546,1.89214543267205,1.93350843708298,1.89023726052076,0,1.93140752026994,1.81569326259006,1.93217849891693,1.89100823916775,0,1.81747615071123,1.93335424135358,1.89708933324587,1.89568229721511,0,1.9322748712478,1.82399092027828,1.93340242751902,1.90448109102387,0,1.90851909168747,1.83565197231398,1.91799249181234,1.91744316952636,0,2.01492378220496,1.98766968703392,1.99003080914032,1.9811260057676,0,1.9807501536772,1.99858867212189,1.98009482182726,1.99681542123382,0,1.98094289833894,1.98467250754375,1.90344026985043,1.98407499909233,0,1.98388225443059,1.9798346165339,1.97875524642811,1.98088507494042,0,1.90306441776003,1.97916001021778,1.97806136564582,1.99490724908252,0,1.90733371201772,2.00058357937097,1.9944639363605,1.90596522491932,0,1.99350985028485,1.90987794155279,1.9835642257387,1.90912623737197,0,1.98713000198103,1.9873034721766,1.91030197980863,1.9094828149962,0,1.98980915277931,1.99920545503948,1.91126570311737,1.91038871490642,0,1.99782733070799,1.91050436170346,1.99852121149028,1.99749966478302,0,1.91117896801958,1.91194030943348,2.01009552842819,1.994849425684,0,1.98773714766553,1.98698544348472,1.98672523819136,1.98690834562002,0,1.99142820793799,1.99681542123382,1.9982031827984,1.99463740655608,0,1.98453758628053,1.91126570311737,2.00250138875536,1.9870721785825,0,1.9907343271557,1.98727456047734,1.98764077533466,1.9936254970819,0,1.98875869437279,1.9861566414392,2.00204843880025,1.99032956336603,0,1.99436756402963,1.84664805526665,1.84579997875496,1.84517355860428,0,2.01721744367975,2.02384786004385,1.83989235487241,1.84359305237796,0,1.95024831095572,1.93773918240833,1.84407491403233,1.84397854170145,0,2.01667775862686,1.84139576323404,1.84101991114363,1.90133935303739,0,1.89772539062963,2.02511997481138,2.03118179442333,1.84447004058891,0,2.04021188182618,1.84399781616763,1.93748861434806,1.84110664624142,0,1.93700675269369,1.84282207373097,1.84416164913011,1.84223420251264,0,2.01789204999586,2.03507523659062
1.84144394939948,0,1.79228442342088,1.79059790763059,2.0519307572604,1.88313461973538,0,1.78896921523883,1.78820787382493,1.78767782600512,1.78709959201988,0,1.88745210015851,1.78460354865026,1.78363982534152,1.89016979988914,0,1.78308086582245,1.78355309024373,1.83065988557473,1.8302262100858,0,1.77880193433167,1.77853209180522,1.77859955243683,1.96038668016361,0,1.9645885137897,1.77796349505307,1.77622879309734,1.8754922938971,0,1.86838965311172,1.8242029394062,1.775197609157,1.77698049727816,0,1.82329703949599,1.82485827125614,1.7767202919848,1.7756505591121,0,1.87347811218185,1.77853209180522,1.86079551343889,1.91454236236707,0,1.92853562480991,2.00580695970432,2.00761875952474,2.00364821949275,0,1.90657237060382,2.0078789648181,1.92710931431298,1.90157064663149,0,1.92921023112602,2.00410116944786,1.9273213334409,1.90368120067762,0,1.89780248849433,1.89720498004291,1.93061726715677,1.93229414571397,0,1.93132078517215,1.82028058553965,1.89277185282273,1.93069436502147,0,1.89065166154351,1.81789055173398,1.8914226401905,1.81628113380839,0,1.88995778076122,1.81771708153841,1.89220325607058,1.89084440620526,0,1.81817003149351,1.89321516554475,1.93411558276748,1.89791813529138,0,1.89819761505091,1.93419268063218,1.93374936791017,1.82941668250646,0,1.90989721601896,1.83606637333673,1.91732752272931,1.91981392886585,0,2.00773440632179,2.00063176553641,2.00418790454564,2.00314708337221,0,1.99778878177564,1.98098144727129,1.9794491272104,1.9815885929558,0,1.98517364366429,1.98416173419012,1.98085616324116,1.90490512927971,0,1.98367023530266,1.98129947596318,1.90466419845253,1.997056352061,0,1.9804417622184,1.90556046112965,2.00349402376335,1.99456994592446,0,2.01438409715207,1.986465032898,2.01451901841529,1.90825888639411,0,2.00040047194231,1.99207390255484,1.99031992613294,1.98833465611694,0,1.99005008360649,2.00003425708499,2.00068958893493,2.00468904066619,0,1.98825755825225,1.99708526376026,2.00331091633469,1.99465668102225,0,1.99714308715879,1.99756712541463,1.91370392308847,1.99869468168585,0,1.91282693487752,1.99420373106714,1.91244144555402,1.9937796928113,0,1.98382443103206,1.91190176050113,1.98800699019197,1.99809717323444,0,1.99125473774241,1.99164022706591,1.99864649552041,1.99592879578978,0,1.99754785094846,1.99063795482482,1.91007068621453,1.98903817413232,0,1.98978987831314,1.99047412186234,1.99069577822335,1.98980915277931,0,1.98812263698902,1.98765041256774,1.91064892019977,1.98475924264154,0,1.98557840745396,1.92850671311064,1.8942463494851,1.8472937498835,0,1.84675406483061,1.84107773454216,2.02064829865885,1.84015256016577,0,1.95342859787454,1.84027784419591,1.84448931505508,1.94131459588374,0,1.94119894908669,1.89476676007181,1.89692550028338,1.9408134597632,0,1.93092565861557,1.84072115691793,2.01788241276278,1.93454925825642,0,1.84342921941547,1.84332320985151,1.84260041736996,1.8439399927691,0,2.01471176307704,2.04059737114967,1.84171379192592,2.01875940097373,0,1.84305336732507,1.84327502368607
1.90496295267824,0,1.79457808489567,1.89122025829567,1.89243454966467,1.79143634690919,0,1.79010640874314,1.90391249427171,1.90706386949128,1.78727306221545,0,1.78590457511705,1.89213579543897,1.78527815496637,1.78361091364226,0,1.783582001943,1.78474810714657,1.83221148010179,1.83109356106366,0,1.8835008345927,1.96536912966978,1.88026272427534,1.78006441186611,0,1.96346095751848,1.77758764296266,1.96396209363902,1.77967892254262,0,1.88116862418556,1.77690339941346,1.82407765537606,1.7772503398046,0,1.77736598660165,1.82510883931641,1.95044105561746,1.87093388264678,0,1.87357448451272,1.78027643099403,1.78102813517485,1.91152590841072,0,2.00714653510346,2.00890051152536,1.91130425204971,1.91025379364319,0,1.90594595045315,1.90585921535536,1.90699640885967,1.90610014618254,0,1.90493404097897,1.90474129631723,1.92924878005837,2.01114598683471,0,1.89737845023849,1.89699296091499,1.89685803965177,1.8946222015755,0,1.93169663726256,1.89436199628214,2.01439373438515,1.93369154451164,0,1.89153828698755,1.89141300295741,1.89117207213023,1.89197196247648,0,1.8181025708619,1.81814111979425,1.81950960689266,1.89369702719912,0,1.81906629417064,1.82073353549475,1.89529680789162,1.89779285126124,0,1.89794704699064,1.90035635526248,1.9332675062558,1.90380648470775,0,1.90903950227419,1.91173792753865,2.00762839675783,1.93401921043661,0,2.01476958647556,2.00210626219878,1.98485561497241,1.9959866191883,0,2.00329164186852,1.9805188600831,1.9811260057676,1.981280201497,0,1.98750585407143,1.98396898952837,1.90580139195684,1.97744458272823,0,1.98185843548224,1.98453758628053,1.99528310117293,1.90453891442239,0,1.98109709406834,2.00151839098045,1.98019119415813,1.98087543770733,0,1.98085616324116,1.98424846928791,2.00053539320554,1.98472069370919,0,1.90786375983753,2.00441919813974,1.99936928800197,1.91071638083139,0,2.00599970436607,1.9106296457336,1.91043690107185,1.99404953533775,0,2.00091124529594,1.91385811881786,1.9911872771108,1.99773095837712,0,1.99391461407452,1.99992824752103,1.9138292071186,2.00514199062129,0,2.00486251086176,1.9130678657047,2.01108816343619,2.00415899284638,0,1.98682161052223,1.98868159650809,2.00080523573198,1.91370392308847,0,2.0101629890598,1.98754440300378,1.9978947913396,1.99655521594046,0,1.99451212252594,1.9103212542748,1.99413627043553,1.98679269882297,0,1.98956822195213,1.98848885184634,1.99048375909543,1.98985733894475,0,1.98796844125963,1.9885177635456,1.98586752444658,2.00394697371846,0,1.99987042412251,1.89710860771204,1.89415961438731,1.89402469312409,0,1.84392071830293,2.02432008446513,2.03098904976158,1.84252331950526,0,1.84138612600095,1.84177161532445,1.84073079415101,1.84072115691793,0,2.0270859703612,1.89398614419174,1.89149010082211,1.84118374410612,0,1.84067297075249,1.84031639312826,1.84223420251264,2.01742946280767,0,2.02492723014963,1.84465314801757,1.84457605015287,1.84364123854339,0,1.84373761087427,1.92437234011617,1.84088498988041,1.8440941884985,0,1.84391108106984,1.89419816331966
1.90108878497712,0,1.7918892968643,1.79377819454942,1.79347944032371,1.79091593632247,0,1.79121469054818,1.90378721024158,1.89149010082211,1.89108533703244,0,1.78752363027573,1.78433370612381,1.7861744176435,1.78450717631938,0,1.88357793245739,1.78585638895161,1.78369764874005,1.86809089888601,0,1.87098206881222,1.77980420657275,1.83475570963685,1.83687590091607,0,1.78096067454324,1.8281638422051,1.78048845012196,1.77863810136918,0,1.77861882690301,1.82598582752736,1.82607256262515,1.77723106533843,0,1.82433786066942,1.84139576323404,1.77837789607583,1.77918742365516,0,1.77806950461703,1.77932234491839,1.92851635034373,1.91408941241196,0,1.9283910663136,2.00706943723876,1.9123836221555,1.91060073403434,0,2.01057739008256,1.90589776428771,2.0057491363058,1.90550263773113,0,1.83039004304828,1.90136826473665,2.0244935546607,1.90169593066162,0,1.89867947670528,1.82494500635393,1.89906496602877,1.90121406900725,0,1.89854455544206,1.89497877919974,1.89475712283873,1.89559556211733,0,1.89358138040207,1.89245382413085,1.89260801986025,1.89196232524339,0,1.89211652097279,1.89349464530428,1.89240563796541,1.89419816331966,0,1.89421743778583,1.82146596520939,1.89441981968067,1.90022143399926,0,1.89867947670528,1.90237053697774,1.9051460601069,1.90579175472375,0,1.90990685325205,1.93378791684251,1.9153518899464,1.91931279274531,0,1.93723804628779,2.01707288518344,1.90876002251465,1.99702744036174,0,1.99597698195522,1.98017191969195,2.00069922616802,1.98056704624854,0,1.98461468414523,1.90766137794269,1.9057532057914,1.98338111831004,0,1.98157895572271,1.98110673130143,1.97993098886477,1.99030065166677,0,1.98815154868829,1.90827816086029,2.00459266833531,1.99592879578978,0,1.983265471513,1.99151494303577,2.00136419525105,1.99245939187833,0,1.98153076955727,1.91029234257554,1.99173659939678,1.99720091055731,0,1.99327855669076,2.00187496860468,1.98526037876208,2.00387951308685,0,1.91152590841072,1.9905801314263,1.99988969858868,1.99808753600135,0,2.00103652932608,1.99427119169876,1.99427119169876,1.91484111659277,0,1.9982802806631,1.9130678657047,2.00148947928118,2.00112326442387,0,1.98762150086848,2.00581659693741,2.00151839098045,2.00497815765881,0,2.00724290743434,2.00386987585376,1.91122715418502,1.98795880402654,0,1.98811299975594,1.98729383494351,1.91229688705771,2.00413971838021,0,1.99105235584758,1.99083069948657,1.99010790700502,1.98725528601116,0,1.98864304757574,1.98998262297488,1.98411354802468,1.9982802806631,0,1.91380029541934,1.91799249181234,1.91744316952636,1.84529884263442,0,1.84443149165656,2.025409091804,1.84267751523466,1.84064405905323,0,1.84032603036134,2.02605478642085,1.9427890925461,1.84094281327893,0,2.01985804554568,2.01682231712317,1.84190653658767,1.84007546230107,0,1.94212412346308,1.8418872621215,1.84299554392654,1.84420019806246,0,1.84437366825803,1.84309191625741,1.93990755985298,1.84033566759443,0,1.89054565197955,1.92967281831421,1.84131866536934,1.84051877502309,0,1.84260041736996,1.89096005300231
1.88825199050476,0,1.88340446226182,1.7947804667905,1.7939420275119,1.84107773454216,0,1.79266991274437,1.79183147346577,1.89407287928952,1.89103715086701,0,1.96461742548896,1.78789948236613,1.89612560993713,1.78427588272529,0,1.78613586871115,1.78544198792886,1.78505649860536,1.78513359647006,0,1.83152723655259,1.83442804371188,1.78100886070867,1.87476950141555,0,1.83164288334964,1.89463183880859,1.77937053108382,1.85283515890873,0,1.8272483050618,1.77487958046512,1.77877302263241,1.77805023015085,0,1.77903322792577,1.96102273754738,1.77887903219637,1.77896576729415,0,1.780604096919,1.78113414473881,1.91514950805157,1.84065369628631,0,2.00451557047061,2.00524800018525,1.91181502540335,2.00496852042572,0,1.91082239039535,1.90816251406324,1.90833598425881,2.00695379044171,0,1.90469311015179,1.93209176381914,1.90257291887257,1.90395104320406,0,1.93040524802885,1.93150389260081,1.89705078431352,1.93183155852578,0,1.89691586305029,1.82183218006671,1.89498841643282,1.89639545246358,0,1.93493474757991,1.89406324205644,1.93519495287327,1.89390904632704,0,1.89306096981535,1.89214543267205,1.81889282397507,1.89375485059764,0,1.89404396759026,2.01335291321172,2.01387332379844,1.8246558893613,0,1.90109842221021,1.90374866130923,1.82948414313807,1.90837453319116,0,1.93749825158115,1.9166529164132,2.0078789648181,1.91920678318135,0,2.01912561583104,1.86698261708097,2.00766694569018,1.9947723278193,0,1.9956878649626,1.98241739500131,1.99809717323444,1.98008518459417,0,1.90841308212351,1.90716024182215,1.90802759280001,1.9081143278978,0,1.98159823018888,1.98444121394965,1.98159823018888,1.99376041834513,0,1.9810489079029,1.98107781960217,1.98118382916613,2.00174968457454,0,1.90867328741687,1.98162714188815,1.99332674285619,1.90830707255955,0,1.98922128156098,1.99420373106714,2.00608643946385,1.99872359338511,0,1.91120787971884,2.00757057335931,1.91203668176435,2.00724290743434,0,1.99460849485681,2.00539255868156,1.99216063765262,1.99360622261573,0,1.91460982299868,1.99784660517416,1.91339553162967,1.91445562726928,0,2.00726218190051,1.91423397090827,1.9129136699753,2.00564312674183,0,2.00187496860468,1.9139063049833,2.00760912229166,1.99403026087157,0,1.98759258916922,1.99386642790909,1.99479160228547,1.99086924841892,0,1.99429046616493,1.987457667906,1.98835393058312,1.98668668925901,0,1.9940880842701,1.98580970104806,1.98895143903454,1.99369295771351,0,1.99437720126272,1.90995503941749,1.98469178200992,1.91392557944948,0,1.98366059806958,1.84533739156677,1.91958263527175,1.84750576901142,0,1.84435439379186,2.01396969612931,1.8430244556258,1.84206073231707,0,1.8421860163472,1.84064405905323,1.94060144063527,2.03536435358324,0,1.84242694717439,1.84177161532445,1.9434058754637,1.94352152226074,0,2.02715343099281,2.01143510382733,1.8438628949044,1.84340030771621,0,1.8435641406787,1.84490371607784,1.84204145785089,1.84252331950526,0,1.92248344243105,1.93042452249503,1.84351595451326,1.84305336732507,0,1.84140540046713,1.84375688534044
1.84680225099605,0,1.88490787062345,1.79621641452052,1.79505030931695,1.79453953596332,0,1.90057801162349,1.79232297235323,1.79300721590243,1.88238291555456,0,1.838302211413,1.78884393120869,1.78636716230524,1.78709959201988,0,1.96872288678418,1.78431443165764,1.78645389740303,1.78758145367425,0,1.83218256840253,1.89823616398326,1.78385184446944,1.78152927129539,0,1.88157338797522,1.78094140007706,1.78128834046821,1.89169248271695,0,1.82738322632503,1.77927415875295,1.78040171502417,1.88021453810991,0,1.96698818482845,1.82843368473155,1.87729445648444,1.78018969589625,0,1.78090285114471,1.94874490259409,2.00743565209608,2.0084861105026,0,1.93403848490279,1.91418578474283,2.01356493233964,2.00895833492388,0,1.9340288476697,1.93218813615001,1.8367795285852,2.02473448548789,0,1.90409560170037,1.82948414313807,1.90400886660259,1.90381612194084,0,1.93407703383514,1.82485827125614,1.897214617276,1.93413485723366,0,1.89832289908105,2.01506834070127,1.89812051718621,1.89458365264315,0,1.93569608899381,1.89368738996603,1.93429869019614,1.895007690899,0,1.89380303676308,1.89402469312409,1.89526789619236,1.89549918978645,0,1.82121539714912,1.89757119490023,1.89825543844944,1.82622675835454,0,1.90229343911304,2.02201678575725,1.9358599219563,1.93713203672383,0,1.91026343087628,1.91344371779511,1.92066200537754,2.00829336584086,0,1.93679473356577,1.91202704453127,2.00718508403581,2.00465049173384,0,2.00503598105733,1.9084227193566,2.00305071104134,1.90732407478464,0,1.90773847580739,1.90877929698083,1.90840344489042,1.90730480031846,0,1.98301490345272,1.98352567680635,1.98097181003821,1.98083688877498,0,1.98259086519688,1.98162714188815,1.98380515656589,1.99759603711389,0,1.98208009184325,1.90801795556693,2.00649120325352,2.00730073083286,0,1.91035016597407,1.99095598351671,1.99823209449766,1.99786587964034,0,1.91111150738797,1.98664814032666,1.99405917257083,2.00055466767171,0,1.99769240944477,1.99253648974303,1.9148218421266,2.00014026664895,0,1.99338456625472,2.00503598105733,2.00059321660406,2.00756093612622,0,1.91554463460815,1.91371356032155,1.91304859123853,2.00728145636669,0,2.0098642348341,2.00507452998968,1.99403026087157,1.99180406002839,0,2.00301216210899,1.99039702399764,1.98771787319935,1.99368332048043,0,1.99158240366738,1.99187152066,1.99116800264463,1.98525074152899,0,1.98483634050624,1.9116222807416,1.99085961118583,1.98458577244596,0,1.98498089900255,1.98473996817536,1.98657104246196,2.00142201864957,0,2.01162784848908,1.84537594049912,2.04465464627945,1.844701334183,0,1.84465314801757,1.84384362043823,2.01911597859796,1.84245585887365,0,1.84087535264732,1.84084644094806,1.83991162933859,1.84098136221128,0,1.84153068449726,1.84048986332383,2.03900722769026,1.8421089184825,0,1.84360268961104,1.84163669406122,1.84393035553601,1.84220529081338,0,1.84384362043823,1.84395926723528,1.84289917159567,1.84209928124942,0,1.92540352405652,1.890815494506,1.84180052702371,1.8422631142119,0,1.84112592070759,1.84095245051202
1.89605814930552,0,1.89803378208843,1.79739215695718,1.79777764628067,1.90073220735289,0,1.90181157745867,1.79438534023392,1.7944817125648,1.79151344477389,0,1.83977670807536,1.84047058885765,1.78826569722345,1.78872828441164,0,1.78932579286306,1.78767782600512,1.7875429047419,1.83388835865899,0,1.7823580733409,1.90002868933751,1.78720560158384,1.88724971826368,0,1.7827435626644,1.89693513751647,1.89733026407305,1.87713062352195,0,1.78265682756661,1.78095103731015,1.88208416132885,1.95534640725893,0,1.88101442845616,1.77876338539932,1.7800740490992,1.78058482245283,0,1.78328324771729,1.78283029776218,2.00737782869756,1.9148989399913,0,1.93386501470721,1.9147447442619,1.91506277295378,1.91142953607985,0,1.93338315305285,1.91081275316226,1.91082239039535,1.91164155520777,0,1.90710241842363,1.90410523893346,1.90487621758045,1.90330534858721,0,1.90246690930861,1.90132007857121,1.90086712861611,1.89870838840454,0,1.93381682854178,1.82196710132993,1.89733026407305,1.82341268629304,0,1.93688146866356,1.82139850457778,1.82038659510361,1.89704114708043,0,1.89595213974156,1.93479982631669,1.93832705362666,1.82127322054764,0,1.822526060849,1.82228513002182,1.90024070846543,1.93778736857377,0,1.90114660837564,1.90238017421082,1.90505932500911,1.9079601321684,0,2.01442264608442,1.91455199960015,1.93723804628779,1.92169318931788,0,1.93679473356577,1.86716572450963,1.91065855743286,2.01876903820681,0,1.91056218510199,2.01220608247432,2.01430699928737,1.99254612697612,0,1.90858655231908,1.91065855743286,1.90955027562782,1.91033089150789,0,1.90699640885967,1.98655176799578,1.99396280023996,1.99874286785129,0,1.98778533383097,1.98253304179836,1.98469178200992,1.90982975538735,0,1.98424846928791,1.98493271283711,2.02078321992207,1.99707562652718,0,1.91204631899744,2.00045829534084,2.01188805378244,2.0056720384411,0,2.00416863007947,2.00278086851489,1.99848266255793,2.00387951308685,0,2.00741637762991,1.91422433367518,1.99504217034574,1.91401231454726,0,1.99494579801487,1.99622755001549,1.99773095837712,2.01116526130089,0,1.9155060856758,2.00190388030394,2.00184605690542,1.99799116367047,0,2.01842209781567,2.0136709419036,1.99491688631561,1.91447490173545,0,1.99457958315755,1.91331843376497,1.99463740655608,1.9985019370241,0,2.0014027441834,1.98576151488262,1.98764077533466,1.98693725731928,0,1.91186321156878,1.98682161052223,1.99081142502039,1.99135111007329,0,1.98736129557512,1.99015609317045,1.9863879350333,1.98777569659788,0,1.99772132114403,1.94761734632287,1.84446040335582,1.84337139601695,0,1.8463782127402,1.84327502368607,1.89033363285163,1.8416559685274,0,1.84055732395544,1.89114316043097,1.88914825318189,1.89031435838546,0,1.84046095162457,1.84153068449726,2.04665919076162,2.01949183068836,0,1.84287989712949,1.8437857970397,1.84346776834782,1.84235948654278,0,1.84130902813625,2.03351400483047,1.93917513013835,1.84201254615163,0,1.84225347697882,1.93435651359467,1.92437234011617,1.84267751523466,0,1.84156923342961,1.84170415469284
1.84866223698191,0,1.80025441518412,1.90065510948819,1.79750780375422,1.89711824494513,0,1.89838072247957,1.79543579864044,1.89419816331966,1.79300721590243,0,1.79400948814352,1.79243861915028,1.79337343075975,1.79006785981079,0,1.78884393120869,1.79029915340488,1.78870900994547,1.78599131021484,0,1.78632861337289,1.97773369972085,1.90029853186396,1.8315946971842,0,1.83117065892836,1.78431443165764,1.78139435003217,1.78123051706968,0,1.78168346702479,1.78199185848358,1.7802282448286,1.78029570546021,0,1.88008925407977,1.77898504176033,1.77939944278308,1.7823580733409,0,1.96610155938442,1.78203040741593,1.78201113294976,1.93377827960943,0,1.91616141752574,1.91668182811246,1.93483837524904,1.91214269132831,0,1.83795527102185,1.91029234257554,1.91211377962905,2.01019190075907,0,1.90744935881477,1.9041534250989,1.83085263023647,1.90400886660259,0,1.90092495201463,1.90098277541316,1.93792228983699,1.93556116773059,0,1.93522386457253,1.89623161950109,1.89679057902016,1.82316211823276,0,1.89684840241868,1.89680985348633,1.89468002497403,1.89505587706443,0,1.89444873137993,1.93800902493478,1.8914997380552,1.82363434265404,0,1.82383672454888,1.89719534280983,1.89876621180307,1.90131044133813,0,1.90190794978954,1.90069365842054,1.90697713439349,1.83554596275002,0,1.91220051472684,1.93839451425827,1.93754643774658,1.84983797941856,0,2.02748109691778,2.03257919322099,1.9116222807416,1.91203668176435,0,1.91356900182524,1.98422919482173,1.98690834562002,1.98153076955727,0,1.9812031036323,1.91069710636521,1.91014778407923,1.9090298650411,0,1.98474960540845,1.98734202110895,1.98367023530266,1.98685052222149,0,1.98156931848962,1.99748039031684,1.98549167235617,1.98461468414523,0,1.98497126176946,2.00378314075597,1.99926327843801,2.02180476662933,0,1.91117896801958,2.00152802821353,1.98475924264154,2.00470831513236,0,2.00060285383715,1.91409904964505,1.99749002754993,2.00429391410961,0,1.91454236236707,2.00387951308685,1.99471450442077,1.99750930201611,0,1.91462909746485,1.99898379867847,1.99026210273442,1.98942366345582,0,1.99805862430209,2.00222190899582,2.01310234515145,2.01066412518035,0,2.01465393967851,1.99581314899273,1.91444599003619,2.01050992945095,0,2.00446738430518,1.99404953533775,1.98848885184634,2.01001843056349,0,2.01887504777077,1.99130292390785,1.99359658538264,1.9895874964183,0,1.98672523819136,1.99211245148719,1.98914418369628,1.91175720200482,0,1.91248963171946,1.99043557292999,1.91189212326804,1.91128497758354,0,1.9920257163894,1.95848814524541,1.93039561079577,1.84572288089026,0,1.84415201189702,1.84439294272421,1.93978227582285,1.84200290891854,0,1.84042240269222,1.88942773294142,1.89057456367881,1.84051877502309,0,1.84152104726418,1.84170415469284,2.0478156587321,2.01795951062747,0,1.84146322386565,1.84295699499419,1.84361232684413,1.84078861754954,0,1.84265824076848,1.84224383974573,1.84343885664856,1.90580139195684,0,1.90403777830185,1.84233057484351,2.01774749149955,1.84251368227217,0,1.84088498988041,1.84208000678324
1.88794359904597,0,1.79942561313861,1.80075555130466,1.79852935046148,1.90045272759335,0,1.90121406900725,1.79619714005434,1.79762345055127,1.89600996314008,0,1.79358544988767,1.87093388264678,1.89229962840145,1.89893968199864,0,1.78946071412628,1.78864154931386,1.78799585469701,1.89406324205644,0,1.97146949821407,1.97795535608186,1.7860202219141,1.78770673770438,0,1.95442123288254,1.8903529073178,1.88737500229381,1.78371692320622,0,1.96782662410705,1.78049808735504,1.7817509276564,1.78139435003217,0,1.87521281413757,1.77930307045221,1.78088357667854,1.78424697102602,0,1.78401567743193,1.95173244485117,1.78540343899651,1.92057527027975,0,1.91884056832403,2.01396005889622,1.91430143153988,1.91324133590027,0,2.01260120903091,2.01172422081996,1.91167046690703,1.91105368398944,0,2.01943400728984,1.90659164507,1.90577248025757,1.90213924338364,0,1.90128152963887,1.90183085192484,1.90035635526248,1.90068402118745,0,1.8979759586899,1.93793192707008,1.8950847887637,1.89396686972556,0,1.89669420668928,1.89559556211733,1.82215984599168,1.89495950473356,0,1.89649182479445,1.82121539714912,1.822526060849,1.89851564374279,0,1.89842890864501,1.89886258413394,1.9008767658492,1.90133935303739,0,1.90122370624034,1.93807648556639,1.9105525478689,2.02692213739871,0,2.01447083224985,1.91732752272931,1.93927150246922,1.85029092937367,0,1.8533941184278,1.87017254123288,2.00082451019816,1.91208486792979,0,1.91107295845562,1.98565550531866,1.91129461481663,1.98235957160278,0,1.99411699596936,1.91073565529756,1.90888530654479,1.91008996068071,0,1.98633974886786,1.98695653178545,1.98437375331804,1.91037907767333,0,1.98315946194903,1.90715060458906,1.91089948826005,1.99723945948966,0,2.00134492078487,1.91097658612474,1.90990685325205,1.99732619458745,0,1.99405917257083,1.91189212326804,1.99529273840602,1.99732619458745,0,1.99863685828733,1.99049339632851,1.91362682522377,1.91480256766043,0,1.99835737852779,1.91510132188613,1.9988874263476,1.99515781714279,0,2.00040047194231,1.99505180757883,1.99406880980392,2.00187496860468,0,1.99871395615203,2.01504906623509,1.99749966478302,2.00927636361577,0,2.00093051976212,1.91433034323914,1.99925364120492,1.91395449114874,0,1.99806826153517,1.91380993265243,1.99676723506838,1.98939475175655,0,1.98979951554622,2.00451557047061,1.91290403274222,2.00392769925229,0,1.98816118592137,1.98808408805667,1.91297149337383,1.91223906365919,0,1.91194994666657,1.91142953607985,1.91024415641011,1.99821282003148,0,1.99441575019507,1.95455615414577,1.84597344895053,1.84697572119162,0,1.84492299054401,1.84367015024266,1.84231130037734,1.84300518115963,0,2.03153837204756,1.83909246452616,1.83772397742776,2.0036867684251,0,1.88989032012961,1.84138612600095,1.88968793823478,1.84138612600095,0,1.84093317604585,1.95114457363284,1.89027580945311,1.84117410687303,0,2.01620553420558,1.84434475655877,2.03427534624437,1.93798011323551,0,1.92010304585847,1.84234984930969,1.84287025989641,1.84125120473773,0,1.84410382573159,1.84284134819714
1.85084988889274,0,1.80134342252299,1.80314558511033,1.80056280664292,1.80030260134956,0,1.84648422230416,1.90403777830185,1.95828576335057,1.84543376389764,0,1.79536833800883,1.79415404663983,1.97483289256156,1.79295902973699,0,1.79212059045839,1.9666508816704,1.7899040268483,1.79050153529972,0,1.78831388338889,1.78697430798975,1.78725378774928,1.78766818877204,0,1.83432203414792,1.78443971568777,1.7848733911767,1.83337758530536,0,1.88798214797832,1.88532227164621,1.88703769913575,1.78385184446944,0,1.88346228566035,1.88425253877351,1.7838807561687,1.78376510937166,0,1.83140195252245,1.78448790185321,1.92177028718258,1.93548406986589,0,1.92019941818934,1.92058490751284,1.84164633129431,1.91396412838182,0,1.91327988483262,1.91384848158478,1.9105525478689,1.91017669577849,0,2.0236551153821,2.01185914208318,1.90705423225819,1.90523279520468,0,1.90418233679816,1.93810539726565,1.90218742954908,1.90132007857121,0,1.90099241264624,1.82544614247447,1.89689658858412,1.89730135237379,0,1.89862165330676,1.90027925739778,2.01296742388822,1.93851016105532,0,1.93808612279948,2.01368057913669,1.90372938684305,1.90393176873789,0,1.9001154244353,1.90081894245067,1.90058764885658,1.82719048166328,0,1.94060144063527,1.90211033168438,1.83546886488532,2.03082521679909,0,2.02513924927755,1.91753954185723,1.91874419599315,2.01361311850508,0,2.02834844789564,2.00846683603643,1.91395449114874,2.00750311272769,0,1.91271128808047,1.9872263743119,1.99398207470614,1.98491343837093,0,1.98843102844782,1.9873034721766,1.98328474597917,1.91026343087628,0,1.98401717569381,1.98669632649209,1.98628192546934,1.99714308715879,0,1.98393044059602,1.98495198730328,1.91071638083139,1.99424227999949,0,2.00516126508747,1.99806826153517,1.99837665299397,2.01092433047371,0,2.00037156024305,2.00141238141649,2.00750311272769,1.99844411362558,0,1.99442538742815,1.99895488697921,1.91446526450237,1.99430974063111,0,1.91516878251774,1.91579520266842,1.91577592820225,1.99954275819754,0,2.00380241522215,1.91711550360139,2.00652975218587,1.98816118592137,0,1.98500017346872,2.01289996325661,2.00589369480211,2.00792715098354,0,2.00586478310284,2.00495888319263,2.00412044391403,1.91357863905833,0,2.0102400869245,2.0073489169983,2.0087174040967,2.00807170947985,0,1.99558185539864,2.00141238141649,1.98736129557512,1.9860024457098,0,1.9116993786063,1.9123065242908,1.91174756477173,1.91156445734307,0,1.91297149337383,1.913983402848,1.91194030943348,1.9139063049833,0,2.00657793835131,1.84663841803356,1.84655168293578,2.02780876284275,0,2.02201678575725,1.84305336732507,1.8432557492199,2.02557292476649,0,1.84364123854339,1.84039349099296,1.83891899433059,2.00335910250013,0,2.00426500241034,1.88900369468558,1.88991923182887,1.8891386159488,0,1.83939121875187,1.84321720028755,1.84053804948927,1.84174270362519,0,1.84093317604585,1.84199327168546,1.84408455126541,1.84133793983552,0,1.92101858300177,1.84338103325004,1.89078658280674,1.99730692012127,0,1.88958192867082,1.83985380594006
1.80454298390799,0,1.8043887881786,1.8016421767487,1.79995566095841,1.97645194772024,0,1.80130487359064,1.80048570877822,1.97671215301359,1.79691029530281,0,1.90048163929262,1.88488859615727,1.79347944032371,1.8976001065995,0,1.79273737337598,1.79399021367734,1.79109904375113,2.05674937380408,0,1.78866082378003,1.78893066630648,1.78692612182431,1.83476534686994,0,1.8348713564339,1.83511228726108,1.78759109090734,1.78468064651496,0,1.78504686137227,1.78491194010905,1.78294594455923,1.87455748228763,0,1.78494085180831,1.78476738161274,1.97100691102588,1.78338925728125,0,1.83367633953107,1.87980977432024,1.92178956164876,1.91842616730127,0,1.92016086925699,1.84441221719038,1.917182964233,1.93801866216786,0,1.84125120473773,1.9382981419274,1.91237398492241,1.93901129717586,0,1.93737296755101,1.90728552585229,1.90738189818316,1.90527134413703,0,1.90478948248266,1.90402814106876,1.90262110503801,1.93690074312973,0,1.82709410933241,1.82762415715221,2.01772821703338,1.90090567754846,0,1.94063035233454,1.89825543844944,1.89743627363701,1.89808196825386,0,1.89771575339654,1.82356688202243,1.89915170112656,1.82418366494002,0,1.89763865553185,1.82705556040006,1.94090983209407,2.02114943477939,0,1.9058303036561,1.90470274738488,1.90795049493532,2.03829407244179,0,1.84200290891854,2.03094086359614,1.94098692995877,1.92413140928898,0,2.01543455555859,2.03475720789873,1.98496162453637,1.91400267731417,0,1.98576151488262,1.98765041256774,1.99358694814955,1.9853182021606,0,1.98772751043244,1.91133316374898,1.99012718147119,1.99029101443368,0,1.98628192546934,1.99104271861449,1.98406536185925,1.98411354802468,0,1.98462432137831,1.98517364366429,1.91158373180925,1.91130425204971,0,2.00341692589866,1.99335565455546,1.99098489521597,1.98452794904744,0,1.9871492764472,2.00138346971722,2.00066067723567,2.00689596704319,0,2.00149911651427,1.99521564054132,1.913983402848,1.91655654408232,0,1.99762494881316,2.00497815765881,1.99885851464834,1.99976441455855,0,1.91700949403743,2.00186533137159,2.00085342189742,2.0010172548599,0,2.00099798039373,1.91567955587137,2.00752238719387,2.00728145636669,0,2.00024627621292,2.0039180620192,2.00395661095155,2.00396624818464,0,1.99779841900873,2.00108471549152,1.98912490923011,1.91460018576559,0,1.99391461407452,2.01417207802414,1.99514817990971,1.98443157671657,0,1.91257636681725,1.91362682522377,1.91240289662167,1.91206559346362,0,1.91089948826005,1.91227761259154,1.9903488378322,1.99832846682853,0,1.98771787319935,1.84792980726727,1.94471653916358,1.84402672786689,0,2.03468011003404,1.84251368227217,1.84179088979062,1.84054768672235,0,2.04428843142213,1.83926593472174,1.88882058725692,2.01834499995097,0,1.84098136221128,1.88878203832457,1.84220529081338,1.84047058885765,0,1.84051877502309,1.84149213556491,1.94085200869555,1.84111628347451,0,1.84389180660367,1.93446252315863,1.84357377791178,1.8430244556258,0,1.84273533863318,2.01640791610041,1.84375688534044,1.84393035553601,0,1.83991162933859,1.88995778076122
1.80380091696027,0,1.80465863070504,1.79870282065706,1.801565078884,1.80230714583173,0,1.90361374004601,1.80190238204206,1.79905939828129,1.79780655797993,0,1.90303550606076,1.79506958378312,1.79433715406849,1.97483289256156,0,1.90386430810628,1.97268378958308,1.79145562137537,1.79022205554018,0,1.79063645656294,1.78916195990058,1.83722284130722,1.83648077435949,0,1.83581580527646,1.78729233668163,1.78821751105801,1.89308988151461,0,1.89398614419174,1.89413070268805,1.88873385215913,1.88686422894018,0,1.88872421492604,1.78368801150696,1.78396749126649,1.78506613583845,0,1.78498903797375,1.78637679953833,1.92222323713769,2.01411425462562,0,1.9204596234827,1.91903331298577,1.91850326516597,1.91766482588737,0,1.91585302606695,1.9167300142779,1.91601685902943,2.01827753931936,0,1.93930041416848,1.90859618955217,1.90869256188304,1.90683257589718,0,2.01395042166313,1.90447145379078,1.90500150161058,1.93852943552149,0,1.9399750204846,1.89868911393837,1.9007225701198,1.82677608064052,0,2.01539600662624,1.89880476073542,1.94186391816972,1.89703150984734,0,1.89658819712532,1.94371426692249,2.02749073415087,1.82425112557164,0,1.89838072247957,1.82768198055073,1.82754705928751,1.94223977026013,0,1.90425943466286,2.02814606600081,1.83490026813316,1.91315460080249,0,1.84125120473773,2.01800769679291,1.84691789779309,1.94066890126689,0,1.94051470553749,2.04733379707773,2.01169530912069,1.99582278622582,0,1.91496640062291,1.91379065818625,1.98752512853761,1.9877564221317,0,1.91208486792979,1.91157409457616,1.98846957738017,1.98809372528976,0,1.98941402622273,1.98790098062801,1.99932110183653,1.98519291813047,0,1.98535675109295,2.00591296926828,2.0039180620192,2.00652011495278,0,1.91235471045624,2.01730417877753,1.97880343259355,1.98462432137831,0,1.9136750113892,1.91475438149499,1.91463873469794,1.99839592746014,0,2.00151839098045,1.91488930275821,1.91583375160077,1.99645884360959,0,1.9921799121188,2.008640306232,2.00075704956655,2.0013256463187,0,2.00058357937097,2.00063176553641,1.99506144481192,1.99577460006038,0,2.00722363296816,2.02411770257029,2.00745492656226,1.918175599241,0,1.99883924018216,1.98869123374118,1.99917654334022,1.91514950805157,0,2.01369021636978,1.99071505268952,1.99329783115693,2.00174968457454,0,2.01087614430827,2.00174004734146,1.98674451265753,1.98580970104806,0,1.91151627117764,1.91081275316226,1.91210414239597,1.91130425204971,0,1.91153554564381,1.91236434768932,2.00108471549152,1.99676723506838,0,1.98598317124363,2.02202642299034,1.84736121051511,1.84482661821314,0,2.0227395782388,2.04402822612877,2.03828443520871,2.02002187850817,0,1.8391406506916,1.94702947510454,1.83987308040624,1.83948759108274,0,1.88933136061055,1.88832908836946,1.83866842627032,2.02475375995406,0,1.84037421652678,1.84098136221128,1.84077898031645,1.89154792422064,0,1.84365087577648,2.03839044477267,1.84290880882876,1.84082716648189,0,1.84138612600095,1.89476676007181,1.84274497586627,1.84115483240686,0,1.84117410687303,1.83985380594006
1.80253843942582,0,2.07989800767991,1.80545852105129,1.80475500303592,1.80289501705006,0,1.80026405241721,1.80078446300393,1.80124705019212,1.79751744098731,0,1.79814386113799,1.98452794904744,1.98057668348162,1.97589298820117,0,1.79547434757279,1.96226594061565,1.88771230545187,1.84162705682814,0,1.85014637087736,1.85227619938966,1.83777216359319,1.88422362707425,0,1.83713610620943,1.78606840807953,1.78788984513304,1.78774528663673,0,1.78684902395961,1.88377067711914,1.88846400963268,1.78420842209367,0,1.78556727195899,1.96406810320298,1.78390966786797,1.78750435580955,0,1.78694539629048,1.7883042461558,1.79075210335999,2.04130088916505,0,1.91957299803867,1.91804067797778,1.84531811710059,1.94178682030502,0,1.91784793331603,1.92056563304666,1.91127534035045,2.02363584091593,0,1.94046651937205,1.83776252636011,1.94012921621399,1.83394618205751,0,2.0289170446478,1.90455818888857,1.90207178275203,1.90237053697774,0,1.90221634124834,1.94161335010945,1.89837108524648,2.01761257023633,0,1.89942154365301,1.90143572536826,1.82358615648861,1.89659783435841,0,2.03158655821299,1.89999977763825,1.89780248849433,1.89802414485534,0,1.8992769851567,1.8994986415177,1.9020910572182,1.90395104320406,0,1.90759391731108,2.03033371791164,2.01553092788946,1.83857205393945,0,1.8415788706627,1.91712514083448,1.92185702228037,1.92307131364938,0,2.01691868945404,1.91666255364628,1.99121618881006,1.99095598351671,0,2.01412389185871,1.99709490099335,1.99421336830023,1.91272092531356,0,1.91175720200482,1.91391594221639,1.99215100041954,1.99064759205791,0,1.91256672958416,1.99129328667476,1.99101380691523,1.91141026161368,0,1.99749002754993,1.99054158249395,2.00462158003458,1.99603480535374,0,1.91318351250175,1.91376174648699,1.99599625642139,1.98802626465815,0,2.00240501642448,1.91428215707371,1.91514950805157,2.01305415898601,0,2.00684778087775,1.99757676264772,1.98815154868829,1.98751549130452,0,1.99760567434698,2.00149911651427,2.00465049173384,1.91745280675945,0,1.99021391656898,1.99261358760773,1.99926327843801,1.91828160880496,0,2.00648156602043,2.00766694569018,1.91671073981172,2.00943055934517,0,2.01108816343619,1.98841175398164,2.00063176553641,2.01035573372155,0,2.0046023055684,1.99876214231746,1.91347262949437,1.98819973485372,0,2.01053884115021,1.91387739328404,1.9872263743119,1.98816118592137,0,1.9879877157258,1.91270165084738,1.91241253385476,1.91224870089228,0,1.98477851710771,1.91300040507309,1.99291234183344,1.99475305335312,0,1.91232579875697,1.84695644672544,1.84719737755263,1.84420019806246,0,1.84388216937058,1.84103918560981,1.84087535264732,1.84198363445237,0,1.94506347955472,1.83706864557782,1.84072115691793,1.84012364846651,0,1.84053804948927,1.83797454548803,1.83812874121743,1.84025856972973,0,2.02733653842147,1.84094281327893,1.89059383814499,1.95402610632596,0,1.84481698098005,1.84182943872297,1.84331357261842,1.84158850789579,0,1.84146322386565,1.89063238707734,1.84363160131031,2.01143510382733,0,2.01816189252231,1.83923702302247
1.80803166228562,0,1.80588255930714,1.805757275277,1.80666317518721,1.8040803967198,0,1.80428277861464,1.97714582850253,1.9786106879318,1.88835800006872,0,1.80161326504944,1.98588679891276,1.7977583718145,1.79694884423516,0,1.7966115410771,1.84398817893454,1.79385529241412,1.96061797375771,0,1.79388420411338,1.95594391571034,1.95640650289854,1.78995221301374,0,1.78790911959922,1.78729233668163,1.78668519099713,1.8368566264499,0,1.96193827469068,1.7858660261847,1.96507037544407,1.89044927964868,0,1.7851817826355,1.7865502697339,1.7875429047419,1.96709419439241,0,1.95939404515562,1.79056899593133,1.79010640874314,1.92515295599624,0,1.92197266907742,2.01501051730274,1.84788162110183,1.91902367575269,0,1.94347333609531,1.91443635280311,1.94101584165803,1.94105439059038,0,2.0168705032886,2.03077703063366,1.94198920219985,1.90792158323605,0,1.90792158323605,1.91118860525267,1.90475093355031,1.90347881878278,0,1.90195613595498,1.90172484236088,1.90035635526248,2.02817497770007,0,1.90094422648081,1.89983594467576,1.8978988608252,1.94308784677181,0,1.82424148833855,1.82567743606856,2.01796914786056,1.89945045535227,0,1.82675680617435,1.89978775851033,1.90397995490332,1.90709278119054,0,1.94329022866665,1.90982975538735,2.0339476803194,2.01652356289746,0,1.91736607166166,1.91752990462415,1.92238707010017,1.92392902739415,0,1.94455270620109,1.87198434105331,1.99831882959544,1.99238229401363,0,2.00738746593065,2.00453484493679,1.98667705202592,1.99717199885805,0,1.98388225443059,1.91179575093717,1.91166082967395,1.91453272513398,0,1.91377138372008,1.91052363616964,1.98680233605606,1.98720709984572,0,1.98830574441768,1.98833465611694,1.98819009762063,1.98353531403944,0,2.00065104000258,2.00166294947676,1.98670596372518,2.00183641967233,0,1.91666255364628,1.91669146534555,2.01018226352598,2.00716580956964,0,2.00235683025905,2.00116181335621,1.99605407981992,2.01248556223386,0,2.00182678243924,1.99216063765262,2.00447702153827,1.91593012393165,0,1.99935001353579,1.99764422327933,1.99180406002839,1.99819354556531,0,1.91760700248885,1.99867540721968,2.01470212584395,2.01399860782857,0,1.91715405253374,1.99787551687343,1.91653726961615,1.99184260896074,0,1.99835737852779,1.91576629096916,2.00448665877135,1.99262322484082,0,1.99451212252594,2.00028482514527,2.00394697371846,1.91344371779511,0,1.98681197328914,1.9139063049833,1.91141989884676,1.91189212326804,0,1.91373283478773,1.98875869437279,2.00120036228856,1.99462776932299,0,1.98467250754375,1.8491248241701,2.03015061048298,1.84396890446836,0,2.02074467098972,1.84236912377586,1.83920811132321,1.84170415469284,0,2.03391876862013,1.8389864549622,1.83915028792469,1.94708729850306,0,1.8390635528269,1.83826366248065,1.8391406506916,1.84050913779,0,2.02115907201248,1.84164633129431,1.8438628949044,1.95492236900308,0,1.89731098960688,1.84036457929369,1.84128011643699,1.84406527679924,0,2.01731381601062,2.01485632157335,1.84217637911412,1.84197399721928,0,1.84115483240686,1.83988271763933
1.8575863148208,0,1.80834005374441,1.85429038110492,1.8558323383989,1.90673620356631,0,1.80516940405867,1.80414785735141,1.80401293608819,1.90504005054293,0,1.88912897871571,1.8009579331995,1.90509787394146,1.98141512276022,0,1.84650349677034,1.96758569327987,1.79473228062507,1.79342161692519,0,1.96049268972758,1.84023929526356,1.79179292453342,1.79225551172162,0,1.78869937271238,1.7898269289836,1.79069427996146,1.88042655723783,0,1.78708031755371,1.83666388178815,1.78666591653095,1.7855576347259,0,1.78611659424497,1.78728269944854,1.78773564940365,1.78873792164473,0,1.88861820536208,1.78960527262259,1.85077279102804,1.92392902739415,0,1.92210759034064,1.92116314149808,1.91866709812845,1.91867673536154,0,1.94353115949383,1.91567955587137,1.9170287685036,2.03417897391349,0,1.9122294264261,1.91156445734307,1.83714574344252,1.94373354138867,0,1.9088756693117,1.90905877674036,1.90776738750666,1.90363301451218,0,1.90416306233198,1.8290022814837,1.90329571135412,1.94373354138867,0,1.90313187839164,1.90036599249557,1.90043345312718,1.89871802563763,0,1.89862165330676,1.90063583502201,1.90058764885658,1.9000383265706,0,1.8271712071971,1.94491892105841,1.94440814770478,1.8306020621762,0,1.83194163757535,1.9112367914181,1.9113909871475,2.01691868945404,0,2.01748728620619,1.92023796712169,1.92422778161986,1.94425395197538,0,2.03094086359614,2.03524870678619,1.99139929623872,1.99104271861449,0,2.01853774461272,2.01521289919758,1.99026210273442,1.99543729690233,0,1.91397376561491,1.91405086347961,1.91352081565981,1.91197885836583,0,1.91259564128342,1.98759258916922,1.98742875620673,1.98705290411633,0,2.01242773883533,1.98796844125963,1.99523491500749,2.02704742142885,0,2.00252066322153,2.00710798617111,2.00419754177873,1.99406880980392,0,2.00404334604933,2.00988350930027,2.00900652108932,2.0078789648181,0,1.99908980824243,2.00213517389804,2.00593224373446,2.01229281757211,0,2.00733927976521,1.91734679719549,1.917182964233,2.00158585161206,0,1.91759736525576,2.00084378466433,1.99866576998659,1.91771301205281,0,2.00020772728057,2.00121963675474,2.00786932758501,2.01202297504566,0,2.00504561829042,1.91691312170656,2.00686705534393,2.00613462562929,0,2.01157966232365,2.0081873562769,2.00256884938697,1.91457127406633,0,1.98801662742506,1.9147447442619,1.98766968703392,1.99785624240725,0,1.91317387526866,1.91151627117764,1.91167046690703,1.91256672958416,0,1.9137521092539,1.98979951554622,1.99765386051242,2.00131600908561,0,1.98535675109295,1.84728411265041,1.84665769249974,1.84743830837981,0,2.02254683357706,1.84071151968484,1.83970924744375,1.84056696118853,0,1.94429250090773,1.84138612600095,1.84101027391055,2.02243118678001,0,1.84040312822604,1.83826366248065,1.84199327168546,1.84140540046713,0,2.02086031778677,1.84082716648189,1.8426486035354,1.84246549610674,0,1.89042036794942,1.89124916999493,1.8421860163472,2.01827753931936,0,1.84024893249665,1.84279316203171,1.84243658440748,1.84259078013687,0,1.84075006861719,1.8891386159488
1.81338996388219,0,1.8065186166909,1.91418578474283,1.80642224436003,1.90218742954908,0,1.80541033488586,1.89711824494513,1.80422495521611,1.98177170038446,0,1.80144943208695,1.90410523893346,1.90505932500911,1.97893835385677,0,1.80036042474808,1.8459252627851,1.79710303996456,1.79720904952852,0,1.8429473577611,1.84361232684413,1.84212819294868,1.89911315219421,0,1.9108609393277,1.79039552573576,1.79053044699898,1.88322135483316,0,1.8805229295687,1.79057863316442,1.78789948236613,1.83698191048003,0,1.78695503352357,1.83751195829984,1.78917159713366,1.78963418432186,0,1.78902703863735,1.95693655071834,1.92351462637139,1.92234852116782,0,1.92147153295687,1.92319659767951,1.92082583834002,1.92388084122871,0,1.84620474254463,1.94365644352397,1.91774192375207,1.91470619532955,0,1.91176683923791,1.9134533550282,1.94569953693849,1.94550679227674,0,1.91372319755464,1.94400338391511,1.9048376686481,1.90433653252756,0,1.90690003652879,1.90593631322006,1.90372938684305,1.90440399315917,0,1.94564171353996,1.90102132434551,1.9012526179396,1.82814456773893,0,1.89954682768314,1.94503456785546,1.8999612287059,1.90115624560873,0,1.94508275402089,1.94615248689359,1.83207655883857,1.94483218596062,0,1.94440814770478,2.03033371791164,1.91186321156878,2.04026006799161,0,1.94392628605041,1.8458481649204,1.92390011569489,1.94457198066726,0,2.03768692675729,2.02750037138396,2.01364203020434,1.91692275893964,0,1.99335565455546,2.00850538496878,1.91536152717949,2.00347474929718,0,1.91439780387076,1.91463873469794,1.9138292071186,1.91360755075759,0,1.91621924092427,1.98797807849271,2.00063176553641,1.98825755825225,0,2.01058702731565,2.00360003332732,2.01158929955673,1.98968386874917,0,1.98869123374118,2.01011480289437,1.91548681120963,1.91623851539044,0,1.91536152717949,2.00166294947676,2.00570095014036,1.99986078688942,0,2.00699233937406,2.0131408940838,1.91926460657987,2.00857284560039,0,2.00002461985191,1.99482051398473,1.99098489521597,2.00080523573198,0,1.99421336830023,2.00061249107024,1.91778047268442,1.99851157425719,0,1.91816596200791,2.01492378220496,1.99104271861449,2.00211589943186,0,2.00390842478611,2.00142201864957,1.99798152643739,1.9167300142779,0,2.00479505023015,2.00814880734455,2.0078018669534,2.00370604289128,0,1.99172696216369,1.99081142502039,1.98778533383097,1.98686015945458,0,1.98575187764953,1.91438816663767,1.9126149157496,1.91391594221639,0,1.91292330720839,1.99353876198412,1.98853703801178,2.00233755579287,0,1.99935965076888,1.89585576741068,1.89427526118436,1.84540485219838,0,1.89102751363392,1.84300518115963,1.94403229561437,1.84110664624142,0,1.84080789201571,1.93920404183761,1.8391406506916,1.84070188245175,0,1.84025856972973,2.0312781667542,1.84019110909812,1.84051877502309,0,2.01771857980029,1.84227275144499,1.84230166314425,1.84208964401633,0,1.84274497586627,1.89131663062654,1.84269678970083,1.84214746741485,0,1.84228238867808,1.84252331950526,1.8421860163472,1.8892928116782,0,1.84282207373097,1.84145358663256
1.85989925076176,0,1.80997838336926,1.80890865049657,1.80913030685758,1.80722213470628,0,1.8551480948497,1.89841927141192,1.80595965717184,1.91052363616964,0,1.80440806264477,1.80115067786125,1.97862996239798,1.90516533457307,0,1.79822095900269,1.84694680949236,1.84687934886075,1.79545507310662,0,1.84444112888964,1.79462627106111,1.90105023604477,1.97422574687706,0,1.79328669566196,1.79023169277327,1.84022002079738,1.84056696118853,0,1.88145774117818,1.79053044699898,1.78760072814042,1.79024133000636,0,1.78921014606601,1.7903666140365,1.87446110995676,1.87733300541679,0,1.94635486878843,1.79098339695409,1.92742734300486,1.94661507408178,0,1.8512546526824,1.92397721355959,1.92183774781419,1.84838275722237,0,1.94433104984008,1.844701334183,1.94430213814082,1.91470619532955,0,1.911776476471,1.91218124026066,1.91275947424591,1.94572844863775,0,1.91031161704172,1.90977193198883,1.94714512190159,1.90543517709952,0,1.90503041330985,1.8298407207623,1.9447743625621,1.90318006455707,0,1.829917818627,1.90186940085719,1.90227416464686,1.90333426028647,0,1.90076111905215,1.90100204987933,1.90143572536826,1.90335353475265,0,1.90240908591009,1.90665910570161,1.90771920134122,1.90530025583629,0,1.90512678564072,1.8352568457574,1.91418578474283,1.84147286109874,0,1.92037288838492,1.84758286687612,1.85163050477281,1.85539866290997,0,2.03314778997315,2.03499813872592,1.91678783767642,2.01436482268589,0,1.91762627695502,1.99760567434698,2.00196170370246,2.00320490677073,0,1.91364609968994,1.91471583256264,1.91645053451836,1.91293294444148,0,1.91491821445747,1.98846957738017,1.99249794081068,1.91391594221639,0,1.98876833160588,1.98993443680945,2.00810062117911,1.99007899530576,0,1.98977060384696,1.98808408805667,1.9879877157258,1.91501458678835,0,2.0020098898679,2.00233755579287,2.00278086851489,2.01034609648846,0,1.91771301205281,1.91832015773731,1.99548548306776,2.01675485649156,0,2.00337837696631,1.9911101792461,2.01415280355797,1.91902367575269,0,1.99810681046752,2.00785005311884,2.00791751375045,2.00916071681872,0,2.00333982803396,2.00116181335621,1.91822378540644,2.0072718191336,0,2.00333982803396,2.01166639742143,2.00372531735745,2.00839937540482,0,1.99956203266371,1.91734679719549,2.00127746015326,1.990657229291,0,1.99206426532175,1.91515914528466,1.99025246550133,2.00804279778059,0,1.91363646245685,1.917182964233,1.91288475827604,1.91210414239597,0,1.91221015195993,1.91244144555402,2.00549856824552,1.99923436673874,0,1.99511926821044,1.84834420829002,1.84772742537243,1.84366051300957,0,1.94275054361375,1.84371833640809,1.94572844863775,1.84403636509998,0,1.8408175292488,1.925567357019,1.88683531724092,1.88675821937622,0,1.88727862996294,1.84038385375987,2.02405024193868,1.84109700900833,0,2.02425262383352,1.83942976768422,2.04159000615767,2.04146472212753,0,1.8415788706627,1.84101991114363,1.8451639213712,1.84131866536934,0,1.84207036955016,1.94673072087883,1.94260598511744,1.93137860857068,0,1.84293772052802,1.93094493308174
1.81251297567124,0,1.91487966552512,1.91818523647409,1.80770399636065,1.80834005374441,0,1.85714300209878,1.80714503684158,1.91187284880187,1.80592110823949,0,1.80470681687048,1.90428834636212,1.98425810652099,1.90809505343163,0,1.79789329307772,1.80026405241721,1.80078446300393,1.84710100522175,0,1.79708376549838,1.79735360802483,1.7950117603846,1.79412513494056,0,1.7914267096761,1.98062486964706,1.79218805109001,1.79110868098422,0,1.79146525860845,1.88416580367572,1.87900988397399,1.83978634530845,0,1.84113555794068,1.83809019228508,1.79153271924006,1.79238079575175,0,1.84135721430169,1.88089878165911,2.02196859959181,1.92498912303376,0,1.94729931763099,1.9244976241463,1.92694548135049,1.92411213482281,0,1.84771778813935,1.91972719376806,1.94552606674291,1.84320756305446,0,1.91658545578159,1.84153068449726,1.83908282729308,1.8374637721344,0,1.91144881054603,1.90841308212351,2.01768966810103,1.90714096735598,0,1.90463528675327,1.83090081640191,1.90489549204662,1.90431725806138,0,1.90344026985043,2.0393541680814,2.03331162293563,1.90378721024158,0,1.90107914774403,1.94814739414267,1.90372938684305,1.90274638906814,0,1.90234162527847,1.94627777092373,1.90702532055893,1.90794085770223,0,1.90828779809337,2.02435863339748,1.91371356032155,1.91640234835293,0,1.84534702879986,1.94541041994587,1.85111009418609,1.85509027145117,0,1.94529477314882,1.87602234171691,2.01492378220496,2.01719816921357,0,1.91920678318135,1.91707695466904,1.91800212904543,2.00070886340111,0,1.91546753674345,1.91485075382586,1.91457127406633,1.91471583256264,0,1.99328819392385,1.99054158249395,1.9911872771108,2.01103034003767,0,1.91493748892365,1.99028137720059,1.9898187900124,2.01377695146756,0,2.01272649306104,2.00678032024614,2.00718508403581,1.91655654408232,0,1.91760700248885,2.00187496860468,2.00168222394293,2.00744528932917,0,2.00192315477012,1.99753821371537,1.99741292968523,1.99092707181744,0,1.91997776182833,1.99466631825534,2.02056156356106,2.00834155200629,0,2.0077247690887,2.00518053955364,1.91843580453436,1.99833810406162,0,2.01400824506166,2.00088233359668,1.91785757054912,1.91876347045933,0,2.00286760361268,1.99517709160897,1.9997258656262,2.00069922616802,0,1.91700949403743,2.00446738430518,1.99119691434389,1.99044521016308,0,1.99028137720059,2.00931491254812,1.98970314321535,2.002241183462,0,1.91412796134431,1.91460982299868,1.98696616901854,1.99082106225348,0,1.99168841323134,1.98925983049333,1.98838284228238,1.91242217108785,0,1.99831882959544,1.85035839000528,1.84913446140319,1.93819213236344,0,1.93718986012235,1.84267751523466,1.84243658440748,1.9471354846685,0,1.83753123276601,1.88767375651952,1.88628599495494,1.84015256016577,0,1.90777702473974,1.83851423054092,1.84064405905323,2.02705705866194,0,1.8388322592328,2.03311887827388,1.94057252893601,1.83936230705261,0,1.84117410687303,1.88993850629505,1.8914226401905,1.9353973347681,0,1.84194508552002,1.84148249833183,1.9419506532675,1.84036457929369,0,1.93459744442185,1.93316149669184
1.81366944364172,0,1.91730824826314,1.80919776748919,1.91515914528466,1.81043133332437,0,1.8110192045427,1.8092652281208,1.98422919482173,1.80734741873641,0,1.85432893003727,1.80350216273456,1.80444661157712,1.98385334273132,0,1.80309739894489,1.90695785992732,1.80024477795103,1.79756562715275,0,1.7972957846263,1.79861608555927,1.79576346456541,1.79504067208386,0,1.79161945433785,1.79547434757279,1.97462087343364,1.97494853935861,0,1.84030675589517,1.83996945273711,1.84022965803047,1.79071355442764,0,1.79191820856356,1.89265620602568,1.89328262617636,1.96381753514271,0,1.79426969343687,1.79489611358755,1.92817904718567,1.92775500892983,0,1.92460363371026,1.95060488857995,1.95060488857995,1.92182811058111,0,1.94809920797724,1.92009340862538,1.91859000026376,1.94676926981118,0,1.94725113146555,1.91739498336092,1.94846542283456,1.94813775690959,0,1.91350154119363,1.91234507322315,1.83461115114054,2.03103723592702,0,1.83388835865899,1.90657237060382,1.83201873544004,1.9471354846685,0,1.90202359658659,1.90261146780492,1.94807993351106,1.90382575917393,0,1.90241872314317,1.90291022203063,1.90277530076741,1.94792573778166,0,1.9478197282177,1.94817630584194,1.83215365670327,1.90754573114565,0,1.90823961192794,1.83705900834473,2.04017333289383,1.84187762488841,0,1.84606982128141,1.84837311998929,1.94489000935915,1.94728004316481,0,2.03606787159862,2.0346319238686,2.0056720384411,2.01475994924247,0,1.92044034901653,2.00697306490789,2.00389878755302,1.91566991863829,0,1.91519769421701,1.91556390907433,1.91653726961615,1.91724078763153,0,1.99384715344291,1.98949112408743,1.99104271861449,2.01219644524124,0,1.99051267079469,2.00150875374736,2.00279050574798,2.00449629600444,0,2.00405298328242,2.005440744847,1.91541935057802,1.99927291567109,0,1.99485906291708,1.91740462059401,2.00396624818464,1.99851157425719,0,2.00305071104134,2.00768622015635,1.99172696216369,1.99096562074979,0,1.92016086925699,1.92100894576868,2.00264594725167,2.02307688139686,0,2.01879794990607,2.00438064920739,1.99838629022706,1.99422300553332,0,1.9872263743119,2.01110743790237,2.01467321414469,2.00106544102534,0,2.02057120079415,1.99431937786419,2.01857629354507,1.91688421000729,0,1.9174142578271,1.91745280675945,2.00741637762991,1.99998607091956,0,1.99187152066,1.91409904964505,1.9136750113892,1.91407977517887,0,1.91504349848761,1.91484111659277,1.91519769421701,1.99107163031375,0,1.99039702399764,1.98777569659788,1.98881651777131,1.98843102844782,0,1.99604444258683,1.84827674765841,1.84399781616763,1.84415201189702,0,1.84306300455815,1.84442185442347,1.84337139601695,1.84032603036134,0,1.83987308040624,1.96655450933952,1.83887080816515,1.8859390545638,0,1.8372324785403,1.84078861754954,1.83886117093207,1.83763724232997,0,1.94420576580995,1.83949722831583,1.84307264179124,1.96392354470667,0,1.83811910398434,1.84152104726418,1.88983249673109,1.93686219419738,0,1.83939121875187,1.88986140843035,1.93351807431607,1.94006175558238,0,1.93749825158115,2.02739436182
1.81454643185267,0,1.9145905485325,1.91699021957125,1.81244551503963,1.98893216456836,0,1.99191006959235,1.98838284228238,1.81049879395598,1.80793528995474,0,1.97500636275713,1.89772539062963,1.89270439219112,1.80420568074994,0,1.90896240440949,1.80356962336617,1.89609669823787,1.80078446300393,0,1.7992810546423,1.98260050242997,1.99085961118583,1.79734397079174,0,1.9853182021606,1.79520450504635,1.79494429975299,1.90707350672437,0,1.79305540206787,1.79534906354266,1.79119541608201,1.79169655220255,0,1.78882465674252,1.9672580273549,1.79207240429296,1.79399021367734,0,1.79536833800883,1.79682356020502,1.79751744098731,1.94992064503075,0,1.94891837278966,2.02132290497496,1.92523005386094,1.92272437325823,0,1.94662471131487,1.94931349934624,2.04197549548116,1.9179443056469,0,2.02116870924556,1.91431106877297,2.02155419856906,1.91137171268133,0,1.91203668176435,1.91073565529756,1.90966592242486,2.03797604374991,0,1.90774811304048,1.83397509375678,1.94695237723984,1.90336317198573,0,1.90421124849742,1.90573393132522,1.90459673782092,1.90437508145991,0,1.90610978341563,1.94870635366174,1.90246690930861,1.90220670401525,0,2.02938926906908,1.90466419845253,1.83433167138101,1.9074300843486,0,1.83778180082628,1.91074529253065,1.84052841225618,1.94887982385731,0,1.8450868235065,1.84823819872606,1.94577663480318,1.94529477314882,0,2.03395731755248,2.05009004574072,1.91971755653498,1.91808886414321,0,1.99160167813356,1.99070541545643,1.9914956685696,1.91686493554112,0,1.91570846757064,1.91768410035354,1.91590121223238,1.99181369726148,0,1.99105235584758,1.99645884360959,1.98854667524487,1.98843102844782,0,2.0055178427117,2.00607680223077,1.91732752272931,2.00771513185562,0,2.01106888897002,2.00701161384024,2.01077013474431,1.91811777584248,0,2.00481432469632,1.91757809078958,2.00653938941896,2.00805243501367,0,2.00830300307394,2.01077977197739,2.00154730267971,1.99462776932299,0,2.01457684181381,2.00343620036483,2.01190732824862,2.00992205823262,0,2.00515162785438,1.91832015773731,1.99458922039064,2.00998951886423,0,2.00954620614221,2.00223154622891,1.99832846682853,2.0026941334171,0,2.0077247690887,2.01965566365085,1.99658412763972,1.91820451094026,0,1.99853084872337,1.91810813860939,2.00411080668094,2.01822935315392,0,1.9145134506678,2.00083414743124,1.99180406002839,1.99142820793799,0,1.98881651777131,1.91654690684924,1.99447357359359,1.99163058983282,0,1.9935483992172,1.99156312920121,1.99090779735127,1.99587097239126,0,1.98842139121473,1.85018491980971,1.941343507583,1.84434475655877,0,1.84178125255753,1.84319792582138,1.84106809730907,2.04227424970687,0,1.84075006861719,1.84033566759443,1.83924666025556,1.88726899272985,0,1.83755050723219,1.83869733796958,1.83972852190993,1.94798356118019,0,1.84002727613564,1.93516604117401,1.93667908676872,1.8409717249782,0,1.84006582506799,1.84185835042223,1.84238839824204,1.84252331950526,0,1.84159814512887,1.84423874699481,1.84253295673835,1.84078861754954,0,1.92965354384804,1.83844676990931
1.81531741049966,0,1.81305266072413,1.81464280418354,1.81571253705624,1.81351524791232,0,1.8124647895058,1.99017536763663,1.91455199960015,1.81179018318969,0,1.97338730759846,1.80863880797012,1.8060656667358,1.98425810652099,0,1.9870721785825,1.98792025509419,1.80356962336617,1.90796976940149,0,1.79957017163492,1.97995026333095,1.99091743458436,1.9872263743119,0,1.79755598991966,1.79712231443073,1.7942504189707,1.79472264339198,0,1.98248485563292,1.79507922101621,1.79438534023392,1.7949346625199,0,1.9803646643537,1.79220732555618,1.79317104886492,1.7934890775568,0,2.07445297098555,1.79681392297194,1.8547626055262,1.85287370784108,0,1.92821759611802,1.92758153873426,1.926559992027,1.92705149091445,0,1.92380374336401,1.92020905542243,1.94894728448892,1.92177992441567,0,1.9499591939631,1.91685529830803,1.91647944621762,2.02680649060167,0,1.91254745511798,1.83955505171436,1.91137171268133,1.9081143278978,0,1.90774811304048,2.03083485403218,1.94767516972139,1.90408596446729,0,1.90738189818316,1.90649527273912,1.90518460903924,1.94857143239852,0,1.90576284302449,1.9042305229636,1.90327643688795,1.90265001673727,0,1.95040250668511,1.94931349934624,1.90843235658968,1.95042178115129,0,1.91164155520777,1.91105368398944,1.84060551012088,1.95016157585793,0,1.94855215793234,1.92741770577177,1.92906567262971,1.9315135298339,0,1.94730895486407,2.03476684513182,1.92290748068689,1.92037288838492,0,1.92117277873117,1.99199680469014,1.99361585984882,2.01292887495587,0,1.91736607166166,1.91808886414321,1.91785757054912,1.99392425130761,0,1.99536983627071,1.99237265678055,1.99341347795398,2.00469867789927,0,2.00923781468342,2.00842828710408,1.99987042412251,1.91863818642919,0,1.91884056832403,2.02065793589193,2.00944019657825,1.99083069948657,0,1.99152458026886,1.99162095259973,2.01996405510964,2.01492378220496,0,2.01460575351308,2.01048101775169,2.00092088252903,1.99625646171475,0,2.00098834316064,2.00526727465143,2.00705016277259,1.92050780964814,0,2.01431663652045,1.99863685828733,2.00474686406471,2.01172422081996,0,2.00324345570308,2.01106888897002,2.02007006467361,2.00569131290727,0,2.01378658870065,2.00530582358378,2.00587442033593,1.99277742057022,0,2.00252066322153,1.91829124603805,1.91808886414321,2.00073777510037,0,1.91793466841382,1.91716368976683,2.00361930779349,1.91450381343472,0,1.91517841975083,1.9142917943068,1.91416651027666,1.99404953533775,0,1.99033920059911,1.99424227999949,1.98891289010219,1.99712381269261,0,1.91344371779511,1.84924047096715,1.84692753502618,1.84438330549112,0,1.84304373009198,1.84181980148988,1.84187762488841,2.02140964007275,0,2.02148673793745,1.83876479860119,1.8381480156836,1.83749268383366,0,1.84056696118853,2.02164093366684,1.83943940491731,1.83875516136811,0,1.83839858374387,1.84053804948927,1.88717262039898,1.88780867778274,0,1.84091390157967,1.9340288476697,1.93121477560819,1.8895144680392,0,1.84032603036134,1.83826366248065,1.84094281327893,1.83952614001509,0,1.84003691336872,1.83826366248065
1.81552942962758,0,1.81449824568723,1.90355591664748,1.90473165908414,1.86100753256681,0,1.88596796626306,1.91425324537445,1.81122158643753,1.91641198558601,0,1.99035847506529,1.80754980063125,1.85448312576667,1.85500353635339,0,1.91335698269732,1.80478391473518,1.98483634050624,1.90933825649989,0,1.9087214735823,1.91030197980863,1.80085192363554,1.80013876838707,0,1.8002736896503,1.79544543587353,1.79418295833909,1.79540688694118,0,1.79660190384401,1.79717050059617,1.79521414227943,1.97255850555294,0,1.79433715406849,1.79597548369334,1.79539724970809,1.79655371767858,0,1.79677537403959,1.7956960039338,1.93097384478101,1.85642020961723,0,1.9280826748548,1.93004867040462,1.95153006295634,1.92749480363647,0,1.92590466017706,1.951713170385,1.84739012221438,1.91855145133141,0,1.94854252069926,1.91863818642919,1.91639271111984,1.95047960454981,0,1.84059587288779,1.91471583256264,1.95405501802522,1.95014230139176,0,1.9081143278978,1.83543995318606,1.907805936439,1.90647599827295,0,1.90771920134122,1.90772883857431,1.90549300049804,1.9064374493406,0,1.90511714840763,1.90341135815117,1.95100001513653,1.95097110343727,0,1.8338787214259,1.90794085770223,1.90832634702572,1.95113493639975,0,1.91063928296669,1.95170353315191,1.84347740558091,1.91888875448946,0,1.94934241104551,1.92143298402453,1.93048234589355,2.03801459268226,0,1.94906293128597,1.87881713931224,2.0102400869245,2.01677413095773,0,2.02139036560657,2.01139655489499,1.91934170444457,1.91860927472993,0,1.91848399069979,1.9174142578271,1.9937025949466,1.99508071927809,0,1.99586133515817,1.91624815262353,1.99177514832913,1.98828646995151,0,2.01620553420558,2.01682231712317,2.01480813540791,1.91879238215859,0,2.01043283158625,2.01381550039991,2.01065448794726,1.91897548958725,0,1.9939338885407,2.00836082647247,2.0113869176619,1.9944639363605,0,1.92041143731727,2.00562385227566,2.01094360493988,2.0023953791914,0,1.9936254970819,2.01125199639868,1.92163536591936,2.00653938941896,0,1.92016086925699,2.00566240120801,2.00408189498168,2.0114640155266,0,1.9205367213474,2.01395042166313,2.00296397594355,1.91899476405342,0,2.01301561005366,1.91972719376806,2.0180944318907,2.01342037384333,0,2.01132909426337,2.00424572794417,1.91844544176745,1.99997643368647,0,2.0031567206053,1.9150531357207,2.00113290165695,1.91569883033755,0,1.91533261548023,1.91567955587137,1.9155831835405,1.9912643749755,0,1.99076323885496,1.99189079512618,1.99805862430209,1.98739020727438,0,2.00171113564219,1.85037766447146,1.9415748011771,1.84367978747574,0,1.84338103325004,2.05081283822227,1.947520973992,2.02568857156353,0,1.83835039757844,1.8368566264499,1.83707828281091,1.83901536666146,0,1.83817692738286,1.83694336154768,1.84027784419591,1.8857848588344,0,1.83742522320205,1.83905391559381,1.83758905616454,1.88794359904597,0,1.94400338391511,1.93428905296306,1.99727800842201,1.84092353881276,0,2.02658483424066,1.88818452987315,1.84113555794068,1.8399790899702,0,1.83834076034535,1.84062478458705
1.81450788292032,0,1.81609802637973,1.81604020298121,1.89252128476246,1.86202907927407,0,1.81422840316079,1.91180538817026,1.81218530974627,1.99803934983591,0,1.99138002177255,1.81080718541478,1.98889361563601,1.91407013794579,0,1.85501317358647,1.98759258916922,1.80714503684158,1.80192165650823,0,1.80098684489876,1.80058208110909,1.89435235904906,1.84715882862028,0,1.84822856149298,1.79745961758879,1.90128152963887,1.79751744098731,0,1.79585983689629,1.79616822835508,1.84517355860428,1.79757526438584,0,1.79852935046148,1.8435641406787,1.79697775593442,1.79601403262569,0,1.79767163671671,1.79837515473209,1.86392761419228,1.93155207876625,0,2.02729798948912,1.93034742463033,1.95271544262608,1.95343823510763,0,1.92391939016106,1.92402539972502,2.0245706525254,1.84735157328203,0,1.84656132016886,1.9514818767909,1.84399781616763,1.91567955587137,0,1.91360755075759,1.9145905485325,1.911776476471,1.9113909871475,0,1.90814323959706,1.90836489595807,1.90969483412413,1.9506434375123,0,1.90671692910013,1.95262870752829,1.83370525123033,1.94998810566236,0,1.90586885258845,1.95042178115129,1.90693858546114,1.90774811304048,0,1.83450514157658,2.0414936338268,1.90912623737197,1.91007068621453,0,1.91233543599006,1.91415687304357,1.91631561325514,1.92051744688123,0,1.92243525626561,1.92727314727546,1.95018085032411,2.04490521433972,0,2.03154800928065,2.03494995256048,1.92065236814445,2.00459266833531,0,1.99451212252594,1.99407844703701,1.99482051398473,1.99366404601425,0,2.00030409961144,1.91818523647409,1.99435792679654,1.99512890544353,0,1.99574568836112,1.99569750219568,1.91736607166166,1.99983187519016,0,2.00775368078797,1.91831052050422,1.91895621512107,1.99105235584758,0,2.00929563808194,2.01544419279168,2.01196515164714,1.9931725471268,0,1.99325928222458,2.01389259826461,2.00827409137468,1.92093184790398,0,2.0063562819903,1.99487833738326,1.99368332048043,2.0105484783833,0,1.99392425130761,2.01765111916868,1.9985019370241,1.92035361391874,0,2.00802352331441,2.01258193456473,2.02156383580215,2.00525763741834,0,2.00436137474122,2.00159548884515,2.00565276397492,2.00338801419939,0,2.01064485071417,2.0112327219325,2.00550820547861,1.91827197157187,0,2.00855357113422,1.91729861103005,2.0132179919485,2.00014990388204,0,2.00563348950875,2.01244701330151,1.91495676338982,1.99589024685743,0,1.91507241018687,1.91607468242796,1.91530370378097,1.99260395037464,0,1.99206426532175,1.98766004980083,1.99447357359359,1.99038738676455,0,1.99384715344291,1.84942357839581,1.84709136798867,1.89376448783073,0,1.89255983369481,1.8400561878349,1.8397477963761,1.84042240269222,0,1.83993090380476,1.83766615402923,1.83577725634411,1.84061514735396,0,1.83939121875187,1.83661569562271,1.83579653081029,1.83810946675125,0,1.83780107529246,2.03512342275605,2.02448391742761,2.02516816097682,0,2.021216895411,1.93597556875334,1.89051674028029,1.8884543723996,0,1.84020074633121,1.84009473676725,1.89771575339654,1.88735572782764,0,1.84063442182014,1.84048022609074
1.81933613669708,0,1.81959634199044,1.81852660911775,1.91983320333202,1.81530777326657,0,1.81462352971737,1.8618556090785,1.81150106619706,1.81396819786743,0,1.99495543524796,1.81259007353594,1.91737570889475,1.80533323702116,0,1.80869663136864,1.80607530396888,1.85456022363137,1.85412654814244,0,1.97740603379588,1.91385811881786,1.87388287597151,1.87539592156623,0,1.85050294850159,1.85091734952435,1.79815349837108,1.97871669749576,0,1.8984385458781,1.79814386113799,1.79855826216075,1.79896302595042,0,1.79835588026591,1.79793184201007,1.84393035553601,1.97067924510091,0,1.84542412666456,1.79986892586063,1.95589572954491,1.85931137954343,0,2.02587167899219,1.95374662656643,1.95380444996495,1.92799593975701,0,1.9264828941623,1.9239675763265,1.92557699425209,1.92385192952945,0,1.91972719376806,1.84596381171745,1.91738534612784,1.91676856321025,0,1.91677820044333,1.84122229303847,2.04116596790183,1.91319314973484,0,1.91453272513398,1.90998395111675,1.83626875523157,1.90974302028956,0,1.95398755739361,1.83475570963685,1.95173244485117,1.90709278119054,0,1.90637962594208,1.90438471869299,1.90524243243777,1.90772883857431,0,1.90782521090518,1.9071216928898,1.90911660013889,1.91143917331294,0,1.91137171268133,1.91690348447347,1.91742389506019,1.84656132016886,0,1.95096146620418,2.02438754509674,1.92549989638739,1.94958334187269,0,1.95074944707626,2.03823624904327,2.01452865564838,2.02075430822281,0,2.01226390587285,1.99368332048043,2.00249175152227,2.00262667278549,0,1.99517709160897,1.91947662570779,1.91892730342181,1.92106676916721,0,1.91874419599315,2.00083414743124,2.00844756157026,2.00755129889313,0,2.00211589943186,2.0136709419036,1.91889839172255,1.99674796060221,0,2.00035228577688,2.00975822527014,1.92055599581358,1.99398207470614,0,1.99693106803087,2.00824517967542,1.92082583834002,2.00466012896692,0,2.00126782292018,1.92075837770841,1.92134624892674,1.919168234249,0,2.01077977197739,1.92113422979882,1.9212209648966,2.00509380445586,0,2.00814880734455,1.91950553740705,1.92073910324224,2.00863066899891,0,2.00162440054441,1.99426155446567,2.00401443435007,2.02174694323081,0,1.99814535939987,1.91851290239906,1.91991030119672,2.00471795236545,0,2.00809098394602,2.00357112162805,2.00514199062129,2.00227009516126,0,2.00993169546571,1.99827064343001,2.00069922616802,1.99796225197121,0,1.91648908345071,1.91580483990151,1.91438816663767,1.91480256766043,0,1.99244011741216,1.98980915277931,1.9977405956102,1.91239325938859,0,1.98332329491152,1.84708173075558,1.84606982128141,1.965504050933,0,1.84153068449726,1.84070188245175,1.84122229303847,1.8406633335194,0,1.83713610620943,1.95029649712115,1.83604709887056,1.83490990536625,0,1.83794563378877,1.83615310843452,1.96512819884259,1.83687590091607,0,1.88541864397708,1.83656750945728,1.84085607818115,1.8388322592328,0,1.83856241670636,1.83727102747265,1.9345588954895,1.83834076034535,0,2.02585240452602,1.84083680371497,1.92896930029884,1.8379938199542,0,1.837309576405,1.83900572942838
1.87925081480117,0,1.91453272513398,1.81978908665219,1.81624258487604,1.81737977838035,0,1.81797728683177,1.98394007782911,1.86129664955943,1.86165322718366,0,1.8133032287844,1.81054698012142,1.91496640062291,1.91030197980863,0,1.81034459822658,1.99702744036174,1.8085809845716,1.97890944215751,0,1.8042345924492,1.85211236642718,1.85226656215658,1.9165758185485,0,1.80136269698917,1.89360065486824,1.93117622667584,1.8465324084696,0,1.79773909734832,1.84573251812335,1.79753671545349,1.79927141740921,0,1.79942561313861,1.88129390821569,1.79874136958941,1.84716846585337,0,1.96652559764026,1.80043752261278,2.04157073169149,1.95499946686778,0,1.86014018158895,1.9315906276986,1.93107021711188,1.92762972489969,0,1.9270900398468,1.92568300381605,1.95441159564945,2.03224189006293,0,1.92260872646118,1.84742867114672,1.91797321734616,1.91723115039844,0,1.91596867286399,2.03920960958509,1.9142146964421,1.91248963171946,0,1.91286548380987,1.91062000850051,1.90970447135721,1.95123130873063,0,1.91027306810937,1.91031161704172,1.90838417042425,1.90717951628833,0,1.83194163757535,1.83225966626723,1.90781557367209,1.90793122046914,0,1.90816251406324,1.95259015859594,1.83816729014978,1.91571810480372,0,1.8399790899702,1.95158788635486,1.91865746089537,1.95555842638685,0,1.92151008188922,1.95114457363284,1.929759553412,1.93130151070598,0,1.95100965236962,1.88015671471138,2.01750656067237,2.02119762094483,0,2.00822590520925,2.00410116944786,2.00429391410961,1.99413627043553,0,1.99656485317355,1.99489761184943,1.99579387452656,1.91910077361739,0,1.92013195755773,1.91899476405342,1.99394352577379,1.91939952784309,0,2.00162440054441,2.00226045792817,1.99783696794108,1.91874419599315,0,2.00188460583777,2.00895833492388,1.99792370303886,2.00974858803705,0,1.99447357359359,2.00644301708809,1.92292675515307,2.00337837696631,0,2.01484668434026,1.99981260072398,2.00086305913051,2.0082644541416,0,2.00139310695031,2.00183641967233,2.00570095014036,2.00253030045462,0,1.92201121800977,2.00758021059239,2.00440956090665,2.0037638662898,0,2.01152183892512,1.99462776932299,2.00911253065328,2.00801388608132,0,2.00797533714897,1.91995848736216,2.00419754177873,2.02538981733783,0,1.91793466841382,1.92098003406942,1.91866709812845,1.99200644192323,0,2.01101106557149,1.91609395689413,2.00112326442387,2.01118453576706,0,1.91706731743595,1.91699021957125,1.91599758456326,1.91481220489351,0,1.9142917943068,1.98828646995151,1.98805517635741,1.91490857722439,0,1.99369295771351,1.84822856149298,2.03338872080033,1.95339004894219,0,1.84248477057291,2.0309697752954,1.84038385375987,1.83795527102185,0,1.83703009664547,1.93953170776258,1.96498364034628,1.96418375000003,0,1.94662471131487,1.83561342338163,1.83749268383366,1.8360181871713,0,1.83459187667437,1.9200066735276,1.9325061648419,1.93094493308174,0,1.8872304437975,1.88763520758717,1.83862024010488,1.93717058565618,0,1.83920811132321,1.84128975367008,1.83892863156368,1.83889008263133,0,1.93613940171583,1.83703009664547
1.88034945937313,0,1.86837037864555,1.81583782108637,2.00381205245524,1.81740869007961,0,1.86661640222365,1.90739153541625,1.90180194022558,1.81509575413865,0,1.86116172829621,1.8139103744689,1.91828160880496,1.91400267731417,0,1.80928450258697,1.80830150481206,1.80794492718783,1.91523624314936,0,1.80569945187848,1.80612349013432,1.80292392874932,1.80327086914046,0,1.9855494957547,1.8496548719899,1.80055316940983,1.90752645667947,0,1.79994602372533,1.79953162270257,1.79910758444673,1.799358152507,0,1.79934851527391,1.97112255782293,1.84694680949236,1.84758286687612,0,1.79963763226653,1.85048367403542,1.93497329651226,1.95860379204245,0,1.93266036057129,1.9330362126617,1.85726828612891,1.92855489927608,0,1.92729242174164,1.92592393464323,1.92544207298887,1.92125951382895,0,1.92361099870227,1.92265691262662,1.92024760435478,1.91871528429389,0,1.91664327918011,1.91762627695502,1.84180052702371,1.91388703051713,0,1.91243180832094,1.91180538817026,1.91190176050113,1.90746863328095,0,2.03799531821609,1.91073565529756,1.91066819466595,1.95478744773986,0,1.90776738750666,1.90854800338673,1.90904913950727,1.90911660013889,0,1.90854800338673,1.90930934480063,1.90982011815426,1.9532358532128,0,1.84092353881276,1.84365087577648,1.91780938438368,1.95352497020542,0,1.92369773380005,1.92830433121581,1.93054016929208,1.9369200175959,0,2.0605464436405,1.92451689861248,2.01496233113731,2.02382858557767,0,1.99702744036174,2.00713689787037,1.99767313497859,2.00199061540173,0,1.99453139699211,1.99699852866248,1.92066200537754,1.92006449692612,0,1.91841653006818,1.91908149915121,1.993856790676,1.99488797461635,0,2.0110014283384,2.0069634276748,1.99409772150318,2.00152802821353,0,1.99434828956345,1.99827064343001,1.99993788475412,1.92126915106204,0,2.01735236494297,2.01226390587285,1.92369773380005,2.01157002509056,0,1.92245453073179,1.92212686480681,2.0043710119743,2.00622136072708,0,2.01090505600753,2.0031567206053,1.99843447639249,2.01396969612931,0,2.0082644541416,1.92224251160386,2.01751619790546,1.92127878829513,0,1.92272437325823,2.01827753931936,2.00754166166004,2.00187496860468,0,2.01784386383043,2.02280703887041,1.91968864483571,1.92087402450546,0,2.00012099218278,2.01704397348418,2.00249175152227,1.91787684501529,0,1.99642993191032,2.00359039609423,1.98857558694413,2.01701506178491,0,2.00367713119201,1.91564100693902,1.91355936459216,1.91484111659277,0,1.91380029541934,1.91532297824714,1.91457127406633,1.9981260849337,0,1.91518805698392,1.85067641869716,1.84730338711659,1.8447784320477,0,1.84331357261842,1.94827267817281,1.94749206229273,1.83983453147389,0,1.83840822097696,1.83806128058582,1.83571943294559,1.88430072493895,0,1.88520662484916,1.94006175558238,1.9321206755184,1.93224595954854,0,1.94467799023123,1.90705423225819,1.8368566264499,1.83667351902124,0,1.8381480156836,1.88760629588791,1.83866842627032,1.93922331630378,0,1.83760833063071,1.84120301857229,1.94464907853196,1.83934303258643,0,1.83709755727708,1.83729993917191
1.82366325435331,0,1.87067367735343,1.81767853260606,2.00486251086176,2.00164367501058,0,1.9177901099175,1.90721806522068,1.9016381072631,1.8847922238264,0,1.81535595943201,1.8155101551614,1.81252261290432,1.81181909488895,0,1.8113950566331,1.80945797278255,1.99754785094846,1.80768472189447,0,1.80721249747319,1.8049188359984,1.80249025326039,1.80337687870442,0,1.80159399058326,1.80107357999655,1.9124607200202,1.80109285446272,0,1.79957980886801,1.79994602372533,1.79945452483787,1.8014879810193,0,1.80116031509433,1.97596044883278,1.8006495417407,1.80196020544058,0,1.85031984107293,1.8837224909537,2.04902031286802,2.03383203352235,0,1.95768825489916,1.93405775936896,1.85821273497148,1.93018359166784,0,1.85663222874515,1.95417066482227,1.92600103250793,2.04597494721242,0,1.84892244227526,1.84930793159876,1.8482863848915,1.95462361477738,0,1.91816596200791,1.91717332699991,1.91754917909032,1.95456579137885,0,1.9108609393277,1.9554427795898,1.91088021379387,1.83603746163747,0,1.91031161704172,1.8333486736061,1.90906841397345,1.90997431388366,0,1.90792158323605,1.90790230876988,1.90860582678526,1.91022488194393,0,1.90818178852941,1.95279254049078,1.9105525478689,1.95525967216114,0,1.84123193027156,1.95301419685179,1.91917787148208,1.9240446741912,0,1.85221837599114,1.92870909500548,1.92857417374226,1.9357057262269,0,1.95131804382841,1.88129390821569,1.92486383900362,2.01686086605552,0,1.99875250508438,2.00416863007947,1.92161609145319,2.01187841654935,0,1.99519636607514,1.99776950730947,1.9214522584907,1.9197753799335,0,1.91921642041443,1.99468559272151,1.92082583834002,1.99607335428609,0,2.01344928554259,1.92159681698701,1.99456994592446,2.01956892855306,0,2.00784041588575,2.00924745191651,2.00820663074307,2.01129054533103,0,1.92124023936278,1.92276292219058,1.92387120399563,1.92374591996549,0,2.00800424884824,2.0139022354977,1.99860794658807,1.92211722757373,0,2.00722363296816,1.92130769999439,1.92337970510817,2.01441300885133,0,2.00817771904381,2.00738746593065,1.9215293563554,1.92100894576868,0,2.00308925997369,2.01504906623509,1.92075837770841,1.99489761184943,0,1.99428082893184,2.01007625396202,2.02468629932245,1.92095112237016,0,2.01377695146756,2.00718508403581,1.91788648224838,1.91538080164567,0,1.91795394287999,2.00218336006347,1.99095598351671,1.91792503118073,0,1.91738534612784,1.99420373106714,1.91866709812845,1.91640234835293,0,1.91538080164567,1.9150531357207,1.91412796134431,1.99186188342692,0,1.91458091129942,1.84819001256063,1.84595417448436,1.84599272341671,0,1.94882200045879,1.94720294530011,1.94723185699938,2.02754855754939,0,1.94502493062237,1.94447560833639,1.88374176541988,1.83354141826785,0,1.83234640136501,1.83309810554583,1.83359924166637,1.83591217760734,0,1.83668315625432,1.8371553806756,1.8340329171553,1.83642295096097,0,1.83729993917191,1.83498700323095,1.83834076034535,1.83821547631521,0,1.88743282569234,1.83779143805937,1.83710719451017,1.83819620184904,0,1.94524658698338,1.94468762746431
1.82432822343633,0,1.82296937357102,2.10455968715045,1.82106120141972,1.82226585555564,0,1.82051187913374,1.82038659510361,1.92497948580067,1.81651242740249,0,1.81438259889018,1.86209653990568,1.81268644586681,1.92118241596425,0,1.81212748634774,1.99128364944168,1.81200220231761,1.80792565272166,0,1.80643188159312,1.99709490099335,1.98770823596627,2.0004101091754,0,1.99985114965633,1.80435023924625,1.98511582026577,1.98756367746996,0,1.89861201607367,1.89901677986334,1.89099860193466,1.79856789939383,0,1.80153616718474,1.80249025326039,1.80052425771057,1.80368527016322,0,1.97009137388258,1.97172970350743,1.93748861434806,1.93820176959652,0,1.93541660923428,1.93416376893292,1.93357589771459,1.93206285211988,0,1.85669005214367,1.92599139527484,1.85477224275929,1.95833394951601,0,1.92598175804176,1.92403503695811,1.9587965367042,1.9206138192121,0,1.84372797364118,1.92093184790398,1.91882129385785,1.91588193776621,0,1.91409904964505,1.83991162933859,1.91191139773422,1.91194030943348,0,1.91125606588428,1.91502422402143,1.90998395111675,1.90964664795869,0,1.95589572954491,1.90798904386766,1.91135243821515,1.9557511710486,0,1.91046581277112,1.90991649048514,2.02844482022652,1.91410868687814,0,1.91452308790089,1.95419957652153,1.95434413501784,1.92273401049132,0,2.04719887581451,1.92863199714078,1.93070400225456,1.86236638243213,0,1.95177099378352,2.03677138961399,1.92451689861248,2.022209530419,0,2.00005353155117,1.92437234011617,1.92383265506328,1.99920545503948,0,1.99909944547552,1.92178956164876,1.92054635858049,1.9215293563554,0,1.99770204667785,1.99367368324734,1.99421336830023,2.00462158003458,0,1.99654557870737,2.00158585161206,1.99479160228547,1.92143298402453,0,1.99588060962434,2.01564657468651,2.01444192055059,2.01264939519634,0,2.01539600662624,2.00717544680272,2.01689941498787,2.0037638662898,0,2.0103942826539,2.01114598683471,2.00678995747923,2.0280015075045,0,2.00237610472522,2.00548893101244,2.00925708914959,2.00116181335621,0,1.92257981476192,2.00356148439497,1.92363991040153,2.02073503375663,0,1.99821282003148,1.99990897305486,1.92106676916721,1.99474341612004,0,1.99150530580268,2.01514543856597,2.00356148439497,1.92119205319734,0,2.0152707225961,2.00435173750813,2.01478886094173,2.01081832090974,0,1.91651799514997,1.99380860451056,1.99302798863049,1.91797321734616,0,1.99108126754684,1.91829124603805,1.91697094510508,1.916190329225,0,1.91504349848761,1.91726969933079,1.91674928874407,2.00806207224676,0,2.00909325618711,1.84741903391364,1.84692753502618,1.84192581105385,0,1.94923640148154,1.95012302692558,1.84049950055692,1.83836003481152,0,1.83495809153169,1.83415820118544,1.88336591332947,1.94494783275767,0,1.83467861177215,1.95520184876262,1.83390763312517,1.83339685977154,0,1.83369561399724,1.83367633953107,1.83633621586318,1.83466897453907,0,1.94687527937514,1.83648077435949,1.8855535652403,1.88560175140574,0,1.88701842466958,2.02503323971359,1.83673134241976,2.03359110269516,0,1.93595629428717,1.83839858374387
1.82676644340744,0,1.93178337236034,1.82159124923953,1.82266098211222,1.93060762992369,0,2.00562385227566,1.9236591848677,1.92860308544152,1.8181025708619,0,1.81808329639573,1.92128842552821,1.81458498078502,1.92119205319734,0,2.00270377065019,1.86043893581465,1.85892589021994,1.8110192045427,0,1.91854181409832,1.81006511846705,1.98987661341092,1.80652825392399,0,1.80701975281144,1.98753476577069,1.98919236986172,1.80312631064415,0,1.89972029787871,1.8019505682075,1.85058968359938,1.90382575917393,0,1.8033190553059,1.80397438715584,1.8039262009904,1.80413822011833,0,1.80754980063125,1.80512121789324,1.94021595131178,1.86417818225255,0,1.96091672798342,1.93459744442185,1.93420231786527,1.93264108610512,0,1.85691170850468,1.92925841729146,1.92937406408851,1.9272442355762,0,1.92550953362048,1.92377483166475,1.92782246956144,1.84772742537243,0,1.91958263527175,1.84435439379186,1.95874835053876,1.96072398332167,0,1.91576629096916,1.91437852940458,1.84048986332383,1.83886117093207,0,1.95741841237271,1.9154289878111,1.91344371779511,1.90997431388366,0,1.91091876272622,1.95764970596681,2.03457410047008,2.04150327105988,0,1.91094767442548,1.91264382744886,1.91564100693902,1.91464837193103,0,1.91597831009708,1.84351595451326,2.03119143165641,1.9230520391832,0,1.85295080570578,1.92856453650917,1.93054016929208,1.95142405339237,0,1.9523203160695,2.0609993935956,2.01196515164714,1.92638652183143,0,2.00120036228856,2.00975822527014,1.99749002754993,1.9977405956102,0,1.99815499663296,1.99407844703701,1.99488797461635,1.92319659767951,0,1.92206904140829,1.92058490751284,2.0113098197972,1.99668049997059,0,2.0071176234042,2.00903543278858,2.01673558202538,2.01073158581196,0,2.01918343922957,2.00814880734455,2.01098215387223,2.00686705534393,0,1.92330260724347,1.92370737103314,2.00733927976521,2.00785005311884,0,1.9238904784618,2.01091469324062,2.0276931160457,1.99880069124981,0,2.00726218190051,2.00120999952165,1.92443016351469,1.99671904890294,0,2.01075086027813,2.01407570569327,2.01387332379844,2.01210971014345,0,2.01434554821972,1.99449284805977,1.99483015121782,2.01803660849217,0,2.02191077619329,2.00174004734146,2.0045252077037,2.00547929377935,0,1.92019941818934,1.99411699596936,2.00504561829042,2.01418171525723,0,2.0090257955555,1.99162095259973,1.99411699596936,1.99917654334022,0,1.99412663320245,1.91867673536154,1.99131256114094,1.99092707181744,0,1.91442671557002,1.91440744110384,1.99332674285619,1.91608431966104,0,1.91428215707371,1.95510547643174,1.94767516972139,2.0381398767124,0,2.02945672970069,2.04261155286493,1.83940085598496,2.02085068055368,0,1.8363940392617,1.83724211577339,1.83714574344252,1.83099718873278,0,1.93692965482899,1.83753123276601,1.83348359486932,1.83468824900524,0,1.8348713564339,1.83371488846342,1.83495809153169,1.83218256840253,0,1.9464512411193,2.01992550617729,1.93976300135667,1.93744042818262,0,1.88716298316589,1.83200909820696,1.94433104984008,2.01856665631198,0,1.83679880305137,1.93787410367155
2.08667298254032,0,1.82416439047385,1.8218418172998,2.00665503621601,1.8239716458121,0,2.01075086027813,1.92738879407251,1.92690693241814,1.924574722011,0,1.92091257343781,1.92344716573978,1.86365777166583,1.92426633055221,0,1.81349597344615,1.93729586968631,1.8139103744689,1.81100956730961,0,1.81171308532499,1.81014221633175,1.80952543341416,1.80752088893199,0,1.8082725931128,1.98523146706282,1.89812051718621,1.8041574945845,0,1.80414785735141,1.86386979079375,1.89366811549985,1.80350216273456,0,1.8039262009904,1.80332869253899,1.85192925899852,1.80518867852485,0,1.80509230619397,1.8081183973834,1.86652002989278,1.86391797695919,0,1.96200573532229,1.93449143485789,1.93816322066417,1.96161060876571,0,1.96175516726202,1.96190936299142,1.92949934811864,1.96114802157752,0,1.92722496111003,1.92542279852269,1.95897000689977,1.92375555719858,0,1.84695644672544,1.91776119821824,1.91800212904543,1.96188045129216,0,1.95749551023741,1.91468692086338,1.91158373180925,1.83828293694682,0,1.91385811881786,1.91490857722439,1.91351117842672,2.03808205331387,0,1.91028270534246,1.83739631150279,1.91464837193103,1.91361718799068,0,1.83894790602985,1.91217160302758,1.957119658147,1.91781902161677,0,2.0289170446478,1.91991993842981,1.92216541373916,2.04433661758757,0,1.95604992527431,1.9294511619532,1.8607087783411,1.93724768352088,0,2.05143925837295,2.0478927565968,2.0402697052247,2.00031373684453,0,2.00023663897983,2.013825137633,2.00531546081686,2.01500088006966,0,1.92544207298887,2.00057394213789,1.99711417545953,1.9241988699206,0,1.92402539972502,1.92330260724347,1.92358208700301,1.99692143079778,0,2.00102689209299,1.92377483166475,2.01698615008565,2.01341073661024,0,2.01785350106351,2.018017334026,2.01310234515145,2.01066412518035,0,2.01125199639868,1.92477710390584,2.00768622015635,2.00573949907271,0,2.01082795814283,2.01424917588884,1.9248831134698,2.01034609648846,0,2.00329164186852,2.00549856824552,1.99704671482791,2.00521908848599,0,2.00752238719387,2.0144322833175,2.01323726641467,2.02031099550079,0,1.92369773380005,1.92374591996549,2.00020772728057,1.99748039031684,0,1.92325442107804,2.004448109839,1.99550475753394,1.92107640640029,0,1.92284965728837,2.00773440632179,1.92193412014507,1.92011268309156,0,2.00794642544971,2.00098834316064,2.02238300061457,2.00801388608132,0,1.91827197157187,1.9170287685036,1.91736607166166,1.91543862504419,0,1.91765518865428,1.99313399819445,1.91477365596116,1.91441707833693,0,2.00541183314774,1.95481635943912,1.84519283307046,1.84330393538534,0,1.84158850789579,1.84144394939948,1.83994054103785,2.02191077619329,0,1.83390763312517,1.83423529905014,1.83511228726108,1.83360887889946,0,1.83410037778691,1.94166153627488,1.83318484064361,1.83357032996711,0,1.88112043802012,1.88333700163021,1.88145774117818,1.94516948911868,0,1.83558451168237,1.83519902235887,1.83701082217929,1.93773918240833,0,1.88351047182578,1.83437022031336,1.93381682854178,1.93373009344399,0,1.83755050723219,1.83486171920081
2.11295371716953,0,1.8248871829554,2.10142758639706,1.82372107775183,1.93076182565308,0,1.82401983197754,1.82190927793141,1.92790920465923,1.92821759611802,0,1.90904913950727,1.86372523229744,1.86507444492967,1.91035980320715,0,1.81699428905686,1.81478736267985,2.00436137474122,1.81159743852794,0,1.80770399636065,1.81017112803101,1.86059313154405,1.81042169609128,0,1.91481220489351,1.9174913556918,1.8058343731417,1.91271128808047,0,1.80493811046458,1.80488992429914,1.85202563132939,1.80504412002854,0,1.98057668348162,1.80444661157712,1.85416509707479,1.80672099858574,0,1.80679809645044,1.90050091375879,1.86704044047949,1.94085200869555,0,1.96431867126326,1.93591774535482,1.93726695798705,1.934944384813,0,1.85827055837,1.93389392640648,1.93155207876625,1.92928732899072,0,1.92806340038863,1.92532642619182,1.92423741885295,1.92493129963524,0,1.92115350426499,1.91858036303067,1.91708659190213,1.96177444172819,0,1.91791539394764,1.91533261548023,1.84031639312826,2.03163474437843,0,1.91722151316535,1.91606504519487,2.03858318943441,1.95985663234381,0,1.91206559346362,1.91187284880187,1.83836967204461,1.83766615402923,0,1.91235471045624,1.91538080164567,2.05181511046335,1.91807922691013,0,1.95846887077923,1.91963082143719,1.92080656387385,1.92254126582957,0,1.95677271775586,1.92974027894583,1.93155207876625,1.86336865467321,0,1.95542350512363,2.00156657714588,2.01344928554259,2.01622480867175,0,1.92762972489969,1.92722496111003,2.02041700506475,1.92511440706389,0,1.92478674113892,1.92438197734926,1.92387120399563,1.92402539972502,0,1.92310022534864,1.92411213482281,2.01190732824862,1.99959094436298,0,1.99639138297797,2.01821007868775,1.99824173173075,2.02850264362504,0,1.92471928050731,2.03198168476958,1.92228106053621,2.007426014863,0,2.01736200217606,2.0180944318907,2.02080249438824,2.01408534292636,0,2.02288413673511,2.01254338563238,1.92580828784618,2.00892942322462,0,2.00181714520615,2.00400479711698,2.01004734226276,2.00540219591465,0,1.92367845933388,1.99931146460344,1.92418923268751,2.00738746593065,0,2.00807170947985,2.01468285137777,1.9239675763265,1.92237743286709,0,1.99749002754993,2.01967493811702,1.99708526376026,2.01080868367666,0,1.92223287437078,2.00450593323753,2.00410116944786,2.00413008114712,0,2.01177240698539,2.01085686984209,2.00702125107333,2.01073158581196,0,1.91579520266842,1.91553499737506,1.91709622913522,1.91819487370717,0,1.91724078763153,1.91543862504419,1.99989933582177,1.99094634628362,0,2.0010943527246,1.95648360076324,2.02399241854016,1.84271606416701,0,1.84022002079738,1.88742318845925,1.89931553408905,1.93766208454363,0,1.83490026813316,1.83445695541114,1.83417747565161,1.83371488846342,0,1.95086509387331,2.03493067809431,1.83172961844742,1.83157542271803,0,1.83186453971065,1.88188177943402,1.88245037618617,1.8325873321922,0,2.02892668188088,1.94365644352397,2.0253319939393,1.83652896052493,0,1.94114112568817,1.83549777658458,1.93018359166784,1.93317113392492,0,1.83459187667437,1.8890615180841
