1.95208865257463,1.87990372375855,2.0031075904701,0,1.88317342436695,1.8824672464249,2.08023576488053,2.00210152874444,1.96079495596976,2.0823349513658,1.89273101076071,1.96932713329699,1.99477856022209,0,1.99397564557565,2.0810967215496,1.96816629284431,2.05007326045162,2.04993782906547,2.04809015801162,2.05487140098938,2.05494879035289,2.03608513299677,0,2.03536928138428,1.95919880034732,1.95881185352976,2.03023256238116,2.02926519533725,1.95660625666966,2.03110319272067,2.02908139559891,2.03012615200633,0,1.9558226893641,2.03488559786233,2.04778060055757,2.03397627284106,1.95501977471766,2.03831007719775,1.95471021726361,2.03329911591033,2.03793280405063,0,2.03047440414213,2.02932323735989,2.0380005197437,2.04560402470878,2.02872346979267,2.04637791834391,1.94810310035375,2.03969341207053,2.03136438182252,0,1.94998946608936,1.95028934987297,2.03260261163872,2.01863383152475,1.94458188431394,2.03325074755814,2.0260051683993,2.03210925444633,2.02354805610778,0,1.94079947917228,2.02790120780535,2.02507649603715,2.01613802455148,2.03202219141238,2.03313466351287,2.02514421173022,2.02988431024535,2.0252119274233,0,1.93499527690886,1.93403758353539,2.03152883421999,1.93176427098222,1.93083559862007,1.92842685468075,1.92814631823802,2.01536413091636,1.92562149025343,0,1.92498302800446,2.001695234586,1.92362871414299,1.92241950533811,1.92209060054319,2.00119220372317,1.99606515839049,1.995745927266,1.99437226606365,0,1.94888666765931,1.84618130860808,1.84307606039715,1.84256335586388,1.84046416937861,1.83881964540397,1.9389711554593,1.83365390538953,1.83192231838094,0,1.82959096380513,1.82774329275128,1.82734667226328,1.82679527304825,1.8248992336422,1.82340948839459,1.94645857637911,1.94456253697306,1.81870808456122,0,1.81787614890346,1.9476194168318,1.9476194168318,1.81531262623712,1.81473220601077,1.81259432484375,1.81213966233311,1.85950195280263,1.92749818231861,0,1.80937299258755,1.80869583565682,1.80662567018286,1.85810894425941,1.80733184812491,1.80429431560706,1.8042072525731,1.80610329197916,1.88734277632617,0,1.91540609426981,1.80505853557174,1.80389769511906,1.80443942066364,1.80412986320959,1.80539711403711,1.73408281556054,1.73077442027039,1.96982049048938,0,1.84043514836729,1.72419632437185,1.72484446029126,1.81718931830229,1.72035587720755,1.71822766971096,1.83943876031207,1.71724095532618,1.76454520377306,0,1.76373261545618,1.76262014335569,1.82754014567206,1.84321149178329,1.70867975698763,1.93881637673228,1.89238275862491,1.84426592186115,1.89499464964345,0,1.84488503676925,1.84446906894037,1.81076600113077,1.80781553164686,1.70541973004968,1.84122838934329,1.70695784364949,1.70501343589124,1.840560906083,0,1.7047812678007,1.70385259543855,1.70648383379797,1.84620065594895,1.84140251541119,1.70675469657027,1.84444004792905,1.94933165649951,1.84058992709431,0,1.84054155874212,1.70740283248968,1.80485538849252,1.80296902275691,1.71054677538237,1.83627547007851,1.83740728951987,1.70819607346568,1.71155283710803
1.95340427175434,2.00345584260591,1.95433294411649,0,1.88239953073182,1.95742851865698,1.95768003408839,1.8854177159088,1.88803928059778,1.99777739805819,1.96820498752606,1.89546865949496,1.9963650421741,0,1.996142547754,2.08403751736307,2.04874796760147,2.04847710482918,1.96439356137309,2.03399562018194,2.04491719410761,2.05168876341494,2.03559177580438,0,1.9614237445483,1.96400661455552,1.95784448648586,1.95826045431474,1.95818306495122,1.96081430331064,1.95669331970361,2.03189643369667,1.95563888962576,0,2.04588456115152,2.03775867798273,2.03902592881024,2.04809983168205,2.04105739960244,1.95325916669776,2.04180227222624,1.95438131246868,2.03546601808868,0,2.02971018417745,1.95254331508527,2.03526287100946,1.95145019032566,2.0420634613281,1.95206930523375,2.02586006334271,2.03908397083287,2.03427615662467,0,2.03315401085375,2.02753360832867,2.01941739883032,2.03183839167404,2.02623733648984,2.03310564250155,2.02282253082486,1.9421924877155,1.94136055205774,0,2.03787476202799,1.94019971160506,2.02812370222545,2.03012615200633,2.02589875802447,2.02451542315169,1.93652371683823,2.02343197206252,2.01888534695617,0,2.01870154721783,1.93261555398086,1.9320061127432,2.02162299569042,2.02879118548574,2.0192142517511,1.92781741344309,2.01428067982719,1.99515583336922,0,1.92430587107372,1.92420913436933,1.92327078833675,1.92130703323762,1.92197451649792,1.92307731492797,1.92146181196465,1.99538800145975,1.8495574195913,0,1.84785485359403,1.84721639134505,2.04798374763679,1.8403384116629,1.8379103203827,1.83759108925821,1.93905821849325,1.93255751195822,1.95234984167649,0,1.95107291717853,1.83099364601879,1.82787872413742,1.87415756351777,1.82588594802698,1.95417816538946,1.94617803993638,1.94526871491511,1.86840172960654,0,1.81862102152727,1.94886732031843,1.94943806687434,1.94976697166926,1.94719377533248,1.81215900967399,1.81232346207145,1.85916337433726,1.85792514452107,0,1.92783676078397,1.8574124399878,1.85737374530604,1.80736086913623,1.80727380610228,1.80726413243184,1.80754466887457,1.80625807070618,1.94131218370555,0,1.80401377916432,1.80495212519691,1.80493277785603,1.80382997942598,1.80610329197916,2.03328944223989,1.73360880570903,1.73162570326902,1.73059062053205,0,1.72967162184034,1.84071568481002,1.72459294485985,1.72395448261087,1.71917568941399,1.84265041889783,1.84065764278739,1.71424211749008,1.71399060205866,0,1.76302643751413,1.76275557474184,1.76113039810808,1.70978255541768,1.84325986013549,1.80499081987867,1.71006309186042,1.70845726256754,1.70811868410217,0,1.70429758427875,1.70708360136519,1.84306638672671,1.84250531384124,1.70373651139329,1.70305935446255,1.70599047660558,1.70610656065085,1.70699653833124,0,1.70525527765221,1.70580667686724,1.70501343589124,1.70535201435661,1.707035233013,1.83397313651402,1.70511984626607,1.70644513911622,1.70552614042451,0,1.83740728951987,1.70697719099036,1.70719968541046,1.83851008794992,1.83561766048865,1.70845726256754,1.80749630052238,1.83849074060904,1.93487919286359
1.952823851528,1.95189517916585,1.88196421556207,0,2.00207250773313,1.95733178195259,1.957186676896,1.88795221756383,1.99791282944434,1.99723567251361,1.96705382074382,1.89396924057691,1.89759686699155,0,1.99462378149507,2.07949089225672,2.08245103541107,2.05349773978704,1.9648675712246,1.96376477279455,2.04900915670332,2.04822558939776,2.04593292950371,0,2.03852289794741,1.96058213522011,1.95845392772352,1.95628702554517,1.96148178657094,1.95849262240527,1.95686744577152,2.0318287180036,2.02898465889452,0,2.02932323735989,2.0391903812077,2.05255939375445,1.95562921595532,2.03637534310994,2.03854224528829,2.03836811922039,2.03792313038019,2.04202476664634,0,2.04481078373278,2.04267290256576,2.04297278634937,2.03580459655404,1.95368480819707,1.9519822421998,1.94975729799883,2.03135470815209,2.03206088609414,0,2.02869444878135,2.03467277711267,2.04096066289805,2.02364479281217,2.02734013491989,2.03894853944673,2.01749233841295,1.94289866565755,2.03385051512536,0,2.03560144947482,1.94158304647784,1.94098327891062,2.03952895967307,2.02528931678681,2.02553115854779,1.9353532027151,2.02802696552106,2.01936903047812,0,2.01773418017392,1.93170622895959,2.01689257084573,1.93009072599627,2.01615737189236,2.02208733187149,1.92800121318144,1.92582463733265,2.00216924443752,0,1.92480890193655,1.92540866950377,1.92320307264367,1.92101682312445,1.92469281789129,1.99777739805819,1.92134572791938,2.01084652682133,1.85066989169179,0,1.97059438412451,1.84315344976066,1.84189587260358,1.83879062439265,1.88772004947329,1.90884734571215,1.8361497123628,1.83516299797802,1.83078082526913,0,2.04916393543035,1.82823664994367,1.94978631901014,1.82550867487986,1.82390284558698,1.82116519685273,2.03096776133452,1.81881449493605,1.8176633281538,0,1.91271681388776,1.81648314036024,1.81536099458931,1.81395831237565,1.94595554551628,1.81385190200082,1.81033068596101,1.8586023014518,1.85805090223677,0,2.01614769822192,1.80960516067809,1.85811861792985,1.80687718561428,1.80717706939789,1.80763173190852,2.01124314730933,1.94475601038184,1.80510690392393,0,1.9398127647875,1.93752977856388,1.80484571482208,1.80665469119418,1.8050972302535,1.80542613504842,1.73391836316308,1.73132581948541,1.73031975775975,0,1.72411893500833,1.72313222062355,1.72418665070141,1.7216328017055,1.71944655218628,1.84523328890505,1.71542230528364,1.71397125471779,1.78117424325776,0,1.83139026650679,1.71424211749008,1.71041134399622,1.84348235455559,1.71232673074315,1.70997602882646,1.84154762046778,1.84169272552436,1.70812835777261,0,1.7055745087767,1.70431693161963,1.92819468659022,1.92596974238924,1.92426717639197,1.70705458035388,1.70533266701573,1.70449105768753,1.705052130573,0,1.84201195664885,1.95153725335961,1.89091236071818,1.70433627896051,1.70409443719953,1.70501343589124,1.70454909971017,1.70488767817553,1.70444268933534,0,1.70494572019817,1.70812835777261,1.70697719099036,1.70783814765944,1.83631416476026,1.83860682465431,1.70609688698041,1.70938593492968,1.71070155410939
1.95664495135142,1.95731243461171,1.88237050972051,0,1.95549378456917,1.9537912185719,1.95795089686069,1.96246850095572,1.96153015492313,1.96463540313406,1.96617351673387,1.96868867104802,1.99555245385722,0,2.0825574457859,2.08232527769536,2.04189900893063,2.04144434642,2.05511324275036,2.0394128756278,2.05786056515504,2.03567883883833,2.04471404702839,0,2.04671649680927,1.95821208596254,1.95810567558771,1.95908271630205,2.02869444878135,1.9542362074121,2.06774705634374,2.05893434257377,2.04908654606684,0,2.0294006267234,2.02823978627072,1.95640310959044,1.95647082528352,1.95402338666244,1.95476825928624,2.03564014415658,2.03775867798273,2.03898723412848,0,1.95403306033288,2.03776835165317,2.04661008643444,2.03598839629238,2.03533058670253,2.03833909820907,2.03613350134897,1.94821918439902,2.03271869568399,0,2.0361915433716,2.03973210675229,2.01958185122778,2.02630505218291,1.94671976548097,2.0396353700479,2.02418651835676,1.94310181273677,2.03453734572653,0,2.02556985322954,2.03079363526662,2.02207765820105,2.02185516378095,2.03168361294701,2.0317803496514,2.01358417555558,1.93629154874769,2.01932066212593,0,2.02115865950934,2.02512486438935,2.01990108235227,2.03140307650428,1.93151275555081,1.92946193741773,1.92771100306826,2.03089037197101,2.02453477049257,0,1.92285482050787,1.92334817770026,1.92517650141324,1.92125866488543,1.92210994788406,1.92418011335802,2.00758649988338,2.01394210136182,2.01347776518075,0,1.96983983783026,1.84436265856554,1.93533385537422,1.84058025342388,1.88723636595134,1.90779291563429,1.83507593494407,1.83396346284358,1.83053898350816,0,1.82725960922932,1.82746275630854,1.82845914436376,1.82506368603966,1.82444457113157,1.82351589876942,1.92602778441187,1.86779228836888,1.86817923518644,0,1.91156564710551,1.81752789676766,1.81694747654131,1.81446134323848,1.81326180810404,1.81282649293428,1.81040807532453,1.81065959075594,1.85771232377141,0,1.80942136093974,1.81016623356355,1.85687071444321,1.94535577794906,2.01800504294622,1.80614198666091,1.80743825849974,1.93640763279296,1.90044092610062,0,1.93813921980154,1.80404280017564,1.80384932676686,1.93610774900935,1.80513592493525,1.87992307109943,1.88242855174314,1.88592074677163,1.72693397310609,0,1.72652767894765,1.82213256389664,1.83409889422972,1.72012370911701,1.71967872027682,1.71900156334608,1.71875004791467,1.71640901966842,1.77974254003278,0,1.77892027804547,1.83889703476748,1.8106982854377,1.80936331891711,1.70909572481651,1.70831215751095,1.84247629282993,1.83820053049587,1.8108240431534,0,1.80894735108823,1.83924528690329,1.84072535848046,1.70512951993651,1.89269231607896,1.79849978701407,1.70715131705827,1.70551646675407,1.84252466118212,0,1.70523593031134,1.94874156260273,1.70489735184597,1.80092787829427,1.70746087451231,1.705448751061,1.70418150023348,1.7047812678007,1.70561320345846,0,1.83822955150719,1.70781880031856,1.81504176346482,1.79907053356998,1.70770271627329,1.83360553703733,1.83375064209392,1.83274458036826,1.82966835316864
1.95486499599064,1.87852038888577,2.00137600346152,0,1.95619996251122,1.88374417092285,1.88433426481963,1.96078528229933,1.96096908203767,1.99677133633254,1.99921877495361,1.99622961078795,1.99489464426736,0,1.99198286946521,1.99443030808629,2.04295343900849,2.04088327353454,1.96527386538304,2.06475789217807,2.04459796298312,2.04229562941863,2.04156043046527,0,1.95848294873483,1.95815404393991,1.95822175963298,1.96010812536859,1.95775742345191,1.95410077602595,1.94922524612468,2.04957022958879,2.05582909436284,0,2.04514936219815,2.04816754737513,2.03612382767853,2.04795472662547,1.95443935449132,2.04868992557884,2.03854224528829,2.02832684930467,1.95404273400332,0,2.04534283560693,2.03850355060653,2.0281623969072,2.02528931678681,2.03168361294701,2.02448640214037,2.02341262472164,2.03173198129921,2.03503070291892,0,1.94713573330985,2.02902335357628,2.01619606657412,2.03233174886643,2.02621798914896,2.02514421173022,2.03195447571931,2.02969083683657,1.94140892040994,0,1.9408285001836,2.01834362141158,2.03087102463013,1.93961929137872,1.93872931369833,2.02638244154642,2.0208007337031,2.03188676002623,2.02240656299598,0,2.0133907021468,1.93407627821715,2.01501587878056,2.02813337589589,2.01934968313724,2.01472566866738,2.01929164111461,2.0196108722391,2.02871379612223,0,1.92574724796914,1.92246787369031,1.9946818235177,1.92025260315977,1.92241950533811,2.018198516355,1.9217713694187,2.00938580258504,1.93077755659744,0,1.92919107464544,1.84557186737042,1.84299867103363,1.84206999867149,1.83829726720026,1.83647861715773,2.03511776595287,1.88118064825651,1.88069696473455,0,1.8798166607246,1.87766910588714,1.82689200975264,1.87408017415425,1.8247251075743,1.92011717177362,1.8207105343421,1.86734729952869,1.86594461731503,0,1.81493535308999,1.81494502676043,1.81598010949741,1.90102134632697,1.81118196895965,1.81230411473058,1.81080469581253,1.80929560322404,2.0153738045868,0,1.81041774899496,1.80854105692979,1.80792194202169,1.80828954149838,1.80700294332999,1.93806183043803,1.80676110156901,2.02502812768496,1.8069062066256,0,1.80688685928472,1.80453615736803,1.80579373452511,1.80387834777818,1.80168242458852,1.85552607425219,1.83050996249684,1.82146508063634,1.84322116545373,0,1.7244091451215,1.83648829082816,1.83179656066523,1.8295329217825,1.71993990937867,1.71564479970374,1.71650575637281,1.83303479048143,1.77057190045658,0,1.84137349439988,1.70873779901027,1.70872812533983,1.84220543005763,1.84176044121744,1.70652252847973,1.70549711941319,1.70383324809768,1.84119936833197,0,1.84052221140124,1.70389129012031,1.84384995403227,1.84067699012827,1.7045587733806,1.82372871951908,1.70404606884734,1.70317543850782,1.70350434330275,0,1.70387194277943,1.83679784828221,1.83578211288611,1.83824889884807,1.83712675307714,1.70440399465358,1.75205649523627,1.70603884495778,1.83611101768104,0,1.70451040502841,1.70445236300578,1.92750785598904,1.83477605116045,1.7059711292647,1.83124516145021,1.70683208593378,1.8341182415706,1.7108273118251
2.00281738035693,1.95518422711512,1.95501977471766,0,1.95648049895395,1.95781546547454,1.88408274938822,1.96277805840977,1.96428715099826,1.96477083452021,1.99833847094366,1.96994624820509,1.97839136249837,0,1.99523322273273,2.07552468737672,1.96641535849484,2.0395870016957,2.03991590649063,2.03855191895873,2.03643338513258,2.03455669306741,2.03318303186506,0,1.96077560862889,1.95922782135864,1.96161721795708,1.95810567558771,1.95806698090596,1.95516487977425,1.95019261316858,2.03333781059209,2.03474049280575,0,2.0285590173952,2.02695318810232,2.02889759586057,2.04031252697863,2.04905752505552,1.95472956460449,1.95428457576429,2.03964504371834,2.02837521765686,0,1.9522531049721,2.02527964311637,2.02447672846993,2.04221824005512,2.0239736976071,2.02515388540066,2.02952638443911,2.02643080989862,2.03921940221902,0,2.01963021957997,2.02551181120691,2.05040216524655,2.03186741268535,2.03768128861921,1.94465927367745,1.94402081142848,1.94190227760233,2.03087102463013,0,2.03549503909999,2.03075494058487,2.03187708635579,1.93903887115237,2.02637276787598,2.02861705941784,1.93516940297676,2.02726274555637,2.01671844477783,0,2.01814047433236,1.93265424866261,2.04222791372556,1.93185133401617,2.02549246386603,1.99770000869468,1.99879313345429,1.92463477586865,2.01851774747949,0,1.9245477128347,1.92419946069889,1.92157789600992,1.91973022495606,1.92117160185148,1.9225646103947,1.92134572791938,2.00775095228084,2.00415234687752,0,1.92807860254495,1.84577501444964,1.84177978855832,1.93787803069969,1.83853910896124,1.95422653374166,1.83439877801333,1.83410856790016,1.92238081065636,0,1.87866549394236,1.89747110927584,1.87468961539191,1.8743897316083,1.92103617046533,1.82159083835205,1.93715250541676,1.93677523226964,1.81863069519771,0,1.94774517454751,1.81485796372648,1.94775484821794,1.81107555858482,1.81173336817467,1.81028231760882,1.8110949059257,1.90417496289009,1.80743825849974,0,1.80788324733994,2.01099163187792,1.80777683696511,1.80576471351379,1.80501016721954,1.80417823156179,2.02885890117881,1.93908723950457,1.80602590261564,0,1.80371389538071,1.89416271398569,1.85428784443599,1.80458452572023,1.8560000841037,1.86448389307873,1.84450776362212,1.8423215141029,1.84167337818349,0,1.72536683849497,1.83539516606855,1.72161345436462,1.83231893886894,1.71718291330355,1.71519981086354,1.8307227832465,1.81716029729097,1.81678302414385,0,1.71212358366393,1.70802194739778,1.70531331967485,1.84103491593451,1.70661926518412,1.84525263624593,1.84147990477471,1.70488767817553,1.70400737416558,0,1.83929365525548,1.70276914434938,1.94894470968195,1.70169536693065,1.83740728951987,1.83880029806309,1.70127939910177,1.83544353442075,1.70337858558704,0,1.83890670843792,1.83864551933607,1.83821020416631,1.83834563555246,1.70431693161963,1.70066995786411,1.78533392154655,1.70255632359972,1.82936846938503,0,1.70618395001436,1.70392031113163,1.83554027112514,1.80002822694344,1.70708360136519,1.70471355210763,1.70711262237651,1.70479094147114,1.70895061975993
1.9578057918041,2.00063113083771,2.00226598114191,0,1.95586138404586,1.9560451837842,1.96094006102635,1.96485789755416,1.96448062440704,1.9648192028724,1.96801151411728,1.96921104925172,1.90227892348404,0,1.97501525151515,2.08163844709419,2.05274319349279,1.96811792449211,1.9680405351286,2.04556533002703,2.03660751120048,1.96267164803494,2.0526948251406,0,1.95988563094849,1.95826045431474,1.95887956922284,1.95849262240527,1.95816371761035,1.95813469659903,2.04841906280654,2.04830297876127,2.03982884345668,0,2.04103805226156,2.0267984093753,2.05118573255211,2.03413105156809,2.03536928138428,2.0516790897445,2.04584586646976,1.95436196512781,1.95303667227766,0,2.04171520919229,2.04610705557161,2.02301600423364,2.02240656299598,2.02339327738076,2.04251812383873,1.94843200514868,2.04299213369024,1.94897373069326,0,2.04570076141317,2.02921682698506,2.01964956692085,1.94748398544565,2.02812370222545,1.94308246539589,1.94299540236194,2.02117800685022,1.9413992467395,0,1.94240530846516,2.02676938836398,1.94148630977345,1.93881637673228,1.93736532616642,2.01879828392222,1.93476310881832,2.01866285253607,2.01838231609334,0,2.02162299569042,2.01836296875246,2.02629537851247,2.01708604425451,2.01505457346231,2.02169071138349,2.00514873493274,1.92520552242455,2.00872799299518,0,1.92492498598182,1.92262265241733,1.92032999252328,1.91945936218377,1.92197451649792,1.99611352674268,2.0109626108666,1.99505909666483,1.99214732186268,0,1.84780648524183,1.84632641366466,1.89098007641125,1.84020298027675,2.03553373378175,1.83698164802055,1.83328630591284,1.83494050355792,1.83124516145021,0,1.95145019032566,1.82961031114601,1.82564410626601,1.87318052280342,1.87165208287406,1.87050091609181,2.01398079604358,1.93638828545208,1.86723121548342,0,1.94706801761677,1.81622195125839,1.94787093226321,1.81227509371926,1.86092398235717,1.81093045352823,1.80871518299769,1.94494948379062,1.80938266625799,0,1.80774781595379,1.80471028343593,1.80594851325213,1.94182488823882,1.89102844476344,1.80572601883203,1.80418790523223,1.80435235762969,1.80521331429876,0,1.80591949224081,1.80776716329467,1.80428464193662,1.80424594725486,1.80516494594657,1.85442327582214,1.73078409394083,1.7765502287879,1.72597627973263,0,1.83926463424417,1.72105238147916,1.71926275244794,1.71864363753984,1.71560610502198,1.71354561321847,1.82570214828864,1.82246146869156,1.81591239380434,0,1.71047905968929,1.88750722872363,1.70842824155622,1.70634840241183,1.84196358829666,1.84144121009295,1.70369781671153,1.70363010101846,1.70346564862099,0,1.80744793217018,1.70236285019094,1.94753235379785,1.70338825925748,1.70129874644265,1.70294327041729,1.70389129012031,1.7021790504526,1.70179210363504,0,1.83789097304182,1.70396867948382,1.70211133475953,1.70026366370567,1.80269815998461,1.70066995786411,1.80772846861291,1.70228546082743,1.8321351391306,0,1.70390096379075,1.70105690468167,1.70299163876948,1.70305935446255,1.70640644443446,1.76090790368798,1.70487800450509,1.70462648907368,1.83025844706543
1.95459413321834,1.95501010104722,1.95712863487337,0,1.95627735187473,2.00336877957196,1.95829914899649,1.9580766545764,1.89103811843388,1.8918603804212,2.08484043200951,1.96918202824041,2.06622829008481,0,1.99493333894912,2.08457924290766,1.96773097767455,1.96657981089231,1.96782771437894,2.03908397083287,2.04977337666801,2.0484093891361,1.96212024881991,0,1.96053376686791,1.96091104001503,1.95838621203044,1.95794122319025,1.95878283251844,1.95753492903181,1.95689646678283,1.95592909973893,2.04284702863366,0,2.05528736881826,2.04170553552185,2.02226145793939,2.03932581259385,2.05527769514782,2.04193770361239,2.05178550011933,2.04119283098858,2.04598129785591,0,1.95249494673307,2.03869702401531,2.03137405549296,2.03807790910721,2.04016742192205,2.03278641137706,2.04023513761512,2.03325074755814,2.0395870016957,0,2.04458828931269,2.03469212445355,2.02532801146857,2.03241881190038,2.03207055976457,2.02350936142603,2.03427615662467,1.94255041352174,1.94183456190926,0,2.0203557448629,1.94048024804779,2.02575365296788,1.93853584028954,1.9391936498794,2.01651529769861,2.01962054590954,2.0211973541911,2.01636051897158,0,2.03073559324399,2.02121670153198,2.01891436796749,1.93205448109539,2.02814304956633,1.99968311113469,1.99848357600024,1.99741947225195,2.01216214600104,0,1.92315470429148,1.9215005066464,1.92071693934084,1.92199386383879,1.92125866488543,1.92091041274962,1.99464312883595,2.01303277634055,2.01301342899968,0,1.96213959616079,2.02556985322954,2.02446705479949,1.94609097690243,1.83762011026953,1.95224343130166,1.83557896580689,2.04249877649785,1.95105356983766,0,2.02156495366778,1.82820762893235,1.82724993555889,1.82363198281469,1.87233891347523,1.81923046276493,1.82018815613839,1.93434714098944,1.81777941219907,0,1.81713127627965,1.89574919593769,1.8108724115056,1.81334887113799,1.81153989476589,1.85931815306429,1.85841850171346,1.81113360060745,2.03169328661745,0,2.02996169960886,2.0364624061439,1.9435564752474,1.80662567018286,1.80559058744589,1.80737054280667,2.03289282175189,1.80423627358442,1.80731250078403,0,2.03602709097414,1.80735119546579,1.93866159800525,2.02806566020281,1.80515527227613,1.93147406086905,1.77791421631981,1.77662761815142,1.72452522916677,0,1.7220294221935,1.83821020416631,1.72069445567291,1.71842114311974,1.76494182426106,1.71209456265261,1.84104458960495,1.71251053048149,1.83868421401783,0,1.70481996248246,1.70754793754627,1.70763500058022,1.70486833083465,1.70501343589124,1.70435562630138,1.8380844464506,1.70109559936343,1.70054420014841,0,1.70355271165494,1.70180177730548,1.83955484435734,1.83931300259636,1.70326250154177,1.70332054356441,1.70275947067894,1.7020049243847,1.8368945849866,0,1.83391509449138,1.83450518838816,1.7034172802688,1.83737826850856,1.70108592569299,1.70208231374821,1.70456844705104,1.70255632359972,1.70159863022626,0,1.83339271628767,1.7039880268247,1.70687078061553,1.70386226910899,1.75456197587998,1.75393318730144,1.70371716405241,1.83422465194543,1.82985215290699
1.95550345823961,1.9582024122921,1.95605485745464,0,1.95461348055922,1.88385058129768,1.95823143330342,1.95843458038264,1.88953869951583,1.96508039197426,1.96638633748353,1.99575560093644,1.97484112544724,0,1.99583299029995,2.09434965005108,1.96785673539026,1.96649274785836,2.05212407858469,2.03835844554995,2.04565239306098,2.04889307265806,2.04630052898039,0,1.95956639982401,2.03514678696419,1.95949868413093,1.95897630592723,1.95841523304176,1.95750590802049,1.95602583644332,1.95769938142927,2.05579039968109,0,2.02810435488457,1.95726406625952,2.05341067675309,1.95543574254654,2.05209505757338,2.04809983168205,2.05250135173182,2.04957990325923,2.04171520919229,0,2.04375635365493,2.04421101616556,1.95240788369912,2.0355724284635,2.0364140377917,1.95072466504273,2.04308887039464,2.04022546394468,1.94895438335239,0,2.03775867798273,2.0339859465115,2.03869702401531,2.02511519071891,2.02180679542876,2.02800761818018,2.02751426098779,1.94326626513423,2.02853967005433,0,2.02757230301042,1.94104132093325,2.01818884268456,2.02284187816573,2.02370283483481,2.04036089533083,1.93640763279296,1.93504364526105,2.02475726491266,0,1.9324027332312,2.0179276535827,2.02266775209783,1.93011974700758,1.92800121318144,2.01509326814407,2.01629280327851,1.99826108158015,1.99787413476259,0,1.92338687238202,1.9229128625305,1.92324176732543,1.92104584413577,1.92005912975099,1.92131670690806,2.00118253005274,2.00546796605723,1.92190680080484,0,1.89569115391506,1.89426912436052,1.84250531384124,1.84122838934329,1.83874225604046,2.04226660840732,1.95224343130166,1.95272711482361,1.83069376223518,0,1.82925238533977,1.82857522840903,1.90506494057048,1.95676103539669,1.9519822421998,2.03203186508282,1.82123291254581,1.81981088299127,1.817315076018,0,1.81626064594014,1.93407627821715,1.8129038822978,1.8608078983119,1.81267171420726,1.85978248924536,1.85903761662155,1.85799286021414,1.80795096303301,0,1.80909245614482,1.80740923748842,1.80845399389584,1.85550672691131,1.80489408317428,1.85497467503716,1.9037299740499,1.80581308186598,1.80587112388862,0,1.80448778901584,1.85427817076555,1.85457805454916,1.80586145021818,1.80537776669623,1.80499081987867,1.88434393849007,1.83242534924377,1.82387382457566,0,1.77118134169424,1.83849074060904,1.83744598420163,1.71825669072228,1.71694107154257,1.71267498287895,1.84372419631656,1.71384549700208,1.70854432560149,0,1.70827346282919,1.75525848015159,1.75481349131139,1.70391063746119,1.70430725794919,1.70196622970294,1.69921890729826,1.70304968079211,1.70016692700128,0,1.83470833546738,1.83736859483812,1.69953813842275,1.84181848324007,1.70008953763777,1.70016692700128,1.70100853632948,1.70080538925026,1.74828376376504,0,1.70021529535348,1.83386672613919,1.70038942142138,1.84021265394719,1.83812314113236,1.70245958689533,1.83827791985939,1.83484376685353,1.70402672150646,0,1.70048615812577,1.70078604190938,1.83398281018445,1.83211579178972,1.7548908806749,1.75234670534944,1.7060194976169,1.70529397233397,1.82786905046698
2.00462635672903,1.88081304877982,2.00264325428903,0,1.95595812075025,1.88424720178568,1.99886084914737,1.99788380843302,1.96077560862889,1.99958637443029,1.96597036965465,1.9710877413169,1.97096198360119,0,1.99540734880063,1.994159445314,1.96792445108333,2.05429098076304,2.0395870016957,2.03894853944673,2.04639726568479,1.96184938604762,1.96209122780859,0,1.9612496184804,2.03475984014663,1.95950835780137,1.95839588570088,1.95719635056644,1.95762199206576,1.95726406625952,2.05520997945475,2.05210473124382,0,2.05438771746743,2.03927744424166,2.04450122627873,2.04588456115152,2.06173003333066,2.0281623969072,2.03813595112985,2.05568398930626,2.0257826739792,0,2.03870669768575,2.04140565173824,2.02246460501861,1.95104389616722,2.03492429254409,2.01927229377373,1.9487609099436,2.03004876264282,2.02800761818018,0,1.94746463810477,2.03902592881024,2.04513968852771,2.01666040275519,2.01660236073256,2.02525062210505,2.04276963927015,2.04211182968029,2.03168361294701,0,2.02572463195657,2.0420634613281,2.01477403701958,2.01212345131928,2.0248153069353,2.00777997329216,2.03696543700673,1.9351790766472,2.0283848913273,0,2.03128699245901,1.93139667150554,2.01952380920515,2.01890469429705,2.01722147564066,2.02590843169491,2.00941482359635,2.01314886038582,1.92360936680211,0,1.92243885267899,1.92232276863372,1.92262265241733,1.92062020263645,1.91923686776367,1.91879187892347,1.99539767513019,1.99791282944434,1.91883057360523,0,1.89619418477789,1.89394021956559,1.89246982165886,1.95524226913776,1.84114132630934,1.8350856086145,1.83252208594816,1.83202872875577,1.83184492901743,0,1.87798833701162,1.87742726412616,1.82780133477391,1.95469086992273,1.82412534000708,1.91538674692893,1.91394537003352,1.82039130321761,1.81858232684551,0,1.81477090069253,1.81507078447614,1.8150611108057,1.86064344591443,1.86083691932322,1.80836693086189,1.81045644367672,2.02259036273432,1.80797998404433,0,1.80858942528199,1.94268584490789,1.80796063670345,1.80914082449701,1.9016501349055,1.80490375684471,1.90327531153926,1.80533907201447,1.80423627358442,0,1.80550352441193,1.85377513990272,1.80435235762969,1.80639350209233,1.85698679848848,1.80712870104569,1.83838433023421,1.82501531768747,1.8235352461103,0,1.77209066671551,1.71764724948462,1.71688302951993,1.83882931907441,1.95757362371357,1.71271367756071,1.93411497289891,1.70853465193105,1.70728674844441,0,1.84224412473939,1.70535201435661,1.70462648907368,1.70114396771562,1.70312707015563,1.70133744112441,1.70181145097592,1.70111494670431,1.70208231374821,0,1.83998048585666,1.70029268471699,1.84107361061627,1.69593953301942,1.69724547852869,1.74809029035626,1.75058609732953,1.74875777361656,1.82384480356435,0,1.70045713711445,1.69763242534626,1.83462127243343,1.83554027112514,1.69891902351465,1.83283164340221,1.69910282325299,1.70155026187406,1.70099886265904,0,1.70146319884011,1.70096984164772,1.83192231838094,1.70111494670431,1.70030235838743,1.70498441487992,1.70456844705104,1.70538103536792,1.70691914896773
1.95414914437815,1.95455543853659,2.00182099230171,0,1.88204160492558,1.95508749041073,1.95768003408839,1.88642377763446,1.96240078526264,1.96480952920196,1.96863062902538,1.96866932370714,1.89838043429711,0,1.97598261855905,2.0813192159697,2.05515193743211,2.06214600115953,2.04727756969474,2.04799342130723,2.03860028731092,2.05126312191562,2.03597872262194,0,2.03830040352731,1.96090136634459,1.95867642214362,1.95796057053113,1.95903434794986,1.95767036041796,1.9574575396683,2.03344422096692,2.03401496752282,0,2.04886405164674,2.04156043046527,2.04469469968751,2.03532091303209,2.02934258470077,2.03315401085375,2.03979982244536,2.0492026301121,2.04796440029591,0,2.04340810151912,2.04313723874683,2.0326219589796,1.95234984167649,2.02899433256496,2.0325735906274,2.04049632671697,2.0283848913273,1.94751300645697,0,1.94756137480916,1.94734855405951,2.03471147179443,2.03940320195736,2.01635084530114,2.01627345593763,2.0263534205351,2.02597614738798,1.9413992467395,0,1.94212477202243,2.0325735906274,2.01256844015948,2.01295538697704,2.01129151566153,2.00987915977743,1.93627220140681,2.01927229377373,2.01279093457958,0,2.00830235149586,2.00546796605723,2.00704477433879,1.93140634517598,2.00962764434601,1.92631799452504,2.01130118933197,1.99858998637507,1.9235319774386,0,1.92294188354182,1.92200353750923,1.92157789600992,1.91981728799001,1.91859840551469,1.92074596035216,1.92088139173831,2.00199511836961,1.89805152950218,0,1.89793544545691,1.89427879803096,1.89147343360364,1.93759749425696,2.0400803588881,1.8361013440106,1.83419563093411,1.83420530460455,1.88158694241495,0,1.83131287714328,1.82849783904552,1.8279464398305,1.82435750809761,1.8243284870863,1.87066536848927,1.82134899659107,1.93908723950457,1.81755691777897,0,1.81657987706463,1.81481926904473,1.81273942990033,1.81038872798365,1.86070148793707,1.80934397157623,1.81057252772199,1.80872485666813,1.80898604576999,0,1.80752532153369,2.03520482898682,1.94067372145657,1.80717706939789,1.90121481973575,1.90172752426902,1.80651925980803,2.02123604887286,1.80560026111633,0,1.86461932446488,1.80698359598911,1.80681914359164,1.80461354673154,1.80502951456042,1.85521651679814,1.82687266241176,1.72579247999429,1.72373198819077,0,1.83526940835285,1.71854690083545,1.83150635055206,1.83972897042524,1.71481286404598,1.84220543005763,1.71013080755349,1.70610656065085,1.82918466964669,0,1.70244023955446,1.70373651139329,1.84182815691051,1.70189851400987,1.8423215141029,1.70154058820363,1.70106657835211,1.70142450415836,1.70034105306919,0,1.84083176885529,1.95614192048859,1.69703265777904,1.83871323502914,1.83739761584943,1.74945427788817,1.74718096533499,1.70105690468167,1.69970259082021,0,1.74833213211724,1.69815480354996,1.69755503598274,1.70015725333084,1.83128385613196,1.83205774976709,1.83217383381235,1.82802382919401,1.69994443258118,0,1.69904478123035,1.69889967617377,1.70151156719231,1.70125037809045,1.70015725333084,1.70461681540324,1.7035914063367,1.70285620738333,1.82942651140767
1.95479728029756,2.08823589033361,1.95609355213639,0,2.09416585031274,1.99904464888571,2.08129019495838,1.88559184197671,1.88780711250724,1.96257491133055,1.96622188508606,1.96893051280899,1.97412527383475,0,1.97532480896919,1.99147983860238,2.05867315347192,1.96750848325445,2.04617477126469,2.03896788678761,2.05950508912968,2.05255939375445,2.03773933064185,0,2.03817464581161,2.03753618356263,2.0348275558397,2.0335893260235,1.95757362371357,1.95838621203044,2.04392080605239,2.03285412707014,2.04084457885278,0,2.04711311729727,2.04831265243171,2.02775610274876,1.95610322580683,2.02706927214759,2.04229562941863,2.02810435488457,2.02549246386603,2.05402979166118,0,2.04572978242449,2.04910589340771,2.02483465427618,2.02980692088184,2.03893886577629,2.03746846786956,2.05208538390294,2.02627603117159,2.05303340360596,0,1.94803538466068,2.03915168652595,2.03427615662467,2.01871122088827,2.03101612968672,2.01660236073256,2.03259293796828,2.02565691626349,2.0231804566311,0,2.01779222219656,2.02502812768496,2.01909816770583,2.01183324120611,2.02234852097334,2.01099163187792,2.03100645601628,2.02535703247988,2.02512486438935,0,2.00843778288201,2.00407495751401,2.02820109158896,2.00163719256337,1.99983788986171,1.998522270682,2.01482240537177,2.00532286100064,1.99463345516551,0,1.92173267473694,1.92113290716972,1.91957544622904,1.91862742652601,1.91848232146942,1.91926588877499,1.99800956614873,1.99382086684863,1.99997332124786,0,1.84487536309881,1.93565308649871,1.93426975162593,1.89073823465027,1.84050286406036,2.04168618818098,1.93198676540232,1.92807860254495,1.8310710353823,0,1.87793029498899,1.82877837548825,1.94391440105365,1.94824820541034,1.94790962694497,1.87124578871562,1.8198689250139,2.02240656299598,1.81847591647068,0,1.9471744279916,2.04261486054312,1.94768713252487,1.94749365911609,1.94783223758146,2.03801986708458,1.80916984550833,1.94267617123745,1.81000178116609,0,1.80723511142052,1.94145728876213,1.80732217445447,1.86136897119736,1.8069062066256,1.80748662685194,2.02886857484925,1.93649469582691,1.8541427393794,0,1.80777683696511,1.80412986320959,2.01663138174387,1.80443942066364,1.93209317577715,1.85387187660711,1.7240125246335,1.72138128627409,1.83761043659909,0,1.82196811149917,1.83831661454114,1.8365463328508,1.71364234992286,1.71242346744754,1.71189141557339,1.70855399927193,1.70772206361417,1.7069868646608,0,1.70425888959699,1.8170442132457,1.84248596650037,1.70327217521221,1.84344365987383,1.70125037809045,1.70022496902392,1.70051517913709,1.6986094660606,0,1.69795165647074,1.95474891194537,1.70008953763777,1.69996377992206,1.69805806684557,1.69766144635757,1.821281280898,1.6965779952684,1.82051706093332,0,1.74808061668582,1.76020172574593,1.69711004714255,1.74727770203938,1.69748732028967,1.82796578717137,1.70069897887543,1.6990060865486,1.70017660067172,0,1.69859979239016,1.70028301104655,1.69978965385416,1.70069897887543,1.82746275630854,1.82680494671869,1.70181145097592,1.70395900581338,1.82483151794913
2.08929032041147,1.95509716408117,1.95534867951259,0,1.88276713020851,2.00197577102874,1.88805862793866,2.08535313654278,1.96190742807025,1.99845455498893,1.96565113853016,1.97119415169173,1.97146501446402,0,1.97798506833993,2.07956828162024,1.96846617662792,2.05417489671777,2.05844098538138,2.05399109697943,2.03920972854858,2.03598839629238,2.03706217371112,0,2.03815529847073,2.03748781521043,2.02912009028067,2.03021321504028,2.03422778827248,2.03247685392301,2.03152883421999,2.0578508914846,1.95742851865698,0,2.04561369837922,2.02837521765686,1.95586138404586,2.03095808766409,2.02932323735989,2.03829072985687,2.02867510144047,2.03964504371834,2.04634889733259,0,1.95340427175434,2.02666297798915,1.95440065980956,1.95117932755336,2.04234399777083,2.03932581259385,1.94894470968195,1.94964121395356,2.04630052898039,0,1.94630379765209,2.04254714485005,2.03837779289082,2.03573688086097,2.01729886500417,2.01801471661666,2.03451799838565,1.94234726644252,2.03127731878857,0,2.01601226683578,2.02887824851969,2.02161332201998,2.01392275402094,2.02807533387325,2.01918523073978,2.00807018340533,2.03273804302487,2.03037766743774,0,2.02973920518877,2.02973920518877,2.01771483283305,2.00335910590152,2.00232402316454,2.00400724182093,2.01923359909197,2.00062145716727,1.92466379687997,0,1.92241950533811,1.92093943376094,1.92023325581889,1.91861775285557,1.92509911204972,1.91896600499138,2.01556727799558,1.99113158646658,1.93469539312525,0,1.89724861485574,1.84384028036183,1.89130898120618,1.93809085144935,1.84000950686797,1.83652698550992,1.93112580873324,1.94861580488702,1.88111293256343,0,1.87796898967075,1.95168235841619,1.82524748577801,1.92601811074143,1.92464444953909,1.8716617565445,1.93100972468798,1.81740213905195,1.81859200051595,0,1.81549642597546,1.81540936294151,1.81559316267985,1.91430329583976,1.94866417323921,2.02874281713355,1.8104757910176,1.81107555858482,1.8095084239737,0,1.94076078449052,1.93910658684545,1.86293610580849,1.86451291409005,1.86330370528517,1.80620970235398,1.80630643905837,1.80511657759437,1.80642252310364,0,1.80617100767223,2.02531833779813,1.80686751194384,1.9353532027151,1.80451681002715,1.90414594187877,1.72143932829672,1.72112977084267,1.7184598378015,0,1.71824701705184,1.84238922979598,1.83900344514231,1.84069633746914,1.83894540311968,1.757889718511,1.75798645521539,1.7042105212448,1.70736413780792,0,1.75360428250651,1.70487800450509,1.81055318038111,1.70065061052323,1.84459482665608,1.69901576021904,1.69994443258118,1.84384995403227,1.84158631514954,0,1.840560906083,1.69655864792752,1.69814512987952,1.84281487129529,1.69765177268713,1.69798067748206,1.69558160721318,1.69649093223445,1.69666505830235,0,1.69785491976635,1.6984353399927,1.69804839317513,1.83385705246875,1.83114842474582,1.69576540695152,1.78865199050714,1.69790328811855,1.74784844859529,0,1.82841077601157,1.69849338201533,1.70111494670431,1.69694559474508,1.70052485280753,1.69881261313982,1.70042811610314,1.70357205899582,1.70176308262372
2.08876794220776,1.95482630130888,1.9544587018322,0,2.08637854560932,1.884276222797,2.08799404857264,2.09228915824757,1.96229437488781,1.96423878264606,1.96568983321192,1.89636831084579,1.96980114314851,0,2.07894916671214,2.08380534927253,2.05303340360596,2.0542329387404,2.05594517840811,2.05491976934157,1.96483855021328,2.05138887963133,2.04556533002703,0,2.03903560248068,2.038271382516,2.03946124398,2.03812627745941,2.03082265627794,2.03179002332184,1.95914075832469,2.03212860178721,2.0313837291634,0,2.02992300492711,2.03960634903658,2.03845518225434,2.0388421290719,2.02921682698506,2.02621798914896,2.0284332596795,2.05533573717045,2.02511519071891,0,2.03274771669531,2.03609480666721,2.0515049636766,2.0324478329117,2.04154108312439,2.03219631748028,2.03405366220458,1.94799668997892,1.94758072215004,0,2.0339859465115,2.02671134634135,2.03056146717608,2.04147336743132,2.0325735906274,2.03269934834311,2.03332813692165,2.03764259393746,2.01822753736631,0,2.01489979473529,2.03072591957355,2.01456121626992,2.00824430947323,2.0318287180036,2.03445995636302,2.03208023343501,2.02277416247266,2.02220341591676,0,1.9320061127432,2.03092906665277,1.93034224142768,2.01813080066192,1.92945226374729,2.01566401469997,1.99844488131849,1.99854161802288,1.9925245950098,0,1.99859966004551,1.92178104308914,1.91976891963782,1.92027195050065,1.91960446724035,1.91784385922045,1.92106519147665,2.01761809612866,2.02584071600184,0,1.84832886344554,1.84219575638719,1.89271166341984,1.84386930137315,1.83909050817626,1.83715577408846,1.94267617123745,1.83387639980962,1.88041642829182,0,1.8297070478504,1.95183713714322,1.82429946607498,1.9251668277428,1.9241510923467,1.82085563939868,1.86963995942274,1.86781163570976,1.81716029729097,0,1.81494502676043,1.81554479432765,1.86502561862332,1.94835461578517,1.8125072618098,1.81337789214931,2.04281800762234,1.81014688622267,1.81060154873331,0,1.94068339512701,1.81078534847165,1.80902474045174,1.86205580179853,1.86094332969804,1.80621937602442,1.93369900507003,1.80766075291984,1.80480702014032,0,1.80727380610228,2.01928196744417,1.80541646137798,1.80443942066364,1.80620970235398,1.9316094922552,1.94366288562223,1.71862429019896,1.71733769203057,0,1.88800058591603,1.7147935167051,1.71409701243349,1.84079307417353,1.82475412858561,1.70605819229865,1.70802194739778,1.70705458035388,1.83766847862173,0,1.7509246757949,1.70176308262372,1.80419757890267,1.80795096303301,1.84385962770271,1.84289226065881,1.84448841628125,1.69787426710723,1.842544008523,0,1.69472065054411,1.69712939448343,1.69603626972381,1.84058992709431,1.6945465244762,1.69710037347211,1.6970229841086,1.69681016335894,1.74427886420328,0,1.74609751424582,1.69739058358528,1.69609431174645,1.83323793756065,1.8308969093144,1.69745829927835,1.69857077137884,1.69532041811133,1.74731639672114,0,1.69782589875504,1.69695526841552,1.69655864792752,1.70044746344401,1.70139548314704,1.69977998018372,1.70021529535348,1.82070086067166,1.8739931111203
1.95488434333151,1.95310438797073,1.95744786599786,0,1.88210932061865,2.09421421866494,1.88229312035699,2.08747167036893,1.96431617200957,1.96487724489504,1.96503202362206,1.96951093303533,1.97176489824763,0,1.97534415631007,2.09010290872835,1.96625090609738,2.05834424867699,2.0500442394403,2.05903107927816,2.05118573255211,1.96222665919474,2.04134760971561,0,1.96140439720742,2.03679131093882,2.03622056438292,2.03860996098136,2.03424713561336,2.0360174173037,2.0316062235835,2.03166426560613,2.04935740883913,0,2.02789153413491,2.04894144101025,2.02829782829335,2.04210215600985,2.05274319349279,2.03964504371834,2.05836359601787,1.95455543853659,1.95446837550264,0,2.03934515993473,2.038668003004,2.03246718025257,2.03127731878857,1.95127606425775,2.03748781521043,2.02820109158896,2.05284960386762,1.94798701630848,0,2.03479853482838,1.94611032424331,2.04278898661102,1.94459155798438,2.01567368837041,2.0316062235835,1.94268584490789,2.04197639829415,2.01652497136904,0,2.01546086762075,2.03485657685102,2.02978757354096,2.0412218519999,2.02179712175832,1.9341633412511,2.01528674155285,1.93536287638554,2.02305469891539,0,1.93188035502749,2.0253860534912,2.02254199438212,1.92735307726202,1.99634569483322,2.02752393465823,2.01549956230251,1.99769033502424,1.9229612308827,0,1.92166495904387,1.92011717177362,1.92015586645538,1.91884992094611,1.91867579487821,1.91658628206337,2.00235304417586,1.99181841706775,1.85179203746272,0,1.8963199424936,1.84581370913139,1.89218928521613,1.84101556859363,1.84068666379871,1.83766847862173,1.83725251079285,1.83286066441353,1.83028746807674,0,1.82881707017001,1.94870286792097,1.82483151794913,1.87395441643855,1.82457032884727,1.87012364294469,1.91173977317342,1.9095535236542,2.03293151643365,0,1.81401635439829,1.86678622664322,1.86608004870117,1.91416786445362,1.91257170883117,2.03940320195736,1.80915049816745,1.81201390461741,1.8106982854377,0,1.91439035887371,1.80835725719145,1.80852170958891,1.80922788753096,1.8080476997374,1.94024807995725,1.93549830777169,1.93805215676759,1.80626774437662,0,1.80650958613759,1.80620002868355,1.85528423249121,1.93873898736876,1.80797998404433,1.91519327352015,1.72071380301379,1.72103303413828,1.89116387614959,0,1.71474514835291,1.84128643136593,1.84069633746914,1.83943876031207,1.84027069596983,1.83806509910973,1.70672567555895,1.84049319038992,1.70349466963231,0,1.70332054356441,1.70201459805514,1.69995410625162,1.6983869716405,1.69623941680303,1.69477869256674,1.84261172421607,1.79369197280587,1.83801673075753,0,1.69503988166859,1.69602659605338,1.83714610041802,1.69450782979445,1.83833596188202,1.69271820076323,1.74445299027118,1.74419180116933,1.74535264162202,0,1.74429821154416,1.69467228219191,1.69667473197279,1.83035518376982,1.69723580485825,1.83076147792826,1.69752601497143,1.81432591185233,1.69699396309728,0,1.6977678567324,1.69664571096147,1.70168569326021,1.69744862560791,1.69829990860655,1.8182340747097,1.82277102614561,1.7003700740805,1.82406729798444
1.95460380688878,1.95541639520566,1.95482630130888,0,1.95491336434283,1.95809600191727,1.95896663225679,1.99843520764805,1.88731375531485,1.96461605579318,1.89238275862491,1.99693578873,1.99505909666483,0,1.97652434410364,2.07457666767369,2.05956313115231,2.06655719487973,1.96641535849484,1.96462572946362,2.05033444955347,2.03503070291892,1.96118190278733,0,2.03961602270702,2.03476951381706,1.96010812536859,2.03603676464458,1.9588215272002,1.95833784367825,2.03137405549296,2.02898465889452,2.04734528538781,0,1.95624833086342,1.95602583644332,2.04646498137786,2.0542813070926,2.0366365322118,1.95421686007122,2.05149529000616,2.04573945609493,2.03754585723307,0,2.04678421250235,2.01851774747949,2.02931356368945,2.05609995713514,2.03809725644809,2.03195447571931,1.94917687777248,1.94822885806946,1.94646825004955,0,1.94493013644975,1.94549120933521,2.03900658146936,2.04155075679483,2.03503070291892,1.94461090532526,1.9429857286915,1.94252139251043,2.02346099307383,0,1.94177651988662,1.94087686853579,2.02806566020281,1.93752010489345,2.02963279481394,1.934734087807,1.93600133863452,1.93503397159061,2.02188418479227,0,2.02319013030154,1.93127091378983,2.01993977703402,2.01558662533646,2.02451542315169,2.02224211059851,2.01088522150309,1.99881248079517,2.00526481897801,0,1.92113290716972,1.91827917439021,1.9192949097863,1.91860807918513,1.91605423018923,1.9173601756985,1.91755364910728,2.00661913283947,1.9891291366857,0,1.93450191971647,1.84454645830388,1.84410146946368,1.95207897890419,1.8377361943148,1.83801673075753,1.83701066903187,1.83224154950543,1.83172884497216,0,1.83076147792826,1.82762720870601,1.93621415938418,1.87361583797318,1.87209707171425,1.82369002483732,1.82215191123751,1.81890155797,1.91143988938981,0,1.90858615661029,1.90454256236678,1.86751175192615,1.81257497750287,1.8116656524816,1.90133090378102,1.81053383304023,1.81433558552277,1.80982765509818,0,1.81156891577721,1.80938266625799,1.81072730644901,1.80573569250247,1.93238338589032,1.80834758352101,1.80754466887457,1.93561439181696,1.93231567019725,0,1.80573569250247,1.85588400005843,1.8543652337995,1.80704163801174,1.92553442721948,1.80585177654774,1.72135226526277,1.93948385999257,1.84050286406036,0,1.8379103203827,1.76188494440233,1.71176565785769,1.70815737878393,1.7076059795689,1.70552614042451,1.844130490475,1.84042547469685,1.83923561323285,0,1.84564925673393,1.70091179962509,1.70049583179621,1.69517531305474,1.69765177268713,1.84237955612554,1.69587181732635,1.80770912127203,1.78831341204177,0,1.69554291253142,1.83745565787207,1.83626579640807,1.6940241462725,1.84082209518485,1.69537846013396,1.69438207207874,1.6941982723404,1.74261499288777,0,1.74347594955684,1.69385969387503,1.83378933677567,1.83303479048143,1.83166112927909,1.82900086990835,1.80404280017564,1.80139221447534,1.69740993092616,0,1.69746797294879,1.82479282326737,1.82344818307634,1.82201647985137,1.8248992336422,1.82001403007049,1.69830958227699,1.82479282326737,1.70088277861377
1.95416849171903,1.95432327044605,1.88096782750685,0,1.95548411089873,1.95613224681815,1.96039833548176,1.9593922737561,1.88866806917632,1.96523517070128,1.8937177251455,1.89432716638315,1.97429939990266,0,1.99694546240044,1.99081235534209,1.96659915823318,2.05557757893143,2.04702605426332,2.05995007796987,2.0520757102325,2.04810950535249,2.04152173578351,0,1.96065952458362,1.96101745038986,1.95868609581405,1.95917945300645,1.96162689162752,1.95858935910966,2.05157267936967,2.0550745480686,2.04538153028869,0,2.04622313961688,2.03871637135619,2.05194995251679,1.9560451837842,2.03660751120048,1.95460380688878,2.04953153490703,1.95355905048137,2.04589423482196,0,1.95310438797073,1.95279483051668,2.04175390387405,2.03896788678761,2.03275739036575,2.04355320657571,2.02618896813764,1.94625542929989,1.94816114237638,0,1.94565566173267,2.02883955383794,2.04328234380342,1.94510426251765,2.03563047048614,2.03171263395833,2.02523127476418,1.94262780288526,1.94152500445521,0,2.03591100692887,2.02810435488457,1.94133153104643,2.02740785061296,2.02886857484925,2.02634374686467,1.93696870567842,1.93638828545208,2.02045248156729,0,2.0211973541911,2.02514421173022,1.93083559862007,2.00837974085938,2.01330363911285,2.01465795297431,1.92434456575548,1.92134572791938,1.92219701091801,0,1.9199140246944,1.91829852173108,1.91913045738884,1.9178825539022,1.92016554012582,1.91600586183703,1.9183759110946,1.99089941837604,2.01438709020202,0,1.84910275708067,1.94623608195902,1.84824180041159,1.84322116545373,1.94458188431394,2.04604901354898,1.83480507217177,1.8323576335507,1.83100331968923,0,1.82894282788572,1.93638828545208,1.93504364526105,1.93374737342222,1.9456363143918,2.02599549472886,1.82217125857839,1.81825342205058,1.81641542466717,0,1.81656052972375,1.8162993406219,1.81518686852141,1.94572337742575,1.81365842859204,1.92612452111626,1.92343524073421,1.86109810842507,1.86074985628926,0,1.8584281753839,1.85867969081531,1.85864099613355,1.85805090223677,2.02179712175832,1.81074665378989,1.80922788753096,2.02168103771305,2.02447672846993,0,1.93184166034573,1.80751564786325,1.80798965771477,1.80921821386052,1.80867648831594,1.92725634055763,1.76794066209716,1.71809223832481,1.71746344974628,0,1.81365842859204,1.81196553626521,1.82501531768747,1.71130132167661,1.70716099072871,1.70492637285729,1.84414983781588,1.7035914063367,1.69886098149201,0,1.84234086144378,1.83998048585666,1.69796133014118,1.6979419828003,1.94476568405228,1.94334365449774,1.69416925132908,1.84349202822603,1.6927859164563,0,1.69417892499952,1.83740728951987,1.83684621663441,1.79051900890187,1.83771684697392,1.83440845168377,1.83403117853665,1.6934050313644,1.69423696702215,0,1.69444978777181,1.69379197818196,1.83231893886894,1.83128385613196,1.69567834391757,1.69327927364869,1.78692040349855,1.6941499039882,1.69775818306196,0,1.69716808916518,1.82160051202249,1.69528172342957,1.69373393615932,1.93719120009852,1.69901576021904,1.69690690006333,1.69463358751015,1.69783557242548
1.95467152258185,1.9564418042722,1.95613224681815,0,1.95741884498654,1.87438005793786,1.9580282862242,1.88775874415505,1.99886084914737,1.9646450768045,1.89147343360364,1.99480758123341,1.89495595496169,0,1.97891374070208,1.99286317347517,1.96658948456275,2.04921230378254,1.96540929676918,1.96483855021328,2.04680355984322,2.05392338128635,2.03516613430507,0,2.03812627745941,1.9589956532681,1.95977922057367,1.95937292641523,1.95935357907435,1.95851196974615,2.04106707327288,2.04849645217006,2.04854482052225,0,1.95516487977425,2.04468502601708,2.05639016724831,1.95597746809112,2.03878408704926,2.03899690779892,2.04027383229688,1.95413947070771,1.95631604655649,0,1.9544587018322,1.9527754831758,2.03546601808868,2.03375377842097,2.03710086839287,2.03459538774916,2.03155785523131,2.0436015749279,2.03461473509004,0,2.02737882960164,1.94737757507082,2.02851064904301,2.03400529385238,2.03169328661745,1.94337267550906,1.94255041352174,1.94103164726282,2.02859771207696,0,2.03150948687911,2.0279882708393,2.02899433256496,2.02506682236671,2.02022031347676,2.02567626360437,2.02170038505393,1.9357981915553,1.93246077525383,0,2.01907882036495,2.0181501480028,2.01562532001821,2.03418909359072,2.01865317886563,1.92628897351373,1.9239285979266,2.00240141252805,2.00182099230171,0,1.92069759199996,1.91879187892347,1.99175070137468,1.91933360446806,1.91754397543684,1.9167410607904,1.91701192356269,1.91745691240289,1.85187910049667,0,1.85058282865784,1.94525904124467,1.84520426789373,2.02735948226076,1.95162431639356,1.83528875569372,1.83454388306992,1.83396346284358,2.02885890117881,0,1.82932010103284,1.82725960922932,1.9342117096033,1.82240342666893,1.82456065517683,1.90088591494082,1.82230668996454,1.82124258621624,1.82003337741137,0,2.03134503448165,1.81499339511263,1.81601880417917,1.81455807994287,1.81243954611672,1.92523454343587,1.92249689470162,1.92082334971567,1.81108523225526,0,1.8103016649497,1.86069181426663,1.81150120008414,2.0398094961158,1.81132707401623,1.80881191970208,1.81112392693701,1.81050481202892,1.81072730644901,0,1.93567243383959,1.90832496750844,1.92769165572739,1.80763173190852,1.8069062066256,1.72270657912423,1.71802452263174,1.71747312341672,1.83165145560865,0,1.78149347438225,1.81203325195828,1.71107882725651,1.70955038732715,1.75484251232271,1.7037655324046,1.70368814304109,1.8884649220971,1.84275682927266,0,1.84357909125998,1.79638125318793,1.6975453623123,1.84028036964027,1.69554291253142,1.6947690188963,1.69562030189494,1.83919691855109,1.69211843319601,0,1.6908028140163,1.69135421323132,1.83668176423694,1.69192495978723,1.69223451724127,1.83400215752533,1.69372426248889,1.69346307338703,1.6922151699004,0,1.69310514758079,1.83182558167655,1.69197332813942,1.8341182415706,1.8337699894348,1.82964900582777,1.6927375481041,1.69315351593298,1.69514629204342,0,1.87471863640323,1.69530107077045,1.78456002791142,1.824454244802,1.82375774053039,1.69599757504206,1.82377708787127,1.69756470965318,1.69923825463914
1.9530463459481,2.00146306649547,1.95602583644332,0,2.09582972162825,2.09463986016425,2.08735558632366,1.96143341821874,1.96240078526264,1.99798054513741,1.99711958846834,1.96928843861524,2.06807596113866,0,1.97775290024939,2.08607866182571,1.96498365526987,2.05612897814645,1.96539962309874,2.0387937607197,2.04300180736068,2.05964052051582,1.96096908203767,0,2.03600774363326,1.95999204132332,1.95945031577874,1.95848294873483,1.95684809843064,1.95668364603317,1.95751558169093,1.95776709712235,2.05945672077748,0,2.05914716332343,1.95708026652117,2.03875506603795,2.03462440876048,2.06188481205768,2.0398094961158,2.04083490518234,1.95585171037542,1.95420718640078,0,2.03757487824438,2.0335893260235,2.03758455191482,2.03475984014663,2.03325074755814,2.0310354770276,2.04248910282741,1.94770647986575,1.94795799529716,0,2.03687837397277,1.94755170113873,2.03514678696419,1.94418526382594,2.03117090841374,1.94239563479472,1.94267617123745,2.04197639829415,2.02528931678681,0,2.02764969237393,1.94126381535335,1.93975472276486,2.02784316578272,2.02334490902856,2.01952380920515,1.93466637211393,1.93453094072778,2.02891694320145,0,2.01463860563343,1.93151275555081,1.92930715869071,2.01828557938895,2.02563756892262,1.92641473122943,2.04228595574819,1.92319339897324,2.00097938297352,0,1.91980761431957,1.91881122626435,1.91925621510455,1.91839525843547,1.9185500371625,1.91697322888094,1.91576402007606,2.00001201592961,1.99916073293098,0,1.85090205978233,1.9450171994837,1.84447874261081,1.89050606655974,1.83938071828944,1.94138957306906,1.8341666099228,1.83396346284358,1.83401183119577,0,1.83384737879831,1.8276755770582,1.824454244802,2.03635599576907,1.82490890731264,1.82220995326015,1.82243244768025,1.82072988168298,1.81695715021175,0,1.8184565691298,2.02677906203442,1.81722801298405,1.81493535308999,1.93449224604603,1.81235248308277,1.81413243844355,1.8133005027858,1.81361973391029,0,1.86054670921004,1.81199455727653,2.02758197668086,1.81205259929916,1.93486951919315,1.93419236226242,1.81065959075594,1.81093045352823,1.81225574637838,0,1.81141413705019,1.80919886651965,1.93218991248154,1.92451869182338,1.85993726797238,1.71812125933613,1.71837277476755,1.71562545236286,1.84007722256105,0,1.83801673075753,1.81182043120862,1.81070795910814,1.70731576945573,1.75425241842593,1.75280136786007,1.70110527303387,1.70214035577085,1.70008953763777,0,1.84400473275929,1.69690690006333,1.84289226065881,1.94787093226321,1.94545251465345,1.69355013642098,1.84124773668417,1.84029971698114,1.69316318960342,0,1.83825857251851,1.74075764816347,1.73995473351703,1.83303479048143,1.69352111540967,1.8349598508988,1.69275689544498,1.69104465577727,1.78591434177289,0,1.83747500521295,1.83418595726367,1.69208941218469,1.69101563476596,1.82749177731986,1.69269885342235,1.69227321192303,1.74467548469128,1.69292134784245,0,1.82407697165488,1.82473478124474,1.78589499443201,1.82468641289254,1.69396610424986,1.69532041811133,1.69247635900225,1.8176633281538,1.69679081601806
1.95436196512781,1.95494238535415,2.08433740114668,0,2.00246912822113,1.95747688700917,1.95762199206576,1.96050474585659,1.99921877495361,1.88963543622022,1.99661655760551,2.08530476819058,1.99633602116278,0,1.99438193973409,1.99600711636785,2.07891047203038,1.96555440182577,2.0416668408401,2.03792313038019,2.03617219603072,2.03825203517512,2.03857126629961,0,1.96101745038986,1.95914075832469,1.95941162109698,1.95893761124547,1.95837653836001,1.95643213060176,2.03880343439014,2.05170811075582,1.95526161647864,0,2.05454249619445,2.02861705941784,2.03788443569843,1.95495205902459,2.04856416786313,2.03241881190038,2.0506633543484,2.04271159724751,2.04472372069883,0,1.95333655606127,2.04076718948927,2.04005133787678,2.04500425714156,2.05541312653397,2.04868992557884,2.02126506988417,1.94783223758146,2.03057114084652,0,1.94788060593365,2.01901110467188,2.0249894330032,2.02403173962974,2.02420586569764,2.02625668383071,2.02835587031598,2.0346534297718,2.03868735034487,0,2.02490236996925,2.02147789063383,2.02281285715442,2.03225435950292,2.0314320975156,2.01904979935363,1.93501462424974,1.93459865642086,1.93265424866261,0,2.01897240999012,1.93093233532446,2.02561822158174,1.92764328737519,1.92619223680934,2.01544152027987,1.99542669614151,2.00221761278971,1.92083302338611,0,1.92074596035216,1.91885959461655,1.92069759199996,1.91732148101674,1.91765038581167,1.9178825539022,1.91566728337167,2.00631924905586,1.85080532307794,0,1.85150182734955,1.84822245307071,1.84509785751891,1.88936457344793,1.88809732262042,1.94171847786399,1.83529842936416,1.83441812535421,1.93529516069247,0,1.83166112927909,2.03238979088906,1.94775484821794,1.82635995787849,1.82232603730542,1.82340948839459,1.9416217411596,1.81837917976629,1.81809864332356,0,1.81923046276493,2.03516613430507,2.03109351905023,1.81630901429234,1.81401635439829,1.81374549162599,1.93878735572096,2.03550471277043,1.81395831237565,0,1.81329082911536,1.81215900967399,2.04165716716966,1.81337789214931,1.889432289141,1.88782645984812,1.86146570790175,1.81258465117331,1.81199455727653,0,1.81130772667536,1.93157079757344,1.81094980086911,1.81105621124394,1.81102719023262,1.71725062899662,1.71736671304189,1.71507405314784,1.83848106693861,0,1.83820053049587,1.71026623893964,1.70808966309085,1.83424399928631,1.83979668611831,1.70357205899582,1.84171207286524,1.70038942142138,1.83509528228494,0,1.84423690084983,1.69711972081299,1.69508825002079,1.69360817844362,1.83941941297119,1.69211843319601,1.69215712787776,1.69187659143503,1.69113171881122,0,1.83788129937139,1.74074797449303,1.6911994345043,1.83791999405314,1.68930339509825,1.83543386075031,1.69020304644908,1.83099364601879,1.69010630974469,0,1.69098661375464,1.83034551009938,1.6908028140163,1.69099628742508,1.69173148637844,1.69230223293435,1.69089955072069,1.69224419091171,1.82719189353625,0,1.82493792832396,1.69236994862742,1.91050154335722,1.90829594649712,1.69482706091894,1.8200430510818,1.69570736492889,1.82096204977351,1.69336633668264
1.95535835318303,1.95638376224956,1.95531965850127,0,1.95664495135142,2.08910652067312,1.95747688700917,1.95535835318303,1.9634068469883,1.96473213983845,1.89096072907037,1.97142631978226,2.07146174579232,0,1.9810516218691,2.08592388309868,2.03794247772107,2.03847452959522,2.03829072985687,2.05115671154079,2.03605611198546,2.06753423559408,2.03493396621453,0,2.0340343148637,1.96009845169815,1.95933423173347,1.95803795989464,1.9585990327801,1.95871511682537,1.95846360139396,2.04191835627151,2.04246975548654,0,2.04917360910079,2.046203792276,2.02848162803169,2.02874281713355,2.02805598653237,2.04574912976537,1.95491336434283,2.04492686777805,2.03325074755814,0,1.95348166111785,2.04150238844263,2.03461473509004,2.04599097152635,1.95045380227044,1.94871254159141,1.94831592110341,2.02746589263559,2.0348275558397,0,2.0362399117238,2.01835329508202,2.02908139559891,2.02084910205529,2.01470632132651,1.94199901430672,1.94142826775082,2.0257826739792,2.02738850327208,0,2.03277673770662,1.93863257699393,2.02231949996203,2.00940514992591,2.00720922673625,2.03652044816653,2.02317078296066,1.93298315345754,1.93263490132173,0,2.0189433889788,2.01196867259226,1.92826240228329,2.00785736265567,2.0159929194949,1.99996364757742,2.03168361294701,1.92378349287002,1.92153920132816,0,1.92096845477226,1.91896600499138,1.91729246000542,1.91609292487098,1.91432264318064,1.91603488284835,1.91791157491352,1.9151545788384,1.85185975315579,0,1.85156954304262,1.89665852095896,1.89414336664481,1.89090268704774,1.84046416937861,1.94111871029677,1.94585880881189,1.9398127647875,1.9346083300913,0,1.93340879495686,1.87716607502431,1.87611164494645,1.82741438795635,1.94447547393911,1.82096204977351,1.81892090531088,1.82091368142132,1.86726991016517,0,1.81831146407322,1.8154577312937,1.81423884881838,1.81696682388219,1.94835461578517,1.81508045814658,1.81433558552277,1.94538479896038,1.94198934063628,0,2.03858093997004,2.01875958924046,1.81440330121585,1.8116656524816,1.81216868334443,1.88712995557651,1.86328435794429,1.86097235070936,1.81167532615204,0,1.93211252311803,1.81089175884648,2.01156237843382,1.93180296566398,1.81175271551555,1.71727965000794,1.71694107154257,1.7140486440813,1.84570729875656,0,1.84238922979598,1.8054454823893,1.84422722717939,1.84239890346641,1.75254017875822,1.75105043351061,1.70127939910177,1.79473672921329,1.6979419828003,0,1.69861913973104,1.844130490475,1.69274722177454,1.69418859866996,1.69269885342235,1.69399512526118,1.69088987705025,1.84068666379871,1.83834563555246,0,1.83742663686075,1.79552029651885,1.68856819614488,1.83560798681821,1.83764913128085,1.79626516914266,1.68931306876869,1.68818124932732,1.68856819614488,0,1.69171213903757,1.69066738263015,1.6908028140163,1.78110652756469,1.68960327888186,1.68910992168947,1.69058999326664,1.6919926754803,1.68994185734722,0,1.69107367678859,1.69352111540967,1.6943723984083,1.69444011410137,1.69467228219191,1.90579046585341,1.6966263636206,1.82108780748922,1.69452717713533
2.08581747272385,1.88263169882236,1.95563888962576,0,1.95554215292137,1.95574530000059,1.99786446109215,1.88725571329222,1.96136570252567,1.96747946224314,1.96656046355143,1.99598776902697,1.97242270783748,0,1.89792577178648,2.08218017263878,2.08881631055995,1.96540929676918,2.0560419151125,2.04111544162507,2.0383971402317,2.03596904895151,2.03581427022448,0,2.03551438644087,1.9585990327801,1.95948901046049,1.95964378918752,1.95810567558771,1.95769938142927,1.95600648910244,2.04899948303289,1.95647082528352,0,2.04258583953181,2.05414587570645,1.95488434333151,1.95636441490869,2.04911556707815,2.04033187431951,1.95239821002868,1.95451674385483,2.03116123474331,0,2.04121217832946,1.95187583182497,2.03859061364048,2.03893886577629,2.02807533387325,2.0589149952329,2.02992300492711,2.02729176656769,1.95175007410927,0,2.03547569175911,2.03091939298233,2.02604386308106,2.02231949996203,2.01478371069002,2.02123604887286,1.94284062363491,2.0313837291634,1.94158304647784,0,1.93994819617364,2.02983594189316,2.02906204825803,1.93781998867706,2.0057098078182,1.93551765511257,1.93436648833032,2.01909816770583,2.04475274171015,0,1.93006170498495,2.01336168113548,2.01878861025178,1.92804958153363,2.01134955768416,2.01343907049899,1.9251184593906,1.92168430638475,1.92121997020367,0,1.9195174042064,1.91879187892347,1.9187725315826,1.92133605424894,1.91845330045811,1.91524164187235,1.91546413629245,1.91499980011137,1.8513663959634,0,1.89806120317262,1.89532355443838,1.84551382534778,1.84389832238446,1.84205065133061,1.83880029806309,1.83775554165568,1.93730728414379,1.93395052050144,0,1.87885896735114,1.87680814921806,1.87570535078801,1.82570214828864,1.82413501367752,1.87238728182742,1.8716617565445,1.82153279632942,1.86728925750605,0,1.81927883111712,1.81782778055127,1.94497850480194,2.02213570022369,1.8174408337337,1.81623162492882,1.8143162381819,1.81446134323848,1.90895375608698,0,1.8138712493417,1.81296192432043,1.81128837933448,1.86162048662878,1.93258653296954,1.81454840627243,1.86116582411814,1.85985020493843,1.81194618892433,0,1.81214933600355,1.81084339049428,1.8118397785495,1.92831077063548,1.81231378840102,1.71689270319037,1.81231378840102,1.81065959075594,1.71004374451954,0,1.70858302028324,1.8411800209911,1.84136382072944,1.70378487974548,1.70106657835211,1.82719189353625,1.70043778977358,1.70021529535348,1.69813545620909,0,1.69656832159796,1.6938016518524,1.84207967234193,1.84086078986661,1.69355981009142,1.69327927364869,1.84058025342388,1.69148964461747,1.69156703398098,0,1.68988381532459,1.68757180808966,1.68487285403717,1.6878039761802,1.775186241256,1.68811353363424,1.68808451262293,1.8331025061745,1.69099628742508,0,1.69001924671073,1.68706877722683,1.8812773849609,1.68919698472342,1.83140961384767,1.68866493284927,1.68923567940517,1.69099628742508,1.82793676616006,0,1.69352111540967,1.69031913049434,1.69382099919328,1.74188946760484,1.74042874336855,1.82415436101839,1.82249048970288,1.82103943913703,1.81834048508453
1.95293993557327,1.95270776748273,1.88226409934568,0,2.0955201641742,1.8836571078889,1.99810630285312,2.00183066597215,1.96169460732059,1.88882284790334,1.99559114853897,2.06961407473847,2.06860801301281,0,1.99580396928863,1.99799021880785,2.03848420326565,1.96439356137309,2.05538410552265,2.03868735034487,2.03838746656126,2.03533058670253,1.95925684236996,0,2.03521450265726,1.95863772746186,1.95897630592723,1.95916977933601,1.95790252850849,1.95584203670498,2.04716148564947,2.04611672924205,2.03642371146214,0,1.9560451837842,2.04157977780615,2.04593292950371,1.95408142868507,2.0376038992557,2.04534283560693,2.0452364252321,2.03912266551463,1.95119867489424,0,1.95103422249678,2.04476241538059,2.0357949228836,2.03458571407872,2.03161589725394,2.03644305880302,2.03820366682292,2.04519773055034,2.03602709097414,0,2.03315401085375,2.0219905951671,1.94502687315414,2.02612125244457,2.01582846709743,2.03054211983521,2.01282962926133,1.94143794142126,1.94143794142126,0,1.9395419020152,2.0272433982155,2.02851064904301,2.01601226683578,2.02239688932554,1.93555634979432,1.93435681465988,2.01812112699149,1.9324027332312,0,2.0193400094668,2.01756005410602,2.01912718871715,1.92812697089714,1.92532160646982,1.92470249156172,1.9953009384258,2.00993720180006,2.00285607503869,0,1.92167463271431,1.92119094919235,1.91729246000542,1.91664432408601,1.91606390385967,1.91544478895157,1.91742789139157,1.9158994514622,2.01207508296709,0,1.85117292255462,1.84750660145822,1.84583305647227,1.94436906356428,1.84094785290056,1.83906148716495,1.83806509910973,1.90223055513185,1.88213834162997,0,1.83140961384767,1.92892988554358,1.87666304416148,1.87470896273279,1.87481537310762,1.87094590493201,1.87089753657981,2.03489527153277,1.82101041812571,0,1.81877580025429,1.81741181272239,1.81640575099673,2.03511776595287,1.81598978316785,2.01485142638309,1.81418080679575,1.81420982780707,1.94072208980877,0,1.93930973392467,1.8639808622159,1.86229764355951,1.86192037041239,1.86165918131053,1.81432591185233,1.81381320731907,1.81202357828784,1.81080469581253,0,1.81137544236843,1.93221893349285,2.00517775594406,1.81394863870521,1.81199455727653,1.71561577869242,1.712587919845,1.70935691391837,1.75753179270476,0,1.70764467425066,1.8151094791579,1.79444651910012,1.80435235762969,1.70153091453319,1.84562990939305,1.81882416860649,1.6979903511525,1.69829023493611,0,1.84208934601237,1.69413055664732,1.69258276937708,1.84057057975344,1.68812320730468,1.6903578251761,1.83834563555246,1.83766847862173,1.68999022569942,0,1.68897449030332,1.68970001558625,1.83308315883362,1.68746539771483,1.83568537618172,1.7416572995143,1.73968387074474,1.83133222448416,1.83070343590562,0,1.77982960306674,1.68743637670351,1.83136124549548,1.68810385996381,1.68997087835854,1.68942915281395,1.77517656758556,1.82723058821801,1.68924535307561,0,1.68900351131464,1.68798777591854,1.69223451724127,1.69130584487913,1.74102851093577,1.82120389153449,1.69029010948303,1.7417056678665,1.74122198434455
2.0037267053782,1.88142249001748,2.00170490825644,0,1.88364743421846,1.95670299337405,1.95549378456917,1.8856885786811,1.9612496184804,1.96246850095572,1.96860160801407,1.96874671307065,1.97174555090675,0,1.97272259162109,2.08660104002941,2.06269740037456,2.05624506219172,1.96449997174791,2.04617477126469,2.06173003333066,2.03485657685102,2.03430517763599,0,2.03938385461648,2.03593035426975,1.95767036041796,2.03466310344224,1.95753492903181,1.95773807611103,1.95713830854381,2.02943932140516,2.03993525383151,0,2.05219179427777,2.0264017888873,1.95451674385483,1.95444902816176,2.03461473509004,2.05118573255211,1.95408142868507,2.03537895505472,1.95091813845151,0,1.95250462040351,2.04138630439736,2.04114446263639,2.04572978242449,2.04519773055034,1.95059890732702,2.02518290641198,2.040651105444,2.03203186508282,0,2.03002941530194,2.02012357677237,1.94490111543843,2.02469922289003,2.02669199900047,2.03106449803891,2.02932323735989,2.02647917825081,1.94226987707901,0,1.94207640367023,1.93875833470964,2.02606321042193,1.93815856714242,2.02877183814486,1.93442453035295,2.0211489858389,2.02139082759988,1.93450191971647,0,2.01478371069002,2.01855644216124,2.02501845401452,1.92829142329461,2.0308129826075,1.92480890193655,1.92347393541597,2.02200026883754,1.99164429099985,0,1.91857905817382,1.91565760970123,1.91885959461655,1.91732148101674,1.91570597805342,1.91818243768581,1.99789348210346,1.91464187430513,1.99829010259146,0,1.84929623048945,1.84758399082174,1.84651988707344,1.94516230454028,1.94362419094048,1.83908083450583,1.83797803607578,1.90106004100872,1.8996670324655,0,1.87926526150958,1.87793029498899,1.87753367450099,1.82562475892513,1.82358361446249,2.02541507450252,2.03837779289082,1.82051706093332,1.86873063440147,0,1.81959806224161,1.82052673460376,1.86653471121181,1.81701519223439,1.81719899197273,1.94277290794184,1.81761495980161,1.81772137017644,1.8155060996459,0,1.81715062362053,1.81520621586229,1.86445487206741,1.92144246462377,1.86286839011541,1.81394863870521,1.81490633207868,1.8151094791579,1.81393896503477,0,1.81089175884648,1.81386157567126,1.86116582411814,1.86129158183385,1.81137544236843,1.71234607808403,1.71036297564403,1.71074992246159,1.70757695855758,0,1.8174408337337,1.70668698087719,1.70430725794919,1.70158895655582,1.69945107538879,1.69840631898138,1.69692624740421,1.69681983702938,1.84109295795714,0,1.83984505447051,1.69354046275054,1.6933566630122,1.69105432944771,1.69042554086917,1.68944850015483,1.69072542465278,1.68764919745317,1.68796842857766,0,1.84114132630934,1.83790064671226,1.83775554165568,1.6878039761802,1.6867398724319,1.73860041965557,1.73773946298649,1.83251241227772,1.68687530381805,0,1.68394418167502,1.83504691393275,1.68871330120147,1.68766854479405,1.68786201820283,1.78156119007532,1.68454394924224,1.68733963999912,1.82394154026874,0,1.78156119007532,1.78131934831435,1.69007728873337,1.81937556782151,1.74085438486786,1.69060934060752,1.69066738263015,1.69339535769396,1.69258276937708
1.95471989093405,1.95534867951259,1.95576464734147,0,1.956790056408,1.95662560401054,1.9576316657362,1.88646247231622,1.99726469352493,1.96429682466869,1.99637471584453,1.96907561786558,1.89623287945964,0,1.99498170730131,2.07800114700911,1.91471926366864,2.06522222835915,2.03551438644087,2.04333071215561,2.03521450265726,2.06439029270139,1.96086267166284,0,1.95919880034732,1.9566159303401,1.95759297105444,1.95635474123825,1.9554260688761,1.95534867951259,2.03950961233219,2.04358222758703,1.95420718640078,0,2.02918780597374,2.05070204903016,1.95393632362849,2.03806823543678,2.0318287180036,2.0256085479113,2.0327960850475,1.95303667227766,2.04565239306098,0,1.95495205902459,1.9511890012238,2.03858093997004,2.04338875417824,2.0498217450202,2.04232465042995,1.94921557245424,2.03348291564867,2.03470179812399,0,2.0232288249833,2.04255681852049,2.03424713561336,2.04138630439736,2.02846228069081,2.03962569637746,2.02513453805979,1.94110903662633,1.94072208980877,0,1.93972570175355,2.0244186864473,1.9387970293914,2.00894081374484,1.93750075755257,1.93658175886086,2.04056404241005,2.03227370684379,2.01874024189958,0,2.01302310267011,1.92946193741773,2.01273289255694,2.02623733648984,1.92742079295509,2.00901820310835,2.01405818540709,2.00783801531479,1.99865770206815,0,1.98537575255535,1.99127669152316,1.98990303032082,1.91746658607333,1.91786320656133,1.91728278633498,1.91338429714805,1.99872541776122,1.85206290023501,0,1.84897699936496,1.84804832700281,1.84420787983851,1.94172815153443,1.83987407548183,1.84015461192456,1.83506626127363,1.94645857637911,1.83423432561587,0,1.83251241227772,1.83028746807674,1.82788839780786,1.94436906356428,1.9185016688103,2.02395435026622,1.94391440105365,1.82089433408044,1.819694798946,0,1.93440518301208,1.93837138789208,1.86707643675639,1.92558279557168,1.86519974469122,1.81692812920044,1.81727638133624,1.81773104384688,1.81501274245351,0,1.81467416398814,1.86608972237161,1.86405825157941,1.8627910007519,1.93769423096135,1.81334887113799,1.81407439642092,1.81452905893155,1.86287806378585,0,1.86370999944361,1.86252981165005,1.8147128586699,1.86219123318468,1.81103686390306,1.71267498287895,1.71207521531173,1.70831215751095,1.70487800450509,0,1.70671600188851,1.70147287251055,1.70338825925748,1.84715834932242,1.70105690468167,1.69866750808323,1.69522368140694,1.69498183964596,1.8144903642498,0,1.69378230451152,1.6911994345043,1.69027076214215,1.69118976083386,1.69001924671073,1.6889938376442,1.68480513834409,1.68670117775015,1.68774593415756,0,1.68674954610234,1.68565642134273,1.68788136554371,1.83572407086348,1.83388607348006,1.68329604575561,1.83229959152806,1.6857241370358,1.83241567557333,0,1.93357324735432,1.83443747269509,1.68762017644185,1.68530816920692,1.68737833468088,1.68821027033864,1.68646900965961,1.6871848612721,1.82403827697313,0,1.68487285403717,1.68407961306117,1.69135421323132,1.68994185734722,1.81894992632219,1.81857265317507,1.81720866564317,1.6939274095681,1.69422729335171
1.95471989093405,1.95471021726361,1.95622898352254,0,1.88052283866665,1.95600648910244,1.99904464888571,1.95985660993718,1.96109483975337,1.96134635518479,2.08190930986648,1.96906594419514,1.97097165727163,0,1.97531513529876,2.08913554168444,2.0534880661166,2.03693641599541,2.03668490056399,2.06173003333066,2.03567883883833,2.0420634613281,1.9592665160404,0,1.95894728491591,1.96097875570811,1.95576464734147,1.95609355213639,1.95672234071493,1.95410077602595,2.04978305033845,2.0292265006555,2.04493654144849,0,2.0264017888873,2.02523127476418,2.03817464581161,2.02775610274876,2.02531833779813,2.04169586185141,2.04214085069161,2.02009455576105,1.95263037811922,0,2.03828105618643,2.03935483360517,2.0522982046526,1.95055053897483,2.03819399315248,1.95048282328175,2.04470437335795,2.02525062210505,2.03692674232497,0,2.02767871338525,2.02822043892984,1.94498817847238,2.03602709097414,1.94453351596175,2.02811402855501,2.02549246386603,1.9404318796956,2.02111029115715,0,2.02544409551384,2.02946834241647,2.01611867721061,2.00748976317899,1.93809085144935,2.01595422481314,2.01908849403539,2.0192142517511,2.01834362141158,0,1.92883314883919,2.02254199438212,2.01856611583168,2.02202928984886,2.02141017494076,1.92532160646982,1.92447032347119,2.00788638366699,1.92022358214845,0,1.98604323581565,1.91809537465186,1.91773744884562,1.91666367142689,1.91573499906474,1.91690551318786,1.91628639827976,1.9883358957097,1.98463087993155,0,1.90061505216853,1.84839657913862,1.84493340512144,1.84213771436456,1.89185070675076,1.89254721102237,1.94526871491511,2.03983851712712,1.83423432561587,0,1.83199003407401,1.92623093149109,1.8308969093144,1.82781100844435,1.82406729798444,1.92394794526748,1.91779549086825,1.82211321655576,1.82025587183146,0,1.82041065055849,1.87067504215971,1.92797219217012,1.86763750964186,1.8194723045259,1.8178858225739,1.86578016491756,1.81631868796278,1.81520621586229,0,1.81814701167575,1.8170925815979,1.8142678698297,1.81465481664726,1.81311670304746,1.81432591185233,1.81396798604609,1.81433558552277,1.86438715637434,0,1.91477730569127,1.86342946300088,1.81301996634307,1.81281681926385,1.8625685063318,1.71101111156344,1.75985347361013,1.70717066439914,1.70706425402431,0,1.89501399698433,1.89476248155291,1.70378487974548,1.6999734535925,1.69842566632226,1.74552676768992,1.75195975853188,1.69399512526118,1.69339535769396,0,1.69128649753825,1.69112204514078,1.69048358289181,1.69046423555093,1.89276970544247,1.78806189661035,1.92789480280661,1.73471160413908,1.68666248306839,0,1.68694301951112,1.68563707400185,1.68675921977278,1.83545320809119,1.68323800373297,1.68092599649804,1.68469872796927,1.68454394924224,1.82672755735518,0,1.68455362291268,1.83225122317587,1.68525980085473,1.68184499518975,1.68480513834409,1.68450525456049,1.68434080216302,1.68465035961707,1.68727192430605,0,1.82468641289254,1.68523077984341,1.69003859405161,1.68802647060029,1.68923567940517,1.68949686850703,1.69186691776459,1.69391773589767,1.81134642135711
1.95293026190283,2.00168556091556,1.95556150026225,0,1.95535835318303,1.95630637288605,1.95867642214362,1.95943096843786,1.95784448648586,1.96137537619611,2.06520288101827,2.08622376688229,1.972103476713,0,2.08348611814805,2.07380277403857,2.07253552321106,1.96438388770265,1.96531256006479,2.06864670769457,2.05728981859914,2.0562644095326,1.95845392772352,0,1.95890859023415,1.95733178195259,1.95702222449854,1.95771872877015,1.95524226913776,1.95511651142205,1.95486499599064,2.02805598653237,2.02469922289003,0,1.95470054359317,2.06576395390373,2.05245298337962,2.05483270630762,1.9536654608562,2.05548084222704,1.95238853635824,2.04199574563502,2.0326219589796,0,2.02825913361159,2.03933548626429,2.03875506603795,2.03590133325843,2.02779479743052,2.04634889733259,1.94800636364936,2.02854934372477,2.03044538313082,0,2.03389888347755,2.04854482052225,2.0282107652594,2.02704992480671,2.02818174424808,1.94206672999979,2.02982626822272,2.02052987093081,2.01993977703402,0,1.93893246077755,2.03177067598096,2.02149723797471,2.0260051683993,2.02016227145412,2.01909816770583,1.93452126705734,2.02539572716164,1.93248979626515,0,2.0092020028467,2.01423231147499,1.9947301918699,2.03206088609414,2.01918523073978,1.9251184593906,2.00541959770503,2.00567111313645,1.9920796061696,0,1.99606515839049,1.91970120394474,1.91586075678045,1.91732148101674,1.91584140943957,1.91479665303215,1.99945094304415,1.91558022033771,1.98638181428101,0,1.94459155798438,1.85068923903267,1.84505916283715,1.84319214444242,1.8407834005031,1.83844237225685,1.83627547007851,1.83571439719304,1.83430204130894,0,1.83338304261723,1.83225122317587,2.02638244154642,1.82861392309079,1.94797734263804,1.82458967618815,1.82268396311166,1.94485274708623,1.8225195107142,0,1.82055575561507,1.92186810612309,1.89183135940988,1.86730860484693,1.82049771359244,1.92504107002709,2.02135213291812,1.81752789676766,1.81521588953273,0,1.86523843937298,1.81533197357799,1.81379385997819,1.81803092763049,1.81732474968844,1.81536099458931,1.81524491054404,2.02289992018837,1.81446134323848,0,1.86312957921727,1.81642509833761,1.98464055360199,1.86449356674917,1.81405504908004,1.7118430472212,1.70770271627329,1.70740283248968,1.70435562630138,0,1.70387194277943,1.70096016797728,1.69886098149201,1.84750660145822,1.74428853787372,1.7435146442386,1.83629481741938,1.69372426248889,1.69186691776459,0,1.7878007075085,1.78447296487747,1.73687850631742,1.68693334584068,1.84050286406036,1.84052221140124,1.68586924209239,1.68568544235405,1.7332799009141,0,1.84124773668417,1.83916789753978,1.84109295795714,1.68525980085473,1.83313152718582,1.83234795988026,1.68452460190136,1.73139353517849,1.79964128012588,0,1.79864489207066,1.79871260776373,1.68472774898058,1.68315094069902,1.68286073058585,1.92771100306826,1.88121934293826,1.68708812456771,1.68366364523229,0,1.68228998402995,1.68614010486468,1.78292517760723,1.8200430510818,1.81863069519771,1.68707845089727,1.6875331134079,1.69161540233318,1.86434846169258
1.95351068212917,1.95600648910244,1.95431359677561,0,1.9540620813442,1.99935420633976,1.95934390540391,1.99757425097898,1.95851196974615,1.96178167035455,1.89086399236598,1.8927019897494,1.99289219448648,0,1.99228275324882,1.99144114392063,2.07195510298472,1.96335847863611,2.05922455268695,2.04957990325923,1.96272969005757,2.04391113238195,2.05233689933435,0,1.95827012798518,1.95714798221425,1.95568725797795,1.95606453112508,1.9552519428082,1.95533900584215,1.95524226913776,1.95408142868507,1.95462315422966,0,2.03902592881024,1.95691581412371,2.05117605888167,2.05565496829494,2.04559435103834,2.03999329585414,2.05899238459641,2.06881116009203,2.03603676464458,0,1.95177909512058,2.04555565635659,1.95188550549541,2.02948768975735,1.94892536234107,1.94834494211473,2.02809468121413,1.94981534002146,2.04163781982878,0,1.94449482127999,2.02554083221823,2.02725307188593,2.02287089917705,2.02579234764964,1.94137989939862,1.94226020340857,2.02252264704125,2.03135470815209,0,1.93956124935608,2.03392790448887,2.02812370222545,2.03530156569121,2.00988883344787,2.04277931294059,1.93434714098944,1.93414399391022,2.01539315192768,0,2.02167136404261,1.92791415014748,2.01768581182173,2.01004361217489,1.92686939374007,1.99563951689117,2.00450059901332,2.00533253467108,2.01256844015948,0,1.99562016955029,1.91774712251606,1.91727311266455,1.91503849479313,1.91449676924854,1.9145354639303,1.91627672460933,1.91581238842825,1.98547248925974,0,1.85083434408925,1.84804832700281,1.84562990939305,1.94537512528994,1.84167337818349,1.94698095458282,1.83536614505724,1.83525006101197,1.8349114825466,0,1.83243502291421,2.02915878496242,1.82811089222796,1.82876870181781,2.01788895890095,1.87424462655172,1.8740414794725,1.82174561707907,1.90423300491273,0,1.9144870955781,1.82314829929273,1.89127028652442,1.88922914206178,1.81980120932083,1.8186790635499,1.86797608810722,1.86790837241415,1.81886286328824,0,1.81645411934892,1.81826309572102,1.8182824430619,1.81736344437019,1.81575761507731,1.93434714098944,1.81595108848609,1.81430656451146,1.93222860716329,0,1.86257818000224,1.86512235532771,1.86468704015795,1.81695715021175,1.8660123330081,1.71358430790022,1.77051385843395,1.70484898349378,1.7044330156649,0,1.85456838087872,1.85336884574428,1.69690690006333,1.6971971101765,1.69276656911542,1.69207973851425,1.69135421323132,1.69229255926391,1.89590397466472,0,1.68984512064283,1.68853917513356,1.6874073556922,1.6853275165478,1.68701073520419,1.68750409239659,1.73384097379956,1.68295746729024,1.68252215212048,0,1.6823286787117,1.8415766414791,2.03536928138428,1.68177727949668,1.68287040425629,1.83582080756787,1.68127424863385,1.73075507292951,1.73040682079371,0,1.73153864023507,1.68217389998468,1.68188368987151,1.68358625586878,1.68235769972302,1.68188368987151,1.68380875028887,1.68323800373297,1.68375070826624,0,1.68568544235405,1.82493792832396,1.68694301951112,1.81808896965312,1.82107813381878,1.68792006022546,1.68847145944049,1.81775039118775,1.68988381532459
1.94875123627317,1.9542362074121,1.95479728029756,0,1.88093880649553,1.8816740054489,1.88236083605007,1.88438263317183,1.88480827467114,1.96290381612547,1.889828909629,1.89228602192052,1.97084589955592,0,1.9710877413169,2.0787653669738,2.06082070830939,2.03527254467989,2.05230787832304,1.96254589031923,2.05616767282821,2.04702605426332,1.95879250618888,0,1.95784448648586,1.95752525536137,1.95861838012098,1.95526161647864,1.95474891194537,1.9540620813442,1.9546328279001,1.95455543853659,1.953617092504,0,1.95529063748995,1.95471989093405,1.95470054359317,2.04190868260107,2.03856159262917,2.05175647910801,2.05268515147016,1.95247559939219,2.03337650527384,0,2.03891951843541,2.03431485130643,2.03726532079034,1.95078270706536,1.95000881343024,1.94859645754614,2.02707894581803,2.03208990710545,2.03411170422721,0,1.94589750349365,1.94516230454028,2.02584071600184,1.94438841090516,2.02612125244457,2.03864865566312,1.94188293026145,2.02046215523773,2.03406333587502,0,2.02205831086017,2.02828815462291,2.0181501480028,2.02479595959442,2.03549503909999,2.02087812306661,2.00958894966426,1.93206415476583,1.93147406086905,0,1.92954900045168,1.92826240228329,2.01268452420475,1.92677265703568,1.92503139635665,2.01698930755012,1.9959684216861,1.99806760817137,1.99360804609897,0,1.91747625974377,1.91752462809596,1.91730213367586,1.91642182966591,1.91592847247352,1.91487404239566,1.91384863332913,1.98593682544082,1.98484370068121,0,1.84979926135228,1.84894797835364,2.03750716255131,1.84494307879188,1.84117034732066,1.8409091582188,1.83577243921568,1.94805473200156,2.0295747527913,0,1.94590717716409,1.83085821463265,1.83124516145021,1.82828501829586,1.92329980934806,1.82657277862815,1.82742406162679,1.82175529074951,1.82181333277215,0,1.82197778516961,2.01595422481314,1.82021717714971,1.86831466657259,1.81917242074229,1.86823727720908,1.81884351594736,1.81953034654854,1.81953034654854,0,1.93736532616642,1.81846624280024,1.93487919286359,1.88448904354666,1.88503076909124,1.81743116006327,1.81638640365585,1.81587369912258,1.93088396697227,0,1.92607615276407,1.86588657529239,1.81847591647068,1.81727638133624,1.81900796834483,1.70737381147836,1.77054287944526,1.70252730258841,1.70124070442002,0,1.70035072673962,1.69770014103933,1.85003142944281,1.74434657989636,1.69243766432049,1.74193783595704,1.69182822308283,1.69026108847171,1.68904220599639,0,1.68595630512634,1.6887713432241,1.68760082910098,1.68604336816029,1.68723322962429,1.68409896040205,1.68466970695795,1.68442786519697,1.68335408777824,0,1.6825028047796,1.83843269858641,1.67938788289824,1.68291877260848,1.68070350207794,1.83478572483089,1.84058025342388,1.68070350207794,1.73128712480366,0,1.67767564323053,1.67985221907931,1.68080023878233,1.68333474043736,1.68322833006253,1.68149674305395,1.8271531988545,1.68439884418566,1.82665016799167,0,1.68383777130019,1.68366364523229,1.82151344898854,1.68450525456049,1.68371201358448,1.68826831236127,1.73885193508698,1.73678176961303,1.81649281403068
1.95348166111785,1.95095683313327,1.95403306033288,0,1.95244657838088,2.08677516609732,1.999315511658,1.88576596804461,1.88645279864578,1.9620428594564,1.96153982859357,2.08326362372795,1.89559441721067,0,2.07372538467506,2.07223563942745,1.91414851711274,2.05534541084089,2.04944447187308,2.046203792276,2.05744459732616,2.05839261702919,2.04835134711347,0,1.95732210828215,1.9556485632962,1.95611289947727,1.95611289947727,1.95464250157054,1.95433294411649,1.95422653374166,2.05477466428499,1.95446837550264,0,2.02456379150388,2.03825203517512,1.95517455344468,2.0438724377002,2.04214085069161,1.95238853635824,1.95179844246146,1.95191452650673,2.04529446725473,0,2.04611672924205,2.03802954075502,1.94991207672585,2.04102837859112,2.05060531232577,1.94852874185307,2.03169328661745,2.02811402855501,1.94752268012741,0,2.03100645601628,1.94503654682458,2.03176100231053,2.02189385846271,1.94285029730535,1.9423666137834,2.02633407319423,2.0290523745876,2.0354466707478,0,2.01936903047812,2.04288572331542,2.01149466274075,2.03147079219735,2.02783349211228,2.02568593727481,2.01117543161626,2.02851064904301,1.93191904970924,0,2.01586716177919,1.92896858022534,2.01337135480592,2.02210667921237,2.01369058593041,2.01229757738719,1.99501072831263,1.99454639213156,1.99577494827731,0,1.99435291872278,1.99307599422482,1.9173118073463,1.91737952303937,1.91460317962337,1.91726343899411,1.913471360182,1.99854161802288,1.8501765344994,0,1.84914145176242,1.84869646292223,2.03788443569843,1.84451743729256,1.84402408010017,1.83995146484534,1.93924201823159,1.83682686929353,1.83412791524104,0,1.9450171994837,1.92466379687997,1.94611999791375,1.93177394465266,1.87589882419679,1.82842044968201,1.8270564621501,1.82764655604689,1.82536356982327,0,1.82346753041722,1.82387382457566,1.82275167880473,1.82016880879751,1.94197966696584,1.81898862100395,1.82149410164766,1.81996566171829,1.81923046276493,0,2.03520482898682,1.8205364082742,1.81880482126561,1.81857265317507,1.82015913512707,1.81856297950463,1.81537066825975,1.93167720794827,1.81708290792746,0,1.81375516529643,1.81761495980161,2.00130828776844,2.01637019264202,1.81696682388219,1.70570026649241,1.70342695393924,1.70198557704382,1.70025399003523,0,1.85192746884886,1.69629745882567,1.69537846013396,1.74244086681987,1.74260531921733,1.74127035269674,1.6899612046881,1.68791038655503,1.8447979737353,0,1.84837723179774,1.68787169187327,1.68435047583346,1.73781685235001,1.68446655987873,1.68350886650526,1.68301550931287,1.67902995709199,1.68159347975834,0,1.8405125377308,1.83798770974621,1.68024883956731,1.67829475813862,1.83685589030485,1.68003601881765,1.68035524994214,1.67929114619385,1.67889452570584,0,1.67813030574116,1.68040361829433,1.67706620199287,1.67926212518253,1.88379253927505,1.68031655526038,1.77397703245112,1.68357658219834,1.82518944375537,0,1.82116519685273,1.8234868777581,1.82034293486541,1.68085828080497,1.82120389153449,1.81841787444805,1.68736866101044,1.68611108385336,1.68692367217024
1.95491336434283,1.95279483051668,1.95408142868507,0,1.95456511220703,1.95589040505717,1.88243822541358,1.9580282862242,1.9997605004982,1.96382281481718,1.96319402623864,1.9648675712246,1.97018808996607,0,2.06454507142841,2.07057176811193,2.07162619818979,2.03781672000536,2.03857126629961,2.05019901816733,2.0492026301121,2.03527254467989,1.95811534925815,0,1.95623865719298,1.95574530000059,1.95578399468234,1.95425555475298,1.95453609119571,1.95437163879825,2.02972953151833,2.05811208058646,2.04243106080478,0,2.03712021573375,2.03471147179443,1.95354937681093,1.95321079834556,1.95219506294946,2.04601031886722,2.03772965697141,2.04403689009766,2.05794762818899,0,1.95108259084897,2.03241881190038,2.03292184276321,2.04489784676673,2.04196672462371,1.94802571099024,2.04592325583327,2.0335893260235,2.01864350519519,0,2.03329911591033,2.03156752890174,2.02973920518877,2.03991590649063,1.94314050741853,2.03742009951736,1.94180554089794,1.94079947917228,1.93913560785676,0,1.93799411474496,1.93705576871237,1.93799411474496,2.04220856638468,2.01687322350485,2.01898208366056,2.02496041199188,2.01933033579637,2.01716343361802,0,2.01850807380905,2.01283930293177,2.03264130632048,2.02337393003988,1.92512813306104,2.0157220567226,2.01280060825002,2.01015002254972,1.99147983860238,0,1.99467214984726,1.92118127552192,1.91654758738162,1.91342299182981,1.91466122164601,1.91461285329381,2.01199769360358,1.98822948533487,1.98787155952862,0,2.03786508835756,1.84884156797881,1.84747758044691,2.02942964773472,1.84199260930798,2.02539572716164,1.83798770974621,1.83601428097665,1.83478572483089,0,1.83322826389021,1.95909238997249,1.94428200053033,1.87816246307953,1.82781100844435,1.82698874645703,1.82771427173996,1.82721124087713,1.87435103692655,0,1.82444457113157,1.8241059926662,1.93947418632213,1.94017069059374,1.82065249231946,1.93895180811842,1.93921299722028,1.91792124858396,2.03179002332184,0,2.03400529385238,1.93515972930632,1.81835983242541,1.87438005793786,1.87358681696186,1.87211641905513,1.81555446799809,2.02664363064828,1.81967545160512,0,1.8174892020859,2.02067497598739,1.81857265317507,1.81737311804063,1.81759561246073,1.70204361906646,1.70270142865631,1.70194688236207,1.84560088838173,0,1.74608784057538,1.83497919823967,1.74411441180582,1.83483409318309,1.68831668071346,1.69148964461747,1.69049325656225,1.85463609657179,1.68399255002722,0,1.6853758849,1.73595950762571,1.68335408777824,1.73747827388464,1.73831988321284,1.68462133860575,1.68106142788419,1.83804575176885,1.83814248847324,0,1.67920408315989,1.84115099997978,1.67825606345687,1.67934918821648,1.67838182117258,1.78086468580371,1.67815932675248,1.83278327505001,1.67703718098155,0,1.67472517374662,1.82717254619537,1.6787107259675,1.67939755656867,1.67900093608067,1.78727832930479,1.67754021184438,1.68103240687287,1.82572149562952,0,1.82352557243986,1.68137098533824,1.82543128551635,1.68338310878956,1.81974316729819,1.81743116006327,1.68480513834409,1.68743637670351,1.8074769531815
1.95210799991551,1.95165333740488,2.09935093766806,0,2.07243878650667,1.99859966004551,1.95795089686069,1.88448904354666,1.95911173731337,1.88787482820032,1.89076725566159,1.96800184044685,2.0788911246895,0,2.08864218449205,2.06460311345105,2.05587746271504,2.03632697475775,2.0358432912358,2.06245555861358,2.03514678696419,1.95846360139396,2.03253489594565,0,2.03771030963053,1.95530031116039,1.95614192048859,1.95261103077834,1.95310438797073,2.02941997406428,2.0295747527913,2.04789668460284,1.95168235841619,0,1.95254331508527,2.05067302801884,1.95183713714322,1.95226277864254,2.0416668408401,1.95217571560858,2.04243106080478,2.03462440876048,2.03848420326565,0,2.03021321504028,1.94854808919395,1.94868352058009,1.94895438335239,2.03128699245901,1.94822885806946,2.03154818156087,2.04483013107366,2.03835844554995,0,1.94511393618809,2.03473081913531,2.02981659455228,2.02201961617842,1.94284062363491,2.02268709943871,2.02802696552106,2.0290040062354,1.9395419020152,0,2.02150691164515,2.02484432794662,1.93770390463179,1.9351790766472,1.93480180350008,2.00736400546328,2.01530608889373,2.01121412629801,1.93185133401617,0,2.02305469891539,1.92865902277129,2.01824688470719,2.00898918209704,2.01996879804534,2.01830492672983,1.92210994788406,1.92081367604523,1.99157657530677,0,1.91765038581167,1.91635411397284,1.91525131554279,1.9149320844183,1.91824047970845,1.91390667535176,1.91365515992035,1.99975082682776,1.85311733031287,0,1.85252723641608,1.84888993633101,1.84388864871403,1.84511720485978,1.93603035964583,1.83903246615363,1.83821987783675,1.83324761123109,1.83140961384767,0,1.88200291024382,1.88120966926782,1.8295329217825,1.87803670536382,1.87744661146704,1.82964900582777,1.82651473660552,1.8243284870863,1.87385767973416,0,1.94064470044525,1.82272265779342,1.87797866334119,1.81922078909449,2.03193512837843,1.82038162954717,1.91771810150474,1.81821472736883,1.81928850478756,0,1.82070086067166,1.82120389153449,1.81978186197995,1.87382865872284,1.81571892039556,1.81863069519771,1.87154567249923,1.87098459961376,1.93613677002066,0,2.02167136404261,1.81800190661917,1.81982055666171,1.81853395849332,1.81775039118775,1.70397835315426,1.7006409368528,1.69931564400265,1.84817408471852,0,1.69624909047347,1.74348562322728,1.83282196973177,1.6919926754803,1.83459225142211,1.68803614427073,1.85210159491677,1.68514371680946,1.68621749422819,0,1.73820379916757,1.79210549085387,1.68321865639209,1.68422471811775,1.67877844166058,1.68228031035951,1.75079891807919,1.67780140094623,1.84608457190369,0,1.6785849682518,1.67820769510467,1.68069382840751,1.67859464192223,1.67587634052887,1.67766596956009,1.6780916110594,1.83404085220709,1.83042289946289,0,1.67763694854877,1.67577960382448,1.67805291637765,1.9357981915553,1.67745314881043,1.67735641210604,1.68069382840751,1.67930081986428,1.68047133398741,0,1.8271531988545,1.68174825848536,1.82436718176805,1.68406026572029,1.68432145482214,1.68437949684478,1.6843601495039,1.799621932785,1.73511789829752
