1.25969, 1.25682, 1.25509, 1.27026, 1.25159, 1.2502, 1.25116, 1.24742, 1.25909, 1.24971, 1.25157, 1.25102, 1.25107, 1.25172, 1.25116, 1.24946, 1.24811, 1.24652, 1.2442, 1.24414, 1.2441, 1.24396, 1.24837, 1.24808, 1.24306, 1.27549, 1.38884, 1.49398, 1.45911, 1.35833, 1.21112, 1.2522, 1.25699, 1.25153, 1.24536, 1.24375, 1.24477, 1.24619, 1.24598, 1.24693, 1.24798, 1.24976, 1.24769, 1.24896, 1.25035, 1.2555, 1.25225, 1.25338, 1.25431, 1.25491, 1.25505, 1.25365, 1.25089, 1.25341, 1.25314, 1.25338, 1.25438, 1.25457, 1.25374, 1.25521, 1.25769, 1.25838, 1.25997, 1.26122, 1.26337, 1.2627, 1.26137, 1.26127, 1.26104, 1.26235, 1.26438, 1.26829, 1.26785, 1.2707, 1.27181, 1.27202, 1.27423, 1.27634, 1.27718, 1.27607, 1.27667, 1.27844, 1.28237, 1.28219, 1.28511, 1.28609, 1.29315, 1.29806, 1.29735, 1.29884, 1.3024, 1.30029, 1.29821, 1.29677, 1.29912, 1.30583, 1.30354, 1.31261, 1.31014, 1.32359, 1.32448, 1.40882, 1.48977, 1.87175, 1.53987, 1.33315, 1.35457, 1.33661, 1.33391, 1.34355, 1.34615, 1.34151, 1.34035, 1.34479, 1.34635, 1.3505, 1.34974, 1.35376, 1.35879, 1.36687, 1.36362, 1.36633, 1.36927, 1.37596, 1.36973, 1.37991, 1.37492, 1.37848, 
1.26363, 1.26146, 1.25997, 1.25841, 1.25696, 1.25739, 1.25772, 1.25685, 1.2573, 1.25618, 1.25388, 1.2528, 1.25109, 1.25444, 1.25519, 1.25419, 1.25043, 1.24967, 1.24861, 1.25179, 1.24795, 1.24665, 1.25036, 1.25466, 1.25952, 1.32754, 1.44436, 1.49242, 1.47201, 1.24401, 1.24498, 1.25447, 1.25545, 1.25584, 1.25508, 1.25092, 1.24882, 1.24737, 1.2471, 1.24887, 1.25333, 1.25079, 1.24927, 1.24773, 1.24433, 1.2479, 1.25033, 1.25403, 1.25311, 1.25681, 1.2551, 1.25682, 1.25761, 1.25685, 1.25511, 1.25254, 1.2582, 1.25459, 1.25643, 1.25801, 1.2592, 1.26193, 1.26122, 1.26237, 1.26352, 1.26416, 1.26369, 1.26353, 1.26504, 1.26869, 1.27216, 1.27639, 1.27773, 1.27708, 1.27743, 1.27851, 1.27658, 1.27847, 1.27985, 1.28054, 1.28285, 1.28577, 1.28804, 1.29028, 1.29399, 1.2957, 1.29568, 1.29902, 1.30076, 1.30182, 1.3018, 1.30296, 1.30189, 1.30218, 1.3052, 1.30676, 1.3145, 1.31113, 1.33429, 1.33674, 1.34008, 1.39566, 1.54081, 1.71982, 2.23077, 1.33153, 1.34313, 1.33807, 1.34615, 1.33803, 1.34061, 1.34982, 1.34486, 1.36209, 1.36461, 1.35638, 1.35735, 1.3711, 1.36482, 1.37792, 1.37401, 1.37951, 1.38006, 1.38008, 1.37971, 1.38086, 1.38582, 1.38662, 
1.27344, 1.27363, 1.26734, 1.26715, 1.26874, 1.27119, 1.27008, 1.26727, 1.26638, 1.26297, 1.25972, 1.26235, 1.26116, 1.2651, 1.26379, 1.26352, 1.25866, 1.2575, 1.25666, 1.2669, 1.25833, 1.26055, 1.26357, 1.26792, 1.24434, 1.2748, 1.42621, 1.45552, 1.3892, 1.33007, 1.20498, 1.28529, 1.26489, 1.26369, 1.26252, 1.26424, 1.25725, 1.25678, 1.26136, 1.25519, 1.25708, 1.25659, 1.25828, 1.25836, 1.26734, 1.25739, 1.25974, 1.26183, 1.26176, 1.26222, 1.26386, 1.26355, 1.26374, 1.26214, 1.26103, 1.26263, 1.26197, 1.26215, 1.26431, 1.26759, 1.26897, 1.27138, 1.27145, 1.27106, 1.27129, 1.27264, 1.27245, 1.27433, 1.27461, 1.27793, 1.30032, 1.28244, 1.28467, 1.28788, 1.28361, 1.28381, 1.2844, 1.28269, 1.28372, 1.28509, 1.28812, 1.28893, 1.29225, 1.29062, 1.292, 1.29366, 1.29268, 1.29681, 1.29862, 1.30351, 1.30298, 1.30112, 1.30481, 1.30493, 1.31265, 1.3086, 1.31102, 1.3145, 1.31717, 1.32973, 1.33797, 1.35397, 1.46424, 1.46539, 1.53908, 1.31525, 1.33815, 1.33632, 1.33511, 1.33639, 1.33808, 1.34096, 1.34675, 1.35064, 1.35432, 1.35835, 1.35872, 1.3611, 1.37282, 1.37392, 1.37783, 1.3792, 1.37886, 1.38224, 1.38265, 1.38391, 1.38254, 1.39073, 
1.27663, 1.27612, 1.27546, 1.27491, 1.27373, 1.27439, 1.27338, 1.27375, 1.27183, 1.26896, 1.26856, 1.2713, 1.26894, 1.26874, 1.27037, 1.26821, 1.2638, 1.26333, 1.26257, 1.26278, 1.26525, 1.26683, 1.27103, 1.27827, 1.26722, 1.33523, 1.4036, 1.64112, 1.43334, 1.25689, 1.27531, 1.26987, 1.26671, 1.26411, 1.2629, 1.2623, 1.2621, 1.26286, 1.25987, 1.26343, 1.26752, 1.26419, 1.26402, 1.26337, 1.26688, 1.26696, 1.2672, 1.26678, 1.26642, 1.26489, 1.265, 1.26998, 1.26894, 1.26511, 1.26655, 1.26693, 1.26766, 1.26887, 1.2743, 1.27542, 1.27648, 1.27721, 1.27575, 1.27982, 1.27994, 1.28277, 1.28321, 1.28031, 1.28177, 1.28217, 1.28566, 1.28655, 1.28743, 1.28857, 1.2909, 1.28796, 1.29314, 1.29376, 1.29505, 1.29328, 1.29523, 1.29779, 1.29763, 1.29979, 1.30279, 1.3023, 1.30534, 1.3047, 1.30633, 1.30584, 1.30606, 1.3105, 1.31544, 1.31514, 1.31678, 1.31823, 1.31722, 1.31651, 1.31989, 1.3364, 1.34349, 1.33753, 1.4517, 1.57459, 2.0699, 1.35819, 1.35135, 1.34875, 1.35204, 1.35158, 1.35147, 1.35569, 1.35917, 1.36331, 1.36347, 1.36432, 1.36783, 1.37188, 1.38336, 1.38047, 1.38178, 1.3841, 1.38937, 1.39286, 1.40632, 1.39406, 1.39633, 1.39886, 
1.27558, 1.28103, 1.28229, 1.27506, 1.27322, 1.27403, 1.27376, 1.27207, 1.26894, 1.27111, 1.27821, 1.26797, 1.26717, 1.26852, 1.26484, 1.26507, 1.265, 1.26342, 1.26133, 1.26169, 1.2627, 1.26439, 1.26908, 1.28084, 1.27362, 1.3124, 1.40903, 1.58503, 1.68266, 1.21926, 1.25827, 1.26813, 1.26399, 1.26194, 1.2607, 1.25896, 1.26118, 1.26641, 1.26125, 1.26473, 1.2639, 1.26445, 1.26801, 1.26607, 1.26801, 1.26881, 1.27037, 1.27141, 1.27211, 1.27247, 1.26679, 1.26789, 1.26887, 1.26811, 1.26909, 1.26969, 1.27284, 1.27239, 1.2778, 1.2781, 1.27887, 1.28162, 1.28301, 1.28385, 1.28328, 1.28361, 1.28302, 1.28366, 1.28435, 1.2862, 1.28797, 1.28747, 1.28801, 1.2904, 1.29208, 1.29552, 1.29747, 1.29831, 1.29899, 1.30239, 1.3054, 1.30628, 1.30828, 1.31301, 1.31359, 1.31306, 1.31348, 1.31404, 1.31453, 1.31544, 1.31582, 1.3176, 1.31978, 1.32091, 1.32411, 1.32956, 1.33995, 1.33312, 1.34445, 1.34559, 1.35066, 1.43666, 1.51336, 1.7814, 1.71102, 1.32704, 1.35454, 1.36868, 1.36525, 1.3686, 1.37473, 1.37082, 1.39242, 1.37607, 1.36992, 1.37054, 1.37407, 1.37538, 1.37901, 1.38157, 1.38235, 1.38461, 1.38866, 1.39244, 1.40052, 1.39985, 1.40196, 1.40914, 
1.28134, 1.28096, 1.28248, 1.2818, 1.27945, 1.27945, 1.28015, 1.27615, 1.27697, 1.27378, 1.27351, 1.27292, 1.27132, 1.26839, 1.26784, 1.26857, 1.26661, 1.26766, 1.26805, 1.26473, 1.26594, 1.26844, 1.27702, 1.27148, 1.26383, 1.26444, 1.46848, 1.59533, 1.55292, 1.26761, 1.27437, 1.27802, 1.2671, 1.26468, 1.2642, 1.26431, 1.26348, 1.26438, 1.26464, 1.26683, 1.2658, 1.26686, 1.26908, 1.26915, 1.26905, 1.2712, 1.271, 1.27429, 1.2738, 1.27485, 1.27395, 1.27368, 1.27348, 1.27436, 1.27545, 1.27655, 1.27885, 1.27974, 1.28085, 1.27827, 1.29865, 1.28136, 1.28805, 1.28399, 1.28641, 1.28256, 1.28405, 1.28453, 1.28426, 1.2858, 1.28606, 1.28812, 1.28817, 1.29188, 1.29665, 1.29599, 1.29421, 1.29426, 1.29803, 1.2985, 1.29974, 1.30235, 1.30562, 1.31047, 1.3095, 1.311, 1.30949, 1.31821, 1.32934, 1.32829, 1.31657, 1.31669, 1.31711, 1.32001, 1.32286, 1.32642, 1.32615, 1.33801, 1.348, 1.34015, 1.34324, 1.3975, 1.60623, 1.60484, 1.63171, 1.34779, 1.34878, 1.35683, 1.35493, 1.35947, 1.36859, 1.38403, 1.37116, 1.3707, 1.37464, 1.37518, 1.37706, 1.38091, 1.3847, 1.38549, 1.3871, 1.39113, 1.39436, 1.39879, 1.39827, 1.40056, 1.4054, 1.40737, 
1.28579, 1.28522, 1.28543, 1.28575, 1.28568, 1.2855, 1.28468, 1.28334, 1.27939, 1.27882, 1.27797, 1.28419, 1.27465, 1.28394, 1.2753, 1.27406, 1.27352, 1.27544, 1.29585, 1.27114, 1.27244, 1.26852, 1.27336, 1.27536, 1.28489, 1.31332, 1.45127, 1.53096, 2.1357, 1.30946, 1.28196, 1.27168, 1.26702, 1.26694, 1.26446, 1.2638, 1.26589, 1.26576, 1.26753, 1.27062, 1.26902, 1.27061, 1.27113, 1.27188, 1.27094, 1.27302, 1.27495, 1.27414, 1.27507, 1.27494, 1.27308, 1.28104, 1.27369, 1.27604, 1.27734, 1.2789, 1.27905, 1.27899, 1.27802, 1.27631, 1.27784, 1.27803, 1.28103, 1.28263, 1.28561, 1.28581, 1.28729, 1.28881, 1.2883, 1.28805, 1.2879, 1.28904, 1.29125, 1.29263, 1.29526, 1.30018, 1.30004, 1.30165, 1.32724, 1.30219, 1.30382, 1.30658, 1.30886, 1.31348, 1.31113, 1.31522, 1.31296, 1.31426, 1.31699, 1.31576, 1.31754, 1.31958, 1.32997, 1.3227, 1.32326, 1.32722, 1.32814, 1.33023, 1.34288, 1.35059, 1.3411, 1.47651, 1.59276, 1.66443, 1.56718, 1.34624, 1.35504, 1.36763, 1.36429, 1.37335, 1.37847, 1.37246, 1.37417, 1.37383, 1.37575, 1.38873, 1.38488, 1.38629, 1.39075, 1.39118, 1.39465, 1.39776, 1.40177, 1.39917, 1.40475, 1.40537, 1.41347, 1.41343, 
1.28839, 1.28731, 1.28625, 1.28555, 1.28889, 1.2906, 1.28838, 1.28919, 1.28655, 1.2868, 1.2851, 1.28123, 1.28149, 1.28142, 1.28341, 1.27964, 1.27778, 1.30509, 1.27749, 1.27578, 1.29179, 1.27397, 1.27389, 1.27691, 1.28217, 1.29151, 1.41405, 1.51616, 2.00196, 1.27542, 1.27913, 1.27886, 1.27877, 1.27148, 1.27104, 1.27346, 1.27474, 1.27403, 1.27283, 1.27416, 1.27561, 1.27448, 1.27482, 1.27719, 1.27573, 1.27803, 1.27881, 1.27995, 1.27924, 1.28042, 1.28069, 1.28024, 1.28553, 1.28407, 1.28358, 1.28481, 1.28575, 1.28826, 1.28781, 1.28783, 1.28833, 1.2909, 1.29159, 1.29484, 1.29576, 1.29598, 1.29581, 1.29495, 1.29628, 1.29709, 1.29854, 1.299, 1.2991, 1.2997, 1.30612, 1.31234, 1.31453, 1.31311, 1.31012, 1.30948, 1.30888, 1.31053, 1.31257, 1.31627, 1.31731, 1.31734, 1.31921, 1.31915, 1.32045, 1.32315, 1.32453, 1.32886, 1.3296, 1.33101, 1.33178, 1.33129, 1.33512, 1.33699, 1.34375, 1.3502, 1.34401, 1.43968, 1.60925, 1.82132, 1.64881, 1.35882, 1.36829, 1.36781, 1.37528, 1.36205, 1.36822, 1.37007, 1.37785, 1.37975, 1.38, 1.38257, 1.38839, 1.39129, 1.39227, 1.39516, 1.3928, 1.39704, 1.40208, 1.40291, 1.40718, 1.4207, 1.4205, 1.42301, 
1.2918, 1.28961, 1.29214, 1.29223, 1.29234, 1.29279, 1.29474, 1.29406, 1.29469, 1.29158, 1.28995, 1.28727, 1.28607, 1.28826, 1.28571, 1.28546, 1.28644, 1.28603, 1.28567, 1.28546, 1.28573, 1.28499, 1.28491, 1.28695, 1.28847, 1.29882, 1.45495, 1.54421, 1.5637, 1.26488, 1.29199, 1.30548, 1.28747, 1.28449, 1.28505, 1.28509, 1.28495, 1.28406, 1.28367, 1.28243, 1.28216, 1.28237, 1.28294, 1.28245, 1.28512, 1.28314, 1.28338, 1.28562, 1.28433, 1.2877, 1.28771, 1.28882, 1.29109, 1.29125, 1.29463, 1.29621, 1.29642, 1.2987, 1.30149, 1.30256, 1.30489, 1.30511, 1.30215, 1.30278, 1.30186, 1.30269, 1.30554, 1.30006, 1.30198, 1.30274, 1.30189, 1.30376, 1.31993, 1.30699, 1.31101, 1.31368, 1.31533, 1.31776, 1.31556, 1.3126, 1.31436, 1.31478, 1.32098, 1.32394, 1.3249, 1.32598, 1.32728, 1.3248, 1.32624, 1.32968, 1.3315, 1.33676, 1.33652, 1.34676, 1.35542, 1.34353, 1.34447, 1.34633, 1.35048, 1.35074, 1.3623, 1.44736, 1.47994, 1.70223, 1.65225, 1.33972, 1.3581, 1.3724, 1.37654, 1.37119, 1.39188, 1.38535, 1.37857, 1.38532, 1.38559, 1.3888, 1.39032, 1.392, 1.39512, 1.39559, 1.40063, 1.40178, 1.40542, 1.40752, 1.41745, 1.41948, 1.42696, 1.43015, 
1.29618, 1.2958, 1.29456, 1.29694, 1.29591, 1.29533, 1.29697, 1.29653, 1.29779, 1.292, 1.29118, 1.29082, 1.28816, 1.28826, 1.28904, 1.2926, 1.29487, 1.29477, 1.29493, 1.29298, 1.29923, 1.28844, 1.28914, 1.28915, 1.29615, 1.29828, 1.5142, 1.59237, 1.38258, 1.27479, 1.29743, 1.28998, 1.28767, 1.28733, 1.28933, 1.28942, 1.28895, 1.28783, 1.28606, 1.28576, 1.2872, 1.28897, 1.29052, 1.29174, 1.29106, 1.29203, 1.2922, 1.29268, 1.29137, 1.29049, 1.29492, 1.29452, 1.29535, 1.29752, 1.30075, 1.30371, 1.30512, 1.30571, 1.30764, 1.30868, 1.30934, 1.30864, 1.30757, 1.30766, 1.30837, 1.30726, 1.30896, 1.30923, 1.30877, 1.30849, 1.31009, 1.3109, 1.31104, 1.31418, 1.31789, 1.31927, 1.3206, 1.32112, 1.32053, 1.32114, 1.32646, 1.3236, 1.32311, 1.32764, 1.33218, 1.33123, 1.33291, 1.33377, 1.3368, 1.33799, 1.33916, 1.34126, 1.36894, 1.34402, 1.34675, 1.34632, 1.35981, 1.35734, 1.36318, 1.36114, 1.37127, 1.41344, 1.55156, 1.89614, 1.6269, 1.36475, 1.36047, 1.38272, 1.37787, 1.3756, 1.37823, 1.38932, 1.38386, 1.38526, 1.38856, 1.39323, 1.39567, 1.39606, 1.39753, 1.39896, 1.4028, 1.40524, 1.40759, 1.41165, 1.41919, 1.41926, 1.42665, 1.42615, 
1.30379, 1.3024, 1.30234, 1.30245, 1.30155, 1.3028, 1.30189, 1.301, 1.30148, 1.2981, 1.29801, 1.29708, 1.2973, 1.29506, 1.29407, 1.29445, 1.29621, 1.29627, 1.29641, 1.29637, 1.29694, 1.2961, 1.29526, 1.30217, 1.27869, 1.31069, 1.53902, 1.67855, 1.46447, 1.25749, 1.29282, 1.2945, 1.29131, 1.29167, 1.29164, 1.29836, 1.29156, 1.29215, 1.29083, 1.29118, 1.29166, 1.29207, 1.29506, 1.29582, 1.29492, 1.29447, 1.29513, 1.29371, 1.29504, 1.29518, 1.29421, 1.29524, 1.29527, 1.29634, 1.29853, 1.30055, 1.30264, 1.305, 1.30506, 1.30601, 1.30665, 1.30661, 1.3057, 1.3076, 1.30718, 1.3086, 1.30906, 1.30991, 1.30977, 1.31162, 1.31422, 1.31455, 1.3148, 1.31888, 1.32267, 1.32362, 1.32561, 1.32317, 1.32382, 1.32273, 1.3257, 1.3242, 1.32943, 1.33145, 1.33425, 1.33804, 1.3407, 1.34011, 1.34275, 1.34287, 1.34303, 1.34482, 1.34601, 1.34876, 1.3514, 1.35484, 1.35705, 1.35864, 1.35948, 1.36731, 1.37129, 1.49168, 1.50936, 1.81123, 1.71472, 1.48893, 1.38859, 1.39196, 1.38926, 1.38864, 1.38882, 1.39051, 1.40527, 1.39616, 1.40524, 1.39688, 1.40025, 1.40418, 1.40649, 1.40631, 1.41263, 1.41324, 1.41678, 1.4236, 1.43453, 1.43328, 1.44425, 1.43544, 
1.30646, 1.30979, 1.30562, 1.30472, 1.30403, 1.30317, 1.29929, 1.30251, 1.30215, 1.3024, 1.30031, 1.29833, 1.29802, 1.29494, 1.29568, 1.29463, 1.29491, 1.29533, 1.29586, 1.29418, 1.29359, 1.29296, 1.2929, 1.30678, 1.29308, 1.36102, 1.40602, 1.67863, 1.56351, 1.30256, 1.29997, 1.31239, 1.2937, 1.2921, 1.29266, 1.29455, 1.29136, 1.29317, 1.29348, 1.2959, 1.29528, 1.29485, 1.29522, 1.29691, 1.29672, 1.29973, 1.30042, 1.29898, 1.29882, 1.29904, 1.30158, 1.30198, 1.29768, 1.29855, 1.30061, 1.29868, 1.30287, 1.30343, 1.30389, 1.30417, 1.30387, 1.30423, 1.30329, 1.30314, 1.30496, 1.30924, 1.3061, 1.31047, 1.31203, 1.31556, 1.31872, 1.31848, 1.3211, 1.32214, 1.3228, 1.32359, 1.32447, 1.3246, 1.32675, 1.32944, 1.32985, 1.32973, 1.3329, 1.33471, 1.33686, 1.33924, 1.34293, 1.34458, 1.34819, 1.34809, 1.35071, 1.35207, 1.35365, 1.35687, 1.35682, 1.36026, 1.36219, 1.36529, 1.37017, 1.37801, 1.35131, 1.45198, 1.65533, 1.78902, 1.4465, 1.43259, 1.36076, 1.39585, 1.40661, 1.39148, 1.39557, 1.39581, 1.40075, 1.40052, 1.40236, 1.4069, 1.40854, 1.41585, 1.41689, 1.4186, 1.41914, 1.42192, 1.42968, 1.43042, 1.43474, 1.4367, 1.44012, 1.44491, 
1.31132, 1.30892, 1.30622, 1.30695, 1.30625, 1.3075, 1.30529, 1.30439, 1.30435, 1.30372, 1.30496, 1.30555, 1.299, 1.30098, 1.29335, 1.29385, 1.31065, 1.29875, 1.29934, 1.29842, 1.29724, 1.29592, 1.30288, 1.30077, 1.30239, 1.32971, 1.55093, 1.63595, 1.39231, 1.29622, 1.30192, 1.29624, 1.29725, 1.30619, 1.30013, 1.30147, 1.3009, 1.29885, 1.30007, 1.30157, 1.30181, 1.30246, 1.30224, 1.30271, 1.30231, 1.30149, 1.30151, 1.30268, 1.30376, 1.30627, 1.30362, 1.30506, 1.3051, 1.30626, 1.30552, 1.30509, 1.30608, 1.30682, 1.31052, 1.31174, 1.31257, 1.31015, 1.31174, 1.31008, 1.31107, 1.31215, 1.31197, 1.31547, 1.31572, 1.32018, 1.31867, 1.31826, 1.3203, 1.32198, 1.32289, 1.34133, 1.32682, 1.32659, 1.32759, 1.32962, 1.33085, 1.33349, 1.33645, 1.33864, 1.33938, 1.3431, 1.34351, 1.34605, 1.34848, 1.3487, 1.35055, 1.35007, 1.35328, 1.35575, 1.35714, 1.35812, 1.35876, 1.37242, 1.38085, 1.3706, 1.35464, 1.49313, 1.63755, 1.92911, 1.94071, 1.45782, 1.38559, 1.40281, 1.38707, 1.39037, 1.39097, 1.40205, 1.39653, 1.40557, 1.40325, 1.40565, 1.41178, 1.41492, 1.41462, 1.42035, 1.4228, 1.42364, 1.42855, 1.43405, 1.43806, 1.44068, 1.44409, 1.44637, 
1.31216, 1.31025, 1.3089, 1.30814, 1.30827, 1.30604, 1.30966, 1.31037, 1.31156, 1.31183, 1.30876, 1.305, 1.30316, 1.29952, 1.2983, 1.29604, 1.29611, 1.29816, 1.30054, 1.3004, 1.30218, 1.30231, 1.30498, 1.30928, 1.28706, 1.31106, 1.49587, 1.73679, 1.6393, 1.2812, 1.31703, 1.32244, 1.30928, 1.30919, 1.30763, 1.3064, 1.31204, 1.30244, 1.3021, 1.30361, 1.30302, 1.30202, 1.30167, 1.30128, 1.30146, 1.30182, 1.29928, 1.30194, 1.30307, 1.30464, 1.30722, 1.30647, 1.30727, 1.30868, 1.30646, 1.30709, 1.31023, 1.31494, 1.31988, 1.32282, 1.32316, 1.32262, 1.32082, 1.31908, 1.32042, 1.3205, 1.31964, 1.31964, 1.31991, 1.31771, 1.31935, 1.31833, 1.31743, 1.32018, 1.32399, 1.32721, 1.32789, 1.33061, 1.33158, 1.33397, 1.3352, 1.33616, 1.33797, 1.34578, 1.34198, 1.34504, 1.34912, 1.35143, 1.35189, 1.35256, 1.35582, 1.35682, 1.35967, 1.36217, 1.36791, 1.36745, 1.37082, 1.37137, 1.38172, 1.37803, 1.37142, 1.53106, 1.55915, 1.82474, 1.66399, 1.51047, 1.38761, 1.40244, 1.40135, 1.39714, 1.39368, 1.39693, 1.40199, 1.41383, 1.41335, 1.41113, 1.41317, 1.41755, 1.42605, 1.42387, 1.42476, 1.43098, 1.43396, 1.43802, 1.44016, 1.4429, 1.44453, 1.44911, 
1.31632, 1.31678, 1.31424, 1.31378, 1.31524, 1.31384, 1.31585, 1.31903, 1.31894, 1.31889, 1.31627, 1.3109, 1.3091, 1.3056, 1.30564, 1.30235, 1.30049, 1.3023, 1.30507, 1.30525, 1.30722, 1.311, 1.30736, 1.30909, 1.33276, 1.39131, 1.43932, 1.62385, 1.64396, 1.30504, 1.30549, 1.30698, 1.30685, 1.30789, 1.30828, 1.30737, 1.30489, 1.30604, 1.30256, 1.30243, 1.30396, 1.30772, 1.30881, 1.30574, 1.30527, 1.30503, 1.30465, 1.30531, 1.30599, 1.30712, 1.30923, 1.30901, 1.3091, 1.30821, 1.30844, 1.31028, 1.312, 1.31312, 1.31593, 1.31866, 1.31958, 1.32105, 1.32074, 1.33982, 1.32319, 1.32439, 1.32647, 1.3263, 1.3261, 1.32587, 1.32753, 1.32614, 1.32703, 1.32753, 1.33289, 1.33515, 1.33803, 1.34764, 1.34158, 1.34137, 1.33998, 1.34309, 1.34172, 1.3425, 1.34363, 1.34979, 1.3511, 1.35209, 1.35509, 1.3573, 1.35793, 1.36019, 1.36161, 1.36303, 1.36452, 1.3669, 1.36663, 1.36809, 1.37884, 1.3889, 1.38217, 1.46895, 1.58769, 1.85005, 1.64406, 1.55776, 1.36443, 1.39977, 1.41562, 1.39816, 1.39864, 1.40629, 1.40214, 1.40593, 1.40765, 1.413, 1.41663, 1.41665, 1.42099, 1.42385, 1.42733, 1.42966, 1.4359, 1.43812, 1.43818, 1.44084, 1.44475, 1.44776, 
1.32045, 1.31925, 1.32075, 1.31545, 1.31777, 1.31896, 1.31997, 1.31703, 1.31623, 1.31333, 1.31268, 1.30949, 1.3106, 1.30734, 1.30492, 1.30587, 1.30611, 1.30967, 1.33817, 1.32618, 1.31624, 1.31668, 1.31398, 1.32619, 1.31464, 1.29849, 1.43086, 1.70539, 1.96525, 1.31276, 1.30935, 1.30915, 1.30835, 1.3055, 1.30634, 1.30638, 1.3089, 1.30745, 1.31085, 1.31199, 1.31298, 1.3136, 1.31264, 1.31204, 1.31262, 1.31174, 1.31095, 1.31172, 1.31299, 1.31383, 1.31522, 1.31388, 1.31357, 1.31582, 1.31612, 1.31297, 1.31283, 1.31581, 1.31651, 1.31833, 1.31858, 1.31972, 1.32231, 1.32443, 1.32727, 1.32872, 1.33139, 1.32827, 1.32999, 1.33126, 1.32953, 1.33045, 1.33255, 1.33529, 1.34095, 1.34558, 1.35003, 1.35065, 1.35134, 1.34912, 1.34609, 1.34342, 1.34381, 1.34453, 1.34584, 1.34871, 1.35511, 1.35263, 1.35642, 1.36, 1.35558, 1.35888, 1.3608, 1.36334, 1.36446, 1.36613, 1.36724, 1.38514, 1.39011, 1.37488, 1.36089, 1.49972, 1.62031, 1.78522, 1.7281, 1.52393, 1.36925, 1.40006, 1.40975, 1.40363, 1.4051, 1.40728, 1.40964, 1.41451, 1.41637, 1.41996, 1.42046, 1.42275, 1.42493, 1.42801, 1.43055, 1.43598, 1.43805, 1.44182, 1.45042, 1.44876, 1.45218, 1.45199, 
1.32543, 1.32426, 1.32382, 1.32232, 1.32245, 1.32226, 1.32023, 1.32012, 1.31892, 1.31764, 1.31597, 1.31523, 1.31204, 1.30845, 1.30934, 1.30805, 1.30958, 1.31068, 1.31589, 1.31725, 1.31775, 1.31872, 1.3172, 1.31733, 1.31477, 1.34693, 1.54212, 1.70321, 1.65138, 1.3089, 1.30908, 1.30936, 1.30637, 1.30731, 1.30726, 1.3079, 1.30989, 1.31232, 1.31607, 1.31703, 1.3168, 1.31642, 1.31482, 1.31319, 1.31006, 1.30953, 1.30904, 1.30937, 1.31265, 1.3155, 1.31737, 1.3217, 1.32282, 1.32516, 1.32415, 1.32386, 1.32223, 1.32114, 1.32266, 1.32204, 1.32251, 1.32407, 1.32378, 1.35119, 1.32574, 1.32701, 1.34267, 1.32695, 1.32668, 1.32741, 1.32933, 1.33332, 1.33595, 1.33834, 1.34029, 1.34349, 1.34474, 1.34656, 1.34784, 1.34734, 1.34738, 1.34919, 1.3472, 1.34814, 1.34996, 1.35317, 1.35654, 1.35802, 1.36085, 1.36182, 1.36241, 1.36278, 1.36486, 1.36562, 1.3704, 1.37359, 1.37855, 1.39331, 1.38469, 1.39924, 1.36854, 1.4269, 1.61075, 1.74077, 1.59645, 1.43715, 1.42369, 1.41085, 1.40905, 1.41851, 1.41379, 1.42256, 1.44369, 1.41845, 1.42278, 1.42733, 1.42778, 1.43081, 1.43308, 1.45762, 1.4365, 1.4438, 1.4472, 1.45124, 1.45569, 1.45765, 1.50372, 1.46043, 
1.32379, 1.32395, 1.32481, 1.32616, 1.3261, 1.3271, 1.3258, 1.32295, 1.32242, 1.31973, 1.31922, 1.31885, 1.3178, 1.31435, 1.31427, 1.31187, 1.31233, 1.31425, 1.31503, 1.31596, 1.31712, 1.31568, 1.31583, 1.3165, 1.30432, 1.35082, 1.50545, 1.77608, 1.84824, 1.2883, 1.31625, 1.31228, 1.31313, 1.31246, 1.31319, 1.31385, 1.31232, 1.3133, 1.31472, 1.31415, 1.31537, 1.3151, 1.31478, 1.31444, 1.31504, 1.31408, 1.31483, 1.31487, 1.31518, 1.31702, 1.31995, 1.31999, 1.32252, 1.3245, 1.32354, 1.32375, 1.32531, 1.32425, 1.32422, 1.3263, 1.3278, 1.32838, 1.32932, 1.3306, 1.3322, 1.33289, 1.33455, 1.33489, 1.3344, 1.33631, 1.33782, 1.3382, 1.33967, 1.34035, 1.34102, 1.34548, 1.34778, 1.34794, 1.35064, 1.35027, 1.35062, 1.35044, 1.35057, 1.35363, 1.35481, 1.35802, 1.36014, 1.36744, 1.36414, 1.36502, 1.36711, 1.37813, 1.36846, 1.37347, 1.37442, 1.3774, 1.38149, 1.38335, 1.39655, 1.39525, 1.39102, 1.48771, 1.7268, 1.79648, 1.67208, 1.54082, 1.36536, 1.41261, 1.41177, 1.41048, 1.41696, 1.437, 1.41809, 1.41842, 1.42037, 1.42443, 1.43086, 1.43576, 1.4365, 1.4371, 1.45747, 1.44459, 1.45033, 1.4545, 1.45785, 1.46461, 1.46438, 1.46986, 
1.32789, 1.33267, 1.3278, 1.32715, 1.32575, 1.32404, 1.32293, 1.32108, 1.32228, 1.32083, 1.31922, 1.31943, 1.32017, 1.3197, 1.3191, 1.31937, 1.31925, 1.3163, 1.31757, 1.33602, 1.31923, 1.32351, 1.31625, 1.32152, 1.31978, 1.3783, 1.50032, 1.69335, 1.60506, 1.29794, 1.32482, 1.31973, 1.31905, 1.31854, 1.31895, 1.31857, 1.31783, 1.31529, 1.3155, 1.31602, 1.31875, 1.31424, 1.3134, 1.31347, 1.3123, 1.31357, 1.31438, 1.31606, 1.31697, 1.31713, 1.31946, 1.32054, 1.32109, 1.32223, 1.31952, 1.32035, 1.32109, 1.32288, 1.32182, 1.32296, 1.32827, 1.32627, 1.32781, 1.33023, 1.33127, 1.33137, 1.33412, 1.33738, 1.33841, 1.33855, 1.33948, 1.34065, 1.34388, 1.34381, 1.34337, 1.34661, 1.34683, 1.34742, 1.34894, 1.35131, 1.3527, 1.35257, 1.35387, 1.35395, 1.35723, 1.35994, 1.36222, 1.36285, 1.366, 1.36887, 1.37005, 1.37158, 1.3717, 1.37469, 1.38314, 1.37877, 1.39041, 1.3934, 1.39786, 1.39906, 1.3978, 1.51596, 1.64908, 1.79288, 1.64579, 1.54857, 1.37768, 1.4016, 1.41786, 1.41265, 1.41297, 1.41525, 1.42305, 1.42307, 1.44493, 1.42918, 1.44077, 1.43693, 1.43597, 1.44187, 1.44378, 1.44861, 1.45247, 1.45455, 1.45755, 1.46196, 1.46494, 1.47193, 
1.33045, 1.33019, 1.32713, 1.32964, 1.32422, 1.32325, 1.3193, 1.31721, 1.31611, 1.31924, 1.32135, 1.32364, 1.32486, 1.32431, 1.32231, 1.31942, 1.31756, 1.31548, 1.31301, 1.31207, 1.32156, 1.31384, 1.31535, 1.32024, 1.3372, 1.34689, 1.53845, 1.77313, 1.62413, 1.28922, 1.32065, 1.33066, 1.32221, 1.31327, 1.31191, 1.31387, 1.31342, 1.31631, 1.3186, 1.32235, 1.32215, 1.32039, 1.31726, 1.31564, 1.31559, 1.31605, 1.31855, 1.31882, 1.31994, 1.32247, 1.32424, 1.32561, 1.32411, 1.32534, 1.32579, 1.32766, 1.32823, 1.32879, 1.32928, 1.32921, 1.32828, 1.32923, 1.33, 1.33053, 1.33349, 1.33452, 1.33657, 1.33821, 1.33947, 1.33919, 1.34014, 1.34172, 1.3431, 1.34494, 1.34669, 1.34796, 1.34809, 1.3482, 1.34975, 1.3509, 1.35336, 1.35685, 1.35782, 1.35951, 1.36131, 1.36213, 1.36366, 1.36446, 1.365, 1.36807, 1.37107, 1.37193, 1.37538, 1.37576, 1.37752, 1.379, 1.39506, 1.39159, 1.39946, 1.39394, 1.41606, 1.49142, 1.69521, 1.80414, 1.75863, 1.54424, 1.40217, 1.4229, 1.4262, 1.41234, 1.41122, 1.41384, 1.41655, 1.42261, 1.42413, 1.42974, 1.43126, 1.43658, 1.43949, 1.43924, 1.44302, 1.44339, 1.4493, 1.45215, 1.45743, 1.45717, 1.4604, 1.46406, 
1.3274, 1.32699, 1.32475, 1.32343, 1.32196, 1.32222, 1.322, 1.32161, 1.32212, 1.32349, 1.32504, 1.32397, 1.32568, 1.32574, 1.32507, 1.32363, 1.32283, 1.31696, 1.32165, 1.31518, 1.31542, 1.31639, 1.31894, 1.32279, 1.30593, 1.31283, 1.43744, 1.82929, 1.4611, 1.31001, 1.31934, 1.32947, 1.33306, 1.31584, 1.31694, 1.31734, 1.31802, 1.31848, 1.31971, 1.32298, 1.32325, 1.32403, 1.32225, 1.32043, 1.32034, 1.31995, 1.32078, 1.32133, 1.32305, 1.32365, 1.3253, 1.32577, 1.32875, 1.32932, 1.32963, 1.33012, 1.33047, 1.33078, 1.32909, 1.32902, 1.33069, 1.32927, 1.32906, 1.33014, 1.33133, 1.33345, 1.33623, 1.33733, 1.33883, 1.33953, 1.34127, 1.34451, 1.3512, 1.35356, 1.35435, 1.35669, 1.35459, 1.3559, 1.35534, 1.35592, 1.35868, 1.36181, 1.36132, 1.36041, 1.36262, 1.36455, 1.36407, 1.36661, 1.37165, 1.37266, 1.37487, 1.37575, 1.37769, 1.37741, 1.38137, 1.39239, 1.38802, 1.38954, 1.4066, 1.40625, 1.39916, 1.56167, 1.71448, 1.70096, 1.67271, 1.45588, 1.36867, 1.41587, 1.42301, 1.41923, 1.41996, 1.42277, 1.4336, 1.42933, 1.44131, 1.43707, 1.44355, 1.44496, 1.44653, 1.44679, 1.44806, 1.45672, 1.45061, 1.45394, 1.46383, 1.45702, 1.46091, 1.46783, 
1.33438, 1.33637, 1.33289, 1.33136, 1.33011, 1.32955, 1.32905, 1.32796, 1.3291, 1.32931, 1.32913, 1.33243, 1.32992, 1.33175, 1.33083, 1.3293, 1.32565, 1.32166, 1.32187, 1.31999, 1.31975, 1.32264, 1.32329, 1.33097, 1.32896, 1.34421, 1.47851, 1.78215, 1.47573, 1.35019, 1.32686, 1.33308, 1.32051, 1.32067, 1.31972, 1.31856, 1.31852, 1.31986, 1.32247, 1.32532, 1.32641, 1.32562, 1.32472, 1.32206, 1.32096, 1.31908, 1.3193, 1.32214, 1.32113, 1.3219, 1.32299, 1.32448, 1.32731, 1.32924, 1.32864, 1.32895, 1.32992, 1.32993, 1.32991, 1.32985, 1.32961, 1.32978, 1.33096, 1.3312, 1.33257, 1.33712, 1.3394, 1.34157, 1.34293, 1.34354, 1.34413, 1.34625, 1.34746, 1.35, 1.35065, 1.35416, 1.35565, 1.35576, 1.35707, 1.35788, 1.35776, 1.35864, 1.36344, 1.36435, 1.36482, 1.36718, 1.3682, 1.37125, 1.37327, 1.37916, 1.37487, 1.37753, 1.38082, 1.38247, 1.38451, 1.40557, 1.39023, 1.40239, 1.39993, 1.3894, 1.37105, 1.55722, 1.74535, 1.77409, 1.74403, 1.46202, 1.43707, 1.43757, 1.42574, 1.42766, 1.42323, 1.42383, 1.44312, 1.4304, 1.45518, 1.43968, 1.44448, 1.45018, 1.44805, 1.45197, 1.45072, 1.45166, 1.45872, 1.45822, 1.4592, 1.46186, 1.47132, 1.47461, 
1.34028, 1.33954, 1.34028, 1.3398, 1.33892, 1.33695, 1.33456, 1.33097, 1.32969, 1.32679, 1.32905, 1.3311, 1.33268, 1.33018, 1.32904, 1.32681, 1.32342, 1.33001, 1.31952, 1.31827, 1.31887, 1.31898, 1.32675, 1.33367, 1.32941, 1.33321, 1.50744, 1.67304, 1.84305, 1.36386, 1.33356, 1.33453, 1.32165, 1.31942, 1.31954, 1.31979, 1.32179, 1.32353, 1.32342, 1.32452, 1.3251, 1.32557, 1.32639, 1.3261, 1.32322, 1.3216, 1.31956, 1.31976, 1.32059, 1.3233, 1.32542, 1.32605, 1.33487, 1.33033, 1.33362, 1.33482, 1.33595, 1.33603, 1.33514, 1.33452, 1.33304, 1.33299, 1.33088, 1.33396, 1.33653, 1.34048, 1.34271, 1.34362, 1.34357, 1.34364, 1.34334, 1.34543, 1.34932, 1.35145, 1.35307, 1.35368, 1.35582, 1.35685, 1.35767, 1.3574, 1.359, 1.35992, 1.36089, 1.3654, 1.36835, 1.36866, 1.36899, 1.37091, 1.37223, 1.37485, 1.37845, 1.38051, 1.38279, 1.38834, 1.39988, 1.39363, 1.39487, 1.39496, 1.39879, 1.40624, 1.37372, 1.4142, 1.71651, 1.81371, 1.83024, 1.61296, 1.4163, 1.41156, 1.423, 1.42138, 1.41926, 1.4237, 1.42597, 1.42781, 1.42994, 1.43207, 1.43692, 1.44193, 1.44647, 1.44696, 1.45126, 1.45305, 1.46275, 1.458, 1.4638, 1.46657, 1.46855, 1.51535, 
1.33669, 1.33758, 1.33639, 1.3348, 1.33532, 1.33239, 1.33089, 1.32981, 1.32685, 1.32554, 1.32692, 1.33014, 1.32951, 1.33241, 1.32941, 1.33007, 1.32854, 1.32577, 1.3314, 1.32631, 1.32033, 1.31862, 1.32684, 1.33158, 1.33536, 1.43338, 1.5206, 1.7762, 1.80283, 1.45321, 1.31642, 1.32618, 1.32083, 1.31991, 1.31993, 1.32102, 1.32278, 1.32607, 1.32753, 1.32654, 1.3267, 1.32768, 1.32742, 1.3274, 1.32679, 1.32617, 1.32206, 1.32044, 1.32196, 1.32456, 1.32337, 1.32565, 1.33147, 1.33434, 1.3401, 1.34322, 1.34609, 1.34641, 1.34495, 1.34296, 1.34107, 1.33817, 1.33445, 1.33945, 1.34308, 1.34866, 1.34946, 1.34989, 1.34863, 1.3469, 1.34713, 1.34674, 1.34721, 1.35058, 1.35243, 1.35338, 1.3553, 1.35818, 1.36084, 1.36092, 1.36272, 1.36366, 1.36326, 1.36509, 1.36777, 1.36902, 1.37066, 1.37384, 1.3754, 1.37838, 1.38149, 1.38233, 1.38523, 1.40962, 1.38883, 1.4033, 1.40533, 1.40552, 1.40322, 1.40875, 1.42757, 1.5268, 1.61946, 1.80733, 1.6423, 1.53499, 1.39785, 1.41021, 1.43063, 1.43392, 1.42662, 1.42827, 1.42988, 1.43528, 1.44421, 1.44151, 1.44451, 1.44975, 1.44848, 1.45571, 1.45914, 1.46203, 1.46447, 1.46568, 1.47192, 1.48129, 1.47523, 1.49686, 
1.33695, 1.33418, 1.33246, 1.32933, 1.32758, 1.32557, 1.32394, 1.32402, 1.32275, 1.32268, 1.32394, 1.3236, 1.32651, 1.3295, 1.33231, 1.33452, 1.33323, 1.32945, 1.32576, 1.3206, 1.32042, 1.32105, 1.32143, 1.33084, 1.32386, 1.38832, 1.54123, 1.70724, 1.7565, 1.30701, 1.32594, 1.32838, 1.32467, 1.32398, 1.32274, 1.32281, 1.32422, 1.32456, 1.3242, 1.32578, 1.32658, 1.32643, 1.32577, 1.32662, 1.32749, 1.32628, 1.32563, 1.33241, 1.32604, 1.33316, 1.32984, 1.32912, 1.33023, 1.33202, 1.3353, 1.33672, 1.33764, 1.33764, 1.33778, 1.33661, 1.33379, 1.33676, 1.33762, 1.33979, 1.34374, 1.34572, 1.34617, 1.34815, 1.34933, 1.34726, 1.34781, 1.34736, 1.34942, 1.37086, 1.35624, 1.35817, 1.36091, 1.36277, 1.36395, 1.36484, 1.36555, 1.36493, 1.36538, 1.36532, 1.36753, 1.36831, 1.37211, 1.37307, 1.37414, 1.37781, 1.37991, 1.38324, 1.40232, 1.39549, 1.39373, 1.41327, 1.3962, 1.3989, 1.41251, 1.40273, 1.39598, 1.46501, 1.6466, 1.77566, 1.69238, 1.53457, 1.40192, 1.39967, 1.4433, 1.43344, 1.43236, 1.43159, 1.43633, 1.43896, 1.44216, 1.44338, 1.44726, 1.44937, 1.45189, 1.45444, 1.46121, 1.46641, 1.46871, 1.47045, 1.49034, 1.47401, 1.48031, 1.48326, 
1.33859, 1.33564, 1.3343, 1.33165, 1.32993, 1.32932, 1.32981, 1.3303, 1.32852, 1.32867, 1.32696, 1.3293, 1.32918, 1.33079, 1.332, 1.33088, 1.32796, 1.32569, 1.32592, 1.32423, 1.33379, 1.32717, 1.33004, 1.34274, 1.31703, 1.40516, 1.52503, 1.62101, 1.61199, 1.36774, 1.32691, 1.34428, 1.32915, 1.34514, 1.32714, 1.33439, 1.32768, 1.32747, 1.3278, 1.32824, 1.3279, 1.32893, 1.3299, 1.33125, 1.33119, 1.33081, 1.33015, 1.32999, 1.33125, 1.33214, 1.32995, 1.33089, 1.32995, 1.32972, 1.32942, 1.32906, 1.3294, 1.32968, 1.3325, 1.33354, 1.33451, 1.33443, 1.33587, 1.33771, 1.34191, 1.34489, 1.34752, 1.34889, 1.34843, 1.34875, 1.34738, 1.34855, 1.35037, 1.35162, 1.35547, 1.36206, 1.36473, 1.36772, 1.36802, 1.36879, 1.36837, 1.36792, 1.36714, 1.3703, 1.36913, 1.37068, 1.37095, 1.37401, 1.37407, 1.374, 1.37855, 1.38304, 1.38381, 1.3897, 1.38806, 1.40555, 1.417, 1.40877, 1.41313, 1.41122, 1.44392, 1.62103, 1.66995, 1.8781, 1.80339, 1.62833, 1.42714, 1.42829, 1.43754, 1.42996, 1.43146, 1.43074, 1.44376, 1.43695, 1.44333, 1.44392, 1.44523, 1.44975, 1.4506, 1.45129, 1.45602, 1.46802, 1.46312, 1.46483, 1.46924, 1.47521, 1.47681, 1.47794, 
1.33895, 1.33784, 1.3344, 1.333, 1.33444, 1.33343, 1.33207, 1.33304, 1.33232, 1.33152, 1.33249, 1.33315, 1.33179, 1.35878, 1.32702, 1.32577, 1.32375, 1.32681, 1.32363, 1.32469, 1.33003, 1.33334, 1.335, 1.33627, 1.31766, 1.43626, 1.56014, 1.77526, 1.60536, 1.5275, 1.30297, 1.33459, 1.3322, 1.32974, 1.32908, 1.32745, 1.32693, 1.3242, 1.32601, 1.32754, 1.32959, 1.33245, 1.33576, 1.33424, 1.33385, 1.32931, 1.33048, 1.33219, 1.33227, 1.3339, 1.33653, 1.33754, 1.33635, 1.3375, 1.33613, 1.33287, 1.33337, 1.33466, 1.33731, 1.33983, 1.34177, 1.34045, 1.33977, 1.33999, 1.34405, 1.34698, 1.34975, 1.3495, 1.35011, 1.35118, 1.35262, 1.35534, 1.35588, 1.35761, 1.36101, 1.36398, 1.36747, 1.36839, 1.37028, 1.3707, 1.3701, 1.37137, 1.37241, 1.37377, 1.37401, 1.3752, 1.3756, 1.37735, 1.37935, 1.38085, 1.38243, 1.38426, 1.38516, 1.38679, 1.38952, 1.4099, 1.39339, 1.40734, 1.40599, 1.3898, 1.44111, 1.58632, 1.67255, 1.72667, 1.61582, 1.45657, 1.40267, 1.38641, 1.43281, 1.43926, 1.42469, 1.42722, 1.45058, 1.43344, 1.44004, 1.45159, 1.46619, 1.44585, 1.447, 1.45264, 1.45574, 1.46017, 1.46462, 1.46728, 1.46968, 1.47144, 1.47301, 1.50388, 
1.3427, 1.33764, 1.338, 1.33792, 1.33758, 1.33704, 1.33733, 1.33774, 1.336, 1.33519, 1.33589, 1.33626, 1.3346, 1.33286, 1.32925, 1.32722, 1.32682, 1.32705, 1.32771, 1.3302, 1.32884, 1.33097, 1.33281, 1.34605, 1.32202, 1.4553, 1.48479, 1.60212, 1.7074, 1.51224, 1.33734, 1.35481, 1.32821, 1.32454, 1.32235, 1.32089, 1.32078, 1.35313, 1.32924, 1.33169, 1.33361, 1.33794, 1.33875, 1.33609, 1.33457, 1.33334, 1.33286, 1.3328, 1.33461, 1.33591, 1.34392, 1.33983, 1.34112, 1.3396, 1.33968, 1.33792, 1.33943, 1.33919, 1.34071, 1.34217, 1.34357, 1.34419, 1.34378, 1.34441, 1.34659, 1.34809, 1.34976, 1.35082, 1.35401, 1.35357, 1.35524, 1.35788, 1.36035, 1.36012, 1.36068, 1.36412, 1.36459, 1.36457, 1.36663, 1.36698, 1.36771, 1.37092, 1.37296, 1.37435, 1.37683, 1.37766, 1.37971, 1.38085, 1.38011, 1.38181, 1.38454, 1.38476, 1.39201, 1.40309, 1.39174, 1.39427, 1.40014, 1.4192, 1.40793, 1.40372, 1.4298, 1.56575, 1.72496, 1.75529, 1.70821, 1.58828, 1.40972, 1.41563, 1.42344, 1.42728, 1.42516, 1.42629, 1.42996, 1.43107, 1.43599, 1.43994, 1.44411, 1.44726, 1.44986, 1.45683, 1.46088, 1.46576, 1.46645, 1.46942, 1.47206, 1.47798, 1.47688, 1.48259, 
1.33859, 1.33875, 1.34005, 1.34115, 1.34037, 1.33987, 1.34081, 1.34077, 1.33966, 1.34148, 1.33708, 1.33699, 1.3351, 1.33039, 1.32824, 1.32895, 1.32913, 1.33052, 1.33083, 1.33106, 1.33164, 1.33118, 1.3314, 1.33289, 1.33613, 1.38892, 1.5293, 1.50986, 1.56058, 1.41618, 1.29743, 1.34978, 1.32851, 1.32763, 1.32398, 1.32497, 1.32616, 1.32685, 1.32716, 1.32743, 1.32919, 1.32993, 1.33059, 1.33201, 1.33259, 1.33258, 1.33321, 1.33433, 1.3344, 1.33627, 1.33597, 1.3374, 1.33881, 1.33801, 1.33627, 1.33631, 1.33864, 1.34161, 1.34023, 1.33947, 1.34621, 1.34629, 1.34607, 1.34613, 1.34922, 1.3507, 1.35166, 1.35233, 1.35488, 1.35715, 1.35892, 1.35796, 1.35757, 1.35867, 1.36116, 1.36364, 1.36363, 1.36339, 1.36329, 1.36518, 1.36705, 1.36868, 1.37204, 1.37521, 1.37613, 1.3765, 1.37779, 1.37902, 1.38077, 1.38421, 1.38499, 1.38709, 1.38936, 1.39387, 1.42009, 1.39906, 1.40912, 1.41524, 1.41974, 1.3993, 1.4383, 1.53007, 1.69492, 1.7304, 1.62472, 1.56476, 1.45375, 1.41023, 1.43347, 1.44377, 1.43456, 1.43682, 1.44667, 1.44361, 1.45565, 1.44716, 1.45212, 1.45474, 1.46007, 1.46189, 1.46592, 1.50224, 1.47253, 1.47502, 1.47765, 1.48007, 1.48293, 1.48902, 
1.33437, 1.3345, 1.33521, 1.33434, 1.33755, 1.33413, 1.33646, 1.33665, 1.33557, 1.33608, 1.33744, 1.3327, 1.33222, 1.32906, 1.32844, 1.32778, 1.32535, 1.32624, 1.32493, 1.32645, 1.32821, 1.32804, 1.34819, 1.34509, 1.32352, 1.39545, 1.60149, 1.79875, 1.86892, 1.48453, 1.31183, 1.32945, 1.34333, 1.33033, 1.33292, 1.33225, 1.33117, 1.32954, 1.32779, 1.32678, 1.32642, 1.3292, 1.32943, 1.33057, 1.33289, 1.33228, 1.33141, 1.33004, 1.3316, 1.33343, 1.33649, 1.33724, 1.33887, 1.33825, 1.33906, 1.33868, 1.33747, 1.33917, 1.33923, 1.33823, 1.33926, 1.34298, 1.34445, 1.34695, 1.34687, 1.34848, 1.35309, 1.35449, 1.35588, 1.35677, 1.35708, 1.39223, 1.357, 1.35947, 1.36384, 1.3649, 1.36596, 1.36721, 1.36846, 1.36906, 1.37063, 1.37408, 1.3778, 1.38114, 1.38302, 1.38436, 1.38402, 1.38618, 1.38896, 1.39137, 1.39407, 1.39579, 1.39646, 1.39879, 1.40026, 1.41243, 1.40207, 1.40425, 1.40911, 1.40532, 1.46247, 1.59291, 1.64087, 1.72984, 1.65514, 1.54128, 1.48821, 1.43441, 1.45103, 1.44163, 1.43741, 1.43992, 1.44194, 1.44442, 1.44817, 1.45068, 1.45779, 1.45907, 1.46211, 1.46395, 1.46558, 1.46709, 1.46858, 1.46878, 1.47411, 1.47863, 1.48289, 1.48619, 
1.32331, 1.32238, 1.3224, 1.32939, 1.32003, 1.32346, 1.32502, 1.32569, 1.32615, 1.32487, 1.33784, 1.32877, 1.33002, 1.3317, 1.32876, 1.32605, 1.3218, 1.32043, 1.3154, 1.3163, 1.31688, 1.31905, 1.3195, 1.33029, 1.34026, 1.42856, 1.56381, 1.6952, 1.72771, 1.4823, 1.30454, 1.32695, 1.33436, 1.32959, 1.3242, 1.32653, 1.32616, 1.32621, 1.35707, 1.32282, 1.32623, 1.32458, 1.32548, 1.32656, 1.32784, 1.32738, 1.32913, 1.32985, 1.33153, 1.33312, 1.33602, 1.3351, 1.3342, 1.33633, 1.33442, 1.33468, 1.33469, 1.33573, 1.3359, 1.33582, 1.33636, 1.33804, 1.33895, 1.33953, 1.34263, 1.34407, 1.34276, 1.34479, 1.34693, 1.34773, 1.34789, 1.35012, 1.35114, 1.35263, 1.35519, 1.35719, 1.35641, 1.35784, 1.35925, 1.36173, 1.36382, 1.36489, 1.37037, 1.39329, 1.37392, 1.3786, 1.38163, 1.38352, 1.38826, 1.39015, 1.39212, 1.39879, 1.39532, 1.39521, 1.39829, 1.4066, 1.41945, 1.40457, 1.4164, 1.40724, 1.46501, 1.50237, 1.66428, 1.70811, 1.69109, 1.49666, 1.43054, 1.40952, 1.43646, 1.44423, 1.43471, 1.43648, 1.45225, 1.45106, 1.44442, 1.44734, 1.46034, 1.4554, 1.46131, 1.46478, 1.46432, 1.46645, 1.48546, 1.47247, 1.47407, 1.48506, 1.48431, 1.48485, 
1.3312, 1.33345, 1.32816, 1.32703, 1.32757, 1.32683, 1.33324, 1.33407, 1.33333, 1.33425, 1.33629, 1.33617, 1.33543, 1.33021, 1.32791, 1.32731, 1.3267, 1.32078, 1.31908, 1.33696, 1.32019, 1.3232, 1.33678, 1.34806, 1.29975, 1.41962, 1.51977, 1.6295, 1.74167, 1.3956, 1.28713, 1.33637, 1.33303, 1.32434, 1.32162, 1.32276, 1.32503, 1.32363, 1.32271, 1.3207, 1.32054, 1.3205, 1.32017, 1.32325, 1.32494, 1.32667, 1.32742, 1.32761, 1.3284, 1.32893, 1.32822, 1.32678, 1.3259, 1.3265, 1.32687, 1.32766, 1.32941, 1.32994, 1.33073, 1.3322, 1.3327, 1.33266, 1.33132, 1.33161, 1.33318, 1.33701, 1.33967, 1.34085, 1.34356, 1.35451, 1.34346, 1.34179, 1.34329, 1.34612, 1.34954, 1.35108, 1.35273, 1.35632, 1.35412, 1.35536, 1.35645, 1.35871, 1.36444, 1.36414, 1.36793, 1.3707, 1.37423, 1.37458, 1.39209, 1.38804, 1.38342, 1.38495, 1.38849, 1.39838, 1.39121, 1.39141, 1.39486, 1.41777, 1.41315, 1.3872, 1.4309, 1.52118, 1.67001, 1.71336, 1.69778, 1.5729, 1.49162, 1.40665, 1.42923, 1.42914, 1.44238, 1.42943, 1.43138, 1.4336, 1.4474, 1.44159, 1.44627, 1.44911, 1.45406, 1.46529, 1.45902, 1.4628, 1.46461, 1.46865, 1.47183, 1.4735, 1.47986, 1.48188, 
1.3311, 1.32677, 1.32741, 1.32675, 1.32571, 1.32163, 1.31682, 1.32105, 1.32672, 1.32971, 1.32637, 1.35059, 1.32685, 1.3307, 1.33126, 1.34709, 1.33178, 1.32998, 1.33905, 1.34111, 1.32685, 1.34781, 1.34198, 1.33149, 1.37171, 1.4228, 1.528, 1.71685, 1.66518, 1.37408, 1.32731, 1.33124, 1.33762, 1.33294, 1.33016, 1.33238, 1.33406, 1.33262, 1.33113, 1.3282, 1.32703, 1.34442, 1.32804, 1.35471, 1.33384, 1.35032, 1.33806, 1.33828, 1.33662, 1.33545, 1.33423, 1.33434, 1.3352, 1.3394, 1.34159, 1.34414, 1.34378, 1.34064, 1.33786, 1.3415, 1.34255, 1.34133, 1.34324, 1.34378, 1.34763, 1.34969, 1.35043, 1.37195, 1.35397, 1.35671, 1.35715, 1.35462, 1.35432, 1.35741, 1.36157, 1.36394, 1.36182, 1.36055, 1.36226, 1.37141, 1.37043, 1.37346, 1.37326, 1.37164, 1.37229, 1.3737, 1.36779, 1.37473, 1.37693, 1.37681, 1.37808, 1.38357, 1.38514, 1.38718, 1.3883, 1.3894, 1.39249, 1.40351, 1.4069, 1.39605, 1.45074, 1.63381, 1.62135, 1.6882, 1.64945, 1.56416, 1.4281, 1.39808, 1.43302, 1.42784, 1.42578, 1.43217, 1.43682, 1.43252, 1.43939, 1.44038, 1.4481, 1.44329, 1.44794, 1.45348, 1.46037, 1.46143, 1.46438, 1.46493, 1.46633, 1.47072, 1.47381, 1.48172, 
1.34831, 1.33832, 1.33484, 1.33044, 1.32975, 1.32873, 1.33047, 1.32882, 1.3238, 1.32432, 1.32474, 1.32852, 1.32279, 1.32342, 1.32348, 1.32743, 1.33046, 1.333, 1.33328, 1.32953, 1.32379, 1.33208, 1.33642, 1.32738, 1.3293, 1.40248, 1.53051, 1.61241, 1.64688, 1.4933, 1.31921, 1.32484, 1.33743, 1.31768, 1.31118, 1.32643, 1.32865, 1.3233, 1.32104, 1.31005, 1.31317, 1.30515, 1.31146, 1.32585, 1.33073, 1.33103, 1.32406, 1.32434, 1.32239, 1.32341, 1.31899, 1.31436, 1.31918, 1.32578, 1.32584, 1.32608, 1.33088, 1.33158, 1.33433, 1.34094, 1.3447, 1.34709, 1.34696, 1.34647, 1.34257, 1.34219, 1.34153, 1.33986, 1.36081, 1.35082, 1.3579, 1.3615, 1.36078, 1.3591, 1.35242, 1.34651, 1.34301, 1.34442, 1.36724, 1.36148, 1.36536, 1.36919, 1.37137, 1.38408, 1.3785, 1.3785, 1.37317, 1.37544, 1.38323, 1.38416, 1.38673, 1.41701, 1.38986, 1.39196, 1.39328, 1.40207, 1.40094, 1.4199, 1.40991, 1.39954, 1.45845, 1.52627, 1.6413, 1.6825, 1.65177, 1.58843, 1.4835, 1.38179, 1.44458, 1.45474, 1.44339, 1.44167, 1.4454, 1.44679, 1.45286, 1.44776, 1.45284, 1.45451, 1.46028, 1.46444, 1.46662, 1.47187, 1.47449, 1.48005, 1.48523, 1.48823, 1.49407, 1.49259, 
1.32487, 1.32285, 1.32653, 1.31823, 1.31334, 1.3131, 1.31575, 1.31883, 1.31778, 1.31909, 1.31659, 1.31563, 1.31457, 1.3151, 1.31641, 1.31763, 1.31903, 1.33067, 1.31878, 1.31775, 1.31807, 1.3438, 1.3284, 1.32685, 1.29836, 1.43361, 1.5766, 1.65884, 1.6491, 1.37899, 1.30645, 1.33908, 1.33306, 1.32959, 1.33331, 1.31414, 1.31544, 1.32797, 1.31751, 1.32127, 1.32302, 1.32987, 1.32396, 1.3255, 1.32765, 1.333, 1.33387, 1.33661, 1.33646, 1.33417, 1.33329, 1.33298, 1.33381, 1.33598, 1.33811, 1.34107, 1.342, 1.3413, 1.34054, 1.34105, 1.34412, 1.34503, 1.34646, 1.34722, 1.34663, 1.34849, 1.351, 1.34932, 1.3475, 1.34962, 1.35517, 1.36039, 1.36349, 1.36256, 1.35744, 1.35787, 1.35665, 1.35797, 1.35897, 1.36195, 1.36509, 1.36781, 1.36817, 1.36914, 1.36934, 1.36737, 1.36606, 1.36901, 1.37316, 1.37739, 1.37236, 1.37736, 1.37996, 1.38187, 1.38379, 1.39873, 1.3915, 1.40603, 1.40553, 1.38243, 1.42744, 1.53228, 1.60968, 1.63476, 1.61387, 1.51224, 1.47592, 1.38871, 1.43282, 1.42286, 1.42029, 1.4322, 1.43778, 1.43795, 1.43795, 1.44736, 1.45072, 1.45636, 1.45758, 1.45786, 1.45169, 1.44544, 1.44751, 1.4549, 1.45482, 1.45874, 1.46363, 1.468, 
1.32857, 1.32234, 1.31948, 1.31849, 1.31923, 1.33999, 1.31628, 1.31006, 1.3083, 1.30861, 1.30667, 1.30708, 1.30274, 1.30214, 1.30192, 1.30173, 1.30375, 1.304, 1.30391, 1.3052, 1.30617, 1.30604, 1.30908, 1.30558, 1.27413, 1.42682, 1.55792, 1.63871, 1.65101, 1.55512, 1.29546, 1.32963, 1.31698, 1.31349, 1.30643, 1.3067, 1.31835, 1.30585, 1.31414, 1.30792, 1.30803, 1.30851, 1.31518, 1.31906, 1.32252, 1.32348, 1.318, 1.3125, 1.31262, 1.31179, 1.31082, 1.31521, 1.31381, 1.31662, 1.32043, 1.34656, 1.32974, 1.32655, 1.32759, 1.32913, 1.32998, 1.33036, 1.33004, 1.333, 1.3363, 1.33805, 1.34162, 1.34109, 1.3361, 1.33361, 1.33439, 1.33803, 1.34632, 1.34618, 1.34867, 1.35394, 1.34166, 1.34528, 1.34728, 1.35125, 1.35272, 1.35755, 1.36186, 1.36449, 1.3651, 1.36561, 1.36204, 1.36147, 1.36344, 1.36853, 1.37445, 1.37929, 1.38442, 1.38602, 1.38661, 1.3963, 1.4127, 1.42281, 1.41186, 1.38648, 1.45641, 1.56918, 1.6306, 1.64482, 1.62577, 1.5522, 1.46824, 1.38931, 1.43022, 1.43793, 1.43265, 1.45411, 1.43814, 1.4613, 1.44415, 1.44577, 1.4507, 1.45484, 1.45763, 1.46286, 1.459, 1.47074, 1.46774, 1.47359, 1.47732, 1.48155, 1.4866, 1.48744, 
1.30375, 1.30317, 1.3059, 1.30442, 1.30072, 1.30154, 1.30325, 1.29947, 1.29727, 1.29716, 1.2971, 1.29948, 1.29979, 1.30056, 1.29882, 1.3019, 1.30654, 1.31569, 1.32175, 1.30606, 1.32016, 1.31422, 1.31997, 1.31585, 1.30191, 1.44125, 1.53687, 1.63602, 1.65797, 1.46688, 1.31242, 1.31759, 1.31043, 1.32532, 1.30634, 1.30781, 1.3082, 1.30842, 1.30941, 1.31126, 1.30817, 1.30881, 1.30745, 1.30836, 1.30966, 1.31071, 1.31012, 1.3114, 1.31184, 1.31211, 1.31191, 1.31281, 1.31294, 1.31376, 1.31546, 1.31966, 1.31914, 1.32254, 1.32411, 1.32655, 1.32642, 1.32782, 1.32842, 1.32662, 1.32692, 1.32921, 1.33227, 1.33299, 1.33301, 1.3325, 1.33892, 1.3384, 1.3403, 1.34432, 1.34608, 1.34533, 1.34966, 1.33644, 1.33666, 1.33864, 1.34213, 1.34553, 1.34529, 1.34669, 1.34492, 1.34424, 1.34571, 1.3568, 1.35527, 1.36738, 1.36257, 1.37506, 1.36906, 1.37047, 1.37162, 1.3723, 1.38165, 1.38749, 1.38754, 1.40873, 1.44044, 1.53256, 1.5846, 1.61428, 1.58303, 1.55141, 1.44201, 1.39974, 1.4063, 1.42296, 1.42461, 1.42263, 1.42072, 1.42023, 1.44129, 1.44332, 1.44987, 1.43934, 1.43748, 1.43838, 1.43827, 1.43972, 1.44106, 1.45096, 1.45592, 1.45698, 1.45934, 1.4663, 
1.29793, 1.29522, 1.29374, 1.29473, 1.29592, 1.29453, 1.29449, 1.29578, 1.29205, 1.29105, 1.28933, 1.28888, 1.29175, 1.29364, 1.29383, 1.29464, 1.29173, 1.29179, 1.29147, 1.29291, 1.29208, 1.29898, 1.2988, 1.29957, 1.38366, 1.47852, 1.50787, 1.62349, 1.62411, 1.39491, 1.27141, 1.29255, 1.30034, 1.29097, 1.28892, 1.28874, 1.29067, 1.29378, 1.2922, 1.29323, 1.29925, 1.29412, 1.29468, 1.29505, 1.29447, 1.29324, 1.29178, 1.29347, 1.29661, 1.29809, 1.29795, 1.30165, 1.30232, 1.30293, 1.30278, 1.30192, 1.30116, 1.3001, 1.30076, 1.30499, 1.3055, 1.3075, 1.30841, 1.31576, 1.31754, 1.31893, 1.31917, 1.31916, 1.31908, 1.31933, 1.32012, 1.32381, 1.32446, 1.32828, 1.33003, 1.32833, 1.32841, 1.3299, 1.33128, 1.33464, 1.33752, 1.33777, 1.33866, 1.33777, 1.33942, 1.34408, 1.3476, 1.34879, 1.35326, 1.35588, 1.3587, 1.36418, 1.39849, 1.36914, 1.37105, 1.37268, 1.40601, 1.39905, 1.4014, 1.37389, 1.41325, 1.56122, 1.59621, 1.6159, 1.61741, 1.52808, 1.45742, 1.38754, 1.42919, 1.4206, 1.41412, 1.41194, 1.43765, 1.4197, 1.42564, 1.43176, 1.45817, 1.43976, 1.45462, 1.44303, 1.44502, 1.44461, 1.44924, 1.45191, 1.48382, 1.48292, 1.46607, 1.47119, 
1.30607, 1.2984, 1.2987, 1.30034, 1.29888, 1.29593, 1.29388, 1.29252, 1.29521, 1.2919, 1.29129, 1.2893, 1.28757, 1.29334, 1.29108, 1.29358, 1.29042, 1.29298, 1.29749, 1.28922, 1.28965, 1.3058, 1.30619, 1.28489, 1.31199, 1.43232, 1.53825, 1.67184, 1.66073, 1.33167, 1.27489, 1.28336, 1.30319, 1.29533, 1.29508, 1.29132, 1.29289, 1.29472, 1.29301, 1.29402, 1.29478, 1.30293, 1.29521, 1.29514, 1.29481, 1.29343, 1.29448, 1.29437, 1.30671, 1.29448, 1.29562, 1.29823, 1.29969, 1.30044, 1.29926, 1.30023, 1.30075, 1.3015, 1.30162, 1.30138, 1.30195, 1.30484, 1.30818, 1.31022, 1.31259, 1.31192, 1.31304, 1.31299, 1.31357, 1.31538, 1.31556, 1.31644, 1.31725, 1.31671, 1.31807, 1.31729, 1.32061, 1.32166, 1.32406, 1.32866, 1.33223, 1.33291, 1.33499, 1.34067, 1.34, 1.34359, 1.33745, 1.3467, 1.34428, 1.34886, 1.35116, 1.3512, 1.35713, 1.35494, 1.36166, 1.36498, 1.37802, 1.37555, 1.36882, 1.35107, 1.43478, 1.51695, 1.57155, 1.58211, 1.57201, 1.50832, 1.39366, 1.36732, 1.4086, 1.39896, 1.40622, 1.39979, 1.42495, 1.43203, 1.41216, 1.4129, 1.41575, 1.41911, 1.42262, 1.42509, 1.42927, 1.42694, 1.43029, 1.43351, 1.4382, 1.44165, 1.44587, 1.45374, 
1.31324, 1.30498, 1.29882, 1.2995, 1.29701, 1.29654, 1.29619, 1.29578, 1.29463, 1.29309, 1.29142, 1.29347, 1.28937, 1.28936, 1.28662, 1.28876, 1.28793, 1.29205, 1.29226, 1.29283, 1.29158, 1.29346, 1.30618, 1.30562, 1.35356, 1.44666, 1.56664, 1.59036, 1.59073, 1.41161, 1.23509, 1.22606, 1.29229, 1.29081, 1.28919, 1.30524, 1.2909, 1.28918, 1.28937, 1.2879, 1.28823, 1.29489, 1.28795, 1.29162, 1.29341, 1.29106, 1.29134, 1.29339, 1.2946, 1.29436, 1.29629, 1.29577, 1.29494, 1.31844, 1.30259, 1.30076, 1.30122, 1.29874, 1.29951, 1.30298, 1.29916, 1.30142, 1.30759, 1.31112, 1.30413, 1.30513, 1.31114, 1.30862, 1.30809, 1.31444, 1.31653, 1.3167, 1.31641, 1.31526, 1.31456, 1.31791, 1.32569, 1.32782, 1.32331, 1.32634, 1.33397, 1.33505, 1.33162, 1.3329, 1.33876, 1.34227, 1.35406, 1.34301, 1.3442, 1.34688, 1.34933, 1.34886, 1.34976, 1.3517, 1.35378, 1.35842, 1.36326, 1.37115, 1.37092, 1.3454, 1.43763, 1.50881, 1.58742, 1.58905, 1.56681, 1.52312, 1.42498, 1.38843, 1.39905, 1.4014, 1.41613, 1.40939, 1.40506, 1.40746, 1.41081, 1.41326, 1.42609, 1.42005, 1.41946, 1.42088, 1.4211, 1.42519, 1.4277, 1.42981, 1.43041, 1.4327, 1.4521, 1.44699, 
1.29535, 1.2985, 1.29368, 1.29261, 1.29186, 1.28917, 1.29179, 1.2909, 1.29154, 1.29071, 1.2909, 1.29535, 1.28675, 1.28535, 1.28568, 1.28621, 1.28573, 1.29902, 1.28577, 1.28596, 1.28645, 1.29245, 1.29155, 1.26144, 1.33746, 1.38346, 1.4893, 1.60683, 1.56491, 1.4337, 1.27622, 1.29811, 1.30871, 1.30124, 1.28599, 1.28297, 1.28246, 1.28309, 1.28165, 1.28207, 1.28181, 1.28424, 1.2883, 1.28946, 1.29114, 1.29127, 1.29259, 1.29288, 1.29719, 1.29624, 1.29732, 1.29564, 1.29595, 1.29514, 1.29449, 1.29455, 1.29384, 1.29488, 1.29741, 1.30266, 1.30457, 1.30645, 1.30888, 1.30868, 1.30943, 1.31024, 1.31181, 1.31232, 1.31303, 1.31285, 1.31196, 1.31365, 1.31415, 1.31547, 1.33616, 1.31725, 1.32024, 1.3214, 1.32639, 1.32691, 1.32675, 1.32833, 1.33103, 1.33221, 1.33637, 1.34007, 1.34329, 1.34813, 1.34735, 1.34662, 1.34642, 1.34672, 1.34978, 1.35858, 1.36189, 1.35473, 1.36047, 1.3715, 1.3821, 1.34728, 1.39568, 1.49287, 1.54405, 1.5615, 1.5361, 1.51757, 1.39427, 1.33453, 1.39973, 1.39532, 1.39472, 1.39555, 1.40065, 1.41599, 1.40315, 1.40568, 1.40929, 1.40897, 1.41411, 1.41215, 1.4191, 1.42578, 1.43026, 1.42573, 1.448, 1.43638, 1.44109, 1.44625, 
1.31929, 1.29361, 1.29223, 1.28982, 1.28987, 1.28858, 1.28863, 1.29014, 1.29488, 1.29258, 1.29165, 1.29207, 1.28788, 1.28895, 1.29061, 1.28823, 1.2889, 1.29562, 1.28647, 1.28587, 1.28854, 1.28878, 1.28822, 1.29356, 1.2866, 1.42359, 1.49225, 1.58935, 1.68882, 1.4687, 1.30539, 1.29189, 1.29466, 1.28631, 1.28244, 1.28036, 1.2795, 1.28019, 1.27966, 1.2781, 1.27968, 1.28189, 1.28607, 1.28749, 1.28865, 1.29006, 1.29024, 1.29025, 1.292, 1.29247, 1.29126, 1.29151, 1.29128, 1.29159, 1.29051, 1.28926, 1.28809, 1.28953, 1.2956, 1.29653, 1.2975, 1.30474, 1.30351, 1.30708, 1.30808, 1.30663, 1.30786, 1.3117, 1.31154, 1.31107, 1.31255, 1.31346, 1.31551, 1.31766, 1.31546, 1.31908, 1.32494, 1.32239, 1.32307, 1.32414, 1.32334, 1.32661, 1.3279, 1.33043, 1.33056, 1.3324, 1.33324, 1.33664, 1.34401, 1.34109, 1.33991, 1.34116, 1.34301, 1.3454, 1.36005, 1.36202, 1.35678, 1.36437, 1.36848, 1.34692, 1.41075, 1.51626, 1.55331, 1.59986, 1.5431, 1.4672, 1.434, 1.37458, 1.38582, 1.40241, 1.39842, 1.41437, 1.3969, 1.42238, 1.41709, 1.41205, 1.40656, 1.40971, 1.41185, 1.41414, 1.41834, 1.42222, 1.44386, 1.42632, 1.43004, 1.43324, 1.43736, 1.44788, 
1.29188, 1.28894, 1.28473, 1.28526, 1.28273, 1.28467, 1.28324, 1.28262, 1.28458, 1.2832, 1.28796, 1.28528, 1.28741, 1.28705, 1.28678, 1.28579, 1.29233, 1.28266, 1.29182, 1.2811, 1.2794, 1.29613, 1.2912, 1.29277, 1.36165, 1.44432, 1.56381, 1.59401, 1.57205, 1.49953, 1.33328, 1.25079, 1.29639, 1.28455, 1.28448, 1.2849, 1.28419, 1.28434, 1.28334, 1.28822, 1.28054, 1.2781, 1.27975, 1.28187, 1.2864, 1.28822, 1.29089, 1.29004, 1.28895, 1.28909, 1.29364, 1.29348, 1.29451, 1.29623, 1.29588, 1.29459, 1.29561, 1.2949, 1.29429, 1.29458, 1.29307, 1.29675, 1.29965, 1.30412, 1.3055, 1.3092, 1.30759, 1.30736, 1.30915, 1.31182, 1.31102, 1.31112, 1.31262, 1.31549, 1.31731, 1.31977, 1.32613, 1.32394, 1.32471, 1.32698, 1.3298, 1.32951, 1.32994, 1.33209, 1.33355, 1.35848, 1.33652, 1.33958, 1.33973, 1.34235, 1.3442, 1.34771, 1.34834, 1.35035, 1.35176, 1.35395, 1.35471, 1.35916, 1.36989, 1.34662, 1.3636, 1.50916, 1.53527, 1.55434, 1.5574, 1.49007, 1.43468, 1.38157, 1.38501, 1.39094, 1.39141, 1.39019, 1.3925, 1.3936, 1.39439, 1.39994, 1.40142, 1.40604, 1.41232, 1.41016, 1.41007, 1.41694, 1.41961, 1.42325, 1.42277, 1.42949, 1.43663, 1.43975, 
1.28765, 1.28875, 1.28498, 1.28652, 1.28483, 1.28318, 1.28489, 1.28217, 1.28097, 1.27863, 1.27965, 1.27788, 1.27737, 1.27756, 1.27801, 1.27975, 1.27995, 1.28277, 1.28161, 1.28211, 1.29425, 1.30794, 1.28797, 1.27539, 1.38151, 1.42356, 1.4926, 1.58164, 1.55503, 1.43052, 1.32089, 1.27144, 1.29479, 1.2835, 1.28071, 1.28111, 1.28114, 1.27903, 1.27722, 1.27786, 1.2787, 1.27814, 1.27737, 1.27775, 1.28102, 1.28296, 1.28228, 1.2839, 1.28506, 1.28469, 1.28608, 1.28808, 1.28902, 1.2898, 1.28986, 1.29235, 1.29267, 1.29214, 1.29163, 1.29064, 1.29134, 1.29172, 1.29373, 1.29667, 1.29902, 1.30045, 1.30232, 1.30498, 1.30637, 1.305, 1.30567, 1.3085, 1.30865, 1.30959, 1.31087, 1.30894, 1.31299, 1.31509, 1.3168, 1.32051, 1.32001, 1.32453, 1.32817, 1.32825, 1.32976, 1.33033, 1.33083, 1.33116, 1.32841, 1.33772, 1.33613, 1.33998, 1.34242, 1.34645, 1.34868, 1.35458, 1.35848, 1.36237, 1.35193, 1.34431, 1.40699, 1.48222, 1.52155, 1.53761, 1.54431, 1.48921, 1.43435, 1.36193, 1.39862, 1.42345, 1.392, 1.41018, 1.39538, 1.39792, 1.40582, 1.39958, 1.40013, 1.40956, 1.40688, 1.41273, 1.41333, 1.42587, 1.42606, 1.42352, 1.42968, 1.43783, 1.43537, 1.4342, 
1.28756, 1.2885, 1.28962, 1.28959, 1.2872, 1.28579, 1.28317, 1.28147, 1.27935, 1.27844, 1.27592, 1.27411, 1.27361, 1.27269, 1.27465, 1.27658, 1.27966, 1.281, 1.27999, 1.27795, 1.27816, 1.28203, 1.28874, 1.27732, 1.26953, 1.39994, 1.54831, 1.6223, 1.57948, 1.41715, 1.32274, 1.271, 1.28525, 1.28179, 1.27787, 1.27203, 1.27319, 1.27617, 1.28086, 1.27313, 1.27287, 1.27347, 1.2791, 1.27954, 1.27887, 1.28088, 1.28124, 1.27859, 1.2847, 1.27924, 1.28039, 1.28409, 1.28237, 1.28672, 1.28788, 1.28572, 1.28598, 1.28845, 1.28882, 1.28984, 1.29214, 1.29352, 1.29278, 1.29483, 1.29561, 1.29832, 1.30327, 1.30149, 1.3026, 1.30208, 1.30497, 1.30554, 1.30838, 1.30698, 1.30858, 1.31361, 1.31397, 1.31818, 1.31732, 1.3208, 1.31871, 1.31974, 1.32288, 1.32298, 1.32435, 1.32615, 1.32673, 1.32384, 1.32907, 1.33284, 1.33115, 1.33268, 1.33807, 1.35358, 1.34364, 1.34989, 1.35504, 1.37808, 1.35468, 1.35434, 1.36104, 1.47428, 1.50995, 1.52755, 1.52064, 1.50399, 1.48415, 1.38455, 1.38093, 1.40195, 1.39374, 1.39958, 1.39416, 1.39609, 1.39336, 1.3946, 1.39597, 1.40085, 1.40309, 1.413, 1.41243, 1.41559, 1.42066, 1.42339, 1.42586, 1.42889, 1.43014, 1.43005, 
1.28106, 1.28196, 1.28125, 1.28155, 1.27922, 1.27806, 1.27732, 1.2766, 1.27423, 1.27266, 1.27267, 1.27518, 1.27533, 1.27497, 1.27393, 1.27442, 1.27525, 1.27396, 1.27494, 1.27473, 1.27302, 1.27783, 1.27741, 1.26427, 1.29615, 1.3813, 1.51113, 1.56151, 1.54843, 1.44237, 1.32641, 1.28468, 1.29147, 1.28286, 1.27514, 1.27365, 1.27396, 1.2747, 1.27297, 1.27614, 1.27536, 1.27733, 1.27939, 1.27973, 1.27828, 1.27666, 1.27805, 1.27785, 1.28153, 1.2812, 1.28142, 1.28273, 1.28297, 1.28298, 1.28494, 1.28484, 1.28768, 1.28604, 1.28683, 1.28818, 1.2916, 1.2919, 1.29269, 1.2957, 1.29567, 1.29822, 1.29781, 1.29846, 1.3, 1.30032, 1.30593, 1.30288, 1.30194, 1.30261, 1.30838, 1.31025, 1.31446, 1.31555, 1.31779, 1.32042, 1.31894, 1.31985, 1.3187, 1.31933, 1.32116, 1.32236, 1.32432, 1.32724, 1.32906, 1.32962, 1.33166, 1.33401, 1.33749, 1.33886, 1.34019, 1.34169, 1.34815, 1.35242, 1.36424, 1.34047, 1.40276, 1.49682, 1.50526, 1.51194, 1.51945, 1.46641, 1.44068, 1.37212, 1.37312, 1.40371, 1.39385, 1.39286, 1.38338, 1.38214, 1.38633, 1.40222, 1.39448, 1.40006, 1.40314, 1.40904, 1.41245, 1.41794, 1.43421, 1.42201, 1.42695, 1.42696, 1.42852, 1.43277, 
1.28095, 1.2781, 1.27596, 1.27978, 1.2751, 1.27209, 1.27447, 1.27189, 1.2722, 1.27072, 1.27224, 1.27166, 1.27208, 1.27185, 1.27023, 1.27076, 1.27342, 1.27111, 1.29201, 1.27479, 1.27289, 1.28253, 1.27872, 1.25548, 1.38119, 1.45236, 1.50362, 1.54156, 1.48959, 1.45855, 1.35863, 1.26348, 1.27867, 1.2812, 1.27033, 1.26866, 1.27004, 1.26969, 1.26965, 1.26969, 1.27104, 1.27089, 1.27211, 1.27376, 1.27464, 1.27584, 1.27465, 1.27505, 1.27402, 1.2748, 1.27548, 1.27679, 1.27824, 1.2781, 1.27908, 1.28017, 1.27837, 1.27825, 1.27995, 1.27903, 1.28504, 1.28591, 1.28614, 1.28894, 1.29485, 1.29148, 1.28871, 1.29252, 1.29241, 1.29305, 1.29279, 1.29106, 1.29795, 1.29695, 1.29898, 1.30401, 1.30727, 1.30911, 1.31371, 1.31346, 1.31366, 1.31553, 1.3178, 1.31871, 1.31637, 1.31741, 1.32575, 1.32149, 1.32486, 1.32511, 1.33696, 1.33228, 1.33442, 1.34004, 1.33754, 1.34491, 1.35783, 1.35853, 1.35679, 1.34122, 1.41046, 1.4994, 1.50265, 1.49494, 1.46469, 1.44919, 1.45138, 1.38486, 1.37479, 1.38156, 1.38127, 1.38683, 1.38097, 1.38269, 1.38858, 1.39233, 1.39004, 1.39445, 1.39733, 1.40029, 1.40335, 1.40677, 1.40991, 1.41427, 1.4156, 1.41919, 1.42228, 1.42131, 
1.27486, 1.27262, 1.27143, 1.26882, 1.26758, 1.26741, 1.26793, 1.27165, 1.26884, 1.26817, 1.26681, 1.26715, 1.26792, 1.26695, 1.26429, 1.26461, 1.26749, 1.26749, 1.26653, 1.26858, 1.27067, 1.27498, 1.278, 1.26342, 1.39909, 1.41061, 1.4779, 1.53034, 1.51885, 1.44367, 1.34725, 1.25424, 1.28616, 1.27749, 1.27486, 1.27036, 1.26911, 1.2692, 1.27269, 1.27055, 1.2696, 1.27382, 1.26744, 1.2736, 1.27388, 1.27464, 1.27265, 1.27209, 1.27194, 1.27933, 1.27755, 1.27644, 1.28028, 1.2874, 1.27898, 1.27798, 1.27797, 1.27946, 1.28117, 1.28939, 1.28454, 1.28508, 1.28459, 1.28572, 1.29113, 1.29133, 1.29372, 1.29509, 1.2943, 1.29467, 1.29792, 1.29586, 1.3002, 1.30033, 1.30198, 1.30789, 1.30494, 1.30614, 1.30943, 1.30988, 1.31001, 1.31287, 1.31471, 1.31506, 1.31866, 1.31904, 1.32165, 1.31963, 1.32274, 1.32442, 1.32528, 1.32681, 1.32777, 1.35604, 1.33459, 1.33688, 1.33852, 1.35457, 1.35643, 1.3369, 1.40889, 1.43594, 1.4885, 1.49643, 1.47963, 1.46368, 1.40924, 1.35445, 1.34395, 1.38022, 1.38981, 1.37862, 1.38936, 1.39427, 1.38571, 1.38669, 1.38895, 1.39452, 1.39751, 1.39617, 1.39897, 1.4051, 1.40617, 1.41049, 1.41269, 1.41626, 1.42043, 1.4257, 
1.27499, 1.27447, 1.27733, 1.28164, 1.27385, 1.27053, 1.26935, 1.27451, 1.27057, 1.26929, 1.28213, 1.26796, 1.26759, 1.26739, 1.2677, 1.26783, 1.27012, 1.27091, 1.28202, 1.2637, 1.2667, 1.2789, 1.26958, 1.24762, 1.31657, 1.3947, 1.45428, 1.51905, 1.49603, 1.41318, 1.35466, 1.25385, 1.27774, 1.27632, 1.27485, 1.27015, 1.26467, 1.26564, 1.26797, 1.26553, 1.26406, 1.26364, 1.26733, 1.27061, 1.27252, 1.27031, 1.2724, 1.27723, 1.27721, 1.2774, 1.27883, 1.28222, 1.28159, 1.28124, 1.27849, 1.27909, 1.27643, 1.27665, 1.27766, 1.28015, 1.28152, 1.28277, 1.28467, 1.28653, 1.28471, 1.28546, 1.28489, 1.28577, 1.28693, 1.28795, 1.28865, 1.28944, 1.29285, 1.29403, 1.29599, 1.29919, 1.29952, 1.29976, 1.30117, 1.29907, 1.29834, 1.30548, 1.30386, 1.30554, 1.30884, 1.30988, 1.30897, 1.31443, 1.31632, 1.31703, 1.31859, 1.32223, 1.32627, 1.32922, 1.33649, 1.33032, 1.33225, 1.34108, 1.34773, 1.30577, 1.39592, 1.46105, 1.46177, 1.49605, 1.4896, 1.47466, 1.45471, 1.3396, 1.37599, 1.38211, 1.37081, 1.37004, 1.38813, 1.37536, 1.3849, 1.39624, 1.388, 1.39803, 1.39937, 1.39975, 1.40296, 1.40404, 1.40773, 1.40811, 1.41036, 1.41521, 1.4181, 1.42237, 
1.27281, 1.27361, 1.27133, 1.2707, 1.27115, 1.27037, 1.27036, 1.27024, 1.26844, 1.26726, 1.2668, 1.26753, 1.26789, 1.2669, 1.26775, 1.26548, 1.2654, 1.26563, 1.26443, 1.26265, 1.26201, 1.2814, 1.26998, 1.24319, 1.31979, 1.35798, 1.47576, 1.49862, 1.47887, 1.38803, 1.3391, 1.24088, 1.27757, 1.26718, 1.26881, 1.26369, 1.26051, 1.27574, 1.25968, 1.25753, 1.25766, 1.25787, 1.2616, 1.26395, 1.26416, 1.26342, 1.26586, 1.26793, 1.27006, 1.27125, 1.27437, 1.2742, 1.27435, 1.27414, 1.2737, 1.27294, 1.27367, 1.27375, 1.27328, 1.27556, 1.27803, 1.28208, 1.28438, 1.28123, 1.28167, 1.28186, 1.28431, 1.28255, 1.28553, 1.28437, 1.28417, 1.28202, 1.29294, 1.29628, 1.29971, 1.29951, 1.29979, 1.30043, 1.30034, 1.30208, 1.30048, 1.30275, 1.30392, 1.30287, 1.30746, 1.31044, 1.31299, 1.31561, 1.31761, 1.31879, 1.32238, 1.32572, 1.32766, 1.33048, 1.3336, 1.34019, 1.33655, 1.34496, 1.35719, 1.34223, 1.42014, 1.4582, 1.46399, 1.47407, 1.46747, 1.41294, 1.40595, 1.35213, 1.34704, 1.38241, 1.37176, 1.37797, 1.37192, 1.37177, 1.37905, 1.38169, 1.38242, 1.38524, 1.38849, 1.39218, 1.39208, 1.39621, 1.40215, 1.40262, 1.40669, 1.40928, 1.4154, 1.4167, 
