1.33243, 1.33231, 1.33182, 1.33178, 1.33226, 1.33324, 1.37334, 1.33277, 1.33181, 1.33313, 1.33286, 1.33383, 1.33234, 1.33154, 1.3304, 1.33006, 1.32973, 1.33041, 1.33269, 1.33193, 1.33184, 1.33248, 1.33099, 1.33561, 1.33177, 1.32955, 1.32813, 1.32596, 1.3247, 1.3244, 1.33641, 1.32392, 1.33379, 1.32272, 1.32419, 1.33472, 1.32416, 1.32426, 1.32571, 1.32699, 1.32614, 1.33027, 1.32674, 1.32917, 1.33794, 1.32202, 1.33323, 1.42367, 1.46275, 1.52594, 1.61829, 1.66601, 1.80749, 1.89248, 1.89304, 1.43134, 1.3907, 1.33348, 1.31836, 1.32231, 1.33178, 1.32868, 1.3432, 1.34255, 1.32913, 1.3303, 1.34128, 1.3379, 1.32981, 1.32928, 1.32935, 1.32974, 1.32914, 1.32832, 1.32738, 1.32765, 1.32699, 1.32651, 1.32654, 1.32688, 1.32718, 1.32779, 1.32798, 1.32856, 1.32903, 1.32997, 1.3301, 1.33183, 1.33184, 1.33125, 1.32961, 1.32945, 1.33068, 1.33252, 1.33272, 1.33411, 1.33545, 1.33632, 1.33713, 1.337, 1.33827, 1.33912, 1.33929, 1.34007, 1.3394, 1.33898, 1.33933, 1.33947, 1.33929, 1.33939, 1.33852, 1.33856, 1.33852, 1.33903, 1.33845, 1.33895, 1.33835, 1.33803, 1.34027, 1.33873, 1.34265, 1.34297, 1.34395, 1.34504, 1.34619, 1.34681, 1.34699, 1.34627, 1.34701, 1.34999, 1.3504, 1.35226, 1.35336, 1.35328, 1.3557, 1.35575, 1.35723, 1.35672, 1.35709, 1.35547, 1.35407, 1.35633, 1.35721, 1.35771, 1.35788, 1.36032, 1.36147, 1.36243, 1.36359, 1.36402, 1.36581, 1.36515, 1.36666, 1.36761, 1.36786, 1.36851, 1.36836, 1.37555, 1.3716, 1.37184, 1.3736, 1.37504, 1.3775, 1.37908, 1.38069, 1.38154, 1.38227, 1.38306, 1.38531, 1.38266, 1.38482, 1.38516, 1.38688, 1.38848, 1.38992, 1.39157, 1.39243, 1.39383, 1.3956, 1.3961, 1.39785, 1.39794, 1.3981, 1.39768, 1.39906, 1.409, 1.40187, 1.411, 1.40316, 1.41566, 1.40013, 1.42663, 1.41974, 1.42399, 1.41638, 1.41605, 1.39978, 1.41745, 1.45772, 1.56726, 1.63365, 1.67332, 1.69861, 1.72294, 1.74038, 1.69629, 1.63085, 1.60736, 1.5996, 1.49298, 1.42631, 1.43384, 1.42207, 1.446, 1.44495, 1.451, 1.45452, 1.43984, 1.43893, 1.44196, 1.44095, 1.44839, 1.44448, 1.44476, 1.44781, 1.44854, 1.44911, 1.45852, 1.45336, 1.45444, 1.46163, 1.45807, 1.45977, 1.46331, 1.46379, 1.4635, 1.46488, 1.47656, 1.46651, 1.46735, 1.4702, 1.46823, 1.46899, 1.4711, 1.47255, 1.47411, 1.48469, 1.47735, 1.50603, 1.48195, 1.48814, 1.48356, 1.48318, 1.48851, 1.50989, 1.49437
1.32663, 1.32664, 1.33278, 1.32556, 1.32541, 1.32556, 1.33351, 1.3266, 1.33043, 1.32707, 1.32767, 1.32935, 1.32797, 1.32819, 1.3267, 1.33621, 1.32715, 1.3268, 1.33474, 1.37927, 1.33244, 1.3307, 1.33151, 1.35331, 1.33244, 1.33014, 1.32778, 1.32659, 1.3246, 1.3233, 1.32291, 1.34428, 1.32689, 1.31835, 1.31882, 1.32382, 1.31875, 1.34365, 1.31962, 1.32048, 1.32051, 1.32222, 1.32338, 1.33654, 1.32744, 1.31365, 1.31757, 1.36042, 1.41959, 1.49993, 1.59591, 1.67988, 1.72743, 1.74739, 1.71989, 1.44491, 1.39292, 1.3366, 1.29004, 1.33398, 1.32933, 1.3275, 1.3345, 1.33254, 1.32961, 1.32638, 1.32596, 1.34785, 1.35032, 1.32761, 1.32797, 1.32867, 1.32703, 1.32591, 1.32536, 1.32504, 1.32381, 1.32445, 1.34992, 1.32635, 1.32548, 1.32622, 1.32674, 1.32797, 1.32809, 1.32826, 1.32912, 1.32989, 1.32913, 1.32906, 1.32926, 1.33015, 1.33171, 1.33125, 1.33175, 1.33413, 1.33606, 1.33699, 1.33794, 1.33788, 1.33642, 1.33777, 1.33802, 1.33776, 1.33612, 1.33643, 1.33514, 1.33527, 1.33542, 1.33712, 1.337, 1.33624, 1.33584, 1.336, 1.33619, 1.33592, 1.33635, 1.33783, 1.33965, 1.33997, 1.33971, 1.33941, 1.34105, 1.34202, 1.3432, 1.34417, 1.34531, 1.34649, 1.34553, 1.34613, 1.34707, 1.34831, 1.34889, 1.34979, 1.35023, 1.35101, 1.35022, 1.37776, 1.35153, 1.35311, 1.35323, 1.35365, 1.354, 1.35489, 1.35446, 1.35673, 1.35526, 1.35682, 1.35978, 1.36036, 1.36128, 1.36241, 1.36283, 1.36347, 1.36478, 1.36475, 1.36511, 1.36703, 1.36592, 1.36786, 1.36862, 1.3706, 1.37249, 1.37471, 1.37516, 1.37737, 1.37803, 1.38111, 1.38082, 1.38239, 1.38397, 1.3852, 1.38649, 1.38794, 1.38951, 1.39127, 1.39152, 1.39329, 1.39505, 1.39506, 1.3953, 1.39722, 1.39595, 1.39594, 1.39955, 1.41547, 1.40056, 1.40167, 1.40926, 1.40259, 1.41051, 1.41003, 1.40652, 1.41989, 1.41568, 1.40702, 1.40026, 1.42464, 1.42808, 1.53428, 1.5682, 1.63665, 1.71038, 1.73017, 1.74435, 1.73036, 1.65747, 1.62288, 1.5059, 1.48229, 1.41172, 1.40997, 1.41383, 1.44966, 1.45789, 1.44458, 1.46123, 1.44438, 1.44794, 1.43979, 1.45759, 1.44782, 1.46071, 1.44178, 1.45195, 1.44565, 1.44745, 1.45157, 1.45102, 1.4544, 1.45671, 1.4579, 1.45921, 1.46224, 1.46491, 1.4654, 1.46519, 1.46569, 1.46767, 1.4685, 1.47005, 1.47163, 1.47194, 1.47206, 1.47437, 1.47533, 1.47837, 1.4803, 1.48222, 1.48323, 1.48398, 1.48837, 1.48803, 1.51992, 1.49027, 1.52584
1.32102, 1.31987, 1.32021, 1.32047, 1.31805, 1.31939, 1.31991, 1.32091, 1.32187, 1.32293, 1.32335, 1.32373, 1.32374, 1.32326, 1.32428, 1.32429, 1.32288, 1.32458, 1.32579, 1.32541, 1.32655, 1.32919, 1.32894, 1.32887, 1.3278, 1.32565, 1.32703, 1.32389, 1.32351, 1.3334, 1.31862, 1.31708, 1.3142, 1.31305, 1.31285, 1.32017, 1.31255, 1.31382, 1.31338, 1.3162, 1.31646, 1.34469, 1.32639, 1.32921, 1.3272, 1.28997, 1.31732, 1.39931, 1.42061, 1.44227, 1.54289, 1.57586, 1.8395, 1.74322, 1.76416, 1.5308, 1.39998, 1.30283, 1.2862, 1.30991, 1.32289, 1.33436, 1.32284, 1.3322, 1.32243, 1.34598, 1.32328, 1.32535, 1.32614, 1.32708, 1.32634, 1.34384, 1.3247, 1.32513, 1.32265, 1.32112, 1.32015, 1.32006, 1.33785, 1.32207, 1.3235, 1.32416, 1.32422, 1.32598, 1.32539, 1.32635, 1.32747, 1.32814, 1.32844, 1.32855, 1.32928, 1.3298, 1.3295, 1.3312, 1.33296, 1.33204, 1.33392, 1.33464, 1.33542, 1.33574, 1.33439, 1.33395, 1.33579, 1.33528, 1.33497, 1.33446, 1.33461, 1.33357, 1.33605, 1.33569, 1.33564, 1.33499, 1.33537, 1.33525, 1.33562, 1.3352, 1.33704, 1.33613, 1.33659, 1.34866, 1.34639, 1.33849, 1.33849, 1.33899, 1.33955, 1.34015, 1.34163, 1.34117, 1.34162, 1.34129, 1.34262, 1.34343, 1.3446, 1.34588, 1.34709, 1.34666, 1.34779, 1.34706, 1.34785, 1.34875, 1.34883, 1.34865, 1.34883, 1.3502, 1.37215, 1.35103, 1.35244, 1.35459, 1.35389, 1.35537, 1.35656, 1.35679, 1.35704, 1.35778, 1.35921, 1.36044, 1.36128, 1.36184, 1.3635, 1.36457, 1.36454, 1.36723, 1.36849, 1.3911, 1.37211, 1.37411, 1.37494, 1.37806, 1.37964, 1.38067, 1.38165, 1.38329, 1.38524, 1.38804, 1.38847, 1.38975, 1.3911, 1.39166, 1.40001, 1.40015, 1.39358, 1.41161, 1.41276, 1.39338, 1.39489, 1.40223, 1.39796, 1.39912, 1.40228, 1.4059, 1.39995, 1.40933, 1.41867, 1.41381, 1.40513, 1.39909, 1.41207, 1.39875, 1.45833, 1.49627, 1.53327, 1.58973, 1.6722, 1.69679, 1.7131, 1.64754, 1.58953, 1.53162, 1.50069, 1.42046, 1.4133, 1.38812, 1.40023, 1.43057, 1.44349, 1.44122, 1.43349, 1.43516, 1.4345, 1.44701, 1.4378, 1.43908, 1.43877, 1.44847, 1.44209, 1.44347, 1.44419, 1.44671, 1.44914, 1.45149, 1.45389, 1.45389, 1.4579, 1.45816, 1.45961, 1.47101, 1.46344, 1.46456, 1.46529, 1.46607, 1.467, 1.46644, 1.46841, 1.48212, 1.4715, 1.4737, 1.47456, 1.47774, 1.50621, 1.48359, 1.48264, 1.4872, 1.50683, 1.48818, 1.49078, 1.50236
1.32434, 1.32261, 1.32373, 1.32462, 1.32436, 1.32458, 1.32281, 1.32426, 1.32607, 1.3299, 1.32943, 1.32967, 1.33048, 1.32922, 1.32743, 1.32727, 1.32653, 1.32654, 1.33361, 1.32974, 1.32786, 1.32769, 1.32787, 1.3261, 1.3262, 1.32632, 1.32442, 1.32236, 1.3212, 1.32297, 1.32001, 1.31739, 1.31666, 1.31492, 1.31609, 1.31434, 1.31944, 1.32535, 1.31606, 1.31604, 1.32308, 1.33334, 1.33773, 1.32528, 1.3229, 1.32326, 1.35231, 1.365, 1.41938, 1.50344, 1.53416, 1.62728, 1.70437, 1.75579, 1.7104, 1.51362, 1.34667, 1.30156, 1.28566, 1.29536, 1.32035, 1.31998, 1.32621, 1.32005, 1.31909, 1.31893, 1.32017, 1.32018, 1.34397, 1.32297, 1.32331, 1.32277, 1.32182, 1.32003, 1.31973, 1.31766, 1.31773, 1.31992, 1.31858, 1.31937, 1.32145, 1.3215, 1.32194, 1.32121, 1.32201, 1.32212, 1.32292, 1.32348, 1.32343, 1.32584, 1.32626, 1.32621, 1.32769, 1.34424, 1.32899, 1.33673, 1.32934, 1.33031, 1.33051, 1.32995, 1.32993, 1.3303, 1.32934, 1.32966, 1.32919, 1.32942, 1.33051, 1.33262, 1.33197, 1.33267, 1.33337, 1.33286, 1.33291, 1.33322, 1.33286, 1.33413, 1.33462, 1.33503, 1.33599, 1.33627, 1.33594, 1.34297, 1.3344, 1.33391, 1.33411, 1.33599, 1.33644, 1.3383, 1.33948, 1.34029, 1.341, 1.34075, 1.34215, 1.3436, 1.34556, 1.34692, 1.34713, 1.34685, 1.34688, 1.34537, 1.34489, 1.34425, 1.34463, 1.34616, 1.34723, 1.34893, 1.3493, 1.35112, 1.35201, 1.35317, 1.3537, 1.35418, 1.35787, 1.3548, 1.35657, 1.35931, 1.35752, 1.35776, 1.35862, 1.35952, 1.36142, 1.36299, 1.36726, 1.36692, 1.36857, 1.37243, 1.37103, 1.3736, 1.37423, 1.37541, 1.37902, 1.38065, 1.38166, 1.41513, 1.38574, 1.38594, 1.38753, 1.38898, 1.38818, 1.41657, 1.39547, 1.39174, 1.40005, 1.39503, 1.39257, 1.39249, 1.39355, 1.39629, 1.39367, 1.39531, 1.39618, 1.40943, 1.40296, 1.41122, 1.41025, 1.3936, 1.36703, 1.41115, 1.45055, 1.50164, 1.60676, 1.64429, 1.67226, 1.70822, 1.71307, 1.66939, 1.65455, 1.58757, 1.52962, 1.47183, 1.39091, 1.38453, 1.42001, 1.42872, 1.43628, 1.445, 1.43763, 1.43771, 1.43628, 1.43669, 1.45369, 1.45081, 1.43475, 1.43546, 1.44993, 1.44008, 1.43951, 1.44251, 1.44288, 1.44587, 1.46934, 1.45082, 1.45444, 1.49633, 1.47811, 1.46457, 1.45787, 1.46037, 1.4608, 1.46234, 1.46598, 1.4678, 1.46764, 1.46653, 1.47109, 1.47189, 1.47288, 1.47363, 1.47786, 1.48632, 1.5041, 1.48524, 1.48622, 1.48704, 1.48924, 1.48936
1.33167, 1.33889, 1.32986, 1.32862, 1.32958, 1.32763, 1.32783, 1.32994, 1.33249, 1.33337, 1.33466, 1.33602, 1.33579, 1.33604, 1.33402, 1.33772, 1.33701, 1.33748, 1.33728, 1.33892, 1.33675, 1.33616, 1.33636, 1.33366, 1.33063, 1.32948, 1.32905, 1.32993, 1.32969, 1.32989, 1.32972, 1.32736, 1.3342, 1.32284, 1.32276, 1.34379, 1.32566, 1.32305, 1.32388, 1.3253, 1.33928, 1.33348, 1.33585, 1.34301, 1.35861, 1.33061, 1.31458, 1.38523, 1.45246, 1.50595, 1.52402, 1.60562, 1.64939, 1.73584, 1.6966, 1.58629, 1.46895, 1.34706, 1.30136, 1.30535, 1.32666, 1.34654, 1.34023, 1.32445, 1.32292, 1.32195, 1.32123, 1.32331, 1.33266, 1.32552, 1.32611, 1.32672, 1.32632, 1.32685, 1.32628, 1.32651, 1.32471, 1.32569, 1.32534, 1.32509, 1.32226, 1.32309, 1.32273, 1.32529, 1.32564, 1.32548, 1.32585, 1.32778, 1.32847, 1.32811, 1.32926, 1.32975, 1.32961, 1.32917, 1.32999, 1.3298, 1.33675, 1.33035, 1.3296, 1.32904, 1.32748, 1.32821, 1.32848, 1.3276, 1.3274, 1.32812, 1.32943, 1.33023, 1.33238, 1.33103, 1.32984, 1.33008, 1.33128, 1.33164, 1.33315, 1.33281, 1.3335, 1.33396, 1.33439, 1.33386, 1.33307, 1.33298, 1.33356, 1.33289, 1.33297, 1.33396, 1.33457, 1.33664, 1.33923, 1.3394, 1.33948, 1.34043, 1.34053, 1.34294, 1.34474, 1.34547, 1.34668, 1.3452, 1.34462, 1.34481, 1.34444, 1.34573, 1.34621, 1.34679, 1.34782, 1.34839, 1.35046, 1.35131, 1.35199, 1.35235, 1.35244, 1.35345, 1.35418, 1.35474, 1.35523, 1.35475, 1.35516, 1.355, 1.35716, 1.35772, 1.35917, 1.36004, 1.36128, 1.36219, 1.36377, 1.36465, 1.3675, 1.36888, 1.36787, 1.36945, 1.37081, 1.3712, 1.37257, 1.37756, 1.37589, 1.37865, 1.37798, 1.39831, 1.37977, 1.38094, 1.38238, 1.38522, 1.38631, 1.38717, 1.3886, 1.38926, 1.38975, 1.40681, 1.3902, 1.39145, 1.41761, 1.40245, 1.40657, 1.40444, 1.41569, 1.40636, 1.39734, 1.43756, 1.44408, 1.49281, 1.55758, 1.63133, 1.69329, 1.69967, 1.6906, 1.67203, 1.60912, 1.59504, 1.56947, 1.43286, 1.40943, 1.40937, 1.39965, 1.43054, 1.43082, 1.44067, 1.43019, 1.44345, 1.44332, 1.43276, 1.42967, 1.43752, 1.44284, 1.45447, 1.45714, 1.43797, 1.43804, 1.44615, 1.44167, 1.45155, 1.46855, 1.44764, 1.44903, 1.4512, 1.45269, 1.45501, 1.45444, 1.45676, 1.45971, 1.46359, 1.46324, 1.48223, 1.4651, 1.46911, 1.47104, 1.48603, 1.47399, 1.48164, 1.50699, 1.47829, 1.48141, 1.47958, 1.48305, 1.48559, 1.48928, 1.4888
1.3323, 1.33051, 1.33017, 1.32865, 1.3299, 1.33219, 1.3282, 1.327, 1.32807, 1.32586, 1.32531, 1.32708, 1.34627, 1.33056, 1.33308, 1.33365, 1.33169, 1.3338, 1.33377, 1.33407, 1.33345, 1.3335, 1.33286, 1.33682, 1.33412, 1.3347, 1.33387, 1.33335, 1.33322, 1.34044, 1.33297, 1.3412, 1.3371, 1.32787, 1.34249, 1.32629, 1.33465, 1.32978, 1.32979, 1.34816, 1.33407, 1.35162, 1.33873, 1.34509, 1.34689, 1.33604, 1.34054, 1.43457, 1.42859, 1.44427, 1.57604, 1.68224, 1.68165, 1.68049, 1.6035, 1.54376, 1.4003, 1.3296, 1.31993, 1.32318, 1.33387, 1.34298, 1.34033, 1.3308, 1.35091, 1.33681, 1.33747, 1.33302, 1.33406, 1.33279, 1.33341, 1.33377, 1.33411, 1.33438, 1.33396, 1.33314, 1.33268, 1.33217, 1.33246, 1.3306, 1.32998, 1.32946, 1.32799, 1.32839, 1.33017, 1.33142, 1.33174, 1.33331, 1.33402, 1.33499, 1.33498, 1.33525, 1.33394, 1.3328, 1.33306, 1.33252, 1.33127, 1.33086, 1.32989, 1.331, 1.33094, 1.33067, 1.33162, 1.34384, 1.33346, 1.3379, 1.34101, 1.34171, 1.34242, 1.34097, 1.33869, 1.33404, 1.33289, 1.33287, 1.33503, 1.33675, 1.33987, 1.34047, 1.33907, 1.33815, 1.33767, 1.33925, 1.33899, 1.34028, 1.34071, 1.34126, 1.34269, 1.34377, 1.34401, 1.34491, 1.3451, 1.34475, 1.34714, 1.3466, 1.3498, 1.35048, 1.35142, 1.35093, 1.34997, 1.3501, 1.35095, 1.35251, 1.35232, 1.35376, 1.35321, 1.3538, 1.35667, 1.35731, 1.35682, 1.35699, 1.3572, 1.35847, 1.35964, 1.36078, 1.36068, 1.36187, 1.36202, 1.36333, 1.36306, 1.36356, 1.36392, 1.36992, 1.36326, 1.36165, 1.371, 1.3637, 1.36606, 1.36616, 1.36416, 1.36381, 1.36349, 1.3641, 1.36548, 1.36769, 1.36837, 1.36917, 1.37047, 1.37298, 1.37479, 1.37778, 1.37989, 1.38062, 1.38223, 1.3927, 1.38444, 1.38636, 1.38616, 1.38747, 1.38855, 1.3901, 1.39135, 1.40737, 1.41647, 1.39951, 1.39563, 1.39229, 1.36212, 1.39977, 1.46841, 1.50986, 1.58135, 1.63476, 1.68274, 1.67568, 1.68262, 1.66451, 1.63032, 1.602, 1.51701, 1.46766, 1.42565, 1.40773, 1.40798, 1.42802, 1.42742, 1.44743, 1.43782, 1.42327, 1.42434, 1.43259, 1.43954, 1.42706, 1.42905, 1.44564, 1.43326, 1.44019, 1.46105, 1.4449, 1.43726, 1.43912, 1.44164, 1.4439, 1.44552, 1.44639, 1.45096, 1.45118, 1.4612, 1.45556, 1.45737, 1.46119, 1.46094, 1.47571, 1.4642, 1.46739, 1.46906, 1.47037, 1.47159, 1.47923, 1.47453, 1.47583, 1.47719, 1.47899, 1.47974, 1.4831, 1.48503, 1.48661
1.32059, 1.32166, 1.32297, 1.32285, 1.32249, 1.32228, 1.3187, 1.31884, 1.31268, 1.3142, 1.31438, 1.31718, 1.32279, 1.32584, 1.32492, 1.32598, 1.32401, 1.32022, 1.3201, 1.32058, 1.32088, 1.32102, 1.32216, 1.32316, 1.32683, 1.32764, 1.32932, 1.33101, 1.33242, 1.33285, 1.33158, 1.32977, 1.32863, 1.32671, 1.34404, 1.33312, 1.32273, 1.33371, 1.33621, 1.33852, 1.34034, 1.33821, 1.34983, 1.33915, 1.32675, 1.31986, 1.32974, 1.3688, 1.47506, 1.47527, 1.60622, 1.71116, 1.69666, 1.69576, 1.67165, 1.48862, 1.45815, 1.30479, 1.29615, 1.32932, 1.33618, 1.34206, 1.32998, 1.33269, 1.34742, 1.32775, 1.34362, 1.34391, 1.33106, 1.33256, 1.33364, 1.33259, 1.33051, 1.32996, 1.32911, 1.32625, 1.32429, 1.32621, 1.32226, 1.32076, 1.32417, 1.32316, 1.32567, 1.32791, 1.33041, 1.33324, 1.33618, 1.33612, 1.33638, 1.3549, 1.33703, 1.338, 1.35365, 1.33692, 1.33782, 1.3365, 1.33485, 1.3336, 1.33441, 1.33311, 1.33366, 1.33512, 1.33651, 1.33802, 1.33924, 1.34171, 1.34265, 1.34295, 1.34391, 1.34306, 1.34302, 1.34067, 1.33981, 1.33997, 1.33993, 1.34105, 1.34263, 1.34323, 1.34457, 1.34465, 1.34392, 1.34385, 1.34543, 1.34728, 1.34769, 1.35059, 1.3503, 1.35201, 1.35268, 1.3534, 1.35424, 1.35382, 1.35569, 1.35653, 1.35821, 1.35751, 1.35774, 1.3593, 1.35885, 1.35947, 1.38042, 1.3582, 1.36157, 1.35943, 1.36267, 1.36288, 1.36398, 1.36399, 1.36473, 1.36354, 1.36239, 1.36233, 1.36385, 1.36395, 1.36774, 1.36782, 1.36928, 1.42708, 1.37531, 1.3769, 1.37739, 1.37659, 1.37663, 1.37507, 1.37572, 1.37653, 1.37551, 1.37433, 1.3716, 1.37062, 1.3737, 1.37386, 1.37875, 1.38058, 1.38135, 1.38168, 1.38104, 1.383, 1.39262, 1.38706, 1.38849, 1.38877, 1.38898, 1.38801, 1.39626, 1.39537, 1.40207, 1.38974, 1.398, 1.39395, 1.39577, 1.39637, 1.41658, 1.41681, 1.40678, 1.4097, 1.37963, 1.42274, 1.4571, 1.48671, 1.5817, 1.63898, 1.67929, 1.66034, 1.67903, 1.66768, 1.66761, 1.57561, 1.52983, 1.47531, 1.44706, 1.40845, 1.41268, 1.42297, 1.44029, 1.44282, 1.43359, 1.43388, 1.43857, 1.43052, 1.43219, 1.43791, 1.44077, 1.43674, 1.43733, 1.43735, 1.44376, 1.43851, 1.44155, 1.44242, 1.44437, 1.44532, 1.4472, 1.44943, 1.45144, 1.45404, 1.45464, 1.4655, 1.459, 1.46234, 1.46351, 1.46459, 1.46425, 1.46675, 1.47, 1.46877, 1.47107, 1.47325, 1.47196, 1.47905, 1.48207, 1.48015, 1.47941, 1.485, 1.48396, 1.50042
1.32408, 1.32407, 1.35469, 1.31865, 1.33278, 1.32858, 1.32401, 1.33356, 1.31867, 1.31786, 1.31715, 1.32001, 1.31858, 1.31659, 1.3161, 1.31589, 1.31522, 1.31505, 1.31546, 1.31449, 1.31565, 1.31528, 1.31557, 1.31487, 1.31589, 1.31779, 1.32161, 1.32314, 1.33628, 1.32971, 1.33053, 1.33151, 1.3315, 1.33042, 1.32735, 1.32321, 1.3199, 1.31585, 1.31542, 1.31614, 1.31774, 1.31855, 1.32079, 1.3228, 1.31648, 1.31574, 1.33331, 1.38961, 1.4337, 1.52983, 1.58496, 1.63091, 1.67865, 1.66122, 1.57588, 1.54589, 1.43588, 1.3926, 1.27525, 1.31231, 1.32357, 1.35709, 1.32213, 1.31774, 1.31622, 1.31365, 1.31527, 1.32591, 1.32638, 1.32726, 1.32729, 1.34339, 1.32831, 1.32679, 1.32233, 1.31616, 1.31519, 1.30699, 1.30827, 1.3042, 1.30467, 1.31, 1.3169, 1.32411, 1.33968, 1.33052, 1.33285, 1.33251, 1.32952, 1.32695, 1.32733, 1.32611, 1.32552, 1.32724, 1.32663, 1.32769, 1.32855, 1.32738, 1.32399, 1.32189, 1.32224, 1.32462, 1.32738, 1.34005, 1.33432, 1.33373, 1.34397, 1.33388, 1.33182, 1.33412, 1.35843, 1.33632, 1.33737, 1.33688, 1.33711, 1.34822, 1.34067, 1.34479, 1.34832, 1.34454, 1.35255, 1.34636, 1.34643, 1.35516, 1.34832, 1.34749, 1.34928, 1.34973, 1.34953, 1.35041, 1.34973, 1.34917, 1.3542, 1.35097, 1.35333, 1.35434, 1.3566, 1.35758, 1.35899, 1.36066, 1.3603, 1.36095, 1.36108, 1.36156, 1.37605, 1.36072, 1.36082, 1.35898, 1.35911, 1.35722, 1.35907, 1.3582, 1.36186, 1.364, 1.38504, 1.39635, 1.37067, 1.37544, 1.37464, 1.37616, 1.37711, 1.37855, 1.38022, 1.37954, 1.3796, 1.38081, 1.38094, 1.38142, 1.38013, 1.37889, 1.37935, 1.38065, 1.38317, 1.41167, 1.38817, 1.388, 1.38843, 1.38892, 1.3911, 1.39923, 1.39217, 1.39385, 1.39591, 1.39333, 1.41359, 1.3954, 1.39705, 1.39641, 1.40613, 1.40173, 1.40661, 1.4126, 1.41248, 1.41428, 1.42026, 1.4022, 1.37782, 1.42185, 1.45573, 1.52023, 1.56806, 1.5955, 1.6443, 1.65293, 1.66847, 1.66185, 1.62706, 1.57756, 1.54528, 1.48083, 1.4097, 1.41927, 1.41328, 1.43504, 1.43996, 1.44813, 1.43386, 1.44452, 1.44045, 1.45769, 1.44381, 1.45728, 1.45056, 1.4458, 1.44649, 1.4474, 1.44697, 1.46034, 1.44975, 1.4521, 1.45203, 1.45508, 1.45665, 1.46008, 1.4609, 1.46057, 1.46385, 1.46738, 1.46676, 1.46743, 1.46736, 1.46818, 1.47457, 1.47835, 1.48041, 1.48456, 1.4853, 1.48657, 1.48715, 1.56208, 1.49072, 1.49294, 1.49276, 1.49304, 1.49276, 1.49676
1.3387, 1.33811, 1.33424, 1.33465, 1.33444, 1.33276, 1.33192, 1.33141, 1.33022, 1.3316, 1.33144, 1.33124, 1.33011, 1.32816, 1.32604, 1.32608, 1.32544, 1.3332, 1.32433, 1.3248, 1.3615, 1.32828, 1.32807, 1.32748, 1.33314, 1.32613, 1.32738, 1.32785, 1.33065, 1.3298, 1.33104, 1.33356, 1.33284, 1.34142, 1.33447, 1.35413, 1.3506, 1.33041, 1.33901, 1.33322, 1.33082, 1.34262, 1.33964, 1.34092, 1.32931, 1.30009, 1.37127, 1.38626, 1.46275, 1.48701, 1.54858, 1.61975, 1.68271, 1.67727, 1.6102, 1.50543, 1.4015, 1.34016, 1.32321, 1.30069, 1.35428, 1.32998, 1.3335, 1.32148, 1.31719, 1.31478, 1.31272, 1.31554, 1.31677, 1.32689, 1.32201, 1.32236, 1.32166, 1.33892, 1.31897, 1.31385, 1.31222, 1.30926, 1.30836, 1.30823, 1.30858, 1.30928, 1.31191, 1.31936, 1.32565, 1.32858, 1.33163, 1.33247, 1.32975, 1.33013, 1.32629, 1.32635, 1.32571, 1.3231, 1.32252, 1.32345, 1.32252, 1.32018, 1.31669, 1.3151, 1.31596, 1.31631, 1.31953, 1.32106, 1.32289, 1.32289, 1.32477, 1.32635, 1.32725, 1.32957, 1.32964, 1.32941, 1.32947, 1.32833, 1.33324, 1.33836, 1.34162, 1.34537, 1.34654, 1.34721, 1.34765, 1.34788, 1.34712, 1.34753, 1.34414, 1.34112, 1.33863, 1.33974, 1.33988, 1.34057, 1.34017, 1.33993, 1.3365, 1.3374, 1.3373, 1.34391, 1.42561, 1.35566, 1.35841, 1.36186, 1.36383, 1.36343, 1.36361, 1.3612, 1.35817, 1.3534, 1.34766, 1.34516, 1.34332, 1.34283, 1.34152, 1.34153, 1.34347, 1.34492, 1.3482, 1.35205, 1.35554, 1.36067, 1.3612, 1.36252, 1.36654, 1.36489, 1.36742, 1.36743, 1.37914, 1.37984, 1.37645, 1.37737, 1.37503, 1.37185, 1.37075, 1.36889, 1.37191, 1.37918, 1.38235, 1.38234, 1.38259, 1.37993, 1.37964, 1.37926, 1.37962, 1.38209, 1.3901, 1.40235, 1.40886, 1.40469, 1.39116, 1.40998, 1.39628, 1.39852, 1.40499, 1.40883, 1.40918, 1.42886, 1.40847, 1.39683, 1.37178, 1.40863, 1.45935, 1.51663, 1.59569, 1.63468, 1.65719, 1.68285, 1.69494, 1.67075, 1.63371, 1.56642, 1.53099, 1.48122, 1.40941, 1.38914, 1.38155, 1.4333, 1.45437, 1.45262, 1.43749, 1.44679, 1.44986, 1.44073, 1.44347, 1.44538, 1.44667, 1.45443, 1.44722, 1.44774, 1.44912, 1.44996, 1.45016, 1.45452, 1.45394, 1.45564, 1.45775, 1.46729, 1.46161, 1.4626, 1.49645, 1.46618, 1.46904, 1.46954, 1.47325, 1.47309, 1.4759, 1.47938, 1.48863, 1.48278, 1.48644, 1.48511, 1.48914, 1.49037, 1.48969, 1.49303, 1.49496, 1.49587, 1.49603, 1.499
1.33371, 1.33096, 1.32918, 1.32909, 1.32722, 1.32659, 1.32688, 1.32638, 1.32569, 1.32986, 1.32484, 1.32343, 1.32363, 1.33069, 1.31962, 1.3219, 1.32079, 1.32079, 1.32087, 1.32313, 1.32216, 1.32394, 1.3229, 1.32043, 1.32275, 1.32287, 1.33041, 1.33254, 1.32577, 1.32336, 1.32627, 1.32602, 1.32781, 1.32678, 1.3503, 1.3513, 1.32644, 1.34968, 1.34053, 1.33986, 1.3301, 1.34962, 1.33051, 1.34426, 1.31585, 1.29518, 1.34746, 1.39994, 1.40317, 1.43329, 1.54764, 1.5831, 1.65738, 1.65805, 1.6339, 1.54405, 1.45202, 1.35474, 1.29727, 1.3402, 1.33372, 1.33626, 1.35011, 1.34181, 1.34347, 1.33944, 1.34088, 1.33358, 1.3204, 1.31847, 1.32105, 1.32598, 1.32259, 1.32289, 1.34152, 1.32679, 1.32475, 1.33337, 1.32679, 1.32859, 1.3265, 1.32692, 1.32335, 1.32426, 1.33596, 1.33477, 1.3502, 1.33882, 1.33854, 1.37077, 1.3395, 1.33897, 1.33794, 1.33817, 1.33991, 1.33313, 1.33226, 1.33285, 1.33006, 1.33038, 1.3308, 1.33001, 1.33106, 1.33306, 1.33434, 1.3352, 1.33605, 1.34444, 1.34027, 1.3396, 1.33986, 1.33906, 1.36494, 1.33454, 1.33532, 1.33762, 1.34342, 1.34224, 1.34519, 1.36093, 1.34625, 1.34618, 1.34642, 1.34625, 1.34346, 1.34097, 1.34031, 1.34815, 1.3398, 1.34037, 1.34017, 1.33985, 1.33903, 1.33784, 1.33784, 1.34101, 1.3495, 1.3533, 1.35501, 1.35831, 1.36103, 1.36093, 1.36124, 1.36084, 1.35885, 1.35414, 1.35031, 1.34711, 1.34622, 1.3446, 1.34473, 1.34405, 1.34436, 1.34578, 1.34797, 1.3497, 1.35148, 1.35464, 1.35744, 1.3604, 1.36845, 1.36839, 1.36518, 1.36502, 1.36581, 1.36542, 1.36764, 1.36767, 1.36733, 1.36364, 1.36345, 1.36345, 1.36636, 1.37023, 1.37416, 1.37518, 1.37498, 1.3688, 1.36944, 1.37049, 1.37233, 1.37412, 1.37483, 1.37427, 1.37486, 1.37647, 1.37793, 1.37864, 1.38861, 1.38877, 1.41683, 1.39683, 1.40331, 1.42062, 1.40765, 1.38792, 1.37964, 1.39922, 1.44351, 1.50994, 1.53696, 1.58961, 1.6159, 1.66406, 1.65619, 1.63811, 1.59012, 1.55712, 1.49406, 1.47677, 1.45459, 1.40246, 1.37567, 1.43127, 1.42798, 1.4397, 1.44504, 1.42996, 1.43707, 1.43252, 1.45576, 1.44759, 1.44235, 1.44024, 1.44082, 1.44308, 1.44344, 1.45261, 1.44681, 1.47101, 1.47418, 1.4518, 1.45464, 1.45656, 1.4575, 1.45777, 1.45719, 1.47664, 1.45394, 1.45191, 1.4535, 1.4549, 1.46103, 1.46364, 1.47064, 1.46432, 1.46696, 1.52046, 1.46942, 1.47569, 1.50901, 1.47862, 1.50947, 1.48346, 1.48505, 1.4933
1.3196, 1.32194, 1.31911, 1.31437, 1.31303, 1.30939, 1.30856, 1.30881, 1.31115, 1.31035, 1.31273, 1.31491, 1.3179, 1.31639, 1.31685, 1.31707, 1.31653, 1.31603, 1.31194, 1.31246, 1.31191, 1.31213, 1.31255, 1.31267, 1.31262, 1.31453, 1.31562, 1.31671, 1.31586, 1.31519, 1.31524, 1.32726, 1.31569, 1.31575, 1.32673, 1.31653, 1.31581, 1.32387, 1.31715, 1.33369, 1.31951, 1.3335, 1.31959, 1.32243, 1.32362, 1.29305, 1.31661, 1.41234, 1.48151, 1.53819, 1.56382, 1.62402, 1.6697, 1.67866, 1.64135, 1.60646, 1.45161, 1.32431, 1.29912, 1.31206, 1.33417, 1.3306, 1.33172, 1.3441, 1.32034, 1.32099, 1.31361, 1.31416, 1.32818, 1.31134, 1.30969, 1.31953, 1.31252, 1.31245, 1.31351, 1.31724, 1.31657, 1.31916, 1.31776, 1.32053, 1.31991, 1.32091, 1.32128, 1.33451, 1.32281, 1.32269, 1.32401, 1.32549, 1.32592, 1.32676, 1.32895, 1.3297, 1.32934, 1.33078, 1.32998, 1.33095, 1.33784, 1.33076, 1.33288, 1.35762, 1.33384, 1.33262, 1.33382, 1.33367, 1.34045, 1.33454, 1.33622, 1.33755, 1.33887, 1.34002, 1.3394, 1.35452, 1.34095, 1.33916, 1.33946, 1.3398, 1.34046, 1.34316, 1.34335, 1.3434, 1.34351, 1.34392, 1.34435, 1.34624, 1.34677, 1.3473, 1.34722, 1.34789, 1.35227, 1.35036, 1.35119, 1.35094, 1.34967, 1.34742, 1.34725, 1.34845, 1.35073, 1.35219, 1.35559, 1.35846, 1.35989, 1.36132, 1.36222, 1.36113, 1.36193, 1.36212, 1.37627, 1.36016, 1.36008, 1.36731, 1.36129, 1.36148, 1.36092, 1.36279, 1.37165, 1.36482, 1.36606, 1.3676, 1.36801, 1.40568, 1.3699, 1.37218, 1.37387, 1.37279, 1.37403, 1.37247, 1.37343, 1.37096, 1.37045, 1.3704, 1.38099, 1.3733, 1.4165, 1.37742, 1.3788, 1.3777, 1.37669, 1.40912, 1.37958, 1.40483, 1.4158, 1.39669, 1.3884, 1.40984, 1.39894, 1.40354, 1.39037, 1.39632, 1.39925, 1.39279, 1.40815, 1.39821, 1.41457, 1.4093, 1.40536, 1.41024, 1.40153, 1.40362, 1.44966, 1.52279, 1.55572, 1.58981, 1.60682, 1.62408, 1.62699, 1.62775, 1.59232, 1.54853, 1.52345, 1.44525, 1.40953, 1.38873, 1.37872, 1.44292, 1.42605, 1.43615, 1.42677, 1.43151, 1.43928, 1.43244, 1.43737, 1.43837, 1.43747, 1.43706, 1.43705, 1.43743, 1.43824, 1.44372, 1.44693, 1.44788, 1.47615, 1.45291, 1.45438, 1.46043, 1.45796, 1.45752, 1.45549, 1.45022, 1.44895, 1.44465, 1.44501, 1.447, 1.45074, 1.46525, 1.454, 1.45494, 1.45607, 1.46587, 1.46453, 1.46459, 1.46619, 1.46644, 1.4684, 1.47005, 1.47126, 1.47044
1.31599, 1.31513, 1.31289, 1.31223, 1.31568, 1.30754, 1.30618, 1.30779, 1.30496, 1.30299, 1.30403, 1.31025, 1.30245, 1.3036, 1.30606, 1.30689, 1.30583, 1.30386, 1.30462, 1.30487, 1.30298, 1.30353, 1.30266, 1.30199, 1.30331, 1.30298, 1.30848, 1.31184, 1.3088, 1.30664, 1.30885, 1.32371, 1.30873, 1.30851, 1.30716, 1.30916, 1.31949, 1.31598, 1.31088, 1.30958, 1.30931, 1.32395, 1.32674, 1.31756, 1.31086, 1.2743, 1.29482, 1.37573, 1.44965, 1.46241, 1.54522, 1.60544, 1.67215, 1.6653, 1.58402, 1.4517, 1.4131, 1.372, 1.28218, 1.29247, 1.31828, 1.32362, 1.3193, 1.31873, 1.31671, 1.30957, 1.30779, 1.30699, 1.30685, 1.30784, 1.30782, 1.30862, 1.32979, 1.30901, 1.30904, 1.31054, 1.31105, 1.31322, 1.31239, 1.31419, 1.31685, 1.31884, 1.32032, 1.31997, 1.32155, 1.32306, 1.32373, 1.32435, 1.32424, 1.32246, 1.31967, 1.31713, 1.31696, 1.31603, 1.31577, 1.31504, 1.31586, 1.31625, 1.31684, 1.31769, 1.31923, 1.32081, 1.31933, 1.3222, 1.32251, 1.32634, 1.3291, 1.33104, 1.33239, 1.33174, 1.33022, 1.33051, 1.32934, 1.33025, 1.33075, 1.33425, 1.33409, 1.33342, 1.34459, 1.33612, 1.33645, 1.33761, 1.33956, 1.33963, 1.34146, 1.34113, 1.34206, 1.34271, 1.34268, 1.34296, 1.34436, 1.34293, 1.35385, 1.34081, 1.351, 1.34157, 1.34047, 1.34487, 1.34577, 1.34866, 1.35086, 1.35079, 1.35337, 1.35423, 1.3546, 1.35476, 1.35544, 1.35527, 1.35574, 1.35413, 1.35697, 1.35558, 1.35646, 1.35748, 1.36063, 1.38289, 1.38449, 1.36282, 1.36435, 1.36511, 1.36632, 1.36898, 1.37129, 1.37269, 1.37324, 1.37448, 1.37503, 1.37395, 1.37654, 1.37336, 1.37295, 1.37419, 1.37408, 1.37437, 1.37535, 1.37542, 1.37828, 1.39715, 1.40306, 1.38697, 1.39646, 1.40367, 1.40854, 1.39742, 1.4067, 1.40546, 1.41028, 1.41592, 1.40964, 1.40033, 1.40912, 1.40331, 1.40607, 1.43929, 1.40559, 1.38689, 1.39136, 1.42773, 1.49547, 1.50308, 1.58158, 1.60877, 1.64171, 1.67297, 1.66031, 1.63444, 1.6128, 1.57016, 1.50558, 1.48255, 1.42415, 1.38195, 1.41244, 1.40606, 1.44054, 1.45102, 1.44037, 1.43465, 1.44751, 1.45422, 1.4412, 1.4408, 1.44208, 1.44335, 1.44584, 1.44418, 1.44396, 1.44703, 1.4615, 1.45029, 1.45052, 1.45381, 1.45617, 1.45851, 1.46078, 1.46147, 1.46107, 1.45951, 1.46019, 1.46027, 1.46571, 1.46371, 1.4643, 1.46701, 1.47074, 1.47835, 1.47343, 1.47558, 1.47534, 1.47961, 1.47872, 1.47989, 1.47816, 1.48372, 1.48597, 1.48167
1.32254, 1.32347, 1.32186, 1.32257, 1.31906, 1.31889, 1.31806, 1.31759, 1.31731, 1.31515, 1.34017, 1.31374, 1.31226, 1.3225, 1.31326, 1.32233, 1.31213, 1.31053, 1.3097, 1.31149, 1.30903, 1.30743, 1.30569, 1.31991, 1.3056, 1.30606, 1.30556, 1.30516, 1.30586, 1.30545, 1.30576, 1.30509, 1.30583, 1.32994, 1.3246, 1.31073, 1.30747, 1.30926, 1.30953, 1.32909, 1.30875, 1.33012, 1.30984, 1.30974, 1.30928, 1.27784, 1.36614, 1.40224, 1.45103, 1.50876, 1.5585, 1.59077, 1.65349, 1.80724, 1.66256, 1.56484, 1.42731, 1.34726, 1.28912, 1.30587, 1.3101, 1.31738, 1.31613, 1.31547, 1.31226, 1.30846, 1.3052, 1.30548, 1.30505, 1.30449, 1.31573, 1.30565, 1.30516, 1.30652, 1.32245, 1.30613, 1.3068, 1.3064, 1.30575, 1.30514, 1.30737, 1.3074, 1.31026, 1.31248, 1.31687, 1.32028, 1.32235, 1.32316, 1.32203, 1.31913, 1.31558, 1.31266, 1.31195, 1.31177, 1.31172, 1.30966, 1.31021, 1.31078, 1.31072, 1.31162, 1.31197, 1.31181, 1.31185, 1.31402, 1.31602, 1.31733, 1.32072, 1.32321, 1.32815, 1.32693, 1.32594, 1.32507, 1.32557, 1.32757, 1.32703, 1.32771, 1.32823, 1.32839, 1.32799, 1.32726, 1.32816, 1.32861, 1.33189, 1.35003, 1.3295, 1.33408, 1.33493, 1.33578, 1.33663, 1.33983, 1.34145, 1.34081, 1.34026, 1.34007, 1.33404, 1.33075, 1.33123, 1.33065, 1.33164, 1.33299, 1.33399, 1.33588, 1.33653, 1.33694, 1.33834, 1.34346, 1.34686, 1.34503, 1.3431, 1.3397, 1.33844, 1.34009, 1.33997, 1.37808, 1.34348, 1.34473, 1.34792, 1.3489, 1.35093, 1.35421, 1.35702, 1.35758, 1.36128, 1.36233, 1.36375, 1.36345, 1.36261, 1.36117, 1.35941, 1.35834, 1.35806, 1.35626, 1.35593, 1.35803, 1.36424, 1.37888, 1.37832, 1.37399, 1.3755, 1.37821, 1.37969, 1.38099, 1.40627, 1.38959, 1.3829, 1.38348, 1.38618, 1.38778, 1.3897, 1.41652, 1.39543, 1.39653, 1.40224, 1.40132, 1.39726, 1.39681, 1.37591, 1.3766, 1.46717, 1.47538, 1.58314, 1.61787, 1.62422, 1.65483, 1.63933, 1.63738, 1.60628, 1.54493, 1.49614, 1.46805, 1.45034, 1.40182, 1.40414, 1.42015, 1.43551, 1.42637, 1.4348, 1.43274, 1.43778, 1.44453, 1.4441, 1.43477, 1.44087, 1.45496, 1.44883, 1.44152, 1.44331, 1.45093, 1.44635, 1.44688, 1.44848, 1.45059, 1.4533, 1.45586, 1.45506, 1.45754, 1.45623, 1.45738, 1.48572, 1.46146, 1.46101, 1.46428, 1.46874, 1.47098, 1.47335, 1.47595, 1.47715, 1.48122, 1.48361, 1.4848, 1.48596, 1.48713, 1.53282, 1.49122, 1.49418, 1.49557
1.3176, 1.31915, 1.31721, 1.31556, 1.34416, 1.31446, 1.32447, 1.31614, 1.31623, 1.31639, 1.31889, 1.31372, 1.31244, 1.31049, 1.31022, 1.31064, 1.32672, 1.31222, 1.31101, 1.31253, 1.31258, 1.31259, 1.31116, 1.30983, 1.32278, 1.30887, 1.30885, 1.31742, 1.32966, 1.31115, 1.31254, 1.31038, 1.31194, 1.32055, 1.32034, 1.30957, 1.3115, 1.3153, 1.31061, 1.32191, 1.31371, 1.31276, 1.31445, 1.32519, 1.29553, 1.29093, 1.33015, 1.44816, 1.44999, 1.50246, 1.54901, 1.6113, 1.64237, 1.64677, 1.63465, 1.55091, 1.37909, 1.32611, 1.26806, 1.29834, 1.3203, 1.31633, 1.33319, 1.32046, 1.32374, 1.32701, 1.32073, 1.34021, 1.31021, 1.32261, 1.32034, 1.31208, 1.31343, 1.31299, 1.31988, 1.31201, 1.31235, 1.31201, 1.31089, 1.30968, 1.30943, 1.31032, 1.31053, 1.31239, 1.31619, 1.32615, 1.31795, 1.31704, 1.31671, 1.31585, 1.31302, 1.31173, 1.31201, 1.31147, 1.31098, 1.31176, 1.31226, 1.31039, 1.30916, 1.30851, 1.33967, 1.30959, 1.31139, 1.31003, 1.31239, 1.31242, 1.31455, 1.317, 1.32319, 1.31796, 1.31862, 1.32444, 1.31992, 1.32017, 1.32808, 1.33073, 1.32942, 1.3263, 1.32466, 1.32273, 1.32296, 1.32376, 1.32372, 1.3224, 1.32035, 1.3208, 1.32309, 1.32822, 1.33802, 1.33554, 1.33679, 1.33814, 1.33705, 1.33382, 1.33131, 1.32855, 1.32574, 1.32744, 1.32905, 1.32941, 1.33052, 1.33144, 1.33268, 1.33342, 1.34431, 1.34068, 1.3448, 1.34212, 1.33637, 1.33483, 1.33312, 1.3334, 1.33494, 1.33666, 1.33839, 1.33982, 1.34185, 1.34378, 1.36801, 1.34711, 1.347, 1.34803, 1.35026, 1.35175, 1.35186, 1.35053, 1.35192, 1.35087, 1.35068, 1.35182, 1.35016, 1.34987, 1.35053, 1.35523, 1.36022, 1.36191, 1.364, 1.36437, 1.39456, 1.37094, 1.37324, 1.37321, 1.37358, 1.37386, 1.37395, 1.37467, 1.38588, 1.37753, 1.38504, 1.38532, 1.39886, 1.40228, 1.40573, 1.39425, 1.38968, 1.40225, 1.41721, 1.39519, 1.43546, 1.48028, 1.52119, 1.59452, 1.61121, 1.61086, 1.60978, 1.63061, 1.56242, 1.53236, 1.51218, 1.44397, 1.41976, 1.39185, 1.3675, 1.39955, 1.42279, 1.42698, 1.42744, 1.42738, 1.43097, 1.41985, 1.44194, 1.42378, 1.42724, 1.42693, 1.43668, 1.44716, 1.43209, 1.43373, 1.43845, 1.45168, 1.44525, 1.44705, 1.44742, 1.44636, 1.44866, 1.446, 1.44717, 1.4452, 1.4448, 1.448, 1.44789, 1.4565, 1.45838, 1.45608, 1.45843, 1.46282, 1.46499, 1.46535, 1.5165, 1.46906, 1.48263, 1.47611, 1.47898, 1.50324, 1.48202, 1.4842
1.30244, 1.29966, 1.30133, 1.30172, 1.3026, 1.29982, 1.30328, 1.30605, 1.30827, 1.30051, 1.29806, 1.29834, 1.2953, 1.29552, 1.29656, 1.29582, 1.29459, 1.29424, 1.29187, 1.30272, 1.29467, 1.29857, 1.29632, 1.29769, 1.29716, 1.29778, 1.29688, 1.29619, 1.29767, 1.30051, 1.29858, 1.30627, 1.31519, 1.30236, 1.30885, 1.30927, 1.31155, 1.31403, 1.32275, 1.30586, 1.3093, 1.31609, 1.31748, 1.3131, 1.3097, 1.3171, 1.35468, 1.39263, 1.45433, 1.49293, 1.50301, 1.59316, 1.63875, 1.6484, 1.65921, 1.51348, 1.43322, 1.26379, 1.28128, 1.29224, 1.3043, 1.31224, 1.3257, 1.30946, 1.31479, 1.31035, 1.31923, 1.30046, 1.30978, 1.31585, 1.3083, 1.32387, 1.30489, 1.30884, 1.30244, 1.3198, 1.3024, 1.32633, 1.30517, 1.30342, 1.30371, 1.30465, 1.30466, 1.30501, 1.30621, 1.32612, 1.3058, 1.30722, 1.30635, 1.30786, 1.30871, 1.30986, 1.31061, 1.31104, 1.31168, 1.31093, 1.31216, 1.33127, 1.3103, 1.31146, 1.31141, 1.31182, 1.31316, 1.31259, 1.31332, 1.31516, 1.31689, 1.316, 1.31792, 1.31955, 1.31902, 1.31956, 1.32195, 1.32339, 1.32279, 1.32402, 1.33107, 1.3259, 1.32628, 1.32604, 1.32732, 1.32785, 1.32821, 1.3267, 1.32653, 1.32721, 1.32798, 1.32969, 1.33022, 1.32994, 1.33334, 1.33218, 1.33672, 1.33257, 1.33258, 1.33146, 1.34134, 1.35492, 1.33649, 1.33887, 1.34081, 1.34366, 1.35071, 1.34472, 1.34577, 1.34729, 1.34712, 1.34777, 1.3465, 1.34561, 1.34193, 1.34654, 1.34017, 1.34161, 1.34042, 1.34098, 1.34272, 1.34639, 1.347, 1.34857, 1.34789, 1.34845, 1.34665, 1.34461, 1.34496, 1.35773, 1.34678, 1.34798, 1.34828, 1.34806, 1.34901, 1.35011, 1.35203, 1.35408, 1.35583, 1.35772, 1.36029, 1.36255, 1.36477, 1.36531, 1.3913, 1.36817, 1.37052, 1.37467, 1.3735, 1.37172, 1.38595, 1.3706, 1.3717, 1.3753, 1.3829, 1.40373, 1.39454, 1.4102, 1.39859, 1.34849, 1.36474, 1.37377, 1.4246, 1.50482, 1.53871, 1.58704, 1.61596, 1.62082, 1.62488, 1.57569, 1.59666, 1.57467, 1.5112, 1.43723, 1.40876, 1.36777, 1.36183, 1.39447, 1.41114, 1.41924, 1.41107, 1.41183, 1.4259, 1.42039, 1.42723, 1.41655, 1.4199, 1.44499, 1.42092, 1.42361, 1.42403, 1.45516, 1.43785, 1.43598, 1.43708, 1.43995, 1.43988, 1.43747, 1.43693, 1.45144, 1.43784, 1.44925, 1.44113, 1.44004, 1.43968, 1.4429, 1.44154, 1.46535, 1.4487, 1.45402, 1.457, 1.45491, 1.45498, 1.45906, 1.46155, 1.46516, 1.46619, 1.46749, 1.46836, 1.47181
1.29538, 1.29458, 1.296, 1.29519, 1.29674, 1.29352, 1.29392, 1.29227, 1.2945, 1.29288, 1.29219, 1.29239, 1.29337, 1.29196, 1.29144, 1.29013, 1.29082, 1.29159, 1.29175, 1.29047, 1.28993, 1.29253, 1.29326, 1.29428, 1.2957, 1.29573, 1.29854, 1.29902, 1.2982, 1.29682, 1.29599, 1.29534, 1.29406, 1.29244, 1.29216, 1.29563, 1.29301, 1.29254, 1.29185, 1.31242, 1.29154, 1.30542, 1.29264, 1.29855, 1.29449, 1.27662, 1.37937, 1.40536, 1.43771, 1.52124, 1.57978, 1.64104, 1.61665, 1.64107, 1.65287, 1.56116, 1.40877, 1.38153, 1.25372, 1.30242, 1.307, 1.31113, 1.30179, 1.30239, 1.29543, 1.29612, 1.29143, 1.29179, 1.29352, 1.29323, 1.29278, 1.29255, 1.29361, 1.29232, 1.29296, 1.29327, 1.302, 1.29395, 1.29444, 1.29492, 1.29372, 1.29487, 1.29499, 1.29621, 1.29714, 1.29727, 1.29856, 1.29622, 1.2983, 1.29932, 1.29722, 1.29802, 1.29974, 1.29948, 1.30115, 1.30036, 1.30142, 1.30155, 1.29996, 1.30188, 1.3023, 1.30309, 1.30393, 1.30259, 1.30313, 1.30509, 1.31413, 1.30534, 1.30652, 1.32671, 1.30742, 1.32653, 1.30826, 1.30933, 1.31059, 1.31182, 1.30997, 1.31213, 1.31393, 1.31343, 1.31415, 1.33373, 1.31507, 1.31401, 1.33, 1.31738, 1.31851, 1.31926, 1.31916, 1.31983, 1.3204, 1.32713, 1.31998, 1.31938, 1.32003, 1.3297, 1.32405, 1.32558, 1.32716, 1.33328, 1.33431, 1.33641, 1.35309, 1.33942, 1.34081, 1.34264, 1.34368, 1.34398, 1.34363, 1.34281, 1.34098, 1.34978, 1.34655, 1.33931, 1.34086, 1.34304, 1.34749, 1.34752, 1.34951, 1.34993, 1.35044, 1.34891, 1.3473, 1.34425, 1.35395, 1.38159, 1.34995, 1.35054, 1.35397, 1.35394, 1.35588, 1.35857, 1.36409, 1.36049, 1.36161, 1.3613, 1.36431, 1.38579, 1.36903, 1.39263, 1.37114, 1.39808, 1.37465, 1.37447, 1.37577, 1.38616, 1.38812, 1.38058, 1.37946, 1.38132, 1.39291, 1.38793, 1.39637, 1.41449, 1.37873, 1.36746, 1.37556, 1.42611, 1.4517, 1.5164, 1.54348, 1.59861, 1.60967, 1.63668, 1.6318, 1.6087, 1.58673, 1.56541, 1.49687, 1.47517, 1.42303, 1.40235, 1.4004, 1.40904, 1.42447, 1.43138, 1.42056, 1.42684, 1.42048, 1.42442, 1.42609, 1.42905, 1.42675, 1.42041, 1.42724, 1.4472, 1.43432, 1.43996, 1.43027, 1.43378, 1.43607, 1.4375, 1.43702, 1.43683, 1.438, 1.46243, 1.43746, 1.43842, 1.4399, 1.44174, 1.4389, 1.43999, 1.44339, 1.44556, 1.44662, 1.4509, 1.45067, 1.45242, 1.45431, 1.46454, 1.46134, 1.464, 1.46532, 1.48882, 1.48274, 1.47132
1.29527, 1.29398, 1.29474, 1.29487, 1.29553, 1.29529, 1.29298, 1.29491, 1.29423, 1.29225, 1.29277, 1.29373, 1.29438, 1.29254, 1.29122, 1.2912, 1.28853, 1.28808, 1.28789, 1.28783, 1.28879, 1.28961, 1.29337, 1.29234, 1.29352, 1.29324, 1.29453, 1.29449, 1.29448, 1.29332, 1.29192, 1.29158, 1.29144, 1.29247, 1.29154, 1.29279, 1.29134, 1.29168, 1.30045, 1.29152, 1.29242, 1.30296, 1.29564, 1.29104, 1.30483, 1.31695, 1.33443, 1.41006, 1.46233, 1.49987, 1.56147, 1.61075, 1.63644, 1.62384, 1.56885, 1.50271, 1.37159, 1.31297, 1.25469, 1.27626, 1.32273, 1.29467, 1.29349, 1.29176, 1.28963, 1.28923, 1.28832, 1.28767, 1.29024, 1.28812, 1.28907, 1.30823, 1.29099, 1.28982, 1.28983, 1.29158, 1.29148, 1.29147, 1.29166, 1.29199, 1.29215, 1.29338, 1.29161, 1.29384, 1.2897, 1.29119, 1.29923, 1.29224, 1.29291, 1.29366, 1.2938, 1.29394, 1.29042, 1.29481, 1.29478, 1.29463, 1.29612, 1.29804, 1.29729, 1.29846, 1.29899, 1.29917, 1.29925, 1.30262, 1.30107, 1.30098, 1.30259, 1.30135, 1.30079, 1.29953, 1.29856, 1.2992, 1.30329, 1.3046, 1.30316, 1.30271, 1.30371, 1.3039, 1.30492, 1.30568, 1.30736, 1.30757, 1.30975, 1.3134, 1.31648, 1.31718, 1.31447, 1.31375, 1.31562, 1.31911, 1.31944, 1.31906, 1.31923, 1.31957, 1.32982, 1.32273, 1.32045, 1.33932, 1.3197, 1.32165, 1.32252, 1.32253, 1.32384, 1.32383, 1.32332, 1.3251, 1.32628, 1.32651, 1.32549, 1.32573, 1.32615, 1.32779, 1.33745, 1.32932, 1.33136, 1.33218, 1.3329, 1.33367, 1.33428, 1.33643, 1.33574, 1.33711, 1.33965, 1.3395, 1.33937, 1.33974, 1.34006, 1.33995, 1.34218, 1.34409, 1.34476, 1.36756, 1.34671, 1.34805, 1.34806, 1.35005, 1.35292, 1.35423, 1.35756, 1.35809, 1.37124, 1.36156, 1.36558, 1.39028, 1.37899, 1.37397, 1.3687, 1.37894, 1.37268, 1.37253, 1.37294, 1.38675, 1.39222, 1.41369, 1.37743, 1.38947, 1.35164, 1.42723, 1.42747, 1.51978, 1.57917, 1.57988, 1.60865, 1.6149, 1.61292, 1.60757, 1.60335, 1.56498, 1.52905, 1.42221, 1.42807, 1.38287, 1.36924, 1.39355, 1.41012, 1.41901, 1.40961, 1.43264, 1.41017, 1.41106, 1.41648, 1.41242, 1.41324, 1.4264, 1.42108, 1.42294, 1.42893, 1.42916, 1.43353, 1.43353, 1.43637, 1.43685, 1.44014, 1.44276, 1.44141, 1.44743, 1.44325, 1.44162, 1.44454, 1.44824, 1.45359, 1.45049, 1.45007, 1.47068, 1.4535, 1.45535, 1.46547, 1.46078, 1.46994, 1.46562, 1.48099, 1.47116, 1.4721, 1.47833, 1.47694, 1.48012
1.30259, 1.29691, 1.29789, 1.2993, 1.29803, 1.29945, 1.30493, 1.29471, 1.29354, 1.29398, 1.29293, 1.29312, 1.29208, 1.29451, 1.29538, 1.29259, 1.29179, 1.29005, 1.29306, 1.29137, 1.29048, 1.28957, 1.29007, 1.29212, 1.29199, 1.29276, 1.29281, 1.29254, 1.29217, 1.29023, 1.29066, 1.29021, 1.28902, 1.28911, 1.2892, 1.28887, 1.29317, 1.30333, 1.29371, 1.30133, 1.29545, 1.30129, 1.29525, 1.29566, 1.32015, 1.27866, 1.33952, 1.39613, 1.41277, 1.45911, 1.50627, 1.54304, 1.6046, 1.59671, 1.61163, 1.46317, 1.30377, 1.26651, 1.25235, 1.27097, 1.30974, 1.29686, 1.29632, 1.29463, 1.29544, 1.29738, 1.29948, 1.30207, 1.29162, 1.29088, 1.29026, 1.29051, 1.29029, 1.29148, 1.28953, 1.28999, 1.28949, 1.29006, 1.29041, 1.2894, 1.28998, 1.2898, 1.29209, 1.29149, 1.29298, 1.29495, 1.29556, 1.29543, 1.29543, 1.29517, 1.29493, 1.30259, 1.29458, 1.293, 1.29174, 1.29175, 1.29169, 1.29278, 1.29587, 1.29565, 1.29579, 1.29718, 1.29795, 1.29809, 1.29923, 1.30118, 1.30192, 1.30041, 1.29964, 1.29961, 1.29922, 1.29931, 1.29843, 1.29962, 1.2983, 1.29896, 1.29917, 1.30057, 1.30209, 1.30383, 1.31275, 1.30682, 1.30865, 1.3099, 1.31185, 1.32031, 1.31449, 1.3136, 1.31499, 1.31488, 1.31908, 1.31355, 1.31338, 1.31355, 1.31527, 1.31627, 1.31874, 1.33798, 1.31846, 1.316, 1.3176, 1.31973, 1.3194, 1.31883, 1.31911, 1.31971, 1.321, 1.33065, 1.32306, 1.32424, 1.32616, 1.3247, 1.32542, 1.3296, 1.32944, 1.32708, 1.33397, 1.32998, 1.33175, 1.33448, 1.33448, 1.33629, 1.33707, 1.33835, 1.34974, 1.34751, 1.33648, 1.33946, 1.33668, 1.33813, 1.34045, 1.34605, 1.34542, 1.34719, 1.34762, 1.35024, 1.35327, 1.35417, 1.35411, 1.35525, 1.35749, 1.35756, 1.36034, 1.3595, 1.36045, 1.36107, 1.36131, 1.36406, 1.36912, 1.36724, 1.3692, 1.37083, 1.37203, 1.37233, 1.37574, 1.37732, 1.37505, 1.40972, 1.42398, 1.51025, 1.54739, 1.57271, 1.59758, 1.60406, 1.6039, 1.58752, 1.57051, 1.51415, 1.46091, 1.4441, 1.4058, 1.37489, 1.36037, 1.38658, 1.4085, 1.41959, 1.41928, 1.40072, 1.39962, 1.39935, 1.40216, 1.40562, 1.41399, 1.4087, 1.40952, 1.41115, 1.41539, 1.41238, 1.41431, 1.43741, 1.42028, 1.42238, 1.42367, 1.42456, 1.42615, 1.44986, 1.42639, 1.42922, 1.431, 1.43336, 1.43325, 1.43729, 1.46118, 1.43895, 1.44046, 1.44487, 1.47822, 1.45121, 1.45486, 1.45737, 1.45793, 1.46151, 1.49256, 1.47552, 1.49594, 1.46619
1.30056, 1.30197, 1.30259, 1.30152, 1.30045, 1.30189, 1.2991, 1.29433, 1.29422, 1.29591, 1.29795, 1.30617, 1.29531, 1.295, 1.29381, 1.29004, 1.29167, 1.29198, 1.29111, 1.29003, 1.28816, 1.28867, 1.28685, 1.28695, 1.2884, 1.28969, 1.28968, 1.29119, 1.29201, 1.29162, 1.32357, 1.29375, 1.30211, 1.31189, 1.30476, 1.29116, 1.31304, 1.31296, 1.28929, 1.28985, 1.30104, 1.31983, 1.30042, 1.29966, 1.28176, 1.30954, 1.34981, 1.39155, 1.40521, 1.47643, 1.54522, 1.61972, 1.62647, 1.65464, 1.59194, 1.53266, 1.37768, 1.30223, 1.28953, 1.27714, 1.29242, 1.302, 1.31946, 1.31933, 1.31506, 1.2926, 1.2923, 1.2927, 1.29127, 1.30092, 1.29283, 1.29333, 1.29241, 1.29265, 1.29289, 1.29379, 1.2942, 1.29469, 1.29543, 1.29591, 1.29545, 1.30123, 1.29597, 1.29481, 1.29435, 1.29381, 1.29343, 1.29238, 1.29303, 1.29356, 1.29384, 1.29548, 1.2941, 1.29361, 1.29481, 1.29522, 1.29378, 1.29989, 1.29535, 1.29661, 1.29786, 1.29885, 1.30224, 1.29986, 1.30128, 1.30047, 1.30067, 1.29959, 1.30139, 1.3018, 1.30179, 1.30176, 1.30094, 1.30082, 1.30139, 1.30298, 1.30323, 1.30314, 1.30357, 1.30526, 1.30593, 1.30671, 1.3119, 1.30938, 1.31157, 1.31194, 1.31226, 1.31115, 1.31213, 1.31299, 1.31525, 1.3145, 1.31498, 1.3162, 1.31524, 1.31533, 1.31589, 1.31588, 1.31625, 1.31646, 1.31647, 1.3164, 1.31666, 1.31808, 1.31882, 1.31804, 1.31874, 1.31778, 1.31775, 1.32003, 1.31969, 1.32034, 1.32246, 1.32443, 1.3244, 1.32659, 1.32988, 1.33142, 1.33137, 1.33175, 1.33374, 1.33353, 1.33393, 1.33461, 1.33654, 1.33825, 1.33957, 1.3391, 1.34288, 1.34295, 1.34311, 1.3438, 1.34438, 1.34654, 1.34532, 1.34557, 1.34913, 1.34925, 1.35072, 1.3482, 1.35365, 1.35322, 1.35663, 1.35915, 1.361, 1.36489, 1.3639, 1.36622, 1.35943, 1.36533, 1.36255, 1.36392, 1.36717, 1.37435, 1.37831, 1.35159, 1.37437, 1.40921, 1.41808, 1.49621, 1.52666, 1.55488, 1.57816, 1.58497, 1.58923, 1.55854, 1.57402, 1.54805, 1.52637, 1.42524, 1.39234, 1.379, 1.37097, 1.37875, 1.39706, 1.40175, 1.39989, 1.39939, 1.41292, 1.40883, 1.40509, 1.41619, 1.40615, 1.41507, 1.42259, 1.43416, 1.41265, 1.41235, 1.41064, 1.41384, 1.41393, 1.41719, 1.41974, 1.42061, 1.42431, 1.4234, 1.42715, 1.42444, 1.42673, 1.42666, 1.43277, 1.4282, 1.42975, 1.43411, 1.43435, 1.43677, 1.45274, 1.4452, 1.44321, 1.44574, 1.44781, 1.45071, 1.44893, 1.45288, 1.45585, 1.45777
1.30181, 1.30058, 1.30084, 1.3004, 1.30083, 1.29937, 1.29962, 1.29868, 1.29779, 1.29871, 1.2971, 1.29532, 1.29539, 1.29283, 1.29428, 1.29191, 1.29182, 1.29115, 1.28932, 1.2865, 1.28678, 1.28615, 1.28598, 1.28539, 1.28441, 1.28451, 1.28572, 1.28645, 1.29245, 1.28795, 1.28838, 1.28957, 1.29923, 1.2898, 1.28946, 1.29035, 1.28908, 1.29055, 1.28999, 1.29181, 1.29211, 1.30245, 1.29965, 1.30416, 1.27121, 1.3162, 1.36026, 1.38832, 1.45113, 1.51634, 1.55559, 1.59906, 1.60468, 1.60454, 1.57198, 1.50592, 1.3852, 1.31028, 1.24094, 1.2613, 1.29905, 1.30989, 1.31591, 1.30541, 1.29132, 1.29051, 1.2914, 1.29218, 1.29171, 1.29145, 1.29348, 1.29197, 1.29262, 1.29328, 1.29263, 1.29154, 1.29249, 1.29218, 1.29377, 1.29423, 1.29463, 1.2931, 1.2916, 1.29262, 1.29521, 1.29496, 1.2935, 1.29491, 1.29206, 1.29288, 1.29302, 1.29382, 1.29397, 1.29511, 1.29294, 1.29441, 1.29289, 1.29466, 1.29824, 1.29787, 1.29435, 1.29578, 1.29538, 1.29705, 1.31772, 1.30249, 1.30398, 1.30282, 1.30204, 1.31277, 1.298, 1.29778, 1.29804, 1.29818, 1.30265, 1.30338, 1.30622, 1.3039, 1.30132, 1.30143, 1.30748, 1.30685, 1.30836, 1.30866, 1.32624, 1.31309, 1.32684, 1.31009, 1.30913, 1.30954, 1.31037, 1.31072, 1.31334, 1.32132, 1.32357, 1.31467, 1.31631, 1.31652, 1.31686, 1.31645, 1.31542, 1.31839, 1.31626, 1.31618, 1.31755, 1.31599, 1.31678, 1.31776, 1.32002, 1.32383, 1.32371, 1.32577, 1.35519, 1.32976, 1.32968, 1.32903, 1.32974, 1.33306, 1.33289, 1.33427, 1.33566, 1.33719, 1.3369, 1.33775, 1.33894, 1.33881, 1.34044, 1.34168, 1.34293, 1.34413, 1.34604, 1.34541, 1.34709, 1.34807, 1.34858, 1.34934, 1.34832, 1.34646, 1.34932, 1.35105, 1.35349, 1.37757, 1.35758, 1.35558, 1.35765, 1.35647, 1.3658, 1.35742, 1.36091, 1.36797, 1.36587, 1.37153, 1.36821, 1.37849, 1.37182, 1.36157, 1.37237, 1.39164, 1.4471, 1.48815, 1.53388, 1.60703, 1.57564, 1.61311, 1.61078, 1.62679, 1.57911, 1.5485, 1.50912, 1.44318, 1.41197, 1.36422, 1.35421, 1.37152, 1.40905, 1.40449, 1.40203, 1.40916, 1.41226, 1.40932, 1.41297, 1.40519, 1.40833, 1.40967, 1.4094, 1.40938, 1.41061, 1.41109, 1.41276, 1.4126, 1.41361, 1.41507, 1.41684, 1.4167, 1.421, 1.4221, 1.42056, 1.42276, 1.42504, 1.42397, 1.42628, 1.42935, 1.43001, 1.43067, 1.43207, 1.43261, 1.43362, 1.43224, 1.43461, 1.43775, 1.44636, 1.44456, 1.4457, 1.44709, 1.44794, 1.45107
1.30206, 1.30302, 1.30296, 1.2988, 1.29725, 1.29661, 1.29645, 1.29497, 1.29508, 1.2952, 1.29439, 1.29465, 1.2947, 1.30241, 1.29305, 1.29375, 1.28817, 1.29199, 1.29073, 1.28964, 1.28875, 1.2881, 1.28807, 1.28674, 1.28646, 1.2861, 1.28704, 1.2878, 1.28843, 1.28838, 1.28983, 1.29614, 1.29096, 1.29142, 1.2933, 1.30859, 1.29176, 1.29218, 1.29329, 1.29619, 1.30586, 1.2985, 1.30454, 1.2917, 1.26641, 1.28121, 1.32695, 1.37207, 1.43635, 1.45453, 1.52545, 1.5478, 1.59309, 1.59352, 1.51149, 1.47281, 1.37472, 1.33663, 1.28407, 1.23629, 1.25396, 1.29236, 1.29165, 1.30107, 1.28945, 1.28961, 1.2894, 1.28905, 1.28772, 1.28846, 1.28779, 1.28792, 1.28816, 1.28856, 1.28927, 1.2896, 1.28819, 1.28858, 1.28895, 1.28562, 1.28808, 1.28963, 1.28953, 1.29014, 1.29007, 1.29123, 1.29254, 1.29129, 1.29042, 1.29085, 1.291, 1.29251, 1.29323, 1.29307, 1.29378, 1.29556, 1.29452, 1.29498, 1.29542, 1.2962, 1.29467, 1.29458, 1.29582, 1.29879, 1.29845, 1.29841, 1.29997, 1.30024, 1.30059, 1.30178, 1.30178, 1.30253, 1.3019, 1.30223, 1.30353, 1.30242, 1.30464, 1.30313, 1.3024, 1.30059, 1.30181, 1.30634, 1.3064, 1.30669, 1.3054, 1.30336, 1.30471, 1.30474, 1.3048, 1.30951, 1.30923, 1.31031, 1.30743, 1.30844, 1.3097, 1.30884, 1.31632, 1.31511, 1.31558, 1.31569, 1.31577, 1.35338, 1.31767, 1.31398, 1.31448, 1.3154, 1.31539, 1.31644, 1.3191, 1.32294, 1.32652, 1.33358, 1.32566, 1.3225, 1.32558, 1.32595, 1.32715, 1.32888, 1.33513, 1.33691, 1.3347, 1.33105, 1.33257, 1.33239, 1.33302, 1.33469, 1.34103, 1.34012, 1.34334, 1.34514, 1.34426, 1.34311, 1.34509, 1.34563, 1.34491, 1.34635, 1.35109, 1.34751, 1.34837, 1.34839, 1.34923, 1.34812, 1.35785, 1.35237, 1.3508, 1.35404, 1.3558, 1.35808, 1.3671, 1.37201, 1.36553, 1.37788, 1.37356, 1.36878, 1.36346, 1.35799, 1.37609, 1.37555, 1.42664, 1.49149, 1.53434, 1.57546, 1.58569, 1.58927, 1.59191, 1.57618, 1.54789, 1.52808, 1.50963, 1.45672, 1.41227, 1.3919, 1.38959, 1.39372, 1.40607, 1.42047, 1.40353, 1.40218, 1.40179, 1.40161, 1.40807, 1.40559, 1.41346, 1.41044, 1.41689, 1.4172, 1.4198, 1.4209, 1.41628, 1.43336, 1.41839, 1.41668, 1.44795, 1.41711, 1.41957, 1.42243, 1.41985, 1.4227, 1.42282, 1.42656, 1.42601, 1.4273, 1.42719, 1.42971, 1.42908, 1.43275, 1.43354, 1.43738, 1.43746, 1.43992, 1.44524, 1.44455, 1.44659, 1.44987, 1.4543, 1.45813
1.29263, 1.29811, 1.29699, 1.29923, 1.29584, 1.29531, 1.3039, 1.28914, 1.29125, 1.28952, 1.2898, 1.28969, 1.28871, 1.29096, 1.28949, 1.29275, 1.2944, 1.29336, 1.29123, 1.29141, 1.29537, 1.28647, 1.28635, 1.28939, 1.28887, 1.28876, 1.28942, 1.29826, 1.30858, 1.28808, 1.29148, 1.29235, 1.30163, 1.30185, 1.29269, 1.29279, 1.29178, 1.29086, 1.2958, 1.29139, 1.2995, 1.29405, 1.30592, 1.30855, 1.25207, 1.28849, 1.29864, 1.39064, 1.45634, 1.49595, 1.55065, 1.55473, 1.67222, 1.66859, 1.62601, 1.58288, 1.43331, 1.3645, 1.29326, 1.27853, 1.28915, 1.30313, 1.29237, 1.29751, 1.28794, 1.28843, 1.28607, 1.28655, 1.28639, 1.28656, 1.28489, 1.28455, 1.28416, 1.28441, 1.28449, 1.28638, 1.28623, 1.28725, 1.28656, 1.28771, 1.28669, 1.28887, 1.28855, 1.28777, 1.28939, 1.29115, 1.29183, 1.29116, 1.29292, 1.29663, 1.29429, 1.29443, 1.29475, 1.29466, 1.29509, 1.30261, 1.29677, 1.29489, 1.29509, 1.29463, 1.29483, 1.29516, 1.29503, 1.29592, 1.29658, 1.29815, 1.29579, 1.29698, 1.29658, 1.29675, 1.2985, 1.2993, 1.30249, 1.30172, 1.30199, 1.30273, 1.3035, 1.30485, 1.3049, 1.30456, 1.30587, 1.30379, 1.30674, 1.30725, 1.30719, 1.3084, 1.30956, 1.30876, 1.30758, 1.30874, 1.30826, 1.3106, 1.31035, 1.31085, 1.31131, 1.31199, 1.31179, 1.31124, 1.31509, 1.31317, 1.31143, 1.31307, 1.31265, 1.31369, 1.31457, 1.31523, 1.31667, 1.3177, 1.31955, 1.32186, 1.32151, 1.32234, 1.3237, 1.32496, 1.32454, 1.32573, 1.32697, 1.32669, 1.32942, 1.32996, 1.33117, 1.33143, 1.33227, 1.3339, 1.33409, 1.33531, 1.33716, 1.33632, 1.33717, 1.33978, 1.34305, 1.34487, 1.34777, 1.34699, 1.34733, 1.34799, 1.34874, 1.3486, 1.35102, 1.34761, 1.3457, 1.34672, 1.3548, 1.35135, 1.35359, 1.35481, 1.35701, 1.35784, 1.36141, 1.35228, 1.3673, 1.37098, 1.38183, 1.38104, 1.36561, 1.32377, 1.37486, 1.3912, 1.41977, 1.47211, 1.5235, 1.56064, 1.56306, 1.56972, 1.5707, 1.5743, 1.57242, 1.52338, 1.47268, 1.42727, 1.4121, 1.39545, 1.3345, 1.37243, 1.40151, 1.409, 1.40034, 1.40076, 1.40002, 1.4163, 1.395, 1.3985, 1.40556, 1.40477, 1.41268, 1.43343, 1.40532, 1.40649, 1.42341, 1.40895, 1.40948, 1.41367, 1.41414, 1.41409, 1.42034, 1.42481, 1.42729, 1.44528, 1.4237, 1.42568, 1.42664, 1.42766, 1.42675, 1.42945, 1.4305, 1.43357, 1.43618, 1.4353, 1.43957, 1.43993, 1.44072, 1.44357, 1.44662, 1.44875, 1.45107, 1.45386
1.29331, 1.29377, 1.29265, 1.2919, 1.29047, 1.28823, 1.28813, 1.28994, 1.29098, 1.2911, 1.28999, 1.29174, 1.29103, 1.28962, 1.28844, 1.29763, 1.29011, 1.29036, 1.29175, 1.28877, 1.28798, 1.28612, 1.28844, 1.28309, 1.28294, 1.28435, 1.28342, 1.28816, 1.28564, 1.28579, 1.28636, 1.28597, 1.28856, 1.28471, 1.29159, 1.28677, 1.28699, 1.28605, 1.28628, 1.28544, 1.30161, 1.29017, 1.28599, 1.29186, 1.25984, 1.2692, 1.34015, 1.39623, 1.42852, 1.48582, 1.51088, 1.60786, 1.58738, 1.57493, 1.53301, 1.47777, 1.42709, 1.39553, 1.26887, 1.26086, 1.28872, 1.2943, 1.30125, 1.29851, 1.2864, 1.29468, 1.28433, 1.28213, 1.28273, 1.28301, 1.2887, 1.28245, 1.29478, 1.28131, 1.28439, 1.28172, 1.27972, 1.28093, 1.28178, 1.28195, 1.28473, 1.2868, 1.28804, 1.28858, 1.28838, 1.28895, 1.29099, 1.29083, 1.29136, 1.28898, 1.29194, 1.29246, 1.29453, 1.29489, 1.29614, 1.29814, 1.29673, 1.29805, 1.29903, 1.29505, 1.29487, 1.29559, 1.29646, 1.29748, 1.2968, 1.29514, 1.29327, 1.29413, 1.29452, 1.29848, 1.29794, 1.2927, 1.29259, 1.29627, 1.29886, 1.30169, 1.30323, 1.30707, 1.33068, 1.30638, 1.30665, 1.30859, 1.30912, 1.30952, 1.30865, 1.31092, 1.31202, 1.3119, 1.31294, 1.31295, 1.31256, 1.31273, 1.31333, 1.31268, 1.31455, 1.31404, 1.31432, 1.31421, 1.31549, 1.31311, 1.31473, 1.31387, 1.3147, 1.3269, 1.3163, 1.31655, 1.31609, 1.31694, 1.31868, 1.31935, 1.33049, 1.32666, 1.32221, 1.32352, 1.32663, 1.32729, 1.32728, 1.32722, 1.32816, 1.32944, 1.33298, 1.32956, 1.33008, 1.3355, 1.34377, 1.33378, 1.33984, 1.33865, 1.34079, 1.3412, 1.34319, 1.34555, 1.34692, 1.3465, 1.35474, 1.34736, 1.34795, 1.34699, 1.34764, 1.34707, 1.34722, 1.34974, 1.35028, 1.35144, 1.36138, 1.35371, 1.3532, 1.3542, 1.35598, 1.35692, 1.3581, 1.37161, 1.37536, 1.37408, 1.36271, 1.33058, 1.33997, 1.35781, 1.41537, 1.47837, 1.50762, 1.54477, 1.58396, 1.55594, 1.60196, 1.53623, 1.52761, 1.53648, 1.49048, 1.44429, 1.39445, 1.35162, 1.36728, 1.39189, 1.3914, 1.40554, 1.40676, 1.41045, 1.39607, 1.39373, 1.39626, 1.39683, 1.40557, 1.40483, 1.40241, 1.40176, 1.40257, 1.40448, 1.40696, 1.42361, 1.41612, 1.41088, 1.41124, 1.40969, 1.41404, 1.417, 1.42063, 1.41708, 1.41835, 1.42562, 1.42136, 1.42658, 1.42669, 1.42882, 1.42972, 1.4298, 1.43644, 1.46938, 1.43654, 1.44345, 1.4417, 1.44536, 1.44727, 1.45825, 1.45307, 1.45646
1.29313, 1.29467, 1.28984, 1.29977, 1.29107, 1.28878, 1.29256, 1.29051, 1.29188, 1.29129, 1.29188, 1.29316, 1.29313, 1.29286, 1.29214, 1.29258, 1.29122, 1.28836, 1.28928, 1.28887, 1.28754, 1.28668, 1.28736, 1.28553, 1.28596, 1.28799, 1.28607, 1.2853, 1.28682, 1.28599, 1.28744, 1.28746, 1.29161, 1.28578, 1.28574, 1.28488, 1.28587, 1.28534, 1.28537, 1.28906, 1.29476, 1.29155, 1.28793, 1.28755, 1.26475, 1.2608, 1.29248, 1.33665, 1.44052, 1.49006, 1.55444, 1.57831, 1.59673, 1.58241, 1.59246, 1.42112, 1.37319, 1.30301, 1.29118, 1.29255, 1.30218, 1.31656, 1.29072, 1.29142, 1.29863, 1.29357, 1.29683, 1.28812, 1.28787, 1.27943, 1.29833, 1.2982, 1.28107, 1.27951, 1.28087, 1.28092, 1.28145, 1.28089, 1.27976, 1.28142, 1.28397, 1.28503, 1.28506, 1.28576, 1.28771, 1.28765, 1.29028, 1.29123, 1.29192, 1.29205, 1.29491, 1.28942, 1.29003, 1.29156, 1.29196, 1.29205, 1.29155, 1.29189, 1.29494, 1.29473, 1.29344, 1.29249, 1.29262, 1.29273, 1.29198, 1.2919, 1.29259, 1.29466, 1.28966, 1.28679, 1.28811, 1.28804, 1.28769, 1.2915, 1.29803, 1.29881, 1.29952, 1.30117, 1.30401, 1.3047, 1.30596, 1.30622, 1.30776, 1.30659, 1.30625, 1.30663, 1.30684, 1.30873, 1.30987, 1.30968, 1.30954, 1.30816, 1.31036, 1.3099, 1.30917, 1.31077, 1.31021, 1.31047, 1.31172, 1.312, 1.31587, 1.32226, 1.31693, 1.3178, 1.35402, 1.3152, 1.32715, 1.31968, 1.32123, 1.32043, 1.32225, 1.3224, 1.32387, 1.32326, 1.32573, 1.32596, 1.32686, 1.32712, 1.32613, 1.32705, 1.33341, 1.32845, 1.32988, 1.33165, 1.33318, 1.33534, 1.33619, 1.34057, 1.3388, 1.3404, 1.34062, 1.34202, 1.34594, 1.34292, 1.34556, 1.34373, 1.34501, 1.34548, 1.34431, 1.35275, 1.34809, 1.34797, 1.34972, 1.35335, 1.35449, 1.35676, 1.3545, 1.3569, 1.3614, 1.36075, 1.35759, 1.3638, 1.36748, 1.37477, 1.35573, 1.34439, 1.34877, 1.40512, 1.44506, 1.4435, 1.52329, 1.54481, 1.56195, 1.57264, 1.55718, 1.56683, 1.55067, 1.50298, 1.46969, 1.44356, 1.42746, 1.39909, 1.3822, 1.37369, 1.39186, 1.4122, 1.4092, 1.40222, 1.39506, 1.39532, 1.40983, 1.40277, 1.41909, 1.39884, 1.40048, 1.40058, 1.40294, 1.40203, 1.43831, 1.41339, 1.41121, 1.42831, 1.42269, 1.41233, 1.41283, 1.41463, 1.41608, 1.41602, 1.41875, 1.42063, 1.42529, 1.42459, 1.42634, 1.42693, 1.42972, 1.42903, 1.43191, 1.43444, 1.43629, 1.43958, 1.44424, 1.44649, 1.44656, 1.44835, 1.45136, 1.45098
1.29261, 1.29241, 1.29207, 1.29236, 1.2889, 1.28787, 1.28636, 1.28653, 1.28652, 1.28976, 1.28909, 1.29024, 1.29057, 1.29209, 1.2912, 1.29195, 1.29207, 1.29259, 1.29496, 1.29076, 1.29001, 1.2887, 1.28695, 1.28781, 1.28841, 1.2895, 1.28776, 1.28938, 1.28918, 1.29036, 1.28886, 1.28972, 1.28643, 1.2885, 1.28673, 1.28853, 1.28812, 1.28806, 1.3005, 1.29558, 1.29989, 1.3201, 1.29627, 1.28521, 1.26279, 1.28118, 1.29727, 1.33344, 1.41162, 1.43244, 1.54751, 1.58481, 1.5935, 1.7067, 1.66868, 1.63256, 1.38638, 1.33591, 1.30204, 1.28163, 1.29538, 1.29933, 1.28869, 1.30003, 1.28553, 1.28395, 1.28443, 1.28101, 1.28086, 1.28014, 1.27857, 1.28072, 1.28037, 1.28109, 1.28121, 1.28023, 1.27819, 1.27817, 1.2797, 1.28209, 1.2828, 1.28401, 1.28549, 1.28614, 1.28608, 1.28783, 1.28829, 1.28864, 1.28988, 1.2905, 1.29024, 1.29123, 1.29177, 1.29249, 1.29224, 1.29284, 1.29041, 1.29204, 1.29288, 1.2921, 1.29014, 1.29502, 1.2904, 1.29078, 1.28996, 1.28912, 1.2909, 1.29514, 1.28771, 1.28764, 1.28851, 1.28853, 1.28941, 1.3141, 1.29681, 1.29616, 1.29735, 1.29513, 1.29821, 1.30335, 1.3036, 1.30468, 1.30458, 1.30564, 1.31535, 1.3069, 1.30833, 1.3091, 1.3074, 1.30728, 1.31067, 1.31104, 1.31201, 1.31167, 1.33725, 1.31144, 1.31173, 1.31009, 1.31182, 1.31647, 1.31527, 1.31494, 1.31542, 1.31568, 1.31706, 1.31906, 1.31588, 1.31698, 1.31959, 1.32311, 1.32441, 1.31766, 1.32076, 1.3233, 1.32324, 1.32358, 1.3244, 1.32368, 1.33375, 1.32544, 1.32422, 1.32719, 1.3276, 1.32903, 1.32958, 1.3307, 1.33255, 1.33131, 1.33231, 1.33447, 1.33419, 1.33692, 1.33606, 1.33657, 1.34289, 1.34183, 1.34136, 1.34076, 1.34164, 1.34068, 1.34049, 1.35472, 1.34448, 1.34477, 1.34788, 1.3653, 1.35738, 1.35385, 1.35495, 1.35515, 1.36209, 1.36749, 1.37309, 1.38474, 1.35288, 1.35139, 1.36439, 1.38316, 1.41698, 1.46146, 1.50699, 1.53824, 1.56254, 1.57639, 1.5678, 1.54534, 1.53593, 1.52363, 1.503, 1.43479, 1.4064, 1.38255, 1.35761, 1.38358, 1.40532, 1.41638, 1.40309, 1.41252, 1.39553, 1.39349, 1.39615, 1.40222, 1.39787, 1.39728, 1.40118, 1.40648, 1.40185, 1.41242, 1.40558, 1.40751, 1.40575, 1.40614, 1.41055, 1.41055, 1.41224, 1.41536, 1.41698, 1.4192, 1.42172, 1.42105, 1.42375, 1.42418, 1.42679, 1.43566, 1.4283, 1.42991, 1.42992, 1.42753, 1.4332, 1.43754, 1.44042, 1.44333, 1.44471, 1.4479, 1.45349, 1.45083
1.2898, 1.2892, 1.28567, 1.28517, 1.28674, 1.28751, 1.28672, 1.28443, 1.28293, 1.28306, 1.28479, 1.28765, 1.28538, 1.28463, 1.28617, 1.28698, 1.28571, 1.28816, 1.28879, 1.2891, 1.28932, 1.2898, 1.28859, 1.28639, 1.28609, 1.28726, 1.28683, 1.28511, 1.28596, 1.29119, 1.29031, 1.2848, 1.28178, 1.28319, 1.28542, 1.28129, 1.28195, 1.28314, 1.28233, 1.28285, 1.28442, 1.30471, 1.29245, 1.28878, 1.27296, 1.28266, 1.315, 1.42499, 1.45291, 1.60028, 1.53033, 1.56841, 1.58623, 1.59193, 1.57257, 1.53498, 1.45092, 1.34804, 1.28512, 1.28254, 1.28965, 1.30539, 1.29543, 1.30872, 1.28474, 1.28563, 1.28165, 1.28105, 1.28163, 1.28139, 1.28274, 1.28462, 1.28353, 1.28266, 1.28407, 1.28258, 1.28128, 1.28228, 1.29245, 1.28221, 1.28311, 1.28379, 1.28298, 1.28341, 1.28635, 1.28622, 1.2873, 1.28808, 1.28878, 1.2895, 1.2907, 1.29168, 1.29188, 1.29281, 1.29314, 1.29207, 1.29149, 1.29092, 1.29147, 1.29179, 1.29217, 1.29467, 1.29395, 1.29419, 1.29571, 1.29276, 1.29401, 1.29374, 1.2928, 1.29562, 1.29241, 1.29469, 1.2951, 1.29619, 1.29662, 1.29584, 1.29661, 1.29778, 1.29838, 1.29941, 1.30147, 1.30287, 1.30463, 1.30522, 1.3033, 1.30451, 1.30665, 1.3077, 1.30691, 1.30862, 1.30922, 1.3098, 1.31012, 1.30969, 1.31138, 1.31242, 1.31346, 1.31294, 1.31301, 1.31425, 1.3135, 1.31293, 1.31358, 1.3159, 1.31763, 1.31875, 1.31965, 1.32728, 1.31991, 1.32216, 1.32641, 1.32393, 1.32664, 1.32576, 1.32599, 1.32662, 1.32655, 1.32916, 1.32657, 1.32644, 1.32563, 1.32594, 1.32737, 1.32914, 1.3289, 1.32941, 1.33045, 1.33135, 1.33281, 1.33548, 1.33533, 1.33564, 1.33638, 1.33588, 1.33533, 1.33795, 1.33972, 1.3397, 1.3406, 1.34255, 1.3429, 1.34567, 1.35363, 1.36497, 1.36787, 1.36909, 1.35107, 1.3509, 1.35291, 1.36095, 1.35883, 1.37474, 1.36028, 1.37486, 1.3544, 1.31962, 1.35702, 1.37912, 1.41546, 1.46828, 1.48875, 1.52428, 1.54157, 1.57016, 1.5489, 1.54308, 1.53458, 1.49655, 1.48132, 1.45725, 1.41333, 1.38251, 1.34447, 1.37813, 1.40637, 1.39352, 1.39645, 1.39024, 1.39193, 1.39158, 1.39329, 1.39244, 1.39181, 1.40562, 1.40134, 1.39792, 1.39623, 1.39748, 1.40039, 1.40712, 1.40426, 1.40408, 1.40619, 1.40863, 1.42238, 1.41311, 1.41588, 1.41233, 1.41578, 1.41565, 1.41683, 1.41936, 1.42033, 1.43007, 1.42215, 1.42188, 1.42377, 1.4269, 1.4292, 1.43561, 1.43685, 1.43887, 1.4429, 1.44582, 1.4591, 1.45422
1.28744, 1.28648, 1.28651, 1.28553, 1.28405, 1.28395, 1.28191, 1.28214, 1.28273, 1.28234, 1.28499, 1.28549, 1.28478, 1.28505, 1.28306, 1.28297, 1.28427, 1.28507, 1.28475, 1.28478, 1.28504, 1.28438, 1.28527, 1.28746, 1.28509, 1.28726, 1.28595, 1.2861, 1.28595, 1.28538, 1.28562, 1.28207, 1.28312, 1.28277, 1.29217, 1.28336, 1.28039, 1.28116, 1.28093, 1.28066, 1.2844, 1.2841, 1.29113, 1.27145, 1.26466, 1.29268, 1.32405, 1.37601, 1.43482, 1.51822, 1.56883, 1.56433, 1.60018, 1.60205, 1.53319, 1.55149, 1.49232, 1.37815, 1.32035, 1.27812, 1.3021, 1.29238, 1.28854, 1.28731, 1.28435, 1.28335, 1.28132, 1.28236, 1.28456, 1.28454, 1.28513, 1.28412, 1.28428, 1.28431, 1.2852, 1.2848, 1.28155, 1.27988, 1.27861, 1.27802, 1.27748, 1.2817, 1.28107, 1.28242, 1.28419, 1.28589, 1.28867, 1.2896, 1.28914, 1.29093, 1.29113, 1.29235, 1.29889, 1.28971, 1.28783, 1.2884, 1.28912, 1.29141, 1.29185, 1.29132, 1.29214, 1.29272, 1.29248, 1.29596, 1.33587, 1.29672, 1.29612, 1.29457, 1.2949, 1.29499, 1.29299, 1.29456, 1.29479, 1.29512, 1.29503, 1.2942, 1.29422, 1.29316, 1.29365, 1.29612, 1.29625, 1.29689, 1.30051, 1.30239, 1.30931, 1.30305, 1.30146, 1.30146, 1.30162, 1.31928, 1.30706, 1.30629, 1.3076, 1.30965, 1.30968, 1.30998, 1.31001, 1.30908, 1.31212, 1.31048, 1.31198, 1.31211, 1.31247, 1.31326, 1.31553, 1.31677, 1.3411, 1.318, 1.31917, 1.33254, 1.32027, 1.34733, 1.32342, 1.3251, 1.32699, 1.32615, 1.32828, 1.32945, 1.32918, 1.32897, 1.33061, 1.32971, 1.33176, 1.33154, 1.33308, 1.33337, 1.33297, 1.33946, 1.33333, 1.33637, 1.33558, 1.33633, 1.33962, 1.33997, 1.34124, 1.34346, 1.34483, 1.34521, 1.34724, 1.34868, 1.34935, 1.35112, 1.3476, 1.35618, 1.35175, 1.36062, 1.3548, 1.35471, 1.35547, 1.35476, 1.36251, 1.35852, 1.36398, 1.36409, 1.36163, 1.34394, 1.3514, 1.38347, 1.42312, 1.46427, 1.50709, 1.5238, 1.53793, 1.56563, 1.55061, 1.54067, 1.53643, 1.52028, 1.47779, 1.4515, 1.40231, 1.35057, 1.34494, 1.37644, 1.38979, 1.40739, 1.40009, 1.39007, 1.38985, 1.39189, 1.39469, 1.39131, 1.39441, 1.39333, 1.39441, 1.39609, 1.39685, 1.40286, 1.39924, 1.4004, 1.40267, 1.40648, 1.40987, 1.40996, 1.41291, 1.41234, 1.41224, 1.42076, 1.41387, 1.42373, 1.4177, 1.44102, 1.42179, 1.43085, 1.42669, 1.42266, 1.42334, 1.42691, 1.43173, 1.43625, 1.43656, 1.44079, 1.46239, 1.45167, 1.44703, 1.44867
1.28786, 1.28652, 1.28647, 1.288, 1.28533, 1.28455, 1.28788, 1.28623, 1.28475, 1.28428, 1.28405, 1.28407, 1.28466, 1.28247, 1.28289, 1.28283, 1.28188, 1.28103, 1.28084, 1.28149, 1.27939, 1.28112, 1.28056, 1.2803, 1.2848, 1.28137, 1.28315, 1.28191, 1.28311, 1.28234, 1.28231, 1.28157, 1.28216, 1.28079, 1.28088, 1.28306, 1.28272, 1.28093, 1.28224, 1.28534, 1.28735, 1.30226, 1.28128, 1.28557, 1.26751, 1.29583, 1.32693, 1.3915, 1.44074, 1.49165, 1.51356, 1.57301, 1.547, 1.57953, 1.47861, 1.48602, 1.46903, 1.36189, 1.26701, 1.28858, 1.27155, 1.29217, 1.28568, 1.28305, 1.28307, 1.28213, 1.28122, 1.28222, 1.28197, 1.28449, 1.28247, 1.28166, 1.2807, 1.27914, 1.27856, 1.27953, 1.2817, 1.2778, 1.28111, 1.28028, 1.28169, 1.28243, 1.28153, 1.28123, 1.2799, 1.28344, 1.28394, 1.28512, 1.28568, 1.28777, 1.28807, 1.28871, 1.28404, 1.28422, 1.28272, 1.28475, 1.28389, 1.28508, 1.28591, 1.28773, 1.29003, 1.2914, 1.29338, 1.2928, 1.29342, 1.29827, 1.29477, 1.29515, 1.29421, 1.29148, 1.29026, 1.29, 1.2894, 1.29223, 1.29362, 1.29339, 1.29295, 1.29322, 1.2895, 1.28874, 1.29097, 1.29162, 1.29567, 1.29352, 1.29524, 1.29797, 1.29805, 1.29926, 1.29975, 1.30013, 1.30326, 1.30694, 1.30811, 1.30751, 1.30768, 1.30728, 1.30912, 1.31022, 1.31069, 1.30897, 1.30923, 1.31062, 1.31163, 1.31183, 1.31271, 1.31385, 1.3101, 1.30902, 1.30899, 1.30805, 1.31647, 1.31614, 1.31293, 1.31346, 1.31902, 1.32005, 1.34066, 1.32404, 1.3231, 1.323, 1.32504, 1.32525, 1.32616, 1.32511, 1.32794, 1.32775, 1.33132, 1.32741, 1.32726, 1.33004, 1.32878, 1.33453, 1.33628, 1.33625, 1.33146, 1.33159, 1.34691, 1.33846, 1.3379, 1.33849, 1.34086, 1.34273, 1.34521, 1.37856, 1.35233, 1.3534, 1.35527, 1.36808, 1.35204, 1.35348, 1.37935, 1.36917, 1.36554, 1.36817, 1.33967, 1.32709, 1.36603, 1.38596, 1.39953, 1.51637, 1.51263, 1.51285, 1.54154, 1.54557, 1.54985, 1.5417, 1.53894, 1.51229, 1.50922, 1.47574, 1.40967, 1.3903, 1.36139, 1.37444, 1.39291, 1.3961, 1.40686, 1.40685, 1.4017, 1.39947, 1.40326, 1.39613, 1.4054, 1.40356, 1.39879, 1.40224, 1.39873, 1.39913, 1.41239, 1.40522, 1.40691, 1.4113, 1.42234, 1.41087, 1.43938, 1.4362, 1.42588, 1.41703, 1.42573, 1.42184, 1.42296, 1.4256, 1.45692, 1.45523, 1.42593, 1.42719, 1.42746, 1.43705, 1.44346, 1.43723, 1.43936, 1.43904, 1.44381, 1.444, 1.44673, 1.44829
1.28731, 1.28437, 1.28657, 1.28629, 1.28625, 1.28477, 1.28313, 1.28287, 1.28284, 1.28467, 1.28302, 1.28127, 1.28215, 1.28203, 1.28083, 1.27969, 1.27922, 1.27933, 1.27868, 1.27796, 1.27763, 1.27772, 1.27713, 1.27499, 1.27836, 1.27628, 1.27653, 1.27966, 1.2802, 1.27954, 1.2798, 1.29589, 1.29205, 1.28459, 1.28452, 1.28258, 1.2818, 1.28136, 1.28965, 1.29861, 1.30166, 1.30662, 1.29119, 1.30131, 1.2752, 1.29484, 1.35329, 1.38202, 1.43868, 1.46788, 1.49284, 1.50922, 1.56795, 1.55149, 1.54418, 1.5238, 1.42546, 1.34075, 1.29463, 1.26448, 1.27188, 1.28791, 1.29036, 1.28224, 1.28169, 1.28187, 1.28079, 1.281, 1.28109, 1.27895, 1.28048, 1.27897, 1.278, 1.27758, 1.27619, 1.27659, 1.27724, 1.27658, 1.27672, 1.27834, 1.27731, 1.27808, 1.27757, 1.27834, 1.27864, 1.28023, 1.28134, 1.29881, 1.28322, 1.2843, 1.28429, 1.28454, 1.28306, 1.28316, 1.28285, 1.2835, 1.28505, 1.28503, 1.2878, 1.28794, 1.28835, 1.28975, 1.28841, 1.28927, 1.28867, 1.28941, 1.29095, 1.2913, 1.29137, 1.29236, 1.2926, 1.29167, 1.29169, 1.29334, 1.29294, 1.29288, 1.29132, 1.29153, 1.29119, 1.2915, 1.29228, 1.29316, 1.29363, 1.29582, 1.29755, 1.29809, 1.30174, 1.30023, 1.30195, 1.30267, 1.30318, 1.30573, 1.30454, 1.30618, 1.3055, 1.3052, 1.30705, 1.31607, 1.30646, 1.30824, 1.30861, 1.30992, 1.30869, 1.3106, 1.31105, 1.31051, 1.31037, 1.31258, 1.31267, 1.31256, 1.31308, 1.31387, 1.31523, 1.31697, 1.31835, 1.32013, 1.32058, 1.32334, 1.32479, 1.32637, 1.32571, 1.32662, 1.32616, 1.32666, 1.32863, 1.32636, 1.32691, 1.32878, 1.3277, 1.32978, 1.33202, 1.3323, 1.33165, 1.33367, 1.33409, 1.33611, 1.33673, 1.33626, 1.33999, 1.34069, 1.33999, 1.34271, 1.34579, 1.34472, 1.34661, 1.34873, 1.35114, 1.36494, 1.36561, 1.3576, 1.35719, 1.36179, 1.36234, 1.3692, 1.36122, 1.3443, 1.34051, 1.40195, 1.38974, 1.46432, 1.51399, 1.51925, 1.533, 1.5483, 1.54856, 1.55022, 1.5302, 1.49771, 1.46293, 1.43989, 1.39969, 1.38997, 1.34564, 1.37889, 1.39047, 1.40557, 1.3939, 1.39335, 1.39208, 1.39363, 1.3946, 1.39526, 1.39644, 1.39822, 1.40194, 1.40572, 1.40262, 1.39941, 1.41004, 1.39935, 1.4027, 1.40402, 1.40574, 1.40566, 1.40781, 1.41231, 1.41232, 1.41532, 1.41484, 1.41958, 1.41963, 1.42756, 1.41977, 1.42592, 1.42463, 1.46794, 1.42743, 1.42936, 1.42962, 1.43119, 1.4346, 1.43536, 1.44414, 1.44736, 1.44033, 1.44151
1.29209, 1.29042, 1.2889, 1.28698, 1.28465, 1.28671, 1.2855, 1.28467, 1.28498, 1.28449, 1.28233, 1.28471, 1.27987, 1.27894, 1.277, 1.276, 1.27574, 1.27404, 1.27212, 1.27364, 1.27353, 1.27106, 1.2707, 1.27236, 1.27183, 1.27391, 1.27243, 1.27636, 1.27746, 1.27604, 1.28126, 1.28168, 1.2808, 1.28002, 1.27965, 1.27849, 1.27707, 1.2783, 1.29266, 1.29658, 1.28534, 1.2845, 1.29827, 1.29943, 1.25212, 1.30747, 1.34056, 1.36923, 1.40344, 1.42154, 1.45179, 1.52665, 1.54592, 1.53687, 1.51355, 1.4685, 1.42782, 1.32271, 1.27887, 1.25796, 1.24125, 1.28599, 1.28406, 1.2865, 1.29994, 1.28179, 1.28071, 1.27926, 1.27794, 1.27612, 1.27536, 1.27438, 1.28783, 1.27715, 1.29951, 1.27351, 1.27237, 1.27193, 1.27295, 1.27365, 1.27485, 1.27933, 1.27917, 1.27907, 1.27938, 1.28099, 1.28102, 1.28195, 1.28318, 1.28176, 1.28232, 1.28436, 1.27966, 1.27952, 1.27998, 1.28434, 1.28293, 1.28478, 1.28209, 1.28725, 1.28875, 1.2874, 1.28464, 1.28507, 1.28506, 1.29585, 1.28847, 1.28898, 1.29032, 1.28794, 1.28888, 1.2911, 1.29105, 1.2895, 1.29218, 1.29193, 1.29063, 1.2916, 1.2951, 1.29298, 1.29374, 1.29457, 1.29531, 1.29571, 1.29779, 1.29978, 1.30062, 1.30059, 1.3017, 1.30345, 1.30405, 1.30416, 1.30557, 1.3062, 1.30608, 1.30798, 1.3077, 1.30795, 1.30635, 1.30708, 1.30695, 1.30806, 1.30849, 1.30991, 1.3103, 1.31036, 1.31003, 1.31028, 1.31217, 1.31222, 1.31296, 1.3154, 1.32264, 1.31718, 1.31792, 1.31886, 1.3202, 1.32073, 1.32027, 1.32148, 1.32231, 1.32404, 1.32467, 1.32595, 1.32483, 1.32563, 1.32603, 1.3278, 1.32711, 1.32863, 1.32801, 1.32948, 1.33087, 1.33135, 1.33016, 1.33103, 1.33325, 1.33591, 1.33511, 1.33624, 1.33737, 1.3387, 1.33963, 1.35261, 1.34402, 1.34476, 1.35426, 1.34762, 1.35043, 1.35433, 1.37804, 1.37118, 1.37895, 1.37163, 1.34961, 1.32669, 1.33142, 1.37267, 1.40121, 1.47357, 1.4615, 1.48927, 1.49571, 1.51374, 1.51452, 1.51979, 1.51059, 1.50498, 1.51697, 1.45801, 1.42365, 1.39593, 1.38176, 1.37829, 1.39859, 1.3935, 1.39284, 1.39239, 1.3886, 1.40523, 1.39197, 1.39136, 1.3926, 1.39862, 1.39287, 1.39523, 1.40776, 1.39632, 1.41422, 1.39894, 1.39966, 1.39914, 1.40503, 1.40238, 1.40377, 1.4055, 1.4059, 1.41321, 1.41775, 1.41602, 1.41685, 1.42375, 1.41847, 1.42191, 1.42236, 1.42399, 1.42585, 1.429, 1.42775, 1.43106, 1.43674, 1.43272, 1.43104, 1.43294, 1.43816, 1.44113
1.29002, 1.29555, 1.2875, 1.28783, 1.28613, 1.2872, 1.28661, 1.28519, 1.28411, 1.28286, 1.28296, 1.28267, 1.28133, 1.27894, 1.2794, 1.27752, 1.27778, 1.27611, 1.27519, 1.27491, 1.27714, 1.27323, 1.28164, 1.27342, 1.27317, 1.27421, 1.275, 1.27655, 1.2778, 1.2779, 1.28099, 1.28104, 1.28119, 1.27968, 1.28015, 1.27969, 1.27755, 1.27735, 1.27902, 1.28125, 1.28866, 1.28893, 1.28243, 1.27136, 1.25873, 1.29953, 1.36093, 1.3646, 1.41725, 1.47488, 1.53953, 1.54001, 1.59942, 1.622, 1.58265, 1.45962, 1.41383, 1.3605, 1.319, 1.26114, 1.27279, 1.28534, 1.29822, 1.2879, 1.28539, 1.27923, 1.27602, 1.28145, 1.27391, 1.28902, 1.28942, 1.28172, 1.2745, 1.27466, 1.2754, 1.27604, 1.27292, 1.27837, 1.27465, 1.27284, 1.27461, 1.27583, 1.28367, 1.27908, 1.27901, 1.27745, 1.27718, 1.29909, 1.27916, 1.28097, 1.28137, 1.28297, 1.27832, 1.28346, 1.28241, 1.28298, 1.28495, 1.28107, 1.28456, 1.2854, 1.28694, 1.2847, 1.28266, 1.28538, 1.28411, 1.28759, 1.28884, 1.28935, 1.28497, 1.28621, 1.28657, 1.28491, 1.28569, 1.28747, 1.28775, 1.28885, 1.28969, 1.28968, 1.29012, 1.2926, 1.2935, 1.29256, 1.29423, 1.29425, 1.29598, 1.29642, 1.29778, 1.29864, 1.29916, 1.30248, 1.30276, 1.30009, 1.30117, 1.30131, 1.30164, 1.3019, 1.3054, 1.30563, 1.30566, 1.3058, 1.31631, 1.30665, 1.30695, 1.30517, 1.30712, 1.30731, 1.30939, 1.3141, 1.31248, 1.31308, 1.31369, 1.31672, 1.31569, 1.3167, 1.31691, 1.32151, 1.32178, 1.31895, 1.31921, 1.32021, 1.32021, 1.32083, 1.32646, 1.3247, 1.32268, 1.3236, 1.32383, 1.32599, 1.32416, 1.3263, 1.32566, 1.32617, 1.32912, 1.32925, 1.32931, 1.33036, 1.33272, 1.33188, 1.33371, 1.32998, 1.33331, 1.33703, 1.33836, 1.34729, 1.36155, 1.34477, 1.34226, 1.34316, 1.34447, 1.35772, 1.36447, 1.3615, 1.35654, 1.35905, 1.34905, 1.33697, 1.35306, 1.39989, 1.43359, 1.4656, 1.49518, 1.5307, 1.53073, 1.52732, 1.52721, 1.52264, 1.50343, 1.50985, 1.48686, 1.48596, 1.42437, 1.38231, 1.36476, 1.36896, 1.37799, 1.40078, 1.39538, 1.38986, 1.39165, 1.39135, 1.38996, 1.39038, 1.39582, 1.39196, 1.39432, 1.39653, 1.39921, 1.39871, 1.39522, 1.42919, 1.3969, 1.39879, 1.40164, 1.40424, 1.40217, 1.40552, 1.40614, 1.41136, 1.41366, 1.4195, 1.418, 1.42006, 1.42116, 1.42454, 1.42291, 1.42433, 1.42646, 1.42871, 1.42737, 1.43108, 1.43158, 1.43691, 1.43011, 1.43277, 1.43484, 1.45353
1.28452, 1.28361, 1.28178, 1.28224, 1.28456, 1.28207, 1.2806, 1.28102, 1.2876, 1.278, 1.28072, 1.28063, 1.27994, 1.27828, 1.27584, 1.27578, 1.27466, 1.27792, 1.27496, 1.27408, 1.27374, 1.27494, 1.27653, 1.27703, 1.27608, 1.27616, 1.27502, 1.27583, 1.27892, 1.27754, 1.27745, 1.27871, 1.27565, 1.27586, 1.27617, 1.28237, 1.2735, 1.27529, 1.28312, 1.27803, 1.29288, 1.29033, 1.28819, 1.26095, 1.26034, 1.3191, 1.32798, 1.37496, 1.41267, 1.46845, 1.46852, 1.53264, 1.54635, 1.53457, 1.54526, 1.50175, 1.40655, 1.36744, 1.33835, 1.26037, 1.31543, 1.28392, 1.29137, 1.28303, 1.29152, 1.2856, 1.276, 1.27487, 1.27533, 1.27556, 1.27492, 1.27683, 1.27562, 1.27822, 1.27702, 1.27853, 1.27885, 1.27924, 1.27788, 1.27776, 1.27804, 1.27815, 1.27847, 1.27718, 1.28058, 1.27911, 1.27898, 1.27974, 1.28086, 1.28059, 1.28101, 1.28059, 1.28138, 1.28162, 1.2808, 1.28193, 1.28169, 1.28187, 1.28292, 1.28302, 1.28432, 1.28416, 1.28496, 1.28446, 1.28534, 1.28691, 1.28502, 1.2855, 1.28728, 1.2875, 1.28873, 1.28911, 1.28929, 1.2884, 1.28793, 1.28981, 1.29157, 1.29107, 1.29192, 1.29167, 1.29227, 1.29517, 1.29487, 1.29887, 1.29693, 1.29804, 1.29807, 1.29717, 1.29828, 1.29872, 1.29925, 1.29838, 1.29869, 1.29959, 1.29892, 1.30153, 1.30247, 1.30186, 1.30124, 1.3022, 1.30328, 1.3041, 1.3058, 1.30697, 1.30919, 1.30887, 1.31047, 1.31962, 1.31297, 1.3154, 1.31751, 1.31525, 1.31962, 1.31438, 1.31919, 1.31908, 1.31704, 1.31593, 1.31633, 1.31763, 1.32686, 1.32116, 1.3204, 1.32183, 1.32275, 1.32234, 1.32476, 1.32451, 1.32421, 1.32376, 1.32617, 1.33245, 1.324, 1.32565, 1.32899, 1.32963, 1.32986, 1.33003, 1.33202, 1.33277, 1.33436, 1.33481, 1.33879, 1.34043, 1.34364, 1.34069, 1.35463, 1.34422, 1.35406, 1.3572, 1.34877, 1.36819, 1.37834, 1.35558, 1.34345, 1.3365, 1.35334, 1.39541, 1.42014, 1.43829, 1.48102, 1.51994, 1.53508, 1.54709, 1.54601, 1.52687, 1.52427, 1.48292, 1.45854, 1.4645, 1.44166, 1.37668, 1.3619, 1.37362, 1.37484, 1.39011, 1.39181, 1.38844, 1.40621, 1.38595, 1.38831, 1.39062, 1.39942, 1.38983, 1.3915, 1.38839, 1.38848, 1.39094, 1.39251, 1.39451, 1.39533, 1.39676, 1.4035, 1.40297, 1.40545, 1.40936, 1.40898, 1.41199, 1.41509, 1.41739, 1.42366, 1.42101, 1.42298, 1.4242, 1.42652, 1.42703, 1.42473, 1.42746, 1.4269, 1.42908, 1.42896, 1.43067, 1.43293, 1.43562, 1.43589, 1.43714
1.27998, 1.28055, 1.2801, 1.28068, 1.27929, 1.281, 1.28149, 1.27915, 1.27631, 1.28083, 1.27492, 1.27429, 1.28267, 1.27116, 1.27218, 1.27148, 1.27174, 1.27347, 1.27433, 1.27422, 1.27551, 1.27542, 1.27385, 1.27547, 1.27412, 1.27195, 1.27368, 1.27343, 1.27587, 1.27237, 1.27449, 1.27322, 1.27418, 1.27369, 1.27309, 1.27375, 1.27373, 1.27354, 1.27413, 1.27518, 1.27768, 1.28869, 1.28895, 1.27241, 1.26173, 1.29504, 1.37086, 1.37167, 1.42618, 1.47478, 1.50323, 1.5401, 1.56078, 1.55406, 1.5345, 1.45323, 1.43592, 1.3477, 1.31364, 1.2913, 1.27342, 1.29718, 1.28497, 1.28951, 1.2852, 1.28416, 1.27365, 1.27396, 1.28156, 1.27422, 1.27337, 1.27417, 1.27531, 1.27141, 1.27281, 1.27611, 1.28492, 1.27582, 1.27719, 1.27848, 1.27587, 1.27753, 1.27819, 1.27851, 1.27786, 1.27836, 1.27813, 1.27544, 1.27582, 1.27794, 1.27772, 1.27791, 1.27807, 1.27937, 1.28305, 1.27921, 1.28135, 1.28045, 1.28138, 1.28261, 1.28216, 1.2823, 1.28257, 1.28246, 1.28452, 1.28445, 1.28471, 1.28449, 1.28452, 1.28557, 1.28616, 1.28504, 1.2857, 1.28548, 1.28781, 1.28736, 1.28892, 1.28996, 1.29209, 1.29186, 1.29163, 1.29303, 1.29552, 1.29588, 1.29535, 1.2959, 1.29519, 1.29683, 1.29779, 1.29796, 1.29852, 1.29832, 1.2982, 1.29855, 1.30161, 1.30077, 1.29972, 1.30131, 1.30373, 1.3027, 1.30295, 1.30076, 1.30079, 1.30191, 1.30383, 1.30554, 1.30799, 1.30892, 1.31049, 1.31297, 1.31427, 1.31701, 1.31578, 1.31832, 1.31995, 1.31853, 1.31874, 1.32111, 1.31998, 1.31936, 1.31884, 1.3196, 1.31845, 1.31951, 1.31994, 1.32052, 1.32203, 1.32232, 1.32379, 1.3236, 1.32636, 1.32631, 1.32698, 1.32726, 1.32765, 1.32984, 1.33054, 1.3312, 1.33623, 1.33347, 1.35364, 1.33526, 1.33765, 1.33681, 1.33955, 1.33841, 1.34046, 1.3406, 1.35739, 1.34422, 1.34643, 1.35123, 1.35423, 1.35491, 1.35082, 1.33365, 1.3476, 1.37527, 1.42935, 1.46441, 1.49312, 1.50849, 1.50806, 1.51085, 1.51638, 1.52289, 1.4954, 1.475, 1.46396, 1.42068, 1.3921, 1.37208, 1.34584, 1.37581, 1.3707, 1.39212, 1.39668, 1.39281, 1.38653, 1.39225, 1.39853, 1.38458, 1.38466, 1.38285, 1.38782, 1.38529, 1.40687, 1.40659, 1.40895, 1.39529, 1.41213, 1.39828, 1.39887, 1.40873, 1.4235, 1.40679, 1.41, 1.41309, 1.41584, 1.41508, 1.41922, 1.42072, 1.42466, 1.42281, 1.42248, 1.42109, 1.42475, 1.42777, 1.42962, 1.43016, 1.42969, 1.43237, 1.43296, 1.43453, 1.43353, 1.43322
1.27838, 1.27873, 1.28, 1.27882, 1.2777, 1.27724, 1.27588, 1.27524, 1.27687, 1.27742, 1.275, 1.27297, 1.27442, 1.27217, 1.27203, 1.26813, 1.26895, 1.27112, 1.27436, 1.27128, 1.27364, 1.27237, 1.27249, 1.27251, 1.27131, 1.27181, 1.27219, 1.28123, 1.27215, 1.27298, 1.27421, 1.2733, 1.27133, 1.28243, 1.2718, 1.27228, 1.2712, 1.26962, 1.27173, 1.27232, 1.27874, 1.27612, 1.2721, 1.28308, 1.2789, 1.31324, 1.3382, 1.35988, 1.43695, 1.4691, 1.51235, 1.54033, 1.53651, 1.52847, 1.49843, 1.46684, 1.38349, 1.36817, 1.3149, 1.24317, 1.26127, 1.2838, 1.28223, 1.27861, 1.28272, 1.27448, 1.28895, 1.28037, 1.27117, 1.27098, 1.2719, 1.27186, 1.26935, 1.26836, 1.26815, 1.26971, 1.27408, 1.27207, 1.27414, 1.27501, 1.27544, 1.27431, 1.27516, 1.27747, 1.27626, 1.27566, 1.27482, 1.2749, 1.27453, 1.27519, 1.27194, 1.27464, 1.27263, 1.27156, 1.27376, 1.27486, 1.27549, 1.27746, 1.27899, 1.27903, 1.27934, 1.27978, 1.2797, 1.28118, 1.28202, 1.2834, 1.28128, 1.28176, 1.28233, 1.28468, 1.28246, 1.28245, 1.28275, 1.28771, 1.28297, 1.28199, 1.28308, 1.282, 1.28759, 1.28879, 1.29228, 1.28889, 1.28977, 1.29088, 1.29349, 1.2952, 1.29474, 1.29547, 1.29106, 1.28982, 1.29149, 1.29452, 1.29578, 1.29719, 1.2963, 1.29582, 1.29644, 1.29774, 1.29356, 1.29461, 1.29513, 1.29308, 1.29162, 1.29192, 1.29418, 1.29643, 1.29938, 1.30404, 1.30861, 1.31147, 1.31234, 1.31631, 1.3147, 1.31907, 1.31777, 1.31712, 1.31863, 1.31915, 1.31977, 1.31905, 1.31879, 1.31836, 1.3188, 1.31795, 1.31839, 1.32036, 1.31936, 1.32673, 1.32176, 1.32273, 1.33119, 1.32584, 1.32604, 1.32757, 1.32754, 1.32972, 1.34095, 1.32909, 1.34784, 1.33674, 1.34711, 1.34518, 1.34975, 1.35019, 1.33601, 1.33793, 1.34096, 1.33995, 1.33953, 1.35039, 1.35428, 1.3539, 1.35076, 1.3514, 1.34117, 1.33786, 1.33781, 1.3773, 1.40495, 1.44396, 1.50863, 1.51264, 1.51382, 1.52153, 1.52664, 1.51594, 1.48216, 1.46835, 1.45143, 1.45386, 1.43244, 1.39366, 1.35519, 1.34513, 1.39069, 1.396, 1.3893, 1.39166, 1.39595, 1.38265, 1.38144, 1.39999, 1.38357, 1.38457, 1.38823, 1.38896, 1.38941, 1.39067, 1.39283, 1.39241, 1.39413, 1.40224, 1.39914, 1.40016, 1.40008, 1.4068, 1.40571, 1.40833, 1.41007, 1.41153, 1.41339, 1.41435, 1.41893, 1.41643, 1.42057, 1.42585, 1.41972, 1.43457, 1.42605, 1.4263, 1.42627, 1.42628, 1.42993, 1.42681, 1.4276, 1.43024
1.28531, 1.27507, 1.27601, 1.28053, 1.28453, 1.27337, 1.27524, 1.27233, 1.27366, 1.27415, 1.27346, 1.27274, 1.27471, 1.27144, 1.26936, 1.27197, 1.27062, 1.27072, 1.27078, 1.27079, 1.27147, 1.27255, 1.27109, 1.27012, 1.27098, 1.26892, 1.26956, 1.27173, 1.26956, 1.27145, 1.27244, 1.28819, 1.27074, 1.29175, 1.27186, 1.27796, 1.27181, 1.27175, 1.27481, 1.29459, 1.27727, 1.27893, 1.27462, 1.28918, 1.26054, 1.29978, 1.37987, 1.39307, 1.4514, 1.48687, 1.50226, 1.52728, 1.53754, 1.53049, 1.48775, 1.44869, 1.43769, 1.36072, 1.32775, 1.27565, 1.25569, 1.28549, 1.27971, 1.28252, 1.27534, 1.27177, 1.26906, 1.26916, 1.26771, 1.27018, 1.26932, 1.26962, 1.26879, 1.26936, 1.2691, 1.27176, 1.27024, 1.28827, 1.28136, 1.27142, 1.2724, 1.2722, 1.2721, 1.27322, 1.27328, 1.27522, 1.27505, 1.27493, 1.27561, 1.27578, 1.27555, 1.27407, 1.2751, 1.27455, 1.27347, 1.27407, 1.27636, 1.27549, 1.28098, 1.27654, 1.27695, 1.27778, 1.2788, 1.27883, 1.27913, 1.278, 1.27913, 1.28086, 1.28018, 1.27803, 1.27743, 1.27806, 1.27887, 1.2786, 1.28166, 1.28786, 1.27906, 1.27888, 1.28544, 1.28642, 1.28504, 1.28544, 1.28609, 1.28817, 1.28938, 1.29145, 1.29249, 1.29182, 1.28965, 1.28829, 1.29533, 1.29416, 1.29196, 1.292, 1.29337, 1.29326, 1.29543, 1.29412, 1.29173, 1.29118, 1.29189, 1.29769, 1.29731, 1.29593, 1.2978, 1.29701, 1.29912, 1.30271, 1.30612, 1.30638, 1.30812, 1.30825, 1.3107, 1.31345, 1.31277, 1.30997, 1.31296, 1.31305, 1.31306, 1.31443, 1.31633, 1.3164, 1.31824, 1.31936, 1.31916, 1.31588, 1.31635, 1.31941, 1.31919, 1.3253, 1.32376, 1.32056, 1.32145, 1.32411, 1.32547, 1.3254, 1.32552, 1.32794, 1.328, 1.3311, 1.33065, 1.33341, 1.33348, 1.33657, 1.33778, 1.33589, 1.33697, 1.35024, 1.34535, 1.34746, 1.35706, 1.36035, 1.35071, 1.35568, 1.36176, 1.32596, 1.33752, 1.3826, 1.41658, 1.40501, 1.48567, 1.50272, 1.50081, 1.49162, 1.49409, 1.47765, 1.46384, 1.45142, 1.46871, 1.44385, 1.40289, 1.38449, 1.34047, 1.36347, 1.38483, 1.38582, 1.38139, 1.38185, 1.38811, 1.39814, 1.39178, 1.38119, 1.38375, 1.38286, 1.39163, 1.39593, 1.38932, 1.38902, 1.3907, 1.38954, 1.3923, 1.39958, 1.39847, 1.39683, 1.39637, 1.39997, 1.40058, 1.40497, 1.40606, 1.40654, 1.42649, 1.41089, 1.41072, 1.4135, 1.41628, 1.41521, 1.41862, 1.41969, 1.41947, 1.42344, 1.4215, 1.42638, 1.42509, 1.4296, 1.42713, 1.43033
1.27377, 1.27708, 1.27159, 1.2718, 1.26869, 1.27062, 1.27113, 1.26883, 1.26914, 1.2702, 1.26877, 1.27091, 1.2735, 1.2675, 1.26731, 1.2653, 1.26616, 1.27028, 1.27089, 1.26895, 1.26896, 1.29188, 1.27095, 1.26884, 1.26832, 1.26799, 1.27707, 1.26896, 1.26736, 1.26706, 1.27132, 1.27055, 1.26918, 1.26819, 1.26734, 1.26908, 1.27849, 1.27107, 1.27093, 1.27228, 1.28108, 1.27511, 1.27142, 1.29105, 1.25055, 1.28575, 1.35448, 1.39338, 1.45049, 1.51743, 1.52035, 1.53021, 1.52081, 1.51966, 1.51454, 1.4743, 1.39378, 1.35828, 1.31266, 1.26234, 1.27461, 1.27756, 1.29274, 1.27869, 1.2747, 1.28474, 1.2785, 1.2704, 1.27, 1.27096, 1.27837, 1.27243, 1.27285, 1.2725, 1.27399, 1.27148, 1.2714, 1.27157, 1.27315, 1.27175, 1.27219, 1.2731, 1.27233, 1.27142, 1.27217, 1.27618, 1.27555, 1.27564, 1.27498, 1.27508, 1.27578, 1.27419, 1.27478, 1.2755, 1.27568, 1.27517, 1.27536, 1.27778, 1.27835, 1.27854, 1.27806, 1.27718, 1.27821, 1.27955, 1.27808, 1.27703, 1.27778, 1.27714, 1.27769, 1.27754, 1.27775, 1.27757, 1.2801, 1.27945, 1.28124, 1.28227, 1.28273, 1.28211, 1.2834, 1.28456, 1.28523, 1.28813, 1.28789, 1.29165, 1.29206, 1.29195, 1.29306, 1.29181, 1.29269, 1.29236, 1.29371, 1.29295, 1.29235, 1.29393, 1.29527, 1.29487, 1.29516, 1.2947, 1.29602, 1.29662, 1.29955, 1.29671, 1.29755, 1.29565, 1.29753, 1.30025, 1.30145, 1.30244, 1.30577, 1.30812, 1.3092, 1.30844, 1.3096, 1.30975, 1.31128, 1.31301, 1.31251, 1.31085, 1.31161, 1.31101, 1.3126, 1.31516, 1.31529, 1.31405, 1.31433, 1.31767, 1.31904, 1.31708, 1.31812, 1.31927, 1.32054, 1.32191, 1.32367, 1.32113, 1.32043, 1.32341, 1.32501, 1.32647, 1.32797, 1.32823, 1.32996, 1.33286, 1.33093, 1.34054, 1.33315, 1.33472, 1.33191, 1.33389, 1.33382, 1.34102, 1.34246, 1.36074, 1.36238, 1.35471, 1.33797, 1.30695, 1.33409, 1.36389, 1.43192, 1.4405, 1.47626, 1.50727, 1.51079, 1.50924, 1.47917, 1.48919, 1.4833, 1.47592, 1.43604, 1.41371, 1.42626, 1.38157, 1.33024, 1.34307, 1.38108, 1.37863, 1.38003, 1.37685, 1.37799, 1.38064, 1.3783, 1.38093, 1.37956, 1.38238, 1.38351, 1.38634, 1.38791, 1.38942, 1.39013, 1.38992, 1.39129, 1.39284, 1.39611, 1.39865, 1.39943, 1.39646, 1.39999, 1.39924, 1.40261, 1.40173, 1.42606, 1.40941, 1.41399, 1.41225, 1.41601, 1.4165, 1.41532, 1.41701, 1.41751, 1.41712, 1.4209, 1.42007, 1.42278, 1.42268, 1.42371, 1.42906
1.27312, 1.27136, 1.27168, 1.27412, 1.26829, 1.26739, 1.26548, 1.26615, 1.26869, 1.26729, 1.26968, 1.27123, 1.27068, 1.2686, 1.26892, 1.26884, 1.26678, 1.26659, 1.26677, 1.26729, 1.26744, 1.26849, 1.2672, 1.26721, 1.26537, 1.26447, 1.26401, 1.26379, 1.26529, 1.26579, 1.26451, 1.26453, 1.26698, 1.27456, 1.2675, 1.2689, 1.2679, 1.27219, 1.26916, 1.27909, 1.27552, 1.27713, 1.27749, 1.26786, 1.26384, 1.27404, 1.39819, 1.35522, 1.4104, 1.46499, 1.47841, 1.51073, 1.5311, 1.51198, 1.47338, 1.41329, 1.38907, 1.35, 1.31265, 1.2495, 1.24434, 1.27941, 1.28697, 1.28858, 1.27568, 1.27443, 1.27791, 1.2697, 1.27025, 1.26951, 1.26801, 1.2682, 1.26796, 1.27145, 1.2734, 1.27049, 1.27036, 1.27006, 1.27041, 1.27248, 1.26872, 1.26818, 1.26774, 1.26906, 1.27287, 1.27848, 1.27382, 1.27423, 1.277, 1.27343, 1.27181, 1.27028, 1.27292, 1.27212, 1.2723, 1.27356, 1.28123, 1.27899, 1.27644, 1.27669, 1.2764, 1.28171, 1.27906, 1.27998, 1.28152, 1.27869, 1.27849, 1.27841, 1.27755, 1.27864, 1.27809, 1.27831, 1.2788, 1.28145, 1.283, 1.28194, 1.28776, 1.28199, 1.28537, 1.2853, 1.28532, 1.28508, 1.29529, 1.30585, 1.28589, 1.28592, 1.2898, 1.29176, 1.29272, 1.29321, 1.29338, 1.2926, 1.2954, 1.29495, 1.29479, 1.29534, 1.29461, 1.29647, 1.2967, 1.30604, 1.29865, 1.30041, 1.30013, 1.30053, 1.30737, 1.30336, 1.30245, 1.30606, 1.30593, 1.30394, 1.30475, 1.30651, 1.30913, 1.30899, 1.30931, 1.30913, 1.3101, 1.30989, 1.31066, 1.31278, 1.31407, 1.31398, 1.31371, 1.32541, 1.31578, 1.31762, 1.31647, 1.32006, 1.31889, 1.32244, 1.3203, 1.31972, 1.32083, 1.32252, 1.32321, 1.34524, 1.32643, 1.32423, 1.32563, 1.32658, 1.32621, 1.34095, 1.33462, 1.3412, 1.33468, 1.33527, 1.33777, 1.33728, 1.33712, 1.33857, 1.34803, 1.3437, 1.35851, 1.35805, 1.35056, 1.32713, 1.35719, 1.35314, 1.4067, 1.43712, 1.48579, 1.48776, 1.48973, 1.49614, 1.48641, 1.4803, 1.47739, 1.46232, 1.44462, 1.4097, 1.36411, 1.35355, 1.33022, 1.34637, 1.38197, 1.37747, 1.38655, 1.37587, 1.39027, 1.3993, 1.37511, 1.38907, 1.40319, 1.3852, 1.39455, 1.38562, 1.38595, 1.38838, 1.38779, 1.38937, 1.39329, 1.39457, 1.39383, 1.39702, 1.39687, 1.39679, 1.39813, 1.39888, 1.39958, 1.40163, 1.40511, 1.40558, 1.40888, 1.41162, 1.40856, 1.40877, 1.41225, 1.41687, 1.41988, 1.42242, 1.4214, 1.42387, 1.42502, 1.42452, 1.4265, 1.42973
1.27519, 1.27703, 1.27369, 1.27305, 1.27373, 1.27261, 1.27433, 1.27255, 1.2722, 1.2722, 1.27127, 1.27246, 1.27124, 1.27362, 1.26933, 1.26853, 1.26857, 1.26916, 1.26701, 1.26721, 1.26734, 1.26599, 1.26644, 1.26699, 1.26793, 1.26972, 1.2683, 1.26632, 1.26613, 1.26826, 1.27456, 1.26787, 1.26785, 1.27485, 1.26718, 1.2672, 1.2679, 1.2719, 1.27103, 1.27154, 1.28531, 1.28186, 1.27573, 1.27793, 1.27314, 1.27039, 1.35697, 1.37269, 1.41035, 1.49967, 1.49655, 1.49299, 1.49543, 1.49316, 1.47473, 1.44394, 1.39134, 1.3478, 1.33247, 1.25459, 1.23552, 1.28473, 1.28173, 1.28923, 1.30507, 1.28462, 1.29194, 1.26811, 1.26674, 1.26789, 1.26811, 1.26788, 1.26983, 1.2683, 1.26837, 1.26859, 1.26918, 1.26997, 1.27068, 1.27053, 1.27057, 1.27111, 1.27145, 1.27179, 1.27183, 1.27187, 1.27026, 1.26958, 1.27042, 1.27005, 1.27037, 1.27103, 1.26962, 1.27216, 1.27561, 1.27298, 1.27262, 1.2754, 1.27627, 1.27763, 1.27807, 1.27851, 1.27738, 1.27798, 1.27775, 1.27726, 1.27586, 1.27776, 1.27271, 1.27315, 1.27267, 1.2725, 1.27301, 1.27964, 1.2756, 1.27489, 1.27733, 1.27718, 1.30304, 1.28265, 1.28439, 1.28464, 1.28462, 1.2841, 1.2819, 1.285, 1.2855, 1.28464, 1.2848, 1.2881, 1.2873, 1.28743, 1.28797, 1.28936, 1.29147, 1.31131, 1.28874, 1.29018, 1.29047, 1.28979, 1.2914, 1.29351, 1.29877, 1.30148, 1.29811, 1.29685, 1.29847, 1.30212, 1.29992, 1.3, 1.29728, 1.29971, 1.30034, 1.30009, 1.30542, 1.30504, 1.30652, 1.30442, 1.30417, 1.30738, 1.30731, 1.3104, 1.31265, 1.30947, 1.31225, 1.31456, 1.31448, 1.31289, 1.31919, 1.31574, 1.31573, 1.34076, 1.32105, 1.32112, 1.32411, 1.32345, 1.3242, 1.32283, 1.32611, 1.32738, 1.32692, 1.32917, 1.33434, 1.34378, 1.35184, 1.33349, 1.33426, 1.3346, 1.35476, 1.33782, 1.34843, 1.34629, 1.34696, 1.34933, 1.35739, 1.33016, 1.34767, 1.38057, 1.39239, 1.42615, 1.48235, 1.46484, 1.47983, 1.48468, 1.48892, 1.47922, 1.46263, 1.45295, 1.46105, 1.41718, 1.40991, 1.38973, 1.34472, 1.35489, 1.37527, 1.38505, 1.38448, 1.38469, 1.38537, 1.40151, 1.39571, 1.39863, 1.40313, 1.39206, 1.37943, 1.38465, 1.38813, 1.39973, 1.40737, 1.39169, 1.39016, 1.39343, 1.39252, 1.39536, 1.39678, 1.39896, 1.39901, 1.40207, 1.4023, 1.40502, 1.40554, 1.40501, 1.40889, 1.41288, 1.41243, 1.41005, 1.4162, 1.41479, 1.42264, 1.4229, 1.42007, 1.42423, 1.42636, 1.43724, 1.42987, 1.43011
1.2747, 1.27416, 1.27793, 1.28222, 1.27443, 1.27274, 1.27189, 1.2711, 1.269, 1.26909, 1.2694, 1.27097, 1.27134, 1.26957, 1.27039, 1.28804, 1.26843, 1.28212, 1.27101, 1.26787, 1.26947, 1.26761, 1.26736, 1.26777, 1.26754, 1.26867, 1.2676, 1.26801, 1.26732, 1.26958, 1.28821, 1.26759, 1.2849, 1.29408, 1.28171, 1.27214, 1.26424, 1.26716, 1.26682, 1.27632, 1.27904, 1.2711, 1.27774, 1.27209, 1.24782, 1.28505, 1.306, 1.35634, 1.41876, 1.45212, 1.45581, 1.50024, 1.51732, 1.51033, 1.4958, 1.45146, 1.41211, 1.35564, 1.32086, 1.27228, 1.23662, 1.26862, 1.2786, 1.29231, 1.27783, 1.27504, 1.27541, 1.26826, 1.2658, 1.27394, 1.26477, 1.2649, 1.26579, 1.2681, 1.26739, 1.26552, 1.26518, 1.26417, 1.26388, 1.26315, 1.2622, 1.26553, 1.26734, 1.27434, 1.27099, 1.27067, 1.2719, 1.27106, 1.27028, 1.27184, 1.27452, 1.27559, 1.27802, 1.27556, 1.27762, 1.27747, 1.27738, 1.27844, 1.2804, 1.28243, 1.2827, 1.28235, 1.28164, 1.28134, 1.27986, 1.27951, 1.27945, 1.27931, 1.27783, 1.27721, 1.27824, 1.27738, 1.27715, 1.27764, 1.27911, 1.27919, 1.28002, 1.28126, 1.28161, 1.28271, 1.28313, 1.28469, 1.28551, 1.28662, 1.28548, 1.28503, 1.28476, 1.28472, 1.28744, 1.28566, 1.28574, 1.28754, 1.28558, 1.2876, 1.28697, 1.28667, 1.28842, 1.28919, 1.28847, 1.28894, 1.29026, 1.29184, 1.29325, 1.29274, 1.29495, 1.29553, 1.29787, 1.29866, 1.2989, 1.29973, 1.29993, 1.3012, 1.29981, 1.30206, 1.29979, 1.29862, 1.29927, 1.29857, 1.29945, 1.30143, 1.30464, 1.30346, 1.30364, 1.30478, 1.30671, 1.3083, 1.30878, 1.30934, 1.31246, 1.30919, 1.31032, 1.31296, 1.31457, 1.31537, 1.31697, 1.31626, 1.31934, 1.31859, 1.31943, 1.32192, 1.32515, 1.32439, 1.3246, 1.32966, 1.32722, 1.32616, 1.32777, 1.33725, 1.33056, 1.33154, 1.33304, 1.35197, 1.34329, 1.34384, 1.34579, 1.3055, 1.32651, 1.36447, 1.39666, 1.4718, 1.46248, 1.48833, 1.46212, 1.4954, 1.49189, 1.48895, 1.49106, 1.4689, 1.45256, 1.45164, 1.40537, 1.39309, 1.34283, 1.37616, 1.37743, 1.38309, 1.37257, 1.3678, 1.36852, 1.36841, 1.36831, 1.38855, 1.37759, 1.38793, 1.37615, 1.37518, 1.38572, 1.39574, 1.38908, 1.41199, 1.38897, 1.3938, 1.39765, 1.42087, 1.39999, 1.39991, 1.40248, 1.40644, 1.40401, 1.41243, 1.40595, 1.40629, 1.40868, 1.40819, 1.40999, 1.41634, 1.41879, 1.41401, 1.41433, 1.41944, 1.42317, 1.4225, 1.42229, 1.42486, 1.427, 1.42848
1.27092, 1.2739, 1.2715, 1.27263, 1.27207, 1.27126, 1.27438, 1.2717, 1.26908, 1.27164, 1.27119, 1.27538, 1.26857, 1.27083, 1.26912, 1.26732, 1.26759, 1.26686, 1.26526, 1.26542, 1.26491, 1.26491, 1.26353, 1.26731, 1.26613, 1.2645, 1.26201, 1.2624, 1.26354, 1.26495, 1.26835, 1.26371, 1.26226, 1.26312, 1.26529, 1.26619, 1.26419, 1.26497, 1.26449, 1.27618, 1.28442, 1.2817, 1.28421, 1.25431, 1.26786, 1.30115, 1.33727, 1.36572, 1.42197, 1.46006, 1.46203, 1.50681, 1.50687, 1.49616, 1.47576, 1.4177, 1.39472, 1.36441, 1.30926, 1.25456, 1.25883, 1.26882, 1.27333, 1.2805, 1.27835, 1.28583, 1.26425, 1.26173, 1.26383, 1.26291, 1.26346, 1.264, 1.26399, 1.26147, 1.2618, 1.28394, 1.26042, 1.26031, 1.26025, 1.25755, 1.25753, 1.26466, 1.26739, 1.26789, 1.26954, 1.26897, 1.27039, 1.26885, 1.26957, 1.26895, 1.26792, 1.26952, 1.32631, 1.2734, 1.2748, 1.27568, 1.27474, 1.27488, 1.29228, 1.27617, 1.27637, 1.27677, 1.27988, 1.27861, 1.27824, 1.27682, 1.27488, 1.27623, 1.27655, 1.27565, 1.27547, 1.27514, 1.27649, 1.27755, 1.2778, 1.27979, 1.28166, 1.27982, 1.284, 1.28493, 1.28526, 1.28623, 1.28728, 1.28721, 1.28664, 1.28841, 1.28446, 1.28481, 1.2876, 1.30169, 1.28797, 1.28782, 1.28919, 1.28879, 1.2878, 1.28774, 1.28773, 1.28751, 1.28755, 1.28785, 1.29009, 1.29209, 1.295, 1.29849, 1.29717, 1.29838, 1.30029, 1.29995, 1.30141, 1.302, 1.30598, 1.30303, 1.30459, 1.30727, 1.30358, 1.30397, 1.30328, 1.30168, 1.30179, 1.30128, 1.30326, 1.30247, 1.305, 1.30496, 1.30747, 1.30831, 1.30702, 1.31016, 1.30969, 1.31101, 1.31271, 1.31436, 1.31327, 1.31774, 1.31898, 1.32028, 1.32694, 1.32606, 1.32056, 1.32288, 1.32338, 1.32351, 1.32725, 1.34218, 1.32669, 1.33812, 1.3305, 1.34671, 1.33308, 1.34793, 1.34844, 1.34127, 1.34484, 1.35177, 1.34007, 1.31833, 1.31449, 1.35449, 1.38639, 1.42822, 1.4475, 1.50195, 1.48931, 1.49153, 1.49551, 1.49558, 1.48116, 1.43806, 1.41568, 1.42567, 1.38145, 1.39674, 1.35783, 1.33323, 1.36508, 1.3829, 1.3715, 1.37274, 1.36833, 1.37523, 1.36874, 1.37498, 1.3707, 1.37134, 1.37218, 1.37243, 1.37851, 1.37853, 1.37831, 1.37957, 1.38447, 1.38589, 1.39017, 1.39434, 1.39162, 1.39269, 1.39569, 1.39591, 1.39707, 1.40197, 1.40157, 1.40092, 1.41003, 1.40557, 1.40257, 1.40493, 1.40712, 1.41236, 1.40911, 1.41257, 1.41817, 1.4178, 1.42241, 1.41904, 1.4269, 1.42593
1.27299, 1.27092, 1.27093, 1.27189, 1.26839, 1.2708, 1.26977, 1.26802, 1.27011, 1.26953, 1.26897, 1.2705, 1.26913, 1.26789, 1.26995, 1.26789, 1.26653, 1.26692, 1.26679, 1.26718, 1.26898, 1.26789, 1.26697, 1.26735, 1.26642, 1.26862, 1.26734, 1.26565, 1.26837, 1.26671, 1.26523, 1.26585, 1.26524, 1.2655, 1.2641, 1.26163, 1.26293, 1.26346, 1.26468, 1.28098, 1.28176, 1.27018, 1.26855, 1.24431, 1.25263, 1.28074, 1.31931, 1.35832, 1.42338, 1.47188, 1.47632, 1.49082, 1.49854, 1.47866, 1.46658, 1.45195, 1.38887, 1.34297, 1.30961, 1.27446, 1.24097, 1.28515, 1.27834, 1.27339, 1.26657, 1.27009, 1.26906, 1.26429, 1.26396, 1.26031, 1.26043, 1.26027, 1.27524, 1.26047, 1.25925, 1.25787, 1.25792, 1.25702, 1.25795, 1.25733, 1.25875, 1.26018, 1.26413, 1.26182, 1.26386, 1.26478, 1.26536, 1.26337, 1.26389, 1.26549, 1.26665, 1.27087, 1.26786, 1.27096, 1.27032, 1.27232, 1.2712, 1.27418, 1.27462, 1.27694, 1.27403, 1.27434, 1.2746, 1.27331, 1.27438, 1.27325, 1.27248, 1.27362, 1.27557, 1.2743, 1.27422, 1.27442, 1.27309, 1.27134, 1.2737, 1.27752, 1.27502, 1.27665, 1.28023, 1.28087, 1.28421, 1.28529, 1.28226, 1.2813, 1.28029, 1.28158, 1.28198, 1.28233, 1.28126, 1.29078, 1.28435, 1.28258, 1.28193, 1.28611, 1.28464, 1.28437, 1.28299, 1.28382, 1.28221, 1.2815, 1.28309, 1.29263, 1.29215, 1.29531, 1.29653, 1.29697, 1.29971, 1.29949, 1.30014, 1.30035, 1.30055, 1.30048, 1.30144, 1.30452, 1.30023, 1.30073, 1.30162, 1.30143, 1.30173, 1.30266, 1.30309, 1.30483, 1.30433, 1.30284, 1.30645, 1.30799, 1.30722, 1.30988, 1.31146, 1.3115, 1.31414, 1.31398, 1.31574, 1.31682, 1.31838, 1.32026, 1.33672, 1.32377, 1.32238, 1.32354, 1.33423, 1.32655, 1.33057, 1.33656, 1.33045, 1.33972, 1.34099, 1.33302, 1.35056, 1.33685, 1.34775, 1.34513, 1.34701, 1.35738, 1.35695, 1.33318, 1.35017, 1.42028, 1.42001, 1.45559, 1.46188, 1.45757, 1.48156, 1.47364, 1.4724, 1.51161, 1.44821, 1.41586, 1.4068, 1.40474, 1.38221, 1.35385, 1.37068, 1.34742, 1.36538, 1.38661, 1.39642, 1.38394, 1.37279, 1.3791, 1.37738, 1.37241, 1.37186, 1.37385, 1.37244, 1.3803, 1.37842, 1.37986, 1.38356, 1.38317, 1.38201, 1.38334, 1.3858, 1.38882, 1.38907, 1.39277, 1.39445, 1.39231, 1.39244, 1.3959, 1.39693, 1.40134, 1.40302, 1.40291, 1.40349, 1.40641, 1.40901, 1.40658, 1.41021, 1.41006, 1.41625, 1.41617, 1.41874, 1.41922, 1.4196, 1.42264
