1.25454, 1.25411, 1.25322, 1.25066, 1.25215, 1.24957, 1.24585, 1.24677, 1.24804, 1.2483, 1.24928, 1.24996, 1.24967, 1.24769, 1.24893, 1.24572, 1.24634, 1.24421, 1.24214, 1.24242, 1.24261, 1.24737, 1.24666, 1.2616, 1.24088, 1.37224, 1.49236, 1.6067, 1.45851, 1.21043, 1.25251, 1.25405, 1.25043, 1.24451, 1.24438, 1.24273, 1.24299, 1.24401, 1.24618, 1.24556, 1.24749, 1.24671, 1.24648, 1.24749, 1.249, 1.25042, 1.25205, 1.25295, 1.25337, 1.25353, 1.25327, 1.2496, 1.25097, 1.25136, 1.25119, 1.25315, 1.25367, 1.2528, 1.25355, 1.25498, 1.25669, 1.25804, 1.25911, 1.26137, 1.26105, 1.26086, 1.26404, 1.25898, 1.26025, 1.26229, 1.26759, 1.26659, 1.26784, 1.26994, 1.27009, 1.27187, 1.27407, 1.2726, 1.27473, 1.27523, 1.27742, 1.2776, 1.28168, 1.28363, 1.28478, 1.29118, 1.29424, 1.29548, 1.29737, 1.29952, 1.30034, 1.29739, 1.29603, 1.29701, 1.32018, 1.30384, 1.30616, 1.31275, 1.32133, 1.32221, 1.30078, 1.40131, 1.52153, 1.87492, 1.34702, 1.30891, 1.33608, 1.33267, 1.34017, 1.34357, 1.34311, 1.3395, 1.34049, 1.34423, 1.34624, 1.34833, 1.35755, 1.36119, 1.35858, 1.36224, 1.36272, 1.36537, 1.36724, 1.36701, 1.37856, 1.37477, 1.37534, 1.37802, 
1.2616, 1.25864, 1.25532, 1.25715, 1.25552, 1.25618, 1.25648, 1.25483, 1.25423, 1.25415, 1.25203, 1.2504, 1.25308, 1.25342, 1.25292, 1.25043, 1.25835, 1.24717, 1.24696, 1.26355, 1.24495, 1.24844, 1.25068, 1.25474, 1.28889, 1.40665, 1.49021, 1.88179, 1.46941, 1.24439, 1.26758, 1.25362, 1.25376, 1.25537, 1.25241, 1.24765, 1.24609, 1.24593, 1.24644, 1.24832, 1.25018, 1.24909, 1.24609, 1.24472, 1.24606, 1.24862, 1.257, 1.2526, 1.25175, 1.25426, 1.25658, 1.25673, 1.25645, 1.2546, 1.25145, 1.25169, 1.25596, 1.25379, 1.25486, 1.25686, 1.26022, 1.25911, 1.26113, 1.26156, 1.26361, 1.26152, 1.26209, 1.26199, 1.2672, 1.27059, 1.27378, 1.27596, 1.27485, 1.27605, 1.27543, 1.27556, 1.2772, 1.27775, 1.28096, 1.27981, 1.28383, 1.28619, 1.28877, 1.28921, 1.29378, 1.29433, 1.2966, 1.29831, 1.30006, 1.30037, 1.30134, 1.30093, 1.30097, 1.30198, 1.30594, 1.32031, 1.30955, 1.31382, 1.33439, 1.33491, 1.35547, 1.39955, 1.71702, 2.25935, 1.33284, 1.3209, 1.33718, 1.34149, 1.33691, 1.34243, 1.35063, 1.34834, 1.34433, 1.36157, 1.35064, 1.35513, 1.35668, 1.36765, 1.36481, 1.37271, 1.37813, 1.37835, 1.38194, 1.37815, 1.38939, 1.38419, 1.38382, 1.3961, 
1.2715, 1.26849, 1.26509, 1.26663, 1.26727, 1.26928, 1.26651, 1.26364, 1.26333, 1.26027, 1.2605, 1.2606, 1.26324, 1.26454, 1.26347, 1.25852, 1.25558, 1.25769, 1.2546, 1.25733, 1.25995, 1.26198, 1.27137, 1.26746, 1.27244, 1.36534, 1.45312, 1.4523, 1.35331, 1.20344, 1.28387, 1.26371, 1.26137, 1.26157, 1.26119, 1.25653, 1.25074, 1.25765, 1.25323, 1.25563, 1.25534, 1.2558, 1.25686, 1.2648, 1.25473, 1.25698, 1.25958, 1.25828, 1.26133, 1.26066, 1.26354, 1.26214, 1.26148, 1.26109, 1.258, 1.25948, 1.26034, 1.26032, 1.26278, 1.26718, 1.26836, 1.27044, 1.26933, 1.27098, 1.27068, 1.27111, 1.27249, 1.27299, 1.27476, 1.27823, 1.28077, 1.28228, 1.28465, 1.28447, 1.28176, 1.28219, 1.28132, 1.28097, 1.28295, 1.28565, 1.31706, 1.28601, 1.28937, 1.28863, 1.29162, 1.29285, 1.29533, 1.2962, 1.30228, 1.3009, 1.30052, 1.30255, 1.30207, 1.30527, 1.30627, 1.30926, 1.30873, 1.31864, 1.31498, 1.32727, 1.35169, 1.50511, 1.46235, 1.46402, 1.35782, 1.32912, 1.33642, 1.3349, 1.33399, 1.3352, 1.34093, 1.3441, 1.34706, 1.35475, 1.35645, 1.35717, 1.36059, 1.3676, 1.37001, 1.3741, 1.3767, 1.37781, 1.3819, 1.3889, 1.38308, 1.382, 1.38582, 1.38776, 
1.27484, 1.2746, 1.27491, 1.27209, 1.27306, 1.27219, 1.27146, 1.27094, 1.2687, 1.2696, 1.26783, 1.26667, 1.26725, 1.26766, 1.26684, 1.26728, 1.26151, 1.2599, 1.26076, 1.26211, 1.26562, 1.26716, 1.28048, 1.26414, 1.26821, 1.40317, 1.63911, 1.78708, 1.43364, 1.24136, 1.2736, 1.28172, 1.26247, 1.26174, 1.26328, 1.26007, 1.26357, 1.25763, 1.25886, 1.26096, 1.26444, 1.26259, 1.26082, 1.26698, 1.26437, 1.26498, 1.26535, 1.26448, 1.26389, 1.2636, 1.26443, 1.27146, 1.26345, 1.26443, 1.2651, 1.26576, 1.2659, 1.27083, 1.27398, 1.27766, 1.27552, 1.27458, 1.27788, 1.27827, 1.27983, 1.28117, 1.28085, 1.27885, 1.28102, 1.28451, 1.285, 1.28546, 1.28606, 1.28765, 1.28766, 1.28886, 1.29215, 1.29174, 1.29353, 1.29306, 1.29565, 1.29655, 1.29716, 1.30036, 1.32342, 1.30109, 1.3024, 1.30407, 1.30568, 1.30269, 1.3087, 1.31191, 1.31568, 1.3161, 1.31663, 1.31779, 1.314, 1.31657, 1.33651, 1.34237, 1.33997, 1.44934, 1.56834, 1.5619, 1.45475, 1.32222, 1.34761, 1.35734, 1.34779, 1.35024, 1.36215, 1.3607, 1.36033, 1.36203, 1.36167, 1.36298, 1.36955, 1.37388, 1.37858, 1.3829, 1.38172, 1.39199, 1.39223, 1.40344, 1.39277, 1.40358, 1.39632, 1.3968, 
1.27468, 1.28084, 1.27351, 1.27201, 1.27263, 1.27196, 1.27077, 1.27071, 1.26762, 1.27252, 1.26682, 1.26563, 1.26647, 1.26271, 1.2672, 1.26341, 1.26171, 1.26025, 1.26036, 1.26017, 1.26223, 1.26401, 1.27834, 1.27885, 1.2578, 1.393, 1.4075, 1.68136, 1.25083, 1.21813, 1.26571, 1.2619, 1.2599, 1.26056, 1.25754, 1.25876, 1.26121, 1.26627, 1.2609, 1.26157, 1.26193, 1.26473, 1.26433, 1.26575, 1.26698, 1.26791, 1.26935, 1.26951, 1.27217, 1.26815, 1.26471, 1.26725, 1.26678, 1.26683, 1.26836, 1.27018, 1.27274, 1.27259, 1.27715, 1.27605, 1.27965, 1.28143, 1.28031, 1.28295, 1.28203, 1.28155, 1.28139, 1.28158, 1.28422, 1.28496, 1.28628, 1.28544, 1.2886, 1.29031, 1.29454, 1.29495, 1.29549, 1.29611, 1.29927, 1.30302, 1.30432, 1.30587, 1.30963, 1.31186, 1.31082, 1.31194, 1.31202, 1.3128, 1.31315, 1.31472, 1.31432, 1.31795, 1.31904, 1.32045, 1.33004, 1.33122, 1.32893, 1.33254, 1.34204, 1.34953, 1.34141, 1.51203, 1.77931, 2.18492, 1.41355, 1.32517, 1.35622, 1.359, 1.353, 1.37538, 1.37197, 1.36384, 1.36392, 1.37567, 1.36796, 1.36893, 1.37253, 1.37791, 1.38107, 1.37941, 1.3835, 1.38554, 1.39252, 1.39896, 1.3981, 1.40936, 1.40556, 1.40568, 
1.2796, 1.27875, 1.28003, 1.27813, 1.2781, 1.27648, 1.27294, 1.27452, 1.27261, 1.27114, 1.27199, 1.27047, 1.26738, 1.2671, 1.26668, 1.26549, 1.2655, 1.26569, 1.26484, 1.26393, 1.26496, 1.26764, 1.27088, 1.26978, 1.26041, 1.3643, 1.58629, 1.662, 1.30264, 1.27108, 1.27454, 1.29121, 1.26303, 1.26352, 1.26262, 1.26186, 1.26262, 1.26298, 1.26403, 1.26382, 1.26417, 1.267, 1.26739, 1.26704, 1.26934, 1.26846, 1.27223, 1.27229, 1.27266, 1.27197, 1.27214, 1.27141, 1.27278, 1.2736, 1.27449, 1.27681, 1.27742, 1.27873, 1.27746, 1.29347, 1.28043, 1.28059, 1.28193, 1.28363, 1.28165, 1.28149, 1.28186, 1.28276, 1.28356, 1.29865, 1.28575, 1.28579, 1.28961, 1.29342, 1.29431, 1.29351, 1.29221, 1.2948, 1.29702, 1.29692, 1.30038, 1.30312, 1.30652, 1.30859, 1.30899, 1.30766, 1.31851, 1.31446, 1.32848, 1.32075, 1.31456, 1.31459, 1.31707, 1.32072, 1.32422, 1.32405, 1.32682, 1.35232, 1.35277, 1.34069, 1.31602, 1.49926, 1.60344, 1.61306, 1.34569, 1.35242, 1.35593, 1.35426, 1.3567, 1.3593, 1.36578, 1.3694, 1.36912, 1.37177, 1.37286, 1.37446, 1.38033, 1.38094, 1.38489, 1.3842, 1.38864, 1.39266, 1.39423, 1.39577, 1.40211, 1.40125, 1.40424, 1.40764, 
1.28465, 1.28367, 1.2847, 1.28233, 1.28427, 1.28421, 1.28172, 1.2794, 1.27794, 1.29094, 1.27609, 1.27351, 1.28194, 1.28154, 1.2729, 1.27167, 1.27384, 1.27068, 1.26926, 1.27064, 1.26753, 1.27132, 1.28739, 1.27693, 1.27632, 1.38799, 1.52848, 2.12434, 1.30677, 1.2623, 1.27086, 1.26767, 1.26462, 1.26418, 1.26287, 1.26426, 1.26366, 1.26578, 1.26862, 1.26755, 1.26962, 1.26987, 1.27056, 1.27024, 1.27036, 1.27384, 1.27273, 1.27385, 1.27423, 1.27217, 1.27165, 1.27216, 1.27392, 1.27604, 1.27629, 1.27616, 1.27735, 1.27744, 1.27379, 1.27519, 1.2763, 1.27874, 1.28053, 1.28355, 1.28495, 1.28567, 1.28595, 1.28725, 1.28579, 1.28866, 1.28605, 1.29085, 1.29077, 1.29202, 1.29549, 1.29921, 1.29985, 1.29946, 1.32429, 1.30196, 1.30898, 1.30613, 1.30762, 1.30998, 1.30938, 1.31038, 1.31227, 1.31282, 1.31406, 1.31697, 1.31868, 1.31915, 1.32089, 1.32187, 1.32365, 1.3253, 1.32735, 1.33802, 1.34188, 1.3399, 1.33166, 1.52332, 1.66282, 1.81212, 1.45115, 1.34015, 1.36503, 1.36485, 1.36977, 1.36538, 1.37211, 1.37235, 1.3722, 1.37306, 1.37548, 1.38238, 1.38352, 1.38702, 1.39012, 1.39152, 1.39517, 1.3965, 1.39867, 1.40332, 1.40317, 1.40553, 1.41182, 1.4134, 
1.28658, 1.28521, 1.2842, 1.2867, 1.28842, 1.2905, 1.28764, 1.28622, 1.28546, 1.28439, 1.28168, 1.27912, 1.28002, 1.28188, 1.27903, 1.27625, 1.27651, 1.27518, 1.27505, 1.27868, 1.27278, 1.27196, 1.27487, 1.27857, 1.25673, 1.37919, 1.51447, 2.00135, 1.29688, 1.27484, 1.27838, 1.27714, 1.28981, 1.26924, 1.2718, 1.27399, 1.27251, 1.27201, 1.27136, 1.27359, 1.27412, 1.27165, 1.27603, 1.27537, 1.27504, 1.27762, 1.27742, 1.27804, 1.27803, 1.27858, 1.27916, 1.2796, 1.28187, 1.28176, 1.28203, 1.28318, 1.28466, 1.28745, 1.28596, 1.28568, 1.28933, 1.29059, 1.29263, 1.29502, 1.29454, 1.29388, 1.29325, 1.29511, 1.29493, 1.29685, 1.29783, 1.29636, 1.29868, 1.30532, 1.30843, 1.31238, 1.3134, 1.3089, 1.30847, 1.30976, 1.30901, 1.3102, 1.31302, 1.31522, 1.31687, 1.3178, 1.31696, 1.3189, 1.31969, 1.32326, 1.32305, 1.32744, 1.32797, 1.34407, 1.32987, 1.33275, 1.33537, 1.34624, 1.3535, 1.35402, 1.33556, 1.46097, 1.6062, 1.6589, 1.38369, 1.33331, 1.36716, 1.37465, 1.36122, 1.36594, 1.38456, 1.38171, 1.37788, 1.37834, 1.38172, 1.38329, 1.38919, 1.3878, 1.39442, 1.39156, 1.39383, 1.39831, 1.4017, 1.4033, 1.41679, 1.42027, 1.42337, 1.42143, 
1.2904, 1.28852, 1.29068, 1.29051, 1.29131, 1.29296, 1.29267, 1.29187, 1.28951, 1.28754, 1.28687, 1.28498, 1.28435, 1.28701, 1.28456, 1.28429, 1.28491, 1.29523, 1.28446, 1.28478, 1.28335, 1.28252, 1.28829, 1.28551, 1.28679, 1.41998, 1.5405, 1.55351, 1.56378, 1.27233, 1.28946, 1.28856, 1.28501, 1.28283, 1.28319, 1.28375, 1.28262, 1.28171, 1.28144, 1.28046, 1.28049, 1.28095, 1.28183, 1.28205, 1.28246, 1.28155, 1.28289, 1.28319, 1.28669, 1.28602, 1.28686, 1.28885, 1.2898, 1.2899, 1.30262, 1.29555, 1.29539, 1.29966, 1.30095, 1.30177, 1.30336, 1.30125, 1.30182, 1.29957, 1.30161, 1.30512, 1.29867, 1.3, 1.30048, 1.30072, 1.30168, 1.30377, 1.31919, 1.30838, 1.31204, 1.31256, 1.3153, 1.31664, 1.3105, 1.31202, 1.31335, 1.35457, 1.32124, 1.32284, 1.32329, 1.32526, 1.32366, 1.32477, 1.32656, 1.32906, 1.33579, 1.33453, 1.33929, 1.33684, 1.34174, 1.34349, 1.34366, 1.35012, 1.36008, 1.35035, 1.40024, 1.47623, 1.70167, 1.65121, 1.43812, 1.33923, 1.36935, 1.3714, 1.37777, 1.38979, 1.38448, 1.37739, 1.40638, 1.38413, 1.38739, 1.38935, 1.38975, 1.39267, 1.39279, 1.39834, 1.3991, 1.40333, 1.40388, 1.40875, 1.41681, 1.42599, 1.42556, 1.43139, 
1.29458, 1.29265, 1.29593, 1.29478, 1.29361, 1.29795, 1.29438, 1.29466, 1.29403, 1.28973, 1.28946, 1.28747, 1.28634, 1.28774, 1.28771, 1.29232, 1.29328, 1.29375, 1.29177, 1.2919, 1.28624, 1.2877, 1.28682, 1.28893, 1.29659, 1.43906, 1.51229, 1.91991, 1.3791, 1.27458, 1.29457, 1.28655, 1.28576, 1.28729, 1.28827, 1.28794, 1.28638, 1.2851, 1.28372, 1.28505, 1.28686, 1.28838, 1.28923, 1.28919, 1.29066, 1.29083, 1.29128, 1.29085, 1.2891, 1.29451, 1.29259, 1.29441, 1.29526, 1.29851, 1.29932, 1.30305, 1.30464, 1.30499, 1.3069, 1.30812, 1.30737, 1.30685, 1.30565, 1.30658, 1.3058, 1.30573, 1.30835, 1.30746, 1.30667, 1.30855, 1.30884, 1.30915, 1.31221, 1.3163, 1.31693, 1.31883, 1.32023, 1.31927, 1.31888, 1.32086, 1.32368, 1.31978, 1.3256, 1.32818, 1.32971, 1.33157, 1.33189, 1.33443, 1.33538, 1.33719, 1.33829, 1.34042, 1.34256, 1.34549, 1.34429, 1.3517, 1.35512, 1.35869, 1.36128, 1.36155, 1.36856, 1.56454, 1.83741, 1.89383, 1.50974, 1.36159, 1.38432, 1.37804, 1.37498, 1.37533, 1.37779, 1.3821, 1.38359, 1.38748, 1.39039, 1.39171, 1.39407, 1.39438, 1.39642, 1.40137, 1.40325, 1.40355, 1.40943, 1.41623, 1.41632, 1.42195, 1.42449, 1.42664, 
1.30168, 1.30089, 1.30048, 1.30037, 1.30145, 1.29913, 1.29918, 1.30166, 1.29587, 1.29657, 1.29741, 1.29687, 1.2946, 1.29187, 1.29253, 1.29369, 1.29426, 1.29544, 1.29509, 1.2947, 1.29585, 1.29335, 1.29355, 1.29273, 1.27515, 1.52046, 1.67686, 1.56876, 1.34316, 1.2902, 1.2922, 1.29041, 1.29037, 1.29011, 1.28957, 1.29091, 1.29092, 1.28896, 1.28966, 1.28934, 1.29218, 1.29306, 1.29391, 1.29516, 1.2926, 1.29247, 1.29213, 1.29329, 1.29355, 1.29285, 1.29317, 1.29389, 1.29497, 1.29543, 1.29798, 1.30015, 1.30294, 1.30369, 1.30419, 1.30558, 1.30503, 1.3053, 1.30655, 1.30572, 1.30558, 1.30867, 1.3089, 1.30819, 1.31034, 1.31061, 1.31261, 1.31268, 1.31511, 1.31836, 1.3218, 1.32439, 1.32171, 1.32244, 1.32093, 1.32258, 1.32252, 1.32687, 1.32956, 1.33258, 1.33534, 1.33839, 1.33896, 1.33835, 1.34036, 1.34148, 1.34176, 1.34388, 1.34585, 1.35008, 1.36559, 1.3551, 1.36189, 1.35717, 1.375, 1.37565, 1.371, 1.52006, 1.55308, 1.71292, 1.54482, 1.3545, 1.38929, 1.40305, 1.38776, 1.38518, 1.38832, 1.40344, 1.41352, 1.41252, 1.40238, 1.39815, 1.40896, 1.40335, 1.40489, 1.4069, 1.41131, 1.41411, 1.42045, 1.42321, 1.42738, 1.44303, 1.43317, 1.43613, 
1.30662, 1.3056, 1.3034, 1.30262, 1.30052, 1.3082, 1.29845, 1.30171, 1.30056, 1.2991, 1.29756, 1.29639, 1.29783, 1.29283, 1.29402, 1.29234, 1.29356, 1.29446, 1.2924, 1.29163, 1.29151, 1.29188, 1.3051, 1.29494, 1.27784, 1.404, 1.47086, 1.51232, 1.29197, 1.29962, 1.30907, 1.30349, 1.29107, 1.29058, 1.29236, 1.28907, 1.29132, 1.29162, 1.2938, 1.2936, 1.29263, 1.29459, 1.29342, 1.29584, 1.29563, 1.29874, 1.29808, 1.29854, 1.29657, 1.29926, 1.30066, 1.29832, 1.2964, 1.29887, 1.29728, 1.30124, 1.30182, 1.30164, 1.30296, 1.30148, 1.30233, 1.30217, 1.30146, 1.30226, 1.3117, 1.30518, 1.30743, 1.30935, 1.31289, 1.31624, 1.31762, 1.31685, 1.31952, 1.32083, 1.32143, 1.32236, 1.3225, 1.32519, 1.32743, 1.32893, 1.3284, 1.33041, 1.33252, 1.33473, 1.33721, 1.33969, 1.34253, 1.34455, 1.34685, 1.34959, 1.34984, 1.35106, 1.35341, 1.35465, 1.38542, 1.35977, 1.37097, 1.36791, 1.37083, 1.35017, 1.41105, 1.59552, 1.78688, 1.47136, 1.42922, 1.38132, 1.40252, 1.40912, 1.38981, 1.38956, 1.39267, 1.39596, 1.39903, 1.40002, 1.40256, 1.40722, 1.41069, 1.41546, 1.4156, 1.4166, 1.4196, 1.42767, 1.42805, 1.433, 1.43478, 1.45703, 1.44407, 1.45023, 
1.30854, 1.30514, 1.30408, 1.30337, 1.30531, 1.3053, 1.30248, 1.30211, 1.30242, 1.30294, 1.30183, 1.29809, 1.29578, 1.29157, 1.29219, 1.29277, 1.29693, 1.29804, 1.29733, 1.29624, 1.29479, 1.29847, 1.29823, 1.30156, 1.29145, 1.43245, 1.632, 1.66157, 1.3952, 1.30185, 1.29621, 1.29524, 1.30124, 1.29897, 1.29919, 1.29966, 1.29735, 1.29819, 1.29927, 1.30016, 1.30072, 1.30074, 1.30124, 1.30129, 1.30001, 1.29935, 1.30076, 1.30162, 1.30501, 1.3037, 1.30224, 1.30369, 1.30455, 1.30392, 1.30358, 1.30309, 1.30498, 1.30629, 1.30881, 1.3109, 1.31039, 1.30974, 1.30902, 1.30846, 1.3098, 1.30941, 1.31307, 1.3136, 1.31561, 1.31798, 1.31715, 1.31932, 1.31938, 1.32022, 1.3397, 1.32406, 1.32421, 1.32527, 1.32711, 1.32963, 1.33169, 1.33308, 1.33581, 1.33663, 1.33909, 1.34071, 1.34343, 1.34621, 1.34672, 1.34796, 1.34867, 1.35003, 1.35297, 1.35444, 1.35698, 1.35711, 1.36091, 1.37744, 1.3782, 1.37584, 1.44818, 1.48528, 1.73168, 1.93809, 1.45686, 1.38438, 1.39169, 1.3926, 1.38551, 1.38919, 1.3956, 1.39644, 1.39677, 1.40216, 1.40598, 1.40637, 1.41074, 1.41368, 1.41393, 1.41934, 1.4221, 1.42691, 1.43205, 1.43614, 1.43784, 1.44329, 1.44541, 1.44557, 
1.30928, 1.30659, 1.30702, 1.30649, 1.30528, 1.30681, 1.30956, 1.30939, 1.31005, 1.30753, 1.30357, 1.30279, 1.2997, 1.2967, 1.29473, 1.29501, 1.29597, 1.29804, 1.29897, 1.29929, 1.30124, 1.30371, 1.3092, 1.30617, 1.31149, 1.48798, 1.59962, 1.73566, 1.34835, 1.31613, 1.31536, 1.30712, 1.3089, 1.30626, 1.30531, 1.3036, 1.30173, 1.30114, 1.302, 1.30146, 1.30838, 1.30003, 1.29904, 1.30016, 1.29932, 1.29793, 1.29893, 1.30201, 1.30198, 1.30513, 1.30508, 1.30615, 1.30633, 1.30557, 1.30558, 1.30782, 1.31242, 1.31719, 1.31985, 1.32217, 1.32177, 1.32022, 1.31635, 1.31856, 1.31903, 1.31778, 1.31806, 1.31871, 1.31658, 1.31762, 1.31697, 1.31555, 1.31782, 1.32203, 1.32508, 1.32607, 1.32807, 1.3295, 1.33067, 1.3332, 1.33378, 1.33529, 1.33725, 1.33986, 1.34296, 1.34519, 1.35014, 1.34938, 1.35116, 1.35275, 1.35458, 1.35821, 1.35931, 1.36214, 1.36469, 1.36912, 1.3696, 1.37676, 1.37657, 1.38145, 1.36778, 1.55546, 1.8269, 2.13778, 1.50756, 1.38511, 1.39513, 1.39923, 1.4098, 1.3925, 1.39383, 1.40274, 1.4127, 1.412, 1.40952, 1.41206, 1.41415, 1.41684, 1.42231, 1.42283, 1.42393, 1.43011, 1.43449, 1.43729, 1.4411, 1.44308, 1.44751, 1.45103, 
1.31432, 1.31258, 1.31257, 1.31185, 1.31251, 1.31397, 1.31685, 1.31777, 1.31746, 1.31606, 1.31198, 1.30778, 1.30414, 1.30491, 1.30452, 1.2998, 1.30028, 1.30332, 1.30408, 1.30569, 1.30558, 1.30631, 1.30753, 1.30667, 1.29261, 1.4163, 1.62208, 1.64285, 1.28196, 1.30282, 1.30651, 1.30847, 1.30631, 1.30551, 1.30634, 1.3045, 1.30005, 1.30535, 1.30126, 1.30177, 1.30507, 1.3062, 1.30559, 1.30446, 1.30319, 1.30307, 1.30309, 1.30385, 1.30582, 1.30684, 1.307, 1.30806, 1.30674, 1.30679, 1.30738, 1.30941, 1.31353, 1.31416, 1.31546, 1.31876, 1.31816, 1.31991, 1.31904, 1.32198, 1.32283, 1.32455, 1.32552, 1.32479, 1.32372, 1.32572, 1.32476, 1.32579, 1.32553, 1.32849, 1.33278, 1.33592, 1.33951, 1.3408, 1.33964, 1.33871, 1.3419, 1.34078, 1.34043, 1.34184, 1.34512, 1.35035, 1.35208, 1.35163, 1.35468, 1.35653, 1.35724, 1.35999, 1.35959, 1.36324, 1.36444, 1.36581, 1.36579, 1.3718, 1.37416, 1.37547, 1.38674, 1.58538, 1.84869, 1.79028, 1.64322, 1.3621, 1.39214, 1.41258, 1.39672, 1.39547, 1.39822, 1.39845, 1.40225, 1.40563, 1.4241, 1.41026, 1.41542, 1.41886, 1.42075, 1.42523, 1.42646, 1.42764, 1.43628, 1.43669, 1.4389, 1.44007, 1.44667, 1.44662, 
1.31851, 1.31993, 1.31647, 1.31236, 1.31759, 1.31733, 1.3158, 1.31475, 1.31403, 1.31206, 1.30978, 1.30936, 1.30637, 1.30392, 1.3034, 1.30473, 1.3078, 1.33821, 1.32302, 1.32433, 1.31548, 1.31344, 1.31082, 1.32302, 1.31375, 1.36294, 1.37793, 1.95304, 1.30541, 1.31007, 1.30648, 1.30643, 1.30428, 1.30473, 1.30556, 1.30539, 1.30583, 1.30909, 1.31047, 1.32976, 1.31189, 1.31192, 1.31071, 1.31156, 1.31062, 1.30925, 1.31008, 1.31183, 1.31177, 1.31263, 1.31262, 1.31265, 1.31394, 1.3151, 1.31208, 1.31077, 1.31507, 1.31492, 1.31646, 1.31634, 1.3185, 1.32073, 1.32109, 1.32464, 1.32645, 1.32973, 1.32758, 1.32673, 1.32891, 1.32867, 1.32884, 1.32978, 1.33132, 1.33799, 1.34201, 1.34641, 1.34968, 1.34981, 1.34986, 1.34477, 1.34157, 1.34233, 1.3432, 1.34329, 1.34557, 1.35201, 1.35339, 1.35463, 1.35716, 1.35863, 1.35381, 1.35738, 1.36134, 1.36368, 1.36268, 1.36534, 1.37906, 1.38496, 1.3774, 1.35875, 1.44319, 1.49865, 1.73686, 1.77361, 1.56909, 1.3815, 1.39772, 1.40866, 1.40188, 1.40269, 1.40523, 1.40787, 1.40942, 1.41401, 1.41643, 1.41854, 1.41899, 1.42106, 1.42497, 1.42808, 1.43042, 1.43461, 1.43947, 1.45015, 1.44713, 1.45059, 1.44999, 1.44829, 
1.32281, 1.32226, 1.32121, 1.31986, 1.32092, 1.31979, 1.31865, 1.31756, 1.31644, 1.31593, 1.31328, 1.31184, 1.30872, 1.30675, 1.30638, 1.30774, 1.30875, 1.31134, 1.3151, 1.31613, 1.3174, 1.31683, 1.31599, 1.31483, 1.32594, 1.44678, 1.70119, 1.80772, 1.27754, 1.30731, 1.30733, 1.306, 1.30378, 1.30608, 1.30531, 1.30692, 1.30987, 1.31328, 1.31526, 1.31545, 1.31527, 1.31426, 1.31167, 1.30847, 1.30848, 1.30634, 1.30825, 1.31065, 1.31329, 1.31509, 1.33964, 1.32029, 1.32264, 1.32295, 1.32222, 1.32099, 1.32025, 1.32009, 1.31955, 1.3213, 1.32204, 1.32304, 1.32237, 1.32463, 1.32511, 1.32639, 1.32684, 1.3255, 1.32524, 1.32688, 1.33141, 1.33283, 1.33629, 1.33714, 1.34039, 1.34263, 1.34475, 1.34621, 1.34633, 1.34646, 1.3465, 1.34743, 1.34631, 1.34687, 1.34898, 1.3537, 1.35577, 1.35829, 1.36028, 1.35943, 1.35941, 1.36188, 1.36457, 1.36889, 1.36949, 1.38342, 1.39235, 1.37872, 1.38597, 1.38654, 1.4244, 1.60964, 1.74148, 1.74764, 1.59304, 1.40219, 1.41606, 1.40899, 1.412, 1.41609, 1.42272, 1.41344, 1.41611, 1.42026, 1.42549, 1.42554, 1.42716, 1.43134, 1.43247, 1.43657, 1.43582, 1.44379, 1.45111, 1.45347, 1.45487, 1.45647, 1.45952, 1.46064, 
1.32254, 1.32302, 1.32359, 1.32404, 1.32561, 1.32476, 1.32221, 1.31953, 1.31909, 1.31718, 1.31766, 1.31598, 1.3138, 1.31245, 1.31021, 1.31035, 1.31238, 1.31245, 1.31417, 1.31537, 1.31527, 1.31418, 1.31373, 1.31677, 1.29861, 1.36031, 1.50352, 1.84428, 1.30294, 1.31544, 1.31267, 1.31205, 1.31068, 1.31162, 1.31274, 1.3116, 1.31166, 1.31275, 1.31216, 1.31307, 1.31339, 1.31285, 1.31265, 1.31324, 1.3129, 1.31216, 1.31336, 1.31309, 1.31527, 1.31684, 1.31919, 1.31975, 1.33318, 1.32279, 1.32243, 1.32194, 1.3231, 1.32239, 1.32477, 1.32563, 1.32634, 1.3275, 1.32935, 1.32947, 1.33069, 1.33244, 1.33273, 1.33277, 1.33336, 1.33435, 1.33612, 1.33979, 1.33895, 1.33928, 1.34685, 1.34607, 1.34596, 1.35007, 1.34908, 1.34835, 1.3494, 1.34856, 1.3609, 1.35272, 1.35445, 1.35859, 1.35975, 1.36369, 1.36501, 1.36426, 1.36466, 1.37724, 1.36832, 1.3718, 1.37463, 1.37572, 1.37997, 1.3957, 1.3943, 1.38928, 1.39234, 1.57567, 1.79584, 1.79947, 1.66236, 1.36514, 1.40018, 1.40979, 1.40867, 1.4173, 1.41075, 1.41679, 1.41672, 1.41793, 1.42213, 1.42768, 1.42985, 1.4344, 1.43515, 1.45525, 1.44213, 1.44651, 1.45077, 1.45493, 1.46116, 1.46284, 1.46839, 1.46572, 
1.33014, 1.32686, 1.32609, 1.32483, 1.32274, 1.32146, 1.32113, 1.3199, 1.31935, 1.31886, 1.31758, 1.31869, 1.31801, 1.31733, 1.31767, 1.31844, 1.31642, 1.31516, 1.3209, 1.31706, 1.32284, 1.31509, 1.32064, 1.32024, 1.31293, 1.45815, 1.68204, 1.74434, 1.60342, 1.31326, 1.31979, 1.33097, 1.31647, 1.3161, 1.31765, 1.31574, 1.31339, 1.31412, 1.31464, 1.31686, 1.31304, 1.31242, 1.31271, 1.3106, 1.31171, 1.3129, 1.31355, 1.3155, 1.32388, 1.31659, 1.31917, 1.31891, 1.32073, 1.31931, 1.31854, 1.31958, 1.32015, 1.31987, 1.32006, 1.32616, 1.3246, 1.32606, 1.32698, 1.32937, 1.32914, 1.33258, 1.3356, 1.33691, 1.33599, 1.33917, 1.33685, 1.34069, 1.34276, 1.34185, 1.34378, 1.34589, 1.34602, 1.34735, 1.34951, 1.35054, 1.35061, 1.35297, 1.35099, 1.35435, 1.35702, 1.36025, 1.36115, 1.36174, 1.36593, 1.36817, 1.36872, 1.37066, 1.3716, 1.38104, 1.3857, 1.37981, 1.39186, 1.39383, 1.40049, 1.39526, 1.45742, 1.59283, 1.81752, 1.64444, 1.54764, 1.38878, 1.39874, 1.41562, 1.41079, 1.41179, 1.4125, 1.41549, 1.42091, 1.44212, 1.42636, 1.42947, 1.43419, 1.43357, 1.4415, 1.44192, 1.44507, 1.45046, 1.46414, 1.4547, 1.45812, 1.46197, 1.46249, 1.4655, 
1.32885, 1.32736, 1.32441, 1.32342, 1.32227, 1.31984, 1.31606, 1.31452, 1.31609, 1.31913, 1.32145, 1.32372, 1.32268, 1.32189, 1.32053, 1.31727, 1.31524, 1.31166, 1.3105, 1.31809, 1.30992, 1.31336, 1.31935, 1.31983, 1.28404, 1.50446, 1.62159, 1.76218, 1.41127, 1.32067, 1.32936, 1.32273, 1.31271, 1.31009, 1.31123, 1.31207, 1.31355, 1.31627, 1.31802, 1.32072, 1.31958, 1.31663, 1.31459, 1.31394, 1.31449, 1.31575, 1.31737, 1.31868, 1.32008, 1.3222, 1.32373, 1.32328, 1.32291, 1.32383, 1.32435, 1.32646, 1.32644, 1.32729, 1.32821, 1.32652, 1.32717, 1.32694, 1.32898, 1.33132, 1.33263, 1.3357, 1.33639, 1.3367, 1.33702, 1.33793, 1.33997, 1.34047, 1.34269, 1.34483, 1.3463, 1.34637, 1.34691, 1.34696, 1.35006, 1.35031, 1.35453, 1.35628, 1.3573, 1.35894, 1.35995, 1.36123, 1.36247, 1.36333, 1.36517, 1.36858, 1.3716, 1.37196, 1.37583, 1.37419, 1.37682, 1.39019, 1.39165, 1.38791, 1.39852, 1.37865, 1.47272, 1.6941, 1.78435, 1.80321, 1.60238, 1.43694, 1.41065, 1.42439, 1.41122, 1.41026, 1.41238, 1.41481, 1.42009, 1.42081, 1.42481, 1.42927, 1.43309, 1.43707, 1.43796, 1.44036, 1.44134, 1.4468, 1.44993, 1.45201, 1.45611, 1.45833, 1.46119, 1.46382, 
1.32571, 1.32515, 1.32203, 1.32137, 1.32028, 1.3204, 1.31931, 1.32008, 1.32237, 1.32314, 1.32255, 1.32286, 1.325, 1.32364, 1.32249, 1.32114, 1.32317, 1.3146, 1.31321, 1.313, 1.3211, 1.31864, 1.31997, 1.32585, 1.29262, 1.43716, 1.55435, 1.82829, 1.45888, 1.3082, 1.32064, 1.32982, 1.31586, 1.31456, 1.31584, 1.31541, 1.31658, 1.31806, 1.31944, 1.32228, 1.32245, 1.32094, 1.31997, 1.31858, 1.3193, 1.3185, 1.31962, 1.32121, 1.32224, 1.32325, 1.32339, 1.32593, 1.32709, 1.3285, 1.32892, 1.32904, 1.32916, 1.32669, 1.32722, 1.32925, 1.32798, 1.32771, 1.3289, 1.32911, 1.33092, 1.33399, 1.33587, 1.33675, 1.33754, 1.33876, 1.34102, 1.34949, 1.35132, 1.35237, 1.3546, 1.35339, 1.35416, 1.35356, 1.3547, 1.35665, 1.36003, 1.36032, 1.3601, 1.36044, 1.3608, 1.36275, 1.36382, 1.36812, 1.3707, 1.37223, 1.37441, 1.37488, 1.37556, 1.37767, 1.38172, 1.40406, 1.38775, 1.4023, 1.40388, 1.39732, 1.46564, 1.55962, 1.7011, 1.83428, 1.53471, 1.45253, 1.36746, 1.42174, 1.42775, 1.41633, 1.43052, 1.43044, 1.42798, 1.43003, 1.43487, 1.43899, 1.44326, 1.44379, 1.44638, 1.44489, 1.4461, 1.45153, 1.45393, 1.46158, 1.45497, 1.45748, 1.46861, 1.46173, 
1.33389, 1.33251, 1.33049, 1.33705, 1.32913, 1.32729, 1.32574, 1.32705, 1.32727, 1.32749, 1.3304, 1.32839, 1.32966, 1.32939, 1.3288, 1.32483, 1.32067, 1.31932, 1.31787, 1.31885, 1.32037, 1.32215, 1.32947, 1.32734, 1.34339, 1.4772, 1.77184, 1.92712, 1.49014, 1.32476, 1.33029, 1.31914, 1.31901, 1.31876, 1.31818, 1.31613, 1.31855, 1.31891, 1.32281, 1.324, 1.32431, 1.32361, 1.32255, 1.31939, 1.31878, 1.31761, 1.3205, 1.3204, 1.31941, 1.32147, 1.3229, 1.32527, 1.32771, 1.32753, 1.32651, 1.32887, 1.32899, 1.32888, 1.32844, 1.32876, 1.32867, 1.32925, 1.32988, 1.33054, 1.33355, 1.33771, 1.33956, 1.34139, 1.34174, 1.34297, 1.34379, 1.34584, 1.3469, 1.34858, 1.35053, 1.35454, 1.35407, 1.35526, 1.35743, 1.35701, 1.35683, 1.36145, 1.36231, 1.36378, 1.36551, 1.36516, 1.36746, 1.36978, 1.37075, 1.37246, 1.3749, 1.37749, 1.38048, 1.38157, 1.38486, 1.3894, 1.38853, 1.39544, 1.40074, 1.37653, 1.46206, 1.56536, 1.7518, 1.74305, 1.67192, 1.43477, 1.40334, 1.425, 1.42371, 1.42138, 1.42997, 1.4228, 1.42822, 1.43386, 1.43732, 1.44243, 1.44411, 1.44704, 1.45007, 1.45003, 1.44953, 1.45224, 1.4538, 1.45677, 1.45958, 1.46345, 1.47167, 1.49038, 
1.33793, 1.33832, 1.33873, 1.33784, 1.33611, 1.33325, 1.33074, 1.32813, 1.32548, 1.32677, 1.32921, 1.32925, 1.33102, 1.32784, 1.32615, 1.32391, 1.32237, 1.31721, 1.31661, 1.31656, 1.31704, 1.31963, 1.32764, 1.33146, 1.33016, 1.50543, 1.67179, 1.72356, 1.44297, 1.31693, 1.33573, 1.32544, 1.31886, 1.31724, 1.31906, 1.31981, 1.32188, 1.32255, 1.32248, 1.32336, 1.32374, 1.32489, 1.32544, 1.32318, 1.32168, 1.31931, 1.31832, 1.31911, 1.3214, 1.32297, 1.32447, 1.32472, 1.32926, 1.33131, 1.33333, 1.33374, 1.33407, 1.33333, 1.33353, 1.33246, 1.33177, 1.3295, 1.33225, 1.33424, 1.33746, 1.34051, 1.3421, 1.34284, 1.34114, 1.34345, 1.34324, 1.34658, 1.34949, 1.35083, 1.35245, 1.35379, 1.35485, 1.35524, 1.35554, 1.35699, 1.35816, 1.35852, 1.36141, 1.36611, 1.3675, 1.36714, 1.36803, 1.37029, 1.37295, 1.38214, 1.37873, 1.37929, 1.38608, 1.3965, 1.39224, 1.39145, 1.39505, 1.39452, 1.40314, 1.37147, 1.39628, 1.56216, 1.75607, 1.81374, 1.61727, 1.44059, 1.40687, 1.42111, 1.42004, 1.417, 1.42259, 1.42659, 1.42485, 1.42726, 1.42983, 1.43421, 1.43814, 1.44475, 1.44497, 1.44935, 1.44884, 1.45249, 1.45478, 1.45809, 1.46225, 1.46574, 1.46868, 1.47582, 
1.33414, 1.33666, 1.33352, 1.33382, 1.33235, 1.3294, 1.3288, 1.32588, 1.32355, 1.32574, 1.32941, 1.32803, 1.32966, 1.32708, 1.32828, 1.3266, 1.32459, 1.32363, 1.33218, 1.31882, 1.31776, 1.3172, 1.32789, 1.33424, 1.30213, 1.51937, 1.75416, 1.80007, 1.55637, 1.32009, 1.32453, 1.31933, 1.3193, 1.31738, 1.31963, 1.32002, 1.32651, 1.32651, 1.32549, 1.32566, 1.32586, 1.32572, 1.32563, 1.32564, 1.32426, 1.32089, 1.31918, 1.31957, 1.32221, 1.3225, 1.32339, 1.32644, 1.3309, 1.33669, 1.34077, 1.34307, 1.34464, 1.34388, 1.34223, 1.33972, 1.33664, 1.33255, 1.34457, 1.33994, 1.37125, 1.34699, 1.34838, 1.34722, 1.34694, 1.34531, 1.34462, 1.34615, 1.34858, 1.34958, 1.35047, 1.35381, 1.35655, 1.35943, 1.35999, 1.36043, 1.3616, 1.36127, 1.36236, 1.36609, 1.36668, 1.36842, 1.37095, 1.37382, 1.3756, 1.37816, 1.38096, 1.40693, 1.38481, 1.38748, 1.40219, 1.39165, 1.40219, 1.39998, 1.4055, 1.39409, 1.50559, 1.5247, 1.72083, 1.7761, 1.60031, 1.47587, 1.40942, 1.44031, 1.43275, 1.42706, 1.4251, 1.42797, 1.43397, 1.43441, 1.43842, 1.44114, 1.44689, 1.44664, 1.45206, 1.45596, 1.4589, 1.46454, 1.46427, 1.47139, 1.47218, 1.47126, 1.47344, 1.48505, 
1.3337, 1.33109, 1.32736, 1.32638, 1.32404, 1.32321, 1.32272, 1.32189, 1.32018, 1.32211, 1.32211, 1.32386, 1.32802, 1.33, 1.33275, 1.33246, 1.32841, 1.32417, 1.32725, 1.3191, 1.31942, 1.31993, 1.3225, 1.32424, 1.36576, 1.38703, 1.6283, 1.75475, 1.48195, 1.3055, 1.32622, 1.32308, 1.32306, 1.32097, 1.32172, 1.32227, 1.32258, 1.32304, 1.32389, 1.32362, 1.32417, 1.32428, 1.32646, 1.32565, 1.325, 1.32405, 1.32372, 1.32447, 1.32442, 1.32795, 1.32739, 1.32767, 1.32958, 1.33296, 1.3345, 1.33583, 1.33616, 1.33619, 1.33518, 1.33339, 1.33592, 1.33508, 1.33662, 1.34062, 1.34397, 1.34394, 1.3459, 1.34754, 1.34773, 1.34595, 1.34514, 1.34699, 1.35019, 1.35432, 1.35677, 1.35834, 1.36072, 1.36296, 1.3625, 1.36444, 1.36341, 1.36444, 1.36377, 1.3642, 1.36633, 1.36921, 1.37108, 1.37223, 1.37374, 1.37738, 1.38089, 1.38407, 1.38692, 1.39522, 1.38985, 1.39546, 1.39605, 1.41272, 1.40095, 1.37644, 1.46129, 1.64481, 1.76975, 1.791, 1.53365, 1.48428, 1.399, 1.45042, 1.43096, 1.43006, 1.42933, 1.43249, 1.43762, 1.44, 1.44121, 1.44506, 1.44887, 1.44894, 1.45201, 1.45769, 1.46436, 1.46714, 1.46908, 1.47253, 1.48806, 1.47759, 1.48164, 1.48245, 
1.334, 1.33305, 1.33158, 1.32915, 1.32664, 1.32861, 1.32909, 1.32737, 1.3264, 1.32558, 1.32658, 1.32668, 1.32898, 1.32995, 1.3303, 1.32703, 1.32393, 1.3246, 1.32324, 1.32993, 1.32496, 1.32793, 1.34056, 1.31567, 1.35066, 1.52412, 1.58615, 1.6931, 1.61008, 1.30152, 1.33772, 1.32747, 1.3332, 1.32816, 1.3255, 1.32727, 1.32601, 1.32587, 1.32612, 1.32624, 1.32598, 1.32827, 1.32898, 1.32992, 1.32927, 1.32935, 1.32875, 1.32933, 1.32969, 1.32962, 1.32918, 1.32918, 1.32893, 1.32728, 1.32759, 1.3274, 1.32793, 1.33001, 1.33194, 1.33304, 1.33312, 1.33292, 1.33593, 1.33937, 1.34303, 1.34463, 1.34656, 1.34691, 1.3476, 1.3459, 1.34668, 1.34803, 1.34984, 1.35214, 1.35802, 1.36171, 1.36586, 1.36687, 1.36715, 1.36736, 1.3668, 1.36561, 1.36753, 1.36766, 1.36931, 1.36928, 1.37232, 1.37262, 1.3719, 1.37591, 1.37906, 1.38177, 1.38452, 1.38593, 1.39565, 1.39015, 1.40543, 1.40995, 1.40659, 1.38541, 1.43769, 1.66875, 1.87461, 1.89591, 1.62779, 1.46706, 1.38485, 1.42794, 1.42837, 1.44309, 1.43023, 1.43005, 1.43735, 1.44058, 1.4415, 1.44314, 1.44519, 1.44806, 1.45018, 1.46206, 1.46541, 1.46062, 1.46294, 1.46715, 1.47373, 1.47568, 1.47444, 1.47699, 
1.33687, 1.33363, 1.33111, 1.33303, 1.33244, 1.33085, 1.33139, 1.32924, 1.33044, 1.33107, 1.33175, 1.33058, 1.32824, 1.32619, 1.32408, 1.32327, 1.3507, 1.32186, 1.32322, 1.32877, 1.33149, 1.33297, 1.33696, 1.33392, 1.32339, 1.55845, 1.71224, 1.81373, 1.60237, 1.33308, 1.3397, 1.33122, 1.32957, 1.32783, 1.32569, 1.32587, 1.32327, 1.33557, 1.32572, 1.32812, 1.33008, 1.33343, 1.3328, 1.33371, 1.32777, 1.32903, 1.33, 1.33059, 1.33099, 1.33402, 1.33598, 1.33612, 1.33577, 1.33513, 1.33323, 1.33119, 1.3329, 1.33374, 1.33741, 1.33969, 1.33968, 1.33798, 1.33998, 1.34144, 1.34471, 1.34715, 1.34682, 1.34878, 1.34851, 1.35019, 1.35326, 1.35419, 1.35535, 1.3588, 1.3608, 1.36441, 1.36707, 1.36737, 1.36891, 1.36826, 1.36951, 1.3705, 1.37145, 1.37241, 1.37287, 1.37447, 1.37482, 1.37684, 1.37897, 1.38002, 1.38185, 1.3873, 1.38455, 1.38561, 1.38955, 1.39148, 1.40879, 1.4083, 1.38828, 1.37182, 1.48438, 1.62119, 1.73376, 1.73105, 1.61499, 1.4563, 1.38424, 1.43249, 1.43725, 1.43107, 1.42378, 1.44085, 1.43069, 1.4372, 1.43796, 1.46488, 1.44373, 1.44551, 1.44787, 1.45327, 1.45954, 1.46241, 1.46431, 1.46686, 1.46819, 1.46959, 1.47135, 1.47773, 
1.33663, 1.33708, 1.33645, 1.33648, 1.33555, 1.33594, 1.33627, 1.33558, 1.33317, 1.33358, 1.33465, 1.33337, 1.33128, 1.32929, 1.32666, 1.32575, 1.3255, 1.3266, 1.3274, 1.32796, 1.34385, 1.33078, 1.34081, 1.34071, 1.36515, 1.48326, 1.60014, 1.70041, 1.5786, 1.34589, 1.33781, 1.32909, 1.32405, 1.32128, 1.32048, 1.31925, 1.33983, 1.32613, 1.33, 1.3324, 1.33612, 1.33722, 1.33564, 1.33378, 1.33263, 1.33179, 1.33178, 1.33364, 1.33349, 1.34548, 1.33832, 1.34018, 1.33759, 1.33769, 1.33731, 1.33732, 1.33729, 1.33804, 1.33998, 1.34212, 1.34266, 1.34282, 1.34295, 1.34318, 1.34643, 1.34772, 1.34878, 1.35204, 1.35251, 1.3534, 1.35566, 1.35761, 1.35798, 1.35904, 1.36072, 1.36349, 1.36341, 1.36262, 1.36489, 1.3652, 1.36873, 1.37064, 1.37164, 1.37431, 1.37548, 1.37736, 1.37885, 1.37854, 1.3802, 1.38165, 1.38353, 1.39261, 1.38917, 1.39933, 1.39214, 1.39855, 1.40019, 1.40565, 1.40275, 1.39918, 1.42042, 1.63405, 1.74141, 1.70574, 1.6311, 1.46972, 1.38645, 1.42053, 1.42583, 1.42359, 1.42428, 1.42729, 1.43723, 1.43359, 1.43657, 1.44086, 1.44461, 1.44786, 1.45226, 1.45716, 1.46576, 1.46401, 1.46651, 1.46884, 1.47157, 1.47492, 1.47889, 1.48114, 
1.33692, 1.3383, 1.34036, 1.33871, 1.33837, 1.34365, 1.3399, 1.33816, 1.33829, 1.3367, 1.33631, 1.33463, 1.33091, 1.32671, 1.32681, 1.32665, 1.32868, 1.3302, 1.32918, 1.32945, 1.32942, 1.32981, 1.33111, 1.32027, 1.37439, 1.50668, 1.51762, 1.52706, 1.39911, 1.29576, 1.34766, 1.32751, 1.32607, 1.32993, 1.32311, 1.32327, 1.32519, 1.32618, 1.32574, 1.33398, 1.32867, 1.32906, 1.32956, 1.33075, 1.33067, 1.33103, 1.33297, 1.33259, 1.33477, 1.33458, 1.33444, 1.33717, 1.33712, 1.33623, 1.33451, 1.33594, 1.33989, 1.3384, 1.33765, 1.33974, 1.34503, 1.34363, 1.34501, 1.34609, 1.34862, 1.35013, 1.35005, 1.35132, 1.35356, 1.35695, 1.35715, 1.35652, 1.3574, 1.3598, 1.36135, 1.36184, 1.36127, 1.36125, 1.36312, 1.36458, 1.36698, 1.36988, 1.37292, 1.37431, 1.37423, 1.37628, 1.38691, 1.37797, 1.38191, 1.38347, 1.38487, 1.388, 1.3917, 1.39258, 1.39609, 1.40624, 1.41237, 1.40905, 1.41337, 1.42393, 1.50265, 1.52802, 1.71022, 1.72377, 1.6121, 1.48773, 1.39715, 1.4364, 1.44629, 1.43173, 1.43519, 1.43642, 1.44412, 1.46149, 1.44483, 1.44726, 1.45251, 1.45662, 1.45961, 1.46397, 1.46498, 1.48786, 1.47179, 1.47446, 1.47674, 1.48073, 1.48514, 1.48678, 
1.33359, 1.33317, 1.3334, 1.33619, 1.3328, 1.33419, 1.33496, 1.33519, 1.33347, 1.33687, 1.33283, 1.33064, 1.32774, 1.32636, 1.32659, 1.32362, 1.32457, 1.32361, 1.32484, 1.326, 1.32723, 1.32654, 1.34514, 1.32589, 1.38514, 1.48605, 1.59972, 1.86906, 1.44804, 1.34149, 1.32753, 1.32757, 1.32929, 1.33024, 1.33062, 1.32997, 1.32841, 1.32647, 1.32582, 1.32577, 1.32793, 1.32708, 1.32917, 1.33019, 1.33008, 1.32987, 1.3292, 1.3296, 1.33124, 1.33322, 1.33561, 1.33668, 1.33647, 1.33726, 1.33674, 1.33646, 1.33766, 1.33729, 1.33664, 1.33666, 1.33831, 1.34261, 1.34478, 1.34594, 1.34656, 1.3499, 1.35196, 1.35363, 1.35532, 1.35571, 1.35458, 1.35524, 1.3569, 1.36059, 1.36341, 1.36391, 1.36517, 1.36595, 1.36765, 1.36835, 1.37127, 1.3757, 1.37813, 1.38839, 1.38221, 1.38243, 1.38401, 1.38602, 1.38898, 1.39052, 1.3941, 1.39489, 1.39651, 1.39849, 1.40636, 1.4062, 1.40323, 1.4063, 1.40625, 1.37824, 1.4846, 1.60459, 1.72438, 1.72516, 1.66262, 1.53406, 1.39995, 1.44153, 1.44092, 1.43646, 1.43722, 1.43951, 1.44229, 1.44692, 1.44988, 1.45211, 1.4569, 1.45896, 1.46111, 1.46412, 1.46395, 1.46618, 1.46695, 1.47089, 1.47529, 1.47887, 1.48255, 1.4862, 
1.32106, 1.3203, 1.32103, 1.31935, 1.32169, 1.32299, 1.32362, 1.32391, 1.333, 1.32372, 1.32746, 1.32871, 1.33, 1.32919, 1.32499, 1.3353, 1.31977, 1.3138, 1.3138, 1.31546, 1.31601, 1.31843, 1.34326, 1.32671, 1.33043, 1.42963, 1.56256, 1.69341, 1.51308, 1.28667, 1.32628, 1.33164, 1.33026, 1.32294, 1.3253, 1.32449, 1.32563, 1.32437, 1.3309, 1.32016, 1.32283, 1.32317, 1.32413, 1.32595, 1.32575, 1.32737, 1.32834, 1.32968, 1.33095, 1.33345, 1.3337, 1.3327, 1.33305, 1.3337, 1.3332, 1.33356, 1.33339, 1.33387, 1.3334, 1.33492, 1.33605, 1.33706, 1.33712, 1.3409, 1.34146, 1.34184, 1.34299, 1.34453, 1.34781, 1.34633, 1.34768, 1.34761, 1.35058, 1.3523, 1.35422, 1.35489, 1.35604, 1.35711, 1.35929, 1.36082, 1.3629, 1.3674, 1.36983, 1.37214, 1.37537, 1.37843, 1.38136, 1.38654, 1.38808, 1.38993, 1.39195, 1.3933, 1.39351, 1.39637, 1.39743, 1.40371, 1.40285, 1.41623, 1.40763, 1.4137, 1.4988, 1.53937, 1.70712, 1.70792, 1.55113, 1.46098, 1.40898, 1.44059, 1.44234, 1.43313, 1.43444, 1.45486, 1.45034, 1.4429, 1.44582, 1.45054, 1.45409, 1.45698, 1.46158, 1.46296, 1.46686, 1.47594, 1.46847, 1.47146, 1.4786, 1.4789, 1.48274, 1.4873, 
1.32957, 1.32566, 1.32707, 1.32636, 1.32561, 1.33064, 1.33251, 1.33155, 1.33263, 1.33435, 1.33476, 1.3343, 1.32943, 1.32669, 1.32607, 1.32631, 1.32697, 1.31847, 1.32257, 1.31923, 1.31994, 1.32992, 1.33776, 1.32553, 1.36334, 1.48173, 1.6278, 1.72483, 1.74493, 1.30945, 1.28524, 1.33045, 1.32228, 1.32011, 1.32099, 1.32332, 1.32274, 1.32064, 1.31946, 1.32017, 1.31877, 1.31966, 1.32253, 1.32277, 1.32424, 1.32599, 1.32587, 1.32649, 1.3267, 1.32711, 1.32598, 1.32432, 1.3256, 1.32551, 1.32616, 1.32892, 1.32882, 1.32919, 1.33055, 1.33067, 1.33091, 1.32968, 1.32942, 1.33092, 1.33334, 1.33764, 1.33948, 1.3423, 1.3525, 1.34376, 1.34042, 1.34049, 1.34342, 1.34817, 1.34966, 1.35125, 1.354, 1.35388, 1.35326, 1.35406, 1.35575, 1.36335, 1.36239, 1.36606, 1.36818, 1.37071, 1.37266, 1.38218, 1.37965, 1.38148, 1.38406, 1.38694, 1.39159, 1.3898, 1.38911, 1.39348, 1.39527, 1.42765, 1.39672, 1.39387, 1.52609, 1.66855, 1.70406, 1.69847, 1.57117, 1.47864, 1.40926, 1.42774, 1.43971, 1.44433, 1.42778, 1.42976, 1.43191, 1.44477, 1.4461, 1.44119, 1.44558, 1.45024, 1.45561, 1.45528, 1.45821, 1.46117, 1.46566, 1.48202, 1.47108, 1.47487, 1.47809, 1.48512, 
1.32567, 1.32495, 1.32693, 1.32483, 1.32025, 1.31521, 1.31751, 1.32564, 1.32633, 1.32835, 1.32602, 1.32463, 1.3279, 1.3299, 1.33001, 1.3294, 1.3306, 1.33497, 1.33742, 1.33374, 1.34768, 1.34398, 1.34003, 1.31982, 1.37063, 1.51634, 1.67491, 1.66445, 1.62076, 1.37219, 1.32924, 1.346, 1.34063, 1.32825, 1.33042, 1.33261, 1.33068, 1.33067, 1.3273, 1.32485, 1.33009, 1.32525, 1.3279, 1.35347, 1.33488, 1.33664, 1.33641, 1.33636, 1.33357, 1.35581, 1.33143, 1.33292, 1.33491, 1.3393, 1.34299, 1.34279, 1.34106, 1.33626, 1.33958, 1.34054, 1.34003, 1.34013, 1.34255, 1.34574, 1.34713, 1.34819, 1.35009, 1.35218, 1.355, 1.35685, 1.35398, 1.3537, 1.35524, 1.35803, 1.36221, 1.36115, 1.35929, 1.36062, 1.36456, 1.37894, 1.37171, 1.37157, 1.36928, 1.3708, 1.37138, 1.36545, 1.36725, 1.37492, 1.37549, 1.37501, 1.37877, 1.38275, 1.38447, 1.39387, 1.38774, 1.40659, 1.39459, 1.40645, 1.40707, 1.4353, 1.49926, 1.62023, 1.68605, 1.70104, 1.6377, 1.50668, 1.3979, 1.39885, 1.43954, 1.42453, 1.42849, 1.43302, 1.42979, 1.44739, 1.43632, 1.44225, 1.44102, 1.44472, 1.44932, 1.45429, 1.45776, 1.46104, 1.4629, 1.46568, 1.46813, 1.47098, 1.47457, 1.479, 
1.33693, 1.3336, 1.33178, 1.32926, 1.32715, 1.32784, 1.32803, 1.32782, 1.32298, 1.32638, 1.32503, 1.32213, 1.3227, 1.32145, 1.32607, 1.32696, 1.33095, 1.33181, 1.3284, 1.32284, 1.31949, 1.32692, 1.33637, 1.30293, 1.40185, 1.5291, 1.56847, 1.71687, 1.51986, 1.31843, 1.30624, 1.33961, 1.32324, 1.30922, 1.31238, 1.32326, 1.32219, 1.32028, 1.31524, 1.30565, 1.30545, 1.30622, 1.32008, 1.32417, 1.32963, 1.32412, 1.32272, 1.3208, 1.32181, 1.31874, 1.31256, 1.31388, 1.32671, 1.32437, 1.32442, 1.32875, 1.32968, 1.33039, 1.33783, 1.3414, 1.34499, 1.34568, 1.34606, 1.34184, 1.33958, 1.34, 1.33877, 1.34597, 1.35236, 1.35032, 1.35805, 1.36119, 1.35824, 1.35298, 1.35392, 1.34236, 1.34175, 1.36564, 1.35787, 1.36168, 1.36565, 1.3679, 1.38283, 1.38916, 1.37776, 1.37442, 1.37171, 1.37934, 1.38194, 1.38351, 1.38563, 1.40203, 1.39602, 1.39125, 1.3933, 1.39921, 1.41974, 1.40865, 1.40129, 1.40792, 1.47181, 1.64205, 1.66438, 1.67286, 1.58609, 1.48201, 1.37849, 1.42602, 1.44613, 1.43348, 1.43698, 1.44055, 1.44496, 1.44692, 1.44708, 1.45064, 1.45203, 1.45835, 1.46083, 1.46452, 1.46798, 1.47124, 1.47677, 1.48224, 1.48633, 1.48995, 1.49163, 1.49354, 
1.32255, 1.32609, 1.31847, 1.317, 1.31185, 1.3132, 1.31581, 1.318, 1.31861, 1.31566, 1.3135, 1.31284, 1.31271, 1.31388, 1.31594, 1.3169, 1.32944, 1.32532, 1.31676, 1.31552, 1.31871, 1.32432, 1.32752, 1.29829, 1.41033, 1.54357, 1.60645, 1.65812, 1.50596, 1.37802, 1.3058, 1.32691, 1.35131, 1.32873, 1.33065, 1.3342, 1.32918, 1.31589, 1.32733, 1.33313, 1.32277, 1.32127, 1.32123, 1.32489, 1.3439, 1.33073, 1.33727, 1.33449, 1.3365, 1.33158, 1.33098, 1.33302, 1.33355, 1.33579, 1.33746, 1.34064, 1.3402, 1.33944, 1.33793, 1.3416, 1.34321, 1.34422, 1.34599, 1.34607, 1.34622, 1.34806, 1.34982, 1.3473, 1.34694, 1.35115, 1.35766, 1.36127, 1.36231, 1.35753, 1.35541, 1.3563, 1.35518, 1.35828, 1.37845, 1.36136, 1.36374, 1.36661, 1.36749, 1.36814, 1.36543, 1.36453, 1.36711, 1.37456, 1.37266, 1.37072, 1.37462, 1.37772, 1.37956, 1.39831, 1.39852, 1.39212, 1.39267, 1.40544, 1.41406, 1.40396, 1.49348, 1.6074, 1.64079, 1.61278, 1.55342, 1.47499, 1.39664, 1.42355, 1.42357, 1.41863, 1.43041, 1.43527, 1.43667, 1.4366, 1.44334, 1.44795, 1.45445, 1.45519, 1.45806, 1.4514, 1.44362, 1.44461, 1.4487, 1.45153, 1.45442, 1.46098, 1.48, 1.46957, 
1.32562, 1.31966, 1.31689, 1.31544, 1.32216, 1.31803, 1.31036, 1.3065, 1.30751, 1.3058, 1.30507, 1.30213, 1.29972, 1.30016, 1.30906, 1.3009, 1.30287, 1.30227, 1.30391, 1.3047, 1.30504, 1.30562, 1.30641, 1.27003, 1.41392, 1.49806, 1.59202, 1.65415, 1.59208, 1.29512, 1.29941, 1.31554, 1.31492, 1.30591, 1.30542, 1.31711, 1.30505, 1.30472, 1.30583, 1.30637, 1.3052, 1.30826, 1.31617, 1.32006, 1.32242, 1.31712, 1.31173, 1.31169, 1.31011, 1.30877, 1.31267, 1.31192, 1.31368, 1.31876, 1.32297, 1.32797, 1.32551, 1.32538, 1.32711, 1.3284, 1.32945, 1.32818, 1.32952, 1.33355, 1.33632, 1.3382, 1.34001, 1.33726, 1.33266, 1.33164, 1.33319, 1.33945, 1.37138, 1.3458, 1.34933, 1.34122, 1.34125, 1.34458, 1.35069, 1.35084, 1.35477, 1.35977, 1.36193, 1.36337, 1.36366, 1.38206, 1.3603, 1.35891, 1.36523, 1.37186, 1.37628, 1.37918, 1.38365, 1.38516, 1.38775, 1.39583, 1.39552, 1.40863, 1.3936, 1.42928, 1.51963, 1.5826, 1.64388, 1.63789, 1.55397, 1.4347, 1.3893, 1.40655, 1.43705, 1.43024, 1.43463, 1.43635, 1.4382, 1.44152, 1.44424, 1.44633, 1.45049, 1.45396, 1.45756, 1.45928, 1.45873, 1.46487, 1.46813, 1.47728, 1.47858, 1.48375, 1.48596, 1.48891, 
1.30128, 1.30888, 1.30233, 1.2987, 1.29987, 1.2997, 1.30701, 1.29716, 1.29563, 1.29512, 1.29544, 1.29883, 1.3022, 1.29702, 1.29929, 1.30422, 1.30605, 1.31901, 1.31602, 1.3234, 1.31393, 1.31308, 1.32358, 1.30231, 1.409, 1.4753, 1.59057, 1.65782, 1.60295, 1.34619, 1.30065, 1.31406, 1.32588, 1.3026, 1.30412, 1.30544, 1.30868, 1.30974, 1.30881, 1.30597, 1.30701, 1.30533, 1.30661, 1.30825, 1.3094, 1.3085, 1.30891, 1.31107, 1.31075, 1.30947, 1.31074, 1.31288, 1.31181, 1.31298, 1.31634, 1.31766, 1.31929, 1.32234, 1.32612, 1.3253, 1.32565, 1.32684, 1.32588, 1.32561, 1.32663, 1.32993, 1.33089, 1.33238, 1.33036, 1.33265, 1.33633, 1.34449, 1.34113, 1.34387, 1.34417, 1.34095, 1.33554, 1.33406, 1.336, 1.33951, 1.34367, 1.34417, 1.34406, 1.34433, 1.34309, 1.34321, 1.34519, 1.37531, 1.35501, 1.36026, 1.37157, 1.36747, 1.36858, 1.36983, 1.38795, 1.37168, 1.38193, 1.38699, 1.3756, 1.40814, 1.43905, 1.53073, 1.61961, 1.64148, 1.58277, 1.44894, 1.41013, 1.35518, 1.43079, 1.42358, 1.42095, 1.42707, 1.41978, 1.43831, 1.43994, 1.4478, 1.43857, 1.43835, 1.43763, 1.4367, 1.43743, 1.43902, 1.44425, 1.45425, 1.45575, 1.45628, 1.46386, 1.46595, 
1.29533, 1.29216, 1.29258, 1.30264, 1.29284, 1.29236, 1.29585, 1.29352, 1.29013, 1.28829, 1.28692, 1.28871, 1.29209, 1.29187, 1.29298, 1.29099, 1.28898, 1.29119, 1.29043, 1.29163, 1.29121, 1.29634, 1.29691, 1.26735, 1.38207, 1.51401, 1.62084, 1.62332, 1.55187, 1.27071, 1.27904, 1.2955, 1.28975, 1.28755, 1.28665, 1.28835, 1.28886, 1.29081, 1.2914, 1.30948, 1.29101, 1.293, 1.29404, 1.29253, 1.29253, 1.29126, 1.29295, 1.29242, 1.29619, 1.29581, 1.29684, 1.29963, 1.30151, 1.30239, 1.30176, 1.2991, 1.29889, 1.29841, 1.3022, 1.30488, 1.30477, 1.30625, 1.31305, 1.31543, 1.31772, 1.3172, 1.31768, 1.31802, 1.31881, 1.31789, 1.32049, 1.32374, 1.32425, 1.32823, 1.32638, 1.32596, 1.32793, 1.32888, 1.33265, 1.33472, 1.33625, 1.33668, 1.33634, 1.33663, 1.3403, 1.34431, 1.3473, 1.34567, 1.35232, 1.35507, 1.37639, 1.37043, 1.36525, 1.36863, 1.37155, 1.39231, 1.38334, 1.39322, 1.37421, 1.36452, 1.52449, 1.5828, 1.61355, 1.61442, 1.58547, 1.51355, 1.39996, 1.39149, 1.43014, 1.41668, 1.40994, 1.41235, 1.41739, 1.42376, 1.42616, 1.44093, 1.46266, 1.43807, 1.44003, 1.44213, 1.44493, 1.44425, 1.449, 1.45101, 1.4562, 1.48192, 1.47038, 1.47227, 
1.2984, 1.29687, 1.30074, 1.29901, 1.29481, 1.29295, 1.29132, 1.29463, 1.28987, 1.29128, 1.28889, 1.28483, 1.28872, 1.28874, 1.29005, 1.28877, 1.28963, 1.29142, 1.30514, 1.28852, 1.28888, 1.31156, 1.28434, 1.29925, 1.38688, 1.43172, 1.62729, 1.65806, 1.49686, 1.27348, 1.28109, 1.30314, 1.29297, 1.29351, 1.29013, 1.29182, 1.29109, 1.29381, 1.29176, 1.29275, 1.30117, 1.29304, 1.29397, 1.29315, 1.29276, 1.29211, 1.29308, 1.29181, 1.29312, 1.2938, 1.29825, 1.29702, 1.29885, 1.29823, 1.29894, 1.29878, 1.30012, 1.29949, 1.30023, 1.30099, 1.30213, 1.30819, 1.30776, 1.31073, 1.31125, 1.31122, 1.31234, 1.31193, 1.31345, 1.31321, 1.3164, 1.3142, 1.31559, 1.31609, 1.31589, 1.31849, 1.31971, 1.3225, 1.32463, 1.33085, 1.33049, 1.33246, 1.33343, 1.33638, 1.33735, 1.33614, 1.33686, 1.34342, 1.34509, 1.34801, 1.35069, 1.35368, 1.35418, 1.35365, 1.3626, 1.36444, 1.37539, 1.37107, 1.36948, 1.40928, 1.43371, 1.55676, 1.58579, 1.56639, 1.56643, 1.45461, 1.39924, 1.37572, 1.40716, 1.40631, 1.39945, 1.41345, 1.40451, 1.42691, 1.41057, 1.41346, 1.41559, 1.42126, 1.423, 1.43927, 1.43685, 1.4263, 1.43124, 1.43525, 1.43984, 1.44467, 1.44581, 1.45229, 
1.30277, 1.30932, 1.29795, 1.29539, 1.29592, 1.29451, 1.29458, 1.29309, 1.29229, 1.29012, 1.29028, 1.28825, 1.28888, 1.28444, 1.28649, 1.28714, 1.28934, 1.29114, 1.29205, 1.2894, 1.29139, 1.29883, 1.28566, 1.31565, 1.40604, 1.44384, 1.53771, 1.59586, 1.51651, 1.23318, 1.25021, 1.29059, 1.28922, 1.28832, 1.28919, 1.28912, 1.28837, 1.28864, 1.28787, 1.28745, 1.28497, 1.29173, 1.28698, 1.29027, 1.28863, 1.28982, 1.29107, 1.29309, 1.2932, 1.29386, 1.29435, 1.29335, 1.29325, 1.30041, 1.30003, 1.29914, 1.29694, 1.29784, 1.30232, 1.30023, 1.29887, 1.30265, 1.30674, 1.30187, 1.30372, 1.30865, 1.30749, 1.30609, 1.30879, 1.31414, 1.31496, 1.31512, 1.31249, 1.31292, 1.31558, 1.32006, 1.32517, 1.32126, 1.32396, 1.33312, 1.33332, 1.3301, 1.33091, 1.33534, 1.34344, 1.34164, 1.34064, 1.34286, 1.34457, 1.34797, 1.3488, 1.34814, 1.35021, 1.35343, 1.35368, 1.37082, 1.3712, 1.38205, 1.36606, 1.38448, 1.4374, 1.5649, 1.58611, 1.58526, 1.52019, 1.50933, 1.37224, 1.38816, 1.39946, 1.41291, 1.40633, 1.40254, 1.40497, 1.40834, 1.42337, 1.43196, 1.41774, 1.42054, 1.41801, 1.4226, 1.42032, 1.42426, 1.42757, 1.43027, 1.43006, 1.43748, 1.44196, 1.44509, 
1.29547, 1.29295, 1.29142, 1.29121, 1.28841, 1.28838, 1.28967, 1.289, 1.28886, 1.29015, 1.28693, 1.2854, 1.28475, 1.28414, 1.28447, 1.28447, 1.3142, 1.28533, 1.28517, 1.28441, 1.29244, 1.29042, 1.28899, 1.30919, 1.37891, 1.49559, 1.59184, 1.56239, 1.56457, 1.33703, 1.27426, 1.29967, 1.29976, 1.28435, 1.28352, 1.28064, 1.28229, 1.28833, 1.28128, 1.27963, 1.28384, 1.2853, 1.28656, 1.28859, 1.29024, 1.2888, 1.29215, 1.29444, 1.29608, 1.29612, 1.29415, 1.29501, 1.29392, 1.29467, 1.29309, 1.29224, 1.29217, 1.29509, 1.2997, 1.30257, 1.30385, 1.30638, 1.30709, 1.30772, 1.30914, 1.30999, 1.30946, 1.31121, 1.31184, 1.3106, 1.31161, 1.31199, 1.31338, 1.31585, 1.32724, 1.31778, 1.32627, 1.32294, 1.32645, 1.32488, 1.32617, 1.32787, 1.32981, 1.33176, 1.34308, 1.34025, 1.34487, 1.34627, 1.34518, 1.34462, 1.34624, 1.34622, 1.35125, 1.36086, 1.3531, 1.35386, 1.37122, 1.36505, 1.34788, 1.35121, 1.46807, 1.51493, 1.56162, 1.53323, 1.51952, 1.39242, 1.3945, 1.33131, 1.40981, 1.39345, 1.39187, 1.39534, 1.39915, 1.40175, 1.40298, 1.42036, 1.40738, 1.4117, 1.41034, 1.41349, 1.41652, 1.42314, 1.42481, 1.45215, 1.43292, 1.43867, 1.4414, 1.44733, 
1.29182, 1.29099, 1.28961, 1.28764, 1.28726, 1.28733, 1.28912, 1.29209, 1.29132, 1.29108, 1.28972, 1.28879, 1.28783, 1.28891, 1.28667, 1.28793, 1.28865, 1.28572, 1.28472, 1.28558, 1.28756, 1.28674, 1.29202, 1.29257, 1.34137, 1.42227, 1.49086, 1.6869, 1.66645, 1.30545, 1.2901, 1.2899, 1.28517, 1.28181, 1.27969, 1.27758, 1.27846, 1.27777, 1.27712, 1.27774, 1.27976, 1.28296, 1.28564, 1.28617, 1.28821, 1.28773, 1.28978, 1.29569, 1.29048, 1.29089, 1.29147, 1.28924, 1.28909, 1.28906, 1.28885, 1.28662, 1.28779, 1.28922, 1.29657, 1.29302, 1.30165, 1.30262, 1.3035, 1.30592, 1.30588, 1.30545, 1.30896, 1.30932, 1.30884, 1.3115, 1.3123, 1.31245, 1.31549, 1.31495, 1.31797, 1.32266, 1.32038, 1.32139, 1.32244, 1.32223, 1.32456, 1.32479, 1.32744, 1.32895, 1.32964, 1.33176, 1.33587, 1.33568, 1.34089, 1.33878, 1.33996, 1.35726, 1.34318, 1.35241, 1.35797, 1.35453, 1.36576, 1.36234, 1.3442, 1.38598, 1.47851, 1.55061, 1.57762, 1.5575, 1.52684, 1.46529, 1.37324, 1.39185, 1.39445, 1.39852, 1.41037, 1.39562, 1.40169, 1.41586, 1.40949, 1.40576, 1.40602, 1.40868, 1.41254, 1.41583, 1.41671, 1.42233, 1.44759, 1.429, 1.42788, 1.43608, 1.44039, 1.44438, 
1.28908, 1.2861, 1.2831, 1.28215, 1.28095, 1.28195, 1.28273, 1.27933, 1.28129, 1.28466, 1.28304, 1.28338, 1.28546, 1.28542, 1.28495, 1.28543, 1.28085, 1.28153, 1.27901, 1.27813, 1.27865, 1.2819, 1.27744, 1.27024, 1.38557, 1.52524, 1.59237, 1.59021, 1.54017, 1.38934, 1.24985, 1.30189, 1.28307, 1.28171, 1.28373, 1.28257, 1.28217, 1.28258, 1.28056, 1.27894, 1.27611, 1.27752, 1.28036, 1.2847, 1.28795, 1.28897, 1.28801, 1.289, 1.28676, 1.28978, 1.29172, 1.29163, 1.29332, 1.29484, 1.29426, 1.29368, 1.29306, 1.29249, 1.29299, 1.29186, 1.29439, 1.29703, 1.29878, 1.30239, 1.30016, 1.30583, 1.30765, 1.30689, 1.31037, 1.30872, 1.31021, 1.31142, 1.31334, 1.31565, 1.31675, 1.3259, 1.32039, 1.32314, 1.32423, 1.32731, 1.32929, 1.32859, 1.33025, 1.33115, 1.33437, 1.33371, 1.33532, 1.33767, 1.34009, 1.34148, 1.34618, 1.34697, 1.34749, 1.35025, 1.35125, 1.36756, 1.36441, 1.38277, 1.34755, 1.36236, 1.46435, 1.52278, 1.54933, 1.54763, 1.51969, 1.46738, 1.39258, 1.3762, 1.39841, 1.38899, 1.39194, 1.39187, 1.39164, 1.39302, 1.39824, 1.39918, 1.40573, 1.40705, 1.40676, 1.41026, 1.41077, 1.41423, 1.42115, 1.41938, 1.42401, 1.42999, 1.43698, 1.44306, 
1.28614, 1.28464, 1.28507, 1.28364, 1.28139, 1.28347, 1.28438, 1.28063, 1.27907, 1.27725, 1.27811, 1.27557, 1.27631, 1.27645, 1.27782, 1.27727, 1.28209, 1.28097, 1.2804, 1.28882, 1.28962, 1.30311, 1.28207, 1.27455, 1.41278, 1.4602, 1.5685, 1.57868, 1.42917, 1.38039, 1.26701, 1.29151, 1.2821, 1.28202, 1.27883, 1.27938, 1.2783, 1.27585, 1.27579, 1.27756, 1.27733, 1.27516, 1.27597, 1.27779, 1.28154, 1.28241, 1.28129, 1.28224, 1.28289, 1.28443, 1.28584, 1.28774, 1.28813, 1.29148, 1.29108, 1.29126, 1.2906, 1.2904, 1.28948, 1.2897, 1.28986, 1.29054, 1.29439, 1.29708, 1.2986, 1.29935, 1.30239, 1.30482, 1.30433, 1.30398, 1.30625, 1.30745, 1.30784, 1.30919, 1.30813, 1.31043, 1.31339, 1.31431, 1.31638, 1.31914, 1.32332, 1.32405, 1.32688, 1.32647, 1.32909, 1.32937, 1.33044, 1.32887, 1.33342, 1.33395, 1.33833, 1.33956, 1.34385, 1.34709, 1.35369, 1.35491, 1.37054, 1.361, 1.34617, 1.36336, 1.47945, 1.51928, 1.5374, 1.54742, 1.49686, 1.48913, 1.36051, 1.37648, 1.39269, 1.39017, 1.39194, 1.39344, 1.39571, 1.40252, 1.39729, 1.39805, 1.40043, 1.40533, 1.40768, 1.42115, 1.42269, 1.4179, 1.42232, 1.42415, 1.43408, 1.46588, 1.44092, 1.43714, 
1.2868, 1.28773, 1.28829, 1.28824, 1.2842, 1.28225, 1.28113, 1.27912, 1.27731, 1.27545, 1.27332, 1.2707, 1.27111, 1.27233, 1.27536, 1.27788, 1.27817, 1.278, 1.27721, 1.27712, 1.27883, 1.29299, 1.27945, 1.26895, 1.38998, 1.45032, 1.54731, 1.6212, 1.43591, 1.38129, 1.2712, 1.28416, 1.28077, 1.27702, 1.27769, 1.27095, 1.2738, 1.27458, 1.27127, 1.27499, 1.27072, 1.27526, 1.30158, 1.27699, 1.2859, 1.27978, 1.27991, 1.28088, 1.28198, 1.27821, 1.28221, 1.28103, 1.28506, 1.28785, 1.28598, 1.28703, 1.28479, 1.28736, 1.28611, 1.28929, 1.3003, 1.29138, 1.29199, 1.2944, 1.29641, 1.30012, 1.29939, 1.29993, 1.30001, 1.30475, 1.3036, 1.30627, 1.30517, 1.30624, 1.31331, 1.31158, 1.31412, 1.31575, 1.31916, 1.31624, 1.31768, 1.32076, 1.3227, 1.32155, 1.32326, 1.32464, 1.32306, 1.32692, 1.32966, 1.33001, 1.32958, 1.33678, 1.35131, 1.34485, 1.34118, 1.36077, 1.36012, 1.3541, 1.34543, 1.35905, 1.47089, 1.49588, 1.52402, 1.52699, 1.50898, 1.483, 1.38757, 1.36419, 1.39643, 1.39652, 1.40056, 1.39196, 1.39517, 1.39487, 1.39228, 1.39591, 1.3962, 1.40086, 1.40051, 1.43989, 1.43637, 1.41908, 1.42154, 1.42248, 1.42467, 1.42983, 1.42976, 1.43016, 
1.27955, 1.27969, 1.27924, 1.27823, 1.27842, 1.27616, 1.27423, 1.28148, 1.27175, 1.27108, 1.27315, 1.27246, 1.27375, 1.2718, 1.27415, 1.27451, 1.2732, 1.27204, 1.27181, 1.2717, 1.28198, 1.27727, 1.26231, 1.29487, 1.37884, 1.4729, 1.55546, 1.55775, 1.45433, 1.33339, 1.29174, 1.28335, 1.28903, 1.28387, 1.27286, 1.27186, 1.28086, 1.27095, 1.28477, 1.27418, 1.27586, 1.27654, 1.27725, 1.27786, 1.27479, 1.27604, 1.27606, 1.2814, 1.27808, 1.27929, 1.28092, 1.28107, 1.28164, 1.28133, 1.28298, 1.28346, 1.28451, 1.28454, 1.28606, 1.28798, 1.29087, 1.29098, 1.29415, 1.29429, 1.29539, 1.29644, 1.29633, 1.29812, 1.29894, 1.29867, 1.30155, 1.30003, 1.29987, 1.3039, 1.30692, 1.31172, 1.31604, 1.31568, 1.31831, 1.31812, 1.31796, 1.317, 1.31671, 1.31885, 1.3204, 1.32233, 1.33285, 1.32554, 1.32784, 1.3303, 1.33141, 1.33356, 1.33652, 1.33737, 1.33931, 1.34362, 1.34818, 1.3525, 1.33875, 1.39302, 1.48139, 1.49567, 1.50865, 1.51274, 1.49922, 1.46156, 1.39238, 1.37135, 1.40316, 1.3991, 1.38287, 1.38185, 1.38179, 1.38397, 1.39603, 1.392, 1.39505, 1.39871, 1.40591, 1.40627, 1.41399, 1.41714, 1.42646, 1.41948, 1.42606, 1.42385, 1.42718, 1.43234, 
1.2756, 1.2742, 1.27565, 1.27187, 1.27384, 1.27283, 1.27199, 1.2709, 1.26859, 1.26989, 1.27042, 1.27042, 1.26957, 1.26845, 1.26905, 1.27043, 1.27755, 1.27002, 1.27068, 1.273, 1.27271, 1.28596, 1.25762, 1.28631, 1.38002, 1.50094, 1.5161, 1.56185, 1.48805, 1.35761, 1.25368, 1.27583, 1.28068, 1.28962, 1.2672, 1.26799, 1.2675, 1.27382, 1.26869, 1.26825, 1.2691, 1.27104, 1.27134, 1.27402, 1.27549, 1.27376, 1.27294, 1.27279, 1.27212, 1.27329, 1.27433, 1.27637, 1.28116, 1.27716, 1.27947, 1.27637, 1.27565, 1.27717, 1.27991, 1.2784, 1.28519, 1.28432, 1.28666, 1.28889, 1.29165, 1.28727, 1.29145, 1.29072, 1.29229, 1.29167, 1.28977, 1.29564, 1.29635, 1.29554, 1.30103, 1.30542, 1.30619, 1.31242, 1.31013, 1.31103, 1.31212, 1.31593, 1.31704, 1.31605, 1.31646, 1.32299, 1.3194, 1.32266, 1.323, 1.32445, 1.32754, 1.33198, 1.33672, 1.35134, 1.33576, 1.34627, 1.35502, 1.35737, 1.32432, 1.38821, 1.46122, 1.50186, 1.4958, 1.48194, 1.46183, 1.44868, 1.39147, 1.33973, 1.38399, 1.38016, 1.39704, 1.38494, 1.38063, 1.39362, 1.38563, 1.38835, 1.39075, 1.39595, 1.39846, 1.39898, 1.40539, 1.40812, 1.41172, 1.41294, 1.41769, 1.41969, 1.41918, 1.42278, 
1.27133, 1.27071, 1.26938, 1.2668, 1.2647, 1.26663, 1.27056, 1.26815, 1.26762, 1.26479, 1.26521, 1.26689, 1.26528, 1.26322, 1.26235, 1.26501, 1.26425, 1.26533, 1.26696, 1.26761, 1.27151, 1.27536, 1.26172, 1.27167, 1.39592, 1.50543, 1.47682, 1.51062, 1.42374, 1.38859, 1.24481, 1.27809, 1.28699, 1.27241, 1.26792, 1.26769, 1.26744, 1.27053, 1.26895, 1.26777, 1.27039, 1.26667, 1.26792, 1.27756, 1.27259, 1.27363, 1.26887, 1.27085, 1.27095, 1.27763, 1.27474, 1.27546, 1.27826, 1.27698, 1.27696, 1.27587, 1.27633, 1.27905, 1.29868, 1.27902, 1.2836, 1.28391, 1.30847, 1.28595, 1.28902, 1.29138, 1.29166, 1.29302, 1.29216, 1.29291, 1.29507, 1.29895, 1.29817, 1.2995, 1.30234, 1.30263, 1.30455, 1.30814, 1.3083, 1.3086, 1.30919, 1.31214, 1.31285, 1.31499, 1.31715, 1.31792, 1.31886, 1.32006, 1.32257, 1.32226, 1.32531, 1.32515, 1.34093, 1.33304, 1.33651, 1.33661, 1.34087, 1.35602, 1.34769, 1.35543, 1.43444, 1.48588, 1.49538, 1.47806, 1.47275, 1.43368, 1.3524, 1.34394, 1.37284, 1.37502, 1.3894, 1.38621, 1.39282, 1.39341, 1.38347, 1.38707, 1.39276, 1.39634, 1.39524, 1.39585, 1.39947, 1.40356, 1.41222, 1.41364, 1.41058, 1.41915, 1.42226, 1.42274, 
1.27303, 1.27264, 1.28086, 1.27196, 1.27167, 1.2678, 1.26854, 1.27457, 1.26928, 1.26719, 1.26613, 1.26574, 1.26554, 1.26588, 1.2659, 1.26805, 1.26718, 1.282, 1.26165, 1.26368, 1.27602, 1.27518, 1.26825, 1.30304, 1.35242, 1.46203, 1.5173, 1.51104, 1.45564, 1.35441, 1.23377, 1.27991, 1.27677, 1.27518, 1.2708, 1.26733, 1.26356, 1.26564, 1.26378, 1.26367, 1.26094, 1.26439, 1.26908, 1.27073, 1.27068, 1.26927, 1.27426, 1.27478, 1.27574, 1.2768, 1.2804, 1.27989, 1.27915, 1.27831, 1.27728, 1.27564, 1.27533, 1.27581, 1.27856, 1.27842, 1.28055, 1.28182, 1.28475, 1.28358, 1.28274, 1.28433, 1.2846, 1.28479, 1.28538, 1.28716, 1.28714, 1.29005, 1.29251, 1.29595, 1.29756, 1.29802, 1.29844, 1.30026, 1.29728, 1.29717, 1.29831, 1.30262, 1.3034, 1.3075, 1.30723, 1.30841, 1.31089, 1.31318, 1.31499, 1.31695, 1.31939, 1.32337, 1.32868, 1.32477, 1.33772, 1.3293, 1.33635, 1.34333, 1.30425, 1.36292, 1.47169, 1.46119, 1.49317, 1.49126, 1.4674, 1.44981, 1.4013, 1.37622, 1.3826, 1.36606, 1.36539, 1.38758, 1.39632, 1.3724, 1.38875, 1.39273, 1.39158, 1.39804, 1.39727, 1.39804, 1.40311, 1.40321, 1.40613, 1.40901, 1.41276, 1.41401, 1.42032, 1.42281, 
1.27073, 1.27233, 1.26954, 1.26836, 1.27059, 1.26783, 1.26835, 1.26694, 1.26769, 1.26481, 1.26561, 1.2668, 1.26545, 1.26371, 1.26546, 1.26435, 1.26431, 1.2641, 1.26083, 1.26214, 1.27952, 1.26947, 1.26444, 1.28143, 1.36474, 1.47408, 1.49607, 1.48983, 1.44156, 1.34262, 1.26841, 1.27606, 1.26789, 1.26598, 1.26165, 1.25913, 1.25915, 1.25782, 1.25701, 1.25584, 1.25659, 1.26061, 1.26201, 1.26388, 1.26173, 1.26427, 1.26418, 1.26685, 1.26939, 1.27037, 1.27248, 1.27269, 1.27173, 1.27222, 1.2723, 1.27247, 1.27197, 1.26907, 1.27393, 1.27517, 1.27817, 1.28254, 1.27966, 1.27965, 1.2805, 1.27891, 1.2812, 1.2826, 1.28422, 1.28174, 1.28122, 1.28989, 1.29511, 1.2966, 1.29891, 1.29858, 1.29844, 1.29939, 1.29878, 1.30126, 1.29998, 1.30317, 1.30133, 1.30566, 1.30576, 1.31138, 1.3128, 1.31428, 1.31617, 1.32005, 1.32126, 1.32431, 1.32782, 1.33756, 1.33127, 1.33373, 1.34669, 1.34657, 1.33236, 1.39537, 1.45437, 1.454, 1.47197, 1.51054, 1.44637, 1.40282, 1.3541, 1.34579, 1.38124, 1.38499, 1.37044, 1.37481, 1.37386, 1.37184, 1.37606, 1.38163, 1.38523, 1.387, 1.38858, 1.39021, 1.39442, 1.39697, 1.40018, 1.40498, 1.4045, 1.40883, 1.41585, 1.41599, 
