0.640932, 0.665666, 0.644759, 0.646538, 0.645015, 0.648437, 0.649026, 0.649231, 0.70489, 0.648569, 0.649376, 0.645364, 0.644897, 0.673203, 0.662642, 0.696109, 0.648717, 0.6453, 0.711773, 0.688382, 0.649123, 0.646864, 0.647705, 0.695325, 0.695708, 0.645119, 0.646238, 0.649084, 0.655656, 0.702381, 0.670387, 0.651726, 0.684392, 0.654548, 0.710363, 0.676825, 0.657409, 0.658751, 0.655707, 0.65934, 0.667075, 0.660007, 0.658802, 0.670529, 0.733169, 0.729644, 0.658172, 0.660395, 0.658518, 0.660684, 0.656929, 0.657964, 0.656877, 0.658435, 0.658018, 0.665573, 0.658088, 0.680361, 0.725177, 0.683264, 0.658818, 0.720567, 0.712852, 0.707955, 0.659205, 0.666469, 0.666556, 0.658691, 0.65908, 0.673791, 0.715971, 0.664041, 0.70566, 0.674837, 0.660125, 0.659932, 0.657521, 0.65795, 0.685564, 0.684916, 0.672008, 0.657681, 0.675182, 0.65925, 0.688724, 0.662112, 0.691933, 0.718291, 0.687607, 0.676681, 0.670262, 0.665176, 0.693117, 0.67362, 0.6891, 0.689918, 0.701727, 0.670536, 0.702702, 0.6798, 0.686414, 0.674082, 0.691675, 0.683845, 0.695672, 0.690409, 0.70182, 0.685206, 0.677267, 0.692644, 0.654607, 0.745574, 0.718603, 0.697834, 0.745095, 0.754525, 0.839619, 0.839139, 0.838082, 0.781036, 0.783315, 0.802705, 0.798339, 0.802748, 0.825968, 0.86118, 0.839701, 0.864792
0.64167, 0.639672, 0.65337, 0.642096, 0.640177, 0.637228, 0.639399, 0.644097, 0.66352, 0.648323, 0.646898, 0.675974, 0.645347, 0.689664, 0.643665, 0.700666, 0.648809, 0.652078, 0.643504, 0.68401, 0.647219, 0.644878, 0.648816, 0.638676, 0.658865, 0.648144, 0.645824, 0.646924, 0.645405, 0.649233, 0.688286, 0.650023, 0.653278, 0.650875, 0.6586, 0.715598, 0.65382, 0.649061, 0.648745, 0.684204, 0.684129, 0.669491, 0.663894, 0.659527, 0.658934, 0.659037, 0.661053, 0.659265, 0.658733, 0.667362, 0.657871, 0.657662, 0.659661, 0.663091, 0.657547, 0.658022, 0.658967, 0.659445, 0.659208, 0.658219, 0.663913, 0.658345, 0.658973, 0.712973, 0.688569, 0.680672, 0.695104, 0.659194, 0.658704, 0.704502, 0.695418, 0.726185, 0.660303, 0.658576, 0.678063, 0.661795, 0.658553, 0.671497, 0.661333, 0.658534, 0.696813, 0.664077, 0.659706, 0.658716, 0.658804, 0.661429, 0.673352, 0.666299, 0.705836, 0.697862, 0.690894, 0.66544, 0.666889, 0.696664, 0.68801, 0.67106, 0.707044, 0.670857, 0.693083, 0.688632, 0.673395, 0.676154, 0.676243, 0.717363, 0.698829, 0.67806, 0.686923, 0.66758, 0.69094, 0.67937, 0.642058, 0.722676, 0.72253, 0.71835, 0.765679, 0.778356, 0.831394, 0.821523, 0.817282, 0.831733, 0.830306, 0.831319, 0.823061, 0.825466, 0.832161, 0.961134, 0.858622, 0.864468
0.641823, 0.638343, 0.637533, 0.639129, 0.638179, 0.637171, 0.645946, 0.641995, 0.72531, 0.650617, 0.675675, 0.640154, 0.652964, 0.709031, 0.690046, 0.641568, 0.640808, 0.646658, 0.652494, 0.696916, 0.635484, 0.648823, 0.645152, 0.640498, 0.642246, 0.645472, 0.645432, 0.64611, 0.63941, 0.655779, 0.64838, 0.702009, 0.707563, 0.697964, 0.68913, 0.652029, 0.669862, 0.682912, 0.656238, 0.653255, 0.672306, 0.656321, 0.666144, 0.65792, 0.659594, 0.657459, 0.658393, 0.662873, 0.655672, 0.659128, 0.660827, 0.659726, 0.658921, 0.65565, 0.655811, 0.658275, 0.671032, 0.655486, 0.690449, 0.657471, 0.695913, 0.659744, 0.68068, 0.656647, 0.658613, 0.657902, 0.658788, 0.666275, 0.658959, 0.65882, 0.658827, 0.660665, 0.709132, 0.69577, 0.683564, 0.691239, 0.657698, 0.667483, 0.66273, 0.658361, 0.691907, 0.674832, 0.687051, 0.660344, 0.661542, 0.661408, 0.68745, 0.678667, 0.70676, 0.666622, 0.68339, 0.668664, 0.688516, 0.697138, 0.685586, 0.704693, 0.680687, 0.720348, 0.670442, 0.684843, 0.692286, 0.700053, 0.677198, 0.676992, 0.676804, 0.695068, 0.704463, 0.680272, 0.698283, 0.65443, 0.642018, 0.661111, 0.694996, 0.709219, 0.847545, 0.76338, 0.791547, 0.849724, 0.773554, 0.776852, 0.804274, 0.843256, 0.836115, 0.856928, 0.842115, 0.929681, 0.853141, 0.878316
0.671265, 0.646225, 0.639254, 0.632327, 0.643082, 0.637575, 0.638443, 0.63872, 0.646083, 0.633693, 0.631891, 0.677668, 0.642716, 0.701388, 0.708014, 0.638273, 0.641134, 0.637996, 0.702951, 0.644649, 0.639233, 0.646291, 0.642155, 0.642851, 0.640435, 0.638578, 0.641977, 0.640322, 0.644127, 0.642098, 0.641809, 0.686801, 0.645768, 0.654003, 0.646062, 0.724712, 0.66113, 0.660029, 0.668233, 0.653035, 0.644349, 0.667536, 0.656055, 0.717805, 0.717613, 0.669059, 0.698758, 0.656989, 0.663716, 0.670494, 0.655807, 0.653559, 0.66045, 0.66087, 0.653291, 0.649145, 0.661065, 0.746103, 0.676295, 0.654285, 0.66131, 0.663524, 0.736772, 0.657657, 0.686521, 0.656712, 0.655911, 0.65856, 0.717743, 0.659663, 0.65887, 0.658469, 0.658504, 0.657337, 0.657113, 0.680623, 0.656941, 0.676513, 0.662253, 0.677825, 0.669571, 0.671141, 0.658028, 0.659771, 0.666074, 0.662098, 0.66936, 0.662605, 0.683937, 0.717934, 0.678092, 0.666146, 0.664918, 0.669441, 0.672153, 0.668859, 0.686614, 0.669755, 0.690787, 0.694152, 0.68121, 0.701605, 0.691638, 0.695081, 0.716659, 0.702217, 0.671384, 0.669394, 0.690169, 0.654422, 0.67453, 0.669894, 0.68131, 0.680096, 0.73214, 0.77031, 0.783643, 0.774057, 0.82081, 0.79128, 0.782338, 0.809507, 0.836319, 0.838431, 0.975035, 0.885175, 0.929919, 0.856822
0.634303, 0.638608, 0.634674, 0.638362, 0.693964, 0.63585, 0.638243, 0.633341, 0.634179, 0.633424, 0.634941, 0.639304, 0.63505, 0.635771, 0.635777, 0.635816, 0.638228, 0.641474, 0.634549, 0.636431, 0.63502, 0.632217, 0.653966, 0.635757, 0.635379, 0.636002, 0.653446, 0.642752, 0.638403, 0.638198, 0.687892, 0.659192, 0.642369, 0.645191, 0.653896, 0.663355, 0.649048, 0.659246, 0.65521, 0.653003, 0.649469, 0.669359, 0.652582, 0.655504, 0.659028, 0.706578, 0.657318, 0.657477, 0.662608, 0.655931, 0.670993, 0.665707, 0.687949, 0.653161, 0.652249, 0.65313, 0.667933, 0.658153, 0.718287, 0.686747, 0.656121, 0.649072, 0.656014, 0.708358, 0.715868, 0.654842, 0.680194, 0.659731, 0.660175, 0.651154, 0.654158, 0.714209, 0.712554, 0.666491, 0.674552, 0.655705, 0.670938, 0.714515, 0.652278, 0.681076, 0.680613, 0.661135, 0.660932, 0.668506, 0.687767, 0.664566, 0.678949, 0.663806, 0.666303, 0.688643, 0.708468, 0.681301, 0.695553, 0.668864, 0.682731, 0.67397, 0.680237, 0.676243, 0.693458, 0.71059, 0.706316, 0.686783, 0.68305, 0.677639, 0.677232, 0.688046, 0.702656, 0.693294, 0.668983, 0.650145, 0.679813, 0.673025, 0.709598, 0.678962, 0.721989, 0.755775, 0.756327, 0.750714, 0.811696, 0.75818, 0.827673, 0.81562, 0.815029, 0.836551, 0.863343, 0.910462, 0.894625, 0.975336
0.635496, 0.633837, 0.634532, 0.636001, 0.658748, 0.633201, 0.638552, 0.632614, 0.63147, 0.634459, 0.630527, 0.62971, 0.634263, 0.635215, 0.670917, 0.685572, 0.631696, 0.631584, 0.634022, 0.631496, 0.636356, 0.631562, 0.632657, 0.639017, 0.6355, 0.635443, 0.638951, 0.636973, 0.637479, 0.635562, 0.642328, 0.641804, 0.640984, 0.650104, 0.647054, 0.660478, 0.659897, 0.659694, 0.686727, 0.660827, 0.645187, 0.654081, 0.650705, 0.683865, 0.6567, 0.750074, 0.702747, 0.722534, 0.671128, 0.653342, 0.655513, 0.683069, 0.655167, 0.649976, 0.652682, 0.653326, 0.671151, 0.670586, 0.654744, 0.664717, 0.691282, 0.646732, 0.655078, 0.654968, 0.678053, 0.666818, 0.680878, 0.684076, 0.656041, 0.650985, 0.654409, 0.651491, 0.660397, 0.653038, 0.648664, 0.677645, 0.646115, 0.648797, 0.667291, 0.665431, 0.663291, 0.738672, 0.67457, 0.668006, 0.672575, 0.682842, 0.662203, 0.674537, 0.688405, 0.684196, 0.662742, 0.681207, 0.701574, 0.683883, 0.687502, 0.672711, 0.680781, 0.677281, 0.677148, 0.705557, 0.675318, 0.676158, 0.684998, 0.682329, 0.683797, 0.689972, 0.688585, 0.674999, 0.649817, 0.650013, 0.704758, 0.688404, 0.676326, 0.720094, 0.748906, 0.753742, 0.792156, 0.745607, 0.754188, 0.760058, 0.805919, 0.821448, 0.774563, 0.841644, 0.84952, 0.87508, 0.928037, 0.911787
0.637092, 0.633031, 0.635302, 0.633906, 0.634033, 0.631423, 0.631056, 0.633067, 0.632125, 0.632097, 0.631013, 0.63085, 0.636843, 0.630352, 0.63106, 0.633701, 0.630408, 0.632082, 0.631447, 0.632998, 0.682101, 0.632036, 0.633449, 0.681489, 0.68014, 0.636757, 0.636159, 0.636712, 0.642932, 0.637499, 0.636052, 0.63805, 0.63852, 0.639508, 0.657982, 0.645204, 0.645824, 0.645224, 0.650702, 0.658672, 0.656387, 0.649206, 0.656855, 0.650376, 0.666652, 0.651228, 0.653659, 0.711729, 0.711225, 0.652287, 0.647471, 0.648032, 0.648209, 0.68329, 0.658997, 0.642496, 0.645794, 0.658879, 0.704948, 0.653804, 0.694947, 0.670915, 0.678404, 0.652018, 0.651123, 0.653691, 0.664849, 0.684097, 0.646, 0.649748, 0.656947, 0.670447, 0.648103, 0.646886, 0.666032, 0.650204, 0.689869, 0.650305, 0.648707, 0.680328, 0.653291, 0.686677, 0.68986, 0.656904, 0.655407, 0.657979, 0.671192, 0.665697, 0.690992, 0.680134, 0.676384, 0.663993, 0.664901, 0.692539, 0.684141, 0.669802, 0.69471, 0.690402, 0.672193, 0.714319, 0.674612, 0.683301, 0.679373, 0.750307, 0.68544, 0.674348, 0.713173, 0.687698, 0.680953, 0.650121, 0.662687, 0.673554, 0.694992, 0.730399, 0.693981, 0.695528, 0.762118, 0.759997, 0.752342, 0.760151, 0.849711, 0.774786, 0.774885, 0.849913, 0.850272, 0.856642, 0.842046, 0.81
0.632731, 0.636525, 0.633984, 0.632073, 0.632789, 0.649005, 0.630683, 0.634662, 0.630276, 0.630866, 0.630428, 0.630788, 0.628835, 0.631868, 0.633188, 0.630507, 0.629471, 0.628905, 0.63019, 0.631285, 0.631704, 0.631808, 0.632238, 0.63455, 0.679402, 0.632222, 0.635247, 0.636162, 0.635994, 0.6395, 0.6376, 0.636406, 0.637841, 0.642299, 0.643935, 0.694624, 0.643606, 0.644938, 0.648594, 0.650682, 0.653975, 0.662239, 0.651421, 0.652683, 0.652059, 0.652376, 0.648891, 0.653193, 0.650144, 0.645668, 0.655131, 0.644825, 0.651437, 0.652494, 0.6809, 0.656944, 0.639126, 0.639588, 0.688594, 0.642365, 0.695957, 0.673783, 0.672959, 0.646371, 0.645873, 0.69793, 0.645101, 0.649198, 0.649617, 0.650835, 0.648606, 0.64747, 0.645564, 0.647181, 0.670143, 0.660263, 0.691773, 0.676482, 0.660165, 0.683051, 0.668978, 0.6527, 0.668795, 0.656685, 0.655797, 0.701489, 0.701387, 0.669898, 0.673348, 0.662762, 0.663061, 0.688697, 0.677459, 0.674792, 0.671661, 0.667394, 0.674596, 0.712302, 0.712794, 0.675115, 0.67494, 0.68437, 0.686944, 0.681855, 0.708812, 0.698926, 0.684876, 0.671114, 0.688126, 0.649306, 0.622349, 0.647021, 0.668939, 0.731995, 0.700124, 0.712263, 0.749938, 0.747686, 0.748522, 0.756473, 0.791468, 0.774393, 0.775797, 0.809357, 0.822458, 0.832708, 0.836129, 0.80981
0.634942, 0.635726, 0.632231, 0.634486, 0.633862, 0.631968, 0.634212, 0.6312, 0.631143, 0.628659, 0.628313, 0.629526, 0.629201, 0.63012, 0.628834, 0.628504, 0.628974, 0.63113, 0.629448, 0.629651, 0.631747, 0.630833, 0.631513, 0.632304, 0.631892, 0.634496, 0.636189, 0.636783, 0.637697, 0.636659, 0.639557, 0.638249, 0.635552, 0.639556, 0.668289, 0.643602, 0.646235, 0.647261, 0.649717, 0.649602, 0.652569, 0.649274, 0.659653, 0.650683, 0.648971, 0.679421, 0.645797, 0.651417, 0.647293, 0.653115, 0.650254, 0.64946, 0.645737, 0.639581, 0.63865, 0.641252, 0.638983, 0.641577, 0.650441, 0.639961, 0.640665, 0.673386, 0.671846, 0.684536, 0.670562, 0.645881, 0.644171, 0.666953, 0.641154, 0.64382, 0.63965, 0.659607, 0.641119, 0.640266, 0.67943, 0.643235, 0.655275, 0.650841, 0.656843, 0.653579, 0.659767, 0.681336, 0.654024, 0.701949, 0.656982, 0.656016, 0.665952, 0.688161, 0.660811, 0.663051, 0.682357, 0.662628, 0.665452, 0.674275, 0.666405, 0.666716, 0.668083, 0.672162, 0.684509, 0.68627, 0.680964, 0.680702, 0.705833, 0.674503, 0.670419, 0.68067, 0.681096, 0.691807, 0.645088, 0.649692, 0.656983, 0.678298, 0.701758, 0.795302, 0.67303, 0.71445, 0.709308, 0.737553, 0.729402, 0.76061, 0.760718, 0.752134, 0.774313, 0.838371, 0.784847, 0.798412, 0.805349, 0.81761
0.636491, 0.64332, 0.634606, 0.634565, 0.653214, 0.633569, 0.632202, 0.632003, 0.629096, 0.630056, 0.628429, 0.629389, 0.628711, 0.628397, 0.629646, 0.62843, 0.628824, 0.628679, 0.633662, 0.632751, 0.628546, 0.631577, 0.629627, 0.631439, 0.630519, 0.632485, 0.633476, 0.638527, 0.635091, 0.635121, 0.635631, 0.636932, 0.684626, 0.704755, 0.639895, 0.649936, 0.646878, 0.652706, 0.648975, 0.649987, 0.650454, 0.667531, 0.649003, 0.651909, 0.648432, 0.649086, 0.648265, 0.647019, 0.659652, 0.65018, 0.645415, 0.643047, 0.639004, 0.695065, 0.637653, 0.63723, 0.64074, 0.638258, 0.636355, 0.639895, 0.634349, 0.635623, 0.677764, 0.666685, 0.643116, 0.640773, 0.647504, 0.636766, 0.635459, 0.642184, 0.63522, 0.636802, 0.644908, 0.674188, 0.639951, 0.645885, 0.691509, 0.652579, 0.674653, 0.650141, 0.649771, 0.653177, 0.656023, 0.656964, 0.668787, 0.658385, 0.659402, 0.658602, 0.65995, 0.661514, 0.66132, 0.681817, 0.662479, 0.663799, 0.665771, 0.681399, 0.670696, 0.67058, 0.681609, 0.687027, 0.669609, 0.670657, 0.70911, 0.708646, 0.696771, 0.672162, 0.671054, 0.667368, 0.70438, 0.665793, 0.690125, 0.705634, 0.708995, 0.705456, 0.70951, 0.754471, 0.726712, 0.783705, 0.786983, 0.776407, 0.784435, 0.779654, 0.768837, 0.771308, 0.820597, 0.801467, 0.850469, 0.818207
0.645224, 0.634886, 0.637426, 0.638033, 0.634949, 0.63346, 0.633381, 0.746979, 0.631918, 0.669379, 0.62853, 0.629288, 0.630452, 0.630366, 0.627832, 0.628619, 0.629233, 0.628732, 0.632794, 0.629054, 0.629357, 0.629255, 0.629939, 0.631463, 0.632603, 0.632562, 0.632614, 0.632506, 0.6353, 0.636122, 0.686599, 0.635923, 0.683377, 0.641835, 0.645585, 0.642543, 0.648306, 0.647597, 0.650834, 0.650997, 0.650695, 0.650323, 0.64894, 0.648705, 0.648209, 0.647217, 0.64584, 0.645829, 0.714092, 0.6455, 0.646197, 0.643177, 0.645115, 0.644071, 0.637102, 0.643643, 0.63676, 0.639787, 0.635184, 0.636656, 0.635219, 0.645144, 0.640153, 0.639826, 0.633546, 0.637106, 0.643809, 0.695873, 0.658226, 0.639998, 0.638452, 0.639183, 0.637697, 0.637446, 0.657828, 0.649732, 0.670997, 0.662119, 0.679615, 0.651834, 0.650415, 0.654474, 0.654163, 0.657993, 0.692238, 0.68658, 0.660951, 0.662938, 0.661685, 0.701569, 0.661307, 0.660587, 0.670503, 0.677455, 0.675184, 0.684622, 0.663122, 0.665835, 0.677763, 0.675017, 0.673414, 0.677563, 0.672841, 0.676594, 0.693385, 0.678578, 0.697865, 0.677565, 0.679677, 0.614484, 0.684516, 0.665338, 0.715419, 0.669501, 0.711457, 0.728761, 0.765175, 0.797828, 0.804727, 0.781305, 0.74239, 0.805875, 0.811317, 0.790836, 0.790407, 0.849678, 0.831892, 0.873115
0.63835, 0.638376, 0.638638, 0.637377, 0.637779, 0.636635, 0.63264, 0.632902, 0.631437, 0.629931, 0.630641, 0.629525, 0.629304, 0.629029, 0.628704, 0.630127, 0.628905, 0.629166, 0.688567, 0.629507, 0.643181, 0.630209, 0.630648, 0.631485, 0.630476, 0.633719, 0.633958, 0.636398, 0.634258, 0.638368, 0.645909, 0.63631, 0.636911, 0.662217, 0.646841, 0.645312, 0.648666, 0.653972, 0.650162, 0.652159, 0.651763, 0.652208, 0.653072, 0.68752, 0.648714, 0.648507, 0.653189, 0.647217, 0.642835, 0.642154, 0.641981, 0.643525, 0.638527, 0.639859, 0.642559, 0.635341, 0.66678, 0.634955, 0.642944, 0.636097, 0.635577, 0.635856, 0.634901, 0.63508, 0.636827, 0.654146, 0.639894, 0.638959, 0.680382, 0.634351, 0.635527, 0.651652, 0.637943, 0.638233, 0.655436, 0.68823, 0.68031, 0.665293, 0.678454, 0.671145, 0.666568, 0.665808, 0.692563, 0.657479, 0.677286, 0.65978, 0.660502, 0.659604, 0.661201, 0.661496, 0.661225, 0.661605, 0.665911, 0.660242, 0.662608, 0.673288, 0.668401, 0.672945, 0.679074, 0.677626, 0.674855, 0.678641, 0.684923, 0.689655, 0.684355, 0.674549, 0.68008, 0.674977, 0.674456, 0.615601, 0.666791, 0.756945, 0.68961, 0.686683, 0.739054, 0.780698, 0.737873, 0.770655, 0.752882, 0.821127, 0.763606, 0.828489, 0.802753, 0.791622, 0.790727, 0.83332, 0.842394, 0.846662
0.637565, 0.642808, 0.641157, 0.640729, 0.635331, 0.637464, 0.637422, 0.698773, 0.700898, 0.632468, 0.631099, 0.630111, 0.630977, 0.628812, 0.629852, 0.634646, 0.63043, 0.628717, 0.629684, 0.629836, 0.652637, 0.631489, 0.632129, 0.634495, 0.632415, 0.634837, 0.634867, 0.634618, 0.638516, 0.637214, 0.637113, 0.639719, 0.638726, 0.643901, 0.650551, 0.647616, 0.742811, 0.650267, 0.65128, 0.653356, 0.652648, 0.652071, 0.652397, 0.648215, 0.656601, 0.646918, 0.652876, 0.645805, 0.644821, 0.641954, 0.641711, 0.640113, 0.641976, 0.642056, 0.638691, 0.635718, 0.635179, 0.653644, 0.634684, 0.637675, 0.634753, 0.635685, 0.634734, 0.654273, 0.635876, 0.634062, 0.667219, 0.643612, 0.633814, 0.634717, 0.635204, 0.646759, 0.636479, 0.638502, 0.676312, 0.642967, 0.679699, 0.672232, 0.656077, 0.656424, 0.652756, 0.660417, 0.656749, 0.663454, 0.660022, 0.661208, 0.676182, 0.661969, 0.662185, 0.660814, 0.662083, 0.661242, 0.685066, 0.667382, 0.677963, 0.664128, 0.664182, 0.672572, 0.681948, 0.680723, 0.685946, 0.693356, 0.669629, 0.669568, 0.680275, 0.686312, 0.68809, 0.690369, 0.686641, 0.687048, 0.622025, 0.70482, 0.68557, 0.685403, 0.755478, 0.772159, 0.737434, 0.773816, 0.741742, 0.79116, 0.77791, 0.801914, 0.826332, 0.834332, 0.832489, 0.844482, 0.842205, 0.8627
0.640632, 0.641612, 0.644969, 0.644007, 0.641636, 0.639068, 0.637767, 0.636045, 0.635481, 0.685417, 0.669577, 0.629768, 0.678099, 0.630499, 0.633497, 0.632343, 0.638646, 0.636044, 0.631559, 0.630719, 0.639013, 0.63513, 0.633339, 0.635023, 0.63262, 0.635005, 0.635262, 0.657266, 0.634473, 0.63997, 0.642125, 0.648958, 0.642926, 0.645545, 0.649648, 0.652102, 0.653009, 0.748516, 0.653906, 0.653463, 0.652739, 0.653707, 0.651808, 0.650819, 0.649873, 0.647231, 0.653324, 0.649009, 0.644764, 0.643155, 0.641371, 0.642027, 0.641413, 0.643156, 0.638349, 0.639384, 0.635207, 0.635339, 0.637284, 0.638186, 0.636952, 0.637054, 0.635652, 0.635756, 0.636333, 0.663404, 0.634685, 0.635006, 0.652796, 0.635168, 0.635191, 0.634784, 0.63608, 0.662357, 0.69813, 0.650309, 0.697606, 0.652786, 0.655257, 0.677629, 0.684427, 0.653147, 0.659384, 0.663657, 0.65954, 0.663463, 0.66254, 0.662852, 0.663351, 0.663152, 0.662607, 0.736938, 0.659955, 0.661392, 0.660416, 0.661123, 0.695897, 0.68356, 0.675784, 0.6779, 0.690163, 0.708252, 0.686071, 0.668164, 0.680602, 0.692435, 0.685122, 0.668932, 0.657096, 0.660655, 0.615132, 0.650899, 0.690544, 0.691731, 0.752062, 0.772138, 0.772962, 0.752885, 0.740886, 0.763701, 0.821437, 0.836111, 0.873201, 0.874505, 0.849166, 0.977159, 0.844669, 0.840539
0.645577, 0.644885, 0.643587, 0.642978, 0.639605, 0.642347, 0.639345, 0.638277, 0.633671, 0.636151, 0.635348, 0.634333, 0.630924, 0.630374, 0.632559, 0.635533, 0.628967, 0.632253, 0.632229, 0.632506, 0.63753, 0.632324, 0.634421, 0.63508, 0.645557, 0.638316, 0.640051, 0.638051, 0.64359, 0.652067, 0.63931, 0.643193, 0.643318, 0.681407, 0.688819, 0.651707, 0.652711, 0.653418, 0.655246, 0.655839, 0.653278, 0.654522, 0.654214, 0.651084, 0.653316, 0.647591, 0.646285, 0.648723, 0.647143, 0.64721, 0.648432, 0.642931, 0.640942, 0.655533, 0.65973, 0.638227, 0.687988, 0.655596, 0.677211, 0.638431, 0.656066, 0.637576, 0.663004, 0.635167, 0.638012, 0.634928, 0.635584, 0.635393, 0.637233, 0.674526, 0.639196, 0.643786, 0.65981, 0.643966, 0.646996, 0.667225, 0.712108, 0.679295, 0.670226, 0.656749, 0.656501, 0.659237, 0.660747, 0.665893, 0.663734, 0.675456, 0.685705, 0.661322, 0.660598, 0.659202, 0.679248, 0.659545, 0.659723, 0.661757, 0.660357, 0.660113, 0.674286, 0.673015, 0.661429, 0.676021, 0.677111, 0.667833, 0.675659, 0.669433, 0.668459, 0.674273, 0.680043, 0.687591, 0.677874, 0.670372, 0.635089, 0.687264, 0.696831, 0.698814, 0.766009, 0.714432, 0.777022, 0.764093, 0.772947, 0.840257, 0.819998, 0.835701, 0.853697, 0.874173, 0.870468, 0.820254, 0.837941, 0.837385
0.645811, 0.645047, 0.645069, 0.644178, 0.645159, 0.650112, 0.641066, 0.641881, 0.640657, 0.641942, 0.64161, 0.638865, 0.64966, 0.652677, 0.707863, 0.633676, 0.639503, 0.666821, 0.640679, 0.640282, 0.642243, 0.632838, 0.63705, 0.642552, 0.640599, 0.638901, 0.646703, 0.64875, 0.643107, 0.644817, 0.646698, 0.642839, 0.650033, 0.655741, 0.653657, 0.653095, 0.65621, 0.656405, 0.652774, 0.654489, 0.655831, 0.654471, 0.657418, 0.649783, 0.675179, 0.649093, 0.650722, 0.647248, 0.648192, 0.642794, 0.660524, 0.641933, 0.646595, 0.643961, 0.644001, 0.646317, 0.656387, 0.642679, 0.635674, 0.647399, 0.640307, 0.691207, 0.639139, 0.640117, 0.637843, 0.638129, 0.632852, 0.673173, 0.637768, 0.657972, 0.636392, 0.654747, 0.644997, 0.644438, 0.684999, 0.666418, 0.675883, 0.66561, 0.654847, 0.66566, 0.670835, 0.682359, 0.670554, 0.689113, 0.675446, 0.662367, 0.662331, 0.670234, 0.661894, 0.659196, 0.660698, 0.659114, 0.663892, 0.658814, 0.684099, 0.694362, 0.691645, 0.659711, 0.662872, 0.691623, 0.667715, 0.699224, 0.667959, 0.669886, 0.673683, 0.67676, 0.662721, 0.663717, 0.696692, 0.678419, 0.695043, 0.692686, 0.674315, 0.693523, 0.731559, 0.715041, 0.770295, 0.829712, 0.764389, 0.786953, 0.828278, 0.842718, 0.837119, 0.861106, 0.811558, 0.810795, 0.861964, 0.837416
0.651124, 0.64822, 0.646934, 0.646212, 0.644715, 0.645126, 0.644431, 0.646085, 0.643697, 0.678169, 0.641802, 0.64231, 0.646543, 0.70745, 0.657217, 0.645184, 0.638324, 0.641967, 0.640837, 0.655928, 0.644261, 0.643972, 0.641771, 0.676802, 0.639041, 0.640328, 0.67638, 0.642829, 0.666605, 0.643254, 0.654697, 0.652592, 0.651347, 0.651744, 0.652325, 0.662974, 0.655082, 0.656555, 0.656495, 0.655944, 0.654608, 0.655186, 0.656297, 0.656054, 0.693647, 0.652389, 0.652037, 0.646472, 0.647255, 0.662729, 0.647794, 0.66382, 0.645815, 0.64408, 0.648058, 0.64172, 0.643609, 0.66934, 0.644967, 0.652912, 0.64125, 0.642613, 0.684504, 0.67578, 0.6425, 0.638618, 0.65953, 0.674352, 0.641884, 0.671144, 0.643315, 0.662103, 0.667188, 0.666628, 0.645332, 0.656785, 0.674167, 0.655402, 0.660508, 0.68009, 0.658115, 0.691439, 0.660019, 0.675855, 0.673897, 0.686809, 0.661753, 0.661376, 0.679802, 0.669381, 0.65953, 0.698878, 0.674362, 0.659506, 0.659149, 0.70569, 0.689872, 0.693449, 0.658968, 0.662285, 0.674119, 0.68745, 0.667317, 0.695369, 0.680062, 0.668014, 0.673487, 0.666372, 0.683901, 0.623923, 0.623967, 0.718029, 0.693416, 0.781382, 0.726368, 0.775574, 0.735198, 0.772407, 0.769771, 0.773957, 0.836389, 0.819349, 0.836422, 0.866064, 0.805919, 0.830244, 0.821291, 0.834639
0.656794, 0.649171, 0.64768, 0.646618, 0.645615, 0.647481, 0.64528, 0.646094, 0.669121, 0.676689, 0.674192, 0.640364, 0.643215, 0.657237, 0.655714, 0.653971, 0.639381, 0.644601, 0.643862, 0.648199, 0.684145, 0.690815, 0.649023, 0.686531, 0.685693, 0.690073, 0.645524, 0.696091, 0.646416, 0.656456, 0.684262, 0.651136, 0.650794, 0.652632, 0.651377, 0.654909, 0.655481, 0.656534, 0.657175, 0.657107, 0.658344, 0.655126, 0.656129, 0.655783, 0.653849, 0.653879, 0.658548, 0.651582, 0.657151, 0.649313, 0.649907, 0.700839, 0.653087, 0.667087, 0.649135, 0.657095, 0.649339, 0.646085, 0.64984, 0.64315, 0.687891, 0.654997, 0.643674, 0.648023, 0.649596, 0.651639, 0.668485, 0.668746, 0.647292, 0.718106, 0.650628, 0.680458, 0.701333, 0.681903, 0.672797, 0.650452, 0.654174, 0.678876, 0.690912, 0.680497, 0.660545, 0.666716, 0.710733, 0.673275, 0.700194, 0.684242, 0.698882, 0.661342, 0.660289, 0.662017, 0.661274, 0.690281, 0.662688, 0.658692, 0.704454, 0.659178, 0.658396, 0.668235, 0.667927, 0.69303, 0.680926, 0.681044, 0.685165, 0.689653, 0.684857, 0.677912, 0.672824, 0.662863, 0.652917, 0.657399, 0.648174, 0.718079, 0.689002, 0.739149, 0.731334, 0.72534, 0.752135, 0.74997, 0.771127, 0.819249, 0.821801, 0.826946, 0.822222, 0.840438, 0.805977, 0.819857, 0.819006, 0.81896
0.65203, 0.655951, 0.651839, 0.645408, 0.645955, 0.648876, 0.670074, 0.67738, 0.645773, 0.651534, 0.676152, 0.645996, 0.645888, 0.664999, 0.650368, 0.698037, 0.647031, 0.642037, 0.661994, 0.732005, 0.649326, 0.64592, 0.657583, 0.649093, 0.686522, 0.650235, 0.6499, 0.65584, 0.653547, 0.647011, 0.667079, 0.665737, 0.649249, 0.655143, 0.660586, 0.65869, 0.670484, 0.676934, 0.658204, 0.657897, 0.659742, 0.6564, 0.659661, 0.657412, 0.656607, 0.656163, 0.655888, 0.657068, 0.653164, 0.654562, 0.654117, 0.712971, 0.653166, 0.657238, 0.711255, 0.652656, 0.65199, 0.669252, 0.725924, 0.644481, 0.721189, 0.649118, 0.667758, 0.684772, 0.643514, 0.646629, 0.666646, 0.645289, 0.653645, 0.680531, 0.669746, 0.667688, 0.670856, 0.708311, 0.655208, 0.661452, 0.658572, 0.65751, 0.661955, 0.676811, 0.676155, 0.662548, 0.695514, 0.675281, 0.662789, 0.679955, 0.675007, 0.682883, 0.677389, 0.677272, 0.660932, 0.668767, 0.691429, 0.657911, 0.668981, 0.659003, 0.68648, 0.660671, 0.667298, 0.660764, 0.661063, 0.680364, 0.692671, 0.666453, 0.669677, 0.699406, 0.681341, 0.666599, 0.63845, 0.688889, 0.634581, 0.655692, 0.729523, 0.745475, 0.74305, 0.73778, 0.735225, 0.784417, 0.788345, 0.772599, 0.79495, 0.800973, 0.824274, 0.820285, 0.818346, 0.841502, 0.822971, 0.815796
0.652847, 0.651851, 0.673552, 0.652782, 0.669017, 0.674313, 0.648147, 0.649984, 0.648738, 0.649025, 0.648144, 0.649297, 0.706119, 0.709187, 0.649722, 0.649705, 0.65274, 0.652617, 0.677196, 0.648507, 0.649209, 0.726529, 0.659436, 0.694963, 0.654007, 0.650072, 0.663987, 0.649564, 0.656322, 0.702826, 0.652591, 0.700733, 0.71497, 0.658652, 0.662985, 0.680813, 0.65763, 0.657655, 0.658322, 0.677027, 0.657214, 0.659185, 0.65979, 0.656776, 0.65933, 0.660527, 0.659024, 0.695015, 0.657279, 0.669089, 0.655185, 0.671267, 0.652799, 0.69231, 0.692208, 0.648974, 0.651968, 0.669204, 0.684406, 0.652796, 0.652331, 0.652972, 0.651905, 0.689346, 0.676369, 0.666767, 0.693418, 0.706224, 0.657379, 0.681977, 0.651988, 0.688851, 0.684738, 0.683456, 0.703767, 0.657059, 0.692119, 0.669374, 0.659803, 0.703493, 0.674867, 0.673744, 0.684935, 0.662047, 0.704012, 0.688515, 0.667058, 0.663248, 0.677239, 0.670438, 0.67868, 0.701063, 0.663351, 0.680802, 0.658364, 0.670635, 0.683724, 0.6602, 0.660086, 0.665699, 0.67845, 0.67697, 0.689844, 0.677502, 0.678029, 0.681643, 0.671811, 0.637988, 0.63701, 0.635877, 0.660214, 0.644422, 0.654442, 0.712553, 0.655836, 0.783669, 0.739043, 0.752864, 0.781454, 0.771162, 0.777967, 0.810435, 0.85263, 0.832693, 0.807288, 0.833259, 0.855559, 0.823036
0.654393, 0.717042, 0.71751, 0.652466, 0.683041, 0.680523, 0.659563, 0.659122, 0.650008, 0.648801, 0.707677, 0.648631, 0.649387, 0.696076, 0.652316, 0.651224, 0.654412, 0.652492, 0.71858, 0.649695, 0.659431, 0.652255, 0.653041, 0.652387, 0.689052, 0.65607, 0.652067, 0.655708, 0.653244, 0.655721, 0.656102, 0.678397, 0.67773, 0.656556, 0.659649, 0.661618, 0.658768, 0.659022, 0.659065, 0.65897, 0.659267, 0.67787, 0.660541, 0.659654, 0.660302, 0.660633, 0.660221, 0.659752, 0.656952, 0.655818, 0.707234, 0.718612, 0.653147, 0.65548, 0.655527, 0.684288, 0.654713, 0.653038, 0.659776, 0.651748, 0.654816, 0.656792, 0.66594, 0.680949, 0.654805, 0.686068, 0.654485, 0.702316, 0.694906, 0.676356, 0.658299, 0.653813, 0.679899, 0.705089, 0.669843, 0.655504, 0.659572, 0.696659, 0.66067, 0.682849, 0.677343, 0.671361, 0.665707, 0.681183, 0.678164, 0.664538, 0.66453, 0.690274, 0.697517, 0.690233, 0.676785, 0.667411, 0.673211, 0.672746, 0.661968, 0.670316, 0.669806, 0.667189, 0.661045, 0.662009, 0.678514, 0.667514, 0.669478, 0.687166, 0.680138, 0.673073, 0.666247, 0.662985, 0.635483, 0.638592, 0.691594, 0.677652, 0.656302, 0.657648, 0.656793, 0.655265, 0.656085, 0.80263, 0.766171, 0.804555, 0.773035, 0.813883, 0.813471, 0.822079, 0.744208, 0.912888, 0.847681, 0.780431
0.654479, 0.652811, 0.654478, 0.739076, 0.655024, 0.651949, 0.652518, 0.655017, 0.653243, 0.649404, 0.650601, 0.655446, 0.702088, 0.65005, 0.650785, 0.653279, 0.650523, 0.679748, 0.651584, 0.651698, 0.654582, 0.651752, 0.659464, 0.666327, 0.652329, 0.655074, 0.655576, 0.671456, 0.661637, 0.656211, 0.728475, 0.656055, 0.654022, 0.664487, 0.697699, 0.698715, 0.679282, 0.692018, 0.658784, 0.674855, 0.660737, 0.659846, 0.6609, 0.66083, 0.660783, 0.662886, 0.660078, 0.659697, 0.685383, 0.66251, 0.666986, 0.658385, 0.657617, 0.664218, 0.6581, 0.675511, 0.655596, 0.65533, 0.655824, 0.656335, 0.700158, 0.656572, 0.654142, 0.683367, 0.663333, 0.652961, 0.653096, 0.68601, 0.682983, 0.655899, 0.693471, 0.661036, 0.665551, 0.662397, 0.663677, 0.656763, 0.673508, 0.667338, 0.670074, 0.663189, 0.664945, 0.747133, 0.674001, 0.685427, 0.67595, 0.672574, 0.692057, 0.667438, 0.679849, 0.705824, 0.670382, 0.692613, 0.705818, 0.663385, 0.681264, 0.663662, 0.664358, 0.683264, 0.686551, 0.669935, 0.69597, 0.687028, 0.676029, 0.674924, 0.669848, 0.673472, 0.687746, 0.705572, 0.634958, 0.653318, 0.687117, 0.732958, 0.655841, 0.657848, 0.656901, 0.655723, 0.657275, 0.78527, 0.791632, 0.771459, 0.773838, 0.81067, 0.823087, 0.942773, 0.749073, 0.75138, 0.754044, 0.760335
0.65512, 0.655245, 0.670736, 0.653038, 0.679665, 0.652817, 0.651711, 0.671073, 0.652173, 0.655057, 0.651593, 0.72822, 0.652759, 0.680272, 0.653003, 0.717084, 0.652358, 0.721903, 0.651726, 0.652317, 0.653144, 0.652638, 0.716722, 0.661428, 0.655324, 0.654302, 0.657632, 0.655119, 0.6558, 0.655897, 0.655255, 0.715737, 0.721636, 0.661485, 0.65897, 0.659695, 0.668836, 0.683484, 0.727835, 0.675985, 0.667398, 0.726101, 0.713714, 0.692478, 0.660887, 0.662694, 0.68677, 0.66006, 0.685427, 0.693817, 0.665767, 0.697482, 0.708149, 0.661303, 0.662078, 0.659438, 0.655079, 0.656217, 0.656588, 0.65691, 0.657311, 0.656853, 0.665356, 0.664166, 0.700914, 0.673296, 0.657823, 0.687554, 0.657245, 0.680959, 0.659011, 0.659929, 0.666875, 0.705517, 0.674055, 0.695577, 0.663509, 0.685185, 0.729603, 0.663357, 0.66932, 0.672848, 0.665882, 0.664968, 0.665841, 0.666356, 0.665965, 0.684209, 0.665412, 0.664544, 0.6638, 0.663027, 0.665003, 0.679815, 0.691502, 0.68768, 0.691058, 0.667943, 0.670603, 0.666633, 0.692323, 0.68558, 0.680433, 0.673618, 0.674159, 0.669953, 0.669297, 0.677609, 0.662069, 0.698981, 0.676382, 0.722641, 0.655544, 0.657441, 0.782351, 0.777334, 0.657151, 0.759814, 0.785891, 0.795098, 0.807227, 0.856952, 0.970712, 0.742962, 0.74939, 0.753332, 0.755471, 0.812734
0.678007, 0.654607, 0.654377, 0.655076, 0.65597, 0.653675, 0.653619, 0.653446, 0.653723, 0.653208, 0.654218, 0.690973, 0.651786, 0.677093, 0.652256, 0.653798, 0.652888, 0.652491, 0.653096, 0.662484, 0.652109, 0.654665, 0.652801, 0.662475, 0.656883, 0.67298, 0.673646, 0.657192, 0.656962, 0.656537, 0.657612, 0.657997, 0.65886, 0.657538, 0.659349, 0.660509, 0.686838, 0.659553, 0.683854, 0.661038, 0.66172, 0.743596, 0.660145, 0.703834, 0.661486, 0.661765, 0.662073, 0.667482, 0.70248, 0.660256, 0.661242, 0.661747, 0.734685, 0.659947, 0.74919, 0.657293, 0.656956, 0.664813, 0.657186, 0.656592, 0.683529, 0.688613, 0.695216, 0.685884, 0.669052, 0.670946, 0.683063, 0.670237, 0.671162, 0.704705, 0.704876, 0.661302, 0.67619, 0.662501, 0.66253, 0.670059, 0.691378, 0.665745, 0.668231, 0.665726, 0.667366, 0.672499, 0.684237, 0.665632, 0.666229, 0.666492, 0.665395, 0.666564, 0.680969, 0.665542, 0.681256, 0.663552, 0.716079, 0.673645, 0.664217, 0.670194, 0.693293, 0.69441, 0.670339, 0.683958, 0.695499, 0.693483, 0.682926, 0.698508, 0.676211, 0.668213, 0.698221, 0.690036, 0.679099, 0.710621, 0.660308, 0.766223, 0.721057, 0.773796, 0.777985, 0.770395, 0.798874, 0.762076, 0.775129, 0.801936, 0.821588, 0.91067, 0.916604, 0.947299, 0.748567, 0.811717, 0.754479, 0.82279
0.655615, 0.655911, 0.655895, 0.655106, 0.654583, 0.654463, 0.655457, 0.654634, 0.6544, 0.65431, 0.654545, 0.655355, 0.653069, 0.654383, 0.654383, 0.653627, 0.714379, 0.653179, 0.652279, 0.652813, 0.654408, 0.654973, 0.655291, 0.655093, 0.676298, 0.655328, 0.653871, 0.657482, 0.656406, 0.672378, 0.674849, 0.754323, 0.659886, 0.658382, 0.658046, 0.66289, 0.660393, 0.661065, 0.666042, 0.661447, 0.660713, 0.661695, 0.687282, 0.6613, 0.670857, 0.662537, 0.660519, 0.664724, 0.659271, 0.662196, 0.663272, 0.660951, 0.658769, 0.660533, 0.691017, 0.658495, 0.658963, 0.659789, 0.733464, 0.68775, 0.679353, 0.686496, 0.700089, 0.690788, 0.659285, 0.702004, 0.693728, 0.680672, 0.659382, 0.676614, 0.666439, 0.693917, 0.662877, 0.66547, 0.665883, 0.663544, 0.687776, 0.666783, 0.667855, 0.668004, 0.66864, 0.710982, 0.666938, 0.665926, 0.685324, 0.666867, 0.66635, 0.666108, 0.665683, 0.673013, 0.664296, 0.665286, 0.666122, 0.683895, 0.680437, 0.680657, 0.669988, 0.668707, 0.67441, 0.668373, 0.706932, 0.698175, 0.689077, 0.699871, 0.68057, 0.677443, 0.714308, 0.691275, 0.67912, 0.718966, 0.673542, 0.705461, 0.805197, 0.7071, 0.781747, 0.769689, 0.775571, 0.791876, 0.805568, 0.794946, 0.803879, 0.808188, 0.867877, 0.836011, 0.870781, 0.831798, 0.840381, 0.823375
0.656585, 0.656838, 0.655492, 0.655394, 0.657421, 0.655359, 0.653995, 0.654828, 0.655059, 0.655007, 0.654821, 0.652897, 0.653989, 0.654092, 0.654074, 0.655489, 0.653235, 0.654583, 0.654512, 0.655788, 0.654213, 0.655717, 0.656016, 0.655597, 0.674286, 0.655163, 0.656687, 0.655788, 0.656009, 0.657925, 0.725995, 0.658904, 0.657237, 0.660205, 0.658029, 0.659896, 0.661059, 0.663321, 0.660174, 0.660801, 0.660539, 0.662111, 0.711062, 0.669978, 0.661659, 0.660218, 0.662742, 0.661393, 0.660274, 0.66232, 0.66216, 0.660609, 0.721613, 0.677429, 0.662681, 0.658919, 0.658046, 0.658843, 0.662807, 0.721535, 0.684724, 0.657518, 0.690917, 0.66119, 0.660852, 0.662806, 0.661091, 0.686905, 0.666146, 0.700928, 0.664072, 0.665462, 0.666976, 0.666112, 0.666698, 0.66586, 0.665919, 0.66786, 0.667759, 0.668035, 0.668007, 0.677982, 0.667088, 0.66707, 0.666667, 0.666844, 0.66568, 0.666627, 0.665963, 0.665691, 0.674726, 0.665823, 0.664433, 0.667472, 0.71432, 0.682432, 0.678714, 0.704591, 0.691699, 0.71086, 0.675112, 0.674702, 0.684446, 0.707241, 0.707916, 0.680039, 0.690303, 0.690257, 0.697661, 0.670864, 0.651932, 0.653831, 0.714728, 0.71685, 0.787173, 0.768663, 0.784094, 0.776076, 0.777316, 0.804724, 0.801412, 0.839863, 0.839998, 0.872227, 0.817935, 0.832531, 0.835866, 0.823615
0.656024, 0.656685, 0.656929, 0.656517, 0.654279, 0.65569, 0.663976, 0.653118, 0.653329, 0.650191, 0.654198, 0.652981, 0.652589, 0.653406, 0.655864, 0.656038, 0.655338, 0.654701, 0.654394, 0.656276, 0.65542, 0.653271, 0.654856, 0.655361, 0.653708, 0.65515, 0.655222, 0.655002, 0.656198, 0.655363, 0.656112, 0.657647, 0.657886, 0.657149, 0.656913, 0.659507, 0.66154, 0.660136, 0.662292, 0.659896, 0.660479, 0.660757, 0.66072, 0.687702, 0.661096, 0.659398, 0.660044, 0.686481, 0.702028, 0.660507, 0.660252, 0.659257, 0.720891, 0.748048, 0.659636, 0.659479, 0.663759, 0.659109, 0.662202, 0.677022, 0.67834, 0.686595, 0.66082, 0.670609, 0.66002, 0.709535, 0.659277, 0.662326, 0.672579, 0.701967, 0.66416, 0.682526, 0.672192, 0.669422, 0.666998, 0.667783, 0.667031, 0.668135, 0.668362, 0.668305, 0.66811, 0.667811, 0.666568, 0.667317, 0.666605, 0.665849, 0.666331, 0.666032, 0.666194, 0.665627, 0.664598, 0.664296, 0.712783, 0.701258, 0.674284, 0.669444, 0.681314, 0.677289, 0.690618, 0.750475, 0.683545, 0.700961, 0.701344, 0.709976, 0.680296, 0.701957, 0.689808, 0.659515, 0.657585, 0.66328, 0.670166, 0.652411, 0.686283, 0.811127, 0.739244, 0.757703, 0.757452, 0.787639, 0.780197, 0.829067, 0.798217, 0.828486, 0.839552, 0.827143, 0.822568, 0.840082, 0.929712, 0.835317
0.655046, 0.656885, 0.655711, 0.655524, 0.655711, 0.654264, 0.65443, 0.654296, 0.654638, 0.649411, 0.653427, 0.652094, 0.684426, 0.653427, 0.653572, 0.654914, 0.654085, 0.655632, 0.653484, 0.653224, 0.653779, 0.652708, 0.652776, 0.65212, 0.650945, 0.653289, 0.656211, 0.65519, 0.654792, 0.656845, 0.655093, 0.656054, 0.657951, 0.655555, 0.655439, 0.657741, 0.655837, 0.659972, 0.659306, 0.666669, 0.683522, 0.655817, 0.65837, 0.663899, 0.660009, 0.662963, 0.662537, 0.719021, 0.698447, 0.690158, 0.6605, 0.659407, 0.658883, 0.655986, 0.664321, 0.660993, 0.678244, 0.660638, 0.667787, 0.659225, 0.659355, 0.658611, 0.6577, 0.66974, 0.659057, 0.662113, 0.660872, 0.661431, 0.662864, 0.663474, 0.665974, 0.66585, 0.688522, 0.66715, 0.667207, 0.669835, 0.668231, 0.667194, 0.669114, 0.668669, 0.667904, 0.667505, 0.666359, 0.666216, 0.666281, 0.665554, 0.665401, 0.665575, 0.663695, 0.66666, 0.674054, 0.669709, 0.688741, 0.68096, 0.694651, 0.674655, 0.685342, 0.711026, 0.682788, 0.681774, 0.671302, 0.704478, 0.694691, 0.675303, 0.676255, 0.679345, 0.680866, 0.666455, 0.641344, 0.644791, 0.667492, 0.721377, 0.78087, 0.722299, 0.742809, 0.739466, 0.765361, 0.820719, 0.786655, 0.79308, 0.792213, 0.803594, 0.809306, 0.853532, 0.843572, 0.836541, 0.838264, 0.839176
0.654814, 0.655157, 0.655566, 0.656985, 0.655798, 0.6521, 0.651639, 0.653212, 0.653176, 0.651455, 0.65052, 0.652788, 0.65281, 0.656025, 0.659482, 0.654474, 0.652432, 0.652361, 0.652519, 0.652978, 0.652057, 0.656547, 0.653741, 0.653247, 0.653537, 0.654543, 0.655586, 0.655946, 0.654552, 0.655813, 0.656681, 0.656157, 0.654143, 0.656272, 0.659408, 0.711981, 0.712213, 0.655823, 0.656346, 0.68074, 0.66649, 0.666842, 0.657985, 0.659063, 0.660198, 0.657435, 0.657233, 0.656648, 0.660152, 0.658901, 0.659766, 0.66634, 0.657082, 0.722331, 0.71989, 0.659495, 0.656038, 0.656187, 0.664258, 0.65575, 0.659748, 0.657883, 0.658204, 0.741916, 0.69027, 0.662193, 0.681605, 0.664435, 0.723277, 0.685493, 0.663233, 0.665416, 0.669905, 0.66699, 0.666541, 0.667199, 0.668369, 0.667203, 0.66828, 0.670242, 0.66727, 0.666759, 0.665718, 0.664913, 0.665645, 0.688648, 0.666873, 0.664818, 0.663914, 0.662924, 0.669403, 0.686688, 0.67819, 0.66476, 0.68134, 0.677088, 0.671701, 0.674871, 0.676816, 0.678564, 0.690939, 0.673763, 0.676216, 0.692141, 0.676875, 0.686695, 0.701758, 0.692362, 0.676414, 0.675163, 0.706514, 0.722588, 0.714214, 0.717761, 0.781118, 0.850234, 0.777537, 0.842017, 0.8902, 0.809842, 0.83573, 0.812889, 0.812009, 0.83539, 0.838113, 0.837037, 0.837261, 0.835963
0.652729, 0.65401, 0.654663, 0.650686, 0.660775, 0.650064, 0.670499, 0.653312, 0.649007, 0.648443, 0.650356, 0.722751, 0.651673, 0.64871, 0.651365, 0.651863, 0.652851, 0.653005, 0.652189, 0.65551, 0.649634, 0.697179, 0.653231, 0.649667, 0.650653, 0.655993, 0.656174, 0.655754, 0.6542, 0.655318, 0.656097, 0.654981, 0.655017, 0.653991, 0.653819, 0.683922, 0.7486, 0.656515, 0.656943, 0.655073, 0.683213, 0.656939, 0.656088, 0.735686, 0.717247, 0.655669, 0.65566, 0.657171, 0.656049, 0.656846, 0.705158, 0.660552, 0.658491, 0.657056, 0.65723, 0.659148, 0.657377, 0.658183, 0.657666, 0.656413, 0.656147, 0.659083, 0.659698, 0.697014, 0.656488, 0.66323, 0.66012, 0.662041, 0.66237, 0.665172, 0.732979, 0.664607, 0.665921, 0.667184, 0.667489, 0.667221, 0.669566, 0.668088, 0.668922, 0.667601, 0.666732, 0.666342, 0.66566, 0.664684, 0.662277, 0.661523, 0.675388, 0.675794, 0.661876, 0.660093, 0.662556, 0.669751, 0.662101, 0.663359, 0.669879, 0.671158, 0.670346, 0.711558, 0.704335, 0.68971, 0.681778, 0.692586, 0.736356, 0.693709, 0.687724, 0.701041, 0.676616, 0.691205, 0.71085, 0.676125, 0.644989, 0.676893, 0.676528, 0.722459, 0.784966, 0.780392, 0.888704, 0.787049, 0.777447, 0.887939, 0.935007, 0.837608, 0.832855, 0.833641, 0.838275, 0.839488, 0.936942, 0.825473
0.653213, 0.651848, 0.691226, 0.649052, 0.655933, 0.691341, 0.684075, 0.649367, 0.654345, 0.664696, 0.64565, 0.652248, 0.651832, 0.648801, 0.65116, 0.651564, 0.648838, 0.650316, 0.649431, 0.648592, 0.648875, 0.648396, 0.650656, 0.648491, 0.649769, 0.649039, 0.64996, 0.652744, 0.71806, 0.651669, 0.710621, 0.652376, 0.654183, 0.652375, 0.652658, 0.654099, 0.662356, 0.654364, 0.653515, 0.654095, 0.687623, 0.670599, 0.656413, 0.655452, 0.655761, 0.65546, 0.657269, 0.655887, 0.657785, 0.7292, 0.734259, 0.655589, 0.655987, 0.682933, 0.657422, 0.655633, 0.655525, 0.659467, 0.655772, 0.656104, 0.657486, 0.656553, 0.657701, 0.656342, 0.659923, 0.658664, 0.661955, 0.715111, 0.701074, 0.664821, 0.664873, 0.727708, 0.671107, 0.665838, 0.666077, 0.667314, 0.665039, 0.665791, 0.666942, 0.666756, 0.666318, 0.664521, 0.665316, 0.665522, 0.663428, 0.663048, 0.659412, 0.670183, 0.660926, 0.663542, 0.674036, 0.662222, 0.664343, 0.667754, 0.693236, 0.694958, 0.666809, 0.684115, 0.67258, 0.683764, 0.67409, 0.685139, 0.674216, 0.696818, 0.676561, 0.694018, 0.696944, 0.68742, 0.652601, 0.638156, 0.639687, 0.736471, 0.677849, 0.728308, 0.731222, 0.7694, 0.812837, 0.857341, 0.784648, 0.808871, 0.783902, 0.837077, 0.827604, 0.839105, 0.834896, 0.87315, 0.83522, 0.832243
0.678292, 0.649786, 0.64916, 0.671365, 0.648755, 0.66103, 0.648592, 0.649362, 0.65491, 0.649913, 0.700563, 0.646973, 0.6491, 0.649929, 0.648508, 0.648892, 0.647696, 0.65161, 0.707005, 0.648431, 0.650288, 0.715143, 0.648633, 0.649306, 0.650713, 0.651195, 0.649717, 0.650107, 0.650709, 0.669011, 0.654055, 0.652127, 0.653727, 0.651859, 0.671506, 0.65805, 0.653263, 0.653098, 0.653464, 0.656879, 0.668541, 0.684735, 0.678273, 0.655237, 0.665591, 0.652518, 0.655411, 0.656365, 0.655977, 0.656023, 0.656525, 0.655934, 0.655743, 0.6567, 0.71624, 0.687267, 0.65622, 0.6554, 0.656378, 0.708669, 0.686259, 0.692355, 0.692573, 0.659011, 0.660777, 0.6585, 0.694347, 0.661155, 0.662657, 0.662083, 0.662356, 0.671565, 0.664338, 0.666393, 0.664332, 0.665776, 0.665735, 0.684805, 0.665355, 0.667109, 0.662306, 0.667838, 0.663521, 0.677145, 0.694992, 0.662021, 0.661142, 0.662978, 0.659959, 0.661983, 0.682056, 0.675068, 0.661956, 0.663713, 0.674556, 0.669877, 0.681795, 0.684822, 0.676031, 0.698784, 0.703414, 0.68633, 0.697324, 0.676895, 0.686121, 0.676977, 0.692469, 0.692154, 0.66253, 0.645323, 0.658599, 0.655172, 0.678401, 0.746202, 0.749656, 0.781206, 0.831571, 0.85042, 0.77485, 0.803317, 0.784031, 0.818755, 0.830567, 0.839967, 0.940722, 0.822162, 0.825706, 0.922548
0.649525, 0.649995, 0.648625, 0.648748, 0.649167, 0.654229, 0.651972, 0.668046, 0.649482, 0.65183, 0.646741, 0.645634, 0.646448, 0.648389, 0.648334, 0.645383, 0.64776, 0.64955, 0.648163, 0.648066, 0.647321, 0.649501, 0.647311, 0.648666, 0.649188, 0.653219, 0.650026, 0.651622, 0.687565, 0.684313, 0.652752, 0.697661, 0.688052, 0.7097, 0.653534, 0.651996, 0.65259, 0.65288, 0.652009, 0.652592, 0.652535, 0.655834, 0.701333, 0.655565, 0.662183, 0.654118, 0.655488, 0.656441, 0.732362, 0.657301, 0.655545, 0.6564, 0.66759, 0.669245, 0.655641, 0.655741, 0.657234, 0.656305, 0.65541, 0.68486, 0.657224, 0.704665, 0.656589, 0.658061, 0.655835, 0.658691, 0.657248, 0.655452, 0.658127, 0.659444, 0.65846, 0.65989, 0.69945, 0.681626, 0.665746, 0.667178, 0.664431, 0.66627, 0.663636, 0.663181, 0.664458, 0.670162, 0.664715, 0.66071, 0.659911, 0.660636, 0.663143, 0.661429, 0.669394, 0.694058, 0.661463, 0.663167, 0.66271, 0.662752, 0.663561, 0.669165, 0.66498, 0.684882, 0.695199, 0.718229, 0.685698, 0.707463, 0.704684, 0.715822, 0.674866, 0.694822, 0.681397, 0.713049, 0.662134, 0.655311, 0.687717, 0.680175, 0.715776, 0.729973, 0.763327, 0.814364, 0.815389, 0.811689, 0.80288, 0.804651, 0.801466, 0.810478, 0.829571, 0.847497, 0.831233, 0.825357, 0.831838, 0.825657
0.690828, 0.646232, 0.649009, 0.699915, 0.653172, 0.655828, 0.655553, 0.656621, 0.647109, 0.646491, 0.684021, 0.646662, 0.644888, 0.656541, 0.64718, 0.64879, 0.680912, 0.64543, 0.647431, 0.645988, 0.651066, 0.645707, 0.645795, 0.648583, 0.646361, 0.649274, 0.651794, 0.670904, 0.648988, 0.651819, 0.649899, 0.649466, 0.693836, 0.650709, 0.651903, 0.704968, 0.64939, 0.650837, 0.651751, 0.65332, 0.668115, 0.653064, 0.655812, 0.652812, 0.654062, 0.657164, 0.65476, 0.659421, 0.71598, 0.708293, 0.656669, 0.662285, 0.654685, 0.710525, 0.655214, 0.684481, 0.676476, 0.682993, 0.655112, 0.685922, 0.656545, 0.673406, 0.656316, 0.675863, 0.659984, 0.657187, 0.658793, 0.685058, 0.692209, 0.659445, 0.658384, 0.663343, 0.719789, 0.663524, 0.663014, 0.663164, 0.660973, 0.671031, 0.662688, 0.678296, 0.680586, 0.659765, 0.677514, 0.659536, 0.662921, 0.660616, 0.672445, 0.662552, 0.725656, 0.666169, 0.674975, 0.664638, 0.662233, 0.661932, 0.679765, 0.666594, 0.662881, 0.687377, 0.706441, 0.674514, 0.672909, 0.690994, 0.674432, 0.673681, 0.677293, 0.694929, 0.688591, 0.677882, 0.677717, 0.677692, 0.660207, 0.692483, 0.694403, 0.739481, 0.752855, 0.784184, 0.826193, 0.811173, 0.765129, 0.801373, 0.790289, 0.823741, 0.828572, 0.801786, 0.819906, 0.82302, 0.824081, 0.816236
0.648777, 0.65638, 0.649062, 0.706043, 0.648081, 0.646072, 0.648511, 0.646911, 0.651562, 0.645919, 0.645568, 0.742985, 0.742318, 0.653454, 0.653425, 0.64476, 0.646877, 0.645372, 0.647078, 0.645296, 0.645267, 0.64556, 0.648389, 0.648589, 0.648287, 0.645939, 0.651043, 0.649099, 0.678585, 0.648496, 0.649466, 0.650703, 0.64884, 0.65151, 0.674131, 0.649824, 0.653108, 0.650398, 0.679899, 0.650302, 0.653415, 0.652853, 0.659953, 0.721062, 0.653751, 0.654371, 0.655454, 0.652411, 0.65499, 0.655555, 0.6898, 0.655665, 0.655751, 0.655196, 0.652755, 0.659522, 0.660992, 0.672885, 0.666205, 0.655309, 0.710314, 0.694837, 0.656545, 0.673087, 0.680041, 0.654579, 0.653329, 0.683056, 0.680168, 0.657829, 0.659028, 0.660571, 0.656733, 0.658542, 0.664321, 0.661799, 0.6623, 0.681418, 0.662603, 0.662883, 0.662734, 0.662505, 0.660389, 0.661075, 0.65985, 0.659455, 0.666146, 0.669861, 0.671487, 0.674037, 0.68142, 0.666661, 0.672836, 0.684036, 0.666514, 0.663453, 0.679809, 0.686876, 0.68563, 0.696529, 0.670778, 0.672834, 0.673067, 0.674293, 0.702433, 0.677627, 0.689216, 0.667194, 0.66226, 0.660957, 0.659146, 0.708636, 0.697694, 0.748846, 0.749727, 0.780797, 0.776994, 0.792622, 0.791344, 0.805443, 0.812523, 0.830083, 0.804836, 0.805499, 0.80806, 0.904432, 0.817089, 0.81651
0.659715, 0.64826, 0.647135, 0.646155, 0.643009, 0.648025, 0.647863, 0.64293, 0.643174, 0.665977, 0.645581, 0.738697, 0.648516, 0.646136, 0.673844, 0.721455, 0.644183, 0.695652, 0.644341, 0.651966, 0.715066, 0.65261, 0.645537, 0.647025, 0.684472, 0.68133, 0.645821, 0.646667, 0.647127, 0.717199, 0.646809, 0.649276, 0.646808, 0.646738, 0.645609, 0.649226, 0.648246, 0.649309, 0.651348, 0.652318, 0.653393, 0.651085, 0.684145, 0.653572, 0.673003, 0.652607, 0.651878, 0.729954, 0.655449, 0.655774, 0.65159, 0.650498, 0.651581, 0.728729, 0.652748, 0.654713, 0.651462, 0.653509, 0.663252, 0.652059, 0.654166, 0.65468, 0.681348, 0.660176, 0.693398, 0.656192, 0.683769, 0.682106, 0.656089, 0.688505, 0.680092, 0.657526, 0.676935, 0.682792, 0.657734, 0.701804, 0.656556, 0.675609, 0.687548, 0.65964, 0.662819, 0.679216, 0.660169, 0.665845, 0.692758, 0.658117, 0.666273, 0.67421, 0.676178, 0.682914, 0.662477, 0.660239, 0.681597, 0.697195, 0.691434, 0.66564, 0.666763, 0.674023, 0.669777, 0.676422, 0.673491, 0.690467, 0.68751, 0.707077, 0.688062, 0.678082, 0.700298, 0.68685, 0.687306, 0.694547, 0.639295, 0.692192, 0.695309, 0.763142, 0.765931, 0.804907, 0.773006, 0.79126, 0.787178, 0.889373, 0.930294, 0.805366, 0.808175, 0.805852, 0.807625, 0.840315, 0.818087, 0.817443
0.645566, 0.646327, 0.645645, 0.704157, 0.646171, 0.645044, 0.643279, 0.646978, 0.643651, 0.643214, 0.644368, 0.643107, 0.641869, 0.643398, 0.645077, 0.643928, 0.643523, 0.642659, 0.642908, 0.645938, 0.644021, 0.643195, 0.665475, 0.646916, 0.645484, 0.646251, 0.646238, 0.646786, 0.646821, 0.64917, 0.649559, 0.65289, 0.646461, 0.645195, 0.64712, 0.648868, 0.648538, 0.648732, 0.653247, 0.65036, 0.657005, 0.660783, 0.719493, 0.661386, 0.663191, 0.650805, 0.653526, 0.653674, 0.650766, 0.65114, 0.656382, 0.650034, 0.654184, 0.655756, 0.65243, 0.658653, 0.701685, 0.655958, 0.652415, 0.653536, 0.6565, 0.653866, 0.684851, 0.653108, 0.65182, 0.673305, 0.653295, 0.656058, 0.65321, 0.6538, 0.65432, 0.652715, 0.687014, 0.704034, 0.65718, 0.65808, 0.657704, 0.663913, 0.6678, 0.658111, 0.658946, 0.657672, 0.658906, 0.659257, 0.659505, 0.691047, 0.660268, 0.668083, 0.681595, 0.669237, 0.659744, 0.659895, 0.701585, 0.697766, 0.678651, 0.663306, 0.665665, 0.678611, 0.695813, 0.678566, 0.677303, 0.682025, 0.682522, 0.702236, 0.673108, 0.674246, 0.686994, 0.687787, 0.639033, 0.648789, 0.644985, 0.695297, 0.725821, 0.72776, 0.724373, 0.763799, 0.777141, 0.843241, 0.787886, 0.790376, 0.903938, 0.935888, 0.804325, 0.805164, 0.806865, 0.814384, 0.817878, 0.818027
0.652131, 0.649233, 0.644763, 0.6473, 0.644748, 0.644998, 0.644203, 0.644832, 0.645578, 0.643514, 0.644566, 0.646329, 0.642604, 0.645996, 0.648817, 0.659103, 0.642267, 0.644858, 0.643387, 0.645485, 0.643176, 0.642617, 0.642582, 0.641955, 0.64495, 0.645055, 0.644848, 0.64516, 0.646569, 0.645086, 0.644864, 0.645262, 0.646623, 0.645852, 0.647951, 0.646978, 0.64825, 0.646764, 0.689152, 0.648433, 0.649558, 0.662585, 0.64684, 0.649218, 0.651933, 0.6484, 0.649827, 0.649674, 0.648384, 0.649508, 0.650477, 0.651882, 0.651548, 0.651629, 0.651946, 0.651929, 0.651337, 0.654195, 0.652727, 0.65521, 0.653287, 0.651837, 0.650867, 0.652953, 0.652387, 0.652303, 0.651826, 0.652727, 0.653519, 0.65093, 0.655557, 0.655785, 0.659537, 0.655082, 0.656711, 0.657788, 0.659298, 0.657963, 0.655484, 0.658435, 0.658413, 0.659685, 0.660631, 0.671421, 0.671349, 0.657536, 0.657809, 0.659444, 0.669822, 0.687964, 0.663736, 0.664004, 0.683869, 0.693376, 0.662429, 0.662526, 0.680697, 0.668032, 0.665314, 0.66662, 0.692397, 0.67353, 0.692324, 0.683925, 0.683877, 0.695463, 0.681077, 0.655261, 0.685101, 0.654729, 0.646128, 0.689613, 0.735537, 0.721388, 0.809457, 0.762654, 0.867902, 0.76009, 0.896169, 0.787476, 0.789272, 0.839351, 0.835908, 0.805253, 0.804387, 0.814034, 0.815537, 0.816226
0.650079, 0.646049, 0.646353, 0.645829, 0.67432, 0.645042, 0.644596, 0.645916, 0.644447, 0.64296, 0.648669, 0.648826, 0.64292, 0.6433, 0.644354, 0.691038, 0.650734, 0.64229, 0.663075, 0.643089, 0.643777, 0.643143, 0.643905, 0.642052, 0.64216, 0.642765, 0.644637, 0.644541, 0.644591, 0.643844, 0.645629, 0.645785, 0.645346, 0.645188, 0.646507, 0.645587, 0.646142, 0.646324, 0.648643, 0.648165, 0.647604, 0.65042, 0.682876, 0.663625, 0.648603, 0.648769, 0.649819, 0.649833, 0.655699, 0.650957, 0.649123, 0.651661, 0.651016, 0.651029, 0.656781, 0.652269, 0.65097, 0.653117, 0.652499, 0.691442, 0.653538, 0.65491, 0.652184, 0.652236, 0.651954, 0.651552, 0.653042, 0.650885, 0.652394, 0.652554, 0.652897, 0.653731, 0.654094, 0.65361, 0.652746, 0.656575, 0.662806, 0.658342, 0.658424, 0.658857, 0.658404, 0.657493, 0.659304, 0.67293, 0.659076, 0.660201, 0.678064, 0.660931, 0.661749, 0.660869, 0.660822, 0.66756, 0.661078, 0.662478, 0.662267, 0.663365, 0.690719, 0.677548, 0.676099, 0.666871, 0.677668, 0.695999, 0.710482, 0.668983, 0.670701, 0.667509, 0.707801, 0.690908, 0.668094, 0.664148, 0.690913, 0.673708, 0.688756, 0.791424, 0.796039, 0.728776, 0.768087, 0.854663, 0.79481, 0.877196, 0.828642, 0.838768, 0.834392, 0.805629, 0.809291, 0.830635, 0.814765, 0.823785
0.645563, 0.64667, 0.645271, 0.650859, 0.646508, 0.646638, 0.64486, 0.644943, 0.644712, 0.643725, 0.645979, 0.64449, 0.642805, 0.642168, 0.671257, 0.678034, 0.64183, 0.648103, 0.650115, 0.642582, 0.644034, 0.643634, 0.646484, 0.643784, 0.642132, 0.6459, 0.644674, 0.643842, 0.643781, 0.645124, 0.64553, 0.645181, 0.645873, 0.646169, 0.647067, 0.646429, 0.647425, 0.646535, 0.648639, 0.668259, 0.679502, 0.650962, 0.649556, 0.647569, 0.650464, 0.65603, 0.649176, 0.649527, 0.648698, 0.64881, 0.650693, 0.651566, 0.651684, 0.650587, 0.652526, 0.652188, 0.652082, 0.652193, 0.652115, 0.651698, 0.652208, 0.652042, 0.652802, 0.651799, 0.652521, 0.651618, 0.651974, 0.653859, 0.652613, 0.651806, 0.652378, 0.66698, 0.65394, 0.655236, 0.653598, 0.656511, 0.658964, 0.65572, 0.655941, 0.657284, 0.658089, 0.657368, 0.662707, 0.681311, 0.671034, 0.659201, 0.661005, 0.659465, 0.661316, 0.676669, 0.65937, 0.662732, 0.710628, 0.673798, 0.67812, 0.66635, 0.676654, 0.66364, 0.681524, 0.684313, 0.666817, 0.672364, 0.669141, 0.68025, 0.669422, 0.693512, 0.667775, 0.6692, 0.638097, 0.632249, 0.756197, 0.73477, 0.738981, 0.728945, 0.692363, 0.691482, 0.796002, 0.867501, 0.800574, 0.777744, 0.820338, 0.806095, 0.808987, 0.825409, 0.812175, 0.806, 0.819723, 0.815071
0.646023, 0.64613, 0.645697, 0.645366, 0.648036, 0.727229, 0.645435, 0.645767, 0.644869, 0.648974, 0.682409, 0.644217, 0.644594, 0.646523, 0.644213, 0.642989, 0.694673, 0.690857, 0.642543, 0.643918, 0.666223, 0.642463, 0.645088, 0.644639, 0.644849, 0.644579, 0.662016, 0.644976, 0.651803, 0.64861, 0.647093, 0.645015, 0.646131, 0.645042, 0.647325, 0.646919, 0.646204, 0.646319, 0.647188, 0.646109, 0.649064, 0.651749, 0.656914, 0.648621, 0.649381, 0.648951, 0.648441, 0.650379, 0.650063, 0.650661, 0.65262, 0.653547, 0.65196, 0.652714, 0.652263, 0.651823, 0.652589, 0.65262, 0.653697, 0.652509, 0.653766, 0.653937, 0.653178, 0.652738, 0.652046, 0.651188, 0.652745, 0.65236, 0.652193, 0.680313, 0.65255, 0.653232, 0.653567, 0.659737, 0.655178, 0.680951, 0.729633, 0.660049, 0.657131, 0.65874, 0.661159, 0.683466, 0.65935, 0.687353, 0.659509, 0.660051, 0.659946, 0.667451, 0.660972, 0.661635, 0.678386, 0.660679, 0.673004, 0.66211, 0.662946, 0.663875, 0.681579, 0.670597, 0.666936, 0.665513, 0.679566, 0.673968, 0.667965, 0.692783, 0.662793, 0.707696, 0.673788, 0.677936, 0.639483, 0.637215, 0.710913, 0.704858, 0.720381, 0.717926, 0.755963, 0.801285, 0.826055, 0.840637, 0.775589, 0.815226, 0.788119, 0.789056, 0.846915, 0.816479, 0.835877, 0.812641, 0.811687, 0.885084
0.645412, 0.647573, 0.648601, 0.646834, 0.645206, 0.666199, 0.644093, 0.69256, 0.644307, 0.698379, 0.670882, 0.647948, 0.645581, 0.644348, 0.650327, 0.643401, 0.643162, 0.643274, 0.680706, 0.69152, 0.644749, 0.64759, 0.644058, 0.644916, 0.644522, 0.645151, 0.644427, 0.645396, 0.645166, 0.645853, 0.667834, 0.646854, 0.647116, 0.648954, 0.647472, 0.647226, 0.647412, 0.648277, 0.647413, 0.67927, 0.653668, 0.648153, 0.648669, 0.648127, 0.648744, 0.652076, 0.648605, 0.649662, 0.649639, 0.650196, 0.651657, 0.652104, 0.652035, 0.655242, 0.652281, 0.651873, 0.65364, 0.653238, 0.652793, 0.653164, 0.653506, 0.652635, 0.65253, 0.652122, 0.651783, 0.70113, 0.652715, 0.655338, 0.677554, 0.660342, 0.662967, 0.652504, 0.654404, 0.663228, 0.655666, 0.670831, 0.662169, 0.656574, 0.659756, 0.689819, 0.660335, 0.661567, 0.65934, 0.684162, 0.659489, 0.659981, 0.679886, 0.659183, 0.661606, 0.661131, 0.661106, 0.661775, 0.660743, 0.672348, 0.662102, 0.678167, 0.66344, 0.670981, 0.666427, 0.715475, 0.667153, 0.688349, 0.7028, 0.677415, 0.680849, 0.678533, 0.679327, 0.662358, 0.639313, 0.633576, 0.661462, 0.716113, 0.709483, 0.710386, 0.737926, 0.795285, 0.800052, 0.750698, 0.764507, 0.771993, 0.785732, 0.836185, 0.831844, 0.812036, 0.857454, 0.829599, 0.821519, 0.819246
0.64776, 0.646343, 0.64586, 0.646396, 0.648447, 0.6477, 0.645128, 0.71746, 0.652479, 0.684716, 0.644528, 0.680157, 0.666421, 0.670184, 0.670609, 0.642613, 0.670224, 0.644302, 0.644792, 0.64513, 0.662971, 0.645581, 0.645542, 0.645523, 0.644773, 0.646053, 0.64523, 0.645628, 0.646047, 0.645262, 0.645841, 0.69777, 0.648703, 0.649034, 0.64745, 0.648395, 0.647995, 0.648893, 0.6483, 0.658977, 0.663615, 0.656263, 0.64874, 0.648487, 0.648858, 0.648442, 0.649285, 0.649256, 0.649095, 0.652385, 0.652272, 0.65295, 0.653345, 0.653378, 0.653146, 0.683792, 0.653406, 0.652835, 0.654636, 0.654887, 0.655158, 0.653678, 0.652883, 0.660449, 0.662161, 0.653217, 0.653411, 0.65526, 0.653787, 0.695954, 0.680887, 0.655161, 0.65731, 0.656958, 0.65608, 0.656862, 0.656866, 0.657546, 0.672756, 0.671765, 0.660173, 0.682826, 0.659481, 0.660423, 0.660565, 0.662384, 0.660835, 0.663926, 0.687432, 0.665367, 0.661709, 0.663442, 0.663068, 0.662399, 0.662481, 0.663764, 0.663789, 0.67163, 0.67147, 0.682229, 0.682952, 0.678255, 0.70787, 0.684918, 0.665909, 0.690414, 0.671555, 0.702501, 0.672247, 0.636326, 0.656502, 0.673967, 0.725522, 0.704914, 0.725205, 0.771337, 0.774176, 0.761324, 0.764475, 0.775141, 0.77981, 0.78487, 0.832661, 0.822016, 0.824257, 0.827227, 0.853531, 0.822975
0.647135, 0.645531, 0.646669, 0.647023, 0.647894, 0.646036, 0.64619, 0.645398, 0.645297, 0.714124, 0.668123, 0.644103, 0.643591, 0.650226, 0.648155, 0.644895, 0.64486, 0.646715, 0.645827, 0.644842, 0.645789, 0.670915, 0.666215, 0.645291, 0.646325, 0.645197, 0.647161, 0.648164, 0.666662, 0.646217, 0.649177, 0.66943, 0.647952, 0.649248, 0.648957, 0.650501, 0.648125, 0.648698, 0.650769, 0.64995, 0.676592, 0.648723, 0.64891, 0.660318, 0.650003, 0.652921, 0.649258, 0.649944, 0.67711, 0.65104, 0.650815, 0.652331, 0.652869, 0.652809, 0.654836, 0.653898, 0.65999, 0.653523, 0.655763, 0.654601, 0.654231, 0.700277, 0.654211, 0.655045, 0.659851, 0.655406, 0.683156, 0.677332, 0.655546, 0.655377, 0.656629, 0.655806, 0.658494, 0.657425, 0.655927, 0.656202, 0.658684, 0.672952, 0.663537, 0.662286, 0.688842, 0.677782, 0.676587, 0.660578, 0.662117, 0.662317, 0.663827, 0.662279, 0.680404, 0.665352, 0.662514, 0.662671, 0.685812, 0.676923, 0.663471, 0.663498, 0.663373, 0.663699, 0.668457, 0.705582, 0.666211, 0.684517, 0.691516, 0.688326, 0.673854, 0.703941, 0.643798, 0.680725, 0.673196, 0.637622, 0.651844, 0.745415, 0.788364, 0.74419, 0.722706, 0.823123, 0.777551, 0.890669, 0.769633, 0.794585, 0.782471, 0.787839, 0.838821, 0.832908, 0.83489, 0.828081, 0.828237, 0.824672
0.674758, 0.647037, 0.648411, 0.679776, 0.645805, 0.650211, 0.647178, 0.696949, 0.645204, 0.676587, 0.645289, 0.693097, 0.643346, 0.676407, 0.645398, 0.646331, 0.644988, 0.646164, 0.645854, 0.677405, 0.669222, 0.682943, 0.652837, 0.644866, 0.662613, 0.648276, 0.64738, 0.647746, 0.704993, 0.648752, 0.664059, 0.648859, 0.648294, 0.648846, 0.648237, 0.710571, 0.690462, 0.648413, 0.648808, 0.648384, 0.652631, 0.648701, 0.680697, 0.649355, 0.662722, 0.650007, 0.661944, 0.650827, 0.654929, 0.672028, 0.652361, 0.653, 0.654185, 0.652494, 0.653569, 0.659332, 0.653469, 0.655089, 0.654964, 0.681092, 0.679214, 0.654992, 0.654367, 0.653423, 0.654519, 0.655346, 0.657173, 0.666613, 0.656848, 0.656862, 0.655883, 0.656556, 0.656738, 0.684159, 0.684846, 0.686366, 0.674007, 0.658693, 0.661035, 0.695204, 0.687899, 0.684868, 0.669998, 0.697662, 0.662264, 0.672703, 0.709131, 0.66231, 0.661956, 0.698841, 0.661287, 0.663551, 0.662888, 0.665739, 0.668381, 0.665582, 0.663644, 0.664284, 0.690275, 0.677719, 0.700225, 0.684049, 0.704939, 0.681745, 0.686071, 0.687532, 0.690834, 0.685401, 0.637993, 0.662889, 0.673226, 0.74594, 0.754895, 0.818445, 0.744198, 0.738488, 0.79421, 0.776781, 0.783762, 0.776344, 0.7813, 0.812658, 0.809372, 0.827184, 0.830664, 0.919325, 0.827446, 0.829219
0.688071, 0.645901, 0.646995, 0.645711, 0.647273, 0.671255, 0.646615, 0.645248, 0.646468, 0.645188, 0.669172, 0.644671, 0.6789, 0.644214, 0.65743, 0.701669, 0.674442, 0.680731, 0.673313, 0.646079, 0.65526, 0.647393, 0.647179, 0.683808, 0.67467, 0.647768, 0.654269, 0.668283, 0.664996, 0.667192, 0.698922, 0.667294, 0.649006, 0.690918, 0.649401, 0.657282, 0.649797, 0.649017, 0.649525, 0.650315, 0.648618, 0.648547, 0.649854, 0.650174, 0.649644, 0.650016, 0.667617, 0.65901, 0.665707, 0.653489, 0.652063, 0.653211, 0.654107, 0.66955, 0.655215, 0.653927, 0.654586, 0.659133, 0.654968, 0.654184, 0.682709, 0.678035, 0.654918, 0.680835, 0.653851, 0.655044, 0.656477, 0.679979, 0.655142, 0.659283, 0.704259, 0.656805, 0.657964, 0.658028, 0.683976, 0.677664, 0.67678, 0.661353, 0.679208, 0.675067, 0.671807, 0.712438, 0.714806, 0.690191, 0.687036, 0.68879, 0.663214, 0.683462, 0.703657, 0.663205, 0.663782, 0.6647, 0.673728, 0.666494, 0.710799, 0.677814, 0.664825, 0.670599, 0.697709, 0.690998, 0.669956, 0.686497, 0.678054, 0.683088, 0.6988, 0.666997, 0.684328, 0.680561, 0.670202, 0.65419, 0.674081, 0.734021, 0.771124, 0.777522, 0.76725, 0.839524, 0.795839, 0.840929, 0.778904, 0.805616, 0.821644, 0.810062, 0.800009, 0.847585, 0.838008, 0.824664, 0.884148, 0.828992
0.683621, 0.645027, 0.647739, 0.670584, 0.680122, 0.65264, 0.6613, 0.6631, 0.671116, 0.646106, 0.664383, 0.689035, 0.653201, 0.666352, 0.646492, 0.663376, 0.674308, 0.647096, 0.689083, 0.645834, 0.673662, 0.673118, 0.682701, 0.67676, 0.65263, 0.656201, 0.648371, 0.662322, 0.653537, 0.673632, 0.648543, 0.649756, 0.669054, 0.660033, 0.660424, 0.675322, 0.655659, 0.658302, 0.650462, 0.685072, 0.648986, 0.650119, 0.662271, 0.651903, 0.652355, 0.653351, 0.64972, 0.650713, 0.666796, 0.652809, 0.679415, 0.660366, 0.665693, 0.71074, 0.717888, 0.655195, 0.685949, 0.663567, 0.655239, 0.654356, 0.654306, 0.654031, 0.678106, 0.654026, 0.656776, 0.655098, 0.655436, 0.655344, 0.679581, 0.655823, 0.688804, 0.67952, 0.660791, 0.69084, 0.684512, 0.659088, 0.658145, 0.660219, 0.666719, 0.668896, 0.669909, 0.683956, 0.677674, 0.693556, 0.676503, 0.661794, 0.660435, 0.67149, 0.674106, 0.698563, 0.662761, 0.697764, 0.682112, 0.665972, 0.676453, 0.676354, 0.664108, 0.672567, 0.677726, 0.667174, 0.674644, 0.674166, 0.698492, 0.692497, 0.69244, 0.691751, 0.670736, 0.690883, 0.690486, 0.699768, 0.682596, 0.727724, 0.742484, 0.722179, 0.748685, 0.805493, 0.806746, 0.77469, 0.779292, 0.782251, 0.798765, 0.822351, 0.789451, 0.862523, 0.836479, 0.815995, 0.884636, 0.818407
0.68464, 0.646245, 0.670508, 0.648645, 0.682977, 0.646761, 0.663103, 0.651758, 0.679469, 0.645405, 0.653517, 0.651675, 0.646268, 0.645826, 0.648845, 0.664936, 0.649855, 0.646543, 0.658617, 0.661693, 0.647796, 0.672818, 0.655583, 0.646689, 0.64736, 0.646739, 0.67939, 0.648256, 0.660974, 0.648633, 0.659591, 0.650181, 0.64995, 0.689415, 0.67002, 0.650757, 0.652043, 0.659066, 0.684915, 0.650895, 0.653038, 0.649134, 0.679132, 0.662576, 0.684164, 0.652541, 0.651522, 0.652505, 0.652383, 0.652113, 0.671498, 0.658683, 0.667328, 0.695078, 0.657143, 0.655262, 0.65602, 0.655472, 0.686763, 0.684543, 0.65723, 0.678089, 0.655167, 0.701285, 0.691353, 0.685255, 0.655299, 0.667624, 0.658842, 0.658662, 0.657991, 0.699055, 0.65759, 0.693546, 0.675049, 0.705037, 0.660842, 0.661742, 0.697967, 0.707318, 0.701745, 0.681015, 0.662606, 0.662594, 0.664057, 0.708461, 0.669174, 0.688076, 0.671104, 0.663274, 0.670285, 0.67832, 0.663494, 0.689005, 0.676922, 0.677423, 0.666044, 0.670105, 0.71738, 0.667776, 0.668833, 0.683337, 0.694961, 0.676055, 0.679246, 0.692586, 0.694666, 0.690659, 0.683036, 0.695242, 0.677272, 0.746716, 0.728823, 0.72259, 0.798224, 0.812331, 0.822466, 0.777872, 0.777274, 0.78317, 0.795489, 0.783921, 0.793337, 0.852231, 0.847262, 0.809832, 0.811848, 0.819396
0.646904, 0.6721, 0.676535, 0.67378, 0.678194, 0.653637, 0.649087, 0.646899, 0.648582, 0.670511, 0.646123, 0.664336, 0.678093, 0.663426, 0.656425, 0.652702, 0.6515, 0.669774, 0.653424, 0.687504, 0.645965, 0.646984, 0.655608, 0.648936, 0.648204, 0.69468, 0.667184, 0.664332, 0.649691, 0.669862, 0.680277, 0.656801, 0.669188, 0.649964, 0.670381, 0.672495, 0.695882, 0.650326, 0.658683, 0.667449, 0.65086, 0.671518, 0.651242, 0.650344, 0.652583, 0.652172, 0.659568, 0.650864, 0.652079, 0.6532, 0.68618, 0.652373, 0.654657, 0.69688, 0.656054, 0.654462, 0.65291, 0.692669, 0.700998, 0.655581, 0.686441, 0.655629, 0.654959, 0.659556, 0.65675, 0.656453, 0.666205, 0.659795, 0.658227, 0.656855, 0.693804, 0.658749, 0.658775, 0.658742, 0.684214, 0.667304, 0.661043, 0.663049, 0.660869, 0.666028, 0.663239, 0.661738, 0.661336, 0.663716, 0.662738, 0.676015, 0.663818, 0.664051, 0.680698, 0.696638, 0.681887, 0.701187, 0.684873, 0.673031, 0.664683, 0.670172, 0.688479, 0.675983, 0.665942, 0.692822, 0.701174, 0.673332, 0.677945, 0.676434, 0.677426, 0.679943, 0.67494, 0.681257, 0.686755, 0.7594, 0.759541, 0.738868, 0.719935, 0.759416, 0.750928, 0.760104, 0.822992, 0.766722, 0.795085, 0.77608, 0.79794, 0.847426, 0.788026, 0.804426, 0.805193, 0.875154, 0.811593, 0.811349
0.676176, 0.647228, 0.663373, 0.646616, 0.680512, 0.646751, 0.668605, 0.647421, 0.646527, 0.647176, 0.646185, 0.676096, 0.64907, 0.646465, 0.666532, 0.648024, 0.662175, 0.645653, 0.647351, 0.673761, 0.655836, 0.654327, 0.658983, 0.647448, 0.647644, 0.669739, 0.664621, 0.65585, 0.652194, 0.648865, 0.693343, 0.650031, 0.677167, 0.670083, 0.65077, 0.687642, 0.669624, 0.67703, 0.701342, 0.662878, 0.655388, 0.667679, 0.651513, 0.653324, 0.667152, 0.671077, 0.659122, 0.677704, 0.652038, 0.65286, 0.652417, 0.660257, 0.67755, 0.653926, 0.705205, 0.676307, 0.658002, 0.654568, 0.659815, 0.707241, 0.698789, 0.658487, 0.680066, 0.687147, 0.655679, 0.681179, 0.655671, 0.687765, 0.656753, 0.656479, 0.687278, 0.659087, 0.660541, 0.661448, 0.66012, 0.660759, 0.677763, 0.690561, 0.663381, 0.66316, 0.680875, 0.667707, 0.682429, 0.683002, 0.662877, 0.69391, 0.69522, 0.677633, 0.665361, 0.68193, 0.688726, 0.66937, 0.66387, 0.677222, 0.66352, 0.665265, 0.672758, 0.670843, 0.682566, 0.671079, 0.686803, 0.668029, 0.669682, 0.680216, 0.68836, 0.68463, 0.687066, 0.65388, 0.655934, 0.724224, 0.66044, 0.74327, 0.742077, 0.708183, 0.708222, 0.766577, 0.830716, 0.829308, 0.785367, 0.785218, 0.788491, 0.820766, 0.802311, 0.802062, 0.801855, 0.814516, 0.812736, 0.811289
0.646989, 0.672903, 0.648577, 0.648534, 0.647405, 0.649983, 0.685417, 0.652432, 0.663613, 0.647751, 0.660363, 0.646328, 0.659969, 0.683004, 0.665731, 0.680659, 0.653811, 0.648893, 0.655084, 0.648348, 0.646703, 0.648804, 0.659873, 0.671407, 0.683819, 0.660132, 0.660595, 0.668387, 0.651801, 0.664296, 0.658942, 0.652687, 0.655972, 0.655285, 0.685752, 0.652068, 0.675023, 0.683712, 0.656055, 0.65187, 0.651878, 0.664254, 0.650664, 0.649151, 0.684552, 0.702568, 0.663217, 0.652284, 0.660545, 0.677445, 0.670932, 0.653324, 0.654212, 0.653474, 0.654043, 0.656029, 0.655567, 0.657639, 0.691116, 0.694424, 0.675293, 0.655678, 0.656044, 0.685709, 0.666479, 0.66788, 0.658721, 0.690373, 0.686564, 0.687791, 0.698358, 0.659442, 0.699846, 0.658949, 0.659626, 0.659239, 0.661565, 0.661116, 0.701949, 0.661833, 0.684012, 0.663082, 0.662302, 0.722873, 0.704625, 0.676635, 0.675955, 0.663788, 0.685536, 0.675991, 0.705857, 0.665831, 0.673488, 0.674226, 0.667493, 0.672559, 0.672645, 0.666066, 0.672104, 0.704215, 0.677648, 0.682697, 0.717902, 0.720096, 0.669709, 0.696758, 0.66757, 0.678929, 0.684648, 0.651168, 0.683722, 0.704785, 0.701031, 0.765008, 0.773705, 0.764015, 0.753747, 0.839133, 0.870464, 0.870411, 0.909, 0.812585, 0.79207, 0.80114, 0.800263, 0.838439, 0.810809, 0.812287
0.669663, 0.674221, 0.647526, 0.697963, 0.669177, 0.664136, 0.650114, 0.673626, 0.648261, 0.661954, 0.665971, 0.648962, 0.648909, 0.674205, 0.667301, 0.655595, 0.648591, 0.649984, 0.64875, 0.660107, 0.691589, 0.660243, 0.648382, 0.661094, 0.652099, 0.649316, 0.650263, 0.670713, 0.666488, 0.651457, 0.652466, 0.650632, 0.652707, 0.671105, 0.653956, 0.663065, 0.669778, 0.651877, 0.651249, 0.658758, 0.656276, 0.660406, 0.663982, 0.674779, 0.672879, 0.65307, 0.652929, 0.6527, 0.66587, 0.655067, 0.659507, 0.654296, 0.654323, 0.655951, 0.654928, 0.653484, 0.656434, 0.655366, 0.655236, 0.671479, 0.65933, 0.677027, 0.690914, 0.698505, 0.689536, 0.68827, 0.663344, 0.711604, 0.688799, 0.672913, 0.690535, 0.683598, 0.664111, 0.659373, 0.684069, 0.66253, 0.662156, 0.708828, 0.664052, 0.673715, 0.680071, 0.690855, 0.662696, 0.691834, 0.663773, 0.671306, 0.683445, 0.664667, 0.685408, 0.667257, 0.663885, 0.666883, 0.698339, 0.679262, 0.671474, 0.664707, 0.665627, 0.664765, 0.669184, 0.70243, 0.690162, 0.699599, 0.699281, 0.674239, 0.675207, 0.666671, 0.676663, 0.653128, 0.644539, 0.644898, 0.662768, 0.706022, 0.762555, 0.711238, 0.734965, 0.781898, 0.861794, 0.840159, 0.780297, 0.826412, 0.812358, 0.822681, 0.794338, 0.792776, 0.814352, 0.796828, 0.797973, 0.80083
0.662386, 0.702365, 0.668182, 0.647393, 0.680667, 0.650854, 0.660275, 0.656213, 0.649394, 0.649281, 0.652639, 0.648889, 0.652861, 0.648972, 0.649216, 0.65012, 0.664252, 0.653166, 0.65876, 0.649043, 0.653307, 0.648886, 0.657731, 0.650594, 0.659608, 0.653153, 0.650801, 0.656917, 0.653107, 0.651396, 0.651572, 0.663467, 0.655199, 0.670956, 0.651652, 0.651687, 0.671468, 0.68969, 0.653029, 0.687616, 0.659949, 0.653598, 0.652636, 0.6642, 0.663593, 0.659656, 0.651814, 0.657781, 0.656989, 0.653722, 0.673349, 0.655649, 0.654853, 0.656672, 0.65478, 0.655226, 0.654123, 0.656124, 0.655671, 0.656005, 0.670949, 0.694537, 0.65807, 0.698616, 0.658369, 0.65974, 0.659459, 0.662162, 0.708523, 0.656975, 0.663676, 0.662599, 0.705136, 0.715855, 0.66083, 0.701385, 0.679908, 0.660427, 0.69078, 0.663148, 0.676564, 0.680067, 0.680356, 0.665487, 0.674492, 0.664518, 0.666628, 0.680245, 0.673009, 0.665256, 0.690935, 0.665875, 0.662286, 0.674219, 0.689065, 0.684177, 0.663757, 0.677686, 0.670366, 0.670438, 0.708982, 0.667764, 0.678428, 0.668294, 0.676247, 0.680915, 0.689698, 0.693628, 0.646576, 0.645001, 0.717471, 0.736737, 0.721483, 0.760192, 0.728104, 0.812502, 0.843084, 0.85012, 0.789344, 0.897603, 0.821831, 0.811979, 0.802164, 0.794146, 0.82274, 0.796698, 0.803771, 0.839531
0.676408, 0.661485, 0.650123, 0.648925, 0.650715, 0.649694, 0.651632, 0.651338, 0.651611, 0.650834, 0.652051, 0.648524, 0.649084, 0.649131, 0.676388, 0.649706, 0.652263, 0.652618, 0.649123, 0.649185, 0.669691, 0.650658, 0.651125, 0.652663, 0.660197, 0.649837, 0.649861, 0.652067, 0.661056, 0.649286, 0.650543, 0.675935, 0.650606, 0.65065, 0.651754, 0.666622, 0.664026, 0.657622, 0.663474, 0.665429, 0.652503, 0.677882, 0.656331, 0.653643, 0.656864, 0.653351, 0.672612, 0.663105, 0.654273, 0.664745, 0.657908, 0.681084, 0.67636, 0.690496, 0.669979, 0.657317, 0.662841, 0.663848, 0.657115, 0.681861, 0.675951, 0.65973, 0.665582, 0.669821, 0.662959, 0.685074, 0.660683, 0.658809, 0.662054, 0.660389, 0.659544, 0.661212, 0.66669, 0.668048, 0.659348, 0.682047, 0.687027, 0.667647, 0.670852, 0.680791, 0.671918, 0.685297, 0.662111, 0.680006, 0.690747, 0.665694, 0.664046, 0.698386, 0.670847, 0.664583, 0.663569, 0.665996, 0.664586, 0.676287, 0.72344, 0.664051, 0.670234, 0.697709, 0.670374, 0.682769, 0.699545, 0.670353, 0.668516, 0.686449, 0.712337, 0.663219, 0.673952, 0.694982, 0.665973, 0.663362, 0.674525, 0.754767, 0.676846, 0.759268, 0.784353, 0.767435, 0.794391, 0.848623, 0.756638, 0.906456, 0.794426, 0.792024, 0.794936, 0.794972, 0.796576, 0.796232, 0.805383, 0.802705
0.669677, 0.671131, 0.652739, 0.650681, 0.65014, 0.650629, 0.654051, 0.652602, 0.651906, 0.650442, 0.652208, 0.651499, 0.652397, 0.650205, 0.650498, 0.64934, 0.650081, 0.6651, 0.651574, 0.681093, 0.704272, 0.652228, 0.653653, 0.652643, 0.653206, 0.652078, 0.6527, 0.732052, 0.656962, 0.651205, 0.653384, 0.659591, 0.677838, 0.652241, 0.653907, 0.654134, 0.6556, 0.685348, 0.660091, 0.713941, 0.66065, 0.656421, 0.656053, 0.662689, 0.673534, 0.659786, 0.654621, 0.656398, 0.673534, 0.680532, 0.658238, 0.65723, 0.656489, 0.654923, 0.694359, 0.656666, 0.657114, 0.659835, 0.687138, 0.674604, 0.674576, 0.688624, 0.659249, 0.659154, 0.660006, 0.659976, 0.658997, 0.711099, 0.659878, 0.660089, 0.661654, 0.674986, 0.660224, 0.660608, 0.67283, 0.696422, 0.659984, 0.662311, 0.677625, 0.667467, 0.686187, 0.66259, 0.662777, 0.666004, 0.674295, 0.66961, 0.68368, 0.681843, 0.680911, 0.665125, 0.664704, 0.665651, 0.664737, 0.664364, 0.670034, 0.666382, 0.666688, 0.66469, 0.665888, 0.667103, 0.670567, 0.706138, 0.690665, 0.670006, 0.670774, 0.677458, 0.669441, 0.642207, 0.653241, 0.645961, 0.656802, 0.677911, 0.694863, 0.726484, 0.72635, 0.83392, 0.740879, 0.742967, 0.866152, 0.785264, 0.797756, 0.795332, 0.801697, 0.803536, 0.806532, 0.811097, 0.810023, 0.825154
0.651545, 0.651702, 0.652533, 0.652697, 0.652356, 0.650604, 0.651117, 0.675084, 0.652469, 0.651647, 0.652357, 0.652235, 0.650318, 0.67338, 0.678877, 0.652256, 0.649971, 0.649773, 0.649099, 0.652146, 0.674987, 0.654029, 0.653614, 0.653206, 0.653631, 0.653925, 0.652919, 0.652085, 0.652198, 0.652491, 0.659945, 0.65353, 0.654324, 0.656806, 0.654795, 0.655855, 0.673059, 0.687463, 0.686455, 0.661807, 0.654306, 0.670818, 0.660648, 0.673798, 0.65356, 0.655269, 0.653777, 0.655533, 0.653686, 0.672969, 0.697833, 0.660824, 0.679659, 0.663903, 0.657214, 0.656368, 0.656967, 0.657862, 0.657288, 0.657457, 0.658759, 0.662857, 0.659768, 0.660019, 0.664057, 0.660349, 0.659884, 0.660311, 0.659962, 0.65952, 0.674129, 0.661006, 0.660013, 0.661423, 0.67664, 0.706711, 0.670734, 0.688675, 0.673428, 0.662207, 0.662438, 0.661939, 0.691866, 0.681926, 0.664765, 0.663424, 0.665942, 0.666907, 0.663883, 0.664404, 0.664047, 0.664458, 0.664074, 0.664919, 0.663891, 0.664374, 0.664621, 0.665927, 0.677231, 0.681032, 0.668108, 0.680999, 0.689574, 0.721135, 0.668425, 0.701112, 0.64486, 0.644911, 0.649243, 0.664042, 0.65262, 0.723461, 0.696199, 0.742763, 0.724639, 0.722748, 0.769504, 0.864238, 0.853701, 0.789667, 0.784683, 0.795106, 0.803006, 0.803189, 0.860508, 0.815734, 0.811508, 0.892699
0.652493, 0.651792, 0.652443, 0.65297, 0.652789, 0.651945, 0.651543, 0.652538, 0.652737, 0.65421, 0.653614, 0.65249, 0.652039, 0.660005, 0.666978, 0.656176, 0.652492, 0.697456, 0.679797, 0.654522, 0.697139, 0.658215, 0.654936, 0.669503, 0.660126, 0.652991, 0.654151, 0.653797, 0.654197, 0.654564, 0.654503, 0.654801, 0.654855, 0.656149, 0.657234, 0.656287, 0.682644, 0.677476, 0.655619, 0.654839, 0.682304, 0.656399, 0.660595, 0.726371, 0.656386, 0.654565, 0.659684, 0.653915, 0.662696, 0.673774, 0.661309, 0.688585, 0.676579, 0.684041, 0.657137, 0.657256, 0.65792, 0.65681, 0.658998, 0.659218, 0.683825, 0.659176, 0.660257, 0.66069, 0.661342, 0.661335, 0.698614, 0.659859, 0.667045, 0.660758, 0.664079, 0.660723, 0.662149, 0.66483, 0.688199, 0.694974, 0.661292, 0.69453, 0.660991, 0.66163, 0.671579, 0.684713, 0.662927, 0.662794, 0.677456, 0.66411, 0.668603, 0.66666, 0.664028, 0.663795, 0.664168, 0.665043, 0.666097, 0.667587, 0.665344, 0.664579, 0.665072, 0.678113, 0.670813, 0.666782, 0.670871, 0.668673, 0.669406, 0.687468, 0.667281, 0.66734, 0.666769, 0.643171, 0.645927, 0.667169, 0.676393, 0.69932, 0.766992, 0.725232, 0.725551, 0.727829, 0.774084, 0.775081, 0.762694, 0.767478, 0.801355, 0.876024, 0.833384, 0.807178, 0.804871, 0.809441, 0.806253, 0.838464
0.651888, 0.653343, 0.653629, 0.669933, 0.654168, 0.652438, 0.652609, 0.669526, 0.65413, 0.680177, 0.654023, 0.653782, 0.659579, 0.653371, 0.671395, 0.685502, 0.676478, 0.709175, 0.667202, 0.663239, 0.666546, 0.659312, 0.653353, 0.655602, 0.656278, 0.655824, 0.655246, 0.655385, 0.654484, 0.65566, 0.655677, 0.656383, 0.654732, 0.656314, 0.655553, 0.655764, 0.666183, 0.655675, 0.656434, 0.66391, 0.679903, 0.662876, 0.65669, 0.658796, 0.723422, 0.668323, 0.655076, 0.655342, 0.656158, 0.655957, 0.703215, 0.655343, 0.660298, 0.657175, 0.656335, 0.65736, 0.658707, 0.658528, 0.682293, 0.662808, 0.659496, 0.659639, 0.661341, 0.661879, 0.662362, 0.662073, 0.662249, 0.661145, 0.662131, 0.709043, 0.66373, 0.662383, 0.662445, 0.662592, 0.662776, 0.66259, 0.662501, 0.665195, 0.690372, 0.669852, 0.664431, 0.686353, 0.687409, 0.664736, 0.665966, 0.680437, 0.667121, 0.664431, 0.671383, 0.663894, 0.667611, 0.664693, 0.667943, 0.663318, 0.664933, 0.66415, 0.688081, 0.66547, 0.664694, 0.666838, 0.674776, 0.690688, 0.670871, 0.680232, 0.672869, 0.666515, 0.649865, 0.651381, 0.655534, 0.66808, 0.666207, 0.665819, 0.703712, 0.755639, 0.726029, 0.725984, 0.753502, 0.780505, 0.77615, 0.776858, 0.82185, 0.807811, 0.792359, 0.787153, 0.848126, 0.897608, 0.798365, 0.80017
0.651874, 0.652596, 0.652242, 0.653072, 0.653283, 0.652512, 0.65413, 0.655592, 0.655426, 0.654671, 0.655446, 0.664132, 0.652951, 0.682411, 0.654048, 0.668357, 0.663035, 0.68174, 0.662033, 0.65626, 0.655009, 0.656647, 0.655124, 0.654714, 0.657053, 0.656939, 0.654707, 0.657645, 0.657709, 0.655458, 0.655789, 0.655711, 0.655413, 0.655558, 0.65583, 0.656143, 0.663918, 0.656528, 0.656299, 0.655692, 0.69451, 0.684745, 0.655281, 0.657489, 0.656148, 0.654342, 0.701401, 0.666108, 0.673658, 0.655533, 0.657833, 0.655598, 0.656846, 0.656811, 0.660584, 0.671111, 0.659009, 0.659298, 0.659462, 0.661113, 0.673024, 0.6615, 0.66171, 0.661905, 0.66224, 0.662755, 0.662154, 0.6615, 0.662742, 0.661925, 0.662462, 0.663277, 0.663369, 0.66403, 0.663196, 0.663788, 0.662502, 0.695284, 0.66442, 0.673357, 0.685992, 0.676378, 0.676392, 0.664832, 0.66352, 0.673538, 0.66442, 0.663724, 0.663466, 0.6639, 0.664238, 0.661137, 0.662932, 0.663434, 0.66432, 0.677995, 0.663726, 0.663607, 0.664343, 0.676674, 0.672231, 0.671936, 0.680078, 0.680564, 0.677986, 0.678894, 0.689015, 0.671845, 0.695708, 0.674474, 0.674371, 0.680142, 0.673677, 0.724909, 0.779008, 0.726796, 0.808256, 0.744141, 0.777946, 0.788448, 0.797227, 0.814399, 0.799183, 0.790831, 0.793143, 0.794335, 0.871437, 0.845602
0.652061, 0.652435, 0.655442, 0.654479, 0.654257, 0.652361, 0.654002, 0.694258, 0.655287, 0.656335, 0.655598, 0.66942, 0.666351, 0.66952, 0.671995, 0.658347, 0.662329, 0.685321, 0.655353, 0.673918, 0.662752, 0.656082, 0.656284, 0.697419, 0.657431, 0.672669, 0.656207, 0.655732, 0.667179, 0.657385, 0.656636, 0.65606, 0.659196, 0.656792, 0.657838, 0.660755, 0.65754, 0.655178, 0.665676, 0.66417, 0.668958, 0.65975, 0.65607, 0.689928, 0.656657, 0.688501, 0.656773, 0.66585, 0.659868, 0.683518, 0.690712, 0.656196, 0.656475, 0.656903, 0.65859, 0.658794, 0.659052, 0.659115, 0.659188, 0.661322, 0.661632, 0.662127, 0.662557, 0.662011, 0.661276, 0.662604, 0.662139, 0.662483, 0.661901, 0.662292, 0.663327, 0.66332, 0.6648, 0.664223, 0.662789, 0.662817, 0.663438, 0.662006, 0.697997, 0.677869, 0.664322, 0.662759, 0.684207, 0.664277, 0.683924, 0.666329, 0.664928, 0.664121, 0.667489, 0.662894, 0.662419, 0.662926, 0.682377, 0.662471, 0.66054, 0.662175, 0.66551, 0.666168, 0.665229, 0.663642, 0.700748, 0.670111, 0.736907, 0.670988, 0.667131, 0.688268, 0.660227, 0.670779, 0.698531, 0.67808, 0.675681, 0.743372, 0.752702, 0.702451, 0.75774, 0.764082, 0.735759, 0.741459, 0.795672, 0.814529, 0.787802, 0.813995, 0.781034, 0.789697, 0.828161, 0.815816, 0.802827, 0.796833
0.652324, 0.650958, 0.67833, 0.652362, 0.664449, 0.655144, 0.655476, 0.65386, 0.655202, 0.67545, 0.655554, 0.6572, 0.67014, 0.679353, 0.667041, 0.667984, 0.700562, 0.668777, 0.698545, 0.690819, 0.692522, 0.688046, 0.656338, 0.659176, 0.657412, 0.665475, 0.663847, 0.65846, 0.663321, 0.65628, 0.657438, 0.657294, 0.67106, 0.657107, 0.669972, 0.657093, 0.655792, 0.657117, 0.656587, 0.676364, 0.665555, 0.656618, 0.657394, 0.669024, 0.657375, 0.666869, 0.656433, 0.656254, 0.655551, 0.655959, 0.680233, 0.670362, 0.656648, 0.656548, 0.658481, 0.658861, 0.659726, 0.660184, 0.663413, 0.662088, 0.66151, 0.66192, 0.661769, 0.666547, 0.703175, 0.714671, 0.704313, 0.68321, 0.661518, 0.661258, 0.662166, 0.662622, 0.66239, 0.671064, 0.662616, 0.665053, 0.662372, 0.662952, 0.677783, 0.687215, 0.67996, 0.662991, 0.706934, 0.705025, 0.664326, 0.67029, 0.664835, 0.66381, 0.700852, 0.662638, 0.661603, 0.664153, 0.663219, 0.662108, 0.682993, 0.690111, 0.669514, 0.66341, 0.666834, 0.677606, 0.702046, 0.667827, 0.669475, 0.708122, 0.680454, 0.683509, 0.682103, 0.687492, 0.663306, 0.67277, 0.663664, 0.725929, 0.727427, 0.708312, 0.76711, 0.84216, 0.763059, 0.7538, 0.775662, 0.749258, 0.77913, 0.802236, 0.823424, 0.798781, 0.795116, 0.792282, 0.810929, 0.88022
0.673362, 0.652944, 0.65378, 0.662653, 0.664918, 0.654456, 0.657172, 0.655, 0.659962, 0.65467, 0.655648, 0.694792, 0.66677, 0.670476, 0.690977, 0.690371, 0.667287, 0.666251, 0.675534, 0.675183, 0.656755, 0.683202, 0.679266, 0.683405, 0.659066, 0.659226, 0.65928, 0.65988, 0.663476, 0.658121, 0.658916, 0.671276, 0.680905, 0.676639, 0.657227, 0.658225, 0.68006, 0.668357, 0.666854, 0.663896, 0.678928, 0.65686, 0.655751, 0.657271, 0.659118, 0.657127, 0.691157, 0.662318, 0.663, 0.65535, 0.677527, 0.666198, 0.657606, 0.657257, 0.657656, 0.658214, 0.680979, 0.660212, 0.66117, 0.686835, 0.662392, 0.672308, 0.661378, 0.660206, 0.662618, 0.66215, 0.660502, 0.668031, 0.661281, 0.662505, 0.6622, 0.677022, 0.662566, 0.662635, 0.662799, 0.666338, 0.662409, 0.661512, 0.667242, 0.662711, 0.663409, 0.710811, 0.672675, 0.663432, 0.668966, 0.663019, 0.663999, 0.666576, 0.66228, 0.676496, 0.663866, 0.661785, 0.681059, 0.661926, 0.681636, 0.674661, 0.662471, 0.671332, 0.665496, 0.664491, 0.680825, 0.680686, 0.687799, 0.69174, 0.674692, 0.708458, 0.694069, 0.684056, 0.676696, 0.684424, 0.756361, 0.671215, 0.710653, 0.763969, 0.790056, 0.72779, 0.805471, 0.754697, 0.76636, 0.79141, 0.7838, 0.827939, 0.781306, 0.795468, 0.829274, 0.808705, 0.806435, 0.851322
0.659288, 0.660793, 0.656878, 0.668334, 0.652748, 0.659783, 0.657178, 0.655857, 0.658701, 0.661224, 0.66342, 0.657077, 0.666268, 0.663969, 0.69417, 0.663604, 0.658319, 0.667872, 0.666796, 0.656347, 0.656803, 0.6721, 0.672637, 0.693564, 0.674741, 0.670514, 0.673085, 0.658966, 0.670395, 0.687532, 0.667034, 0.660308, 0.661709, 0.671585, 0.657516, 0.658019, 0.658736, 0.68015, 0.657618, 0.659687, 0.656378, 0.693566, 0.657276, 0.655413, 0.663039, 0.683626, 0.658275, 0.658096, 0.655733, 0.656207, 0.658384, 0.655972, 0.657952, 0.674247, 0.659167, 0.667373, 0.659973, 0.659256, 0.660428, 0.660835, 0.661232, 0.667873, 0.662797, 0.661519, 0.66103, 0.662368, 0.662081, 0.661275, 0.685533, 0.666979, 0.662779, 0.662436, 0.662068, 0.662863, 0.662479, 0.662273, 0.661374, 0.662149, 0.684503, 0.663648, 0.701761, 0.663361, 0.663883, 0.663108, 0.663439, 0.662763, 0.661821, 0.662967, 0.660837, 0.675879, 0.660487, 0.667552, 0.660804, 0.660185, 0.680427, 0.662844, 0.663275, 0.663053, 0.666133, 0.665863, 0.676878, 0.681732, 0.694226, 0.670329, 0.705291, 0.667682, 0.691878, 0.672443, 0.644459, 0.669859, 0.714519, 0.739272, 0.766302, 0.679698, 0.744513, 0.731665, 0.730671, 0.75996, 0.77076, 0.763344, 0.815826, 0.803461, 0.801782, 0.80367, 0.888145, 0.806603, 0.810109, 0.806755
0.652461, 0.652962, 0.669773, 0.671157, 0.691067, 0.691199, 0.670468, 0.665923, 0.664658, 0.704181, 0.662771, 0.687049, 0.67147, 0.663775, 0.67704, 0.695649, 0.689398, 0.692361, 0.681544, 0.721012, 0.65655, 0.681169, 0.65742, 0.673096, 0.665891, 0.671682, 0.65854, 0.66394, 0.676392, 0.660531, 0.682153, 0.658957, 0.677087, 0.65876, 0.666427, 0.672045, 0.660436, 0.663516, 0.657522, 0.6577, 0.658454, 0.656793, 0.658017, 0.658871, 0.665983, 0.659706, 0.671461, 0.696954, 0.656282, 0.683879, 0.656901, 0.658969, 0.657912, 0.694278, 0.659106, 0.661013, 0.659408, 0.660571, 0.659617, 0.662293, 0.660218, 0.6629, 0.662155, 0.661714, 0.661733, 0.662116, 0.673878, 0.662358, 0.661358, 0.676716, 0.660501, 0.661894, 0.659679, 0.66254, 0.66207, 0.68458, 0.683982, 0.662772, 0.663097, 0.675557, 0.662159, 0.66278, 0.688244, 0.662289, 0.662682, 0.66274, 0.662047, 0.681941, 0.662262, 0.663247, 0.65855, 0.659209, 0.660906, 0.678377, 0.660697, 0.661111, 0.661362, 0.660958, 0.666536, 0.701416, 0.708898, 0.684057, 0.678781, 0.68443, 0.681275, 0.673634, 0.658253, 0.670198, 0.671329, 0.670155, 0.674547, 0.67516, 0.667724, 0.733538, 0.774467, 0.760308, 0.794081, 0.760165, 0.763504, 0.799329, 0.806395, 0.81083, 0.873059, 0.805401, 0.807244, 0.867387, 0.809059, 0.810952
0.654204, 0.668821, 0.664232, 0.662736, 0.667164, 0.684262, 0.657311, 0.685149, 0.657328, 0.664225, 0.658148, 0.659602, 0.676178, 0.673829, 0.695514, 0.668065, 0.681028, 0.666997, 0.691592, 0.680049, 0.66497, 0.672781, 0.680412, 0.677355, 0.676076, 0.662536, 0.691946, 0.702807, 0.666739, 0.667171, 0.667289, 0.664541, 0.662814, 0.674376, 0.658832, 0.658608, 0.657496, 0.691856, 0.675063, 0.657255, 0.661479, 0.656517, 0.655999, 0.657508, 0.656374, 0.655873, 0.657112, 0.670877, 0.669986, 0.66539, 0.683925, 0.665727, 0.666381, 0.680572, 0.687314, 0.660304, 0.660407, 0.662591, 0.66008, 0.674014, 0.695277, 0.662415, 0.668183, 0.66094, 0.662017, 0.675075, 0.662052, 0.662533, 0.661208, 0.661001, 0.672887, 0.661905, 0.660438, 0.662009, 0.662399, 0.66254, 0.660699, 0.661423, 0.663233, 0.663649, 0.664388, 0.663574, 0.66397, 0.662606, 0.662336, 0.662578, 0.662422, 0.660908, 0.660988, 0.659787, 0.662702, 0.661301, 0.66116, 0.678981, 0.677995, 0.688857, 0.672176, 0.662879, 0.681658, 0.726329, 0.678013, 0.683204, 0.68708, 0.680487, 0.703852, 0.695438, 0.65218, 0.679546, 0.717223, 0.661556, 0.663389, 0.680973, 0.724807, 0.73594, 0.747325, 0.715394, 0.762573, 0.833675, 0.761726, 0.760568, 0.811079, 0.918604, 0.804087, 0.81137, 0.840343, 0.808949, 0.832999, 0.809724
0.682496, 0.660215, 0.665546, 0.68873, 0.655403, 0.656985, 0.656404, 0.671018, 0.665768, 0.66611, 0.691793, 0.670506, 0.670654, 0.669684, 0.675244, 0.666509, 0.667541, 0.670108, 0.667505, 0.68395, 0.666532, 0.691864, 0.684408, 0.674247, 0.660921, 0.666214, 0.673388, 0.670032, 0.662046, 0.662565, 0.679685, 0.662963, 0.671179, 0.685157, 0.675807, 0.680845, 0.657893, 0.658454, 0.672964, 0.664645, 0.658186, 0.658337, 0.676289, 0.657507, 0.657162, 0.664504, 0.65592, 0.663592, 0.656654, 0.667929, 0.659187, 0.670176, 0.67657, 0.6596, 0.658831, 0.659061, 0.659736, 0.66022, 0.660202, 0.66184, 0.662425, 0.662855, 0.66191, 0.681922, 0.662497, 0.662878, 0.662443, 0.662101, 0.679441, 0.669016, 0.660395, 0.681143, 0.660977, 0.708234, 0.661589, 0.69749, 0.669597, 0.671144, 0.663024, 0.662085, 0.662173, 0.662784, 0.662511, 0.662955, 0.663391, 0.662384, 0.661619, 0.680844, 0.661432, 0.661162, 0.660498, 0.661129, 0.66017, 0.661226, 0.66022, 0.668587, 0.694424, 0.662913, 0.713127, 0.670752, 0.743636, 0.692316, 0.671341, 0.690003, 0.687413, 0.689144, 0.66064, 0.685669, 0.650593, 0.670133, 0.694496, 0.676226, 0.749994, 0.748503, 0.725032, 0.800476, 0.815695, 0.833447, 0.770006, 0.80031, 0.854233, 0.80706, 0.873641, 0.80927, 0.884008, 0.809536, 0.834841, 0.810267
0.65913, 0.689095, 0.654953, 0.676884, 0.66664, 0.664766, 0.68091, 0.6707, 0.682352, 0.68663, 0.67405, 0.669989, 0.669647, 0.681745, 0.666685, 0.68935, 0.671637, 0.690891, 0.66287, 0.665011, 0.660934, 0.670685, 0.677621, 0.672815, 0.694149, 0.678394, 0.680583, 0.662451, 0.69734, 0.67986, 0.669338, 0.672167, 0.683559, 0.669348, 0.658908, 0.65875, 0.680184, 0.6593, 0.662018, 0.659068, 0.67822, 0.659391, 0.657585, 0.669657, 0.662724, 0.662906, 0.657585, 0.683027, 0.6634, 0.661663, 0.663562, 0.663312, 0.673883, 0.65953, 0.689728, 0.680433, 0.668033, 0.660779, 0.659816, 0.661908, 0.662293, 0.663286, 0.660687, 0.698035, 0.685276, 0.662405, 0.676257, 0.663178, 0.661685, 0.660443, 0.714417, 0.662456, 0.680985, 0.665562, 0.660509, 0.662516, 0.66569, 0.660724, 0.662203, 0.662785, 0.662951, 0.662323, 0.663087, 0.663791, 0.663372, 0.665043, 0.662524, 0.662178, 0.660174, 0.661203, 0.662136, 0.661358, 0.661174, 0.671194, 0.712355, 0.662454, 0.672321, 0.684281, 0.666652, 0.669246, 0.688352, 0.670156, 0.671501, 0.667034, 0.672717, 0.681213, 0.674441, 0.68933, 0.67077, 0.698639, 0.672585, 0.701472, 0.774663, 0.804435, 0.728225, 0.808095, 0.784851, 0.74967, 0.822771, 0.853033, 0.852791, 0.912126, 0.787128, 0.801632, 0.867907, 0.848679, 0.793746, 0.843056
0.653699, 0.65508, 0.690652, 0.683703, 0.665531, 0.712459, 0.673859, 0.711203, 0.684546, 0.689872, 0.659788, 0.684216, 0.732644, 0.662209, 0.707882, 0.663314, 0.675834, 0.663959, 0.698828, 0.679317, 0.670011, 0.691079, 0.706293, 0.680281, 0.666637, 0.67282, 0.673403, 0.664458, 0.674087, 0.701456, 0.680193, 0.67344, 0.676907, 0.672675, 0.689416, 0.689369, 0.670062, 0.670312, 0.67876, 0.65857, 0.673543, 0.663262, 0.661434, 0.660379, 0.658014, 0.660713, 0.672882, 0.664269, 0.67489, 0.666601, 0.660765, 0.673453, 0.658412, 0.6571, 0.658648, 0.661332, 0.663954, 0.660531, 0.661704, 0.676851, 0.662288, 0.663409, 0.661803, 0.663304, 0.695567, 0.677541, 0.663199, 0.662012, 0.673231, 0.716832, 0.660935, 0.659829, 0.682371, 0.698396, 0.691836, 0.659566, 0.660213, 0.695345, 0.66213, 0.663638, 0.662119, 0.701647, 0.664554, 0.664319, 0.711614, 0.66217, 0.66277, 0.662788, 0.685115, 0.660264, 0.660012, 0.659331, 0.706226, 0.6703, 0.661049, 0.676747, 0.678377, 0.673544, 0.70454, 0.677834, 0.676461, 0.678158, 0.690272, 0.684763, 0.670042, 0.684264, 0.683982, 0.695082, 0.677149, 0.662506, 0.669352, 0.683416, 0.725632, 0.721787, 0.777758, 0.756155, 0.759596, 0.761123, 0.832584, 0.773231, 0.77359, 0.79591, 0.81901, 0.833514, 0.790485, 0.793402, 0.792777, 0.794272
0.707227, 0.660935, 0.662718, 0.672816, 0.669469, 0.656626, 0.676029, 0.662182, 0.661417, 0.668436, 0.670794, 0.670571, 0.66689, 0.701487, 0.684591, 0.678632, 0.686231, 0.67875, 0.711786, 0.670603, 0.668024, 0.680702, 0.684587, 0.687201, 0.703806, 0.671062, 0.691179, 0.694392, 0.664063, 0.686695, 0.669081, 0.663554, 0.66721, 0.682509, 0.684754, 0.682748, 0.662692, 0.660485, 0.666551, 0.673699, 0.68408, 0.680473, 0.659819, 0.660843, 0.658776, 0.667969, 0.656219, 0.659077, 0.658957, 0.670499, 0.658471, 0.679383, 0.674946, 0.659506, 0.663547, 0.681793, 0.66016, 0.662405, 0.687829, 0.660736, 0.658414, 0.669487, 0.661599, 0.671116, 0.691741, 0.661649, 0.659964, 0.660618, 0.659249, 0.660787, 0.660225, 0.700401, 0.666543, 0.674341, 0.667065, 0.660519, 0.685105, 0.680207, 0.660984, 0.662396, 0.661651, 0.662637, 0.663557, 0.662329, 0.673702, 0.662313, 0.661189, 0.660539, 0.661136, 0.66089, 0.661888, 0.695158, 0.662337, 0.663066, 0.661447, 0.662522, 0.680266, 0.66378, 0.693919, 0.678271, 0.690509, 0.690427, 0.673198, 0.681346, 0.69185, 0.671374, 0.683353, 0.684902, 0.659989, 0.64912, 0.648314, 0.712202, 0.731597, 0.709318, 0.739528, 0.778846, 0.742545, 0.741945, 0.774958, 0.746614, 0.785498, 0.786967, 0.794994, 0.811813, 0.780605, 0.862492, 0.792554, 0.798537
0.661923, 0.670074, 0.658659, 0.670639, 0.675258, 0.656255, 0.655791, 0.664981, 0.676981, 0.663887, 0.66217, 0.668038, 0.664884, 0.674711, 0.661848, 0.674165, 0.663202, 0.675763, 0.671285, 0.720021, 0.664299, 0.681334, 0.684793, 0.687255, 0.70337, 0.686822, 0.668172, 0.664788, 0.673985, 0.662138, 0.662117, 0.662741, 0.67566, 0.688305, 0.662812, 0.669494, 0.674242, 0.677184, 0.693693, 0.660847, 0.666524, 0.664971, 0.67977, 0.673198, 0.660924, 0.659881, 0.693929, 0.673149, 0.65698, 0.678166, 0.657098, 0.657242, 0.656611, 0.69875, 0.668906, 0.680611, 0.658951, 0.659092, 0.661538, 0.667045, 0.660708, 0.660752, 0.68632, 0.660846, 0.671096, 0.683971, 0.661347, 0.676044, 0.669277, 0.659896, 0.660687, 0.699699, 0.683376, 0.660393, 0.661232, 0.660356, 0.660773, 0.661066, 0.663085, 0.660859, 0.660451, 0.659808, 0.66082, 0.660398, 0.672972, 0.662298, 0.662731, 0.671228, 0.662055, 0.660146, 0.659982, 0.674745, 0.666507, 0.661305, 0.709156, 0.691119, 0.690426, 0.695608, 0.673639, 0.676631, 0.685582, 0.673634, 0.673576, 0.702435, 0.677991, 0.702806, 0.682164, 0.686658, 0.688026, 0.648404, 0.647255, 0.708169, 0.750803, 0.718015, 0.746779, 0.748714, 0.739991, 0.73967, 0.743854, 0.771522, 0.773294, 0.773112, 0.793669, 0.782917, 0.78554, 0.795487, 0.796428, 0.795019
0.660643, 0.658214, 0.65277, 0.655913, 0.667492, 0.655563, 0.668255, 0.659513, 0.665042, 0.661146, 0.696601, 0.674526, 0.669163, 0.662867, 0.686528, 0.67653, 0.670948, 0.664248, 0.667256, 0.667179, 0.678565, 0.683006, 0.670771, 0.687328, 0.677077, 0.686962, 0.671424, 0.669014, 0.68356, 0.692999, 0.693522, 0.675505, 0.668281, 0.715031, 0.670931, 0.66425, 0.677119, 0.688026, 0.683432, 0.669677, 0.673436, 0.663149, 0.666396, 0.660407, 0.667069, 0.66084, 0.687911, 0.667189, 0.673264, 0.657566, 0.65705, 0.691034, 0.70177, 0.66402, 0.657201, 0.66676, 0.659445, 0.669904, 0.66867, 0.66291, 0.683845, 0.667041, 0.674249, 0.66044, 0.662734, 0.671002, 0.684821, 0.658601, 0.678815, 0.691862, 0.709394, 0.659755, 0.659712, 0.659469, 0.659465, 0.683284, 0.66626, 0.661295, 0.669573, 0.661926, 0.659742, 0.66256, 0.661698, 0.661341, 0.662262, 0.661669, 0.6609, 0.662829, 0.659984, 0.659814, 0.66399, 0.663166, 0.661487, 0.675495, 0.683753, 0.664646, 0.702387, 0.705972, 0.67991, 0.674152, 0.68063, 0.669951, 0.692474, 0.683848, 0.682124, 0.706822, 0.678947, 0.65492, 0.658793, 0.671108, 0.681768, 0.732604, 0.730068, 0.735142, 0.769286, 0.746961, 0.746802, 0.739365, 0.743065, 0.748022, 0.790385, 0.770298, 0.779889, 0.791918, 0.784925, 0.84047, 0.797017, 0.832325
0.671268, 0.652471, 0.670407, 0.653608, 0.660895, 0.665648, 0.669428, 0.658503, 0.661262, 0.677106, 0.683965, 0.66277, 0.670408, 0.662813, 0.700557, 0.672786, 0.663406, 0.701153, 0.68956, 0.66782, 0.697544, 0.664357, 0.700587, 0.689319, 0.682023, 0.667163, 0.681266, 0.680635, 0.68074, 0.697365, 0.67405, 0.673796, 0.697483, 0.680467, 0.676696, 0.664481, 0.664127, 0.670217, 0.665705, 0.679819, 0.707184, 0.698901, 0.667147, 0.666539, 0.675828, 0.679734, 0.658992, 0.659087, 0.676593, 0.656466, 0.694109, 0.656674, 0.656329, 0.658368, 0.669257, 0.705496, 0.658007, 0.667316, 0.659986, 0.716909, 0.659783, 0.662936, 0.659983, 0.659533, 0.676909, 0.659482, 0.660438, 0.669062, 0.658763, 0.660556, 0.658839, 0.659664, 0.660709, 0.65621, 0.667364, 0.67249, 0.677787, 0.659124, 0.659576, 0.660762, 0.663658, 0.662733, 0.66372, 0.662516, 0.662241, 0.6627, 0.662184, 0.662222, 0.661243, 0.65986, 0.661237, 0.661751, 0.661153, 0.663272, 0.670706, 0.663318, 0.670474, 0.669678, 0.669474, 0.673136, 0.668092, 0.675871, 0.677218, 0.670005, 0.66791, 0.667498, 0.655604, 0.691618, 0.67418, 0.661016, 0.662043, 0.691268, 0.739642, 0.755516, 0.703794, 0.717642, 0.732496, 0.744315, 0.74608, 0.783527, 0.778737, 0.774322, 0.773381, 0.83268, 0.798189, 0.796868, 0.798255, 0.83935
0.65779, 0.658765, 0.659644, 0.655553, 0.679405, 0.660437, 0.667123, 0.666133, 0.660087, 0.674094, 0.668176, 0.663196, 0.704711, 0.711039, 0.681923, 0.703891, 0.664929, 0.686249, 0.675147, 0.682164, 0.670379, 0.678821, 0.700521, 0.682167, 0.702624, 0.682818, 0.68075, 0.675242, 0.66501, 0.686788, 0.695819, 0.679263, 0.664747, 0.708032, 0.665804, 0.698356, 0.684291, 0.670556, 0.66547, 0.677267, 0.669686, 0.663558, 0.677312, 0.664535, 0.67334, 0.673209, 0.67998, 0.667134, 0.666391, 0.658962, 0.674964, 0.66546, 0.658158, 0.658415, 0.658906, 0.657871, 0.6588, 0.673034, 0.658391, 0.669937, 0.658602, 0.675057, 0.659496, 0.659465, 0.659354, 0.67451, 0.658217, 0.666795, 0.660149, 0.662752, 0.659126, 0.658981, 0.656668, 0.656456, 0.668728, 0.689418, 0.66289, 0.662988, 0.660348, 0.662274, 0.676338, 0.699756, 0.662049, 0.669975, 0.662816, 0.66267, 0.662718, 0.662978, 0.663978, 0.660683, 0.663169, 0.662768, 0.661895, 0.691553, 0.662592, 0.672862, 0.663403, 0.704975, 0.677922, 0.688402, 0.686129, 0.68972, 0.669695, 0.690572, 0.716032, 0.677954, 0.684207, 0.688495, 0.660392, 0.639291, 0.686364, 0.680822, 0.71019, 0.72678, 0.784286, 0.71265, 0.832513, 0.752565, 0.758973, 0.780736, 0.773861, 0.77423, 0.76725, 0.79212, 0.800996, 0.795939, 0.841476, 0.793851
0.687345, 0.666552, 0.653929, 0.655258, 0.674604, 0.658785, 0.657322, 0.676188, 0.667415, 0.669788, 0.66628, 0.713798, 0.660826, 0.676175, 0.687043, 0.69769, 0.690468, 0.686125, 0.670991, 0.691558, 0.680159, 0.691832, 0.666506, 0.668077, 0.676324, 0.677254, 0.676266, 0.669153, 0.680078, 0.665924, 0.685163, 0.677118, 0.66759, 0.678668, 0.666613, 0.666888, 0.668329, 0.666595, 0.681423, 0.666834, 0.669068, 0.68727, 0.663055, 0.662716, 0.671816, 0.66158, 0.680338, 0.660822, 0.660468, 0.659232, 0.666942, 0.658792, 0.669797, 0.674161, 0.659467, 0.658412, 0.669632, 0.657811, 0.658108, 0.65845, 0.658239, 0.677537, 0.669553, 0.660403, 0.658893, 0.658831, 0.659141, 0.658859, 0.689451, 0.658562, 0.683558, 0.660329, 0.69992, 0.656867, 0.657828, 0.658866, 0.658885, 0.658801, 0.658064, 0.65915, 0.658997, 0.660106, 0.660275, 0.661169, 0.677838, 0.662816, 0.660526, 0.662336, 0.691281, 0.66959, 0.666185, 0.66127, 0.662883, 0.680859, 0.67062, 0.676485, 0.698381, 0.665161, 0.671665, 0.670556, 0.684373, 0.695075, 0.68343, 0.680467, 0.681203, 0.674623, 0.702436, 0.663515, 0.669102, 0.714035, 0.686192, 0.68394, 0.757315, 0.7103, 0.778749, 0.736028, 0.738805, 0.753411, 0.782144, 0.751806, 0.755018, 0.758857, 0.773739, 0.784989, 0.785311, 0.779908, 0.784127, 0.835999
0.663976, 0.655944, 0.655519, 0.655806, 0.67442, 0.658549, 0.679555, 0.670712, 0.670088, 0.666489, 0.673562, 0.714698, 0.675622, 0.686114, 0.68573, 0.675743, 0.671743, 0.684624, 0.68142, 0.677037, 0.675646, 0.725593, 0.69721, 0.673914, 0.670275, 0.672314, 0.678778, 0.68061, 0.671619, 0.692066, 0.67706, 0.666596, 0.731303, 0.698296, 0.670465, 0.693957, 0.680072, 0.698844, 0.666979, 0.666736, 0.667756, 0.694778, 0.664275, 0.663656, 0.663773, 0.679184, 0.660275, 0.6632, 0.659991, 0.660927, 0.659397, 0.659861, 0.708256, 0.676792, 0.659415, 0.658736, 0.657549, 0.658332, 0.659219, 0.658202, 0.656628, 0.680941, 0.656805, 0.687622, 0.657553, 0.657755, 0.659143, 0.658527, 0.657725, 0.658128, 0.663579, 0.66012, 0.657494, 0.673808, 0.658066, 0.657454, 0.658859, 0.659875, 0.662289, 0.660541, 0.662287, 0.661092, 0.669228, 0.661017, 0.660416, 0.664351, 0.661107, 0.660357, 0.660785, 0.663694, 0.660248, 0.659689, 0.712432, 0.660058, 0.67099, 0.676644, 0.66166, 0.672686, 0.668476, 0.666447, 0.67921, 0.681223, 0.69154, 0.683135, 0.666426, 0.699305, 0.694184, 0.653231, 0.653461, 0.67739, 0.680238, 0.718959, 0.725765, 0.71712, 0.742723, 0.722477, 0.76713, 0.734268, 0.766489, 0.742833, 0.781698, 0.789829, 0.783181, 0.784463, 0.785369, 0.785657, 0.788825, 0.825662
