0.324884,0.32327,0.333034,0.335046,0.333941,0.338663,0.338415,0.338014,0.345909,0.346185,0.346701,0.344442,0.0036666,0.00337414,0.00362643,0.00329377,0.00349097,0.00354313,0.00365553,0.0033627,0.412362,0.413304,0.40949,0.408889,0.00337749,0.00358171,0.436085,0.437058,0.00330889,0.474197,0.474736,0.474195,0.471089,0.00358028,0.00322554,0.00347099,0.00367543,0.00340527,0.00338658,0.00349517,0.00333243,0.51192,0.515491,0.518384,0.520393,0.518506,0.531648,0.535119,0.537812,0.538414,0.538584,0.543482,0.54508,0.0036893,0.00351469,0.0034097,0.00352049,0.00391768,0.581337,0.585911,0.590073,0.591925,0.592696,0.59353,0.597162,0.598304,0.00372821,0.00330837,0.60657,0.00347383,0.620367,0.622163,0.622986,0.641505,0.642333,0.647047,0.648353,0.646041,0.646952,0.647565,0.648376,0.647466,0.64357,0.646169,0.647263,0.648973,0.649549,0.646178,0.647557,0.646127,0.640024,0.641825,0.632026,0.63515,0.640996,0.663804,0.662968,0.663475,0.663879,0.595747,0.604273,0.604739,0.601027,0.632849,0.584293,0.621945,0.619072,0.748603,0.749822,0.636834,0.635582,0.64241,0.676272,0.67441,0.672715,0.673498,0.646323,0.666391,0.704852,0.697936,0.72405,0.714597,0.77467,0.736039,0.803886,0.822486,0.847104,0.829913,0.838815,0.838854,0.873018,0.835109,0.920544,0.929151,0.970436,1.0256,1.02728,1.0499,1.10307,1.11308,1.15114,1.18026,1.19125,1.1888,1.22288,1.2123,1.21825,1.26183,1.26683,1.24269,1.19986,1.24609,1.23995,1.2609,1.26099,1.24371,1.24471,1.24657,1.24289,1.25796,1.26183,1.26264,1.25128,1.25656,1.24627,1.25259,1.24789,1.24824,1.25109,1.24902,1.24848,1.26821,1.26452,1.23894,1.24326,1.2623,1.28141,1.28879,1.20512,1.21532,1.21528,1.16743,1.16455,1.15202,1.16437,1.18174,1.18965,1.16534,1.14849,1.14971,1.1166,1.11752,1.1308,1.09967,1.09172,1.08105,1.10194,1.12532,1.07893,1.10387,1.10642,1.10718,1.0965,1.10346,1.09853,1.05064,1.06324,1.03691,1.03782,1.03544,1.05023,1.08421,1.09409,1.0981,1.10861,1.09146,1.07967,1.08454,1.08743,1.08104,1.07895,1.08738,1.13359,1.10112,1.11639,1.13664,1.13786,1.13876,1.18384,1.1945,1.21238,1.20516,1.22708,1.24391,1.24501,1.22826,1.22973,1.23198,1.23243,1.21949,1.2207,1.21796,1.20584,1.20506,1.20418,1.19645,1.19812,1.19831,1.19535,1.19468,1.18176,1.18137,1.17178,1.16757,1.17348,1.17351,1.17346,1.17169,1.17138,1.17324,1.17259,1.17101,1.17295,1.16698,1.17013,1.17159,1.16857,1.16841,1.17051,1.16689,1.16019,1.16119,1.16546,1.16399,1.16445,1.16721,1.17076,1.16172,1.16211,1.16334,1.16667,1.16747,1.17048,1.17528,1.1752,1.16893,1.16796,1.16502,1.16648,1.16604,1.16624,1.16598,1.16733,1.16517,1.16912,1.17078,1.17326,1.1706,1.17552,1.17848
0.31812,0.00391877,0.321746,0.321137,0.322703,0.336277,0.336258,0.336724,0.341759,0.343326,0.344907,0.345448,0.00334106,0.00371617,0.00342149,0.00387069,0.00316001,0.00390897,0.00358531,0.00346855,0.00347442,0.40843,0.409668,0.409957,0.409376,0.00350163,0.00339442,0.0034649,0.00318326,0.00357047,0.442956,0.471423,0.472048,0.472536,0.00328505,0.00371773,0.00356304,0.00367562,0.00349705,0.489894,0.51107,0.509399,0.51023,0.51881,0.518373,0.517706,0.517648,0.52783,0.535887,0.536854,0.536729,0.544314,0.547619,0.555054,0.557781,0.558077,0.558485,0.559548,0.579189,0.583755,0.583337,0.58971,0.590711,0.592688,0.591238,0.594747,0.597401,0.00338635,0.00321517,0.00377414,0.0032796,0.00351839,0.00315458,0.0032397,0.00345588,0.00359577,0.00336611,0.0034711,0.641462,0.00360693,0.00325973,0.00367984,0.618841,0.627146,0.624551,0.00361856,0.00348268,0.64287,0.639803,0.638623,0.637954,0.637449,0.626866,0.628503,0.61586,0.617602,0.618926,0.618239,0.672921,0.619383,0.655613,0.609017,0.614328,0.647245,0.639725,0.620781,0.605699,0.626465,0.61982,0.651903,0.650124,0.643572,0.626807,0.652355,0.763947,0.764453,0.764017,0.65885,0.690497,0.682595,0.666613,0.676272,0.700168,0.740093,0.734117,0.777439,0.770084,0.839218,0.828313,0.835263,0.833759,0.867215,0.874187,0.878702,0.898209,0.977642,0.965388,1.02727,1.02729,1.04828,1.05135,1.0508,1.16297,1.16368,1.1586,1.15079,1.18645,1.18431,1.18127,1.18207,1.18404,1.18229,1.18829,1.18588,1.2107,1.21145,1.24987,1.25536,1.22707,1.24121,1.30316,1.30496,1.22322,1.24854,1.22372,1.24658,1.22746,1.22972,1.23299,1.2469,1.23848,1.2335,1.23898,1.18158,1.17399,1.19135,1.21193,1.18942,1.16956,1.17053,1.17057,1.17161,1.15079,1.14194,1.15028,1.14823,1.13284,1.12873,1.1198,1.09207,1.0813,1.07525,1.08336,1.06143,1.095,1.07418,1.0714,1.07415,1.08255,1.09191,1.06706,1.0748,1.0821,1.05968,1.05978,1.057,1.03035,1.03169,1.04378,1.05094,1.06852,1.0499,1.07653,1.06113,1.06448,1.07554,1.06513,1.05993,1.09769,1.08059,1.06823,1.08272,1.08743,1.08438,1.09915,1.12191,1.14158,1.18177,1.18554,1.20116,1.22945,1.22578,1.22641,1.22673,1.23024,1.23088,1.23212,1.23197,1.21744,1.21681,1.21858,1.21892,1.21075,1.20291,1.20049,1.20122,1.18857,1.1934,1.1952,1.19129,1.18397,1.17924,1.17862,1.17781,1.17498,1.17446,1.17376,1.16539,1.16748,1.16828,1.16989,1.16707,1.16746,1.16813,1.16686,1.16686,1.17045,1.16779,1.16845,1.16863,1.17032,1.16997,1.17008,1.16992,1.16738,1.16645,1.16728,1.16051,1.16129,1.16174,1.16182,1.15541,1.15698,1.15918,0.00357249,1.16267,1.16078,1.16208,1.16085,1.15995,1.15955,1.16046,1.16332,1.16146,1.15964,1.16393,1.16509,1.16812,1.1679,1.16989
0.00304028,0.0032685,0.294893,0.293731,0.00360643,0.0035303,0.00359567,0.00339588,0.340579,0.34096,0.337594,0.338937,0.344861,0.347491,0.348134,0.348582,0.348941,0.00336738,0.003794,0.00345306,0.0037507,0.395753,0.396724,0.398756,0.399602,0.400046,0.398176,0.00344335,0.00353826,0.00342606,0.00363878,0.00363935,0.451632,0.00362055,0.454189,0.454896,0.00356934,0.00339554,0.48966,0.489901,0.00369942,0.508938,0.512561,0.512391,0.515794,0.517597,0.519847,0.522613,0.523127,0.531971,0.53879,0.538436,0.552474,0.552537,0.55621,0.55882,0.558844,0.562467,0.562884,0.58031,0.57359,0.582783,0.584901,0.587016,0.584134,0.584041,0.584603,0.590728,0.588354,0.00348657,0.59703,0.00355774,0.00360977,0.00350513,0.00377799,0.00341921,0.00359978,0.00361332,0.00325339,0.00348265,0.00340507,0.615855,0.615852,0.618004,0.618052,0.00378804,0.617744,0.00323112,0.00378788,0.632968,0.634266,0.627783,0.622184,0.621341,0.620845,0.618992,0.619363,0.619064,0.647246,0.646,0.647549,0.667642,0.620256,0.662752,0.651181,0.61403,0.603569,0.661328,0.66195,0.642226,0.642471,0.640101,0.625011,0.608816,0.621566,0.621725,0.6423,0.653175,0.66357,0.652574,0.650665,0.687985,0.714426,0.687389,0.730201,0.738932,0.733065,0.771484,0.778792,0.771138,0.79009,0.825672,0.817149,0.868076,0.882121,0.943696,0.895523,0.901775,0.902282,1.00211,1.00319,1.00083,1.03023,1.03058,1.08771,1.13079,1.12297,1.1247,1.12951,1.16543,1.16368,1.17339,1.1809,1.16964,1.18831,1.18197,1.21876,1.20548,1.20416,1.19894,1.20068,1.20182,1.20942,1.2088,1.22918,1.22927,1.19499,1.19516,1.19248,1.29109,1.29279,1.17164,1.17189,1.17222,1.13558,1.1376,1.14728,1.14085,1.13713,1.12568,1.12664,1.1196,1.137,1.13651,1.14296,1.11291,1.1177,1.10732,1.07655,1.07554,1.09135,1.07449,1.05472,1.04866,1.05238,1.07525,1.05773,1.0629,1.07773,1.10569,1.07651,1.07016,1.06165,1.06196,1.05368,1.04967,1.04413,1.05218,1.05708,1.06021,1.05645,1.04572,1.06009,1.04994,1.06282,1.07068,1.03974,1.09278,1.09289,1.09234,1.06511,1.08067,1.07703,1.07777,1.09677,1.14563,1.15462,1.18484,1.18038,1.18146,1.18416,1.23284,1.23642,1.23664,1.23936,1.21407,1.2186,1.21411,1.21544,1.21907,1.21892,1.21938,1.21374,1.21414,1.21342,1.19302,1.19182,1.19243,1.1949,1.18601,1.18231,1.1798,1.17705,1.18065,1.17674,1.17742,1.17125,1.16523,1.16601,1.16448,1.16287,1.16336,1.16318,1.16352,1.16254,1.16732,1.16369,1.16314,1.16378,0.00328847,1.31991,1.32068,1.32386,1.15821,1.15638,1.15877,1.15969,1.16076,1.14804,1.14941,1.14718,1.14932,1.14597,1.14734,1.14868,1.14656,1.15023,1.15407,1.1502,1.14945,1.14965,1.15239,1.15156,1.15378,1.15475,1.15975,1.15863,1.16136,1.16399,1.16356
0.00336686,0.00371596,0.00341532,0.295853,0.00382575,0.287492,0.00342652,0.00376722,0.00354067,0.335135,0.00338846,0.336377,0.00333638,0.348027,0.349827,0.35008,0.349494,0.345751,0.348791,0.00385632,0.0037491,0.00340354,0.397832,0.39867,0.399963,0.399457,0.404925,0.405115,0.00355554,0.00356821,0.00327455,0.00356546,0.00346076,0.452707,0.452424,0.00349006,0.00322878,0.470705,0.480705,0.48073,0.481706,0.488456,0.00342727,0.00355902,0.510271,0.517284,0.517071,0.514989,0.52216,0.529381,0.0035653,0.5354,0.538438,0.541978,0.543755,0.549368,0.561986,0.560079,0.5592,0.571802,0.572175,0.574653,0.574343,0.57574,0.57595,0.577876,0.577961,0.578384,0.578319,0.580965,0.582049,0.583814,0.00359244,0.00380528,0.5845,0.585016,0.587532,0.591164,0.592165,0.592678,0.00366667,0.954436,0.956163,0.00344061,0.00363385,0.601412,0.952759,0.00384296,0.00326993,0.00347968,0.00349183,0.621619,0.622682,0.621483,0.624089,0.62305,0.614631,0.614688,0.615513,0.615043,0.647027,0.612816,0.601741,0.650107,0.613695,0.614281,0.645722,0.645817,0.620694,0.639862,0.624452,0.62526,0.619948,0.606162,0.607954,0.640305,0.649394,0.651046,0.64298,0.63785,0.660972,0.660684,0.705026,0.706904,0.716394,0.72483,0.714165,0.749737,0.732517,0.743312,0.818764,0.808171,0.815697,0.870717,0.857312,0.884529,0.891937,0.903751,0.904207,0.904219,0.922698,0.935774,0.935909,0.929709,1.00995,1.00898,0.996218,1.06722,1.07207,1.10135,1.11307,1.12052,1.1322,1.17572,1.1294,1.16153,1.19969,1.16804,1.16949,1.15899,1.16431,1.16069,1.19175,1.17127,1.18432,1.16003,1.16444,1.17626,1.16849,1.14306,1.13711,1.11514,1.12531,1.12697,1.12816,1.10182,1.10674,1.12507,1.11574,1.1054,1.10953,1.10465,1.09864,1.1023,1.10027,1.08435,1.07899,1.0788,1.0871,1.05834,1.0398,1.0388,1.05926,1.03234,1.0436,1.0776,1.07701,1.10621,1.05824,1.0544,1.04458,1.04629,1.04967,1.04645,1.02193,1.04181,1.05368,1.06076,1.05174,1.05683,1.05424,1.04544,1.06048,1.05676,1.05744,1.04417,1.06733,1.10147,1.08641,1.08145,1.09409,1.08726,1.08779,1.07029,1.09093,1.14693,1.13028,1.12839,1.17403,1.17144,1.17492,0.00366707,0.00332819,1.25477,1.21017,1.21621,1.21637,1.21844,1.21845,1.22232,1.22036,1.22312,1.22249,1.2158,1.20803,1.19769,1.19857,1.19272,1.19121,1.19102,1.18364,1.18076,1.18083,1.18202,1.17774,1.17213,1.17233,1.17123,1.16865,1.16653,1.16361,1.16172,1.15723,1.1424,1.14389,1.35646,1.14864,1.15137,1.15081,1.15025,0.00353183,1.1465,0.0033974,1.14788,1.29829,1.14326,1.3366,1.13955,1.1465,1.13785,1.13709,1.13933,1.14145,1.13822,1.13725,1.14092,1.13759,1.13837,1.1422,1.14253,1.14232,1.14134,1.13972,1.1443,1.14497,1.14979,1.14931,1.15269,1.15328,1.15452
0.246957,0.00332216,0.00358416,0.286895,0.288228,0.289422,0.28989,0.289165,0.288865,0.00358881,0.00342745,0.304347,0.00372664,0.00323529,0.00348117,0.347672,0.348044,0.349673,0.350157,0.354181,0.354099,0.353426,0.00341271,0.00328983,0.00368476,0.00346839,0.404512,0.403596,0.400211,0.00339934,0.00401793,0.00345134,0.00394045,0.00323151,0.00363212,0.00348489,0.00362434,0.00324241,0.477847,0.479233,0.479967,0.00355854,0.00376049,0.00342878,0.00349263,0.00336587,0.512134,0.512826,0.511844,0.523183,0.526106,0.526295,0.538601,0.536193,0.539684,0.540477,0.552117,0.555045,0.558437,0.559914,0.560176,0.567185,0.569903,0.563703,0.572538,0.572836,0.576364,0.577519,0.579279,0.580805,0.581029,0.00349262,0.57918,0.57765,0.579466,0.581594,0.582801,0.591357,0.59296,0.593152,0.590927,0.591429,0.593573,0.593975,0.594213,0.595174,0.595608,0.594967,0.594499,0.595594,0.595541,0.00352614,0.621393,0.620887,0.618646,0.611573,0.612509,0.613469,0.612426,0.611932,0.614095,0.614543,0.614473,0.610981,0.676597,0.678161,0.679749,0.64712,0.65018,0.652689,0.630816,0.617763,0.619707,0.633354,0.622613,0.63214,0.626385,0.642248,0.649617,0.651335,0.634518,0.634676,0.688175,0.704013,0.704063,0.711481,0.727772,0.729267,0.730818,0.723203,0.736114,0.734941,0.822338,0.803722,0.822765,0.81166,0.873714,0.866777,0.880273,0.87157,0.877468,0.908686,0.916113,0.891802,0.905519,0.959827,0.981775,0.970257,0.985227,1.01302,1.01354,1.04027,1.06363,1.08803,1.09895,1.09874,1.09721,1.0992,1.09902,1.11128,1.11005,1.11296,1.11438,1.10819,1.10472,1.11202,1.07633,1.1021,1.08312,1.08585,1.15367,1.10923,1.11682,1.12246,1.10778,1.10605,1.11253,1.09606,1.07804,1.06453,1.0653,1.05328,1.06804,1.06731,1.08325,1.06018,1.04406,1.03448,1.03348,1.0615,1.02897,1.01373,1.0496,1.04298,1.03204,1.03075,1.04998,1.05224,1.01882,1.02069,1.0177,1.01883,1.01732,1.02608,1.05673,1.04813,1.04918,1.04623,1.04802,1.04332,1.05624,1.05051,1.03725,1.04036,1.07125,1.05858,1.06624,1.07165,1.08831,1.08976,1.07749,1.09107,1.05677,1.05769,1.09541,1.15676,1.09617,0.00331874,1.14898,1.22255,1.24002,1.24185,1.21323,1.21568,1.21691,1.21938,1.22111,1.21267,1.21409,1.21779,1.22375,1.20878,1.19828,1.20021,1.20108,1.19342,1.19158,1.19307,1.19387,1.19076,1.19509,1.18568,1.18163,1.18175,1.17804,1.17452,1.17341,1.17018,1.16434,1.15527,1.15658,1.15395,1.15351,1.15331,1.14986,0.00317437,1.1821,1.13078,1.13478,1.12927,1.13028,1.13141,1.13333,1.13559,1.13351,1.13374,1.13083,1.12951,1.13061,1.13382,1.13404,1.13753,1.13853,1.13911,1.12529,1.12891,1.13711,1.13332,1.13417,1.13954,1.13757,1.13667,1.13695,1.13623,1.13993,1.14226,1.14341,1.14746,1.14777,1.14403
0.250313,0.250927,0.252326,0.2532,0.288019,0.288836,0.289386,0.289851,0.288566,0.287688,0.28738,0.287344,0.00316091,0.317711,0.00339363,0.320625,0.00351963,0.00368742,0.00337268,0.354876,0.352901,0.352656,0.35287,0.351806,0.00358508,0.00357592,0.4001,0.392942,0.399981,0.395244,0.395067,0.00379884,0.00329816,0.441657,0.00349525,0.00354262,0.00329117,0.0036649,0.00335223,0.479101,0.482519,0.481215,0.490027,0.491233,0.490745,0.493315,0.502487,0.506754,0.507272,0.511839,0.511416,0.52434,0.00372497,0.535222,0.00346112,0.539126,0.0032881,0.546169,0.00364461,0.549632,0.552045,0.553201,0.556036,0.558207,0.557357,0.556543,0.562055,0.561987,0.562112,0.558345,0.00367943,0.563747,0.00342707,0.576524,0.00338743,0.580289,0.580912,0.572744,0.00346428,0.587491,0.588885,0.586973,0.589998,0.588584,0.591266,0.591405,0.596144,0.591894,0.590131,0.587381,0.58809,0.00319241,0.00350107,0.00354113,0.608352,0.610417,0.612411,0.612278,0.597828,0.602382,0.601328,0.614864,0.615157,0.629999,0.631714,0.618198,0.617427,0.620514,0.622249,0.671092,0.622017,0.624621,0.628538,0.604964,0.618061,0.600709,0.640906,0.642021,0.654928,0.635456,0.64377,0.620148,0.620012,0.642262,0.660364,0.652726,0.704857,0.706053,0.746161,0.733082,0.708247,0.715215,0.712636,0.718729,0.739962,0.744304,0.787709,0.76816,0.826815,0.822948,0.814236,0.81473,0.877109,0.866317,0.919226,0.893903,0.894349,0.92333,0.949055,0.94855,0.985614,1.01235,1.00466,1.04757,1.06188,1.01943,1.02509,1.04985,1.03276,1.03214,1.06026,1.08458,1.08788,1.0573,1.04367,1.05432,1.05337,1.03945,1.05192,1.05127,1.02992,1.07715,1.06817,1.06496,1.02863,1.0731,1.0711,1.07067,1.05007,1.03558,1.02172,1.05627,1.01761,1.01987,1.03223,1.01063,1.02537,1.0274,1.01505,1.03753,1.0405,1.02987,1.03042,1.07744,1.07691,1.04624,1.05673,1.03699,1.04267,1.0256,1.02856,1.00763,1.03706,1.04106,1.04111,1.0331,1.03745,1.0295,1.04948,1.0409,1.0576,1.03975,1.03889,1.04041,1.04762,1.05357,1.0558,1.04512,1.07517,1.05153,1.07179,1.0542,1.06744,1.06837,1.10888,1.13464,1.10093,1.13074,0.00334105,0.00368774,0.00333762,0.00326025,0.00340796,1.21842,1.22437,1.22464,1.22324,1.21643,1.20224,1.20352,1.20456,1.20136,1.20214,1.19835,1.19942,1.20071,1.19862,1.19944,1.20162,1.19903,1.19848,1.19751,1.19186,1.1872,1.18182,1.16665,1.14967,1.15345,1.17051,1.15758,1.15636,1.15347,1.14566,1.14659,1.13913,1.13558,1.12605,1.1289,1.13166,1.12686,1.12814,1.1247,1.12308,1.12566,1.12411,1.12728,1.12854,1.12794,1.12545,1.12593,1.12282,1.12716,1.12132,1.11583,1.12004,1.11894,1.12027,1.12224,1.12639,1.12902,1.1274,1.13243,1.13136,1.13451,1.13343,1.13455,1.13428,1.13303,1.13391,1.13859
0.249043,0.249455,0.249233,0.254352,0.256238,0.256639,0.286032,0.286643,0.288537,0.288467,0.288792,0.289007,0.289958,0.297183,0.0035133,0.00340994,0.00367664,0.00358218,0.00361464,0.00336046,0.0033764,0.352398,0.00346794,0.00362773,0.00360332,0.00346971,0.390477,0.394157,0.394089,0.395578,0.395216,0.0033746,0.00364442,0.00328152,0.00358091,0.0034076,0.00339233,0.00346074,0.00356026,0.00333061,0.00331649,0.00353739,0.00409559,0.00358334,0.492822,0.0033858,0.496231,0.504083,0.50222,0.503106,0.50793,0.00341716,0.00358149,0.00356417,0.00363404,0.0034634,0.526556,0.00348215,0.00360773,0.541958,0.53942,0.551689,0.552375,0.548558,0.548637,0.558641,0.543765,0.544858,0.545172,0.542432,0.542986,0.547788,0.548201,0.541789,0.00361915,0.00351867,0.563545,0.564579,1.03577,0.00342292,0.582715,0.582843,0.584699,0.58613,0.58852,0.592798,0.59154,0.588541,0.588443,0.590058,0.583842,0.583911,0.582874,0.58117,0.586397,0.585278,0.584691,0.606576,0.600123,0.599198,0.59812,0.597945,0.598431,0.669568,0.67384,0.621682,0.64846,0.643498,0.645349,0.645431,0.62841,0.650994,0.653248,0.618856,0.606514,0.607311,0.667252,0.663122,0.683943,0.666989,0.668416,0.662746,0.621652,0.655183,0.657109,0.655474,0.667677,0.702067,0.701135,0.659757,0.697261,0.728924,0.685205,0.716627,0.724717,0.736534,0.727437,0.726641,0.785188,0.776356,0.791428,0.823272,0.792422,0.865916,0.876741,0.877353,0.883685,0.895755,0.885901,0.927987,0.950129,0.964287,0.963673,0.984704,1.01252,1.00638,1.0136,0.991647,0.99564,0.998065,0.997989,1.00873,1.01546,0.997501,0.998752,0.998397,0.982271,0.984245,0.980995,1.00309,0.988199,0.981809,0.970451,1.01369,0.994716,0.992242,0.992855,0.998202,0.998319,1.00921,1.00474,0.993813,0.994256,0.999153,0.995977,0.997307,0.994365,0.994688,1.02226,0.999399,1.02201,1.03298,1.05339,1.02233,1.036,1.02944,1.02524,1.02894,1.01541,1.00807,1.01892,1.03978,1.0153,1.01912,1.01482,1.01668,1.02084,1.04613,1.04291,0.997496,1.01736,1.0483,1.05164,1.06717,1.08726,1.08106,1.05339,1.05083,1.04342,1.07155,1.05023,1.05414,1.076,1.06259,1.06397,1.1191,0.00350127,0.0033323,0.00365115,0.00334525,0.00345976,0.00363967,0.00348099,0.00330649,1.2138,1.21359,1.21313,1.20781,1.20867,1.20535,1.20673,1.20201,1.20332,1.19876,1.19726,1.196,1.20119,1.20115,1.20462,1.20953,1.20353,1.20496,0.0038722,1.19069,1.18861,1.16,1.14595,1.17007,1.16974,1.16494,1.16444,1.15768,1.15111,1.14661,1.12985,1.13986,1.13665,1.11763,1.11872,1.1211,1.11069,1.11456,1.11301,1.11484,1.11394,1.11437,1.11468,1.11543,1.11333,1.11233,1.11559,1.11798,1.11891,1.1181,1.11843,1.11516,1.11567,1.11797,1.11995,1.12124,1.12216,1.12318,1.12575,1.12074,1.12271,1.12509,1.12445,1.12727,1.12714,1.13462
0.247577,0.247853,0.25257,0.253249,0.258044,0.258595,0.259477,0.259909,0.261693,0.288023,0.289561,0.00352696,0.00342908,0.288489,0.288909,0.00375072,0.00381354,0.00357816,0.00332243,0.0035611,0.00330135,0.00371285,0.0030863,0.00357709,0.00339051,0.00385079,0.387971,0.388648,0.391119,0.00339591,0.401296,0.403165,0.00319871,0.00337275,0.00328844,0.00330213,0.00350024,0.00358337,0.00327752,0.00353199,0.455726,0.00362252,0.00345046,0.00362049,0.00356543,0.491297,0.494993,0.498471,0.496755,0.496616,0.500544,0.505001,0.505298,0.511027,0.511407,0.00347228,0.00369507,0.519401,0.525829,0.529805,0.539321,0.545221,0.546809,0.549171,0.54857,0.546119,0.542144,0.538972,0.54093,0.541506,0.543054,0.543195,0.542284,0.543721,0.544672,0.932035,0.931988,0.558026,0.00347901,0.00338942,0.00319395,0.00367219,0.00346196,0.581308,0.582814,0.583473,0.574197,0.576805,0.577609,0.581951,0.583572,0.583918,0.583674,0.582687,0.582338,0.582544,0.583974,0.584713,0.586047,0.597329,0.59906,0.598371,0.60248,0.603448,0.606594,0.613401,0.613931,0.613942,0.60002,0.599156,0.599598,0.588393,0.611371,0.618583,0.639443,0.615732,0.610777,0.61049,0.605033,0.656405,0.660216,0.68156,0.659051,0.6772,0.651107,0.652832,0.660592,0.680445,0.680151,0.721952,0.677193,0.688041,0.657792,0.696721,0.711911,0.718982,0.711552,0.725576,0.707206,0.736425,0.731679,0.723324,0.765255,0.770229,0.829496,0.853458,0.83575,0.857255,0.87404,0.886987,0.886163,0.904658,0.902897,0.905719,0.909242,0.919817,0.95122,0.989651,1.01023,0.999543,0.936162,0.939384,0.934531,0.935193,0.953427,0.940852,0.933152,0.931305,1.00629,1.00585,1.00851,1.01251,0.959674,0.96783,0.977894,0.977218,0.982002,0.993416,1.01399,1.0045,0.997283,0.991405,0.971086,0.972176,1.01882,0.993488,0.992316,1.00548,1.00476,1.01288,1.0132,1.03217,1.03273,1.03021,0.999073,1.016,0.988517,0.994944,0.998881,1.00496,1.00819,1.0262,1.01805,1.00102,0.994708,0.98693,1.00617,1.01048,1.01229,1.00349,1.00751,1.00982,1.03916,1.03702,1.07889,1.08219,1.04068,1.06602,1.06036,1.06072,1.06065,1.03302,1.09326,1.06076,1.0629,1.06407,0.00360344,0.00372236,1.13311,0.00349784,0.00347703,1.32679,0.00344796,0.00327189,0.0034613,1.20518,1.20628,1.20356,1.20353,1.20348,1.20474,1.20253,1.20153,1.19863,1.19706,1.19924,1.20049,1.19931,1.20196,1.20304,1.19797,1.20459,1.20647,1.19254,1.19006,1.18171,1.18119,0.00353052,1.17584,0.00364279,0.00363212,0.00372667,1.1499,1.14308,1.1423,1.13797,1.124,1.12759,1.12955,1.11644,1.11622,1.11742,1.11839,1.11624,1.10599,1.11013,1.11136,1.10578,1.10695,1.11191,1.11224,1.11322,1.11402,1.10527,1.10595,1.107,1.10818,1.11212,1.11452,1.11081,1.11227,1.11265,1.11491,1.11529,1.11597,1.11824,1.12228,1.11926,1.12204,1.12228
0.00340569,0.00351788,0.00337277,0.00360207,0.256491,0.258055,0.261209,0.262627,0.26225,0.268888,0.269896,0.269734,0.287548,0.289819,0.287542,0.29965,0.300123,0.300203,0.299906,0.313859,0.0036574,0.00336008,0.00367556,0.00322383,0.00367597,0.00350369,0.00336796,0.388214,0.388783,0.00350192,0.00347995,0.402977,0.403163,0.404112,0.00335414,0.00346803,0.434844,0.0035492,0.437522,0.445498,0.455775,0.463365,0.466127,0.467784,0.00334002,0.479614,0.478886,0.490733,0.494339,0.488439,0.497398,0.497962,0.504595,0.490684,0.492016,0.492457,0.00332383,0.00333403,0.00358801,0.00355193,0.00351492,0.537074,0.538445,0.539289,0.538745,0.538952,0.531747,0.534506,0.534931,0.525647,0.0033347,0.00335335,0.539224,0.929741,0.929801,0.929601,0.539084,0.00324692,0.00355364,0.552415,0.553608,0.554305,0.56281,0.00353997,0.00335159,0.00328913,0.575182,0.575728,0.576419,0.576019,0.580114,0.58049,0.580026,0.579637,0.580337,0.580357,0.580518,0.583408,0.584394,0.00365785,0.591456,0.00333153,0.603145,0.604605,0.605711,0.597122,0.597186,0.599962,0.599889,0.599238,0.59966,0.653034,0.590767,0.645122,0.595334,0.614619,0.614358,0.616381,0.590546,0.622173,0.617682,0.65704,0.656592,0.661091,0.662493,0.642978,0.669475,0.680202,0.677375,0.676904,0.688172,0.686784,0.67683,0.676307,0.659786,0.710303,0.72175,0.696371,0.718046,0.693247,0.694403,0.699745,0.697883,0.767928,0.764721,0.734961,0.783629,0.785559,0.833643,0.880748,0.903445,0.905616,0.862146,0.863704,0.864311,0.918873,0.936026,0.929338,0.914366,0.938707,0.940166,0.949443,0.958161,0.952641,0.954706,0.974122,0.975419,0.939468,0.948753,0.931884,0.935447,0.927564,0.932886,0.959253,0.961596,0.965547,0.973573,0.971935,0.973546,0.972905,0.984327,0.979544,0.967717,0.970442,0.937954,0.994914,0.996679,1.03207,1.00545,1.00118,1.00157,1.00525,1.02877,0.995749,0.983922,1.00134,1.00524,1.0292,1.02624,0.981644,0.981306,1.00645,1.01492,0.991902,0.992916,1.0015,1.00871,1.01464,1.00639,1.01575,1.02711,1.03248,1.03176,1.03161,1.03006,1.01129,1.01914,1.03091,1.03231,1.02259,0.993065,0.994942,1.08464,1.08561,1.09437,0.00360489,0.00357459,0.00369085,0.00351252,1.13431,0.00367437,0.00353308,0.00335305,0.00341013,0.00361907,0.00333992,1.19504,1.19756,1.20033,1.20037,1.20188,1.20069,1.20171,1.19617,1.19848,1.20045,1.19966,1.19951,1.19889,1.20051,1.20498,1.20339,1.20163,1.19935,1.20188,1.18834,1.18479,1.17587,1.16987,1.16987,1.1573,1.1528,1.15348,1.13039,1.1343,1.13612,1.12249,1.12273,1.12385,1.11465,1.11677,1.11642,1.11644,1.10497,1.10523,1.10311,1.10308,1.10579,1.10514,1.106,1.10566,1.10712,1.10759,1.1028,1.10434,1.10072,1.10145,1.1002,1.10478,1.10455,1.1059,1.10643,1.10447,1.10662,1.11159,1.10835,1.11134,1.11287,1.11513,1.11646
0.00354613,0.00338301,0.00352518,0.00355875,0.224943,0.226622,0.00346767,0.259882,0.268477,0.268942,0.269806,0.270504,0.288033,0.28788,0.291427,0.299261,0.299605,0.300493,0.299781,0.00347048,0.00361454,0.00362287,0.00363008,0.00352087,0.00338336,0.00362343,0.00341991,0.00338136,0.00360855,0.00338075,0.00345856,0.00335764,0.401601,0.403786,0.00330255,0.00341632,0.00370434,0.00324775,0.00354839,0.00384335,0.445373,0.446714,0.447184,0.00354317,0.00347945,0.00366649,0.479639,0.474504,0.00321638,0.00346295,0.488995,0.494721,0.496117,0.49503,0.486635,0.48661,0.489041,0.00368857,0.00350619,0.510626,0.00336817,0.00351103,0.00363333,0.00349945,0.00354735,0.517825,0.518917,0.522498,0.507258,0.508202,0.510758,0.524129,0.521195,0.528159,0.527856,0.527538,0.00345811,0.00326212,0.541265,0.550025,0.540748,0.540346,0.541404,0.541271,0.00338967,0.553395,0.0036769,0.563026,0.00336973,0.558141,0.560598,0.56003,0.00348455,1.08487,0.57923,0.57951,0.580146,0.58265,0.580283,0.582562,0.584553,0.590162,0.592137,0.594981,0.596176,0.597704,0.59864,0.600007,0.600245,0.601628,0.615057,0.615761,0.613131,0.59952,0.620326,0.653056,0.618249,0.624403,0.590627,0.607155,0.625604,0.627268,0.635501,0.6083,0.649193,0.656736,0.645641,0.629699,0.663871,0.639483,0.642508,0.659793,0.682881,0.675507,0.664288,0.680149,0.67983,0.704712,0.69724,0.722203,0.694281,0.697187,0.687196,0.683971,0.685928,0.694757,0.764719,0.775173,0.774136,0.790205,0.788057,0.815574,0.807611,0.810731,0.846512,0.849658,0.852124,0.890116,0.899005,0.926412,0.927669,0.943348,0.943903,0.950076,0.956931,0.966555,0.949832,0.9853,0.910996,0.916641,0.912281,0.923462,0.946004,0.9584,0.932361,0.936701,0.927017,0.948913,0.939893,0.937641,0.919809,0.922224,0.952759,0.877963,0.939827,0.892456,0.928457,0.929571,0.930379,0.989195,1.00673,0.962295,0.966431,0.971834,0.977632,0.980708,0.96188,0.984909,0.977977,0.988232,0.989383,1.00819,0.99778,0.976672,1.00655,1.00752,1.02613,1.0227,1.01815,1.00784,1.02618,1.00989,1.01492,1.02267,0.976858,1.01609,1.0094,1.00824,1.01831,0.991213,0.990972,1.0473,0.00366548,0.00341472,1.09146,0.00338588,0.00361803,0.00350792,0.00341832,0.00356179,0.00325563,0.00356616,0.00336847,0.00394376,0.00359265,0.00342149,0.00340198,0.0032846,0.00344917,0.00369804,0.00343166,0.00336822,1.19433,1.19345,1.19541,1.1907,1.19341,1.19374,1.1922,1.19957,1.20094,1.20865,1.19777,1.20333,0.00350556,1.18702,1.17312,1.17342,1.17117,1.16872,1.17036,1.16158,1.16229,1.14385,1.14116,1.12932,1.11966,1.1204,1.11692,1.11587,1.11768,1.1173,1.11431,1.10954,1.10829,1.10478,1.10532,1.10564,1.10035,1.0924,1.09629,1.09777,1.09772,1.10007,1.10092,1.10078,1.09197,1.09459,1.09296,1.0954,1.09636,1.09851,1.10187,1.09757,1.10177,1.10298,1.10438,1.11052,1.11155,1.1105
0.183331,0.00335017,0.00332232,0.220131,0.220739,0.230842,0.00362907,0.00353431,0.00357676,0.00338715,0.00352382,0.00356881,0.00365751,0.00357411,0.00334209,0.00330598,0.300401,0.301853,0.301679,0.0032337,0.00340187,0.00346751,0.00362032,0.0031718,0.00368381,0.0034622,0.00351124,0.00341819,0.363351,0.363475,0.00354791,0.00308615,0.00372321,0.00323553,0.00358663,0.00362625,0.00345213,0.00350975,0.00363841,0.00320322,0.00373239,0.00328225,0.452059,0.452552,0.453765,0.460338,0.461497,0.463081,0.464475,0.465495,0.00356499,0.0034777,0.00351597,0.00330069,0.486369,0.488606,0.485056,0.483889,0.485121,0.00326964,0.00345872,0.00323699,0.00324407,0.00347208,0.00345755,0.00339385,0.501822,0.508083,0.508572,0.510345,0.512574,0.508747,0.513487,0.516626,0.518391,0.519972,0.519081,0.990828,0.0036281,0.542061,0.540853,0.541846,0.541862,0.541371,0.540003,0.541355,0.549668,0.552049,0.553378,0.558207,0.560389,0.00333357,0.56261,0.566583,0.569179,0.569887,0.577146,0.582385,0.574126,0.582669,0.583386,0.583455,0.583589,0.587046,0.59864,0.599924,0.600651,0.60294,0.604107,0.604765,0.605972,0.60632,0.609188,0.603638,0.604793,0.637845,0.638286,0.571548,0.655851,0.649741,0.638807,0.663831,0.608143,0.608705,0.63053,0.635247,0.667456,0.642574,0.64984,0.658282,0.658372,0.660404,0.674202,0.689753,0.675218,0.676522,0.678218,0.656334,0.657389,0.700653,0.700999,0.694126,0.685863,0.685764,0.686426,0.686894,0.709716,0.76712,0.76902,0.782335,0.775345,0.790241,0.793223,0.798909,0.812242,0.809499,0.832353,0.853287,0.85609,0.867657,0.847858,0.934975,0.920892,0.909135,0.946875,0.922349,0.923855,0.923429,0.9024,0.914961,0.862704,0.874855,0.860786,0.86234,0.863933,0.867144,0.852506,0.856808,0.890033,0.887771,0.863306,0.876946,0.870403,0.871928,0.874879,0.8743,0.875508,0.880122,0.899784,0.897882,0.931942,0.956112,0.973113,0.967252,0.950022,0.946857,0.956116,0.979396,0.958735,0.959142,0.992839,1.02551,1.00485,1.01655,1.01644,1.0066,1.0154,1.00844,1.01926,1.01937,0.99895,0.986879,0.988524,0.994094,1.0013,1.00244,0.992437,0.993946,1.03856,1.06187,0.00377054,0.00337038,1.0785,1.08472,1.08837,1.09113,1.09544,1.0968,0.00347438,0.00350916,0.00362328,0.00325905,1.62926,1.52806,0.00341246,0.00334737,0.00374834,0.00353709,0.00366168,1.17862,1.18227,1.18454,1.18792,1.18997,1.18684,1.18876,1.18654,1.18664,1.1886,1.18876,1.18847,1.18886,1.19152,1.18479,1.1833,1.17784,1.17211,1.17618,1.18017,1.17609,1.17345,1.16257,1.16274,1.15765,1.16789,0.00336767,0.0040364,1.12929,1.124,1.11977,1.11163,1.1139,1.09823,1.09579,1.09867,1.09851,1.09065,1.09443,1.09696,1.09537,1.09741,1.09697,1.0971,1.09355,1.08668,1.08437,1.08958,1.09411,1.09614,1.08851,1.0892,1.09327,1.09465,1.09597,1.09683,1.09988,1.10177,0.00337502,1.10675,1.10937
0.189591,0.190124,0.00333578,0.219289,0.217766,0.216799,0.00359332,0.00358539,0.23396,0.00330404,0.00331217,0.247377,0.246861,0.00337251,0.00348553,0.0032718,0.00347819,0.00356093,0.0034099,0.0034228,0.00330803,0.00358181,0.00347896,0.00361755,0.00360995,0.00357652,0.00354335,0.00360654,0.00360761,0.00327378,0.00350685,0.00338129,0.00345962,0.00370337,0.00350065,0.00359477,0.00346942,0.00351302,0.00354766,0.00368206,0.00351748,0.00357042,0.00354006,0.455109,0.455779,0.450808,0.462109,0.465178,0.465834,0.452466,0.456126,0.467416,0.468667,0.470212,0.471007,0.470386,0.00364366,0.00362188,0.486483,0.485263,0.00360565,0.479951,0.480004,0.480818,0.480578,0.00369332,0.486563,0.48532,0.486803,0.507272,0.509332,0.509257,0.50965,0.514071,0.513282,0.506661,0.00358079,0.0033802,0.00318313,0.00345129,0.540066,0.541184,0.540801,0.541911,0.541348,0.540653,0.540467,0.537675,0.536661,0.538045,0.00323817,0.00320017,0.00371735,0.00338476,0.00361415,0.00359894,0.00335993,0.574959,0.576414,0.577163,0.582284,0.583852,0.582627,0.586397,0.587294,0.00330903,0.0035092,0.611701,0.00322057,0.616509,0.618279,0.619734,0.669939,0.671604,0.619296,0.675163,0.632047,0.631502,0.655351,0.61142,0.61118,0.655271,0.628504,0.635591,0.641914,0.636926,0.636453,0.638789,0.666122,0.656506,0.636413,0.680843,0.670248,0.687659,0.657038,0.681462,0.680112,0.635216,0.651149,0.634766,0.633365,0.697202,0.702375,0.695407,0.686576,0.706412,0.707247,0.738701,0.737808,0.770584,0.750131,0.79678,0.777778,0.812496,0.804643,0.812197,0.818313,0.831888,0.824539,0.823327,0.824945,0.844202,0.853258,0.856325,0.875339,0.890785,0.84576,0.843282,0.845641,0.845665,0.840382,0.80599,0.831705,0.850052,0.823513,0.822582,0.827417,0.82648,0.829118,0.870429,0.863042,0.836654,0.856715,0.84001,0.841878,0.86983,0.867009,0.879269,0.879387,0.930297,0.899484,0.927386,0.923055,0.944857,0.963311,0.964277,0.967117,0.949967,0.959338,0.962466,0.984845,0.991483,1.00444,1.00804,1.00666,0.992118,0.98742,0.981774,0.978357,0.958889,0.977632,0.968886,0.971512,0.97524,0.994568,1.01168,1.01209,1.02598,1.06298,0.00337667,0.00347381,1.07578,0.003427,0.00358394,0.00334547,1.07732,0.00335348,0.00378598,0.00347773,0.00344945,0.00336671,0.00353763,0.00343347,0.00322585,0.00354394,0.003301,0.00343591,0.00360469,0.00337884,1.18154,0.00322164,0.00379785,0.00329931,1.17857,0.00351639,1.1863,0.00342116,1.18149,1.18056,1.17777,1.1806,1.18076,1.17364,1.17782,1.17924,1.17831,1.17957,1.17852,1.1747,1.1763,1.1644,1.16544,1.1675,1.15567,1.15542,1.15739,1.13761,1.13897,0.00337659,1.10849,1.10715,1.10269,1.10436,1.08983,1.08979,1.0885,1.09099,1.08964,1.09053,1.08953,1.08717,1.08991,1.0914,1.09212,1.09249,1.09503,1.08127,1.08437,1.08534,1.08796,1.08634,1.08702,1.08742,1.0866,1.09118,1.09184,1.09536,1.09906,1.1024,1.10116
0.190024,0.190313,0.00372304,0.197772,0.218264,0.217926,0.219413,0.00353514,0.00379867,0.0032826,0.248115,0.249512,0.250512,0.250291,0.00350661,0.00362272,0.00335925,0.00350972,0.00383126,0.00341768,0.00366072,0.00322767,0.00325297,0.31486,0.316999,0.317654,0.00362733,0.00344008,0.00363813,0.00349464,0.362099,0.362189,0.00338221,0.00341939,0.37979,0.00342647,0.00351701,0.00335798,0.00345608,0.00368686,0.00380059,0.00343403,0.00366621,0.00329688,0.449859,0.00370957,0.00362571,0.00325651,0.453316,0.454375,0.454191,0.00355101,0.00342472,0.00337422,0.0036358,0.0034652,0.00352978,0.467932,0.469026,0.470532,0.47194,0.47254,0.473369,0.481118,0.482443,0.485874,0.486825,0.487596,0.491115,0.493111,0.493972,0.494508,0.491721,0.493395,0.491967,0.490215,0.4911,0.00335393,0.00358081,0.00344169,0.00357479,0.00335324,0.0034748,0.00334307,0.536614,0.539774,0.539648,0.541146,0.538718,0.539493,0.541275,0.542212,0.542285,0.541244,0.544629,0.00367108,0.0036061,0.00337188,0.00361248,0.00353422,0.580052,0.00337081,0.581439,0.58404,0.00350453,0.00309284,0.593328,0.00338393,0.00374315,0.614232,0.618528,0.620529,0.62203,0.624451,0.623197,0.624479,0.62424,0.619166,0.619447,0.632043,0.635391,0.637676,0.636869,0.662649,0.638797,0.674529,0.650848,0.638295,0.659551,0.666412,0.652952,0.641696,0.641912,0.643864,0.667805,0.69821,0.6851,0.690591,0.661727,0.660956,0.676487,0.670699,0.669427,0.664255,0.674476,0.674957,0.704249,0.705318,0.739072,0.719053,0.718567,0.739675,0.767818,0.764926,0.812738,0.812773,0.788887,0.811553,0.81354,0.832207,0.815303,0.838452,0.825381,0.868432,0.841134,0.828834,0.842347,0.835982,0.808572,0.812578,0.829232,0.806866,0.808542,0.811058,0.811379,0.812546,0.83905,0.839311,0.865868,0.838724,0.860218,0.863353,0.861901,0.845928,0.846631,0.878982,0.857336,0.858462,0.890719,0.884447,0.940474,0.906296,0.926501,0.926338,0.925356,0.926741,0.964183,0.94613,0.975181,0.946554,0.949531,0.948737,0.95746,0.954153,0.954602,0.964325,0.965113,0.940145,0.979619,0.981746,0.982044,0.994875,0.972086,1.03995,1.04123,1.04173,1.03991,1.06027,1.07039,0.00366092,0.00355824,0.00351686,1.05827,1.2639,1.26539,0.00366044,1.07644,1.07515,1.076,0.00338529,0.00363307,1.08137,0.00356524,0.00365846,1.0961,1.09759,0.00354403,0.00345999,0.00351393,0.00361713,0.00367606,0.00360546,0.00359459,0.00356239,0.00368056,0.00347234,1.1687,1.16877,1.17389,1.17677,1.17793,1.17832,1.17495,1.1763,1.17597,1.17521,1.17736,1.17797,1.16878,1.17055,1.16713,1.15252,1.15366,1.14368,1.14322,1.14467,1.14597,0.00358633,0.00347031,1.10799,1.10868,1.10068,1.10103,1.08131,1.08628,1.08564,1.086,1.08583,1.08444,1.08134,1.07564,1.0755,1.0791,1.0839,1.0844,1.08266,1.08258,1.08359,1.0843,1.07497,1.08093,1.07848,1.08443,1.0839,1.08815,1.09115,1.09479,1.09471,1.09978,1.10192
0.184791,0.183798,0.202843,0.203196,0.204417,0.205866,0.20714,0.00360381,0.003368,0.00379067,0.245658,0.247763,0.248433,0.249206,0.00350873,0.00364207,0.00328927,0.00380166,0.00333919,0.00329434,0.00346436,0.0037641,0.00333694,0.00365275,0.317197,0.317449,0.00336165,0.00352437,0.00345602,0.362194,0.36367,0.00370651,0.00329038,0.37382,0.00352675,0.00362989,0.00346961,0.00321537,0.00314618,0.00352646,0.00348697,0.00361255,0.00345911,0.003547,0.00352723,0.00362284,0.00315602,0.00351225,0.00349986,0.00347182,0.00343059,0.00352197,0.428497,0.00392081,0.00345632,0.00361845,0.467923,0.469013,0.470353,0.47149,0.472258,0.473716,0.474811,0.481229,0.480863,0.480215,0.483142,0.480864,0.492054,0.490593,0.492632,0.494932,0.494474,0.494425,0.495203,0.495898,0.494567,0.496906,0.495677,0.496602,0.496969,0.498686,0.00330214,0.00380817,0.00346772,0.532187,0.532355,0.532452,0.525789,0.535178,0.535298,0.528463,0.528143,0.530969,0.00343519,0.00339313,0.00352577,0.0034494,0.00337438,0.56849,0.570374,0.572112,0.574165,0.574253,0.00332139,0.0035763,0.598166,0.599813,0.600243,0.602084,0.608243,0.612105,0.614093,0.615588,0.625981,0.626151,0.624682,0.622608,0.622091,0.624421,0.63724,0.642707,0.643601,0.646348,0.675575,0.675888,0.680333,0.684046,0.683612,0.6398,0.639892,0.642167,0.646658,0.639077,0.681102,0.642089,0.650252,0.657033,0.666895,0.652986,0.655627,0.667763,0.690408,0.670349,0.678002,0.687176,0.705933,0.687511,0.681484,0.682943,0.683531,0.752262,0.747041,0.773091,0.778575,0.771065,0.756971,0.758546,0.801183,0.802462,0.801576,0.784352,0.815161,0.816599,0.8179,0.802287,0.802438,0.815344,0.832726,0.832509,0.833176,0.836176,0.838943,0.824532,0.824606,0.845611,0.847178,0.854002,0.863282,0.870045,0.840216,0.856488,0.849433,0.849866,0.936971,0.938465,0.868233,0.866623,0.861369,0.883371,0.880818,0.908235,0.92074,0.926114,0.931916,0.927422,0.925451,0.961775,0.95825,0.944016,0.936985,0.941318,0.944326,0.942911,0.940208,0.960142,0.957435,0.983087,0.964188,0.976727,0.95918,0.976518,1.01599,1.01858,1.01844,1.04357,1.03378,1.03448,1.03303,1.038,1.03844,0.00354559,0.00335183,0.00339949,0.00314491,1.0563,0.00341138,1.06025,1.06606,1.06828,1.06735,1.07175,1.07456,1.08123,0.00329969,0.00385386,0.00326242,0.00358271,0.00333435,1.20686,0.00333445,0.0036367,0.0031753,0.00358878,1.15015,1.15259,1.15525,0.00346517,0.00364517,1.17138,1.17464,1.17303,1.17614,1.17729,1.17379,1.17467,1.17376,1.16782,1.16668,1.16765,1.15484,1.15569,1.15798,1.13937,1.14135,1.14305,1.13881,0.00358498,1.1102,1.11178,1.10227,1.0994,0.00338515,1.07868,1.07681,1.08077,1.0806,1.08148,1.08073,1.07742,1.07514,1.07345,1.07233,1.07442,1.07752,1.07739,1.07426,1.07469,1.07356,1.07364,1.07504,1.07596,1.07778,1.07863,1.07843,0.00344897,0.00325229,1.08928,1.08917,1.09181
0.183836,0.18283,0.0034776,0.00331769,0.206692,0.00330689,0.00345145,0.00349465,0.216563,0.224434,0.00367738,0.00339438,0.239314,0.00335776,0.0037604,0.00365571,0.00341195,0.00328215,0.0036833,0.00346671,0.00350733,0.00353359,0.0035749,0.00334818,0.00343482,0.00360156,0.00368077,0.00330593,0.00358877,0.00350628,0.00351495,0.00332927,0.00364764,0.00338138,0.376053,0.00352003,0.0032739,0.00346665,0.00376703,0.00345258,0.0036102,0.00346781,0.00345767,0.00322692,0.00357304,0.00357655,0.00363235,0.00349097,0.00382314,0.00340042,0.00354401,0.00321211,0.00342119,0.00335573,0.00367217,0.00330586,0.00380529,0.00346366,0.452586,0.454011,0.454211,0.00333566,0.480714,0.480958,0.481188,0.482248,0.474471,0.474889,0.476809,0.477354,0.481029,0.491015,0.480209,0.486692,0.493868,0.493129,0.495293,0.494726,0.495065,0.495677,0.496576,0.0035089,0.501509,0.503944,0.504271,0.506635,0.509419,0.509982,0.510217,0.511312,0.510895,0.52813,0.528205,0.517815,0.518306,0.00329966,0.536965,0.00347744,0.00359609,0.00342496,0.571001,0.572229,0.574105,0.00327527,0.00332178,0.00343278,0.596,0.597389,0.599595,0.59892,0.607439,0.613755,0.616783,0.617816,0.624161,0.623179,0.625064,0.622403,0.63191,0.634953,0.638468,0.638571,0.639679,0.645672,0.648935,0.650152,0.657437,0.656657,0.685459,0.686214,0.686603,0.678129,0.660895,0.690553,0.666043,0.668392,0.66668,0.629172,0.630629,0.655424,0.657149,0.669597,0.691215,0.671959,0.687331,0.722065,0.7284,0.741857,0.690242,0.717734,0.684442,0.746198,0.74612,0.790875,0.766374,0.765697,0.78808,0.784936,0.770951,0.806005,0.795826,0.785727,0.809702,0.790081,0.806454,0.809331,0.839659,0.825258,0.826263,0.802586,0.805144,0.807969,0.830007,0.813328,0.818223,0.819265,0.829016,0.832595,0.832558,0.845667,0.846247,0.845466,0.848746,0.832321,0.865801,0.860351,0.860998,0.876906,0.877066,0.828511,0.828247,0.907236,0.860381,0.883932,0.934852,0.928587,0.921804,0.922702,0.924521,0.92265,0.921786,0.919027,0.932064,0.949339,0.957762,0.957347,0.977217,0.958018,0.958848,0.983066,1.02353,1.02598,1.02848,1.01526,1.01895,1.02641,1.02908,1.03021,1.03361,1.03519,1.03713,1.03611,1.03594,1.03751,1.04074,1.04234,1.04583,1.05298,1.06045,1.06331,1.0632,1.06006,1.05932,0.00344215,1.0809,1.08168,1.08723,1.08741,0.00370383,0.00349455,0.00362567,0.00353328,0.00335553,0.00344506,0.0034237,1.14683,1.1481,1.15264,1.15696,0.00337038,1.17442,1.17372,1.17729,1.17885,1.16368,1.16372,1.16708,1.16577,1.16812,0.0035459,1.15257,1.15265,1.13278,1.13248,1.13324,1.13146,1.13436,1.1352,0.00342288,0.00334744,0.00341083,1.09842,1.09137,1.08848,1.07543,1.07891,1.08013,1.07722,1.07361,1.07289,1.06821,1.068,1.0695,1.06814,1.07019,1.07312,1.07329,1.07211,1.06885,1.06938,1.07154,1.07372,1.0741,1.06888,1.07077,1.07233,1.07741,1.082,1.08417,0.00339826
0.00348656,0.00338027,0.00342791,0.00341428,0.00354436,0.00341207,0.00329809,0.208227,0.215872,0.212316,0.217023,0.00326784,0.00335973,0.00340117,0.00327048,0.00356099,0.00357838,0.00332026,0.00321335,0.00351188,0.00353929,0.0035006,0.00353026,0.00343622,0.00337966,0.00377415,0.00344336,0.00361807,0.00352969,0.00355601,0.0035592,0.00368885,0.00334497,0.00347809,0.00355826,0.0031619,0.00349616,0.00367733,0.00329398,0.00324671,0.00346761,0.00382144,0.00359296,0.00352119,0.00347736,0.00362139,0.00315945,0.00377495,0.00342059,0.396149,0.00361809,0.00360384,0.0036624,0.00360034,0.00319013,0.0036239,0.00335057,0.00350801,0.00331682,0.455451,0.44964,0.448728,0.00341914,0.00361165,0.480765,0.476461,0.476648,0.475812,0.471883,0.473312,0.475951,0.479515,0.481264,0.483032,0.483059,0.484721,0.477318,0.483251,0.486589,0.488243,0.00336442,0.490476,0.003423,0.501035,0.00351347,0.502476,0.509816,0.51025,0.510838,0.511437,0.513617,0.513784,0.514928,0.519294,0.51958,0.520338,0.00331091,0.00368612,0.00347105,0.00342028,0.00330625,0.00369588,0.00356994,0.571962,0.575812,0.577214,0.591593,0.593637,0.596488,0.596768,0.604276,0.608613,0.61429,0.615173,0.626575,0.628394,0.628272,0.628991,0.629686,0.637132,0.641886,0.645194,0.647255,0.64746,0.648009,0.643458,0.652415,0.65199,0.651995,0.652013,0.666262,0.6662,0.703922,0.715889,0.702522,0.664378,0.680664,0.659942,0.638273,0.680823,0.652963,0.664828,0.657973,0.697807,0.673512,0.711421,0.709121,0.728679,0.714969,0.746799,0.7285,0.728829,0.75,0.752461,0.782961,0.741779,0.770887,0.742693,0.752419,0.728735,0.739333,0.741399,0.742123,0.775862,0.773965,0.774251,0.774265,0.780107,0.780484,0.786574,0.797105,0.79951,0.809192,0.845886,0.828691,0.792248,0.791334,0.820798,0.839374,0.831921,0.835109,0.83538,0.841052,0.843902,0.844413,0.86682,0.843566,0.835166,0.838505,0.827286,0.828437,0.89899,0.897115,0.89275,0.901189,0.908356,0.902451,0.895485,0.889201,0.908549,0.929866,0.948285,0.962846,0.945109,0.944544,0.947066,0.950108,1.00364,0.982651,0.984262,1.00271,1.03643,1.01659,1.0203,1.02302,1.02359,1.0282,1.02898,1.02985,1.03064,1.03537,1.03483,1.03595,1.03628,1.03618,1.0371,0.00351453,0.00358974,1.05138,1.05492,1.05608,1.05664,1.06017,1.06267,1.06261,1.06761,1.07993,1.08152,1.08236,1.09662,0.00341342,0.00369592,0.00325628,0.00326428,1.13264,1.132,0.00341917,0.00379268,1.14857,1.15146,0.00367693,1.16596,1.16797,0.00360691,1.15862,1.16047,1.16122,1.16187,1.16294,1.16249,1.16039,0.00338566,0.0034522,1.13426,1.12607,1.12752,0.00345964,1.11267,1.11039,1.1158,1.11085,0.00328477,1.08634,1.08401,1.08382,1.07737,1.07695,1.06792,1.07128,1.06832,1.06738,1.06732,1.06694,1.06597,1.06749,1.06788,1.06451,1.06632,1.06699,1.06474,1.06677,1.0648,1.06953,1.06999,1.07112,1.07321,1.07417,1.0842,1.08532,1.08813
0.163709,0.00331275,0.00377789,0.00349303,0.0034752,0.00329714,0.00356925,0.00348054,0.211196,0.21218,0.213134,0.212312,0.214681,0.00326666,0.00341301,0.00331598,0.00346895,0.00334428,0.00353365,0.00326569,0.273154,0.279317,0.279929,0.00346221,0.00340579,0.293863,0.295106,0.00333968,0.00364603,0.00329551,0.00348872,0.00342837,0.00355476,0.00322128,0.00362968,0.00342389,0.00361364,0.00323902,0.00362027,0.00334951,0.00364195,0.00319925,0.00401739,0.00325769,0.346929,0.35022,0.00359743,0.0032158,0.374766,0.375286,0.375912,0.377499,0.376212,0.377842,0.00359131,0.00321029,0.00345502,0.00329993,0.0035437,0.00325522,0.448597,0.00341485,0.443622,0.00330691,0.00356285,0.00337761,0.475389,0.472562,0.472565,0.47305,0.472415,0.463245,0.470457,0.47073,0.466252,0.472638,0.473196,0.00331295,0.00367978,0.00359889,0.00334187,0.0033847,0.00349932,0.00331701,0.00382974,0.00344926,0.498278,0.498918,0.500416,0.00334242,0.513751,0.514179,0.512058,0.515641,0.5216,0.521471,0.523077,0.00330479,0.00383522,0.0033973,0.003366,0.00339594,0.567068,0.572085,0.573176,0.00337295,0.583218,0.593498,0.59423,0.600495,0.603161,0.607396,0.614061,0.615674,0.621829,0.622091,0.630138,0.63102,0.636402,0.643925,0.644835,0.648031,0.648194,0.648437,0.651362,0.653023,0.649011,0.651562,0.651798,0.652753,0.655476,0.663175,0.702972,0.718822,0.665736,0.665761,0.664352,0.651461,0.656581,0.640253,0.644679,0.670099,0.657367,0.653389,0.669556,0.664515,0.69284,0.692175,0.72225,0.695785,0.712798,0.734962,0.759298,0.753062,0.765485,0.75688,0.72664,0.72799,0.751813,0.767249,0.762899,0.742801,0.767653,0.769753,0.786818,0.798155,0.766971,0.767321,0.767576,0.780492,0.797282,0.797015,0.804566,0.805363,0.815652,0.81836,0.825816,0.843077,0.836549,0.835533,0.829224,0.832402,0.846086,0.847433,0.838841,0.840826,0.843958,0.842914,0.876447,0.87621,0.894953,0.895648,0.898562,0.892001,0.900583,0.904673,0.91884,0.922509,0.941477,0.938454,0.964827,0.95199,0.951783,0.955528,0.956877,0.994346,0.986046,0.987707,1.00597,1.00867,1.01196,1.0123,1.0146,1.01608,1.02319,1.02636,1.02521,1.02893,1.03167,1.03212,1.02824,0.00333572,1.02502,1.02875,1.02989,1.02954,1.03158,0.00342824,1.04905,1.04969,1.04703,1.05014,1.05289,1.05685,1.05846,1.05851,0.00353044,1.07434,1.07433,0.0033283,0.00335669,0.00341008,1.10973,1.11267,0.00343068,0.00330132,0.00346818,0.00351695,1.14674,1.14602,1.15109,1.15271,1.15653,1.15356,0.00376912,1.15103,1.15257,1.15276,1.15372,1.15277,1.1519,1.15204,0.00339391,1.12235,1.12431,1.12555,1.11972,1.1124,1.1138,1.10496,1.09791,0.00323294,1.07308,1.0736,1.07382,1.07587,1.07651,1.06992,1.06927,1.06452,1.05966,1.06181,1.06332,1.06184,1.0625,1.06307,1.05616,1.05678,1.0587,1.06126,1.06405,1.06432,1.06707,1.07009,1.0735,1.07266,1.078,1.07581,1.07071,1.07742
0.00330107,0.00352822,0.00356429,0.00355361,0.00318979,0.00340457,0.00351258,0.00358138,0.21006,0.212864,0.213102,0.216194,0.216617,0.216087,0.00331758,0.00386786,0.00336835,0.00339819,0.00318702,0.00365073,0.00331194,0.0034072,0.00339857,0.00361202,0.283837,0.285775,0.28631,0.298277,0.00363825,0.00369858,0.00354259,0.00356288,0.00342876,0.00378474,0.00316213,0.0033374,0.0033369,0.0035107,0.00327119,0.00351488,0.00339278,0.00357485,0.00333503,0.00343524,0.345283,0.346366,0.34822,0.00368776,0.374532,0.376058,0.377315,0.377901,0.378948,0.379405,0.380533,0.380793,0.380491,0.00345152,0.00352154,0.00343145,0.00342052,0.00365909,0.00333992,0.00353615,0.00319397,0.00352341,0.00345882,0.00373261,0.00326127,0.460745,0.462348,0.462391,0.463554,0.462362,0.465512,0.466036,0.00334554,0.465937,0.455233,0.452975,0.453285,0.453103,0.00336514,0.465129,0.0034816,0.00339307,0.00333511,0.00378884,0.00318869,0.00368542,0.486887,0.00356272,0.00331282,0.00348709,0.515487,0.518461,0.5203,0.53517,0.53636,0.538987,0.00327607,0.00346066,0.00359862,0.00363608,0.00340135,0.00360785,0.00350899,0.00353389,0.0034065,0.601867,0.60438,0.607095,0.607444,0.608713,0.00337398,0.00339434,0.629796,0.63555,0.6374,0.638104,0.646813,0.649142,0.651113,0.650943,0.652115,0.652861,0.653306,0.656394,0.653134,0.658783,0.661276,0.661342,0.66298,0.653998,0.655075,0.657808,0.656222,0.669809,0.671382,0.673379,0.681614,0.697645,0.67294,0.64334,0.643401,0.673769,0.66345,0.669091,0.688284,0.694096,0.725853,0.729154,0.717916,0.778079,0.719167,0.717411,0.712292,0.709858,0.727719,0.734625,0.773692,0.749814,0.742337,0.777266,0.787206,0.764417,0.766017,0.767942,0.801173,0.764135,0.769379,0.779925,0.784017,0.815067,0.791912,0.79289,0.797664,0.798783,0.825972,0.830895,0.836298,0.838273,0.848858,0.866121,0.847155,0.840757,0.847827,0.849834,0.857698,0.87891,0.88346,0.880703,0.896159,0.906546,0.910019,0.947693,0.942577,0.92895,0.974001,0.942872,0.94417,0.959674,0.966571,0.967938,0.00313681,0.00346991,0.00353786,1.00883,1.01163,1.01475,1.01658,1.01814,1.0184,1.01896,1.01841,1.02062,1.02332,1.02348,1.02346,1.01667,1.01688,1.01928,1.02,1.01758,1.0201,1.02323,1.02676,1.03194,1.0363,1.03924,1.03733,0.00352782,1.05662,1.05935,1.05628,1.05625,1.05669,1.0547,1.05842,0.00378083,0.00333438,0.0034079,0.00337554,0.00351684,0.00326296,0.00373037,0.00363318,0.0035052,0.00327912,0.00345411,0.0033787,0.0032453,0.00318616,0.00363428,1.14917,1.14955,1.14609,1.14639,0.00320237,1.14743,1.146,1.14597,1.14069,1.14292,1.1266,1.12402,1.11694,0.0036487,1.10001,1.09024,1.0919,1.08081,1.07653,1.07584,1.07334,1.07172,1.0643,1.05735,1.06088,1.05589,1.05351,1.05109,1.05969,1.049,1.05138,1.0528,1.05693,1.05728,1.05942,1.06267,1.06343,1.06997,1.07048,1.07189,1.0738,1.0743,1.06132,1.06367,1.06218,1.06477
0.00344999,0.00343571,0.00337752,0.00340863,0.00379533,0.00334154,0.00347509,0.00323202,0.00354596,0.00366547,0.00366085,0.00360473,0.00365417,0.00372518,0.00343343,0.00328207,0.00342878,0.00331928,0.00358633,0.00329488,0.00328887,0.00337829,0.00342058,0.284908,0.286611,0.286604,0.28739,0.288731,0.287551,0.288677,0.289549,0.287474,0.294653,0.295384,0.00334668,0.00344821,0.00351937,0.0036616,0.00333774,0.00326294,0.00342305,0.00351283,0.335691,0.33647,0.336929,0.337018,0.337228,0.0032663,0.00345622,0.356022,0.360509,0.00334198,0.378021,0.00329593,0.0034041,0.380057,0.381036,0.00332345,0.00324489,0.00331705,0.00376655,0.0035367,0.405053,0.406499,0.00331094,0.0032922,0.00324375,0.00366952,0.00349641,0.459832,0.460691,0.446512,0.44816,0.448847,0.449091,0.451247,0.447115,0.448168,0.449546,0.455013,0.451935,0.00348328,0.00365534,0.455385,1.10463,1.10441,0.00333945,0.00365794,0.00330662,0.00339072,0.00359837,0.0033691,1.0999,0.00367231,0.500361,0.00344136,0.520781,0.532272,0.538674,0.00337782,0.539893,0.00345199,0.00356461,0.00344585,0.560166,0.00359643,0.00333482,0.00348259,0.591629,0.599158,0.605288,0.607371,0.609743,0.609544,0.00366184,0.0032349,0.629915,0.631336,0.634795,0.636851,0.00374402,0.00346244,0.00358055,0.00337793,0.00373328,0.644507,0.00364547,0.00322225,0.00332929,0.660091,0.66163,0.661967,0.662597,0.664852,0.664183,0.664662,0.672301,0.669805,0.670802,0.662064,0.660398,0.669706,0.669695,0.709155,0.696856,0.700855,0.665643,0.686213,0.685267,0.679719,0.701716,0.698192,0.698185,0.695502,0.720254,0.694021,0.693791,0.743225,0.732664,0.724487,0.737098,0.746648,0.74867,0.735623,0.737079,0.739676,0.742392,0.79119,0.77112,0.772345,0.758115,0.755512,0.75675,0.791841,0.759223,0.762504,0.801113,0.797273,0.795256,0.805847,0.798245,0.826638,0.828181,0.842911,0.840438,0.841906,0.876262,0.854679,0.866971,0.908727,0.888114,0.891402,0.893696,0.898041,0.925678,0.939985,0.932949,0.930953,0.943171,0.948975,0.97367,0.956252,0.00383996,0.00347402,1.00829,1.01143,1.01212,1.01224,1.01142,1.01233,1.01522,1.01451,1.0124,1.01705,1.01652,1.01421,1.01427,1.01275,1.01502,1.01386,1.00566,1.00963,1.01044,1.01208,1.01526,0.00347752,1.02497,1.02607,1.02693,1.03188,1.03284,0.00356225,1.0428,0.00332487,1.05309,1.04926,1.04748,1.04835,1.04722,1.05655,1.07474,1.07817,1.08026,0.00357299,1.09561,1.09956,1.10121,0.0034595,0.00347356,1.13022,1.13082,1.13308,1.13638,1.13575,1.13737,0.00352786,1.14358,1.14435,1.14299,1.14283,1.14203,1.14058,1.14084,1.1425,0.00325644,1.10232,1.1034,1.09999,1.08415,1.08816,1.08799,0.00352518,1.06666,1.07026,1.05891,1.06272,1.06436,1.05668,1.04823,1.05168,1.0525,1.04993,1.04824,1.05231,1.05259,1.05507,1.05595,1.05498,1.05749,1.05874,1.06299,1.06556,1.06615,0.00331149,1.05432,1.06321,1.06058,1.06021,1.06326,1.06573
0.00342839,0.00357374,0.00350346,0.00347206,0.00327708,0.00327032,0.00341078,0.00364147,0.00335467,0.00353145,0.00326307,0.00364092,0.00343457,0.00372798,0.00338406,0.00373118,0.00334092,0.00368055,0.00329544,0.00313774,0.00330931,0.00390287,0.00335095,0.00341671,0.00320636,0.286298,0.28606,0.286146,0.286667,0.28698,0.288279,0.292177,0.294453,0.292564,0.29241,0.00350206,0.291808,0.290084,0.00330209,0.282774,0.00315238,0.00349989,0.00315831,0.325083,0.326211,0.326858,0.327309,0.330876,0.00332771,0.341978,0.344298,0.344487,0.00336089,0.00373405,0.00316833,0.365958,0.00335433,0.00350656,0.00342264,0.00339195,0.0032325,0.00362996,0.00334687,0.405417,0.00333647,0.00365331,0.00332172,0.00359879,0.00339423,0.00344139,0.446278,0.447691,0.448353,0.448854,0.449481,0.448036,0.44921,0.448376,0.447302,0.440441,0.440812,0.439472,0.440642,0.444855,0.00335034,0.45908,0.00344999,0.00353191,0.00336549,0.00344995,0.0032606,0.484902,0.00336763,0.486758,0.0033727,0.503087,0.00356224,0.00361089,0.537914,0.538766,0.540258,0.540946,0.540946,0.00350013,0.00328802,0.00340007,0.00343644,0.588011,0.00321725,0.604118,0.605228,0.608073,0.607899,0.00340823,0.00360581,0.00369104,0.00354971,0.00349576,0.00305414,0.00353526,0.00334301,0.632381,0.00357517,0.00360274,0.635565,0.636235,0.629763,0.636308,0.0033364,0.00354153,0.00326103,0.652449,0.657798,0.65854,0.00316262,0.00322771,0.673517,0.674035,0.679304,0.687027,0.687038,0.686829,0.687182,0.690895,0.706224,0.705834,0.703456,0.701389,0.690609,0.691537,0.694392,0.687298,0.724816,0.735771,0.722404,0.729568,0.725687,0.737526,0.75356,0.744319,0.788038,0.787808,0.746,0.763769,0.751077,0.752824,0.749161,0.752453,0.726196,0.725866,0.726209,0.728167,0.731941,0.73245,0.769503,0.780149,0.793919,0.775279,0.784138,0.808555,0.801117,0.828111,0.846143,0.846704,0.844129,0.853247,0.871294,0.867333,0.868248,0.887793,0.889456,0.897623,0.901999,0.913606,0.915392,0.924871,0.925022,0.00367116,0.0034207,0.971521,0.973133,0.00359656,0.00352763,0.00361117,0.0034177,1.00459,1.00375,1.00819,1.00587,1.01169,1.01129,1.01523,1.01673,1.01813,1.00592,1.00971,1.01086,1.0083,1.01415,1.01457,1.00543,1.00483,1.00598,1.00835,1.00967,1.01304,1.01741,1.01879,0.00340508,1.02615,1.02903,1.02975,0.00336453,1.03807,1.04048,1.04224,1.04562,1.04338,1.04295,1.04475,1.06458,1.06549,1.06966,1.07092,1.07871,0.00364915,0.00330872,0.00376603,0.0034639,0.0035369,0.0036334,1.12468,1.13065,1.12691,1.13155,1.1296,1.13068,0.00351042,1.13273,1.13707,1.13631,1.13695,1.13038,1.13285,0.00335183,0.00371396,0.00347367,1.09852,1.0911,1.08906,1.08852,1.07261,1.0719,1.07044,1.06439,1.06288,1.05973,1.05001,0.00357945,1.03723,0.00330751,1.03962,1.04079,1.04103,0.00335551,1.03944,1.03957,1.05007,1.04352,1.05022,1.05226,1.05299,1.04784,1.05126,1.05472,1.05672,1.05858,1.06382,1.06611,1.06651
0.0032563,0.00350715,0.00377199,0.00346939,0.00337585,0.00337157,0.00355681,0.00338787,0.151541,0.15187,0.00360066,0.00339843,0.00351573,0.0032354,0.00372309,0.00338781,0.00354767,0.00326842,0.00319219,0.00369134,0.00346004,0.00364669,0.0034977,0.00355117,0.00355859,0.00340769,0.00361127,0.0034702,0.00347601,0.255204,0.00366094,0.00330604,0.269946,0.269651,0.00347276,0.00342866,0.29372,0.00324321,0.00373408,0.2833,0.283678,0.00345575,0.00360708,0.325101,0.326978,0.327943,0.327841,0.321226,0.310719,0.310889,0.339254,0.00331419,0.00334854,0.0035023,0.00349134,0.00327948,0.00380243,0.00338708,0.00359966,0.00329486,0.00319767,0.00331761,0.00332788,0.00331481,0.00328135,0.00348159,0.00347006,0.00335897,0.419659,0.420396,0.420591,0.446715,0.447955,0.449296,0.448968,0.446714,0.446362,0.43308,0.435211,0.436541,0.440088,0.44127,0.444504,0.446288,0.446387,0.447525,0.0035471,0.00326306,0.00352648,0.00343955,0.00364742,0.00335991,0.00381139,0.00330627,1.10112,0.00341427,0.00339677,0.00325035,0.539263,0.539008,0.539897,0.540011,0.911876,0.00340275,0.577685,0.580515,0.587856,0.58858,0.589681,0.00327827,0.00364804,0.00330709,0.0035126,0.0034854,0.00355818,0.586958,0.00362907,0.00340373,0.00366477,0.00344179,0.60746,0.00336168,0.622704,0.623912,0.625165,0.625518,0.63086,0.632706,0.633713,0.637322,0.637941,0.00338498,0.00351641,0.00347281,0.00341282,0.00347719,0.00349948,0.00348128,0.68185,0.683522,0.684224,0.685109,0.00352663,0.704932,0.708003,0.70785,0.70785,0.702474,0.691266,0.710614,0.684176,0.684229,0.68687,0.687139,0.707197,0.724376,0.728782,0.726661,0.7348,0.761151,0.786229,0.742443,0.740691,0.743732,0.743537,0.743293,0.733396,0.732511,0.732646,0.766304,0.746192,0.728705,0.76788,0.776336,0.766191,0.779878,0.801915,0.786466,0.800241,0.842232,0.844674,0.840055,0.854203,0.857223,0.866361,0.870595,0.872156,0.873409,0.870529,0.884357,0.894878,0.897283,0.901091,0.00346653,0.00363248,0.936207,0.939373,0.00339201,0.956812,0.957709,0.967321,0.970893,0.97778,1.14215,1.12614,1.1254,1.13093,1.00265,1.14394,1.01002,1.01185,0.00369401,1.01318,1.00857,1.00935,1.00634,1.00798,1.00786,1.00823,1.00184,1.00374,1.00574,1.00459,1.00441,1.0026,1.00388,1.00478,1.00343,1.0087,1.00913,0.00361869,0.00337601,0.00345586,0.00328797,1.03241,1.03929,1.04243,1.03909,1.04149,1.04352,0.00369161,1.06188,1.06626,1.06648,1.07165,1.08158,1.08428,1.08405,0.00355737,0.00328256,1.10824,0.00359944,1.12112,1.12046,1.12301,1.12902,1.12641,1.1216,1.12557,0.00348494,0.00333064,1.12548,1.12964,1.12226,1.12594,0.00336324,0.00375486,0.00327756,0.00353427,1.08183,1.07035,1.07354,1.06684,1.0638,1.06657,0.00337569,1.0454,1.04625,1.04382,1.03749,1.03106,1.03296,1.03063,1.03237,1.0348,1.03441,1.03698,1.03861,1.0375,1.04032,1.04423,1.04594,1.04992,1.05053,1.0556,1.05718,1.06123,1.06363,1.06449,1.06509
0.00332647,0.00345236,0.00363022,0.00324172,0.00330432,0.00348478,0.003497,0.00360575,0.00353909,0.152767,0.151583,0.151852,0.00349236,0.00344954,0.00362691,0.0035041,0.0032346,0.00366796,0.00332,0.00372398,0.00355937,0.00332167,0.00348047,0.00346197,0.00341843,0.0037258,0.00343925,0.00353314,0.258103,0.257349,0.256876,0.0035122,0.0034702,0.00335256,0.00349242,0.00350339,0.00337045,0.00319049,0.00346037,0.00347748,0.00344895,0.00349804,0.00339903,0.00343985,0.00355683,0.00373941,0.0032008,0.311355,0.313897,0.314196,0.313557,0.313238,0.00333892,0.00363384,0.00353907,0.00370843,0.00335104,0.00341196,0.00348174,0.00343056,0.00348364,0.00354036,0.00350003,0.00340156,0.00348071,0.00342999,0.00344088,0.00352507,0.00348902,0.00381884,0.00327398,0.00342085,0.43526,0.436021,0.43733,0.435902,0.435259,0.433891,0.43552,0.435725,0.43701,0.445167,0.445649,0.446694,0.446595,0.448896,0.454046,0.463262,0.464578,0.465141,0.46545,0.473006,0.00341594,0.00331064,0.00360326,0.00338104,0.00344571,0.00370485,0.00333146,0.00359865,0.00333919,0.00367653,0.00329916,0.00356859,0.00322932,0.583478,0.585241,0.586222,0.00341811,0.00342386,0.00341797,0.577219,0.577813,0.579016,0.571908,0.572266,0.581793,0.582454,0.00326552,0.00351881,0.00347237,0.00373648,0.00354851,0.609641,0.610952,0.612151,0.614217,0.619678,0.00356439,0.633414,0.0034793,0.00346503,0.003176,0.00355914,0.00346527,0.00318153,0.00318665,0.00334053,0.00350071,0.00362904,0.00353472,0.00311557,0.00334836,0.00371377,0.00347071,0.00346567,0.00322439,0.00362357,0.721128,0.722777,0.727816,0.727944,0.735423,0.730995,0.729189,0.72969,0.732501,0.737847,0.740262,0.735585,0.738372,0.738428,0.737328,0.740008,0.784813,0.77684,0.776463,0.776139,0.788848,0.789226,0.79923,0.801979,0.801587,0.815435,0.822283,0.822363,0.82891,0.833688,0.837885,0.841607,0.844232,0.853678,0.85463,0.887755,0.869656,0.873648,0.874853,0.880608,0.00343544,0.912444,0.00345402,0.00360352,0.00331532,0.00363203,0.00343397,0.93801,0.942022,0.94431,0.952844,0.955802,0.00323604,0.966725,0.971425,0.975598,0.980226,0.00343857,0.0033385,1.00215,1.00464,1.00504,1.00616,1.00776,1.00802,1.00076,1.00184,1.00238,1.00337,1.00814,0.999541,1.00138,1.00322,1.00241,0.999804,0.999391,1.00106,0.997752,0.99548,0.99618,0.99801,0.994458,0.996174,0.00347017,0.00339335,1.24735,0.00335781,0.00383814,0.00343896,0.00375606,0.00322055,0.00353051,0.00335635,1.05131,1.05742,1.05879,0.00339153,0.00359267,0.00337432,0.00350127,0.00358708,0.00358629,1.10095,1.10182,0.0032562,0.0034093,0.00343962,1.11433,1.11898,1.11402,0.00352235,1.11117,1.10969,1.1126,1.11564,1.11754,0.00333848,0.0035499,0.00354117,0.00344581,0.00360855,0.00328635,0.00348668,1.06274,0.00358335,1.04632,1.04912,1.03973,1.03847,1.03218,1.03567,1.02878,1.03274,1.02785,1.03008,1.0289,1.02915,1.03002,1.03313,1.03445,1.0358,1.03719,1.04128,1.04319,1.05608,1.05851,1.05942,1.06352,1.06228,1.05484,1.06086,1.05774
0.00343532,0.00335922,0.00355946,0.0034502,0.00361656,0.00338121,0.00349375,0.00330737,0.00333366,0.151786,0.00364359,0.00332186,0.00363976,0.00309404,0.00363034,0.00325596,0.145819,0.00330062,0.00379807,0.00314145,0.00350314,0.0034675,0.00353191,0.00318643,0.00361323,0.00330361,0.00360132,0.00329166,0.00347825,0.00339157,0.00335772,0.0033706,0.00368137,0.00338007,0.00335239,0.0032209,0.00364946,0.00349352,0.00399959,0.00332589,0.00372919,0.00329484,0.00365404,0.272516,0.00357777,0.00349064,0.00364498,0.00332531,0.312813,0.313252,0.31358,0.314916,0.315665,0.320032,0.32014,0.319174,0.318881,0.00341354,0.00346995,0.00349634,0.00360998,0.00342774,0.00358582,0.0033167,0.00360395,0.00343585,0.00358914,0.00337836,0.00354258,0.00338721,0.00349357,0.403619,0.00334104,0.431071,0.431829,0.433615,0.434615,0.434248,0.43655,0.438876,0.442054,0.443365,0.44572,0.448012,0.44965,0.449412,0.454981,0.455211,0.465244,0.46585,0.465529,0.0033474,0.00363677,0.00323153,0.00335253,0.0033789,0.0036125,0.00340945,0.00358479,0.00326505,0.00333949,0.00337962,0.00341063,0.00350593,0.00363332,0.00347844,0.00337528,0.00321568,0.00349968,0.00335389,0.00345583,0.576042,0.576011,0.575963,0.575918,0.576016,0.577075,0.586199,0.00343389,0.589475,0.00360857,0.591363,0.00352417,0.608799,0.610885,0.613567,0.617766,0.619499,0.621402,0.621235,0.615938,0.617346,0.617565,0.0031666,0.00373585,0.00331071,0.00342466,0.00338902,0.00340686,0.00309037,0.00372842,0.00363108,0.671953,0.00329838,0.00381107,0.00332965,0.00380452,0.00322286,0.00351279,0.00330151,0.00343788,0.00338498,0.719515,0.0033597,0.712742,0.71495,0.7171,0.718237,0.727154,0.736023,0.736885,0.759965,0.773777,0.77549,0.746652,0.77013,0.787817,0.7908,0.790872,0.811245,0.811085,0.813872,0.81603,0.818143,0.824088,0.825499,0.840686,0.845192,0.849704,0.850449,0.853175,0.857245,0.86782,0.867517,0.874614,0.880142,0.880226,0.00337528,0.00326667,0.00345342,0.00350608,0.910734,0.914442,0.919219,0.00365864,0.00326334,0.00331846,0.00325904,0.00369017,0.0034411,0.962503,0.963818,0.967436,0.00335794,0.00366653,0.00350577,0.988618,0.990069,1.13486,0.00347648,0.00352026,0.993564,0.997301,1.00047,1.00073,1.00003,0.994923,0.997708,0.999383,0.999263,0.999676,0.994648,0.99471,0.994895,0.983999,0.985178,0.984844,0.987952,0.988124,0.991296,0.992304,0.995761,0.996978,1.00277,1.00671,1.00962,1.01817,0.00343366,1.03159,0.00321894,0.00331136,1.04652,1.04778,1.05277,1.05978,0.00343307,0.00352854,0.00339612,0.00355708,0.00348295,1.09401,1.09128,0.00362211,0.00346472,0.00354596,0.00341922,0.00339282,1.09939,1.10232,1.10282,1.10516,1.10904,1.11097,1.11405,1.11172,1.10934,1.11134,0.00334663,0.00338538,0.00319728,0.00371446,0.00348098,1.0469,1.04713,1.04178,1.03691,1.0368,1.03462,1.03352,1.02955,1.0317,1.03027,1.03216,1.03029,1.03106,1.03203,1.03221,1.0352,1.03657,0.00334619,0.00358526,1.05272,1.05658,1.05847,1.05802,1.05708,1.05522,1.05392,1.05969,1.05961
0.00331593,0.00346699,0.00329979,0.00376567,0.00367059,0.00385704,0.00343293,0.00361746,0.00347084,0.00358672,0.00352274,0.118427,0.118925,0.00361625,0.00321911,0.00350204,0.147446,0.147686,0.148001,0.00349432,0.00342244,0.0034072,0.00345983,0.00351138,0.00342991,0.00348061,0.00358249,0.00347517,0.00324959,0.00340457,0.00353121,0.00342514,0.00326961,0.0034656,0.00349641,0.00361894,0.00354784,0.003455,0.00359452,0.00349396,0.00346222,0.00361473,0.0032857,0.00321947,0.00341985,0.00343366,0.00318595,0.0034333,0.00351038,0.00355615,0.00314529,0.315316,0.318256,0.320504,0.32148,0.322272,0.321519,0.31594,0.317054,0.318126,0.00344145,0.00344695,0.00336587,0.00321579,0.00324282,0.00356908,0.00356079,0.00346616,0.00330725,0.395952,0.396637,0.397556,0.00341227,0.42032,0.421594,0.43134,0.431219,0.43292,0.439077,0.441674,0.445447,0.445744,0.454016,0.455604,0.4556,0.455799,0.453503,0.455785,0.456944,0.477682,0.47968,0.480062,0.003301,0.0035989,0.00344745,0.00336462,0.00378724,0.00332598,0.00330602,0.525003,0.526781,0.00328667,0.00330612,0.00341945,0.00349356,0.00376938,0.00369808,0.0035335,0.00344801,0.00351367,0.0034864,0.563541,0.571476,0.571801,0.573482,0.569931,0.00348826,0.00364039,0.586695,0.58791,0.589131,0.591458,0.0032883,0.593038,0.00349179,0.594435,0.00342719,0.00346271,0.00362036,0.00348691,0.608483,0.616564,0.617772,0.00353766,0.00330718,0.00378552,0.00350936,0.648957,0.00321683,0.00378646,0.0032484,0.0037424,0.00325974,0.00360883,0.00342618,0.66775,0.00342292,0.00331972,0.00337669,0.00321409,0.00336282,0.00343827,0.00351249,0.00364385,0.712631,0.00334331,0.00332573,0.00375315,0.731129,0.745906,0.747826,0.0033127,0.774494,0.776293,0.0034126,0.00355638,0.00339635,0.00333251,0.00345993,0.801841,0.80221,0.805609,0.806778,0.00349048,0.00343972,0.0034042,0.00339728,0.00361071,0.00337492,0.851684,0.854297,0.857684,0.866809,0.867727,0.00337395,0.00327669,0.885191,0.888748,0.891389,0.00359117,0.003633,0.908655,0.91172,0.914613,0.00344112,0.00356138,0.00320123,1.14102,0.00341009,0.00347743,0.00359746,0.00336318,0.96295,0.964663,0.00358142,0.980515,0.982549,0.984784,0.984033,0.0035276,0.986103,0.986311,0.986555,0.990184,0.993261,0.997418,0.992102,0.992935,0.997456,0.998138,1.00015,0.999281,0.999032,1.00054,0.985708,0.982965,0.987292,0.988094,0.990655,0.99062,0.991255,0.991355,0.994596,0.998825,1.00259,0.00341155,1.01102,1.01462,0.00333529,0.0035925,1.03425,0.00382537,1.04516,1.04735,1.05057,0.00364003,0.00363395,1.07169,0.00358135,0.00323777,1.08399,1.08225,1.08694,1.08736,1.08432,1.08755,1.08997,1.09445,1.09673,1.09878,1.10036,1.10504,1.10614,1.09612,1.09761,1.10004,1.10099,0.00367386,0.00344238,0.00338088,0.00349503,1.04485,1.04634,1.04076,1.02939,1.03478,1.03346,1.02757,1.03098,1.03207,1.02537,1.03209,1.03158,1.03214,1.03189,1.03322,1.0353,1.03932,1.03877,1.03832,1.04028,1.04657,1.04531,1.04882,1.04645,1.04593,1.04746,1.05045,1.05033,1.05351
0.00344979,0.00343083,0.0035123,0.0035366,0.00362526,0.00350633,0.00339309,0.00337934,0.00328044,0.00351294,0.00357169,0.0032323,0.121264,0.1211,0.00352727,0.00344922,0.00365776,0.00349666,0.00338118,0.0033312,0.144845,0.146772,0.148083,0.148625,0.149202,0.147111,0.148349,0.0034339,0.00345203,0.00361676,0.00332913,0.0035565,0.00329358,0.00348216,0.00336718,0.00315074,0.00349992,0.00347008,0.235425,0.00345514,0.00368031,0.00319035,0.00378499,0.00330159,0.0035403,0.00308355,0.00335027,0.0037205,0.00365123,0.00353258,0.00337492,0.00346208,0.00356837,0.00336158,0.320455,0.00333246,0.00362541,0.317517,0.319654,0.319095,0.00350124,0.00338413,0.00365962,0.0034923,0.00338664,0.00345026,0.364041,0.0033315,0.00355528,0.00320446,0.00349211,0.399735,0.417484,0.421135,0.421153,0.422099,0.425213,0.42873,0.431559,0.450371,0.45354,0.454304,0.455053,0.456832,0.45546,0.454326,0.455721,0.455892,0.465566,0.468927,0.469071,0.488008,0.489888,0.00342727,0.00350199,0.00351416,0.00354523,0.00347697,0.525457,0.527645,0.529782,0.529928,0.529648,0.52723,0.524199,0.52449,0.52984,0.530241,0.00332663,0.00358185,0.00348175,0.00331016,0.547219,0.552101,0.00353373,0.00327702,0.00332581,0.00331842,0.00358271,0.00347691,0.00355654,0.00333145,0.588603,0.59027,0.591545,0.595122,0.597238,0.59717,0.594694,0.595438,0.00329619,0.00349041,0.00334766,0.00330912,0.00368574,0.00346514,0.00354903,0.00355949,0.0034117,0.00337836,0.00344942,0.00351003,0.00334435,0.00340685,0.00363281,0.00325218,0.00366389,0.00333883,0.00345785,0.673137,0.00337046,0.00325887,0.00354029,0.00336109,0.00327996,0.003557,0.720936,0.722966,0.00342081,0.00346779,0.00346568,0.00327934,0.00336946,0.0033865,0.00331564,0.00321043,0.00335778,0.00340499,0.00355882,0.795334,0.796917,0.00341168,0.00330315,0.003576,0.00329225,0.00330096,0.00375438,0.00343902,0.00335485,0.00354861,0.00339258,0.00335665,0.00352579,0.859297,0.00338692,0.00315668,0.00315091,0.00334278,0.00331848,0.00332032,0.00355986,0.00354991,0.905014,0.907527,0.91002,0.00350547,0.00359823,0.00330507,0.00347451,0.00364597,0.00344856,0.00344512,0.00350848,0.00324644,0.00348393,0.969411,0.970119,0.96844,0.973867,0.975857,0.977091,0.976951,0.978898,0.984495,0.984909,0.98724,0.989394,0.992791,0.997827,1.00015,1.0001,0.996092,0.995372,0.994726,0.996066,0.995457,0.983797,0.984333,0.985163,0.981927,0.985671,0.986641,0.988256,0.991661,0.995059,0.998318,1.0042,1.00844,1.01035,1.01106,0.00360161,0.00350197,0.00367702,1.03726,1.04335,0.00345229,1.05879,0.00363316,0.00343688,0.00346248,1.07591,1.07929,1.08086,1.07902,1.08119,1.08419,1.08521,1.08758,1.09134,0.0034426,0.00337247,1.10012,1.09965,1.0993,1.0987,1.09778,1.092,1.09673,1.32716,0.00360679,0.00328109,0.00348489,0.00342427,1.02863,1.02983,1.03351,1.03251,1.03178,1.03199,1.02937,1.03018,1.03117,1.02992,1.03286,1.03186,1.03194,1.03322,1.0322,1.03283,1.03279,1.03555,1.03717,1.04257,1.03903,1.03988,1.04024,1.04211,0.00319504,1.04953,1.04959
0.00400225,0.00362606,0.00345788,0.00351157,0.00339383,0.00386126,0.00350429,0.00369126,0.00340948,0.00347205,0.00322875,0.00383085,0.00319178,0.00360036,0.00318107,0.0035973,0.00338199,0.00369721,0.00320493,0.00335951,0.145755,0.147712,0.14818,0.149339,0.00332665,0.15053,0.150545,0.14887,0.147302,0.00361031,0.00343678,0.00352266,0.0037078,0.00360766,0.00330493,0.00339798,0.00340356,0.00327327,0.00314691,0.00359724,0.00342801,0.00359651,0.0035401,0.00341479,0.00353366,0.00369102,0.00321047,0.00354107,0.0031839,0.0036847,0.270125,0.271365,0.272148,0.00359125,0.00335029,0.00362117,0.00315245,0.306848,0.00317722,0.00352767,0.00330241,0.00354874,0.00337964,0.00351744,0.00338601,0.00330328,0.00331929,0.00331959,0.00343649,0.00344211,0.00319406,0.003542,0.00352296,0.421894,0.424205,0.424134,0.425924,0.425607,0.00325993,0.00351742,0.457803,0.459682,0.459783,0.461165,0.465258,0.468181,0.468119,0.468799,0.469868,0.47222,0.472813,0.473418,0.473642,0.00348541,0.00317757,0.00355808,0.00316702,0.00347189,0.00307542,0.0034771,0.00320252,0.529448,0.530225,0.525039,0.524137,0.525882,0.526212,0.531186,0.533355,0.00347321,0.535626,0.536005,0.547211,0.548587,0.550207,0.550184,0.00338785,0.00329244,0.00330394,0.567279,0.567624,0.00364706,0.00329759,0.59023,0.590669,0.585295,0.00336331,0.00363665,0.593721,0.00359743,0.604342,0.607185,0.605491,0.606031,0.608841,0.608918,0.00335932,0.003714,0.00327818,0.0035657,0.00357567,0.003546,0.00334447,0.00335938,0.00328736,0.00363048,0.00335045,0.00351427,0.00341169,0.00355955,0.00327728,0.00358723,0.00329494,0.00336648,0.00336413,0.00365702,0.00326833,0.0035841,0.00366078,0.00340622,0.00341032,0.00352732,0.00335659,0.00353953,0.00347036,0.00351697,0.00328875,0.775849,0.00334778,0.00359267,0.922206,0.00378328,0.00336077,0.804272,0.00324394,0.807686,0.00343157,0.00365419,0.0036075,0.829633,0.00326395,0.847484,0.848991,0.850502,0.858938,0.862718,0.866322,0.866908,0.00309789,0.00348961,0.00326144,0.00390383,0.00336335,0.00359175,0.00329746,0.00369692,0.00338687,0.00336554,0.00338837,0.933033,0.00331402,0.944422,0.938029,0.958352,0.00340329,0.966123,0.965766,0.966914,0.967505,0.968812,0.970347,0.974807,0.977335,0.980108,0.981885,0.00355697,0.992622,0.995873,0.995623,0.996206,0.996072,0.997291,1.00039,0.999417,0.998771,0.999177,0.985266,0.984052,0.982596,0.983439,0.983551,0.982898,0.986505,0.990066,0.992873,0.995515,1.00117,1.00417,0.00335374,0.00350408,1.02015,1.02169,1.02554,1.02629,0.0031738,0.00345338,0.00335437,0.00364529,0.00332091,0.00333296,0.00338921,0.0033039,0.00317902,0.00388339,0.00348988,1.06302,1.06277,1.06222,1.0779,1.08053,0.00351023,0.00333174,0.00348772,0.00337072,0.00335833,0.00332378,1.08788,1.08752,1.07405,0.00355277,0.00330007,0.00338881,1.03902,1.03752,1.03971,1.03179,1.02946,1.03305,1.03521,1.03629,1.04024,1.03325,1.03447,1.02841,1.02889,1.02921,1.02599,1.02949,1.03052,1.03026,1.02388,1.02923,1.03098,1.03067,1.03183,1.03048,0.00319682,1.03524,1.03756,1.03833
0.00303456,0.00381409,0.00379422,0.00370404,0.0036415,0.00347091,0.00339413,0.00364435,0.00333228,0.0035847,0.00365213,0.00344298,0.00348863,0.00336638,0.00342572,0.0032874,0.0930371,0.00356498,0.00347514,0.00327824,0.0035466,0.00357184,0.00355692,0.149488,0.1488,0.149985,0.13783,0.139039,0.139744,0.140173,0.139508,0.00323488,0.00372334,0.00321794,0.00352452,0.00349904,0.169212,0.00348329,0.169868,0.00340194,0.00346707,0.00327041,0.00339622,0.00320128,0.00325558,0.00321617,0.0032926,0.00334353,0.00360156,0.00335325,0.00332556,0.0032719,0.275113,0.00343387,0.00360727,0.00348884,0.00356151,0.00328235,0.00347961,0.00341303,0.00349925,0.00316479,0.00368779,0.00319917,0.00349588,0.00337026,0.00351968,0.00331137,0.00352826,0.00334577,0.00360675,0.00340924,0.00328691,0.00326498,0.00361871,0.00340927,0.00350105,0.00343147,0.00353757,0.00356434,0.00356342,0.00331959,0.463593,0.465958,0.468394,0.469647,0.471074,0.471549,0.472265,0.464219,0.464354,0.464484,0.0033923,0.00331419,0.00374629,0.00319615,0.480538,0.00341478,0.00371958,0.00336844,0.00382544,0.00324967,0.00364698,0.00340474,0.00373746,0.0033362,0.00358032,0.00351761,0.00366393,0.00336088,0.00349471,0.00345832,0.00350626,0.00326967,0.543039,0.543978,0.545016,0.545477,0.548981,0.00322139,0.556561,0.00312346,0.00361748,0.00328003,0.00343289,0.00328827,0.00336575,0.580176,0.00357767,0.00341431,0.00321253,0.597524,0.607071,0.607481,0.606622,0.00327816,0.597568,0.00319618,0.00362701,0.00345385,0.606885,0.60897,0.00347052,0.00328126,0.00364263,0.00324138,0.00365323,0.00332982,0.65094,0.00322507,0.00361267,0.00341411,0.682563,0.683384,0.0032633,0.00339498,0.00347841,0.00339547,0.710872,0.00327161,0.00360015,0.00326018,0.00340424,0.00342314,0.00342111,0.00338143,0.753061,0.756082,0.757915,0.760337,0.920978,0.920942,0.00343417,0.00343703,0.00369393,0.00330097,0.00357209,0.00338645,0.00353658,0.00333719,0.833811,0.00331886,0.838563,0.837566,0.00364271,0.856863,0.852252,0.860274,0.869342,0.871815,0.873368,0.00357154,0.883516,0.00344189,0.00354446,0.00348043,0.00330623,0.00339404,0.00341828,0.00354385,0.00357344,0.939717,0.939341,0.00339545,0.00343789,0.0032983,0.955509,0.961231,0.961733,0.9643,0.967621,0.972689,0.975792,0.979745,0.982334,0.982849,0.986832,0.992998,0.991418,0.992951,0.994533,0.992007,0.994554,0.994566,0.992433,0.983783,0.974984,0.979222,0.980115,0.981272,0.981732,0.982839,0.98495,0.98762,0.989703,0.00343712,0.998234,0.00327275,0.0034614,1.01083,1.0124,1.0157,1.02163,0.00341786,0.00354061,0.00309978,0.00349179,1.05323,1.05647,1.05912,1.06145,0.00317161,0.00347716,0.00337783,1.06349,1.05916,1.06261,1.06718,1.06676,1.07017,0.0033158,0.0031889,0.00342251,1.07771,1.07588,1.07914,1.08042,1.08167,1.08289,0.00355104,0.00363544,0.00339296,1.04301,1.03979,0.00370969,1.04152,1.0423,1.04407,1.04136,1.04241,1.03542,1.01717,1.02282,1.02099,1.02061,1.02057,1.02068,1.02516,1.02395,1.02196,1.02511,1.02433,1.03055,1.02899,1.02546,1.02555,1.02729,1.02678,1.02719,1.03076
0.00872836,0.00457514,0.0041942,0.00471612,0.010753,0.0113296,0.0110329,0.0107735,0.00347222,0.00382035,0.00354505,0.00341225,0.00339347,0.0812699,0.0822167,0.0817707,0.00338706,0.00389114,0.00362976,0.00354979,0.00348583,0.00353403,0.00347087,0.0037147,0.00343814,0.00343491,0.00330273,0.13917,0.00320431,0.140211,0.00327632,0.00348383,0.142207,0.143017,0.142233,0.00352916,0.169516,0.169725,0.00326563,0.00342007,0.00340858,0.00367457,0.00332289,0.00348803,0.00335478,0.00357262,0.0035203,0.00319831,0.00327527,0.00333475,0.00357286,0.00321769,0.00339847,0.00368257,0.00336911,0.00331313,0.00347691,0.00328249,0.00329492,0.00347116,0.00323634,0.303669,0.303314,0.00348044,0.00321772,0.00348133,0.00347889,0.00370126,0.00350706,0.00355711,0.00353815,0.00348623,0.00339925,0.00337759,0.003616,0.00358109,0.00337173,0.00348556,0.00345596,0.00336642,0.00343962,0.463161,0.464055,0.468416,0.468087,0.46996,0.470143,0.465623,0.464426,0.462157,0.458085,0.462938,0.46227,0.464298,0.46605,0.0034436,0.00336489,0.00361134,0.00337131,0.00345158,0.00327892,0.00333429,0.00344619,0.00337021,0.491315,0.492319,0.493511,0.00340171,0.0035027,0.00347238,0.00353221,0.00345114,0.00341646,0.00337049,0.00324096,0.530055,0.00331317,0.00327533,0.0032391,0.00358255,0.00327581,0.557229,0.00345393,0.00341315,0.00361324,0.558695,0.00347883,0.00351312,0.00352027,0.00333744,0.00358611,0.00335944,0.00361199,0.57855,0.579567,0.00348268,0.0034307,0.00330066,0.0034374,0.600553,0.603674,0.607806,0.610362,0.00338572,0.00359418,0.00349107,0.00310977,0.00323473,0.00347505,0.652877,0.00340086,0.0034568,0.00354211,0.684386,0.00352151,0.697816,0.700809,0.700507,0.71131,0.00360734,0.0031881,0.00362569,0.00351966,0.00346864,0.00333305,0.00363245,0.00335132,0.756441,0.0034253,0.00338881,0.00340292,0.00342197,0.0034706,0.790483,0.794058,0.00353763,0.00338872,0.00316788,0.00348714,0.00351393,0.00342169,0.833338,0.834869,0.835945,0.840623,0.842246,0.00348964,0.00326221,0.00315444,0.00359786,0.8718,0.00331597,0.00349613,0.00360313,0.0032443,0.00382899,0.00324655,0.00359792,0.915255,0.92453,0.928961,0.932994,0.938775,0.940454,0.943702,0.949644,0.952394,0.00337863,0.960844,0.964925,0.967171,0.968104,0.97228,0.976281,0.976017,0.977087,0.980797,0.988018,0.990536,0.981991,0.984972,0.986195,0.989547,0.990933,0.991585,0.997512,0.979482,0.984239,0.981693,0.983818,0.983801,0.982768,0.984689,0.986822,0.990582,0.99264,0.998027,0.999255,1.00295,1.03602,0.00333327,0.00345147,1.01495,0.0032787,0.00342521,0.00344762,0.00339823,0.00336747,1.04743,1.04984,0.0035916,0.00374112,0.00320612,1.04944,1.05042,1.0541,1.05605,1.05958,1.06095,0.00331083,1.06713,1.06855,1.06864,1.073,0.00366495,1.07531,1.07679,1.07874,1.08016,1.08072,1.06209,1.05711,1.05851,1.06064,1.05339,1.03776,1.03628,1.03806,1.03422,1.03346,1.0297,1.02879,1.01979,1.01802,1.01982,1.01888,1.01481,1.0199,1.02089,1.01837,1.01924,1.01536,1.01733,1.01819,1.01559,1.01721,1.01893,1.02157,1.02254,1.0243
0.00423778,0.00407962,0.00436317,0.00421097,0.0112611,0.0111539,0.0033218,0.00364954,0.00325811,0.00374963,0.00344998,0.00351596,0.0035062,0.0032945,0.00332951,0.00332437,0.00347723,0.00342498,0.00356759,0.00328314,0.00369175,0.00342208,0.00350208,0.00350638,0.00352937,0.00314654,0.106483,0.108029,0.108481,0.00349012,0.00351053,0.142304,0.142864,0.00345624,0.00339761,0.00346338,0.151599,0.151168,0.00345861,0.00308243,0.0036084,0.00337098,0.00353314,0.00322546,0.00358565,0.00340866,0.00349856,0.00327702,0.00352214,0.0031437,0.00349489,0.00338595,0.00348145,0.00327468,0.00355319,0.00360278,0.0034892,0.00330687,0.0033163,0.00318556,0.286619,0.287015,0.287368,0.0032879,0.00345203,0.00325417,0.00348175,0.00339718,0.00355869,0.00331351,0.0034438,0.00303856,0.0034239,0.00338404,0.00366704,0.00350789,0.0033149,0.00335597,0.00344231,0.00352409,0.00355968,0.00323148,0.00354682,0.00339223,0.00336902,0.00330642,0.00356504,0.452334,0.453527,0.454776,0.454147,0.462109,0.459284,0.0034734,0.00358463,0.00331487,0.00312854,0.00346735,0.00375756,0.00341756,0.00361368,0.00341347,0.00386338,0.00358889,0.00347864,0.494964,0.495335,0.00318494,0.00366783,0.0032836,0.508295,0.00314848,0.00353855,0.00350469,0.00330153,0.528542,0.531955,0.532933,0.535397,0.00332516,0.00360951,0.00328581,0.00337615,0.543394,0.545442,0.545905,0.00348567,0.551837,0.552162,0.0033282,0.00368228,0.00337107,0.00342568,0.00342105,0.00352786,0.00346603,0.00362702,0.00323806,0.00373584,0.00313901,0.00359197,0.00347307,0.00342954,0.00319366,0.616111,0.00307705,0.00352469,0.00325703,0.00377399,0.00331729,0.00345585,0.00347677,0.0036735,0.00295417,0.00348521,0.00327304,0.696023,0.698062,0.699539,0.704762,0.701959,0.702386,0.00351814,0.00330818,0.00367409,0.00331239,0.744081,0.00344058,0.00348034,0.00331138,0.764166,0.766298,0.774158,0.00351081,0.00350598,0.00314229,0.00355396,0.00309824,0.00348583,0.00323442,0.819435,0.0032966,0.00380186,0.00358015,0.00367132,0.00341422,0.847315,0.848054,0.00366318,0.00330905,0.869289,0.868131,0.868895,0.878167,0.00317222,0.00335091,0.00354503,0.00337745,0.00367122,0.00328976,0.926227,0.930861,0.932929,0.942927,0.945692,0.948378,0.947249,0.955005,0.959086,0.958113,0.957901,0.964487,0.965217,0.967228,0.973597,0.977666,0.982018,0.986626,0.989479,0.99092,0.981967,0.984686,0.98731,0.989767,0.990618,0.988121,0.990716,0.990121,0.987082,0.98674,0.98793,0.98791,0.989713,0.989095,0.990357,0.00333561,0.997575,0.989755,0.99076,0.995941,0.996696,1.00289,0.0035095,0.00330626,0.00343987,0.00333583,0.00353028,0.00334265,0.00375574,0.00314409,1.03717,1.03879,1.04159,1.04321,1.04437,1.04751,1.04747,1.05266,1.0565,0.00336848,1.06763,1.07149,1.06646,1.06819,1.06962,1.06868,1.07079,0.00343318,1.07209,1.07006,1.07077,1.06025,1.0619,0.00337637,1.04787,1.03675,1.03835,1.03583,1.03587,1.02988,1.02571,1.0261,1.01709,1.01587,1.01264,1.0113,1.00994,1.01062,1.00951,1.0061,1.0089,1.0119,1.01014,1.01026,1.02076,1.02062,1.01973,1.01785,1.01867,1.02039
0.00356139,0.00332549,0.00368311,0.00387845,0.00344952,0.00365539,0.00359156,0.0039141,0.00355369,0.00345139,0.00372223,0.00340178,0.00373212,0.00373873,0.0034453,0.00344884,0.00327649,0.00347286,0.00334005,0.00348455,0.00327085,0.00335814,0.00341294,0.00355314,0.00332289,0.00358322,0.0033458,0.109872,0.109879,0.0034971,0.003389,0.00324268,0.00325711,0.00354235,0.00328267,0.134052,0.00333326,0.124188,0.124744,0.125101,0.00356452,0.00348239,0.00335057,0.0034405,0.00346619,0.0034716,0.00347941,0.00375595,0.00324898,0.00341989,0.00336825,0.0035281,0.223934,0.0035601,0.00351315,0.00353442,0.00311168,0.00343263,0.00352732,0.00342852,0.286732,0.28668,0.288754,0.00352206,0.00316317,0.00356616,0.00340571,0.00345085,0.00343438,0.0035428,0.00345407,0.00360393,0.00333277,0.00356507,0.00335376,0.00337924,0.00311978,0.00354275,0.00328128,0.00349101,0.00332396,0.00325411,0.00320318,0.00326701,0.00320265,0.00347184,0.0035393,0.452361,0.00338461,0.00360567,0.00363385,0.438576,0.440683,0.441437,0.00346839,0.00350347,0.00343611,0.00360759,0.00348374,0.00358126,0.00356099,0.00351739,0.0033455,0.00340803,0.0032759,0.0035128,0.00360122,0.00375398,0.00358892,0.00345201,0.00346727,0.00347844,0.511193,0.513057,0.00336871,0.00345236,0.00322564,0.00332443,0.00347187,0.00347942,0.541232,0.543412,0.00337353,0.544575,0.545251,0.00367721,0.00347802,0.00359239,0.00325087,0.0033168,0.00347501,0.00363582,0.564714,0.567017,0.568893,0.57074,0.574523,0.575112,0.577581,0.580873,0.00326942,0.00349996,0.00331205,0.00339566,0.00337403,0.00342979,0.00349674,0.630195,0.631735,0.00352061,0.00329217,0.00321544,0.00338792,0.00341898,0.00346476,0.00356916,0.00314438,0.00355103,0.00341124,0.693485,0.00323856,0.694051,0.00320094,0.003301,0.00319242,0.00329192,0.00322364,0.00337558,0.752369,0.754324,0.756051,0.00343179,0.00356817,0.00331049,0.00344548,0.00354415,0.00346247,0.0032286,0.00345484,0.80844,0.810962,0.00362571,0.81961,0.00361939,0.00320684,0.838991,0.00354263,0.846487,0.0034795,0.00348713,0.864911,0.868843,0.869863,0.0032117,0.00338006,0.00357267,0.00358874,0.00342712,0.00342443,0.00366938,0.0034264,0.925494,0.00339825,0.00356256,0.94602,0.943722,0.947527,0.949017,0.952723,0.962702,0.961702,0.965304,0.966971,0.968257,0.973243,0.00344831,0.00349656,0.00350294,0.0033814,0.00353606,0.00337223,0.00343365,0.00360928,0.00358967,0.00342298,0.00369539,0.00355466,0.00353033,0.971021,0.00323262,0.00320745,0.00350616,0.978664,1.08928,1.09074,0.977773,0.981639,0.985255,0.98753,0.989271,0.991619,0.00361545,0.00341414,1.00524,1.00773,0.00341298,0.00331695,0.00351322,1.03053,1.02953,1.0299,1.03221,1.03721,1.03778,1.04043,0.00355651,0.00335554,1.05064,1.05294,1.05686,1.06078,1.06343,1.06682,1.0689,1.07073,1.06737,1.06843,1.07084,1.06619,0.00341427,1.06015,1.05488,1.03765,1.03524,1.0357,1.03715,0.0033425,1.0263,1.025,1.0267,1.01657,1.01662,1.00614,1.00628,1.01316,0.998763,0.994645,0.99672,1.00002,1.00174,1.00197,1.00014,1.00051,1.00275,1.0046,1.00869,1.01214,1.01396,1.01727,1.0211
0.00349415,0.00339215,0.00334101,0.00331555,0.00323132,0.00370627,0.00380597,0.00341965,0.00370333,0.00409681,0.0131686,0.00394455,0.00358434,0.00354843,0.00333268,0.00325391,0.00309509,0.00341682,0.0524402,0.0531319,0.0530517,0.0531324,0.0563262,0.00328234,0.00334037,0.00342407,0.1077,0.00355129,0.00336873,0.0550231,0.0546024,0.0544029,0.0654166,0.00370697,0.0036313,0.00346232,0.120973,0.129639,0.128407,0.125389,0.124274,0.00332557,0.00350762,0.00346271,0.00337718,0.00355482,0.00312607,0.00337619,0.00347596,0.00318867,0.00352925,0.0035161,0.00349601,0.00357469,0.00350303,0.00317895,0.00371282,0.00340991,0.00344693,0.00334984,0.00375225,0.00330679,0.00357692,0.00336723,0.00356999,0.00315236,0.00336799,0.00344521,0.00342649,0.00342949,0.00347766,0.00324461,0.00338096,0.00331748,0.00365845,0.00341037,0.00345795,0.0034311,0.00354122,0.00343071,0.00336344,0.00341163,0.00338038,0.00348656,0.00356553,0.00344567,0.00327973,0.00347543,0.00349887,0.429431,0.437408,0.431678,0.431456,0.425757,0.00314013,0.00336059,0.00345461,0.00343508,0.00348084,0.438703,0.438216,0.00338227,0.00336533,0.00350444,0.00361611,0.00330632,0.0035024,0.00334814,0.00365607,0.00326621,0.0037547,0.00320379,0.00338403,0.00367298,0.0035634,0.00333275,0.00355423,0.0034122,0.00342049,0.0034876,0.00349798,0.00344378,0.00334251,0.00315387,0.0034566,0.517915,0.00334452,0.00324731,0.00345893,0.00350853,0.0034516,0.00343737,0.563578,0.566122,0.566977,0.566858,0.568013,0.56943,0.570499,0.570399,0.586766,0.00321619,0.607562,0.60904,0.608441,0.609136,0.61846,0.00357919,0.00367574,0.00360628,0.634699,0.645993,0.655662,0.00339223,0.00365905,0.0033957,0.00355786,0.00372108,0.683566,0.00362052,0.688998,0.695031,0.00326769,0.00343287,0.00375197,0.00360764,0.00329498,0.00330128,0.752411,0.75354,0.755874,0.759013,0.760422,0.00335961,0.00347399,0.00325582,0.00338597,0.00330373,0.00339492,0.00312424,0.00351576,0.0035025,0.817321,0.00325454,0.833101,0.833886,0.835371,0.00345582,0.846545,0.847308,0.853017,0.862781,0.00342634,0.00335815,0.00339029,0.0033754,0.00307934,0.00341315,0.00329443,0.00342097,0.00346997,0.00341283,0.927259,0.931653,0.933698,0.00346701,0.946386,0.947818,0.00340708,0.0033472,0.00354759,0.0031348,0.96946,0.971568,0.973706,0.97467,0.975461,0.972297,1.08786,0.00336553,0.956192,0.957328,0.963262,0.95969,0.963008,0.963263,0.967452,0.962317,0.968229,0.968229,0.970008,0.966348,0.972714,0.971726,0.974617,0.974508,0.978734,0.982012,0.983373,0.985951,0.987392,0.99043,0.991202,0.995463,0.00333101,1.21895,1.16449,1.02383,1.0228,1.02702,1.02916,1.03206,1.03335,1.03855,1.04,1.03969,1.0438,1.05251,1.05616,1.05863,1.0609,1.06317,1.06499,1.06713,1.06792,1.07169,1.07385,1.06638,1.05968,1.06092,1.0543,0.00340902,0.00337909,1.03781,1.03628,1.02981,1.0209,1.02345,1.02529,1.0097,1.01218,1.0113,1.01012,1.00871,1.0059,1.00705,1.00401,1.00085,0.993099,0.990459,0.992195,0.995233,0.997445,0.996677,1.00173,1.00338,1.0044,1.00487,0.00353321,1.01081
0.00344333,0.00319334,0.00339642,0.00347791,0.00314587,0.00383291,0.003609,0.00342384,0.00337757,0.00351346,0.00351277,0.00329747,0.00352529,0.00395006,0.0032552,0.00363932,0.00319034,0.0526001,0.0534483,0.0540315,0.0546506,0.0555182,0.058267,0.0587332,0.0661507,0.0664358,0.00318671,0.00362236,0.00335735,0.0549836,0.0938108,0.0561276,0.00346061,0.0037285,0.00309774,0.00351087,0.00333895,0.120245,0.11999,0.123652,0.00327283,0.121073,0.00349953,0.00365264,0.00323144,0.00367495,0.0032119,0.00347996,0.00350888,0.00365644,0.00315066,0.00357151,0.00333505,0.00335956,0.00343444,0.0035777,0.00352585,0.00357714,0.0033086,0.00367104,0.0034357,0.00362733,0.00322536,0.00364741,0.00326784,0.0036178,0.0034158,0.00350232,0.00321456,0.00339834,0.00337073,0.00349183,0.00347076,0.0036298,0.00349645,0.00360301,0.376807,0.377336,0.377922,0.00361907,0.00331209,0.00380582,0.00325964,0.00361332,0.41219,0.41357,0.414594,0.416333,0.416456,0.430153,0.430574,0.432155,0.00329655,0.00339114,0.00344133,0.00341232,0.00346896,0.00330584,0.00352812,0.00370141,0.438121,0.433771,0.0034962,0.435297,0.437727,0.439217,0.00335231,0.00356353,0.00335097,0.00371546,0.00332592,0.00335712,0.00334365,0.00354244,0.00334063,0.00347211,0.00322265,0.00345121,0.00345757,0.00351033,0.0032265,0.0034851,0.00323068,0.00328885,0.00358013,0.518543,0.00318641,0.00348271,0.00341773,0.00344738,0.549323,0.551961,0.555479,0.565631,0.566543,0.568187,0.568897,0.568268,0.00333704,0.00349265,0.00336211,0.00365748,0.00314897,0.00347528,0.00336485,0.614898,0.615669,0.618421,0.618631,0.620914,0.00347246,0.00341016,0.00341563,0.00350332,0.00361909,0.00354286,0.00329386,0.00364359,0.671813,0.673172,0.00345967,0.00348914,0.00318904,0.0035205,0.00357442,0.00339714,0.00335586,0.00344021,0.00344203,0.00331835,0.00335854,0.00348518,0.753851,0.752588,0.757324,0.00345545,0.00353758,0.00351347,0.00347161,0.00341978,0.0034608,0.0033499,0.00330495,0.00383103,0.822307,0.824292,0.00314703,0.833326,0.00345706,0.00342061,0.00325226,0.00343797,0.00329371,0.867901,0.871116,0.00380563,0.00340774,0.00380983,0.0033226,0.00355776,0.00351328,0.926524,0.929841,0.930289,0.932149,0.934653,0.0032905,0.00355784,0.00369507,0.94347,0.0034613,0.00346068,0.00332827,0.00382327,0.00346475,0.966983,0.958253,0.960935,0.960801,0.963253,0.961407,0.956881,0.957173,0.958119,0.960181,0.962421,0.961332,0.959484,0.960153,0.962711,0.964911,0.968775,0.970811,0.973178,0.974154,0.974003,0.977256,0.981128,0.983334,0.984905,0.986883,0.988289,0.989523,0.98887,0.992514,0.996497,0.00338027,1.01741,1.0216,1.02331,1.02369,1.02664,0.0030693,1.03319,0.00327431,1.04197,0.00328054,1.05608,1.05596,1.05822,1.05931,1.05819,1.06171,1.06332,1.06635,1.06524,0.00328606,1.04643,1.0452,1.04564,0.00311304,1.0407,1.0409,1.01659,1.01958,1.02149,1.02236,1.0136,1.01109,1.01082,0.996546,0.999849,1.00248,1.00334,1.00241,0.998803,1.00122,0.994548,0.993348,0.987394,0.993756,0.992167,0.992901,0.994549,0.994364,0.994225,0.998234,1.00078,1.00204,1.00844
0.00397005,0.00337011,0.00353397,0.00315778,0.00378896,0.00353421,0.00338283,0.00357705,0.0036546,0.00348169,0.00357579,0.003424,0.00355933,0.00351569,0.00399338,0.00347794,0.00352892,0.00363157,0.00356463,0.00335683,0.0550555,0.0034861,0.0370227,0.0546584,0.0552804,0.00318755,0.00364213,0.00316194,0.00346181,0.00341628,0.00323602,0.0033748,0.00358485,0.00353011,0.00341104,0.00345934,0.00348455,0.113272,0.106359,0.105812,0.12025,0.10567,0.128283,0.129135,0.00349298,0.0034545,0.151776,0.00340754,0.00359117,0.00326238,0.00334014,0.00351465,0.00343881,0.00324065,0.00345592,0.00307529,0.003346,0.00314296,0.00347586,0.00349343,0.00333013,0.00351211,0.251697,0.237828,0.00358299,0.00349123,0.00324648,0.00331448,0.0036204,0.00342507,1.10456,0.331796,0.332397,0.00325182,0.00346316,0.00329785,0.00363769,0.00332153,0.00363562,0.0032734,0.00374264,0.00328879,0.00365328,0.00339615,0.410366,0.410106,0.413965,0.415019,0.416131,0.417416,0.00340114,0.00332966,0.400257,0.403557,0.404909,0.407672,0.407971,0.0034569,0.421581,0.421153,0.42549,0.424936,0.00323885,0.437806,0.438321,0.43935,0.00381088,0.43866,0.00340825,0.00340521,0.00359169,0.00344919,0.00344956,0.0033062,0.00356063,0.00348019,0.462082,0.00343625,0.00336149,0.479122,0.478599,0.00322907,0.00356735,0.00335453,0.00344474,0.00333698,0.00352826,0.00331889,0.00347223,0.00338443,0.549164,0.548362,0.5547,0.552855,0.553135,0.56338,0.563939,0.00311833,0.00369076,0.00342836,0.577096,0.00337105,0.00348966,0.00328963,0.00332072,0.611347,0.613484,0.61439,0.616515,0.616509,0.618315,0.003271,0.00344884,0.00337682,0.0035108,0.00325386,0.00376159,0.00356539,0.00359818,0.00332553,0.67847,0.678939,0.690778,0.692024,0.00362777,0.003321,0.00360673,0.00304498,0.00349232,0.00329985,0.00338039,0.00312252,0.753366,0.753586,0.756412,0.757375,0.757981,0.00332786,0.00338167,0.00336283,0.00356507,0.00347418,0.00325461,0.0034061,0.00344513,0.00341445,0.00335593,0.00341869,0.00356096,0.00331858,0.0034885,0.852602,0.855347,0.00337181,0.00336476,0.00322068,0.00323293,0.00348978,0.00349933,0.00317135,0.00374306,0.00329884,0.930552,0.931742,0.00382032,0.921761,0.92455,0.00346428,0.0033913,0.00329696,0.00355114,1.05636,0.00354916,0.00340358,0.954323,0.94887,0.950413,0.95168,0.957181,0.957213,0.960175,0.958374,0.959059,0.95951,0.960585,0.957889,0.957856,0.958456,0.95979,0.956806,0.95848,0.966564,0.969523,0.971078,0.96975,0.972306,0.00346907,0.0034085,0.984703,0.981763,0.982659,0.986847,0.987556,0.990195,0.993034,0.995272,0.995636,1.00198,1.00873,0.00336115,0.0034832,0.00350826,1.01838,0.00330694,0.00327511,0.00327298,1.05188,1.05394,1.05965,1.05955,1.05758,1.05686,0.00355981,1.06062,1.04052,1.0409,1.04201,1.04259,1.04494,1.04672,1.03468,1.03668,1.02806,1.02737,1.01035,1.01166,1.01438,1.00547,1.00781,1.00754,1.00138,0.994307,0.998319,0.997898,0.995454,0.993514,0.994049,0.997638,0.999718,0.98727,0.988477,0.989641,0.984399,0.98782,0.990375,0.98898,0.990994,0.989857,0.994679,0.996181
0.00340162,0.00356108,0.00345908,0.00360006,0.00335458,0.00333066,0.0032722,0.00337397,0.00332555,0.00327575,0.00317832,0.00350588,0.00337885,0.00374883,0.00335219,0.00408898,0.00365734,0.00364478,0.0034928,0.00347317,0.00353226,0.00374297,0.00351575,0.00350043,0.00339459,0.00350496,0.00328587,0.00354723,0.00341828,0.0033816,0.0034242,0.00335056,0.00365665,0.00334456,0.00336939,0.00321657,0.00328422,0.00346027,0.00335285,0.107225,0.106097,0.107528,0.106839,0.131881,0.132771,0.13329,0.003686,0.1418,0.00330099,0.144829,0.00363845,0.00357558,0.00351804,0.00373175,0.00344989,0.00351297,0.00348537,0.00354703,0.00357624,0.00342544,0.00329652,0.24477,0.00338973,0.0034423,0.00333824,0.00367275,0.00338547,0.00341889,0.00322653,0.321315,0.321526,0.322627,0.322786,0.325526,0.327006,0.327324,0.00341103,0.00327611,0.00338437,0.00355663,0.00347603,0.00336831,0.00339036,0.00331009,0.00344437,0.00359173,0.410388,0.00343013,0.401258,0.400837,0.402198,0.00370286,0.0034131,0.401819,0.402757,0.403888,0.403005,0.0037214,0.414923,0.00373377,0.00328632,0.00352073,0.00324359,0.00340113,0.00344727,0.429701,0.430592,0.434078,0.430819,0.00356237,0.00341968,0.00322525,0.00302978,0.00373605,0.0035903,0.00350787,0.00359736,0.00345091,0.00342385,0.00366064,0.00351913,0.00339518,0.00343921,0.00321006,0.00315668,0.00328509,0.00350986,0.00350836,0.00342539,0.00347829,0.00324372,0.544235,0.54555,0.547843,0.551591,0.559531,0.560059,0.563984,0.00340923,0.571372,0.577023,0.572627,0.0033554,0.00336759,0.00338554,0.00367594,0.00338659,0.00370283,0.00328433,0.00340307,0.00326013,0.00342377,0.00331329,0.00347737,0.00351887,0.00360863,0.00328719,0.00352546,0.00344337,0.00352841,0.00338186,0.00342436,0.00341441,0.00353467,0.00331462,0.00349558,0.00337042,0.00343473,0.0035139,0.00367735,0.00345354,0.00350833,0.00333761,0.00368937,0.00341368,0.00358087,0.00347486,0.00319791,0.00360217,0.00358238,0.0036094,0.00335316,0.794668,0.00356228,0.00339354,0.00384724,0.00343065,0.0034024,0.0032834,0.00349468,0.00330612,0.0036633,0.0034787,0.00340245,0.00338284,0.00343652,0.00353093,0.00344699,0.00356272,0.00354701,0.911541,0.916008,0.919877,0.916856,0.916771,0.915114,0.912449,0.915034,0.916318,0.917802,0.00360939,0.944075,0.946726,0.944228,0.947562,0.949135,0.950047,0.95274,0.952494,0.951686,0.948184,0.955832,0.954749,0.955402,0.952614,0.952886,0.955471,0.955873,0.956075,0.955248,0.956718,0.959447,0.951374,0.954706,0.956707,0.00344145,0.00332181,0.975148,0.978953,0.980121,0.985954,0.986378,0.985897,0.985001,0.00346359,0.991277,0.992877,0.998443,0.999677,1.00216,0.00344496,1.00746,0.00339849,0.00325626,0.00338297,0.00350422,0.0033953,1.05436,1.05619,1.04644,1.04501,1.05311,1.04642,1.05003,1.04467,1.04611,1.03568,1.03717,1.02612,1.03304,1.02882,1.02798,1.02956,1.01901,1.01067,1.01278,1.00221,1.00503,1.00228,1.00105,1.00161,0.993556,0.994352,0.996838,0.995131,0.995766,0.99654,0.994195,0.990963,0.98998,0.985126,0.981174,0.983662,0.983867,0.982134,0.981024,0.985357,0.98703,0.991275,0.988909
