1.7056393800697,1.73626039770192,1.74576169756304,1.70866066498997,1.75164633682549,1.74533101963399,1.7376288061875,1.81144874451051,1.81132721674497,1.81044469591941,1.80962260648861,1.80734419229469,1.80699682927705,1.80593151962576,1.80138059581745,1.80137802336252,1.8025477639043,1.80433439744004,1.80485363024993,1.80452421852306,1.80402593335907,1.80291005957746,1.80214733463161,1.80136282202513,1.80147676188736,1.80122864751597,1.79927905835496,1.79821370877915,1.79736892226868,1.7961987083559,1.79513304822472,1.7941062585493,1.76597521888661,1.74922304701733,1.73575462345788,1.74803813582391,1.76303023408704,1.7908504850397,1.79026586375988,1.78986614666651,1.78940928430443,1.78909489899108,1.78932346357224,1.78968941239951,1.75756941544881,1.74003228025794,1.78490716129892,1.78450843491733,1.78397729158917,1.78369480256107,1.7837301210126,1.78382390130879,1.74872401117339,1.79409520833346,1.79485891866684,1.79610455882971,1.79855184536152,1.80187300911904,1.8036637794683,1.8050512628965,1.7791870775221,1.77092993137676,1.76224350247982,1.75233388750479,1.77574154456623,1.88743238519182,1.88649086492635,1.88352520683834,1.87961244961182,1.87708945200095,1.87350434421149,1.87340992270662,1.8732699344067,1.87316710319812,1.8877865670612,1.88753917783387,1.88771999838622,1.88535520225984,1.8817983365894,1.8701317885028,1.87299363763863,1.87385783602355,1.83229292915364,1.88014581259848,1.87921666969198,1.87871959082507,1.87702675657575,1.87414101237644,1.87136264172528,1.8732167996549,1.87196608550497,1.87551757373985,1.87807551916656,1.8764579197426,1.86470895034827,1.86430607639179,1.8641578570347,1.86463924661915,1.8652555546025,1.87511238516396,1.87410222879821,1.87346328517972,1.87449642402256,1.87367630226912,1.87248841724166,1.8718776515735,1.87143847640829,1.87239925592034,1.83195560287624,1.81966707350721,1.79717809346631,1.79702981025681,1.79602296364819,1.81889319990743,1.83180644563624,1.84058273770018,1.8218677269586,1.79273565245512,1.79250589408803,1.7918237450173,1.79061109983507,1.79078465390303,1.7921219637372,1.79208285049344,1.88454362286723,1.88624549921329,1.89156366322392,1.83654983549307,1.81186619309924,1.74498763264981,1.75654301508971,1.76592790384749,1.77462221735097,1.79274612809955,1.79175957235676,1.79022995973786,1.79021893158699,1.79053556082124,1.78517262667893,1.78376655929206,1.78339315874723,1.78314361697177,1.78216709863279,1.7795345286265,1.77927239854872,1.77761807200852,1.77772169997841,1.77944041615245,1.77967677313687,1.77923842979011,1.77867827638122,1.77885443679911,1.77823674320179,1.7783258333122,1.77857919786539,1.77857841901081,1.77827166134021,1.77816975725804,1.77768193982659,1.77667568883203,1.77822717654397,1.77953403940491,1.78057520855391,1.78021967857284,1.78696754105078,1.78576347596066,1.78605478588531,1.78590063318961,1.78576287429069,1.78534606712549,1.77877965822524,1.77930132366731,1.77945118163813,1.78000756169117,1.78095939354573,1.70116434649991
1.65793737856681,1.73482218514159,1.76152006864397,1.66754016145889,1.75679142091511,1.67986835622494,1.73148749940268,1.81324608625129,1.81279876908827,1.81175085023496,1.82011472249768,1.80944296956304,1.8093194690773,1.80892609894965,1.8231485347858,1.80353926844143,1.80407610836093,1.72684837012252,1.80536404884992,1.8034982557567,1.80340620296322,1.80250113531068,1.8023431416492,1.80122464403148,1.80197213718381,1.80303660107406,1.82933257921775,1.7974738285828,1.8283406589646,1.79574946403996,1.79539242724873,1.92422996947476,1.82973970406754,1.7139757373599,1.71347360861394,1.83262951660058,1.71142003370507,1.79055577729119,1.79058406453029,1.7901224174927,1.78989802901788,1.90821996947476,1.78931851185872,1.79004548446689,1.78915261249207,1.70958737708879,1.787532298842,1.70962141808036,1.70822723135205,1.78945998473738,1.71144002825268,1.79242751539374,1.71153094094573,1.79285111486911,1.79421662587358,1.79633810778855,1.79795901039076,1.71991669180097,1.72050335852048,1.82856996947476,1.72555002803344,1.81058242940047,1.81302921957738,1.73697180155388,1.91760995974628,1.92462538380947,1.89676998473738,1.80214119639564,1.88060101892616,1.87769471156971,1.89614775548292,1.8835470327108,1.88295318417214,1.88650135426938,1.8890775009465,1.80489360392728,1.88900085336721,1.87902758545102,1.87857359002152,1.80275881079453,1.87740618797329,1.87744703516935,1.8018437031252,1.88040495097137,1.87910577873291,1.87732683227321,1.87904318595975,1.87793699282827,1.79948190529189,1.89621743176619,1.88967581010838,1.87800612654301,1.88155362682674,1.87647185760716,1.87495852686659,1.8013522808456,1.80075470297528,1.79974255668575,1.79965370896555,1.88690996947476,1.80012131314394,1.79816133665831,1.90308764895988,1.8744979308482,1.8733099531006,1.8735434264119,1.79876135983801,1.87449858184804,1.79707620770025,1.79721696697262,1.79644341802188,1.90082850520549,1.79460220860552,1.87461170391643,1.79431992424535,1.86828351813942,1.8677370657905,1.79214977467623,1.79374934172085,1.78959956803468,1.79146092116247,1.79019422685421,1.7949130018052,1.7933174342266,1.88270852822726,1.79028076732379,1.8995661854031,1.81834945301282,1.81827204711009,1.72545296021377,1.80120941337128,1.71875004352743,1.79816387269378,1.7937019670044,1.79243179234457,1.79016998079177,1.79017650785605,1.78972002983439,1.8125831327352,1.78349062522037,1.78369937440224,1.78341164926506,1.78393650202355,1.78553579379592,1.81007502904548,1.70299005129249,1.77694771202383,1.78095157105964,1.78074384827022,1.77962859668711,1.77807499061199,1.77970341743577,1.69968003314944,1.79981017739903,1.77986905835361,1.77914770112056,1.7784591716527,1.77817679227883,1.69959004473005,1.79574719295433,1.77961792319663,1.78058920855241,1.78071769511571,1.78030338539663,1.78872308876343,1.78363521051273,1.7888806211301,1.78639125324626,1.7873329453221,1.78619567602919,1.77997572542368,1.78638755085895,1.78654058212844,1.7795565090043,1.78219580801645,1.70254611466079
1.65708700327823,1.73666435007191,1.76086677058388,1.74605328298586,1.83971996947476,1.68158168955834,1.73351425434671,1.81253014223244,1.81338751187154,1.8122125834495,1.81252499377829,1.81053786491967,1.73111003052524,1.80916697706488,1.81017428215399,1.80974427167569,1.80918729160633,1.72696170328759,1.80592253911373,1.80450921337999,1.80371326857426,1.72479986029841,1.80231222498671,1.82724228637983,1.80320986706939,1.72157151479,1.72158627313024,1.90642996947476,1.79983156365385,1.7966144815798,1.79566928040116,1.79572973211897,1.79656168459757,1.7131003805794,1.71302240403267,1.79060425840987,1.79120605433381,1.79186488927975,1.7113400305123,1.78918764707134,1.78938702817251,1.78991764404825,1.7889550429459,1.70896003052524,1.78836536559377,1.70997411620527,1.78755089138726,1.78802648988924,1.70966141841469,1.83222982811636,1.79212874255653,1.71181455884452,1.79387341021123,1.79116239790892,1.71440003052524,1.79614097889901,1.79730106445128,1.79630937976345,1.80109360937245,1.72592003052524,1.82935026822308,1.8297170698372,1.73360668956059,1.82005511810393,1.82873895174657,1.92467234875209,1.80272488584422,1.80158274148795,1.80118514767166,1.88816265034143,1.8022788829082,1.80127338390712,1.80119958949462,1.80179191565794,1.80302647318391,1.80430149739497,1.89117327691753,1.88274647605307,1.89043562889265,1.80311217435213,1.87704545838927,1.80146199785602,1.88010996947476,1.80353619908767,1.8797237355762,1.88114296332516,1.8800018243764,1.89252141541871,1.89154005378469,1.89742963651275,1.80292003052524,1.8955339782567,1.87522262784944,1.8838182558655,1.89258948689092,1.89048527659311,1.8014238731882,1.89686507907301,1.88694519038304,1.80257003052524,1.88697902332109,1.89729522368681,1.80020288751535,1.88950464885751,1.88924335340446,1.87238181134995,1.8940519599368,1.89549339887852,1.798184548271,1.88530973031705,1.797439264296,1.86868205245872,1.90058476830213,1.88471927260093,1.79519709803428,1.86943287737908,1.88113186844791,1.88317349969149,1.79158548272272,1.79381173207626,1.7893112495434,1.79626206460465,1.79098079344589,1.79279972781301,1.8856101823089,1.89210838549224,1.88954946851148,1.8976271456004,1.80496037073698,1.80274441768032,1.80216999958057,1.79392454749096,1.79739531386878,1.79595079036908,1.79207767897009,1.79131678148475,1.78983050466984,1.8162412926032,1.78396204893469,1.81345284818591,1.70675003052524,1.7821933772257,1.78030744585685,1.78018788233717,1.78182156787267,1.80961581384273,1.70199003050269,1.77958432345718,1.7789259005115,1.77993322452149,1.78001098410035,1.78111074081331,1.80408596912479,1.78296678257338,1.69847003052524,1.79973356843601,1.77946157885984,1.77864611481902,1.77953278519984,1.78101401411561,1.70330003052524,1.77963567275097,1.77966876940474,1.78108973382398,1.70023168955728,1.70079835622395,1.78662084884955,1.78527583084816,1.70238335622726,1.78103372366003,1.70190996442809,1.70062924748255,1.70190996442809,1.78490950442122,1.70403914663381,1.7002328793386
1.73335107031575,1.73945139382896,1.66418003052524,1.74764673206678,1.75900123356396,1.82045005758604,1.90459996947476,1.82104272050299,1.8150232912073,1.73369003052524,1.80951102439416,1.81054274827274,1.81056145048613,1.73083336345524,1.81177724632426,1.80819680849453,1.8079337233753,1.80822543856495,1.80656741108531,1.80584219115291,1.72491186029841,1.72435849541786,1.72415986029841,1.80032568854446,1.82339686695096,1.72268227313024,1.80187998473738,1.71914003052524,1.90489996947476,1.83144781441403,1.79964321071158,1.79445000613244,1.8315770528091,1.79123552733245,1.79659919623459,1.83102823557884,1.79130460617658,1.71267003052524,1.79327926107124,1.78872421442514,1.78818450943491,1.83464931942923,1.79008886915292,1.78889301406084,1.78811138667228,1.7859066465463,1.79106288471112,1.78950590032929,1.78942107525525,1.79081325632199,1.79113840856624,1.71263294336143,1.71382255884452,1.79481256439437,1.7955611925359,1.717172449283,1.71958159643828,1.80099601411634,1.80112428585521,1.82693674023396,1.72658588289184,1.81061092138617,1.73375335622726,1.81354349695892,1.82841904448804,1.9046949611539,1.87966998473738,1.80289181433928,1.80272607169276,1.88846191630671,1.88853675780361,1.88986521262949,1.90352940225388,1.80361497897236,1.8027826294433,1.89548080756282,1.80398018944424,1.89803214569954,1.89539321707966,1.89385905670209,1.80325399785602,1.80294932938153,1.80317191261922,1.80376051708534,1.80393482953787,1.87909346334685,1.88651500319267,1.87813491485604,1.88801274527317,1.885856375153,1.89382910383588,1.89373863170168,1.89417462141253,1.80297003052524,1.88894439393185,1.88543787555378,1.88625304004473,1.80238020273321,1.87673299720629,1.90658580343061,1.89574500251412,1.80289888751535,1.80253961126996,1.80202241350067,1.80125392060463,1.7995209540519,1.88382111915058,1.87315022522543,1.87246700657587,1.89727689361185,1.88249292531643,1.79706003052524,1.87137181050548,1.87020749130782,1.79442104132535,1.79580776373779,1.88648902653652,1.79368716257447,1.79463671841508,1.7897402262199,1.79660411201137,1.78996545355568,1.79257610223997,1.79169518696835,1.79276437092988,1.86652524724596,1.91688822561307,1.81617178476312,1.72806828905161,1.72387529801811,1.72266616751896,1.72033032172442,1.79686202212223,1.79506490994381,1.88929996947476,1.79089242620632,1.78911780421433,1.78760273068624,1.78629104625695,1.78657378104969,1.78458042836803,1.70403494091185,1.70337461086149,1.7032127114893,1.70350150735955,1.77965397070426,1.77957937704681,1.78064362540876,1.77957361014808,1.78020712266357,1.70227809563586,1.7767993912651,1.70211003052524,1.80030057939249,1.7812786617475,1.78077528327059,1.78067269519303,1.78191764847654,1.7970963856295,1.78095996100452,1.782116100208,1.79345588000211,1.70263003052524,1.77969171701963,1.78000753443595,1.78466033940694,1.78857699235662,1.7892967211864,1.70083668956059,1.78898768051149,1.78943245024798,1.70118640864878,1.78427667223337,1.78405531886543,1.78522067210195,1.70377405507907
1.73872853995052,1.66177003061819,1.73877850659116,1.6670103684588,1.76287434519496,1.8142062800845,1.81873606033331,1.81415003718749,1.82768800695014,1.81196164289641,1.81820702050019,1.82609288493409,1.82429535796893,1.73180669689354,1.80996449595083,1.73054053279326,1.80929242910508,1.80928641546441,1.72797011982558,1.82398758784338,1.80715490516356,1.80623416462478,1.82601800472073,1.82651844290683,1.72300006038028,1.90427996947476,1.83088757665817,1.80021674537416,1.83077694326631,1.79696921837886,1.90711996947476,1.71953006656804,1.79574253332236,1.79418098880609,1.71462005261366,1.79542452911999,1.79515074318339,1.90955996947476,1.7928772818206,1.71336259788828,1.78913848842156,1.71271002882491,1.71271002890661,1.78777866891755,1.71097004519901,1.7902354515565,1.78961452490745,1.70958004193324,1.79033913603685,1.79139656911776,1.79183729427472,1.79327893920515,1.79411708400101,1.7943662699994,1.83345799907792,1.7964421145949,1.72027707630972,1.72175954943807,1.83073749101211,1.72546618883851,1.7271211214892,1.73034847180606,1.83333507725117,1.81456741467966,1.74124009261072,1.92769725496255,1.80671151294365,1.8848338546333,1.88861305404334,1.89317540888045,1.80352222155343,1.87898148959745,1.80718139654913,1.80411609454579,1.80379024411871,1.89094914664932,1.80553658110334,1.80371190098978,1.80412834773711,1.89840693424682,1.9030250676659,1.88207426077468,1.89326926923531,1.89404841848019,1.80460394314978,1.87913579731538,1.87917693156152,1.87876338206107,1.80282257953008,1.87947131979632,1.80350260842754,1.80310313928,1.80315010734474,1.89934996947476,1.80184369985186,1.88651704005146,1.8022365184862,1.80245714141117,1.8862143285315,1.88667401538474,1.87327146515774,1.87279375164739,1.88351795177486,1.80234745346254,1.80041732262505,1.89208996947476,1.79828493736327,1.79881830595252,1.87488058782122,1.87344456969753,1.89029731318073,1.87284028238969,1.89006602449464,1.87082935657231,1.87116104832285,1.79506556744371,1.8723119721549,1.79381947552633,1.79369466224955,1.79534871021962,1.79150893611408,1.7953691443621,1.79227716080228,1.79505751511159,1.88311186204817,1.88674108968624,1.90580792587519,1.81702715477858,1.81353625649918,1.80419543882465,1.80326509460307,1.79937209373743,1.79592206431408,1.79539703896646,1.79452783192449,1.71185687337134,1.71140355808042,1.81357345472196,1.78790204235389,1.78636943634725,1.78650351132653,1.78350864421793,1.78315410568871,1.78282759062408,1.70343632013362,1.81012785634989,1.70216770424823,1.70155454178263,1.7010772906297,1.7025047972484,1.70135087116306,1.80522463355284,1.7802139149192,1.80105519950927,1.69890669693372,1.69909336357849,1.78269974573728,1.78370077475358,1.70324003546699,1.79662843216102,1.78015870465615,1.77927466744072,1.77970094686381,1.77950341958258,1.7820300185804,1.78222302691026,1.78150486501611,1.7018900339473,1.78457657332834,1.7825862993464,1.78179481210789,1.70304796860133,1.70246215944931,1.70088441329581,1.88934996947476,1.77886
1.73810039953889,1.73855368328739,1.73773775854043,1.70687789564668,1.76247212000741,1.76753621575626,1.81661983360873,1.81641653018492,1.81739845760326,1.81687339329148,1.81665470842611,1.81303708819949,1.81201394604062,1.81006778956253,1.80984244518787,1.77043164537377,1.80847334696497,1.80830349912255,1.76923432738719,1.81199584131693,1.81486354176419,1.81817148543367,1.8217961234435,1.81448180511765,1.80180256959261,1.80141878193309,1.80070821182478,1.80019597733146,1.79937999458201,1.79841841078817,1.79858283099833,1.79835778901638,1.79708838653302,1.79503382879442,1.79496324848573,1.7946740084476,1.79415026044479,1.79362205181798,1.79080539948828,1.7366581323019,1.74829595139827,1.75879034316394,1.76697605987125,1.78758868310537,1.78787550439229,1.7890647041865,1.78946025158477,1.78929205633193,1.78993214237577,1.79054950521013,1.79141480774828,1.7928844948545,1.79374401613036,1.79470409712639,1.79520147786313,1.79569669807869,1.75025888999105,1.76309706151001,1.77936701405411,1.75324326836258,1.76451196258917,1.7785990646971,1.8278351255897,1.81562006761275,1.78288563462951,1.83448989836997,1.80536355600282,1.80483832445034,1.8049645768775,1.80467796920192,1.80438332604281,1.8054463989804,1.80594803846392,1.80523995703333,1.80466470233107,1.81410965755615,1.82050338582798,1.82810303466925,1.83632614936016,1.84302183878253,1.84837608404631,1.85157480382695,1.85289575448994,1.85538917070914,1.85739944995699,1.85816585058986,1.85749540289865,1.85567833468236,1.85373849164297,1.85098921565291,1.80415945043689,1.80379863538075,1.80372619977413,1.84088887517688,1.83005564339428,1.8655976258589,1.86472521366458,1.86393386218405,1.86407384806488,1.86487631122381,1.86548952270946,1.83602279563178,1.82535305426346,1.8125555526506,1.81894600191228,1.82719064610885,1.83652134861721,1.84436121122493,1.87549368438305,1.87502311412336,1.87480489072824,1.87398839341118,1.87235631782099,1.86823756599161,1.86754511181722,1.86965695025945,1.87086134197091,1.82069706513601,1.79464696164234,1.79417660304401,1.79466003559259,1.79387608478992,1.79399062493528,1.79348664460466,1.82349570196372,1.88536480020994,1.89208705803836,1.81434526937288,1.81182442591951,1.8062237948496,1.80394763336296,1.80264997871721,1.79501295008514,1.79416221629317,1.79346387403335,1.74703335724724,1.76185796454026,1.78751873370365,1.78732902615391,1.78650113119743,1.78598615392435,1.78496350623661,1.76113146751458,1.75482972497524,1.74829333898386,1.74034475284791,1.73235658266877,1.7250897681706,1.71899172537328,1.73661710475407,1.75309533351535,1.79300040519855,1.78332515664819,1.78311666344438,1.78318464468902,1.78444663821283,1.78318485456344,1.78284868044379,1.78112229476047,1.78034645465011,1.78052660752736,1.78037443055238,1.77978073323159,1.77994561104342,1.78156669743849,1.7824553386311,1.78217674076556,1.78272892058471,1.78307951268204,1.7825044178472,1.77110476166113,1.77151088383144,1.77180202438128,1.77190435661108,1.77194834345774,1.77202178610987
1.73795648934211,1.7405514034252,1.76448706542561,1.66846065843505,1.76078285979882,1.68278003040773,1.81589949956702,1.81696292782581,1.81967999729842,1.81451163254275,1.82040801611198,1.81091796262339,1.81198329557548,1.81247917243443,1.81057714913457,1.73081690086818,1.80808128210849,1.82839760181413,1.72710002755091,1.80694769631417,1.82862414183951,1.82977210655938,1.82878666339893,1.80230872848512,1.80221511493573,1.8032109535227,1.80044672402563,1.8017233993516,1.79895899112725,1.79929643321523,1.7984711189772,1.79928403084529,1.79861043832199,1.79419048277712,1.79534250178584,1.8340488458877,1.79333865542384,1.79287864557476,1.78912859957539,1.71307100496513,1.71391105656964,1.79156604373441,1.7917130671865,1.79175868608739,1.79214035328431,1.83415998473738,1.79054529219019,1.78973732484503,1.79049755696772,1.71278168020863,1.7139643028456,1.79377036316933,1.7933334779604,1.79624983306325,1.79559519989238,1.83059644301245,1.7183020937879,1.91384996947476,1.83222998473738,1.72670535876081,1.83061319478627,1.81268566012449,1.83339606941332,1.81586038570991,1.74325049468137,1.93096684246777,1.80489586350487,1.80439370611287,1.80594101080644,1.80554687414687,1.80396280494094,1.80550756415299,1.80491608345098,1.88206996947476,1.80381774184396,1.80435279760727,1.88261216014966,1.88254633107545,1.88899144772441,1.8062837877305,1.80605141215803,1.8973035124485,1.8041538290468,1.80309618364597,1.87888268487036,1.80435975858737,1.80326949478709,1.80364770415029,1.88934535455388,1.89031562807718,1.80505998538129,1.80409311950235,1.80412102606154,1.87898119825502,1.80418823177457,1.87970871932113,1.88278404831859,1.90084999368198,1.8024876982169,1.80172199594012,1.88408851850865,1.803373135422,1.80031084119287,1.79984573414119,1.89721996947476,1.7993731351543,1.88335010016508,1.87551838955694,1.87539582312154,1.87518806609507,1.87411097144767,1.87520182111653,1.87577753979683,1.88431612301674,1.88441724050216,1.8725486828604,1.87244364295718,1.87272994134715,1.79417453760907,1.79556296267385,1.79442558123669,1.79553971269788,1.79371569685638,1.79235060526566,1.79423794559306,1.87299395428923,1.90057592634156,1.81199562378175,1.80939879316954,1.82383009244286,1.89210331043941,1.81669179254398,1.71860006636429,1.89935497710607,1.89769497710607,1.71241154269468,1.78980653667462,1.78855382958132,1.78808632938715,1.70706003773118,1.78595993443555,1.78560523236761,1.70458169462104,1.70290836127467,1.78039122824866,1.70224094794088,1.78099497710607,1.77985497710607,1.70055384715304,1.78257891649366,1.78046633624927,1.80407219476562,1.78216585288042,1.70217004626008,1.78096898440556,1.80303687349592,1.70145721754541,1.8036658316,1.78073100944487,1.78025598263846,1.78103650095516,1.79546984375771,1.79464744069459,1.79027327749554,1.79212497524202,1.79207956084181,1.79097607859984,1.78380921016651,1.87264235247782,1.86765760173432,1.70366336347093,1.78830301731299,1.78028040483363,1.78005158768173,1.70229169027895,1.70333835695987
1.73826084291514,1.74010872763842,1.66475003052524,1.752998210496,1.75292497985278,1.76090192782619,1.81619337290802,1.8197180487217,1.73511003052524,1.82177513325534,1.81368746814346,1.81557504477721,1.80991337186661,1.8236048578953,1.80890156006315,1.73397314240087,1.81137041114972,1.8115812074382,1.82714819641501,1.72777003052524,1.82691402379557,1.80572868646953,1.91384996947476,1.803415425372,1.82819121759873,1.80252455494851,1.80311114430518,1.80070467712541,1.79833841528505,1.79947954229786,1.79955040464546,1.79773044044818,1.7967984237621,1.7954019549099,1.71625950268965,1.71573736323415,1.71468520934787,1.71553305015742,1.71401070001898,1.78929428244348,1.79055160952377,1.79168126183613,1.79255267413286,1.83281875554275,1.79141644740434,1.90802996947476,1.79117777440436,1.79171358069687,1.71124907574043,1.71132496793487,1.79091464798877,1.79418286775699,1.71403133460804,1.71637871117982,1.79680438891846,1.79709595740464,1.79860511478123,1.72289003052524,1.80325998473738,1.72744289727855,1.80637819353391,1.8345044459307,1.81427808607015,1.81449146291415,1.83414990512548,1.91373009600476,1.88657120088269,1.88842060861609,1.89732189384248,1.88013376185235,1.87882039995588,1.80574346483755,1.80589732597234,1.80440439420313,1.90647085712949,1.88129308376127,1.80345885117028,1.80407836438347,1.80765284549672,1.90076996947476,1.80457861004849,1.89799269478355,1.80601990998187,1.89301887746274,1.87861998744516,1.89886383284819,1.89715396335587,1.88852304230594,1.87861623195798,1.80551263074037,1.80502634929327,1.88552899847537,1.80380169678924,1.8869295121403,1.80385505686096,1.88651137476002,1.88518582561828,1.89621482105694,1.80396204046583,1.80364086178491,1.87588207664325,1.89434942217165,1.80048599928978,1.89606895323807,1.80287003052524,1.89031883766544,1.8742611830912,1.89937507430411,1.80038003052524,1.90387406455421,1.87376285130221,1.87418199363796,1.8974236566744,1.89937859780083,1.8737041595422,1.79718248094712,1.79733891178726,1.79605819260143,1.79566206144813,1.79482212269953,1.79454216539679,1.79518895391514,1.79360426081387,1.79249594565954,1.86605262263462,1.87386682175916,1.89139652521132,1.81168492334622,1.81972325940042,1.72721092741883,1.89275664377274,1.81694324816757,1.81657768507438,1.81716980385919,1.79279200523603,1.88925996947476,1.71036003052524,1.78824896402523,1.78749727305955,1.81246244172685,1.78567163262282,1.78558413646649,1.88888996947476,1.78367204738337,1.78298890595073,1.80856775736677,1.70095087360471,1.70137421524596,1.78006667476333,1.78149926347846,1.78136649690063,1.7820911203471,1.80247481274443,1.78169117726866,1.70033003052524,1.78411182164864,1.70040605947559,1.70109900084616,1.70038780590494,1.77959751052921,1.78036387137047,1.78164169297115,1.70441003049777,1.78199479541156,1.78182658019457,1.78199357240476,1.78079664003736,1.78840657961337,1.70275003052524,1.7828267549368,1.70267669674711,1.78660840731096,1.70194003052524,1.78429281749826,1.78276464296804,1.78108232680314
1.66203002289944,1.74007492300659,1.76563646943664,1.76355840148558,1.84155996947476,1.68604835620686,1.81791471922392,1.81762813606863,1.81714250365611,1.73458427791237,1.73544151883458,1.82598647700748,1.82510497925579,1.73254003052523,1.8130738511164,1.81213283736801,1.81121186093463,1.8110169290823,1.73004003052524,1.8057484537764,1.82684968147276,1.80650057824025,1.72700773136557,1.82870263342826,1.80435650625929,1.80299402016866,1.80273636013143,1.80485193199367,1.72163003045354,1.80195252064364,1.71808003049331,1.7992762432359,1.71681003049872,1.7996802226491,1.79618027764288,1.79616006662265,1.7957307253939,1.7150358597612,1.79339669765349,1.79305760861506,1.79355076735121,1.79352910547478,1.71374003052524,1.79229119317058,1.79235757231776,1.79197150135391,1.70990003052524,1.79002849644475,1.79094843157506,1.71304512635684,1.71310498897564,1.79402634920002,1.79491258367763,1.83439667952533,1.79711513716518,1.83279523501738,1.79956121405483,1.80232163319836,1.72521390038941,1.72650982924544,1.8109344923419,1.81182548858505,1.81570769469146,1.74003003052523,1.93071375903741,1.9075800438925,1.8925269813147,1.88375406961701,1.88374977955681,1.80648003052524,1.89547369104524,1.80574617872128,1.90934369970221,1.89534563057822,1.89982320254145,1.8844507836061,1.90225745347792,1.88198210759059,1.88135384901678,1.80444336997194,1.8048571965256,1.88972373171747,1.80631784957219,1.80591363866141,1.80615908816815,1.89037700056068,1.89707235149573,1.8040839599791,1.80216109298363,1.8028025324677,1.89255845230524,1.89076006275352,1.8794602391193,1.87929963674317,1.8794020044631,1.87898963648565,1.88989123152529,1.88774936214316,1.87947972406576,1.80252043760777,1.89296417862773,1.80294003052524,1.88694531506352,1.88840868340446,1.88354623181033,1.89047390300877,1.79862002289393,1.79822002289393,1.87580817663535,1.88290631746311,1.88578094496249,1.79774003052524,1.87479396410622,1.7965379323339,1.79630127188829,1.79706021971492,1.79660248094711,1.87271081021694,1.87071407031831,1.79498394452451,1.79618592124544,1.79493314347403,1.79520778652662,1.79303952267476,1.88357585997058,1.86843505184594,1.89565301078637,1.81951769260849,1.81888294950755,1.72445911836903,1.80302022713676,1.79973023980985,1.7994411084266,1.79864518613581,1.71405003052524,1.81693962749828,1.78955998473738,1.71052003052524,1.88967996947476,1.78601575410616,1.7071666972129,1.78572948301069,1.78297980504625,1.70180260849232,1.70125333214933,1.70115637979552,1.70189134413169,1.7824822764075,1.78512626741812,1.77943969085165,1.78110445485246,1.77984178756719,1.69962003052054,1.78194404145107,1.78114633771365,1.80111436843685,1.77840565742748,1.79920489536899,1.78086610213264,1.78001953172252,1.78158043474112,1.78171939798435,1.78232702432953,1.78187244269966,1.78202198085833,1.79168794507261,1.78245393283251,1.78195592838547,1.78178966147456,1.78984548554609,1.78238285861982,1.70338003052524,1.78853996947476,1.70306003052524,1.78124645111133,1.78215684911157
1.66347002289937,1.76593691420497,1.66901268186264,1.76449545254111,1.76475180713484,1.68636168954018,1.81711852301424,1.82462942553685,1.82411634956827,1.81385483329705,1.73654427659734,1.82430717793217,1.81124269110131,1.81052190699177,1.82747859124462,1.73186001958375,1.81156046949864,1.73021002130948,1.80916737413052,1.81073575648699,1.72672002308178,1.82825795166219,1.72899429746103,1.82980906365554,1.80457386786074,1.80399723974975,1.80413875228138,1.80372003216078,1.80025812984664,1.79972434269822,1.79993586962275,1.79979766717371,1.79634237764927,1.79819338955529,1.83392874890194,1.71638005030182,1.79384063696312,1.71443956010607,1.79275041657172,1.792967162585,1.83335493920116,1.83413494250275,1.79300829530525,1.71187503585082,1.71181503594943,1.79214370777348,1.79184274448001,1.79047858761492,1.79147516034083,1.79280393341154,1.79260769999123,1.7936239541341,1.79484036946306,1.7951528727098,1.8339452117197,1.79955349594308,1.79937526228554,1.80400367902894,1.80461366468907,1.83593831579665,1.83313601339072,1.73251003784899,1.81667291022641,1.83276597606824,1.92123388023834,1.91499415279263,1.80599611836019,1.80552940705213,1.89238347159568,1.89575670648906,1.89459842129815,1.80544640210971,1.90763253960817,1.89072843452509,1.88122221183749,1.80539557675221,1.80407634567662,1.80580186999913,1.88368757612058,1.90147443382136,1.89310531243439,1.80604328698919,1.80678474222872,1.88205110510041,1.88654354902847,1.88632474634241,1.88532143091836,1.80343313129188,1.88317468318015,1.80616537135077,1.89677355717446,1.89649661436422,1.80460347250119,1.88563955861748,1.80344259843297,1.8862629133784,1.87958133545612,1.80379096352589,1.8795220268939,1.88765930217601,1.88272656628863,1.88022891188792,1.89261338264283,1.87840757967312,1.87453069994037,1.88323973383078,1.88243283832355,1.88173856962453,1.88182162808043,1.87656221983084,1.87621505019545,1.87550633153235,1.8961687256459,1.87216718249098,1.79978118019895,1.87511375338901,1.8712659943166,1.87149818344388,1.8721026285716,1.87293694656824,1.7967197299654,1.79602477561635,1.87181996947476,1.79646831069229,1.79516385895162,1.86531499370411,1.90719026378365,1.80874936922889,1.80998619685052,1.80733329109578,1.80242525765327,1.72284855808885,1.71644179617824,1.79537046976694,1.79470644824691,1.78910562007567,1.71172005370629,1.7881243706036,1.79026963069131,1.81632476718897,1.70691336396427,1.79008413419596,1.70528034358569,1.7826215237155,1.7824349105885,1.70131137067065,1.78157614443866,1.78149125511854,1.70343004912673,1.80739596201846,1.80626935031551,1.70289003575074,1.78147048840407,1.7031800375606,1.78022316392246,1.78299306386321,1.77819224874881,1.7797126971602,1.7814298042093,1.7031122554385,1.7829516337023,1.78199831076797,1.79781800177288,1.79729756853385,1.79802685330241,1.70253003936503,1.78230861182564,1.7816494187543,1.79366643719711,1.781356018566,1.78078721161096,1.86586996947476,1.7002900366463,1.78216448304869,1.7822388989551,1.70400052860466
1.71745545794134,1.70743837566079,1.69612668497422,1.75960547194824,1.77719095824086,1.78625030185614,1.81718285057627,1.81674485520265,1.81639431908202,1.81463967697193,1.81382228619618,1.8144877204174,1.81175000975569,1.81068978719542,1.80854917874054,1.80909092347006,1.81013244922608,1.81047096333688,1.80905791589221,1.80910369392269,1.77769577001144,1.76697640466635,1.75512833021153,1.80355931609927,1.80414732486567,1.80394207390703,1.80376646101342,1.80286496152743,1.80088528591481,1.8000360953119,1.79993792402452,1.79965702852447,1.79782691298449,1.79655318522141,1.79523667901224,1.79487114880778,1.79461689024748,1.74526790156697,1.75892288969969,1.79312945456803,1.79218698132809,1.79165355549257,1.79151739895051,1.79148755528687,1.79156375847544,1.79168003845516,1.79159829609997,1.79071732860768,1.79116752384251,1.79169625861985,1.79207810283966,1.79282810051956,1.79399084901115,1.7947448423701,1.79732439256337,1.79879012273481,1.80105137649758,1.80321356893817,1.80394270908211,1.81661289265906,1.82120347135184,1.827486844778,1.83103165797824,1.83390224513288,1.83491305161959,1.83578705117604,1.83081334121981,1.82740448081883,1.88768638320272,1.88360899969618,1.88398660421232,1.8811461492272,1.88166402224467,1.88237907741995,1.8828743198634,1.80867192140268,1.80770167251829,1.8068244880874,1.89058268335521,1.89271122354751,1.89355190240553,1.80656480056385,1.80644198581301,1.82596624873667,1.83805024939241,1.88721316193023,1.88723500780336,1.88695865265549,1.88646411089997,1.83421524513171,1.88534312351297,1.88464638972001,1.83580550888229,1.85110341304725,1.84344146416834,1.83519924564984,1.82719369290978,1.81875647754905,1.83266276989047,1.8828467056233,1.88463978123846,1.88467234008543,1.89059719444161,1.87912878503412,1.87956868796993,1.8808952259324,1.88024786140682,1.87912184058043,1.87924984674325,1.87969766373897,1.88031347624343,1.88063904524649,1.89100714953909,1.86823045784892,1.86843288359855,1.87229512102068,1.87271668743377,1.87242240831001,1.83538302271867,1.82472031471379,1.81323119016385,1.79691666640766,1.79692980950216,1.79674124134825,1.82700815910178,1.88146580014155,1.88862990589773,1.81446201335562,1.81215016813769,1.80405818801517,1.80309867362357,1.77001749561177,1.7533898650752,1.79344636257677,1.79214070934661,1.7895469900639,1.78824196621257,1.78859114337909,1.79008922889973,1.79121723627402,1.7895170058898,1.78996940594447,1.74593937256587,1.78209133731847,1.78155346551699,1.7807090938454,1.78039307608722,1.78056811985143,1.78005362826628,1.77903043224605,1.779660977199,1.77986165955168,1.78021880534564,1.77872486623712,1.77925826009739,1.78007567359101,1.77963726833625,1.78019442510483,1.78083907272068,1.73388184976671,1.7450325771321,1.75769830222383,1.78322841919114,1.78211345361566,1.78187368594016,1.78248724187186,1.7833689363759,1.78379336750866,1.78885171968977,1.78771943484698,1.78522304429527,1.78470752455709,1.78235324189884,1.78151366646725,1.78110222626271,1.70414707342517
1.7422893882182,1.66462519632651,1.66846020338314,1.75564244883241,1.84345219737341,1.84350563812667,1.81741930531064,1.81716716667669,1.81495080672331,1.82446581196217,1.82464050997273,1.81460629354796,1.81458825161799,1.81314126856735,1.73502001445201,1.810729625336,1.81100603125893,1.81555151749499,1.7309200183539,1.82709600852338,1.80813145532366,1.72688420484081,1.72721745657457,1.80425425807023,1.80563916564998,1.72344005351566,1.80537058283162,1.72327005488146,1.80096058627829,1.79982226294568,1.80004681702157,1.80147411341634,1.79938600418792,1.71671006316908,1.79615790908878,1.79603972078066,1.79560252046457,1.71648486126538,1.71316084501234,1.79380672792468,1.71341412185745,1.79249680310155,1.71341669616471,1.7927556612621,1.79258769423388,1.79231839353856,1.79308380928795,1.90798996947476,1.79163422969811,1.71338599928554,1.71377009895411,1.79244776716905,1.71773005937668,1.79596605226135,1.79693508924216,1.79834463908681,1.80302603939637,1.80374726777996,1.72442176580788,1.80970165223825,1.80931901775187,1.83448802456241,1.83424108315759,1.83391756154114,1.8344987151721,1.8354791301331,1.88915381613662,1.80951323091619,1.90182975021788,1.8797434991361,1.88492302959687,1.89920446026372,1.80686907739207,1.80665576555315,1.90277996947476,1.81035221040531,1.80745366204265,1.80697466822367,1.89406009403763,1.89493959437998,1.89842061118606,1.80665692806653,1.80545572320682,1.80579239269813,1.80602852879756,1.89210996947476,1.80678284480057,1.89065897519174,1.88594564923502,1.80608411258304,1.89027647258124,1.8835619753867,1.80711396692123,1.88295506758984,1.88240304356778,1.80315055847086,1.80278303643553,1.80341981848186,1.80307746288119,1.87835192884667,1.80500068554721,1.80529367449021,1.90709878529652,1.80584205241138,1.88975407596941,1.88794477519479,1.89631355909847,1.80143380194279,1.8961770695436,1.88297143130857,1.88401445510258,1.88247651280672,1.89985358686381,1.79910189883386,1.89473752420083,1.87336858643529,1.87253959244256,1.87059272258893,1.79634585156587,1.79719327899921,1.86753996952016,1.79657932698309,1.79602035555017,1.79572601911614,1.86844014212806,1.88871905698789,1.90639543102722,1.81662553387544,1.8178696837059,1.72663004322319,1.8032265094569,1.81879065422714,1.71964180131267,1.79446647561121,1.71513656235347,1.81758701936721,1.78918790097331,1.78784995305574,1.70886336665713,1.70831669989643,1.78495571858325,1.81443887679588,1.70413011363641,1.78268202918423,1.78183644161163,1.78170457908718,1.70392004788822,1.7815597112835,1.78186716650235,1.70386502566115,1.78085241696528,1.77999311463541,1.78143781612012,1.80103542476336,1.70207259733148,1.69901746387779,1.78098648481238,1.78097959866881,1.79879581287325,1.70390711496291,1.70377331787253,1.70281087680752,1.78289480707593,1.77829247562104,1.70332004477778,1.86503996947476,1.79643252730889,1.78413463899182,1.79061925754454,1.86680996948568,1.78258839106221,1.78770029933302,1.78834899944613,1.70452003887176,1.86145996947476,1.70458669000715
1.74167269226798,1.74059347588142,1.67149952865012,1.76456435301533,1.76176239509873,1.68923003052524,1.82410671492278,1.81958555037201,1.81603072726079,1.81673741875883,1.81646562745168,1.81557533087682,1.81598892639223,1.73662003052524,1.82401538421606,1.82993741936278,1.82910359804091,1.90771996947476,1.8094886641638,1.80965904465643,1.72918003052524,1.80964595113577,1.80891021895251,1.80474309712254,1.72563490513194,1.83083250475179,1.8307637599026,1.83111226788659,1.80058072758032,1.80078273144127,1.71979003052524,1.79971396897061,1.71847003052524,1.83344865391223,1.79669123687238,1.71714003052524,1.79561318122037,1.79587300326707,1.71454410705359,1.71555699109828,1.71415019712236,1.79500373175854,1.71284336275845,1.83662996947476,1.71465480954351,1.71379349806604,1.71357731510949,1.79223468003294,1.79294451894631,1.79397820265692,1.71331400111672,1.79686434540362,1.79610981365853,1.71725893729951,1.71760344694082,1.71841375217377,1.72360923635184,1.72519521523003,1.72540004896805,1.80656413717645,1.73033003052524,1.81408990303554,1.81492505622404,1.73929452945142,1.7441003863551,1.90728766734061,1.88673928855824,1.88205125051791,1.88251951937018,1.88268381382731,1.80754668956059,1.90003182439585,1.8828538351528,1.89916909762728,1.80612003052524,1.89743134455949,1.89682038641164,1.80730444306146,1.90071647272164,1.80553436083067,1.89993564536588,1.80812913599687,1.80640246816369,1.89645974976646,1.80684876734992,1.80729340291323,1.89287186194772,1.89344075148113,1.89919750637309,1.89805128256203,1.80464003052524,1.88077964747083,1.89690598594614,1.88310491652015,1.91554056581147,1.8793322941439,1.87894077985412,1.8046290745314,1.89378884223594,1.88791074536366,1.88048727227171,1.80140902192514,1.87626632936362,1.80456777297143,1.80296274855563,1.80240291310388,1.80317539753222,1.80260807207828,1.8026401610977,1.80034301586894,1.79965665958937,1.79811552737711,1.79915332835256,1.89079400269062,1.8925545290218,1.87385766236933,1.89411699690193,1.79759681834393,1.79744178453312,1.79759967159657,1.79565473136265,1.79564354637002,1.79501258590906,1.79417536982604,1.86824015643768,1.88951046789713,1.91103962789087,1.80886182985777,1.81811629977354,1.80627026901328,1.81937456883823,1.80149666636099,1.81825769553635,1.71644056278667,1.71572294710291,1.79196051132984,1.71100387947907,1.78610463188552,1.78520103373876,1.81727698159713,1.78875074619253,1.70781003052524,1.78231832776395,1.81261479970986,1.78231417770871,1.90037996947476,1.7818041079736,1.81091472127909,1.7829656886987,1.70568502566466,1.78130697675168,1.78127191290222,1.78297074371707,1.78293843317004,1.78500924640866,1.78358547975846,1.782089383987,1.70024003052523,1.78236560071036,1.78209752490896,1.78263603500504,1.78283225265068,1.7822586168632,1.70379941598738,1.78233998785661,1.79720986965725,1.78380198213552,1.78148365652896,1.70443003052523,1.79199460106856,1.78470661280064,1.78576491199433,1.79150179264637,1.88261996947476,1.70392003052524,1.78528171824623
1.76810677485949,1.76711521210059,1.67198137064461,1.67410442552419,1.76648247510212,1.7382521306533,1.82176120908984,1.82260676624873,1.81693622153246,1.82406494333701,1.82519066360956,1.81495361122936,1.73343003052524,1.82619947756269,1.81010310133639,1.81134902431913,1.90276996947476,1.81178720502317,1.80997129585013,1.73039003052524,1.81393312746448,1.8101224836056,1.80668219626378,1.72457090513194,1.72573398137703,1.72593365739284,1.72554664254195,1.80551932822034,1.72229093294877,1.80111123299239,1.8014037505788,1.83264788828423,1.79947344648596,1.79752582747764,1.7968121103617,1.79797928897571,1.79963577844549,1.71740676319354,1.71623863671554,1.71485602635522,1.71468691207492,1.7142813383536,1.79418996947476,1.7164242460475,1.79421998473738,1.71440398177616,1.71422944692491,1.71494528613708,1.71499069005699,1.79337459058525,1.79437696153903,1.7957686670495,1.71675003052524,1.79756820023745,1.80100945359363,1.80141560365233,1.83691992508265,1.80109998473738,1.72667776854935,1.83351424192436,1.81017501811594,1.73415003052524,1.81625763332055,1.74052518696804,1.9386508265026,1.95174801380909,1.89649458028474,1.90374365696857,1.89361629897018,1.88193964466308,1.80777335622726,1.89248387598125,1.88513347158685,1.88611976093056,1.90760528329848,1.80896003052524,1.89704807587069,1.80888577356036,1.89622493707285,1.80685225296686,1.90002573201996,1.89951209265557,1.80628232367578,1.89170613028661,1.89882405889645,1.80729577843579,1.80699074654391,1.88709243953273,1.80648003052524,1.89124807856055,1.89036772749781,1.88054218546707,1.88029801188437,1.80592496639262,1.90649488353144,1.89260272790404,1.89275603530263,1.87886960034803,1.88044168112344,1.88104813630168,1.88094119335264,1.87986090997432,1.88031236161408,1.87660153893894,1.80332681018253,1.80328321468996,1.87526126814719,1.80237639891015,1.80408941644722,1.88378996947476,1.79980379390865,1.87613732956307,1.80023611084621,1.80008892957491,1.80011836182592,1.89344876111578,1.8700435917682,1.79787775518081,1.80202914498835,1.79722762075298,1.79632843737905,1.79507983237949,1.7959354706037,1.795415887323,1.79591732281937,1.89243690965967,1.89512630315714,1.73512003052524,1.81063683079893,1.80525851130028,1.81823336200156,1.81737387435242,1.71985003052524,1.91344996947476,1.79389250458614,1.71603389176228,1.71186950291294,1.78992048355546,1.78917590767777,1.7877716521337,1.70855344502646,1.7841343211048,1.7835123900203,1.78409351961833,1.78176737109319,1.80983545727519,1.81046151977989,1.81114184813959,1.78181522496314,1.78113792949671,1.78029407970506,1.78020271932567,1.70299335622726,1.70236668956059,1.90628996947476,1.78272135913686,1.78239997849924,1.78227648132935,1.78232999008581,1.70302941673704,1.7032672298061,1.7828676488352,1.78342188185714,1.70351722907572,1.70362341598738,1.79593592935171,1.79631459740789,1.78150670587782,1.78084373315273,1.78363702196959,1.79189761300571,1.78757103870778,1.78887763789314,1.78671973561461,1.78347767737967,1.78564615887027
1.66158882063579,1.7682235949999,1.76817884717397,1.75943820997299,1.76594951244154,1.76990260930323,1.82389050699999,1.74006007146823,1.81764635155329,1.81804172875458,1.81797848184292,1.82742093534158,1.81471770730069,1.8152072992536,1.73568501709819,1.73446501711208,1.81663819206557,1.73079002012902,1.811007561524,1.83128367744505,1.80755395212672,1.73008002509998,1.80704559690433,1.80635758586623,1.80485123293497,1.80484190780085,1.80474299464595,1.80409642679873,1.72301084506873,1.80060385302572,1.80126759023275,1.72132747629643,1.71990036972352,1.79772936187223,1.71969002450377,1.79898671519611,1.8366294966814,1.79910781206969,1.71463075984271,1.79539193138762,1.79298391732582,1.79259621543287,1.71354724380239,1.71305922934246,1.83914996947476,1.79325096409354,1.83772996947476,1.71387735676447,1.71403793064024,1.79282658580023,1.7166100333758,1.79421215034137,1.79353922433078,1.71855324251859,1.79965531894067,1.72291471703627,1.72257211021754,1.7227147173335,1.8361560612555,1.80820944459504,1.80974010239089,1.8180404713859,1.73409759939593,1.74023404794815,1.74459833314525,1.93008109573752,1.89523669803667,1.89642285795265,1.81119652305859,1.80969606580271,1.88370331637666,1.88357111291361,1.88256423766335,1.8085526623453,1.88312760716708,1.88374963318073,1.88303227246914,1.89482377194961,1.88275858870064,1.80610053642944,1.89628734873126,1.80696182640163,1.89008996947476,1.80788637586878,1.80753674998553,1.80764468547918,1.88907701157698,1.90209696050418,1.88223766696626,1.8071822561044,1.80567081766157,1.80779530110206,1.88821986061614,1.80585815191042,1.89497386266302,1.80677221718952,1.88154209295452,1.88257777751385,1.88233877840239,1.88202400468858,1.88199158444208,1.80358239827797,1.9026368685506,1.80524532047024,1.80388184788586,1.80361108697572,1.89670944337259,1.87660902506514,1.87557949133829,1.80267695568813,1.80217159065625,1.87213262464908,1.80162193343618,1.80070532085541,1.79994839128766,1.80057483094498,1.79998424641709,1.79905098832339,1.87551996947476,1.79829815645201,1.7969721808523,1.8724499695132,1.79631673150032,1.79544860524421,1.89355465133558,1.89203788853771,1.90762206645966,1.82042525577201,1.89104996947476,1.81969981699423,1.81841218934909,1.72325005971999,1.79938556964237,1.79779742389403,1.79459760647585,1.71511281164701,1.79169226320977,1.79081580337433,1.78961571189156,1.70844144401366,1.7071263226518,1.70676944502427,1.78495001946363,1.70584118865761,1.80993366978186,1.78293297581177,1.78299194915844,1.70404092339308,1.70360083694323,1.81020228980857,1.80830245610301,1.77951274541089,1.78246436108363,1.78164385488407,1.78135902708896,1.70453510230277,1.70347509582404,1.78190609621632,1.78202084075714,1.80235437593471,1.7045334166985,1.782481659407,1.70354003541088,1.7825185354747,1.78221280494383,1.70413003224206,1.7035300323066,1.78464635954775,1.78256819874584,1.78252298362911,1.78163797764077,1.70875005802286,1.78892204792473,1.78445799026039,1.78540634357157,1.78586496810922
1.69375596246878,1.70458403639853,1.71697852931941,1.73303473941841,1.76681613259772,1.76802224991807,1.82700635445557,1.82396668783579,1.82023289954107,1.81819422497255,1.81766030161363,1.81712298873976,1.8164898188595,1.81608746841795,1.81477398624577,1.81503869949951,1.81671471286094,1.8155176500153,1.81326097264343,1.81349392359999,1.80647352043151,1.80718869635373,1.80628386732623,1.80588602118715,1.80559820494,1.80544443119391,1.80510753879496,1.80455296842527,1.75180471280399,1.76315052611928,1.77703766646298,1.72095505379715,1.72041210238042,1.75346757318445,1.76884320236943,1.79709147244019,1.79676176778346,1.79756496295514,1.75574799690426,1.79244844495629,1.79306240343124,1.79190220361879,1.74725424889756,1.76313648082488,1.79287635301228,1.79243787119146,1.79295716568503,1.76133887555449,1.74518307851873,1.77086241277281,1.76237431235993,1.75510738562434,1.74661866283447,1.7361130809532,1.7719978888757,1.75979549056656,1.74897239437747,1.76695560009064,1.80895265373,1.80858129320406,1.80906803866744,1.82181762013461,1.82214550658203,1.82126583677283,1.83121401272346,1.89584291211343,1.89649578489957,1.89709295204021,1.81042286510803,1.80996145839375,1.83686264660079,1.88481935925548,1.8833925382101,1.88101630118372,1.8798063798259,1.88098039265768,1.88235810373902,1.88867997622784,1.8366484923268,1.80525571773943,1.80500093888604,1.80654028753302,1.80791040599179,1.80842558352369,1.80810045954984,1.80778550489416,1.89100270388835,1.89129110626818,1.88373761432005,1.82168521609229,1.83431918995617,1.84368894411202,1.85067032775355,1.83414387949402,1.89099754752253,1.88910415870468,1.88551161979574,1.88392440607685,1.88371322408025,1.88434398703553,1.88579070515849,1.89199864795564,1.89624830029069,1.80419527867679,1.80387097212675,1.80363015340541,1.88609655873782,1.88315793213985,1.88321702724885,1.80260940242201,1.80228557432164,1.83495490430966,1.80174880417276,1.80117614444805,1.80126516338029,1.80134604601172,1.80045436180593,1.7994970839752,1.79915996396461,1.7991405491627,1.79844264602977,1.79837190379202,1.79737215820662,1.82615860007725,1.88846493667311,1.89125851012264,1.89245544357488,1.82087623795825,1.82077212387436,1.81446235733283,1.81163564786561,1.80859378573642,1.7983516422238,1.79718000021094,1.79537688199307,1.79373397985175,1.79179504299031,1.79086803783115,1.79009242332322,1.7534282662144,1.73533104683328,1.74621095525749,1.75870661907193,1.74180389351128,1.78212459055419,1.78258639621375,1.78288112822175,1.75046363194699,1.73272448340563,1.75038069085255,1.79185741930734,1.77917978335958,1.78016939728261,1.78090163093917,1.78121280306398,1.75504842328277,1.73956836640579,1.78099723926146,1.78051719399999,1.77957827857879,1.77833022920255,1.78001974399567,1.7803951458692,1.78115945425057,1.7817676039735,1.78140753988513,1.78112193805511,1.78120852823564,1.78088522205004,1.78043575837305,1.78064261413666,1.7820280984047,1.78534985940179,1.78477724467126,1.78432507616444,1.78409947996869
1.74610996947476,1.66806829873244,1.67267486439141,1.67632711757257,1.7671448652574,1.69171003198373,1.90304996947476,1.82084733586123,1.73816827046144,1.73912151212234,1.81667480305686,1.81658376342881,1.81709727911251,1.81656790348863,1.81296148251705,1.81179034680097,1.7313300320031,1.83180521264164,1.81204372082244,1.81299819732207,1.72959002620145,1.81025465086044,1.83333544013786,1.80608627732774,1.80662548566267,1.80632995025604,1.805560936937,1.80421041113371,1.72442060242916,1.72350837462522,1.83492996947476,1.72116412196004,1.72043904097705,1.71887113167275,1.79713973923982,1.83709996947476,1.71940004618522,1.7970097129147,1.71668064641257,1.7910815637615,1.79372996245519,1.79700955093782,1.71697406844708,1.79541640263675,1.79513554465641,1.71471005077527,1.79552649432468,1.79332285254217,1.71790974799252,1.79528262031392,1.79465587798129,1.7167645847062,1.71649921661065,1.7182714852478,1.79810827975857,1.80300084058355,1.72352616557353,1.80492722363919,1.80832653241125,1.80885019672061,1.81228079194363,1.83529061875996,1.83497524823272,1.82169640633265,1.8362493128823,1.95292827693481,1.80724361862511,1.89318996947476,1.80933302877556,1.80899129586351,1.80801833952238,1.88539684843227,1.88536448558418,1.8850740075656,1.81020290473522,1.89337333336462,1.88253822928963,1.89652617942786,1.8075201208139,1.80608052958736,1.80472503462273,1.89276826426728,1.80827119452655,1.8093684582466,1.88614024974032,1.80706562640621,1.89354177243339,1.89454000734403,1.88376781590661,1.80508351394707,1.88192194735206,1.89367092879329,1.90664902815508,1.80604403180312,1.89367196498787,1.89446452502685,1.89335055275204,1.89762610072724,1.8969134243406,1.88287079842405,1.804052279087,1.89741190422641,1.89626536697438,1.80348514027743,1.80377943906942,1.80339522560604,1.89010021996548,1.89228357299574,1.89218736802178,1.80266797695502,1.80149084410756,1.89391191466441,1.80199810319581,1.80031068675831,1.88263270295509,1.87360725125705,1.79970691016151,1.79832646536748,1.79758052493646,1.87577995871092,1.79781744318012,1.79770476749478,1.79639177143975,1.87136886521233,1.87549753728863,1.87340672865376,1.89599945879638,1.82026536880699,1.81919313622343,1.80442036319598,1.80463547465603,1.90628996947476,1.79735809916903,1.79684160422464,1.795600288796,1.79489174577651,1.79102812181286,1.79078986719569,1.78959092421932,1.8182365254116,1.70745295055336,1.81451980839194,1.78309885527774,1.70598947651618,1.78242654792468,1.78273768687888,1.78315843613053,1.78312112563102,1.7022943308729,1.70482627808247,1.80742699038936,1.70351003554567,1.80948547761323,1.78166120005811,1.78185643595081,1.78188408343256,1.70535158275676,1.78061411333307,1.77997653155717,1.78163957706713,1.80314316036343,1.78028255428181,1.7811539966328,1.79918879080167,1.78446528135561,1.78348727459889,1.78337785380855,1.70613827707914,1.77946958481651,1.78888990769246,1.70610004764253,1.79343244409479,1.78642799546579,1.78591727392968,1.78332728680878,1.7836565427793
1.66820003052524,1.76809167467489,1.76709679742539,1.76900459113181,1.76623202815936,1.85036579235595,1.82728193872393,1.82061054759081,1.82105488197296,1.73856027044051,1.81978847939512,1.82737752855747,1.81801128265827,1.73661003044554,1.813403410536,1.81369577341005,1.81391269565667,1.81259524264723,1.81144827218374,1.81109378237381,1.83143574882697,1.72958310355614,1.72972843825096,1.7304021740152,1.725050517477,1.80747192157316,1.90952996947476,1.83375840495463,1.72449237450807,1.80350996947476,1.72292003052524,1.80080998473738,1.83394910614216,1.79627670863519,1.71858502289393,1.71752502289393,1.79770787952536,1.7970485403781,1.79602871798996,1.71624459859595,1.71605043192929,1.79653730699976,1.71690747694267,1.79499603114766,1.79437484796308,1.79342426213603,1.79539663531283,1.71703740292009,1.71666467992795,1.71638655361289,1.71681205861425,1.71876577719095,1.7946464692795,1.71960659308432,1.79928112067254,1.83685794641154,1.72170628875889,1.80450886362225,1.72883003052524,1.80957890494323,1.81266076762893,1.81401942347194,1.8177007365967,1.82299456428251,1.83422884985329,1.92824981996965,1.88958587089068,1.80784563206506,1.80857093787069,1.88624307431024,1.88558120297212,1.88626443569682,1.90384727298717,1.80866771134245,1.90806979370725,1.80971003052524,1.88276510871761,1.90024520932769,1.90698909794922,1.88637132122003,1.80931863219694,1.88800736999748,1.89360430468477,1.8081809691541,1.89556695359766,1.80767149401065,1.89205954898597,1.89730023964198,1.88232315755952,1.90064930811214,1.90029494485374,1.80783351433208,1.80737464091441,1.89285955951349,1.89313035625837,1.80798003052524,1.87856046718867,1.88318619053036,1.88290994032583,1.89363495291639,1.9075266953722,1.80154003052524,1.87846789909166,1.8027875643426,1.80516010067378,1.80371639633908,1.8036863795011,1.88732963642256,1.88411231998939,1.87711131614122,1.80421992020098,1.88547803954774,1.79994398879567,1.87512996947476,1.80114512797527,1.8009621468268,1.80042492410431,1.79951496705416,1.80132242225591,1.8762893277464,1.87643238133927,1.87797033166814,1.79642655896991,1.87638002092378,1.87648648766035,1.75621003052524,1.90004385443582,1.81249480207484,1.81120099401852,1.82120812646215,1.8214055614136,1.82167161608245,1.72012086410543,1.79931883846786,1.79447932492579,1.79372230858941,1.71246722907495,1.71078141598657,1.78824765689165,1.78659987581358,1.7868480570184,1.70656853261907,1.70627531379084,1.70590713439138,1.70459651378397,1.70331121225593,1.78254779229769,1.78305181629247,1.7029802188367,1.78058998473738,1.80674027559459,1.78107090451951,1.782230903659,1.70555003049659,1.78087143130685,1.78127825595534,1.78167010288197,1.78606307032672,1.80284532422311,1.70222003052524,1.78122045669607,1.70548386130582,1.78115992638785,1.78238545654752,1.78276727724982,1.78214330394619,1.78307469483284,1.70542591853888,1.70855587853843,1.79415910981559,1.7936347065551,1.70546003052524,1.79355451707608,1.78482823203407,1.78672165692416,1.79130052995191
1.85113996947476,1.67095502293313,1.75202876073523,1.67765991540419,1.85127996947476,1.69516003052524,1.82805223520631,1.82917176441311,1.82154086572236,1.82978523670715,1.81762758070583,1.81634896650567,1.81473594111188,1.81658786063803,1.81645244604472,1.81457304645118,1.81397352271184,1.8133205301206,1.7340400304998,1.81261904196719,1.8103582728636,1.81053696405684,1.80964302417852,1.80935989642479,1.72708585827641,1.80702277527284,1.83226651741775,1.80317307420127,1.92379996947476,1.72452003052524,1.83608996947476,1.72023003052524,1.8029568935863,1.80153558045397,1.80206701737718,1.79785758269622,1.79659442131756,1.79613549314256,1.7954853572553,1.71593709859595,1.71529793192929,1.80113558462346,1.79536924615787,1.79496520639574,1.79484843442062,1.79421197581808,1.71453003052524,1.83793939434603,1.79428995474313,1.79554279147264,1.83697996947476,1.71722520917562,1.79820957167808,1.80192805045767,1.79990843282249,1.80299285481813,1.83819738952127,1.80631386833425,1.80954086162312,1.80810780454631,1.81170730568345,1.81303380091547,1.73831003048172,1.91450996947476,1.74760501761434,1.91937456319089,1.8904795410386,1.90419986558566,1.88686816755712,1.88749576100688,1.88415767684417,1.89964548834619,1.80975498776216,1.80989735436349,1.90052882934842,1.88303025321025,1.89335394692286,1.8861623071997,1.88752697544895,1.88785314765724,1.80958724513278,1.81051765953585,1.81044236306368,1.89735880870986,1.89341572154316,1.80881095552009,1.90296882089464,1.80812168956059,1.80760835622726,1.9003349674574,1.88210448678484,1.80722482294085,1.87889051081411,1.80433565641449,1.80627727224197,1.8902302160791,1.80641835621047,1.80721168954378,1.87986681663366,1.87973414663362,1.88072765164777,1.89772671559528,1.88091914605375,1.88207872174736,1.88119004493345,1.80496637950214,1.80332215481679,1.89505768938745,1.80277003052524,1.87876488231807,1.87699971773437,1.80419034026787,1.80037225509619,1.80006835788349,1.89995102374142,1.87723422446731,1.79977315132468,1.79837130690666,1.8759702417142,1.87598560390058,1.86960154365646,1.87577698395472,1.87398064573939,1.79628003052524,1.87149208777158,1.87152456752458,1.92642729791157,1.73248668956059,1.73131335622726,1.80598433375099,1.80444042276713,1.8038923956304,1.71972349647242,1.71959286410543,1.79468115542455,1.79385782194003,1.71290141598667,1.78874996947476,1.70803003052524,1.78728969128633,1.81809580668038,1.70683107784197,1.7058418659524,1.78577832005201,1.78171226595894,1.78198172771716,1.70311168956059,1.70263835622726,1.78477998473738,1.70500392341039,1.70391862114558,1.70298759757786,1.70264714242224,1.78310130061604,1.7820030129542,1.7821247886335,1.78185566803138,1.78081483555584,1.70359003050242,1.78427861052932,1.70458786130582,1.70617849646523,1.87350996949793,1.79852643209277,1.78474610385723,1.70519962342139,1.70451807233145,1.79480334955015,1.79638860622007,1.79582882255226,1.70363003052524,1.78824312444315,1.78526770258624,1.86786996947476,1.78871334066613,1.78266102422733
1.74803876788077,1.67025502293292,1.75124516652026,1.67654980025619,1.68243074907281,1.93854996947476,1.82691677106907,1.83078368372345,1.8332560864038,1.82926495619934,1.82184641085312,1.83113739760957,1.73827004961458,1.83105113178213,1.83039939732004,1.81706569116326,1.82981305938504,1.81518915046745,1.83393001783912,1.91169675484696,1.91136379523179,1.91120614817296,1.9102332254352,1.83570891242014,1.807880946042,1.91007996947476,1.80746057576493,1.72684911728152,1.72632237753558,1.80632799511989,1.72415002861739,1.80373996947476,1.72064143215005,1.7202471372786,1.71980125432796,1.72124025629774,1.79691185284783,1.7965050214571,1.71763003598189,1.79584531009736,1.79556409281255,1.79415114670282,1.79569844412864,1.795675035598,1.79605849317831,1.83692902769899,1.83660902300684,1.79647363484192,1.71631004317428,1.79648322660358,1.71758003123771,1.79841384392123,1.71998336287895,1.72147669629116,1.80039433523283,1.8055131214291,1.72457136702634,1.72389502684656,1.80901962161542,1.80950588501035,1.81297253951079,1.83740694789984,1.81831919503225,1.82127127136185,1.74566501760469,1.9407271648558,1.88309165595587,1.89132258072475,1.89304589419583,1.81038607196415,1.81051942980758,1.88635162318377,1.80954895810303,1.80945492101771,1.8100523486034,1.90704664722385,1.80863381278999,1.88676976159877,1.88737503954242,1.89559498534809,1.90168906561029,1.88805143574733,1.89591360425522,1.89465747720605,1.80896533464541,1.80922030976088,1.80934923712576,1.90672797881112,1.88277652487604,1.88348300781831,1.8079278897566,1.808313061775,1.90689944339803,1.808521037971,1.89835950484285,1.9004321640534,1.87968392103994,1.88143376113569,1.89581678737048,1.88428251646503,1.88274827206833,1.88318692040922,1.91046317845866,1.90017332665889,1.87829092947872,1.87749644378541,1.87774538701158,1.87720676162828,1.87852129552648,1.8792040963157,1.88658410748441,1.91121565539595,1.89213400530317,1.89235840045407,1.88539185272117,1.8960739258117,1.88557643590821,1.87818221758486,1.87633039313972,1.87522357504637,1.79918186497412,1.87552103334484,1.87575439818961,1.8723183040372,1.8723290737086,1.91647920578393,1.89979727527612,1.81397749474252,1.89649996947476,1.80647121129246,1.80481858669712,1.80462981300454,1.71815286366805,1.81962457591664,1.79400976312405,1.79255386818464,1.79222259032537,1.71028003366315,1.78930017135575,1.7877788389627,1.81724246932611,1.70960184910428,1.78811999453457,1.81823772424454,1.78312000882944,1.78162156088452,1.81109686185191,1.81597265680585,1.81412861332228,1.70394478619475,1.80895841654608,1.78268667082008,1.70301504863391,1.70356301228459,1.88299996947476,1.7819552606065,1.70355004628149,1.78166453607526,1.78212264950005,1.7841097568044,1.78362924837926,1.70481986120534,1.78245703143343,1.78179716514946,1.78369767521757,1.79944112257773,1.7043721810041,1.70651022023351,1.7859490942886,1.7841279973487,1.7926877842332,1.79284234264393,1.78322189825852,1.79194845873496,1.78268215499412,1.78351156570831
1.74841358422128,1.74918700676542,1.75004346558111,1.72781695639892,1.71576222544332,1.84562450637285,1.82656971331627,1.82770568464403,1.82586281901649,1.82612927751125,1.82490823067346,1.82748147285637,1.8256823246173,1.82840095280538,1.8285791830269,1.82513636892851,1.82780629221613,1.82465282790173,1.83095030133969,1.83536102262956,1.83417021349072,1.83387731407626,1.83395935034698,1.8219150198711,1.80775233051476,1.80786246061028,1.78146151668322,1.76722314359371,1.75607946746209,1.78563109852555,1.7867819808805,1.78823049350347,1.78896479803362,1.7890940020721,1.78887022677782,1.78857273862816,1.79439385641448,1.79468463931793,1.79506499312514,1.79551674955034,1.79527902604084,1.79528157931872,1.79577565796147,1.79612874659011,1.79628447295833,1.79613237180028,1.79625881965823,1.79612615200941,1.79562644408373,1.79575483077922,1.79578040944372,1.79658423669312,1.77121768433115,1.76222206924964,1.75347824241388,1.74426763053434,1.72573205437309,1.72610914177336,1.76450387976682,1.80974219551059,1.81090865922154,1.83381648209574,1.82961768575791,1.83272768662954,1.83319032401675,1.8986669038936,1.88044026793917,1.87913214287528,1.87914881216352,1.87917134441773,1.87885469426514,1.87806334971545,1.87744302002167,1.87735567996701,1.87788538977734,1.87853614275845,1.83894243112694,1.89085343268506,1.89268791839468,1.89594957276828,1.89327004875922,1.88844795279666,1.88791763186553,1.89104485737428,1.8459316063376,1.83609492458727,1.82375885680278,1.8836469166743,1.8843432050658,1.88525754846227,1.88715217830989,1.89121190277661,1.89066598315406,1.82862512820114,1.84084133784914,1.88392066494516,1.88008808977637,1.88029616364704,1.88593718935976,1.88246986547909,1.88179768164781,1.87897870864635,1.87536097396942,1.8732130356202,1.87075863291041,1.87266615536792,1.87660018877448,1.87679889068845,1.87697966107664,1.88284367826399,1.88707633057792,1.88453402679342,1.88737177294994,1.84234325573516,1.83941942518775,1.83501414133543,1.82954852203864,1.82355933311423,1.81729428721772,1.81154272338511,1.80722892329947,1.87482948915714,1.87495228269297,1.8747037431827,1.87463853871791,1.89948974749452,1.90062536681452,1.82848527251367,1.83448469673531,1.8071224682261,1.80386344069898,1.80423563399687,1.79711524237479,1.79727357819501,1.79403159978872,1.79111867588945,1.79126681694113,1.76241792610034,1.75447166869783,1.74543600094562,1.73567027300068,1.72502750336496,1.7492421123506,1.79869846073382,1.79434192877783,1.79758478938807,1.80373210732455,1.81494319160023,1.81408068631856,1.80691064840545,1.79789270550528,1.79218051434416,1.78093095835524,1.78130693861111,1.78112951373785,1.78144886469159,1.78104997265341,1.78075570180365,1.78125072675191,1.78266546511816,1.78252136693878,1.78273953593001,1.78287086745785,1.78289136989474,1.78444182223957,1.79576428643652,1.73981386623578,1.75680270761784,1.78513730932248,1.78632012704926,1.78931193997407,1.79162931519733,1.79004749544213,1.78750045338132,1.78099201816553,1.78147539617232
1.74786276889029,1.85104996947476,1.7546198679284,1.84845996947476,1.6849823016658,1.85253996947476,1.74240002588403,1.82973595009324,1.82272159109159,1.82433338196297,1.91363996950169,1.73837002049527,1.81917061933309,1.73652001547503,1.73736001545274,1.83237209120234,1.83302673885288,1.73548055804365,1.73528294260451,1.83718960857541,1.81215481420712,1.83394691810395,1.83413637713326,1.73115670103975,1.80787373921889,1.80903204654686,1.72813411692274,1.80741931556692,1.72658251867328,1.80392015038845,1.80360345032589,1.72244855587921,1.83879933019033,1.80102655555643,1.80084888373513,1.79990625843554,1.91617996947476,1.71789952421673,1.79605969633608,1.79638981564576,1.71742006446451,1.79628048351986,1.79626398189148,1.79679021950242,1.79655923309316,1.79521645184398,1.79568813430101,1.79566230433479,1.79520687963128,1.72052002019823,1.79602195928948,1.7972591672348,1.79898528433781,1.80073774143109,1.72072401617364,1.72269401640335,1.72638246213884,1.72705556820017,1.7301942245364,1.80969461363179,1.73478686165036,1.83862726978875,1.8204378591907,1.83501185681071,1.83699629756012,1.90938161959478,1.88456326328096,1.81068651485671,1.81074476535171,1.88597566082861,1.88596662590261,1.9071348936721,1.88526192944734,1.88587900263039,1.88455593448307,1.8977704364227,1.81185444278015,1.91144701349418,1.81240588063346,1.81153922535702,1.89689508587489,1.8851762204426,1.88409953994663,1.90935460196352,1.89742303707397,1.89121311990613,1.80973137875008,1.88561286899495,1.88553297651009,1.88405775091406,1.88361922468689,1.899792184354,1.88553572635703,1.80722642136245,1.80719984987195,1.89379388899082,1.88089116418504,1.87985653131643,1.89307630608586,1.88189879257327,1.87986684243124,1.9030740681477,1.88055142709844,1.88043723339175,1.80663207573367,1.8991890587881,1.88085997107647,1.80579197153133,1.87828720891723,1.89030175885492,1.89564716891812,1.80243168061429,1.88997978028564,1.80250181027501,1.80092970673746,1.8001528046283,1.79943030833947,1.80003316524641,1.80214884631826,1.80306524585378,1.79638714881191,1.88056996242536,1.87414388897938,1.87355492266368,1.87261382087756,1.90298884974264,1.90300367070498,1.73457003358912,1.89341996947476,1.80677581922299,1.72681004343837,1.8031116350941,1.79822277405508,1.79757170922606,1.79439900441338,1.71471005833686,1.79130131541872,1.79038076056086,1.7121106659447,1.71152849429447,1.70684489651395,1.70679322106075,1.70648256069802,1.81706731965395,1.70500502441506,1.81179626375693,1.70304003504936,1.81551885653988,1.88947996947476,1.81026437247261,1.78152691578874,1.8100270820391,1.7821805204916,1.78375877705882,1.78250689221323,1.78292723643112,1.78247511420364,1.70081003718022,1.80803964581574,1.78407390656088,1.70454005057109,1.78431544794301,1.78461517869265,1.78284680376178,1.78620343534808,1.79905798825501,1.7059518137447,1.78413912097208,1.78397089017622,1.79587673667716,1.78355663069767,1.79310155322259,1.79306289383985,1.78621548972424,1.70555612927222,1.70438162710279
1.85214996947476,1.74558330937739,1.77254648849736,1.67948626363807,1.85160500317608,1.69556003052524,1.82553477218401,1.83041721209326,1.82216441962203,1.82945212553514,1.82784038518924,1.82810087982711,1.73835003052524,1.8177118050893,1.83342777574567,1.73713003052524,1.83443456487117,1.8350225946759,1.73477655796018,1.81435332612175,1.8135530819508,1.81151426484986,1.8339055061675,1.72982336755434,1.80875915097376,1.80878215201194,1.7289104902193,1.80267690529533,1.80503371808728,1.72376003052524,1.80458168609259,1.72372300395373,1.80027003983691,1.80090941089559,1.91426996947476,1.79922878935034,1.7195658173326,1.71981758254229,1.79616725863938,1.71811599169914,1.79799998473738,1.71628003052524,1.79742966548703,1.79798953300289,1.71333994945866,1.79417422352907,1.79460825061827,1.7950618593532,1.79537259497737,1.71956002020647,1.80184266016808,1.71847003052524,1.79996639683852,1.83706999236869,1.91477831043941,1.72074792421437,1.8053585975139,1.83598699139322,1.81021008765666,1.81104366635505,1.73657350050658,1.73717086285151,1.83751825830711,1.74544541410019,1.83778862350112,1.90734536346984,1.88843917202437,1.88649110156301,1.81169402323334,1.90080908152959,1.81130070785158,1.89361081209551,1.90675176641351,1.90595701896619,1.81011002289393,1.80979002289393,1.895599556016,1.88702242976052,1.89763228549435,1.90661492327014,1.88733575382511,1.81001186782357,1.88599067319013,1.90014887353663,1.80935474295671,1.89034302171848,1.80957763083897,1.80900399698196,1.88614777681803,1.88401003715556,1.80793003052523,1.88633808022686,1.88972886588226,1.89101489429478,1.88813286700429,1.88250367999871,1.88302860573578,1.88369289008247,1.91162377775408,1.88201126395598,1.80669941598382,1.89401174774246,1.90273723868664,1.87909675117294,1.8790433839723,1.80407003052524,1.90117433646942,1.87762443231924,1.89895685609791,1.87729423935684,1.87683473550078,1.87553576962176,1.89236354462396,1.80263705451066,1.89365996947476,1.80151028709086,1.89370996947476,1.79967654315796,1.87231936008133,1.79777234893752,1.87328996951157,1.79868218047002,1.7973892338587,1.88519361801747,1.88870029790512,1.92315771792947,1.91057130094543,1.81701384526442,1.81826083710934,1.72944281735403,1.8200940459871,1.82057002826419,1.8008085835108,1.8203749970987,1.82036549791419,1.79417453608862,1.79283752719892,1.78969506770906,1.71064272183332,1.78893998473738,1.81721328916403,1.81762776086696,1.81747395541169,1.81673688299896,1.70650502441572,1.78205303939841,1.78233048620698,1.70565003052524,1.78468097062079,1.78335063703422,1.8133460785052,1.81487786076532,1.78237456392657,1.78206677597257,1.70537002289393,1.70465002289393,1.78167374333564,1.78486840910474,1.80721308143311,1.78241298032376,1.78264371065351,1.70604335621572,1.87843996947476,1.70450586163096,1.70480586163096,1.70332917652559,1.78311831131995,1.78362391366968,1.78561478636608,1.70644168956059,1.70540835622726,1.78278528429227,1.70525003052524,1.78497160800971,1.7834448292559,1.7923594691726
1.74806209882599,1.67270375607978,1.67315119108247,1.67903886551278,1.84914496629868,1.94898996947476,1.82961242439626,1.74178003051901,1.8300673186821,1.82836194835002,1.82086836748412,1.82072394992306,1.83206081473151,1.73938003052524,1.81773408449131,1.83404632170355,1.73755002289393,1.73647002289393,1.81520799491876,1.73310003052524,1.81539325683334,1.83867655922967,1.81259505807403,1.80924589875429,1.73117003052524,1.83746591697073,1.72852880919013,1.72782221424748,1.72560446155821,1.8061142259901,1.80472808060946,1.72424735297009,1.72458499641884,1.72129966721121,1.79924545260446,1.79898651229909,1.71981717222314,1.7999101793755,1.79993570460092,1.71862009031171,1.83717949387199,1.79630380457008,1.79757675346248,1.79673081546157,1.7159400963292,1.83792986307951,1.79495433638014,1.79601063702147,1.79655803200852,1.79627501980881,1.79938923571962,1.79972513270537,1.79948911496772,1.83734999236869,1.91525164377274,1.84065998473738,1.80403196051709,1.73053791220861,1.81027119957732,1.81031679521656,1.73553886285151,1.81662542268716,1.81997733574998,1.74434722737224,1.83875456317718,1.91417778399138,1.76595003052524,1.81092759652562,1.89989996947476,1.8103886958975,1.8112914665337,1.81170761476817,1.89913666971958,1.81043022231463,1.89609252347365,1.88820135439907,1.88429427316063,1.80987353445713,1.80881775491783,1.80875371715335,1.90929721870726,1.81115694210822,1.8106599833115,1.81029363817868,1.80937036859814,1.89222070195283,1.81085733031529,1.80880251730763,1.8973043801328,1.88925413741187,1.89591565991238,1.90007696302764,1.89908612724046,1.80692003052524,1.88427225540088,1.80639003052524,1.88290646962447,1.8969334554989,1.8819554095797,1.80616341598332,1.80621722907191,1.9017598515781,1.88020379659428,1.87920022691793,1.87992420629401,1.87682524707207,1.87545860163652,1.90684582666715,1.80349379076876,1.89518559859699,1.87659997591025,1.89368823125418,1.80361003052524,1.89423996947476,1.80117330261804,1.80042912382947,1.80031903734602,1.8790129981117,1.8740375807565,1.80024671458516,1.79904611552285,1.79797863376939,1.79764210428843,1.79797645295753,1.79643961786668,1.89300421239383,1.82239939853119,1.82210060710524,1.80998239665057,1.72853338553497,1.72401385816148,1.80245608740129,1.80277267047684,1.79374751266778,1.79350925912238,1.71559665380078,1.7138307733328,1.71286593975912,1.81774996947476,1.70917003052524,1.78686906207819,1.7883958292772,1.70789003052524,1.78449056136986,1.78359607885047,1.78322725601595,1.78301350988253,1.78390698009785,1.78325715864505,1.88944996947476,1.70465525993518,1.70451484692687,1.70546325993518,1.88547996947476,1.78254082075301,1.78302073948487,1.70480169208636,1.78324431168951,1.78255904667702,1.78269543612485,1.78171411885761,1.70677668954904,1.78355984323545,1.70598917652559,1.78662128718329,1.79917579710382,1.70639003052524,1.79771854098144,1.7833392709987,1.78312305569373,1.782919477343,1.7837687156967,1.78564663193691,1.70604169095603,1.79263363512096,1.79195390743675
1.75204536446727,1.75364550640447,1.77127148012955,1.77156021692751,1.77190599354587,1.82236469816711,1.83052689859975,1.82342490012181,1.74325002094784,1.83035269731307,1.82093249654037,1.82069120394093,1.74042001787199,1.81890492528602,1.83526897309487,1.81801446540912,1.81813157444478,1.83440657792144,1.81599660485459,1.81500799491876,1.73056276642426,1.83819634415075,1.81114062137939,1.81236853757261,1.81221822021693,1.81087208324405,1.80774047145309,1.80712102230714,1.80784623579405,1.80638933273572,1.8054342259901,1.72461816174312,1.80304912198484,1.91677996947476,1.80113060848511,1.72119006412339,1.83906878913833,1.79968842988796,1.79994097818917,1.717803991254,1.79865920113804,1.79829189104817,1.79767050810885,1.71817178249599,1.7967127122666,1.79684594004763,1.71749386309096,1.79595772630042,1.71870336631187,1.7174366997276,1.79774597123174,1.83811934643047,1.91441996947476,1.80249389082336,1.80204077045618,1.80242273192543,1.73015406720425,1.73104890666303,1.80963767434357,1.83810554825676,1.81664102085315,1.73707305860266,1.83746883405978,1.745037414441,1.8377118297867,1.91951244192441,1.83119529692173,1.81175339605591,1.81109938459831,1.81065858535101,1.81062074472779,1.81059640220856,1.80883458180395,1.80991133774215,1.89976575622798,1.90568852781444,1.81313005295072,1.81029378784643,1.81042288243088,1.89557996947476,1.81212864875286,1.81159238740433,1.88723996947476,1.80957455608949,1.89658996947476,1.8098940870401,1.88474624824638,1.88563769481789,1.88575323474597,1.80663212468222,1.88271561025393,1.80811303498568,1.91064658530544,1.88208998508028,1.80947880426682,1.9173395752293,1.88283718613145,1.8066228894578,1.90114465056671,1.88425243600502,1.89758919437748,1.90334047849105,1.89922410755851,1.89828238520859,1.89732468825595,1.89603498495087,1.80444924961795,1.80352912149501,1.80342809878186,1.80361767839673,1.89500098268138,1.80359678776919,1.89322996947476,1.80277250447659,1.89323787019347,1.87333632052306,1.7999001633247,1.79974359281521,1.80026693716362,1.80132341473549,1.80032688570326,1.79864756957153,1.79765552245923,1.79850805934947,1.87616052531032,1.89298906108027,1.89902614016511,1.81116200657297,1.73389001509368,1.80561951646342,1.89268996947476,1.72335002814453,1.90965164377274,1.90781831043941,1.82092866037214,1.71490668546361,1.71418169035375,1.71293770013667,1.71266331911881,1.78748326770012,1.78838265484832,1.70781008853935,1.89127996947476,1.78555922223987,1.70581003662021,1.78376079218183,1.78421415580556,1.70341005041531,1.78517381938036,1.78373786224299,1.78430801384477,1.70376738923917,1.78188771572588,1.78017208706704,1.70542003925158,1.81018839397426,1.70436835875024,1.78352263945085,1.7828038737612,1.78411028452852,1.78558422465087,1.78448816133189,1.78312453455431,1.78448289805329,1.80268665120379,1.78553476883515,1.78403975865058,1.79668388907899,1.78584051388769,1.87242996947476,1.70536213173327,1.70524884505664,1.78598910939828,1.70480835762221,1.78333902042772,1.70601003768636
1.75052552249827,1.75137320547644,1.76195515643667,1.77090030199982,1.77099030192415,1.81976609153749,1.81901193688853,1.81971115992464,1.81851330937348,1.81799830379564,1.81834976078031,1.81831208418272,1.8147540390959,1.81450931083321,1.81424158926132,1.81678062858237,1.81775037901927,1.78811764316695,1.77738717327187,1.76666131183162,1.75483234386282,1.80987175169829,1.80990216439099,1.81061673288003,1.8103982246867,1.8093817910594,1.80814044127547,1.8064494133219,1.8072985515004,1.77728699432401,1.76317771735779,1.75227830087802,1.80332173011245,1.82114078670517,1.80098359590064,1.80137825658434,1.80111550106328,1.80065738842238,1.79990679335822,1.79915510068934,1.79844090068371,1.7979331225444,1.7690729888831,1.75175218726933,1.76890384645769,1.75404912644019,1.73939443973096,1.75038245477294,1.76038569919515,1.77399174282209,1.81110377005627,1.82524174067787,1.82148765022533,1.81414987102257,1.79926363962034,1.79924266457521,1.76301991740345,1.77910653502372,1.80859297592337,1.80937101526558,1.78124532747583,1.76519590172171,1.7765243351616,1.79152973985811,1.8375610758894,1.84437915295995,1.81934098853255,1.81193251805837,1.8116521930199,1.81139062852231,1.811209523575,1.81140447828309,1.81122407464992,1.83666772935804,1.8533509893219,1.84357400500431,1.83026342000731,1.81125874147241,1.81176519644806,1.812967871023,1.81319932485,1.81245364739849,1.81181412441779,1.81089979018559,1.84851986606841,1.83755326197618,1.88054496945877,1.88251377998668,1.88271737241388,1.8811776461933,1.88337575197979,1.84708281824274,1.83750367786028,1.8284206059515,1.82243059101106,1.82977112248721,1.83716173946305,1.84515069833568,1.89874333351174,1.89684347515385,1.89887175656448,1.90266941550334,1.90379308788209,1.90376906076083,1.90218533322994,1.89863857009996,1.80461152974039,1.80452243162938,1.80455363633399,1.80510830995929,1.80550172590129,1.80482298072864,1.8295758371852,1.84120178713031,1.86944734264114,1.86906298595357,1.80062601402744,1.80088528666484,1.80015452626041,1.80072613338572,1.79934205510104,1.79917209861253,1.79860599085418,1.79870308484739,1.82645699795018,1.84675307059472,1.83675176016389,1.81784673264055,1.81459084544632,1.80260320990685,1.80190804731493,1.8013035336816,1.80035090417899,1.79950957168589,1.75460017680764,1.7164640176504,1.71562819265571,1.71410040135036,1.75363033186744,1.78670833908937,1.78725580043464,1.74918058430786,1.80759315466608,1.79695467176433,1.79364584906427,1.78451431020971,1.78372204630411,1.78269199698082,1.78408551068647,1.78493799457066,1.78574219304306,1.73606804087518,1.75035610870905,1.78239466248098,1.78423756887494,1.78405064428581,1.78376288186724,1.78383830860493,1.78381319185034,1.78417849924061,1.78449958656528,1.78388391559433,1.78360042624052,1.78373175996852,1.79741002590371,1.78386403156323,1.78202728606682,1.78302055586852,1.78439273214598,1.78406334346174,1.73779501237121,1.75198775165165,1.78475699981474,1.78350562750791,1.78263012066979,1.78356573843979
1.75217494662663,1.67345723214357,1.6744744294553,1.85296736106399,1.68499003053191,1.81989924928727,1.81950967351562,1.7422400248163,1.82058491470198,1.82184674149373,1.83257616707628,1.82072659888059,1.90719996947476,1.83445,1.74036001770945,1.81717846016411,1.81823984172246,1.73696126044112,1.73680266408626,1.73644275479939,1.73210553625551,1.81265178085291,1.73665001670734,1.81069594520324,1.73105896896977,1.83706959068142,1.83756302433658,1.80547378277583,1.80730356577088,1.72596758717309,1.72503633922503,1.72464793190662,1.80315311822326,1.92525996947476,1.80047896887212,1.80207673663594,1.80138956203471,1.8019534830104,1.79999366235846,1.79948182729386,1.84064998473738,1.79737803541575,1.71798208628839,1.71822871544698,1.79831731730104,1.71661475624759,1.71663011716311,1.72018431990227,1.7954520485018,1.80356874922214,1.84005739787969,1.83805082833495,1.72129005768852,1.83824793962016,1.7237300447904,1.83781996947476,1.72763150385218,1.80905323239077,1.83712622412096,1.8119668364814,1.73616939432169,1.73771308042441,1.7420196056803,1.82004425171091,1.83607635377099,1.91291267662682,1.81079233187632,1.81129309304826,1.81143597072299,1.91397480912104,1.81057993281273,1.91363804331142,1.81078619908653,1.89981136593388,1.90659094057838,1.81158133071628,1.89283191212491,1.81127373601223,1.81152215886815,1.8121564283933,1.89391998874412,1.81166245318465,1.81051202570092,1.81016133934936,1.90070996947476,1.81037418095168,1.90257515397829,1.9044777804192,1.89472690492561,1.89634213405834,1.8879723940221,1.89903234037666,1.8082031885254,1.8093994218094,1.80829901247443,1.80712938400272,1.8067483786476,1.879270374985,1.90298775833287,1.90129718301693,1.89170859817906,1.80725208913491,1.80737208472346,1.90781999457206,1.80651233404083,1.8932198197574,1.80502312782951,1.80529379596416,1.80452191564245,1.87732030293865,1.80420169082666,1.80331344667238,1.80196117380142,1.8844719762976,1.87469860630573,1.89420879921136,1.80146873190685,1.8027093883248,1.80019767097452,1.79923036145383,1.79989793981175,1.79710312534432,1.80047267429037,1.79848806946643,1.79790822661542,1.90876078868499,1.81659565802031,1.82456555112263,1.89754996947476,1.72830002557388,1.80322344469959,1.80236509622891,1.72255835972489,1.79728523823353,1.71731446107743,1.71707174479064,1.79272996947476,1.71219914633267,1.82116330204082,1.8205366347855,1.78756274030821,1.70674002737573,1.81818814105625,1.89403886972691,1.89307419949571,1.78387487726513,1.78201693441802,1.78120086301627,1.70513803231088,1.70557006998572,1.81397996947476,1.70569066203651,1.70533073028618,1.81272707210934,1.78598000271205,1.70570002722297,1.78279933714997,1.78433044063467,1.78437698085989,1.78440720632682,1.70690090511442,1.78317844916686,1.78403764020422,1.707110037714,1.80245984785501,1.78396491606607,1.79687110015474,1.78547745263323,1.78513003445102,1.78466150324329,1.7064105664907,1.78647611835527,1.78564667550938,1.78480151040053,1.79280272660268,1.78531490541696
1.67146471114154,1.67270394220794,1.67598715062285,1.85266729423071,1.8595992655199,1.85372845631287,1.82221882500173,1.93113996947476,1.82186198680863,1.74384003052524,1.83222896830001,1.82119074950641,1.82223556553338,1.91316996947476,1.81652864355914,1.81631256823713,1.81694500982025,1.81721328072157,1.73606406192895,1.73528106692168,1.73404851082804,1.8144470022282,1.81458515087642,1.8115880411649,1.73091907226395,1.81169363582122,1.8115664290302,1.83930512838559,1.72729003052524,1.80607340273936,1.80625848527175,1.8049183735608,1.84126000317608,1.84145996629868,1.80266408188013,1.80269597301121,1.72009668956059,1.71868335622726,1.84232984735217,1.71964950443051,1.91746996947476,1.84162998473738,1.79989,1.91463996947476,1.79754746234311,1.79814305905916,1.71752826807725,1.71973976229232,1.79600885744603,1.79697680004503,1.8003435708539,1.80055526342478,1.80134823055181,1.8023827877527,1.8025575785576,1.72403003052524,1.80706071530199,1.80742599075947,1.73120120488766,1.81212051314146,1.81295808444352,1.81821928502804,1.83746640806033,1.83764643945074,1.74839003052524,1.91421569673688,1.90629783274485,1.89073089011033,1.81123027427404,1.90427246154266,1.88794228635595,1.89892052199865,1.8892251341858,1.90675344092227,1.88576447503559,1.81250146097716,1.90986540177375,1.81166127842372,1.89633082697263,1.89380059971101,1.90317993472298,1.90154434462908,1.90502714731362,1.81139427212561,1.81162693328418,1.90288684794257,1.80926897784069,1.80763322649187,1.80739697784069,1.90845573053718,1.90345569902559,1.81049212318025,1.80717064622197,1.89914996947476,1.80795093317987,1.80716939987858,1.80743706911912,1.80746017634839,1.80772215417029,1.80888094635481,1.80708278336373,1.88277154277866,1.88339595341833,1.90327646756681,1.89055917466658,1.89230704102682,1.8934194336387,1.80578731409109,1.88735888624432,1.88646661597643,1.88231307966386,1.8788393981323,1.8749156955831,1.875574270808,1.8767412783217,1.87961729026583,1.80213008694753,1.87706996953019,1.80002814166225,1.8015866763346,1.79796114773345,1.79908740712313,1.79738336264218,1.87266367343327,1.87518084274004,1.89388717397531,1.89662265450223,1.81961951305665,1.81020353360486,1.82021466284599,1.82142025292139,1.80263761633975,1.72107169300428,1.79597869337571,1.71920473050234,1.82079839502933,1.71311003052524,1.78919278636109,1.71282835622726,1.71262168956059,1.78854731896297,1.78723913715448,1.78543553999882,1.78519121215466,1.89300686972691,1.78390790373265,1.70447198533211,1.70389655760215,1.81462996947476,1.70584233190204,1.7056499313945,1.81264846177983,1.78198933519381,1.78089697352413,1.78149203242727,1.7825553939134,1.78258051357444,1.78179348682688,1.70554003052524,1.78345617223455,1.70542442708523,1.78338962283143,1.78403285112348,1.78562796506016,1.78527124093216,1.78536566417938,1.78609789066171,1.78546517969374,1.79277355137408,1.79399683482311,1.70669062452598,1.79226024478846,1.70445335622726,1.70590668956059,1.78359771703138,1.78403473140444
1.77480920640651,1.75321984352591,1.67691873500746,1.76236,1.85417645998131,1.85188152130986,1.8238524212564,1.83150923539741,1.82416424136603,1.8329474148427,1.82006737082704,1.82077844280171,1.74088003052524,1.8371976807208,1.8211402162707,1.82051656505513,1.81873048942101,1.81778171061887,1.81771946689703,1.81933919603814,1.73226537981754,1.83805313344322,1.81304109318089,1.73425918506352,1.73237301499313,1.72716212076577,1.84138677460326,1.72970003052524,1.80666872784468,1.8065830525794,1.72462337083357,1.80481702301867,1.72720060903841,1.72317943674944,1.80340564873341,1.72174003052524,1.79953296960772,1.80058606999634,1.72047350445082,1.71996611337116,1.71877049199622,1.80018998473738,1.71978003052524,1.79766845795019,1.79873073736289,1.79898334968579,1.79991562179516,1.71873926966792,1.71819930538412,1.71825496899182,1.80017834668277,1.72006003052524,1.80218812688908,1.80302044828879,1.91726997710607,1.91674997710607,1.80630625846593,1.73142331786999,1.73136572865679,1.81317218748143,1.84047464379113,1.81815787915616,1.83747133769289,1.74487003052524,1.83172998473738,1.92468016507224,1.88340381478073,1.81271003052524,1.89698499426136,1.81191458038923,1.81107559290699,1.88707500323869,1.88829892313472,1.88894654163321,1.91027349400946,1.88873188116643,1.8872958657782,1.8872993373607,1.81213003052263,1.89596551789608,1.88699247873404,1.88735806818058,1.89238855913091,1.81171493328418,1.90678683639004,1.89419673610102,1.89668872893307,1.81120739673161,1.89402985338808,1.89875204135595,1.90388510978808,1.89324592915091,1.89535493472555,1.8088759336305,1.80894043798376,1.80807286690617,1.89475164377274,1.89307831043941,1.80895291550241,1.88044063058716,1.80777650268655,1.89532158651486,1.89494539872496,1.80635405470612,1.8061782607221,1.80646976317655,1.89933980660041,1.80586825731582,1.80406283615747,1.80334925747205,1.80235263249983,1.80252653149862,1.90627722399963,1.87917809909136,1.87700171173385,1.88524685774856,1.8007917224258,1.79965725140698,1.80057849961207,1.79847517577047,1.80259028492367,1.79670107493788,1.79814964329772,1.87345861917203,1.88992695516504,1.91768372928561,1.82507932237115,1.81352088633449,1.80985691405189,1.80694236634742,1.80336650993499,1.80301336697437,1.82204616988302,1.71985866650661,1.71929687146642,1.79497616754383,1.78989133089229,1.78948364693566,1.7882671597607,1.7908970196795,1.70933003051966,1.78621363937752,1.78569865560871,1.70573003052524,1.7818435310314,1.70624818013026,1.70533539135596,1.70514732588579,1.78203998473738,1.70655659806167,1.7060963418465,1.70568341422034,1.78335381068618,1.70569003052524,1.81050791771817,1.81027458731566,1.78523680591243,1.70412003052524,1.78427593618442,1.78447452977545,1.70484563957887,1.70656925466895,1.78364488145613,1.70715003052524,1.8029693194952,1.78547105865031,1.78592592837439,1.79909536125049,1.78390425586917,1.78532505299099,1.78653813444195,1.79861576875431,1.78594203594934,1.78445996162034,1.78372579127163,1.78521950955304
1.85537996947476,1.7541799353702,1.67667549551988,1.68116232479875,1.76961226026143,1.85967796278042,1.82633177976175,1.74405000870045,1.83508633399855,1.82327235116453,1.91312996947476,1.83577783920713,1.91388996947476,1.82218357898395,1.8379790536589,1.82021177884491,1.84107257016677,1.81685295751217,1.81683004616751,1.92453996947476,1.81562991629219,1.814639601229,1.81402864044346,1.92773996947476,1.73035784406255,1.81274877786402,1.73038210648518,1.80762103463142,1.8076115533769,1.91798996947476,1.72619670434301,1.80557093417358,1.80388728981991,1.80304234089428,1.80322134094034,1.80437498490799,1.72422114157998,1.80242334854872,1.80247642872141,1.72067707603762,1.72001401270046,1.71953111075025,1.7984968711243,1.79706301005412,1.84071791875753,1.79770824786648,1.80059550473219,1.80025550293807,1.84364993005681,1.71929095274034,1.79990398265137,1.80021129788399,1.80004472146022,1.80236363922861,1.72507113460923,1.72683125438645,1.80675509313767,1.73233316571707,1.73269665119122,1.81436460454501,1.8183312704542,1.83723149977275,1.74084002460771,1.83699996947476,1.74457380434526,1.75905872565673,1.89941386517555,1.90073371680506,1.88801911031297,1.8127231444536,1.81244089047421,1.81143659154488,1.81172396259699,1.88749034912969,1.81011287138974,1.88873849910845,1.81169273536371,1.8874834909453,1.88636381604114,1.88592457137428,1.88684148044008,1.88668106134103,1.89591786481122,1.8968279776477,1.8117240747942,1.89689674941963,1.88579477614468,1.80945415140807,1.81059537216808,1.90167963201929,1.81261369623901,1.81085830847345,1.80984559460592,1.89972192705291,1.89134715272607,1.80743586476463,1.80797900595614,1.80810957383799,1.80855146195755,1.9031936855138,1.89427820270789,1.89342511382508,1.8074346692519,1.80801399325165,1.80780394291221,1.80620160704909,1.80485192110139,1.8933113089626,1.88730773965133,1.88909232678042,1.88383933509247,1.87413064616029,1.89299426245365,1.89213909606939,1.88634061683374,1.88149686282596,1.88254803229523,1.80024221869575,1.79878155657436,1.79835808640784,1.80122731847375,1.79965838103393,1.79708961737122,1.79817003406083,1.87551910332948,1.92386677520359,1.91501759554739,1.82055439706528,1.80972160929265,1.80835717642115,1.72651002201631,1.80406437965365,1.80114290643119,1.79811215842538,1.71723405780676,1.71628305671772,1.71604671935413,1.89561831043941,1.89729164377274,1.7902649984591,1.78714121849047,1.78595724760187,1.78571175384346,1.78600661060749,1.78577273556811,1.70711364367279,1.78496548318292,1.70635921397146,1.70684785108688,1.81597996947476,1.70624341418854,1.78368907798877,1.70589003833456,1.78404790133566,1.78496167849858,1.78484101158902,1.78390475467679,1.7827690312081,1.70613005280573,1.78435811754798,1.78275083817961,1.70600987062746,1.78409939023701,1.87312996947476,1.80372470917349,1.78546797368214,1.70711003899851,1.78339116907697,1.79861378074125,1.78394866703484,1.70761550468668,1.70903545915077,1.78584599931743,1.78425359336066,1.78406964929456,1.70673003892479
1.7093002280304,1.73339669548694,1.72294866383165,1.71213088702816,1.79332614967381,1.84387816800211,1.82559928610465,1.82390714567661,1.83699111702561,1.83654487630751,1.83728162736781,1.83736862250121,1.83024293304769,1.82666739596905,1.82740092364795,1.82346711154933,1.82044906206947,1.81777126404719,1.81533131402178,1.81296121979574,1.81429443608491,1.81478381161477,1.81494374867582,1.83092974607769,1.76425126383477,1.77741804949968,1.76229821135814,1.77796087572946,1.80696697999607,1.80616698095115,1.80560812841024,1.80516842372606,1.80374320897844,1.8027505201379,1.80230895967288,1.80186705456808,1.76042568801516,1.77578892600061,1.75909746984218,1.74363996649402,1.75417197891515,1.76928568480608,1.79647425511742,1.79599064465338,1.81365736388362,1.79916247700124,1.7995866546575,1.79927435700007,1.79855419567533,1.79839414660432,1.79869162861826,1.79873667625272,1.79900712657404,1.76437252241602,1.75082908589135,1.76696441410462,1.81062244831524,1.81442419876447,1.8180653451489,1.81787265378838,1.83014681838422,1.83509091008472,1.79581626481935,1.7846628598887,1.77232334589106,1.79267578288254,1.89732865023906,1.89681534685542,1.89404643796457,1.81318579181331,1.81301698482365,1.82713091610049,1.83543141844632,1.84452391474847,1.85466460699286,1.88388984276565,1.88313600886137,1.88611245108977,1.88660992640936,1.8860769545989,1.8853346670169,1.88393841603952,1.89308114970328,1.89292304146599,1.84144077419856,1.89390965488585,1.89176640515095,1.81071860478846,1.81128324829561,1.88496087675798,1.884403548066,1.88360135628721,1.88302412651429,1.8903036425835,1.89154730740248,1.86731017791885,1.86651096536574,1.86536780305482,1.86439971511795,1.86378408626463,1.86346229567043,1.83139884385723,1.80688959097667,1.80720977431871,1.80693182287939,1.80587446216074,1.80479155078337,1.88351556065429,1.88525857867779,1.88655841490997,1.88671834500268,1.88997787643054,1.89179875997303,1.89111938102899,1.88861802102686,1.88206168054632,1.88128412838986,1.79994654242459,1.80012179352863,1.79932021259311,1.80000491731028,1.79891869810776,1.79827934657768,1.79805529987998,1.87310272524977,1.89113189044203,1.83496646331481,1.81564052466973,1.80836064054813,1.80828351954695,1.80929210761212,1.80691304638688,1.80307744432862,1.79986380326162,1.71750323558085,1.71693988270627,1.75636677608115,1.78909689846682,1.78961794964236,1.78923847589203,1.78769512819036,1.78699103165119,1.78625496447584,1.78548626529861,1.78480907962341,1.78380143436434,1.78307333895015,1.78149026408437,1.78073404064832,1.78143728705435,1.74584092958799,1.78233924019911,1.78283373374561,1.78325437094296,1.78399148595601,1.78400205822454,1.78317999410523,1.78251405269681,1.78213937224954,1.78232491824266,1.78178548151819,1.78110858629304,1.78256310473596,1.78123604963493,1.78183943355323,1.7833644946516,1.78358022395563,1.78152354080424,1.77953491518818,1.78003124735874,1.75671682029161,1.74178830939995,1.7847575242414,1.78471933670604,1.78462906208444,1.78441499515538
1.67234679564465,1.75340670072743,1.77497784672801,1.68157218973872,1.86165653859623,1.86208321673664,1.82612954802654,1.82511251773151,1.91090996947476,1.83516590854649,1.82435347355924,1.83817791860608,1.82103843722843,1.73761383645102,1.74341309856769,1.74213274802608,1.74144037134211,1.91672996947476,1.84149542902552,1.73270019584533,1.81514376456386,1.81516674457611,1.8152019996222,1.91786996947476,1.73220192594864,1.8090880510303,1.73066056074403,1.73038061792578,1.80781636855368,1.80682500185789,1.80622039000835,1.80628560597374,1.72325005463796,1.80235881302586,1.84473998473738,1.79961514117533,1.72049039549233,1.80174898204992,1.71971482791432,1.71992801532606,1.84252996947476,1.79856,1.84360996947476,1.71834006035814,1.84174455730179,1.799232167052,1.79872907771954,1.79805908905956,1.79763469831465,1.7981872363358,1.72133335303793,1.72226668642336,1.80008174079712,1.72410367363649,1.72455663555155,1.91428164377274,1.91392831043941,1.81299425173994,1.8387675647992,1.73387002131057,1.84055233155863,1.83831600239016,1.83808200111343,1.74638793547,1.74964523180402,1.93429585072414,1.89712998625653,1.81191828122257,1.89295980098707,1.81295717752271,1.81252814270372,1.90462457035619,1.91033808472413,1.81293375153224,1.90307322011028,1.92067610880071,1.89916002829098,1.89916368945175,1.88603151028999,1.88595750849507,1.88624492477376,1.81530802066029,1.90552535019277,1.90588384398157,1.81291430761666,1.89765271700814,1.90358038512809,1.81083352825899,1.81240074322382,1.90339109082435,1.89742440661083,1.90416498865997,1.90583241809678,1.89314042247665,1.89393154577159,1.89464879473997,1.89645815076835,1.89499738846405,1.90214337936814,1.80744096506414,1.89592202402358,1.80702521179266,1.8057784668945,1.80676617213804,1.80666705302849,1.80556658290746,1.80378188569869,1.8778474309911,1.89332471801171,1.80589199827869,1.89782900064646,1.90595095356569,1.80134815835702,1.80081482421906,1.88843979661055,1.80040162707682,1.87861014125056,1.80045121856836,1.80058004010749,1.80006401616085,1.79880022098631,1.79970508021316,1.79747608220439,1.79843300524649,1.87284711252184,1.90577170340568,1.82166151922677,1.81212998257127,1.73362003067918,1.80782314794417,1.80564731688448,1.7236966612295,1.72258724248179,1.79907937215536,1.71883847019145,1.71743575650017,1.79471790280635,1.7895913549767,1.79103301964094,1.71004004133108,1.78774539477374,1.78824171882393,1.78696386352364,1.78495399903752,1.78440262576131,1.78378901844362,1.78231458997904,1.78132932493025,1.89953996947476,1.78346420967936,1.70585050097942,1.81295655540518,1.78445332205815,1.81310166289331,1.78432701331705,1.78451552822687,1.81091324298526,1.7829256172068,1.78278088921792,1.70399004900934,1.78258539775961,1.78320760922964,1.8068834604616,1.70661003840578,1.78404961560609,1.80241843445431,1.7860047845734,1.80117143258081,1.70639370269701,1.79387561995966,1.78523430441182,1.70538121655229,1.79600547013716,1.78555553100594,1.78559288790081,1.78531739016058
