1.76122702201191,1.76067630767885,1.75562628362315,1.67882998232994,1.75987766435857,1.79344000231632,1.75879999999955,1.67738998718842,1.67554998654444,1.69515622484231,1.67544897551238,1.67469906171575,1.67496639396558,1.7939799999991,1.75791058175839,1.67404999500434,1.75326014342105,1.75359067430788,1.75209669484948,1.7102216653006,1.67587115560044,1.75484125276858,1.7956899999991,1.75889936400626,1.75071324140195,1.68034158235469,1.68207666204164,1.68597743534367,1.68958781971561,1.76979347579018,1.7705192275961,1.78912510382317,1.7893998129884,1.78653423196257,1.84211523657456,1.84083852566689,1.8545772097538,1.83757892711091,1.85818622736554,1.84992690897631,1.83705267618491,1.83500798429527,1.83142483745233,1.83146269609954,1.79435491466572,1.8330799999991,1.75094996920166,1.82720998622221,1.74788996880248,1.76756785806843,1.74766996329601,1.74610996318682,1.8217799999991,1.74236571991196,1.82251279941675,1.82251415244238,1.82166417533228,1.81976456192643,1.81846209018852,1.81934849674096,1.7373166351745,1.73734330238591,1.81375118979667,1.81422078924011,1.81381391189442,1.813790521054,1.81374016728471,1.8613099999991,1.81113205317433,1.81132779702903,1.86163000001589,1.81044517748022,1.9488499999991,1.73239995469708,1.81394500418526,1.81329634123486,1.81271560681356,1.81209895788039,1.81155220377738,1.77006177148606,1.73613191618427,1.81618799834949,1.85213000425905,1.7395954161313,1.74219750919446,1.74270845684027,1.74585943844045,1.74961845387871,1.83093500915876,1.82889314630282,1.8529899999991,1.7601099580512,1.8552043700799,1.78228999282264,1.85516673422226,1.91301490408194,1.82808689607016,1.90482486466764,1.90390638028285,1.90410777184104,1.90116102216423,1.82799790360174,1.82642427331954,1.90764817796681,1.90572345402404,1.91229450373358,1.82761833182488,1.82730277691317,1.82711739732738,1.84356851365057,1.82751157336447,1.91939936482305,1.91868805775757,1.90918249168515,1.84872316727001,1.8256928758818,1.82763431389453,1.90729166328407,1.82585624505024,1.85960637923811,1.9070623318307,1.82437699974534,1.91062349914378,1.82335210593664,1.88553638249472,1.90862172162549,1.91449835335104,1.90751653853802,1.82157481006679,1.85366474945407,1.91275850722196,1.90776935436991,1.89284998811843,1.81824100425994,1.81898927611806,1.8175434758919,1.9017400003544,1.88998832577133,1.81409080058856,1.81509548292917,1.81447464552658,1.88642999127564,1.81080997707888,1.8104967503694,1.84527821032643,1.88511284358664,1.88555857820578,1.80899312574674,1.80727987590445,1.80816994541328,1.80581850837245,1.90186999999911,1.82228496598473,1.74137994943255,1.81247269910786,1.81450597015217,1.8126395506707,1.7339441399939,1.80829811315177,1.808088665859,1.72442154919734,1.72426488310222,1.80119402085996,1.79956829364842,1.79887602943313,1.79681847429319,1.7970395634397,1.71756999626587,1.79339606193075,1.79308074835581,1.79376637709232,1.79275225355045,1.71385831051747,1.71405164311523,1.75927934647495,1.78929880799707,1.71474542549604
1.76089472860063,1.68078858498479,1.6806697075085,1.75814556979647,1.75921535586152,1.75816740355835,1.6784900000009,1.75464333333266,1.75549666666599,1.70678319680256,1.67747540343639,1.67317137895206,1.67336426976711,1.67456620625098,1.75657402489603,1.75464412434315,1.75389327984595,1.75415079875589,1.67502832238966,1.69854850952114,1.67491587989218,1.67614397734556,1.75563999999955,1.68004299827137,1.75108257114172,1.75912333337102,1.79205001384314,1.76444814268755,1.76571628338454,1.76918888222033,1.69206809892347,1.69547189888473,1.87115218857239,1.71828999450408,1.84235540439508,1.84035159641745,1.84056935704812,1.8396368159745,1.85860147599001,1.85458964179195,1.85950465831893,1.83471201968547,1.83424444987788,1.83050505253492,1.78309731129858,1.75246409342049,1.86127001691947,1.82996799371445,1.82786288764196,1.82861506579696,1.82706383572627,1.8251669565573,1.74487772241821,1.74334874449884,1.82292211978957,1.82112103655976,1.82048541786582,1.81994089377703,1.81948445818779,1.82098633683878,1.9448199999991,1.81652999999955,1.7372100000009,1.81366991069183,1.81341989885987,1.73403998204698,1.81325062054702,1.81294383892933,1.73408998444624,1.810740091732,1.81072364088349,1.81036418894125,1.73194722649444,1.81088474422898,1.81221727032798,1.85785000008062,1.81247809338474,1.73388000000089,1.81493236183695,1.8177797806444,1.85686000039667,1.81554000028738,1.81711599827525,1.74072968988665,1.76222180241587,1.8563799999991,1.74691765868128,1.82380998802881,1.85437003029097,1.78793932048912,1.7571236045692,1.85448616136982,1.85476689244313,1.78268999061587,1.8466685632668,1.83002379825551,1.9009768728702,1.90433158099459,1.90321828795691,1.90266551469031,1.90141075601208,1.91668999468761,1.8276722252847,1.90289783993815,1.90285616727828,1.90171499607374,1.91322171581407,1.82682378487602,1.82662214337901,1.8515242947551,1.91622005759966,1.90962826032954,1.82407025743915,1.82436439787956,1.8395652115388,1.82552932832178,1.92339001790496,1.9014360816846,1.91830011342227,1.86492762774569,1.91021834518668,1.91379307678124,1.91467255696793,1.92070019656551,1.88635645088433,1.82403081698595,1.8238888794952,1.82371808300303,1.9174799999991,1.84404694769791,1.82031572568295,1.81989115340006,1.81985097773828,1.8190404954824,1.81980474269676,1.91342167413736,1.913548340925,1.89054165880966,1.81414777678886,1.81489240172468,1.81376229714196,1.90569078676269,1.89709923276831,1.88522332928262,1.84863409988468,1.88547857820578,1.80877247322473,1.80798057340551,1.80879874186683,1.80796481719554,1.80760790933651,1.8072220182559,1.82453443809154,1.82316673417953,1.82372635932819,1.83043469890775,1.81324145547343,1.73056584765392,1.8076537065889,1.80774452821016,1.72753826400878,1.72484128391008,1.7231859892761,1.79970754361929,1.79883281534249,1.79736738085739,1.79673867343688,1.79748370880319,1.71541861859144,1.71479660738575,1.71403346652767,1.79288153876816,1.79268999713592,1.79346044754026,1.76400690272271,1.71254999066865,1.9027399999991
1.76128187190575,1.6801417075085,1.75886922204266,1.6791800000004,1.75938117700401,1.75913009991111,1.75515154904387,1.67447666665969,1.67294333332796,1.71931537679409,1.7547562846197,1.75337518567314,1.67620959083269,1.75367621120737,1.75421509688238,1.75315686387469,1.75265205906184,1.75115713449295,1.67494165639179,1.71618610191759,1.75490160674767,1.67770810659827,1.67848718944994,1.67925503049723,1.75108167046277,1.75933666661024,1.6833300000009,1.76358632783843,1.77001100020899,1.77104339609993,1.69349095525741,1.69564904265901,1.87579834356414,1.86736946786168,1.84397148750039,1.84138767370588,1.85469226276676,1.83968151278843,1.85816365804844,1.85398803417137,1.83825378887954,1.7584999999085,1.86138002255789,1.75444000151761,1.77475030505482,1.75152057160458,1.75153938264539,1.86463855702834,1.86573572166043,1.82862352393904,1.82763532702317,1.86442000717186,1.82577274775224,1.74227772126672,1.82315443988444,1.8212787025127,1.86501000039181,1.74133999990865,1.8180817469838,1.82060879610446,1.86671999999955,1.73767371824893,1.8651999999991,1.81592452515981,1.81363895057378,1.8623299999991,1.73388971662434,1.81289249364417,1.73288998449187,1.81033732396797,1.81088461286348,1.81101678858541,1.73165629092845,1.73201922601865,1.81075881314741,1.81084542435093,1.81169081486964,1.81265550571585,1.85776000005572,1.8193137199219,1.7377068063288,1.81735599842947,1.7382000000009,1.85628000396398,1.77616374473767,1.74440652267619,1.74648168457563,1.85406318204505,1.83048997307927,1.78195494576209,1.75657181926477,1.76304932434298,1.76823123097625,1.85527999999955,1.84785741407485,1.82906749463204,1.82880379102775,1.8278873582147,1.90352406388197,1.90443100990114,1.91031606672078,1.90024989324003,1.82683392667834,1.82706715015265,1.84390914777413,1.82710470436601,1.90331844372277,1.90423111055371,1.82677178664295,1.85773897771968,1.92503095932233,1.82568076389309,1.82467646850053,1.82443038914928,1.85088173873643,1.92724003325499,1.90001241146398,1.9105605232816,1.90043506599751,1.8593562229539,1.82369102606192,1.82354256186391,1.89689136130551,1.90807891694598,1.9043527037551,1.90616936144479,1.82282465887387,1.9061899999991,1.82203060683515,1.83532489104619,1.82150852630994,1.82024969333816,1.90663295383263,1.81932693323613,1.81952230695378,1.8182139331283,1.81748529808749,1.81630945370372,1.90056499999933,1.83553430998593,1.81137348233519,1.88181999746613,1.8130800000009,1.88411666244147,1.83820485548903,1.80927548130921,1.80884203547279,1.80934721722996,1.80664422653332,1.80855863231324,1.8072150848523,1.80755412386986,1.74328999992056,1.82947347155728,1.82489634138336,1.73836997829147,1.81146016340467,1.81100550074244,1.72844997590401,1.80703063583299,1.80461908259978,1.72641798927492,1.83043001359701,1.79699208991361,1.79832176975461,1.71944999484544,1.79793920834881,1.71739324660921,1.71643224494351,1.7153762575769,1.71532793525901,1.7970347166473,1.79698290873985,1.79225856732173,1.79167757635695,1.79240348556724,1.79221042983627
1.76146768351813,1.76205186196373,1.75838242587435,1.75895414713002,1.75874547444961,1.79244001080376,1.7554185150627,1.7551537981457,1.75526507518019,1.75493684861675,1.75491879144984,1.6748200000016,1.75247144516813,1.75211666255653,1.75274413905764,1.75175563831921,1.67508832314964,1.67508165710913,1.7936899999991,1.75323439362603,1.75318946941893,1.67816562081046,1.75770999999955,1.7921599999991,1.75078092543572,1.68251997457501,1.76485424436361,1.68650999742639,1.8695799999991,1.7860667112124,1.79233663223666,1.77749474970268,1.77902099858865,1.71657998108428,1.84611468189534,1.8425245541104,1.84170330235243,1.85581686762557,1.83918998446978,1.79219642251992,1.75936932582345,1.83332453891891,1.83130248659727,1.83134298020722,1.83245415432918,1.83319839321843,1.75103586011064,1.86357572166042,1.8273585656277,1.82732691419038,1.86262000958897,1.74711996817216,1.82479112716868,1.82418348994848,1.82434077357974,1.82212911915588,1.82240235905939,1.81840924040588,1.81804674589611,1.8195470723926,1.73836971574338,1.73740878044126,1.73721771727512,1.81505001346763,1.81272176229946,1.73468171468235,1.73468850760074,1.86084499999933,1.86230499999933,1.80983504118845,1.81169168527,1.81162110374432,1.73170722541972,1.81062448942496,1.80978125820109,1.81096846079892,1.81242822204948,1.81316996204152,1.81367269643737,1.81732739251935,1.73745430830487,1.73789880612258,1.9339999999991,1.81879228415674,1.82219829855382,1.82132409720608,1.85471912806653,1.85432655738929,1.75329998281035,1.77196366921577,1.75728370574291,1.83880397316885,1.95268679932047,1.95818320067818,1.88918720495777,1.91973001295175,1.8998699870469,1.82882348273363,1.91514494388749,1.90686827476342,1.90986899411905,1.82773059437632,1.9114099999991,1.8261759972777,1.8547502246454,1.90914031813892,1.90172469604356,1.82638730037671,1.9186799999991,1.88783624541478,1.90510735784005,1.90629977656186,1.90330545103263,1.91875999965059,1.90785214308868,1.9043384301245,1.90950146501822,1.82313245894292,1.9242700233077,1.8530019591482,1.82466954974877,1.91786937728716,1.89819094576997,1.9072012114347,1.90184364753453,1.89796815315719,1.82251045171428,1.82155795904305,1.9027799999991,1.8563766212131,1.9175699999991,1.82091331505689,1.90796632635816,1.91790071980742,1.89174986265605,1.90539667195158,1.88832057239493,1.81635709064321,1.89986499999933,1.86725396962693,1.9000899999991,1.8119496623013,1.8926999999991,1.81224922684072,1.82994280643887,1.80955518788832,1.80990888956436,1.80733423854635,1.80911939161572,1.8088462693537,1.80820817873827,1.80873701761681,1.9063499999991,1.83082960770334,1.82353583096409,1.81625841891174,1.83047002361813,1.8098171798809,1.83097001721161,1.80672183473438,1.72753996161574,1.80475593642048,1.79911000070762,1.79848692191508,1.79783665346218,1.79645140408521,1.79566401431758,1.79558139970097,1.71628124538193,1.73964335453516,1.79599999998599,1.82853000902296,1.71361665446595,1.71232332127364,1.79123772905689,1.7921900536002,1.79213322000507
1.76176696262308,1.76086443277492,1.75918471393883,1.75852761048479,1.75769266081526,1.75672696015102,1.75619668684588,1.75590226544447,1.75519178530853,1.75471040626213,1.75491059847854,1.7543130145536,1.75351459249161,1.72906161081734,1.71668469915848,1.70796499090261,1.69720782681219,1.71723650907937,1.75394226201562,1.75375346064445,1.75304285978969,1.70661394727255,1.71945018534618,1.75042477882423,1.75046912863776,1.7125220262665,1.76596644972188,1.76570680326686,1.77600009870453,1.78375058294548,1.78592545781799,1.78202966353418,1.78343811293229,1.80584683224416,1.84825356013896,1.84460829279277,1.84171930549235,1.84691544701598,1.79351984761474,1.78622998546283,1.77366614040346,1.83270037445442,1.83162411957481,1.83213774964926,1.83279934357515,1.83298325231939,1.83227158495877,1.83078386362024,1.8277211575927,1.82525101987482,1.82198795066636,1.82338847836029,1.82450372743057,1.82467828419563,1.82460947726868,1.82296052247233,1.82195623499281,1.82079626245561,1.82018144085364,1.81994516803289,1.75700773427155,1.76571589788407,1.77433130184458,1.81256726450015,1.81179898950411,1.76532827783513,1.75297133224378,1.76469875363771,1.80855792061783,1.80899201064234,1.80982902195416,1.81056764016608,1.76214316947637,1.80921612659415,1.80871643647577,1.81018545265282,1.81232042149446,1.81346040775399,1.81490342892915,1.81664293925482,1.81915639587849,1.81935782874458,1.82030802313799,1.82055884185055,1.82560920016645,1.84330264984838,1.85293339124584,1.84740620551541,1.7933227964824,1.78509520770295,1.77221177923009,1.83993204233224,1.86783475722329,1.87632697471875,1.8891996345176,1.89595704759314,1.89450368541847,1.89379942784053,1.89431291173574,1.86761741296962,1.85319368717506,1.83964072824953,1.84815227356435,1.85664299449285,1.86539533874617,1.90867710117384,1.90718430990823,1.88919753588766,1.8882028601388,1.88721181415741,1.8859636845936,1.90294187081535,1.89984386277427,1.89791928311828,1.90768397681888,1.90865515087216,1.90762437610193,1.82173627696332,1.82129440205447,1.8205430242503,1.82262096781946,1.91316235517475,1.91195684758295,1.90849594937907,1.86835465016572,1.85418406270449,1.84189179283739,1.81958718054212,1.82040493339198,1.81985565126124,1.82001070408893,1.81911770203804,1.8931730702333,1.89269430811789,1.89211178277762,1.90343822976902,1.9027296007487,1.86610445737481,1.8658859146278,1.86603024668744,1.86521589853261,1.86551727972113,1.86623580342854,1.84795729500905,1.84059870314588,1.82890498192191,1.81081957582807,1.8098024474477,1.80936513141333,1.80979508337514,1.80889273116939,1.80876912787237,1.83228609959924,1.8317488764842,1.82091880248057,1.81292719525403,1.81244675968917,1.80575396046583,1.80597478507165,1.80628940992898,1.80588893367553,1.80206728836727,1.79866697134346,1.79796390909608,1.79766118695283,1.79708628318591,1.79648793027868,1.79602307950207,1.78271149606305,1.782786759855,1.78318564147652,1.78411319115317,1.78536016375001,1.78627301416693,1.7909099947011,1.7913121384802,1.79092893081313
1.76140435215798,1.76137586657964,1.75819755026827,1.6794999999966,1.75719356982851,1.75666160218471,1.75734114010189,1.75721060965355,1.67503499993548,1.75404248067499,1.75634605358103,1.75419895681951,1.75355052613278,1.67356998397224,1.70594846179548,1.67499164921775,1.67503831576947,1.75493406058548,1.75477737292303,1.75526039309897,1.75701425405203,1.67596080725799,1.67854204256144,1.76182781636747,1.75030542538849,1.68146998364653,1.79243000191807,1.76349932731653,1.68960894661111,1.77887779642853,1.79027337679229,1.69579999997192,1.78914100225414,1.8658599999991,1.8512013839609,1.85640330414609,1.83996288387166,1.9324599999991,1.75882242855553,1.75897538121586,1.75834118580455,1.83434459320093,1.75693996074441,1.83331416667281,1.83324995795339,1.83320846809249,1.83207736209134,1.83178764905755,1.82792574859653,1.82595890348189,1.74711993836935,1.82611990766644,1.82564945366616,1.82355016843396,1.82393199930752,1.82132577233727,1.82011159178674,1.82039054990032,1.81980371124265,1.81947142637146,1.73710997606053,1.86455000011881,1.9408499999991,1.81286031050545,1.8127879510045,1.81306662466336,1.73424498344541,1.73258498273529,1.8094033530619,1.80929969362338,1.73286996230379,1.81156465757744,1.73168997115096,1.81084216178629,1.76555003505417,1.73260648203338,1.8587799999991,1.81137791450849,1.81336131423879,1.81493293602213,1.81547411844822,1.81532921623533,1.73880496657063,1.73890496598775,1.82573569190726,1.9341999999991,1.85428061574432,1.82826930889549,1.82998988867796,1.79236908846458,1.75763985090118,1.84075924798124,1.85847268021807,1.7814799876254,1.892708402449,1.92009999707704,1.82465730580899,1.90262166153903,1.90374832846438,1.85370191946072,1.82711238695148,1.82736094453017,1.82716627887781,1.9114099999991,1.87226674006608,1.91752402607336,1.93104001962051,1.91341832959622,1.82465023573559,1.84760373364198,1.82478677362733,1.91440536149546,1.90019002404298,1.90021742679945,1.90765887251668,1.82495413912202,1.90212265843831,1.82392805332993,1.82445089508653,1.82108645734899,1.82396414413619,1.91546237454752,1.91325237417575,1.91894389308178,1.85561869901612,1.82070465460645,1.9040599999991,1.82144965969943,1.82228611629711,1.81922340914255,1.82113880429605,1.82010265335432,1.90981103899077,1.81968497428825,1.84968385847852,1.90954319940803,1.90615987017378,1.9067229631832,1.81530368278061,1.81667792788231,1.81507471407585,1.89951358757809,1.90808650635289,1.90785989359371,1.84690231228145,1.8894199999991,1.81212728226242,1.80831395276929,1.80776638402729,1.809035316081,1.80748995601309,1.80694943349957,1.8338086398147,1.83194803075959,1.82049957189538,1.7378599546729,1.81369651356595,1.73061330806842,1.73038664070952,1.80598208228869,1.80457426550475,1.80331796040096,1.72273568474743,1.72099106575711,1.75845659111798,1.79758996222375,1.79689020501341,1.79560503549924,1.79443131208369,1.78270895314184,1.71557997651428,1.71650001384335,1.82744000226343,1.79258378485227,1.7915170202429,1.79221720964862,1.79198258023711
1.7625918953145,1.75915647032365,1.75818722206074,1.75823617785429,1.75753826843319,1.75782994754599,1.75678349188322,1.75648682111421,1.67613499994689,1.75225940680778,1.75218019983274,1.75256997067101,1.673973333334,1.75316333881693,1.73062639640073,1.75417275635012,1.75330407527128,1.75345531506969,1.75520224623421,1.75561306031509,1.75658879237544,1.75635318904565,1.67879713933783,1.7569202944393,1.75851789949572,1.76086239297641,1.68481453894349,1.68654117057458,1.69030678316351,1.77391674960305,1.77222504802387,1.8697099999991,1.78992771965937,1.71681666135937,1.78118382425826,1.7619268271184,1.84098607481419,1.84123785572565,1.75941860159563,1.75926221990093,1.75873200919416,1.83524740916791,1.83572556329258,1.75441996228123,1.83511224699726,1.8643600159554,1.8316141015217,1.83052922982276,1.82470646659021,1.8258742629042,1.82703165056855,1.86546000164932,1.9423999999991,1.82257348771896,1.82359895770736,1.8217048940968,1.74204001355622,1.74139999322279,1.81837709909165,1.81830688579331,1.81757113755685,1.81673276210486,1.81457334198594,1.81346965190122,1.81414820266621,1.81426582888372,1.81456446896413,1.80940265976475,1.80972438066528,1.80979170574596,1.80979479793031,1.7333900000009,1.8110499999991,1.73207998495105,1.75177480610939,1.73240360375926,1.73349663683679,1.73381543217965,1.73430759663514,1.81508841317523,1.81511754843239,1.73975500000067,1.81848015592545,1.82020365434844,1.82306185879905,1.74488996924948,1.82422357309189,1.9346799999991,1.83334314619771,1.83467300707901,1.83467137930165,1.84082106763184,1.85607668948248,1.95252999999911,1.89562985540854,1.90350999070613,1.91832713534034,1.91661377103615,1.82748873285417,1.82468941037075,1.82757659404132,1.82792185144547,1.92484066864633,1.82849074630998,1.82865180852017,1.82742719557159,1.8274496489821,1.91281166429922,1.90034997959038,1.85435321242312,1.82641331242855,1.9008299899726,1.82705587457925,1.90713980049066,1.90911620560875,1.92078709018748,1.91694412125161,1.91094259515826,1.82487466840272,1.84435500120151,1.91522000711382,1.82359295399459,1.90809954629742,1.82621704468434,1.84317548089533,1.9139099999991,1.8239500000009,1.90361499999933,1.90331499999933,1.84105596353717,1.82118935129103,1.82108938807318,1.90717776891577,1.91601119209167,1.84080063510725,1.81707213608506,1.81247051875129,1.81488210262691,1.81540574084352,1.81655257872515,1.81475350968601,1.91656003295952,1.89283877406268,1.8105876648084,1.82827337398535,1.81093441611819,1.81021313264528,1.80882817044684,1.8100384383237,1.80905881007652,1.80699579104981,1.76435998852279,1.82141555309945,1.82242331625618,1.82164911300576,1.81713234607079,1.81321911061042,1.81292845194558,1.80848105702487,1.80576589252623,1.7269399844872,1.80379838188021,1.80206538850096,1.72290319425157,1.74212749358829,1.71994997192947,1.79673408182806,1.9024699999991,1.83015999999955,1.79652088061131,1.79430887862641,1.71617997747054,1.79292625113233,1.71384999231282,1.79118696464566,1.79145416388086,1.79234526870249
1.76307477650435,1.681548333334,1.68038166666733,1.75774799927382,1.75734134977233,1.75783879938611,1.6771017370373,1.75594921535518,1.75481178760794,1.75276614710686,1.67509999997486,1.75324282212859,1.67450666666734,1.75425667179065,1.72206753702775,1.6752199984012,1.75426343621038,1.67570143640843,1.6762682797602,1.71070240614364,1.67607998851557,1.7572340574277,1.75928677941613,1.68037942335994,1.75949843133767,1.76203335938346,1.76311927198248,1.76555468288648,1.69185855794566,1.77143527086565,1.77243196390696,1.69599332474854,1.78889442174256,1.7154833280876,1.79008179410785,1.84288905058731,1.84212342603784,1.84057337789777,1.75951703768645,1.75946479090686,1.75891133132481,1.85832002420678,1.7558700000009,1.8601300140563,1.83499808701665,1.75451996215697,1.83170775003906,1.83077124686117,1.75028363967934,1.82646308100391,1.86490001916815,1.826344850067,1.82512252733793,1.82409883083951,1.82405192900873,1.8650999999991,1.74171999322279,1.8208557862283,1.81985807205195,1.77603910172802,1.73714974945007,1.81633426899081,1.81477190562015,1.81396692151475,1.8152745170987,1.86304000007287,1.8134966539109,1.81354157292363,1.86308999999916,1.8101617458208,1.8108220941639,1.81088081077084,1.73305853314436,1.8119299999991,1.77036594214337,1.81257000013873,1.73412170328188,1.73575074291053,1.73551967379613,1.81548630560833,1.81498879348055,1.73833500000067,1.81985625293151,1.82072848057511,1.82267751407994,1.82434798164283,1.82630332549856,1.7501616564399,1.83197862628314,1.83415178885881,1.83418850866704,1.84091917279377,1.85528613450387,1.78302832674998,1.84619888046625,1.82961829967872,1.92697346449561,1.92042542366273,1.91828073126097,1.82401507379782,1.82785791303094,1.82812799650093,1.9147746902858,1.82836364567325,1.82842608361133,1.82785650852698,1.82740095593098,1.9252820373413,1.92041939659243,1.86414894116214,1.9133699999991,1.82686387457925,1.82595835574943,1.82689927397538,1.85529870849738,1.92113781519159,1.8258600000009,1.91893633647489,1.82561772652889,1.85191918301639,1.92692000958164,1.82379340289197,1.82449885458086,1.82581339006714,1.82678281308659,1.8261889236054,1.90738373681454,1.82106874220349,1.82076647759546,1.84755943326312,1.89774265259718,1.90748732066748,1.82053595388165,1.81948532703817,1.83162101339547,1.81794067464134,1.81749834778659,1.9066999999991,1.81540231002922,1.81639669596131,1.81445497992761,1.88583998035789,1.90634707024011,1.88467999466223,1.83869756882082,1.81078261583517,1.885175706478,1.88575750689393,1.88345292056145,1.88609265561011,1.88347785537974,1.80752998630186,1.82129612135112,1.82147654918417,1.82058513210112,1.81834654203608,1.81374327059755,1.7333100000009,1.80612319418862,1.80635942326982,1.80483432873993,1.80366291011714,1.80070347069801,1.79963462941472,1.79302766832035,1.79917000106695,1.71910022188312,1.79738290146056,1.79710824428035,1.79654790111033,1.79558050613665,1.79283311611179,1.79444170162263,1.79292191023395,1.79157574919741,1.71276999324696,1.79168140320369
1.76200722370198,1.76163439023384,1.75765663478619,1.75777073757956,1.75674071344372,1.67783773614435,1.67762876179433,1.67646173673368,1.75488483638321,1.75397359951717,1.75639808785036,1.756538034518,1.79467000309345,1.67809996817013,1.71482206690683,1.7932899999991,1.75579665659158,1.67506027996023,1.75443001408427,1.745943752853,1.75503013353166,1.75547067369853,1.67904342305821,1.67949714750169,1.75974835778602,1.76122110880958,1.68339833332665,1.68539166665991,1.76806349812742,1.76941772993262,1.77133330107479,1.69612665752925,1.77866156392246,1.86559931068967,1.84663750197544,1.842106673022,1.85206736569024,1.85786173880188,1.76082462766002,1.75977111346116,1.75867016906712,1.83304777104521,1.8333525526918,1.8359448722526,1.83462150830433,1.83458170953298,1.75134129028252,1.75038657605227,1.74865835319966,1.82846539176619,1.82758160909481,1.865000017439,1.82488825134858,1.82183483458883,1.82240820455889,1.82178600019136,1.81874808626207,1.81980772170668,1.81921578622785,1.77104742128448,1.73682977740411,1.81643973181464,1.81489766095454,1.73443995488941,1.79771991583384,1.81502,1.9407999999991,1.7338083059353,1.73348163889435,1.80987001376435,1.81118406894242,1.73193711307802,1.73296938904454,1.73253473236892,1.73076240949939,1.73104163808011,1.73299372162502,1.73381367876502,1.81440230823061,1.81563449183555,1.73711995244207,1.81701639209014,1.81937096127245,1.82061444658883,1.82208357841193,1.82322659461493,1.82653563025868,1.7482083231931,1.85561261196707,1.85814100169373,1.85534499468022,1.92800999999911,1.85379241255704,1.78362166219199,1.85402798114296,1.9232700052323,1.90217460003414,1.92720954576331,1.89966997843881,1.82432111364593,1.82767013330809,1.82907298915227,1.91611465407695,1.90224998698867,1.82759048526056,1.82768099215919,1.82769708563649,1.91724076617172,1.91099780910823,1.85835395395618,1.82753772504257,1.91985015059178,1.90975984940688,1.82624745238472,1.84848044399971,1.82514170001167,1.91900889311945,1.91742049157478,1.82651336754938,1.86025965534274,1.90806626957979,1.91596625081654,1.82400525786698,1.82425192575388,1.82589129754301,1.82280947210255,1.90312547833652,1.89847078484714,1.82176676049044,1.85485389075439,1.91787002993013,1.89328999680342,1.82008819764893,1.9026399999991,1.86121939402974,1.8994199999991,1.81619034887994,1.81448723176105,1.8168137459437,1.83778941262295,1.9005325715173,1.90329761782479,1.90148177828243,1.89787219256432,1.8826881466006,1.8862299999991,1.81054991929304,1.88353550936442,1.883855336174,1.88888724621277,1.81084551536476,1.76437995365016,1.8298160389705,1.82029429082478,1.81968017310393,1.81751123139974,1.9263199999991,1.83225017206613,1.80798798025178,1.80492179413373,1.83150629392732,1.83168832614316,1.72188998151971,1.80031232310804,1.79317096343474,1.72006022053174,1.71858127788554,1.71702822038616,1.79633323413205,1.79597496852887,1.9187999999991,1.7925781415351,1.71394997966448,1.79409482348239,1.79196825056174,1.8274099999991,1.71487999133393
1.76237802741493,1.7620993441819,1.75732357337667,1.7571224841613,1.75628266220462,1.69594344283772,1.70551852358493,1.71483473087738,1.72226072036408,1.72893728612975,1.75575064659923,1.75547651641707,1.75465028624725,1.695988627437,1.70681908120045,1.71886341900072,1.74013137401944,1.74118677719796,1.742995484095,1.74489944017528,1.74530884174775,1.74562736539407,1.74607792590928,1.74646886440464,1.75997233851251,1.76043756069761,1.76026056970743,1.76867314495061,1.76864458849873,1.7684151711878,1.7340967010503,1.7191667794531,1.78195350352041,1.86422937881522,1.8427087841459,1.84269076430672,1.84892994196188,1.84332539690165,1.83928154708075,1.83930523038876,1.83909191881574,1.83698747927548,1.83300026956311,1.83313337341501,1.83351371364514,1.83396218697496,1.83553834443777,1.83592007289296,1.83609636605138,1.83147032054485,1.82857943830946,1.82565305242047,1.82348873979694,1.82138838592943,1.82147511424505,1.82159081964654,1.82070917337786,1.82002585281766,1.77138459832039,1.76191392750999,1.74561265701578,1.75205789255732,1.75939863736724,1.76885454886182,1.79807614169203,1.79913578051385,1.80091949138618,1.80296596900099,1.804335514191,1.80923839148267,1.80971041814484,1.73131447619555,1.73125789532818,1.73072125353018,1.72986788087752,1.73038859345938,1.7322609505936,1.76263091237564,1.81713788933048,1.81825677030114,1.81809909935493,1.81818386105413,1.81904776327008,1.82032771036861,1.82142041890183,1.82248440131593,1.78081419227565,1.76887805502523,1.85798985718353,1.85866443336146,1.85746411443389,1.8571956049239,1.85107253189027,1.87054615742999,1.87903454760454,1.91990172452829,1.91329299375217,1.86244105573187,1.8561811989137,1.82550548137465,1.82700462003177,1.82715654014138,1.82618079717138,1.82582380941483,1.82619731067794,1.82642400787857,1.82427450359918,1.82404768269216,1.82404196688695,1.8247027030543,1.82544042469766,1.84280480101313,1.85093663249589,1.85793658092724,1.86360133673982,1.86968926343701,1.91899738844212,1.92064864096552,1.90621918882473,1.90718981054662,1.90730260525086,1.91371511392664,1.83357946415554,1.83490893676583,1.8391971045669,1.84690951713893,1.85527143280892,1.8611770669446,1.86386000890066,1.86419740427162,1.89272493450876,1.89234693841159,1.89308189022611,1.89455103175889,1.85540790067495,1.84474710590287,1.83542832178942,1.82862191089204,1.83916340151719,1.85121435838225,1.88640780516297,1.88596780730551,1.88602931678349,1.88656232729171,1.88268559894791,1.88308847952116,1.88363578759485,1.88272112271692,1.88454413840385,1.88974686224648,1.83818185387916,1.82305431295422,1.82639566473706,1.82100285514404,1.8193085242369,1.81818024153931,1.8189119474678,1.82529693407705,1.80572597172268,1.80438711655285,1.82268862685841,1.79385421589652,1.79373812945361,1.79357588648748,1.79342890680699,1.74946350699022,1.74113528171168,1.73346343016525,1.74838968114408,1.79400313705183,1.79310159224396,1.74956412269494,1.73458836165879,1.74688909585608,1.75801710328805,1.7932878700329,1.79293957163884
1.76304313444573,1.76200714055866,1.68134000000016,1.75762052206899,1.75645067733131,1.67946998026813,1.75899499999933,1.75905499999933,1.67491584764346,1.72666482968905,1.75530932667908,1.75461964155785,1.75316427094558,1.67541165150563,1.69306909066258,1.67547998403839,1.75295755124139,1.75422110120938,1.67738195127751,1.67727339110811,1.67724771832856,1.67828313522699,1.75753655678387,1.79354000965506,1.76048152754767,1.76099032211359,1.76164254273768,1.79081001858763,1.77049682080565,1.76921348902631,1.69241705736988,1.69763291742164,1.78974499605369,1.8725699999991,1.84248710903511,1.83988993972932,1.8544799669954,1.83984332053776,1.9421099999991,1.85406274567922,1.85867983330043,1.75647995963813,1.83391187268265,1.75518992702278,1.83380751837374,1.83318583465373,1.83313246428343,1.83256140179915,1.9519899999991,1.83018118399367,1.82807601051644,1.82405028984681,1.74465107123402,1.74431351037402,1.7781102897614,1.82186732071118,1.82148473462704,1.8179805597525,1.73912959143435,1.75454599591306,1.73648159901639,1.73639506557558,1.73596684262753,1.81520304369971,1.7978528041909,1.73323497137037,1.73433497177339,1.8639199999991,1.81125499462968,1.8099830126102,1.81025528227626,1.73203068152566,1.81200166902664,1.81409075589164,1.81399946063138,1.81057849942263,1.73421505781094,1.81305,1.8593799999991,1.81819699723163,1.81707335656333,1.81820031894124,1.81765005229385,1.85551000747507,1.82153180276362,1.82322922598171,1.74965849265233,1.7507376824939,1.85626783354772,1.8280712712369,1.75930993992838,1.84159036891342,1.8491201494724,1.96514001413535,1.93416403478571,1.92616221074814,1.9313342176809,1.82850801078306,1.82899913236157,1.82806082015179,1.82933101080829,1.82765753542271,1.8267924028426,1.82724151273702,1.82685267413846,1.82708448648058,1.90351916170099,1.8280980466663,1.82734430358825,1.82700974377852,1.82567484359626,1.82677307066172,1.82809093092086,1.91423400952818,1.91399968305498,1.91324539090537,1.91469854264047,1.92374476758917,1.90048967732294,1.90380422441687,1.90195351058955,1.92247352298632,1.82402326854815,1.91730002081875,1.90746906841275,1.9101204359729,1.82265358404291,1.82265172704397,1.91696959126156,1.91370362963826,1.91715030893111,1.82004838006099,1.9003699989043,1.91309000109436,1.84474184674937,1.81680929835659,1.9013799999991,1.81618787473005,1.8894599999991,1.85741489604132,1.89033999693854,1.81283628677219,1.81194294305167,1.8870899999991,1.83534978831831,1.81113675927255,1.88856776420233,1.88586806129003,1.88685446522592,1.88368654628446,1.88091338897098,1.80561640100122,1.83371072690299,1.9278599999991,1.81986525281565,1.81828943267354,1.81716661463368,1.83180319372336,1.80694039988254,1.80559307922943,1.83117978869056,1.72477285116105,1.83442000490021,1.71845997273019,1.79355008565577,1.79907936411664,1.79875140308081,1.71701164948841,1.71677831528173,1.79322730537199,1.79316593339365,1.71520627119009,1.71543134037886,1.71432005849568,1.74751613492728,1.7935407714288,1.79339876821364
1.7616873505856,1.6814800000009,1.75998890170266,1.75870070480617,1.75713057755718,1.7932199999991,1.67686555429338,1.67752782301101,1.67661929741175,1.72236233669158,1.75600137600697,1.79510166666599,1.79590833333266,1.67457826651029,1.70174769712078,1.75165212508367,1.75190508266589,1.67668000000089,1.7556099999991,1.67702138033803,1.67661686646092,1.7520043650657,1.75800748870946,1.75992675212717,1.76042363572147,1.79325001306801,1.68506757590654,1.68869928948672,1.78994001014199,1.77000467832405,1.77138598115567,1.79188408259375,1.7820259974163,1.79117512528486,1.8425001152995,1.84056418108816,1.761208333334,1.75936166666734,1.83795351294333,1.84977550655751,1.85865882179635,1.86004182141484,1.83537511971837,1.83462194160888,1.83452972854368,1.8340629481747,1.83320933529718,1.8270918584552,1.82780497163973,1.82896489413666,1.82732315564059,1.82474939164654,1.74547351173894,1.74526989258801,1.76842693937284,1.8665999999991,1.82243760690885,1.7413452814331,1.81725346528523,1.76154356402975,1.7383771377034,1.81597564251852,1.8162460847475,1.81496574621266,1.8150631298608,1.81337619779163,1.81389763819999,1.73333833333401,1.8108802858807,1.81032084628663,1.80962217066598,1.73186326465195,1.81185826984439,1.86110999999911,1.81623502162497,1.73355997908248,1.81186999999955,1.9459199999991,1.73407854314354,1.73751401708378,1.73804893322382,1.81479987672073,1.85855000752368,1.74063996650549,1.77154505064741,1.74466339625242,1.74598482352683,1.75079827053861,1.7539070649501,1.82722342670732,1.83462999372996,1.84140095583712,1.9287133257502,1.95013999922602,1.93394678065925,1.92656078391711,1.8263800000009,1.91981510357778,1.92412489642088,1.82894020632929,1.82825224460278,1.92373438965203,1.82744500315374,1.9155199999991,1.82789630590945,1.82723150991615,1.91196083829767,1.82775590439827,1.9175699999991,1.8267371391842,1.82521307540083,1.82510217960602,1.92864000702989,1.92988000750424,1.91575739974413,1.91609480599649,1.82526379581651,1.91112535334127,1.91136852277943,1.90798508961381,1.91330309333318,1.91332557336857,1.90926531714167,1.89724310642477,1.90345820957362,1.90522009528927,1.90407968155034,1.82197973625281,1.91299834542453,1.91191459196801,1.92471209986405,1.90473999338366,1.81934826288955,1.81827506158006,1.8326209115018,1.81803436783872,1.81709419292682,1.81680778260349,1.8142519712693,1.83724481590664,1.90385001776783,1.88551805510388,1.89015191607436,1.81126198078427,1.81181760965194,1.81098428331136,1.80977877355094,1.80974591534927,1.88590691440923,1.88309111390754,1.88532230705973,1.9205891860906,1.90683998695016,1.82101180921951,1.81949033584477,1.8179353488683,1.83081165801657,1.80943527912356,1.80749419984899,1.80677515244875,1.805884403063,1.72510428670572,1.79721458505036,1.79725251121681,1.79785922756811,1.7980354680672,1.79756996739895,1.79627450786323,1.83013001278388,1.79339363164282,1.7947814135853,1.79435860819285,1.71377339248758,1.71460886715734,1.73297280868948,1.71473942724204,1.71609711872045
1.7627957278978,1.76183941135331,1.75980842959387,1.75885542547796,1.75729594583203,1.67866000000049,1.75667084433254,1.67672984820741,1.67601134398779,1.7150101537059,1.7930700125363,1.75315084475406,1.67489708797651,1.67477795835938,1.71131104308936,1.75745832781972,1.7554471059353,1.75512526634295,1.67659530666626,1.67683609219637,1.75663016409683,1.75756167336768,1.6787300000009,1.76151787950197,1.76044984919449,1.76102120568876,1.68513018811241,1.86929666666599,1.77138819208957,1.76989022979423,1.6918599999831,1.79041098370977,1.78124350114521,1.78987407391353,1.84127763290423,1.8410420660557,1.84035450833776,1.84251834027839,1.83713874805069,1.83548631007884,1.75867498111805,1.75681498218613,1.83476248212953,1.83490576350486,1.83476042908151,1.83256272432745,1.83117761821474,1.86304001935985,1.82869164018201,1.79605870102369,1.74590996955816,1.86659833333266,1.86675166666599,1.74470191832219,1.75599970519917,1.74248999617688,1.82274756703459,1.74104645701224,1.81666237067745,1.77354388238011,1.73841925403066,1.81623019959659,1.81665490610623,1.81494460022893,1.81544937959976,1.81380782572659,1.81392024550297,1.73381166666734,1.81102361144226,1.81151206045481,1.81290403231679,1.81190598622932,1.81085888076642,1.73148997870649,1.81494906521666,1.81463405811807,1.73198774741681,1.73415688641015,1.73523088561614,1.73671156037074,1.73723558631872,1.73814363559496,1.81912165934613,1.85598000909585,1.80903228981759,1.85512001381329,1.82508118171511,1.75092016134901,1.83296166235053,1.826147815605,1.7583071582143,1.84079720678468,1.93028665916596,1.94290001392044,1.87354261481932,1.82857734319908,1.90344931441696,1.83095355079446,1.83040693894519,1.82964889411638,1.82878176197112,1.92491445080864,1.9338211621766,1.82856277391295,1.82800630472867,1.82819515283277,1.82830899869508,1.8271075702137,1.82725166796573,1.82674491396621,1.82583559736071,1.82587917501192,1.82742466430429,1.90403043845039,1.90270580751352,1.82674454034613,1.82591619376917,1.82717167127399,1.90372968425613,1.90076553877316,1.9011167793894,1.8244900000009,1.92059076276745,1.82374674447859,1.84759644993063,1.82304697813112,1.91237554044073,1.82234561332278,1.89624779466659,1.90089626320276,1.90270275624303,1.8212000000009,1.91171638467228,1.9080928698793,1.86639805158342,1.90006538485179,1.81628388211129,1.9121699999991,1.81417883884405,1.81493411938732,1.81391958525976,1.81337571274967,1.90638001411269,1.81168946199834,1.81201871865294,1.80969108672277,1.81108183667583,1.80834094518028,1.80701283354873,1.80675993601525,1.80505352716851,1.92720082695744,1.82314914698312,1.82773222908008,1.81829259032656,1.81890865195385,1.73496690588141,1.81082307328615,1.72987331010468,1.7633590876643,1.83052001633297,1.72425285167082,1.80169045137993,1.83200001371493,1.79851920140086,1.79877180833734,1.79724412348986,1.83070001709415,1.71675997924864,1.75111635479401,1.71457998217992,1.82817001043213,1.79485212024786,1.82837000978792,1.79593002781486,1.79401810623022,1.71616342857218
1.76206913260926,1.76103369614898,1.7592946694492,1.75792541502021,1.75734965991551,1.75754443905186,1.75732294195305,1.75573787873282,1.67625026692233,1.70565734410772,1.75545484496691,1.75579430634883,1.67496457250511,1.67557042132523,1.72065448165104,1.79547166678311,1.79547833344369,1.7548034515601,1.67556556397547,1.6764268672035,1.67587728871552,1.67842649677682,1.75757362676181,1.75773103409764,1.75880576852257,1.68217333507229,1.68543959688215,1.86852333333266,1.7678794776261,1.76823773330046,1.76901130614956,1.69715999978267,1.8791999999991,1.79008003325829,1.84057977713111,1.84215265542051,1.84139458877479,1.84077468155955,1.83928885060173,1.83623653971372,1.8346872908324,1.83577512535384,1.83503415003928,1.83517072099944,1.83547366076161,1.83404162038284,1.75272996455834,1.82815967972683,1.75034996592039,1.7909432654832,1.82743072717192,1.8269078265333,1.82339185352682,1.82255836746777,1.82364326560609,1.82390879093845,1.743594696733,1.74313352118672,1.8160419430698,1.81644049275482,1.81664776163645,1.81684452874024,1.73525997795484,1.81620097721893,1.81655030761675,1.73386995175164,1.81411127409748,1.81384542644201,1.81194576836895,1.81184452973419,1.81206527091665,1.81254400330281,1.81174906993109,1.81339490816822,1.81323980569104,1.73399995841982,1.81116312417652,1.8584099999991,1.8142132092849,1.81543282815167,1.81665999999955,1.8578999999991,1.81864832638618,1.74292880029143,1.8092373528081,1.82424164307422,1.82643422245918,1.85615001983,1.83052832882076,1.82549430538441,1.76010283690761,1.76041936072573,1.76761050853623,1.93194998779933,1.87393045483793,1.82799749073192,1.90377302732727,1.90345131736726,1.92374556467775,1.85131152757812,1.82904218367047,1.91680999736049,1.8275514155092,1.82724130094103,1.82678868366818,1.82836131706837,1.92758119852217,1.91685837441937,1.92385110112091,1.92337620079157,1.91905111012587,1.8264315004025,1.82780393078643,1.90138347985232,1.90262379696274,1.89985096368922,1.82472518111429,1.82549013514644,1.93708000587298,1.86517667909838,1.82391753315773,1.9096199999991,1.82675701548222,1.91733857424575,1.91698652336689,1.91038400094262,1.90784375306955,1.82284907284552,1.90596561980544,1.9037212654545,1.90938793063093,1.90816927878838,1.91302813108357,1.81798540702839,1.8674639621044,1.90615228940355,1.90679232574286,1.81528562937676,1.81499317957131,1.81544096510328,1.81409092078889,1.8136554457932,1.81240469418401,1.81231565737825,1.81231167191775,1.81091855125167,1.8100514610791,1.80965233174356,1.80785240092523,1.80756936260607,1.80647628913489,1.76575994565341,1.82522005832943,1.74058950466719,1.73912683067913,1.73692141617409,1.73535003566958,1.9083099999991,1.72920664400195,1.74791545376749,1.72610996314762,1.80243020064633,1.80171364278516,1.79929633458117,1.79896399048316,1.79919534246927,1.71783998100431,1.79564748853991,1.79636670345434,1.79460707585357,1.79462121462498,1.71640997805557,1.7931286695093,1.71497997697207,1.79673464275618,1.79428509087022,1.7930679801259
1.76169758623915,1.76070272153619,1.75923178467746,1.75733705773561,1.75683487350611,1.75659942823722,1.75625727933616,1.75558820363149,1.69358296455226,1.69669358415077,1.71885675233778,1.72928327215777,1.70350691519879,1.71529548671142,1.73119355452271,1.76860986325718,1.77557439209375,1.7125079912725,1.67613696650594,1.67667300598595,1.67701706555344,1.67785864417128,1.75773734629994,1.75786895816292,1.75822006247885,1.71264560773177,1.7268640465747,1.76633151906528,1.7670059674784,1.76703567331111,1.76689812986629,1.78627421163309,1.78873482834873,1.78952029063487,1.84137415677678,1.84160797293142,1.84145308575401,1.8403759183024,1.83836655172843,1.83663509425187,1.83588229273975,1.83631559967518,1.83608856072196,1.83608087874084,1.83560061437271,1.83344353318084,1.83009827449987,1.82719414190048,1.77211731678604,1.78264695237018,1.82887503297973,1.82725164101982,1.82576678887015,1.82458809973481,1.8242672216883,1.8250935062954,1.82723390788776,1.8185545858973,1.81795642369979,1.81727464285501,1.81748550789273,1.81728413065601,1.8166588878645,1.81614763998617,1.81684631544213,1.76077642016026,1.81371964073156,1.81338434333881,1.81248789301529,1.81192455588694,1.81187628928145,1.81221771563909,1.81236005584344,1.81269054942621,1.8127411982972,1.81260478568564,1.81238977196342,1.81357219047327,1.81483855672978,1.81604491082338,1.77697625112168,1.76920047311373,1.76080464529457,1.75156517842473,1.80976190869599,1.82362354906797,1.82405751614056,1.82421295611053,1.82577263436249,1.825312600756,1.82414320071209,1.82314950903302,1.82291869855242,1.82326309273428,1.87461192292323,1.87465537123323,1.90209847155304,1.90039394323867,1.91651530225559,1.86016526393992,1.82960401755554,1.82853935725056,1.82631042599099,1.82470619711764,1.82487428824848,1.82727767358967,1.90922891535982,1.9105848004221,1.91272750651026,1.91891404041264,1.91902035759876,1.84474258250859,1.85571903470568,1.90211815054411,1.90426238988983,1.90593982821911,1.84326383115778,1.85378064169364,1.86447356588713,1.85849568751557,1.84292615814746,1.85050919178992,1.8577499821972,1.91933235344746,1.91921636334445,1.91657430195463,1.85156637283167,1.84004128098508,1.86714832705429,1.86553880844618,1.86629978890398,1.86811021277553,1.86963508522355,1.86989327992811,1.86872142972209,1.86698158242318,1.86560733515904,1.83934266485979,1.81605430652706,1.81612433565176,1.81504240757249,1.81429156686889,1.81324537271924,1.8127712765006,1.81265077941034,1.81189999157662,1.81014813577082,1.81059779452382,1.80888724320348,1.80852413843365,1.80753996263979,1.81399996937667,1.81969720700672,1.74034170985079,1.73898907025936,1.73758373842111,1.73636633485366,1.77103837456383,1.74672467277472,1.75703753809213,1.76677606281688,1.77220402710233,1.79987783150292,1.79932438423375,1.79910688600601,1.79928925418111,1.75431188591616,1.79505360909828,1.79456750722141,1.79404190698844,1.79420404529481,1.74976639696124,1.79550295300498,1.79697479161569,1.79780677139094,1.79656061689882,1.79537615289174
1.68307999993509,1.76086286927589,1.79201000732821,1.67865193294911,1.71349513845432,1.75631480840339,1.67864999999935,1.79131000672455,1.67557996473284,1.69252331934248,1.6771399748828,1.75486224239953,1.67534997948307,1.75426950001598,1.7537674274746,1.75359974999738,1.79397000269254,1.67580688917471,1.67577318322914,1.67661673360724,1.67704685579428,1.67829928022294,1.7932483338057,1.79420166711555,1.75869335347662,1.68212997838423,1.76219270837234,1.76535056178531,1.7680073155937,1.76734707830214,1.69494999635736,1.79101443314854,1.79025305233182,1.71776998043139,1.84246670087848,1.84114933245936,1.85602703302665,1.85603370150618,1.83741382683307,1.83654415715116,1.83571163689165,1.83657832274028,1.83564428217084,1.83510850053139,1.83483686587402,1.83326438538919,1.8315871846887,1.86326873036954,1.74870995709125,1.77490729863426,1.83051097186041,1.82603197644465,1.82596417656972,1.74409994288414,1.82373299524458,1.86610999999955,1.9498599999991,1.82056469870306,1.82019745524672,1.81802338280127,1.73887830018654,1.74043163400515,1.8165514577145,1.81487519372627,1.81660598370953,1.73473994972304,1.81321858666325,1.81311336712063,1.73374996151354,1.81177191838875,1.81153629490147,1.73385570718754,1.81264097274683,1.81189952910982,1.81246404708075,1.81262668710755,1.8621599999991,1.81247339825618,1.81385936345534,1.81650150197722,1.73746846291755,1.73966257085968,1.74065224659016,1.74177042844708,1.81064715504577,1.82334474368886,1.74676997045313,1.82696410823656,1.75538992586061,1.82573459217095,1.83692998224428,1.8549000115886,1.93065165928653,1.78466951916507,1.8752431010361,1.90617990940802,1.90521652492379,1.90402003858371,1.91956195870581,1.86812530361616,1.82959149308282,1.82854547942881,1.82593622860258,1.92119032070408,1.85852609990182,1.82959909179943,1.90209115574241,1.90220143381998,1.91039248885993,1.91524211804441,1.91357209029298,1.82708368134109,1.91161494630932,1.90212626616427,1.91055478832422,1.9272500141622,1.82651175425418,1.93622000245521,1.90697999754345,1.84680374758951,1.82617033544701,1.82494082163401,1.91293068101637,1.91271087117136,1.91766127365288,1.91444414965164,1.82344155464347,1.82315563736049,1.9078399999991,1.84728962607688,1.82263791075055,1.82084006304071,1.81958156870878,1.8949599999991,1.86988187297908,1.81836523102491,1.90187294150361,1.90906393565103,1.81534082061697,1.81581704699936,1.8142468352404,1.8994099999991,1.81265405708906,1.81152035136884,1.8124166068828,1.80932789519125,1.81269284787155,1.80751195068653,1.81135643462581,1.80858101148539,1.80747224087089,1.90784999281071,1.82523243927295,1.74134879175321,1.76965264916986,1.81760999999955,1.73554055902611,1.8107699999991,1.72844997772121,1.76776292317263,1.80341082899719,1.72522998552372,1.79913600257425,1.83308000457916,1.79927233651868,1.799890831671,1.72004997803269,1.79627758725702,1.71606998335767,1.79442227249608,1.79502516753828,1.71527999274197,1.7952828232516,1.79506622435554,1.79759269238953,1.71391332105309,1.9201399999991
1.76335060842315,1.76137549627213,1.68123593323074,1.68022761001873,1.67959362885512,1.67867111635411,1.75973497577922,1.75812080721831,1.75464724048452,1.75331757835686,1.75533424210547,1.75545332896401,1.75490383630345,1.79651000011614,1.75378159885379,1.75464000542223,1.75656993681216,1.67556813348431,1.67601840179273,1.69670390205534,1.755722904436,1.75681238693521,1.75798511951725,1.75788415519833,1.76003312187693,1.76223005854212,1.76274202881592,1.76793249076477,1.76865221902606,1.76810630199334,1.78991334695924,1.79081748820103,1.79069227424633,1.87579999999911,1.83985097777392,1.84161476155844,1.7633500000009,1.83789467885926,1.83759857468863,1.84180681799605,1.85765202354368,1.83611024481355,1.85636004308596,1.83386744719173,1.83351309978634,1.8322532892123,1.7539200000009,1.86457860972292,1.86113265990575,1.76774701296931,1.74929502793917,1.74816161623022,1.8678999999991,1.8251780390662,1.82401171362498,1.74344498751674,1.74150498821149,1.9560799999991,1.81918279003201,1.81770854856631,1.81665245349817,1.81674043485661,1.8163440325897,1.86570000014061,1.83253944530233,1.86489000011966,1.8126598092871,1.86492000012316,1.8135503679108,1.81254942807822,1.81300908303297,1.73295857335998,1.73253570773613,1.81207205866644,1.81212008751508,1.73330998346932,1.81288253209331,1.81329992454059,1.73670997618897,1.81769075060469,1.81685194879878,1.73867689195189,1.81740499999933,1.7418116241334,1.81166938192265,1.85867001863074,1.82801477214168,1.82815396152831,1.83360263403367,1.83288705320103,1.85558002167832,1.75999166666734,1.93153832555017,1.95156002679566,1.87555977453869,1.82987812188475,1.90515194773966,1.90604268109016,1.90636600154819,1.9049061682527,1.90252818583388,1.9014605615189,1.90286336024157,1.9108575505089,1.86542342348073,1.90359913702719,1.90068273439802,1.90001174626136,1.82810611528091,1.85084341579429,1.82793338872915,1.82831204673095,1.82906255633908,1.9150314753366,1.91020990546409,1.91046829012658,1.90358999539835,1.82648517376239,1.82554085593883,1.82664488006653,1.82620381548169,1.82614063293885,1.82487170061415,1.92067046187305,1.85033037055681,1.82431140871515,1.82338291854019,1.82339145024136,1.82272907685339,1.82028141136905,1.8204021961231,1.9103799999991,1.81888698687353,1.81807940726188,1.87000831036441,1.89695997776793,1.90045353360579,1.9006775674761,1.89874110518814,1.83691488514371,1.81346363163979,1.81298603070104,1.90785001992731,1.81156271647969,1.81127821549173,1.8137521815716,1.80702393840136,1.81367206352204,1.80713467366562,1.80982075950372,1.88596999999955,1.93245000994542,1.82195897879586,1.74148692419089,1.77907711388971,1.9071399999991,1.81183999999955,1.73194260641929,1.80490211041391,1.80494509566319,1.80406146856673,1.80425148177238,1.80330147752353,1.720439971164,1.74561214859205,1.71831684538419,1.7962299999991,1.7172800000009,1.79567385965103,1.79526406968797,1.79574201335946,1.71583999315754,1.79438451546078,1.794665881467,1.79685253090005,1.71432665468516,1.79533547726913
1.76179273613158,1.6822700000009,1.76132999926234,1.68046139558544,1.68022992618389,1.7588299999991,1.67794166524229,1.75748697577998,1.67574118986611,1.75313281250754,1.79279166690373,1.75469792360281,1.75450613177694,1.67497999999869,1.75364265459777,1.75467576355612,1.75522808089403,1.67641701142096,1.67541388157332,1.70882509143562,1.7938599999991,1.6780700000009,1.75845444454955,1.68108999993193,1.76120124691082,1.79296055891291,1.7906429230368,1.79153656078684,1.76918948192066,1.7684505310094,1.78996543967084,1.7902778673188,1.79113955845332,1.79209525703665,1.83863174079719,1.84046373208547,1.84174006178326,1.85503921803858,1.85491738049169,1.84761782460366,1.85758219430262,1.83525613773308,1.83467148779868,1.83375972870884,1.83250266132822,1.83360614575068,1.83241870275034,1.75098472824011,1.7509247595677,1.7587656990283,1.749608283164,1.74855502878499,1.82497041020057,1.82424863391005,1.82369822976689,1.82300562592085,1.82203096910772,1.7424400000009,1.81665580447268,1.81721774960582,1.81761018940223,1.81653243006718,1.8160565770119,1.73522998123317,1.81165391216717,1.81334647109003,1.81324019215421,1.8143282216495,1.73342164456798,1.80720402106334,1.81171756758474,1.812350524415,1.81031212418412,1.81018183114106,1.81141730170338,1.81169568343905,1.7334600000009,1.8135956253818,1.81423246892628,1.81642684454051,1.81528860929858,1.73779940643017,1.81646499999933,1.74229821257726,1.8123727577963,1.82417331034977,1.82878923468331,1.82884810541466,1.85699002787832,1.83288143010892,1.83507517679251,1.76087833333401,1.85567000000045,1.92910876861009,1.93525529293156,1.93182573814392,1.92398380185501,1.90226421472671,1.90084080000818,1.90353832518455,1.82940646795679,1.92119629724704,1.93095080324959,1.83081197656652,1.83168830895187,1.83017105698868,1.83130296983149,1.83063541006633,1.91539356912918,1.90816159358294,1.90663423505767,1.92351001950897,1.82831266699416,1.92501883606315,1.90840932807755,1.91076393975813,1.82727093513097,1.82710149289718,1.82621434487833,1.82722768549896,1.9107399999991,1.82463970061423,1.90981034051952,1.8234547297407,1.83918603483266,1.82490321499059,1.82386028781055,1.8234947640345,1.90698499999933,1.81944993558668,1.82191737171489,1.82205171168101,1.90967150390814,1.81825634357903,1.86974950667504,1.90677955574335,1.89016117031521,1.90317495716969,1.90455473633886,1.84626965766407,1.9004699999991,1.81135308727829,1.88887664781201,1.81147235395509,1.81076866478165,1.80863082547774,1.81314759032755,1.8067079240867,1.81171245741747,1.80864068327021,1.80776842022871,1.90454999724208,1.82543926918822,1.82003633442397,1.81982959200046,1.82006177261092,1.73536991473133,1.73082673841717,1.83404000970141,1.80563860790356,1.80575188155537,1.80425861480713,1.83105334351692,1.83118667622969,1.75944513530072,1.71938428214937,1.71778884633531,1.79645093796954,1.82991000802913,1.79567859760837,1.79551595649992,1.79423738183388,1.79420906572165,1.79440274388615,1.79625011578695,1.83199000307198,1.79340623405923
1.76070517848216,1.76125193162167,1.79066001086449,1.68152041593273,1.68107747410526,1.67953129277935,1.67739128991577,1.67688499694456,1.67632657996193,1.75291500222091,1.79355833359291,1.75519411610201,1.75392765949259,1.75416371951081,1.75336246253013,1.67540459005773,1.67763540992717,1.75372332962242,1.75376612681701,1.72060409021433,1.67624999638656,1.75498620146027,1.67945999972097,1.75986610056376,1.76139245133944,1.68247665420953,1.68270332128864,1.76730420169,1.77026140272653,1.76853994273557,1.8758499999991,1.69624999983606,1.87584157900951,1.8776009304841,1.85435817293564,1.83923243215953,1.85487108564941,1.84052780181274,1.84057041551851,1.84084338844141,1.75883992040069,1.85853001622289,1.75562995745702,1.86031001735403,1.82994505198378,1.75479992775821,1.83290718774753,1.8290878315838,1.82798816882024,1.82723665883948,1.82784945389991,1.8663599999991,1.74641997107186,1.82287796549466,1.82365433011573,1.8229480474912,1.74255997434248,1.81932753116648,1.74041995103142,1.81723781549998,1.81818020160134,1.8163520961939,1.73636997742949,1.8137131137612,1.81275328919564,1.81297900480688,1.81305506382694,1.81334000920074,1.7344683116803,1.80742994201232,1.81272507614645,1.73164996928,1.8108841315262,1.8105270825348,1.81138915027457,1.81187726244487,1.8604799999991,1.73408647124722,1.81423769102046,1.76964925800031,1.73473865849783,1.81460311856796,1.74052997279587,1.82109102729041,1.82346366653014,1.82302298704588,1.85834001639342,1.74857998503202,1.83134456714292,1.83166490117297,1.85518845453749,1.93289770621852,1.9316475288291,1.93306203786578,1.93530207555368,1.92720990110333,1.83027974393797,1.83037306466015,1.914270650175,1.90300185875699,1.82781330495002,1.92262292069245,1.82885734444829,1.82931574187721,1.830933636739,1.8282535181573,1.82751395094395,1.83091700416526,1.91707764628223,1.90705538288975,1.9040619380719,1.8281067011108,1.91354434176218,1.91278346667099,1.90730318675515,1.90258607597789,1.90247597542657,1.82798049891344,1.82727319684556,1.82691510360427,1.82509743182618,1.91663006338028,1.90182025265816,1.91018828854357,1.84825631945228,1.82325418933739,1.90957000014133,1.82318723026831,1.90808499999933,1.81840045074476,1.8182208708749,1.82045696590769,1.90394849609052,1.8193165025235,1.86961490923921,1.914253963388,1.91425893372957,1.81450575148028,1.8139792687503,1.83963923130804,1.81448597519722,1.88716260851134,1.88735241213361,1.88617106764502,1.80868084726162,1.81081431823363,1.80821677772595,1.81110879606882,1.80734220685332,1.80909643665217,1.80694243495475,1.7612599548494,1.8239607865399,1.9074599999991,1.818670067485,1.81920410144311,1.73392071265488,1.80872180249685,1.80663532960862,1.80612572998864,1.80544489161851,1.80337262453108,1.80085311511065,1.79925527074582,1.79764012479396,1.79902988198292,1.79761939813353,1.79653934861843,1.7979692417436,1.79649944397882,1.83149000371929,1.79307224459994,1.79425034692871,1.71542789116446,1.71611270201183,1.71600608620845,1.79379674915329
1.7597782938753,1.76079913809307,1.77520598575384,1.72438954333084,1.70877510422839,1.67930608995206,1.67890542301002,1.67828195383392,1.67761635644574,1.75288999252042,1.76821686823925,1.75477123459269,1.75417717004468,1.75406013142004,1.75343039363653,1.75351606575726,1.75389928553359,1.75438304592446,1.75520083447237,1.75710383121015,1.75732248085566,1.75712218309854,1.75873011113908,1.76066796352848,1.76180401801724,1.70904508423713,1.72033623070162,1.73255981004406,1.76885602339304,1.7683340921927,1.76887192703508,1.77181592703876,1.87135134848433,1.87344053022313,1.85400484657798,1.83579429351733,1.83766825510812,1.83977830255879,1.84089067171006,1.84134425429105,1.84153183503054,1.8417558482322,1.78478637500462,1.83032482940023,1.83077499843578,1.83225425191968,1.83152034535179,1.82972483134876,1.82788796144166,1.82664871880451,1.8270427077356,1.84587209734919,1.8251004212238,1.82495281763647,1.82467698067335,1.8236894725629,1.81908916207749,1.81847643651787,1.81623766027357,1.81666707453161,1.81729495534797,1.8138149873862,1.81349761705526,1.81386190079648,1.81395613439675,1.81403798268329,1.77171210719877,1.76070696261762,1.75396875864235,1.80766118656696,1.80786786867138,1.75679702024189,1.76987713473576,1.78169328893251,1.77432927899616,1.76331090876189,1.75423591203052,1.735942319191,1.73717394855912,1.73732242938508,1.73654731010007,1.81708443604109,1.81953913565001,1.82246597754541,1.82432824645312,1.82417264902066,1.78126077984255,1.77068758558246,1.83185426073595,1.83183597666156,1.86686115027977,1.87469316479594,1.87711267457557,1.92319302985567,1.92093701123791,1.901819680127,1.9022386776742,1.90259517132486,1.90480197674316,1.90449783068246,1.90620558848258,1.907264320032,1.85583301937418,1.83803006355218,1.84113924711278,1.84564259602898,1.84520471985878,1.84714706207309,1.8502828878928,1.85258687254121,1.852500677613,1.85131916825276,1.85026692961141,1.84927757289009,1.84715150323901,1.8440288584693,1.84198964319176,1.84047522743227,1.83636198003085,1.85495152184453,1.86213130392462,1.90389776127771,1.90164790611903,1.86470385335763,1.85809437857397,1.8492018420287,1.83962098384261,1.82259992738659,1.82161313368352,1.81992007561004,1.81970730584484,1.82039074702193,1.89444429536771,1.89390324089172,1.89309523748052,1.91302222797582,1.91378189572106,1.8860722221894,1.88531120330471,1.88477605931251,1.88476165795932,1.88577630096096,1.8869076436038,1.88664879209216,1.80717976896017,1.80848646292368,1.80931398173542,1.80913154397071,1.80928035837927,1.80935999705245,1.80890223828063,1.82070275131167,1.82311337996723,1.82476957795723,1.81658343397446,1.81919445937942,1.75545746989891,1.76893822162554,1.80657806057449,1.80619520271365,1.80567128932703,1.80227216338275,1.80015655669615,1.7979770629862,1.79688462303746,1.79791944751654,1.79755975335824,1.79708307069226,1.79656488243993,1.79572524914744,1.79437655326469,1.79325059695691,1.75238517468152,1.71604779252501,1.71626391884808,1.7160688668645,1.79277356218295
1.68356999997741,1.76163480425747,1.79165000954774,1.76246095855084,1.71944778591516,1.67901113802992,1.79286000610423,1.7580160149739,1.67724635276799,1.75318453273241,1.79023000508002,1.75499325005911,1.67572000000248,1.75510277616709,1.7538864562237,1.75396833281215,1.7540947354435,1.75468645930553,1.75701426398603,1.75801547317101,1.79743183326322,1.67848273617861,1.75848396609592,1.76092959000133,1.76189980861414,1.68206997531058,1.8675899999991,1.68511999863365,1.78929002363099,1.76859553008613,1.69261999834454,1.7768202445577,1.86872378931104,1.87575582887853,1.85552603821753,1.76161991642005,1.83812909295048,1.84061959379926,1.76044450223419,1.84242028572352,1.85697335190279,1.85770668524208,1.75789997015719,1.83402789649332,1.83336923815093,1.83538270204756,1.83144190290933,1.8310424857841,1.75098162111084,1.82564929643383,1.82744671820461,1.9387699999991,1.82498836815949,1.82624571503731,1.82544444537317,1.82335988984102,1.8205896635413,1.8649399999991,1.818020424743,1.81720642066911,1.81755357965175,1.73790085278419,1.814203514774,1.81476860314164,1.81518069021261,1.81496978527381,1.73380564258018,1.73414865079392,1.73412564101418,1.80754887786098,1.81296098905477,1.73338497758373,1.73388497784036,1.8107699999991,1.75678491161938,1.73376496991861,1.73414299679885,1.73537758708987,1.73691845102594,1.73732833036191,1.73719650498346,1.81781490080679,1.81853573641323,1.74270662998745,1.82460532330779,1.82364727793095,1.74809929917139,1.75295067723759,1.82956414743936,1.83377882483443,1.93438666666599,1.84168053435869,1.85805646378285,1.97295000001898,1.91867495761344,1.82973228891205,1.91779998853602,1.93150067184471,1.92170981093608,1.90440727176146,1.90646953990892,1.92177167845326,1.92353834419591,1.82775587937539,1.86249700971512,1.91564461578447,1.92054529665554,1.92097786365381,1.82706206900485,1.85057213451368,1.83169428645812,1.92703002041458,1.82879568649481,1.82797218232521,1.82880977608063,1.82769398805158,1.82666421464604,1.9132399999991,1.82752136424997,1.86068073292914,1.92322001392886,1.9066507583246,1.90060674648865,1.82481413817155,1.86467302155423,1.9062626283329,1.82337439108718,1.82303301961256,1.82223753025831,1.82109830290118,1.82053790733603,1.82034376363933,1.89375973293785,1.89839523724809,1.89248120949042,1.91016482793361,1.91313604232572,1.90432826869533,1.89780775678788,1.89509065888502,1.90004565325201,1.88747794929471,1.89289846353019,1.89255491915643,1.80689396466713,1.80825506427924,1.80911495322523,1.80759663103584,1.80835389078905,1.80839253276952,1.80861901277207,1.83388703041821,1.82345538696085,1.83478408947666,1.81573846626666,1.81725738723595,1.7327083117582,1.73110164544249,1.8063579858842,1.80619680208556,1.80548248393628,1.72503998935692,1.83004001183758,1.72193519208672,1.79224701001025,1.79932793275365,1.71791999611328,1.83050000838832,1.79502261368636,1.79523322398434,1.79376887746688,1.79234705667914,1.71535370845816,1.7158366126063,1.71600315321387,1.71528722450801,1.82742001935087
1.7913599999991,1.68207467064054,1.68181459191652,1.7593490419658,1.73145402472146,1.75664971762773,1.7574884456921,1.75760009258046,1.75685601499238,1.75367867283309,1.67536999583368,1.75549976630766,1.75472438736281,1.67416999856444,1.7174521196676,1.75531399951479,1.75416316938417,1.79318000913373,1.75813275718932,1.75881216449112,1.79322816673544,1.6790536842364,1.67938985408416,1.79303000237701,1.776182173444,1.7938550054145,1.76312973168872,1.76424975786712,1.77017873740809,1.76985003447584,1.7713821716182,1.6952600000009,1.78252000000045,1.87664504778141,1.8564726522001,1.85527730216228,1.7623300000009,1.9436199999991,1.75898286367397,1.84239569942423,1.8392532926171,1.83348564743205,1.83385216973817,1.83382657217043,1.83360324742307,1.75428996356552,1.83117351696614,1.83064254851119,1.75058828870773,1.82498606905929,1.86263001650661,1.82303109850241,1.7456200000009,1.82301486147929,1.82631042133028,1.74365969656978,1.74257027996935,1.74196204487735,1.81734896433978,1.81747491625925,1.81860500352362,1.73858427489113,1.73728485371672,1.8164190264084,1.81579127639258,1.81432876390569,1.81367115657061,1.81342927203351,1.8136167030786,1.80739704159153,1.81204493312657,1.81286862534139,1.81281372623729,1.7332325682278,1.73382534591885,1.7346404852612,1.73520293357812,1.73598190351978,1.81439619074762,1.76818664942007,1.73777163136337,1.81984561985377,1.82006325812354,1.74241329750007,1.82424423635131,1.82386519375425,1.74680908954374,1.75288088769973,1.83432278352494,1.83587128743108,1.93401333333266,1.83786509529485,1.93065150025236,1.93089149721918,1.91840253430316,1.9150625653953,1.83057000000089,1.92159151522397,1.90526529912922,1.90389320101161,1.90360281756567,1.8285600000009,1.90601567039543,1.90619112299651,1.90703686741513,1.9053865496913,1.91630834288289,1.91544107172543,1.90594998925532,1.86001972617696,1.90814291244065,1.90491400558067,1.9038626376666,1.82761679091374,1.8288816527615,1.91806000196964,1.90339093312184,1.82776166666734,1.93136001597376,1.88455744720122,1.90284998826082,1.91746179203737,1.91067115920164,1.8963570093603,1.89261245790153,1.89487704033948,1.90179685712151,1.8214621889422,1.9239899999991,1.82168819033,1.82087133799673,1.8198879275236,1.82025514112614,1.89759501891215,1.86950805830583,1.81536595628279,1.91188119552386,1.90334154104934,1.88765226039988,1.89314777889966,1.90769377280127,1.88744448046465,1.89351704721657,1.81031859833325,1.80767544599871,1.80892629557442,1.80834675114092,1.80861156206282,1.8066418004025,1.80713924348402,1.80414482360228,1.76505998747998,1.83472462791361,1.82080513279534,1.81769575307108,1.83099087833712,1.9079899999991,1.81350683255322,1.7273497378297,1.72680710879655,1.72662057425313,1.80092559031229,1.80106447122506,1.72630767659495,1.79162129224144,1.79713582453558,1.79876077897855,1.79731842362938,1.79583001256571,1.79607492886188,1.71659999175665,1.9039699999991,1.79629824167333,1.79406629287041,1.79522036128436,1.79455451742765,1.79330342760383
1.68531746104715,1.68162327639852,1.7899300115792,1.67981998861789,1.71525122083789,1.68153998630826,1.75840971712807,1.67854715597484,1.67633343061205,1.75405868762791,1.75790998647209,1.79321000670974,1.67522138555347,1.7560499999991,1.70183709465402,1.67510400531167,1.67415553910279,1.67492968428444,1.75318467078334,1.75395551832381,1.75427945162592,1.6793831874175,1.6798054488428,1.67926508917683,1.77221684431734,1.79279500507166,1.68422200104493,1.6856456260653,1.7694146256813,1.76956417698118,1.79180167209575,1.79108833849333,1.86843000461991,1.84066619084018,1.8456046341278,1.84099765780854,1.84016732486486,1.83912223182888,1.75957250413113,1.84027570813507,1.83728192874494,1.8357236714554,1.75547000000088,1.83319395518293,1.8326769329826,1.8325247291708,1.83179694928007,1.75132367670343,1.82894166827704,1.82701713346213,1.82685326393202,1.82764763611687,1.82598605987209,1.86476000002903,1.83043461812592,1.74346793155626,1.82073893374701,1.81981688042239,1.81941376397482,1.76965235049521,1.73837830326222,1.81570349730553,1.81596892528533,1.73442496866023,1.81576576146675,1.81462725181064,1.73471499330169,1.80999494833738,1.73499979291329,1.74318614861995,1.73335570957598,1.81298172623729,1.73099110409872,1.73121370393993,1.73396592192065,1.73368101062535,1.81417999999956,1.73622485135618,1.81381964092949,1.81434204262932,1.81456294651527,1.73812666666734,1.73999333333401,1.82149581124732,1.82342113666512,1.82354097635178,1.82413519968225,1.82976279478318,1.75716075318351,1.83771206750565,1.83570767473315,1.83754930327785,1.93822293471169,1.93975623871228,1.92505422971417,1.90155006905147,1.92143000132893,1.9133739478281,1.9054660785362,1.85723464973913,1.82944348284543,1.92809212665145,1.92753874760531,1.92081915595301,1.909708614856,1.91189032248378,1.91181037235067,1.83076170347327,1.82947759450077,1.85026400945841,1.82821612717277,1.92350003529313,1.90294039937326,1.82756137158776,1.82853108514186,1.82841092215255,1.90362243655227,1.82836833333401,1.9151001958666,1.88346139093473,1.82675180168334,1.90142777487443,1.8241400000009,1.89708372269231,1.90120441136327,1.91275242608295,1.8236767386762,1.82371128951327,1.82175484567165,1.82232203540948,1.82191380429056,1.90800000535517,1.90816000726141,1.9198500014447,1.87002023708789,1.8201607408504,1.89115778056422,1.89943201850779,1.90157907213694,1.89397295969199,1.88577183825893,1.8127000000009,1.88710318215588,1.88552731926334,1.8481558172834,1.88550000007691,1.81050716497987,1.80662773633267,1.80806952881457,1.8071504077447,1.80722538294442,1.90792998725952,1.7476100000009,1.82294987815643,1.81889929477483,1.81620311573456,1.83349002066356,1.81240889988384,1.72797134452854,1.7268771876417,1.72627267500348,1.80418166693236,1.80199581368781,1.72144450564108,1.79083479303774,1.79897633725588,1.7172900000009,1.79540821158613,1.71739999094349,1.79666636498306,1.79594958064249,1.79533141626966,1.79492881213127,1.71535682720964,1.79670069829452,1.82604002371498,1.79131753141784
1.76523834241427,1.76202130720613,1.76165199868198,1.75952753367304,1.75603594175273,1.75761001528637,1.67894990144143,1.67734950937586,1.75484130479929,1.75463868488299,1.79223000748758,1.67582175808534,1.67529555111488,1.67543865455917,1.67527062277689,1.67483280922466,1.67514166933536,1.67584909020033,1.6772973533172,1.71688470607895,1.75529393952529,1.79116000294317,1.75771854110571,1.75839313303695,1.75806390561929,1.75937064764757,1.68327199289414,1.68588173425063,1.69089483879425,1.73928624097853,1.76981565809607,1.69677999911928,1.86800534738576,1.86645422118766,1.84922371583075,1.76176991548635,1.83886953331384,1.83815867570266,1.83750882639632,1.83608712149952,1.9349399999991,1.83642851420841,1.83284803914372,1.83125783128299,1.8310550817529,1.83215917785951,1.75381012368751,1.75127613947195,1.8629499999991,1.82773509540124,1.82782002503358,1.82891391207367,1.74597829413572,1.74469162660874,1.83093348355319,1.8276045941851,1.74156996648843,1.8663799999991,1.73905998631196,1.75991003593022,1.73797163644291,1.81584417318898,1.81458707037945,1.73620496764249,1.81658387365645,1.81668931631242,1.73509499296013,1.8634699999991,1.81297474877589,1.74927036178012,1.73313850361928,1.73359570993358,1.81371732674558,1.81382614742268,1.75519451430111,1.73550255992492,1.86125999999933,1.85937999999933,1.81390521187108,1.81440102246873,1.81756442047147,1.81792611077538,1.81982241126265,1.82066709004872,1.82307056326439,1.82323720756999,1.74946392461177,1.75139318900684,1.75324178487573,1.83823048731304,1.83593136221153,1.85426000189748,1.76614999886886,1.93418100043333,1.92491829432734,1.91734089503216,1.82955643696656,1.92364409878081,1.83068086743174,1.83017760443405,1.83018931020262,1.83009157105166,1.91729999975671,1.82984228127958,1.85564472999625,1.83018980396799,1.91844037220799,1.83091011056865,1.9207299999991,1.88183966528793,1.92351000715578,1.93465000187227,1.91147999305164,1.92653998714739,1.90306065304278,1.90183608214328,1.90406239716567,1.91842435032482,1.91041544401641,1.8828520350766,1.82665865737594,1.90131052345238,1.9003663958083,1.90561164883287,1.90354703402723,1.91370501242459,1.91067047033326,1.82340931455274,1.82267518299111,1.8228257986055,1.82144689027729,1.82125648758566,1.89029999683704,1.81839216822987,1.87070957042693,1.89232270291973,1.91449003254925,1.88439596744015,1.81358664060699,1.84796614589486,1.89871342799315,1.89840677455389,1.80996976903063,1.88548716462754,1.84355034952189,1.80926262141664,1.88349166669498,1.88521833336048,1.80729970076635,1.80683594758829,1.80502122383378,1.92798001273913,1.82797884931229,1.83620602657612,1.81690622836157,1.81644040809998,1.73354998325354,1.80859478996481,1.80892518020211,1.75520010121609,1.72727278704554,1.80285489699251,1.72106940082572,1.71998946268402,1.79038821555204,1.79841688242627,1.79879632700899,1.717289996124,1.79845958312068,1.79716894988069,1.79590282052936,1.79465633235932,1.71398882742785,1.71426431724252,1.79545016328548,1.79289998634535,1.9035099999991
1.76446355573247,1.76190275548186,1.75476280152508,1.75526534967286,1.75596381244818,1.75647848201046,1.75668882916674,1.75648478792002,1.75509065669161,1.75520190456448,1.75617852055908,1.67507738770489,1.67505438000644,1.67532729283681,1.67545006281895,1.67564698006022,1.6756320152443,1.67600358242939,1.67610150435473,1.696695221699,1.70911730574492,1.71832314370015,1.73550118156692,1.72970505683698,1.72125840700225,1.71216554317437,1.70460050570988,1.68876081448721,1.68985521270708,1.7306372242607,1.76795315954769,1.78513612984627,1.79060536248163,1.86594657158326,1.85504499643317,1.83625053054824,1.83801486330407,1.83681998502928,1.83530942378969,1.83424013003934,1.83464801290151,1.83454656970908,1.83223685398209,1.83033044444966,1.82923692260926,1.82963051793161,1.82701478232039,1.82619568813158,1.82644272819667,1.82775437850492,1.82851613364183,1.82872235514761,1.82683007068081,1.82764073842149,1.83002598659927,1.83099376734576,1.77176231832777,1.78254345258536,1.75980944390886,1.77033805236066,1.77746585538739,1.81584446477626,1.81594518706471,1.75900311773781,1.81644908479695,1.81663909279981,1.81623741137076,1.81481855369624,1.81363210255246,1.75776658508403,1.75190017389218,1.76355372089881,1.81566293426224,1.81648536565001,1.81584799921911,1.81415644239767,1.81307357118262,1.81264420222961,1.81360235236845,1.81410950842883,1.81640106662898,1.8174655425662,1.82017286628463,1.82003041545958,1.79074595588335,1.78205494416209,1.77114141887311,1.76128707273541,1.77773429174841,1.838281469371,1.8376551302397,1.79806280232403,1.78325859193759,1.93495204666034,1.93102656816055,1.91306621671604,1.85945893971927,1.85129036084475,1.82998512099017,1.82992088746931,1.82998719001683,1.85629732479168,1.89233269795091,1.89288163513578,1.89331312370262,1.89318387254459,1.89283192517513,1.85340496755225,1.88202154144326,1.88261557272341,1.88491620703427,1.88780530981841,1.88975199273831,1.90418608950328,1.90330466664223,1.90259997420614,1.90537469398611,1.90457039377817,1.8840384502181,1.88360119679247,1.88409463380673,1.89756720860643,1.89677553086153,1.89943666107594,1.90711975183682,1.90654616882342,1.90354441799919,1.82409742127579,1.82352759725222,1.82341894999626,1.82226139656423,1.82148250962966,1.82094573047398,1.81978926510292,1.87082325357942,1.88762743554233,1.8879794339389,1.89315392739478,1.8253695713542,1.82931968196135,1.83795342183324,1.84636271854079,1.85048705561622,1.85124160989354,1.83648671569378,1.80996548524128,1.80960267039989,1.80851210400893,1.80768061712268,1.80726128430434,1.83548189340218,1.85302795620617,1.84714856247518,1.82639075691706,1.81589959579933,1.81618968470791,1.8117497642204,1.80971476644576,1.80780843966514,1.8044118292354,1.80282625337438,1.80185632915665,1.72049786578052,1.72022004485888,1.79039426526596,1.79839289148474,1.79851110706763,1.79797499968959,1.79779000580619,1.79695268529237,1.7954242343743,1.79385415101471,1.79240206432605,1.7937545357333,1.79511918213742,1.79474710536407,1.79547432688508
1.78951001472054,1.76128825000077,1.68388998196406,1.68264199763043,1.7069418862055,1.68056628389903,1.76155421820812,1.75648374233803,1.75506382791934,1.75590551145333,1.75798014159109,1.67456915070263,1.67473416043311,1.67547190162498,1.67577957164053,1.67644795404903,1.67625590822298,1.67620375168207,1.6752798145938,1.67500477742706,1.67479597543417,1.67820117096628,1.75628001940285,1.67896485390621,1.70895948817481,1.68139996636476,1.7714999999991,1.6873845999034,1.69030007475805,1.72014159638105,1.76974366035312,1.78944001507449,1.70080999883797,1.87406025961425,1.86051260171966,1.83786249642733,1.84034791417929,1.75947995855415,1.9313699999991,1.83435697117474,1.83698297738862,1.834490081589,1.83240979388611,1.75471992626404,1.83151575324851,1.83234146721427,1.83041143507868,1.82845920946231,1.82701088537524,1.82777758225917,1.82826479585229,1.86278000059216,1.82462027361713,1.82509085422583,1.82680676808162,1.86458000006039,1.74290996469047,1.81989722205241,1.74126998094999,1.77701917358615,1.86591999999955,1.82034680929894,1.81655155931589,1.73572995486327,1.81482659871785,1.81420536425829,1.81433457452588,1.81360659134846,1.81296281732714,1.76709757518339,1.73238602593419,1.81295443201461,1.81224986861759,1.73364995914498,1.8146015295434,1.81241778484275,1.81114910219585,1.81075864615427,1.81420948276239,1.81287751814508,1.73857995170625,1.81657820975956,1.8583399999991,1.82453162985326,1.77377076513758,1.74492208136013,1.8554399999991,1.75080216384496,1.8327442088793,1.83568734776655,1.83517739462775,1.76231874960186,1.77015121383532,1.95183000227416,1.93109640399283,1.90548630255901,1.90985361568366,1.83058396463285,1.83019335987019,1.82984662255376,1.82976464437129,1.92133167437118,1.92093834257283,1.93448001404299,1.91582318375488,1.91794792740815,1.90448987435992,1.83123199851616,1.92350002057944,1.85814146855519,1.82757739092322,1.82827559601727,1.82947751221388,1.91196395222175,1.86496379811166,1.82913327475823,1.91145371079033,1.90398367795733,1.82668820451262,1.84933213449776,1.92315002078168,1.89928739092353,1.9150031973077,1.89936826970392,1.85473663927108,1.82382021692297,1.89874348524725,1.82371389479336,1.82180902958122,1.8228363427076,1.82128421308634,1.8199894838781,1.81905643629217,1.81780877378624,1.86990015219384,1.90916879379341,1.88910883125214,1.89713689357383,1.81558302400559,1.81545414440279,1.81372267495073,1.81193228901459,1.88646715607281,1.89339283108029,1.82758666472851,1.81058661703777,1.80954895447175,1.80797947667232,1.80732506116721,1.80712202597267,1.88424999371808,1.90498833657589,1.90666166970424,1.74123994960557,1.81696692761972,1.81704647746917,1.81376128454714,1.81081810441329,1.80921679193143,1.80451385229592,1.80493970325293,1.80119335652667,1.72065196314601,1.72069756515207,1.79056137683455,1.80397986800902,1.79836138990193,1.79536800897371,1.79654882166831,1.79627612283792,1.79459942744697,1.79338039889604,1.7906619483788,1.79518656268015,1.79625567629475,1.71649997897667,1.79404540138045
1.68382998291838,1.76090502673896,1.68273799875286,1.75880070031639,1.72265433424113,1.68163140935659,1.68130228503002,1.7570077898918,1.75673951549228,1.75588503341591,1.75745595705676,1.79261000314415,1.67589404268998,1.7925699999991,1.72094675942734,1.75392000824823,1.6757420530941,1.7562799999991,1.67542811335103,1.67551578269869,1.67645581538834,1.7921800022103,1.67986085468587,1.67994427650013,1.72343498435561,1.79068499995366,1.68301166661724,1.68330240634671,1.68849161311279,1.70743697600791,1.69281493140189,1.6957959407677,1.79601752699083,1.8732931794693,1.86020938176327,1.76280995519424,1.84195110256463,1.8378682038541,1.83678358884272,1.83468155502042,1.8580200456017,1.8346429488904,1.85884001570775,1.85904001460418,1.83111128592385,1.7525683161773,1.75140165048302,1.83015176760569,1.74915309685581,1.78382070712805,1.82906972921439,1.7479800000009,1.82501252259382,1.74507997462956,1.82275335188266,1.81972566059869,1.82144424733762,1.82227718338054,1.81949392697393,1.78422090553503,1.9385099999991,1.73915524097026,1.73789503874462,1.81467427783972,1.81453000635338,1.8655799999991,1.73579074119927,1.81298089362915,1.81227596689197,1.77453022814104,1.73317032600641,1.73358964307833,1.81276190214736,1.81300388905282,1.81334402871411,1.8127172595096,1.73507991102581,1.81128390869983,1.73599997757426,1.81298788930049,1.8153579766183,1.81638868702127,1.74055665423712,1.74174332053456,1.76093980616979,1.74537520660216,1.74888036913556,1.75120967455373,1.83183264721246,1.83411537219563,1.85469500227988,1.85527500222463,1.94154993534099,1.93293289677951,1.93058795353227,1.90478406613531,1.8319600000009,1.90399314963436,1.90496570072949,1.85434029539086,1.82939421465798,1.82986048766771,1.90494997600479,1.9190968782693,1.91460519350157,1.90444730391053,1.91599726603153,1.90653652274391,1.90524317270374,1.84881683665724,1.82781708658493,1.82743036940471,1.92903001434183,1.90309621924373,1.86062633800312,1.8280367451842,1.90292822137785,1.90055391519785,1.82784383873561,1.82773785480915,1.82615933862909,1.9007547876969,1.90108091224123,1.82358046893518,1.84099508820025,1.82346349090816,1.82300269929841,1.89586499855484,1.89480499855224,1.89169616665161,1.89625418292743,1.89539158929675,1.89387510673995,1.81781033176984,1.86875683598831,1.89533574888116,1.89888055958176,1.88627967573397,1.81589318498483,1.81554117999134,1.81410810752294,1.90444000767744,1.90570400292819,1.81014626149722,1.8111517607424,1.80950947948682,1.8087809896186,1.88203000043152,1.80728886667049,1.80628722688021,1.80473785374969,1.83089679863859,1.82184049302698,1.82150098617327,1.81897342873735,1.81912533264822,1.73337674365961,1.73129236835625,1.80405338917214,1.80297846952139,1.7262383222574,1.83032002265119,1.72038827951465,1.79826285103883,1.79781939514697,1.79715415694411,1.79739358319084,1.79845498719631,1.79702808810788,1.79644018416555,1.79604866069263,1.7158349999888,1.71501499998928,1.82742001064338,1.79761895474012,1.78713923641811,1.79532776028584
1.76341729071954,1.76439009169798,1.76091034431221,1.75991419375835,1.76028840682901,1.76106783977694,1.75973370860428,1.75551642409499,1.75547240689611,1.75427470708259,1.67485333333406,1.67546666666744,1.75745013916654,1.67292998789739,1.70774308111827,1.66903999312106,1.75101192301676,1.6755000000009,1.75478935716356,1.71273684941985,1.67648567563367,1.79238000235473,1.75781543120053,1.79018001879449,1.7734273491942,1.79090500004544,1.8757099999991,1.79283999999955,1.76841999999955,1.7386188715442,1.77500499529149,1.6960391113155,1.78787247300917,1.86901656091466,1.85860785939448,1.85568164677435,1.85273994304904,1.76075831461039,1.76059164682814,1.83617589702852,1.83623603740936,1.83603657870562,1.83764660120198,1.75807997973742,1.83069480147312,1.8589400094688,1.83049332844374,1.75072109837203,1.75004574220349,1.77173294178778,1.74932998504105,1.86246999999955,1.9590899999991,1.74519997462316,1.82236731180322,1.82164474956676,1.82116078618759,1.82124845466911,1.74052996540852,1.76975050922651,1.73999542259585,1.73802427095451,1.81640707463602,1.81521314891151,1.81400956182102,1.73427874063208,1.73543376496992,1.73388674119927,1.81198059260819,1.77830760203771,1.73413630935081,1.73380763168736,1.81090473324805,1.8607099999991,1.81230337985047,1.81290523592103,1.7349596026746,1.73471191102581,1.81543286112048,1.81402341065125,1.81657473096282,1.7391800000009,1.81974122964985,1.81982887322679,1.82011603674318,1.82098501632017,1.82459248869677,1.85474003415514,1.83109414678624,1.83352697132531,1.75795456073043,1.76301363248594,1.93204691182938,1.9481508151398,1.93176122785261,1.90494752983478,1.92860003712964,1.8306700000009,1.90648114963436,1.86381538737789,1.9049899999991,1.82948803640099,1.83022929263791,1.8293430346687,1.90480233095405,1.90398135639731,1.91782400183713,1.82932318088403,1.83015052984276,1.8295702081323,1.83046231720444,1.9039999999991,1.8302700000009,1.89919981419045,1.85227344858967,1.82731578346391,1.90312868441217,1.82763446707517,1.82738669706365,1.82800350144653,1.9003199999991,1.8254700000009,1.90389331335233,1.89725913514425,1.86097345991021,1.9009799999991,1.82184431449195,1.82142094701172,1.92722000289113,1.89030549505603,1.82147383532044,1.82107800278773,1.89348800213376,1.89268907160069,1.88866130799138,1.89173143999975,1.89016494972384,1.8155800000009,1.9056999999991,1.81521264455374,1.81332785971554,1.90621600223858,1.8115412685278,1.81089170770924,1.81112488597072,1.80933680000368,1.80738423348365,1.80664241589636,1.80631795527391,1.80567902775034,1.80370199794261,1.83064348158401,1.7447900000009,1.81858557680408,1.81879840030294,1.73507998146979,1.81030386602606,1.73090740076624,1.83196001632813,1.80267649843351,1.72587165561551,1.80426063007459,1.80096207990209,1.80017116348856,1.79858538514763,1.79848466776145,1.71775313921339,1.71756570753927,1.79550926984944,1.79624751730141,1.79670607514771,1.795807196685,1.79577708045334,1.79641578566444,1.79581452012026,1.79383221613611,1.79425155080524
1.76401706504744,1.76371403036049,1.76241470311912,1.76042966111789,1.76030064238132,1.76061541978038,1.75931510464142,1.67718333331845,1.67675666665195,1.75298789181837,1.79095000591934,1.75574627387913,1.75563621495509,1.75521927597019,1.75420226551802,1.75346611709298,1.75328204257442,1.75282878016715,1.75458403638744,1.75553049406224,1.7565922101177,1.75629957399112,1.75697751147807,1.7589984945438,1.7610916989658,1.76181626896509,1.68551834826569,1.68618841772803,1.68688181556028,1.72673900738281,1.77510499506871,1.79118000963845,1.8794399999991,1.78432492326745,1.80672199919957,1.76217991530723,1.84051716036878,1.84024940944612,1.83755751291659,1.83693058752455,1.83721104803976,1.75429329833279,1.75402663156609,1.9487499999991,1.83074078201322,1.75227992895214,1.83038666208611,1.9486199999991,1.82784455299492,1.82834123913489,1.82735853476016,1.82748624006201,1.82415187150691,1.82452770098728,1.82393337037409,1.82214851708339,1.82083139820398,1.8634700001873,1.81793155045863,1.81717311775887,1.817308924077,1.81728379170975,1.7370699699373,1.81449662424751,1.81301349751136,1.81344898593993,1.81296005145391,1.81264142078374,1.81135643385937,1.81085756765132,1.81183907679361,1.81064772802584,1.7335499712236,1.8120324440576,1.81055150480904,1.73475308801824,1.73496543910321,1.8582599999991,1.81394202604539,1.81337321258341,1.73740995584778,1.81804359356264,1.81939328735426,1.82019437154667,1.81979607862036,1.9327899999991,1.82493775555558,1.8280738997274,1.83276082498329,1.83425908842875,1.83519329158872,1.76366172857614,1.85494600132105,1.94130981389687,1.9328617649519,1.92967955265956,1.90521831493052,1.90701164924811,1.83068965196231,1.85395774774954,1.82893229752298,1.90769307534729,1.92061878339058,1.90714042383572,1.90592892414396,1.9035296739046,1.82901813813659,1.82992604073864,1.8297076751351,1.82833041522169,1.9105099999991,1.82588980074165,1.9097199999991,1.82723025403888,1.84159746058498,1.9150199999991,1.82722644274925,1.82721975621828,1.82757753457503,1.82748132965491,1.82566277324788,1.91342077680686,1.91329253684282,1.92008668984345,1.85594676001445,1.82396632046053,1.9043999999991,1.82308877373042,1.82130677521962,1.88927943985561,1.90325909377756,1.8204654389904,1.89371740632216,1.90513482135727,1.88839565107944,1.81454600922537,1.89110965541955,1.88861942551992,1.81584210409197,1.81486354030962,1.8123003401293,1.81181264679524,1.81064033547402,1.8857099999991,1.82837214991938,1.80873892161046,1.80853948425258,1.80699796532587,1.80590422533739,1.80585574781313,1.80410966603139,1.9304899999991,1.83094417733635,1.82687362524458,1.82000137817455,1.81929815780501,1.81067739467847,1.73061347852094,1.80728984717447,1.80482628783743,1.80475864190721,1.82966003324223,1.8014637187045,1.83024002384001,1.79823686232223,1.79877483295811,1.79918742613386,1.71648113847103,1.79584704492718,1.79658392396768,1.79760883604209,1.79617337668429,1.79452595012447,1.79328644628434,1.79434551333547,1.9029899999991,1.79516924816735
1.76368546530846,1.76280331710822,1.76175999936454,1.76062870148168,1.75952121158471,1.75927901420279,1.75873567340958,1.75752955947942,1.75619855088632,1.75415058861195,1.75400680472181,1.75473313844651,1.75515109056321,1.75468910911316,1.75406756821088,1.75380322460681,1.7537960771289,1.75441640140174,1.75510640031577,1.75550187040105,1.75619881760169,1.75656513895438,1.73273061841631,1.72466416934749,1.71387894312762,1.70596841888266,1.6867556855074,1.68713679498352,1.6878783280803,1.71696509360139,1.72719028291474,1.73669038576455,1.80236546472465,1.80802394429005,1.8164387086277,1.82693529655916,1.83620730638334,1.83663398746982,1.83676244121283,1.8369307220357,1.83710341602521,1.78935856415042,1.77874218723682,1.83136320428356,1.83134804997391,1.83147877899282,1.8304436912186,1.82927811273583,1.82903739769558,1.82859954864999,1.82744871716721,1.82716137240683,1.82642368355715,1.82754850574247,1.82685016597271,1.82400459419472,1.82167095201421,1.82119818240273,1.81904003332272,1.81712363951746,1.81641752530675,1.81610406024101,1.76929162416344,1.8117170331874,1.81172558080442,1.81296266064375,1.81325244862779,1.81319690240711,1.81201635168467,1.81063330853046,1.81027421469011,1.81040412371484,1.76450969027057,1.8093742553485,1.80883997354294,1.80902499653232,1.81014711314413,1.81173043481734,1.81348354616336,1.81401477038055,1.81543160926004,1.81707106263455,1.81818382579362,1.81904385523443,1.81952940726521,1.82046493279357,1.82288616382136,1.82563648921039,1.8327317752913,1.83475020649044,1.8368735258787,1.84575450119817,1.85638446753097,1.94614987432607,1.93765344969661,1.93373772629815,1.88622924347784,1.88492106530424,1.88311267240404,1.88186975102167,1.88097943913776,1.91662542116783,1.91956234473363,1.91235274787537,1.90836792209701,1.90619954386622,1.83109023876522,1.83044188271826,1.82870025598374,1.82600030353737,1.82261905657898,1.82130279592308,1.82251272771954,1.82509418465291,1.82541846895734,1.82699435036676,1.82759244736324,1.82775395109453,1.828027328296,1.8278612840826,1.82701152849706,1.82390097116473,1.82316029816429,1.82384606362622,1.82576563744329,1.82644700471915,1.84349742614165,1.8511467533634,1.85722712308723,1.88921368481298,1.90217455085835,1.89996651836384,1.89657736707271,1.90123523644085,1.88831339941997,1.84125060425493,1.88945729956716,1.88832401919404,1.82463866798667,1.82902473995433,1.83782787492024,1.84617707341882,1.85016537361187,1.85081517840989,1.83965214417177,1.80998967039558,1.80893249478489,1.8080854157312,1.80690740437731,1.80708001193696,1.82508214872124,1.82684409622397,1.82506230963052,1.82427101714798,1.82136472741186,1.8194105145101,1.81697991877666,1.81567484202153,1.80659711750606,1.80491221278907,1.80378975600765,1.80175384098064,1.80010950386363,1.79801981646404,1.79813053343893,1.7986560944121,1.79866623849285,1.75103441225185,1.79660841018579,1.79660213607252,1.7968012373096,1.79612060420964,1.79498121338956,1.79423359077856,1.79322840992047,1.7919029393292,1.79264018008929
1.68302999997709,1.76172408103225,1.68252999999955,1.78883000427057,1.7585221366038,1.75838136824765,1.75901095081496,1.75806439687678,1.75799991389203,1.75490580988014,1.7544840954665,1.75477066695856,1.75599658804246,1.7899800080479,1.75391042787855,1.75404599717855,1.67607000000278,1.75609000676694,1.75592113068695,1.75530119682111,1.6771799999909,1.75724990813925,1.67831832493216,1.67951165774142,1.70491246331356,1.68108547199628,1.68267955195599,1.7611599999991,1.68936086459876,1.70594464312051,1.690879942321,1.69556671125132,1.78956541425969,1.87388999999955,1.84707647830082,1.85076019565405,1.92754666666599,1.76054831347012,1.83719750861774,1.83712759655123,1.83683916051157,1.83691478028317,1.75775000280545,1.83291560422963,1.83142109153268,1.83501160437308,1.75204830114438,1.75192163452192,1.82895088719582,1.8279424587332,1.82582595138951,1.82650970111562,1.8252358275777,1.74548996879622,1.76775761259977,1.74401798278138,1.74316995459138,1.82168097722676,1.8649499999991,1.81667263584889,1.8149635984393,1.8147433167046,1.73685997021907,1.8631499999991,1.81179137350056,1.81437177156675,1.73505998187164,1.86186666666599,1.86225333333266,1.76982473046971,1.73445508014946,1.81184161063942,1.73213997311548,1.80950194388339,1.80927489492844,1.81139712963747,1.81229630457706,1.81310601819811,1.81511318608658,1.81481961247264,1.81574336592495,1.81688581296851,1.81756013567056,1.74217994815461,1.82029213264706,1.82153073844388,1.74853153279938,1.74977793458856,1.8329701455269,1.83417562273759,1.7578755179106,1.85504193894629,1.85520322987841,1.95811001292812,1.933253945703,1.93034192298816,1.82906060012368,1.8304297103089,1.9210199999991,1.88208680873181,1.91438705185685,1.916854817958,1.82723754603278,1.91354684921958,1.90873372924324,1.90683898961188,1.83112252125355,1.83064995056358,1.82845669093653,1.82663229920528,1.8262598171484,1.91748969724527,1.82660970533202,1.82776746436168,1.82573074454861,1.82793741030818,1.82775699971048,1.82769007470464,1.82791976918652,1.82795594510198,1.82714150510641,1.82558020159526,1.82479369194117,1.82540878833592,1.82647018097265,1.82702543864084,1.82317410425913,1.90951835382221,1.9077953473376,1.90411083461446,1.90460164984129,1.90136394060521,1.89384193720062,1.90436689835691,1.88840332247022,1.81392631282978,1.89134987036107,1.89890151684251,1.81379620768544,1.84681418826216,1.89026476052509,1.8953219470165,1.89996605465098,1.9025521053921,1.84766491616683,1.80973544142861,1.80894812582462,1.80608555885023,1.80669576180016,1.80633392452089,1.87963999999929,1.83003514204925,1.82329528294253,1.82173981914467,1.82106634753058,1.83204786394954,1.83100244852541,1.83171309686539,1.80675217384452,1.80436125418534,1.80376869022531,1.80192048959225,1.80034908092994,1.71841998287637,1.79893293646916,1.79961726723908,1.79844435316937,1.71645165855795,1.79751470943846,1.79670291697554,1.717279982128,1.79683998095269,1.9139999999991,1.795477392595,1.76740234502698,1.71374998052632,1.82759000088646
1.76521218158058,1.76505681152163,1.75971962359312,1.6812200000008,1.75839090002925,1.78925135420438,1.79273866361266,1.75868856568517,1.75397818294995,1.71557808899013,1.67537861811217,1.67573119871227,1.67516351787615,1.67475258125881,1.72440462407015,1.79372000146168,1.75459283970231,1.75480659179598,1.75491116007738,1.75465446524884,1.75490458738075,1.75492509882703,1.75553918379329,1.75751165763688,1.72474110662512,1.75973000510622,1.68479693304744,1.68514405865067,1.76589099189864,1.72510744233283,1.69061358102769,1.69577973966962,1.86992999999955,1.9626399999991,1.84551220295135,1.84045124591635,1.92817333333266,1.76110164791862,1.83624559272462,1.83706739675375,1.83573233069911,1.83554034199754,1.85655502173659,1.85485502150649,1.82897591732235,1.75013996750845,1.85786000324348,1.9346099999991,1.82979378849393,1.8270000445497,1.82578621606854,1.86180000296535,1.74357469831561,1.82382749070427,1.8226537912394,1.82181961828308,1.74212198572505,1.86353000135961,1.81852453198418,1.81780978765998,1.81895316769033,1.7392900000009,1.8162099999991,1.73651926562186,1.7640655290095,1.81411152755453,1.81305221763487,1.81374520767849,1.81338090507454,1.75888848862839,1.73375557218877,1.73331016648743,1.81147,1.86160000074477,1.80899816069381,1.73365499370389,1.73279499399843,1.81183923256502,1.81323876613404,1.7726471259881,1.73767211661774,1.8166168677825,1.81724185633445,1.82072400242606,1.82085615806842,1.82228560361516,1.85439001406719,1.75077578763393,1.83237764428124,1.83395175796026,1.7580402059302,1.76238353669126,1.76568107924622,1.93329815605648,1.92898915848909,1.90363625713195,1.82802952643991,1.83024815142789,1.82994321130546,1.83206534614343,1.83088976594764,1.83091521878936,1.92323612286082,1.92213873201093,1.90707513326042,1.90573437736278,1.83052131011059,1.91897166666599,1.91841833333266,1.82908831646984,1.82801330482448,1.92418102496917,1.91464196091202,1.90717875409444,1.82487473702483,1.82554823977509,1.8262346943029,1.91982245967897,1.91352754031969,1.8546847391918,1.92296166962629,1.92108833649269,1.82516580251043,1.89912255601381,1.90182282902749,1.91050873865457,1.82318206785522,1.8232844201099,1.90290475655658,1.90328852009034,1.92314002160349,1.82097049584176,1.89940954061413,1.90401474663771,1.89766948149364,1.89155208082011,1.81609689300809,1.89944599453537,1.90491417060356,1.86010245933091,1.91411664461264,1.90813227348146,1.90047473018528,1.88824803190319,1.88434720265843,1.88582480113326,1.80845226834855,1.80617423095209,1.80418844964188,1.80502244409469,1.803282952854,1.83033603949368,1.83004674361627,1.83155798143009,1.82073195951099,1.81576695522353,1.81458336628496,1.72901000000089,1.80782986571677,1.80384172934313,1.72697832193339,1.80232202620525,1.80025921817127,1.80076089873314,1.79971188948133,1.80014082639947,1.82986002211446,1.71765832568135,1.7966641519975,1.7962471028386,1.79609069349721,1.71655227754026,1.79568149420574,1.71731998140119,1.76260674163685,1.79364666619113,1.79343333292062
