1.30458, 1.39479, 1.38133, 1.37433, 1.26376, 1.25154, 1.25047, 1.2364, 1.24991, 1.22542, 1.2213, 1.22174, 1.22199, 1.21229, 1.21421, 1.21537, 1.20878, 1.20633, 1.2113, 1.21558, 1.21711, 1.26038, 1.20883, 1.20905, 1.19479, 1.19438, 1.17828, 1.16751, 1.15744, 1.1578, 1.21661, 1.15503, 1.15367, 1.14935, 1.14616, 1.14474, 1.21012, 1.28106, 1.12545, 1.12534, 1.11339, 1.11321, 1.11023, 1.11107, 1.11119, 1.11209, 1.10974, 1.10753, 1.10196, 1.10191, 1.10231, 1.1003, 1.10504, 1.12611, 1.14157, 1.10695, 1.08965, 1.10192, 1.1195, 1.12521, 1.09759, 1.10535, 1.13355, 1.12474, 1.13956, 1.14717, 1.17752, 1.1175, 1.12537, 1.15706, 1.17461, 1.22268, 1.17211, 1.16441, 1.17456, 1.17246, 1.1415, 1.21479, 1.20199, 1.1477, 1.12197, 1.12233, 1.12282, 1.11652, 1.11183, 1.12412, 1.09674, 1.08035, 1.06187, 1.06281, 1.09836, 1.08117, 1.06736, 1.04872, 1.05544, 1.08073, 1.04433, 1.03764, 1.03645, 1.08103, 1.0583, 1.05937, 0.999823, 0.994461, 1.02213, 1.02503, 1.05252, 1.05092, 1.05981, 1.06701, 1.0745, 1.07992, 1.08173, 1.07786, 1.08001, 1.06289, 1.19928, 1.20906, 1.21052, 1.08064, 1.07696, 1.07574, 1.07338, 1.07352, 1.06875, 1.07112, 1.06607, 1.06558, 1.07443, 1.05672, 1.05192, 1.05371, 1.05413, 1.05412, 1.05094, 1.10927, 1.0421, 1.15766, 1.05449, 1.04467, 1.0637, 1.05044, 1.04439, 1.04941, 1.0563, 1.25538, 1.09594, 1.04248, 1.04964, 1.05278
1.30466, 1.39689, 1.41406, 1.27167, 1.26455, 1.25018, 1.24973, 1.24069, 1.2392, 1.37791, 1.22362, 1.22306, 1.22374, 1.55796, 1.23075, 1.22258, 1.22198, 1.21042, 1.21547, 1.21554, 1.21715, 1.24365, 1.21176, 1.21188, 1.20311, 1.20096, 1.1779, 1.28026, 1.15738, 1.15729, 1.15599, 1.1597, 1.14993, 1.14688, 1.14433, 1.14211, 1.25297, 1.12405, 1.12505, 1.1229, 1.11342, 1.11301, 1.11078, 1.10961, 1.10999, 1.10991, 1.10827, 1.10689, 1.10592, 1.10343, 1.10337, 1.10013, 1.10355, 1.12691, 1.13791, 1.1605, 1.10954, 1.09924, 1.09171, 1.10454, 1.09462, 1.07744, 1.14632, 1.19181, 1.1569, 1.12156, 1.13101, 1.11331, 1.12526, 1.16715, 1.14627, 1.16343, 1.20124, 1.20353, 1.16696, 1.17022, 1.14035, 1.13145, 1.12623, 1.13235, 1.11169, 1.13893, 1.13738, 1.12222, 1.11297, 1.10736, 1.07913, 1.07502, 1.05601, 1.06666, 1.05917, 1.06471, 1.06173, 1.04488, 1.02997, 1.08743, 1.09669, 1.04308, 1.03896, 1.03876, 1.03609, 1.05267, 0.999833, 1.05745, 1.01036, 1.0997, 1.05267, 1.06513, 1.06599, 1.06682, 1.07243, 1.08298, 1.08368, 1.07656, 1.07346, 1.06531, 1.06624, 1.2086, 1.18686, 1.08208, 1.07701, 1.07524, 1.07282, 1.07343, 1.06795, 1.07266, 1.06668, 1.06344, 1.06367, 1.05818, 1.05369, 1.05516, 1.05569, 1.05628, 1.05299, 1.05184, 1.07399, 1.12641, 1.04645, 1.04547, 1.04643, 1.04595, 1.04314, 1.04785, 1.03461, 1.03416, 1.03019, 1.03273, 1.08588, 1.0532
1.33328, 1.27792, 1.27842, 1.271, 1.26125, 1.25244, 1.25117, 1.24048, 1.23947, 1.38836, 1.2261, 1.22474, 1.22572, 1.22688, 1.22551, 1.22679, 1.21811, 1.21267, 1.21536, 1.21548, 1.21722, 1.21315, 1.21159, 1.21185, 1.21177, 1.1999, 1.19529, 1.16731, 1.15767, 1.14986, 1.15504, 1.15707, 1.1991, 1.1573, 1.1438, 1.41368, 1.33541, 1.12223, 1.12466, 1.1243, 1.12098, 1.11235, 1.11134, 1.10849, 1.10912, 1.10798, 1.10781, 1.10634, 1.10583, 1.10322, 1.1029, 1.103, 1.1016, 1.10152, 1.21657, 1.12117, 1.11259, 1.09179, 1.07872, 1.07316, 1.12007, 1.07818, 1.12137, 1.17766, 1.11513, 1.12619, 1.12805, 1.10801, 1.14149, 1.14376, 1.14485, 1.1677, 1.19695, 1.15613, 1.15787, 1.17537, 1.13324, 1.13227, 1.14656, 1.14079, 1.12048, 1.13114, 1.12908, 1.10094, 1.10646, 1.10618, 1.1019, 1.06734, 1.06252, 1.0648, 1.05995, 1.05852, 1.06069, 1.02689, 1.02755, 1.03448, 1.05448, 1.09289, 1.04381, 1.07645, 1.08081, 1.00097, 1.02079, 1.01649, 1.01124, 1.04003, 1.03889, 1.08488, 1.07392, 1.06811, 1.0768, 1.08263, 1.08505, 1.07701, 1.07422, 1.07502, 1.26407, 1.26488, 1.18209, 1.17694, 1.07983, 1.07409, 1.07346, 1.07203, 1.0703, 1.07267, 1.07361, 1.06419, 1.06452, 1.06116, 1.05584, 1.05599, 1.05591, 1.05649, 1.05336, 1.05246, 1.17379, 1.0514, 1.04848, 1.04569, 1.04618, 1.04666, 1.04648, 1.04392, 1.03355, 1.0334, 1.0292, 1.03142, 1.04577, 1.05241
1.29908, 1.3697, 1.27303, 1.27427, 1.85186, 1.25092, 1.25086, 1.24176, 1.23944, 1.23623, 1.23474, 1.22811, 1.22593, 1.22569, 1.22643, 1.22627, 1.22575, 1.2131, 1.20925, 1.2155, 1.21626, 1.21205, 1.2117, 1.21123, 1.20471, 1.20238, 1.18122, 1.16783, 1.15763, 1.14927, 1.15387, 1.15631, 1.20775, 1.20617, 1.13894, 1.1391, 1.20717, 1.12118, 1.12457, 1.12422, 1.12266, 1.11096, 1.11052, 1.10653, 1.10587, 1.10777, 1.10662, 1.10488, 1.10483, 1.10522, 1.09768, 1.10089, 1.10127, 1.10201, 1.15451, 1.0906, 1.10408, 1.12128, 1.06788, 1.07806, 1.07069, 1.0812, 1.17835, 1.16586, 1.12627, 1.1334, 1.13395, 1.11617, 1.1216, 1.13519, 1.14386, 1.14741, 1.1403, 1.14989, 1.14967, 1.13534, 1.15326, 1.12232, 1.12204, 1.10995, 1.09556, 1.12324, 1.11935, 1.11831, 1.08085, 1.08033, 1.08617, 1.1149, 1.09599, 1.05655, 1.04383, 1.04873, 1.03694, 1.02589, 1.05973, 1.03276, 1.05424, 1.05639, 1.04081, 1.07688, 1.07909, 1.01086, 1.02173, 1.02519, 1.01472, 1.04048, 1.05814, 1.05982, 1.07356, 1.07226, 1.07433, 1.26106, 1.08517, 1.1565, 1.07463, 1.07577, 1.23116, 1.09194, 1.1679, 1.18072, 1.07904, 1.07379, 1.07514, 1.07353, 1.07219, 1.0725, 1.06725, 1.06663, 1.06665, 1.06672, 1.0554, 1.05589, 1.05539, 1.05593, 1.05381, 1.05247, 1.05358, 1.05321, 1.05165, 1.0466, 1.04762, 1.04906, 1.04789, 1.04197, 1.03924, 1.03246, 1.02377, 1.02995, 1.04321, 1.05395
1.54716, 1.41906, 1.27291, 1.39188, 1.25662, 1.25145, 1.25, 1.24574, 1.23736, 1.23552, 1.23574, 1.23185, 1.22424, 1.22391, 1.2267, 1.22632, 1.22715, 1.20854, 1.20834, 1.2152, 1.21487, 1.21168, 1.21175, 1.21219, 1.20118, 1.18351, 1.182, 1.17477, 1.16141, 1.15285, 1.15284, 1.16637, 1.17012, 1.17037, 1.14958, 1.24811, 1.12077, 1.12102, 1.12344, 1.12384, 1.12633, 1.11213, 1.1079, 1.10451, 1.10295, 1.10184, 1.10436, 1.10435, 1.10415, 1.10416, 1.09756, 1.09765, 1.10231, 1.10327, 1.10914, 1.14725, 1.14417, 1.08759, 1.11284, 1.07492, 1.07479, 1.1114, 1.13661, 1.1002, 1.1358, 1.1458, 1.09822, 1.0884, 1.12941, 1.12731, 1.1302, 1.14546, 1.13999, 1.14927, 1.15335, 1.13242, 1.12708, 1.11906, 1.12078, 1.10883, 1.10296, 1.11087, 1.11848, 1.08971, 1.10088, 1.07713, 1.08755, 1.04368, 1.04573, 1.06253, 1.03202, 1.01913, 1.05737, 1.01891, 1.01685, 1.01893, 1.0361, 1.0702, 1.0731, 1.02628, 1.03288, 1.08019, 1.03302, 1.037, 1.07555, 1.12172, 1.08534, 1.0615, 1.12313, 1.07373, 1.07517, 1.08069, 1.08721, 1.08733, 1.08062, 1.07768, 1.07919, 1.09035, 1.09221, 1.09856, 1.17252, 1.07332, 1.07387, 1.07397, 1.07349, 1.07142, 1.06981, 1.06704, 1.06692, 1.06739, 1.05615, 1.05427, 1.05291, 1.05461, 1.05334, 1.0505, 1.05429, 1.05527, 1.0517, 1.0479, 1.04849, 1.04846, 1.04879, 1.03912, 1.08932, 1.02078, 1.01983, 1.02628, 1.22735, 1.05149
1.28789, 1.26669, 1.27045, 1.35466, 1.25671, 1.25094, 1.25339, 1.24674, 1.24487, 1.23465, 1.23511, 1.23352, 1.23034, 1.22655, 1.22653, 1.22678, 1.22715, 1.37398, 1.20802, 1.21507, 1.21448, 1.21204, 1.21172, 1.20935, 1.19393, 1.19127, 1.18351, 1.17562, 1.1704, 1.15278, 1.15303, 1.156, 1.17038, 1.20474, 1.21919, 1.19846, 1.11852, 1.11661, 1.12167, 1.13128, 1.12995, 1.36045, 1.10759, 1.10466, 1.10462, 1.09812, 1.1042, 1.10379, 1.10442, 1.10233, 1.10188, 1.09703, 1.10313, 1.10371, 1.10908, 1.09508, 1.11897, 1.09776, 1.1201, 1.09089, 1.09918, 1.0659, 1.10655, 1.08778, 1.09769, 1.10817, 1.12123, 1.0874, 1.10668, 1.12871, 1.12943, 1.12669, 1.14411, 1.1003, 1.13448, 1.15754, 1.12781, 1.13, 1.14588, 1.10528, 1.08356, 1.1052, 1.10404, 1.10815, 1.11211, 1.10684, 1.06311, 1.04553, 1.02332, 1.04402, 1.04405, 1.00992, 0.997045, 1.02259, 1.02528, 1.01511, 1.04293, 1.07282, 1.06708, 1.04047, 1.03482, 1.01505, 1.03055, 1.01614, 1.07347, 1.07029, 1.07233, 1.06537, 1.15514, 1.12577, 1.07701, 1.08733, 1.08801, 1.08864, 1.22099, 1.08739, 1.08119, 1.19154, 1.09683, 1.09909, 1.21081, 1.07637, 1.07353, 1.07373, 1.07357, 1.0727, 1.08264, 1.08217, 1.06573, 1.06163, 1.05573, 1.05336, 1.05288, 1.05552, 1.05157, 1.04995, 1.05361, 1.05364, 1.052, 1.05076, 1.04591, 1.04831, 1.04835, 1.03182, 1.03028, 1.01808, 1.01884, 1.02516, 1.03218, 1.14783
1.29093, 1.5209, 1.26962, 1.38534, 1.41808, 1.47143, 1.25479, 1.24839, 1.24472, 1.24034, 1.23583, 1.23576, 1.232, 1.23128, 1.22554, 1.22594, 1.22666, 1.43269, 1.20814, 1.21498, 1.21435, 1.20999, 1.21262, 1.20883, 1.19077, 1.19032, 1.1844, 1.17704, 1.16151, 1.15614, 1.15086, 1.17081, 1.16533, 1.19289, 1.16428, 1.19099, 1.12011, 1.1186, 1.12079, 1.13241, 1.12561, 1.12367, 1.10793, 1.10475, 1.10616, 1.10216, 1.09506, 1.10426, 1.10166, 1.10283, 1.1024, 1.286, 1.10453, 1.10363, 1.1113, 1.0956, 1.12859, 1.07666, 1.11084, 1.06255, 1.06423, 1.07981, 1.07125, 1.10167, 1.07362, 1.05053, 1.07967, 1.0794, 1.13918, 1.10805, 1.12859, 1.10316, 1.09586, 1.09509, 1.11592, 1.17478, 1.11216, 1.12241, 1.09033, 1.09463, 1.11293, 1.09697, 1.10051, 1.09199, 1.08185, 1.07308, 1.06082, 1.03086, 1.03697, 1.05055, 1.01314, 0.990999, 0.999739, 1.00096, 1.03969, 1.01216, 1.04551, 1.05694, 1.0565, 1.01572, 1.04444, 1.01864, 1.0259, 1.01289, 1.07442, 1.07113, 1.07124, 1.07011, 1.13766, 1.09975, 1.08093, 1.08776, 1.08818, 1.08878, 1.08844, 1.08727, 1.08069, 1.24658, 1.09471, 1.0997, 1.09989, 1.17542, 1.07345, 1.07358, 1.07346, 1.07329, 1.07351, 1.11627, 1.55927, 1.0591, 1.05775, 1.05419, 1.05766, 1.05733, 1.05183, 1.04967, 1.0526, 1.05391, 1.05103, 1.05339, 1.04372, 1.04917, 1.05027, 1.05591, 1.02895, 1.02628, 1.0228, 1.02959, 1.03018, 1.10197
1.28683, 1.5281, 1.40346, 1.26986, 1.84755, 1.25736, 1.25367, 1.25714, 1.36515, 1.24041, 1.23606, 1.23628, 1.23292, 1.23112, 1.22678, 1.22543, 1.22237, 1.22363, 1.3487, 1.21628, 1.2132, 1.21164, 1.21199, 1.21078, 1.21665, 1.18428, 1.18444, 1.17885, 1.16139, 1.16024, 1.14968, 1.14943, 1.15738, 1.16377, 1.18655, 1.18767, 1.12302, 1.12155, 1.12153, 1.13255, 1.12398, 1.12185, 1.10886, 1.10595, 1.10661, 1.0966, 1.09544, 1.10201, 1.10241, 1.10447, 1.10533, 1.10533, 1.10507, 1.10546, 1.10877, 1.09406, 1.11708, 1.0734, 1.07549, 1.06574, 1.12913, 1.08247, 1.08278, 1.08406, 1.04824, 1.05833, 1.0812, 1.07845, 1.11831, 1.14268, 1.10111, 1.10457, 1.0849, 1.099, 1.09106, 1.17348, 1.1135, 1.09399, 1.07705, 1.07897, 1.08036, 1.09634, 1.07118, 1.07768, 1.06288, 1.06398, 1.03574, 1.04606, 1.05606, 0.996003, 1.0155, 0.990373, 0.998846, 1.02586, 1.0176, 1.01753, 0.997634, 1.00433, 1.05809, 1.01666, 1.01996, 1.03878, 1.0217, 1.01419, 1.11588, 1.07256, 1.07492, 1.07438, 1.07405, 1.10015, 1.10591, 1.0869, 1.08741, 1.09016, 1.09032, 1.08717, 1.08199, 1.08365, 1.09453, 1.19329, 1.17702, 1.09455, 1.074, 1.07341, 1.07179, 1.07334, 1.07371, 1.08025, 1.0589, 1.05933, 1.05867, 1.05442, 1.05814, 1.05857, 1.05316, 1.05157, 1.05116, 1.05509, 1.05304, 1.05329, 1.05423, 1.05356, 1.05027, 1.09659, 1.03696, 1.03371, 1.25961, 1.03039, 1.03195, 1.09928
1.2838, 1.28227, 1.52025, 1.51078, 1.41214, 1.25546, 1.25453, 1.25561, 1.25226, 1.27294, 1.23602, 1.23616, 1.23334, 1.23223, 1.22738, 1.2249, 1.22259, 1.2247, 1.22558, 1.21806, 1.21238, 1.2107, 1.21438, 1.21528, 1.22708, 1.18455, 1.18369, 1.18481, 1.16001, 1.15896, 1.14897, 1.14902, 1.15562, 1.15053, 1.16439, 1.17463, 1.17556, 1.12127, 1.12193, 1.1346, 1.33669, 1.11404, 1.11343, 1.10544, 1.1057, 1.31275, 1.0942, 1.09386, 1.10057, 1.10304, 1.10531, 1.10496, 1.10502, 1.10301, 1.12257, 1.09438, 1.09475, 1.07178, 1.07228, 1.06656, 1.06457, 1.0945, 1.06745, 1.07125, 1.05714, 1.05868, 1.08287, 1.05268, 1.13941, 1.1391, 1.07436, 1.10525, 1.14401, 1.08192, 1.11161, 1.10904, 1.10081, 1.07692, 1.07803, 1.04938, 1.05842, 1.05711, 1.06637, 1.08002, 1.06317, 1.10083, 1.05382, 1.0193, 0.998953, 0.995281, 1.02877, 0.994499, 1.01816, 1.00626, 1.02908, 1.02879, 0.998381, 1.02916, 1.00202, 1.02944, 1.02096, 1.06814, 1.03086, 1.08314, 1.11914, 1.07713, 1.07475, 1.07633, 1.07527, 1.0998, 1.10602, 1.08932, 1.08996, 1.09193, 1.09085, 1.08723, 1.08125, 1.08272, 1.09433, 1.09447, 1.10513, 1.17386, 1.07422, 1.07299, 1.27013, 1.06807, 1.06986, 1.06862, 1.05795, 1.0577, 1.05882, 1.06028, 1.05956, 1.05756, 1.05441, 1.05304, 1.05252, 1.0539, 1.05502, 1.05425, 1.05438, 1.05495, 1.04952, 1.46377, 1.0395, 1.03864, 1.03796, 1.02921, 1.03585, 1.0431
1.35771, 1.34073, 1.34212, 1.50959, 1.27117, 1.25685, 1.25494, 1.25562, 1.25527, 1.34451, 1.23735, 1.23798, 1.23251, 1.23267, 1.22581, 1.22519, 1.22445, 1.22442, 1.22246, 1.2196, 1.2153, 1.21261, 1.21453, 1.21543, 1.19601, 1.19522, 1.18477, 1.17718, 1.16183, 1.1575, 1.15684, 1.15303, 1.15573, 1.14662, 1.36492, 1.16578, 1.38526, 1.11986, 1.12581, 1.13227, 1.2627, 1.11361, 1.11328, 1.10462, 1.10467, 1.1045, 1.30849, 1.09228, 1.09929, 1.10111, 1.10312, 1.10498, 1.10488, 1.09588, 1.12192, 1.11915, 1.09698, 1.08851, 1.10867, 1.06501, 1.12721, 1.0943, 1.06555, 1.08804, 1.05975, 1.06388, 1.04879, 1.09953, 1.14255, 1.11159, 1.10144, 1.0987, 1.093, 1.11239, 1.1087, 1.09291, 1.08362, 1.09499, 1.06751, 1.03933, 1.05674, 1.07119, 1.04401, 1.0489, 1.08451, 1.08369, 1.02605, 1.02074, 1.01999, 0.995952, 0.986559, 0.977274, 1.01926, 1.0222, 1.04046, 1.02993, 1.01797, 1.00875, 1.0557, 1.09764, 1.06241, 1.05322, 1.12893, 1.12952, 1.12226, 1.19424, 1.06504, 1.07454, 1.07732, 1.09956, 1.1051, 1.09267, 1.09436, 1.09462, 1.09306, 1.08724, 1.08676, 1.08183, 1.09338, 1.09451, 1.10507, 1.17414, 1.16338, 1.07168, 1.06985, 1.06626, 1.0679, 1.06621, 1.06446, 1.48932, 1.06377, 1.06325, 1.05864, 1.05718, 1.05397, 1.05386, 1.04846, 1.05283, 1.05402, 1.05301, 1.05444, 1.05488, 1.04973, 1.05291, 1.04446, 1.04259, 1.03877, 1.02943, 1.03557, 1.04353
1.29431, 1.32702, 1.2825, 1.34572, 1.27201, 1.25555, 1.25506, 1.25507, 1.25422, 1.76484, 1.24004, 1.23875, 1.23933, 1.31452, 1.23579, 1.22547, 1.22664, 1.22671, 1.22183, 1.22011, 1.22053, 1.21555, 1.21486, 1.21224, 1.19494, 1.1933, 1.2119, 1.25826, 1.16609, 1.15796, 1.15593, 1.15276, 1.15396, 1.14644, 1.14165, 1.4066, 1.15037, 1.14095, 1.12597, 1.12616, 1.12293, 1.11323, 1.11275, 1.10467, 1.10443, 1.10352, 1.10491, 1.09185, 1.09759, 1.10013, 1.10187, 1.10559, 1.10005, 1.09581, 1.09677, 1.11771, 1.09748, 1.09519, 1.09606, 1.09345, 1.09011, 1.09074, 1.07501, 1.09364, 1.11879, 1.0636, 1.04614, 1.04325, 1.0655, 1.09466, 1.07023, 1.09156, 1.0939, 1.08481, 1.09805, 1.0711, 1.06898, 1.08105, 1.07176, 1.03931, 1.04144, 1.05053, 1.05022, 1.03573, 1.08813, 1.0438, 1.02649, 0.99593, 1.0155, 1.00743, 0.984506, 0.981005, 0.97636, 1.00468, 1.03243, 1.03368, 1.01948, 1.01393, 1.05291, 1.05287, 1.06374, 1.10684, 1.10594, 1.06378, 1.06978, 1.0623, 1.06227, 1.06255, 1.13277, 1.09607, 1.09862, 1.09383, 1.09493, 1.09565, 1.09444, 1.08637, 1.08522, 1.08149, 1.09071, 1.09257, 1.20505, 1.17116, 1.1084, 1.06844, 1.06642, 1.06411, 1.06409, 1.06441, 1.06268, 1.48808, 1.0644, 1.06391, 1.05709, 1.05145, 1.05314, 1.05319, 1.04663, 1.05173, 1.05391, 1.05312, 1.0549, 1.05489, 1.05378, 1.05152, 1.04352, 1.04308, 1.04224, 1.22952, 1.03632, 1.04019
1.33606, 1.34204, 1.28157, 1.27405, 1.33771, 1.25589, 1.25609, 1.25507, 1.25478, 1.4259, 1.23969, 1.23893, 1.23863, 1.23844, 1.28607, 1.23695, 1.2329, 1.22583, 1.22048, 1.22031, 1.22157, 1.26044, 1.21824, 1.22843, 1.19733, 1.19172, 1.22316, 1.17028, 1.16584, 1.15635, 1.1548, 1.15282, 1.15026, 1.14745, 1.13803, 1.2616, 1.34203, 1.13797, 1.12584, 1.12596, 1.12183, 1.11281, 1.1124, 1.10592, 1.10495, 1.10361, 1.10276, 1.09385, 1.09226, 1.10105, 1.10349, 1.10472, 1.09623, 1.09891, 1.09766, 1.1146, 1.09687, 1.09844, 1.10154, 1.08885, 1.08911, 1.11241, 1.11613, 1.10819, 1.11666, 1.06369, 1.09419, 1.04594, 1.08975, 1.08723, 1.0701, 1.07067, 1.08465, 1.10572, 1.09028, 1.06675, 1.0698, 1.08178, 1.0322, 1.05022, 1.03516, 1.03624, 1.05407, 1.02195, 1.05446, 1.04636, 0.997825, 0.995664, 1.01647, 1.09146, 1.0093, 0.991831, 1.02694, 0.997458, 0.990193, 1.00817, 1.01311, 1.02472, 1.03983, 1.08557, 1.0778, 1.14919, 1.11697, 1.06562, 1.06779, 1.06333, 1.06145, 1.06217, 1.29573, 1.097, 1.09773, 1.09726, 1.09725, 1.09595, 1.09465, 1.0875, 1.08713, 1.08062, 1.09085, 1.0908, 1.4408, 1.21569, 1.15387, 1.07018, 1.06522, 1.06326, 1.0636, 1.06285, 1.06135, 1.06481, 1.06519, 1.06326, 1.05473, 1.05456, 1.05372, 1.05146, 1.04807, 1.05046, 1.05477, 1.05477, 1.05646, 1.05589, 1.05523, 1.05512, 1.04539, 1.04594, 1.03725, 1.03573, 1.03544, 1.04224
1.34759, 1.33322, 1.37961, 1.27379, 1.26398, 1.2597, 1.25621, 1.25561, 1.32913, 1.42423, 1.24141, 1.23932, 1.23953, 1.23866, 1.24063, 1.2876, 1.23051, 1.22906, 1.22485, 1.22619, 1.22975, 1.25767, 1.21759, 1.21261, 1.19367, 1.21559, 1.20289, 1.23415, 1.16685, 1.15544, 1.15297, 1.15268, 1.15073, 1.14712, 1.14754, 1.129, 1.12649, 1.13251, 1.1293, 1.11992, 1.12189, 1.11508, 1.11351, 0.886033, 1.10441, 1.10409, 0.978659, 1.09415, 1.09215, 1.09452, 1.10115, 1.10445, 1.09686, 1.10141, 1.09751, 1.09845, 1.09587, 1.0995, 1.1041, 1.10282, 1.09422, 1.09877, 1.09939, 1.10206, 1.10094, 1.1154, 1.0639, 1.04597, 1.04404, 1.09513, 1.04831, 1.06685, 1.06533, 1.07339, 1.05683, 1.07779, 1.19159, 1.05246, 1.0257, 1.0295, 1.03363, 1.01326, 1.05363, 1.02674, 1.03216, 1.08965, 0.999758, 0.989754, 1.00771, 1.08899, 0.995594, 1.0074, 1.04432, 1.02411, 1.02494, 1.01209, 1.0162, 1.00443, 1.04379, 1.08331, 1.07484, 1.14772, 1.12372, 1.13164, 1.06249, 1.0623, 1.06296, 1.06372, 1.13046, 1.09228, 1.09829, 1.09737, 1.09946, 1.09747, 1.09622, 1.09289, 1.08589, 1.08025, 1.09054, 1.09066, 1.2065, 1.14649, 1.14845, 1.14935, 1.0636, 1.06309, 1.06308, 1.06227, 1.0554, 1.06475, 1.06447, 1.06393, 1.05941, 1.05486, 1.05416, 1.05028, 1.04968, 1.04909, 1.05421, 1.05512, 1.05681, 1.05797, 1.05593, 1.0553, 1.04716, 1.04904, 1.03942, 1.03705, 1.03742, 1.0398
1.34657, 1.33966, 1.34993, 1.37412, 1.26333, 1.2611, 1.25635, 1.25518, 1.35075, 1.73728, 1.23982, 1.24027, 1.23976, 1.23925, 1.2399, 1.48607, 1.2321, 1.22899, 1.22889, 1.22866, 1.22763, 1.29746, 1.21983, 1.22373, 1.19827, 1.19452, 1.19643, 1.18572, 1.21175, 1.15414, 1.15161, 1.15039, 1.14947, 1.14938, 1.14424, 1.18411, 1.1259, 1.1256, 1.12596, 1.12537, 1.12545, 1.11314, 1.11389, 0.887952, 1.10439, 1.10437, 1.10849, 1.16533, 1.09166, 1.09463, 1.09584, 1.10082, 1.10085, 1.103, 1.09659, 1.09618, 1.09935, 1.09825, 1.09813, 1.10119, 1.09866, 1.09081, 1.10105, 1.09852, 1.14707, 1.08473, 1.07072, 1.07354, 1.08263, 1.05815, 1.04957, 1.07857, 1.0547, 1.06127, 1.04576, 1.04471, 1.05706, 1.05044, 1.02461, 1.01825, 1.06384, 1.01894, 1.02296, 1.02978, 1.01143, 1.0649, 1.00207, 1.04439, 1.00143, 1.04966, 1.04246, 1.04368, 1.04348, 1.03967, 1.01602, 1.0077, 1.01081, 1.0117, 1.07414, 1.06664, 1.20186, 1.14659, 1.11557, 1.07394, 1.06333, 1.06262, 1.06343, 1.06379, 1.06461, 1.14913, 1.09321, 1.0983, 1.09801, 1.09585, 1.09681, 1.09277, 1.08651, 1.08034, 1.08062, 1.09061, 1.13286, 1.20886, 1.20745, 1.12573, 1.13988, 1.06022, 1.06403, 1.06288, 1.05694, 1.0635, 1.06356, 1.06353, 1.06542, 1.05329, 1.0529, 1.05163, 1.05077, 1.04789, 1.05391, 1.05671, 1.05808, 1.05922, 1.05778, 1.05345, 1.05268, 1.18131, 1.03973, 1.03726, 1.03763, 1.04295
1.30704, 1.34087, 1.34701, 1.27954, 1.27534, 1.30583, 1.44022, 1.2613, 1.25, 1.6851, 1.23765, 1.23712, 1.23865, 1.23976, 1.23986, 1.45389, 1.23245, 1.22965, 1.2298, 1.22931, 1.2263, 1.22282, 1.22263, 1.21861, 1.19503, 1.19574, 1.19563, 1.18516, 1.21233, 1.15008, 1.14998, 1.14932, 1.14932, 1.14858, 1.15915, 1.13948, 1.12713, 1.12356, 1.121, 1.12597, 1.1252, 1.11269, 1.11326, 0.901675, 1.10337, 1.10465, 1.10537, 1.2628, 1.09509, 1.0948, 1.09733, 1.10096, 1.10181, 1.10238, 1.10089, 1.09539, 1.10119, 1.09755, 1.08228, 1.09843, 1.09754, 1.09476, 1.09527, 1.09775, 1.15, 1.07423, 1.04705, 1.0715, 1.08215, 1.07989, 1.04703, 1.04787, 1.04221, 1.07099, 1.04255, 1.05352, 1.05232, 1.05675, 1.02001, 1.09978, 1.00016, 1.02826, 1.02185, 1.03256, 1.00501, 1.00262, 0.996188, 1.00659, 1.06415, 1.00928, 1.04273, 0.989447, 0.990957, 0.990512, 1.05725, 1.023, 1.00203, 1.01589, 1.06969, 1.06705, 1.07343, 1.49528, 1.10587, 1.07532, 1.06292, 1.06459, 1.06495, 1.06636, 1.06557, 1.10215, 1.27465, 1.09831, 1.09758, 1.38366, 1.09586, 1.09348, 1.08594, 1.08244, 1.08051, 1.08743, 1.20121, 1.20941, 1.21785, 1.21845, 1.1404, 1.05943, 1.06144, 1.06302, 1.06185, 1.06378, 1.06368, 1.06411, 1.06506, 1.05398, 1.05249, 1.05265, 1.05119, 1.05002, 1.05061, 1.05721, 1.05956, 1.05997, 1.05765, 1.05136, 1.05404, 1.10186, 1.03787, 1.03726, 1.03883, 1.04745
1.30272, 1.34487, 1.34102, 1.45443, 1.2743, 1.26736, 1.26099, 1.26145, 1.73513, 1.3182, 1.23901, 1.23917, 1.24177, 1.24084, 1.23951, 1.23612, 1.23514, 1.23169, 1.2302, 1.23008, 1.22722, 1.22618, 1.22498, 1.2131, 1.19502, 1.19457, 1.38788, 1.17477, 1.17543, 1.15017, 1.14945, 1.14856, 1.14892, 1.14776, 1.15788, 1.15453, 1.12846, 1.12052, 1.11919, 1.12475, 1.12412, 1.11367, 1.11349, 1.11113, 1.10529, 1.10198, 1.10528, 1.26238, 1.09283, 1.09414, 1.09467, 1.10003, 1.10104, 1.10299, 1.09911, 1.0957, 1.09812, 1.08039, 1.096, 1.09747, 1.0985, 1.09561, 1.09494, 1.09733, 1.19499, 1.07452, 1.07825, 1.0704, 1.06304, 1.08797, 1.07601, 1.14019, 1.05643, 1.04307, 1.0455, 1.04253, 1.06467, 1.0257, 1.03659, 1.00913, 1.05345, 1.00504, 1.0609, 1.07086, 1.02359, 0.973746, 0.988224, 0.996779, 0.99896, 1.00325, 0.988089, 0.998592, 0.995932, 1.03916, 1.05491, 1.03045, 1.00074, 1.07237, 1.07265, 1.06653, 1.07426, 1.50842, 1.10565, 1.08226, 1.06129, 1.06547, 1.06654, 1.06551, 1.06558, 1.33583, 1.17453, 1.09778, 1.09512, 1.09091, 1.09387, 1.09456, 1.08852, 1.08439, 1.07962, 1.08759, 1.08788, 1.37844, 1.22116, 1.22207, 1.14347, 1.05813, 1.05994, 1.06234, 1.06282, 1.06387, 1.06415, 1.0636, 1.06379, 1.07096, 1.05283, 1.05283, 1.0494, 1.05282, 1.05047, 1.05781, 1.05719, 1.0519, 1.05767, 1.05934, 1.05443, 1.05604, 1.0393, 1.03882, 1.04092, 1.04625
1.30167, 1.31675, 1.28977, 1.38637, 1.26783, 1.26677, 1.26053, 1.26084, 1.70596, 1.25357, 1.23942, 1.239, 1.24581, 1.24053, 1.23749, 1.23586, 1.23286, 1.23274, 1.23001, 1.22953, 1.22668, 1.226, 1.22493, 1.21249, 1.19831, 1.19356, 1.37595, 1.17542, 1.20644, 1.15293, 1.15273, 1.14897, 1.14765, 1.14625, 1.15404, 1.17445, 1.12894, 1.12895, 1.11753, 1.11899, 1.11853, 1.11932, 1.11228, 1.11134, 1.10489, 1.10173, 1.10117, 1.27398, 1.2356, 1.0941, 1.09721, 1.10066, 1.10128, 1.10461, 1.07899, 1.09606, 1.09636, 1.09846, 1.0958, 1.09768, 1.09774, 1.09453, 1.09185, 1.0933, 1.09594, 1.07347, 1.1228, 1.07328, 1.10901, 1.06032, 1.06162, 1.14339, 1.0388, 1.03448, 1.0425, 1.07689, 1.01586, 1.04771, 1.01369, 1.00802, 1.00306, 1.05574, 1.01328, 1.03974, 1.016, 1.01753, 1.03725, 0.998332, 1.00416, 1.00791, 1.01168, 1.00552, 0.996131, 1.04779, 1.03676, 1.03663, 1.03466, 1.04162, 1.19829, 1.0695, 1.07511, 1.09024, 1.09464, 1.08792, 1.06316, 1.06333, 1.06642, 1.36168, 1.06426, 1.06709, 1.22376, 1.09753, 1.09737, 1.09162, 1.09414, 1.0942, 1.08841, 1.08407, 1.08041, 1.08931, 1.0872, 1.22026, 1.21901, 1.22326, 1.13624, 1.06011, 1.05945, 1.06066, 1.06153, 1.06313, 1.06437, 1.06412, 1.06197, 1.06236, 1.05188, 1.05367, 1.05944, 1.05565, 1.05242, 1.05395, 1.05421, 1.05085, 1.05781, 1.05753, 1.05469, 1.05575, 1.03977, 1.03976, 1.04576, 1.04889
1.30097, 1.29941, 1.2883, 1.35027, 1.26512, 1.26462, 1.26124, 1.26115, 1.70386, 1.66432, 1.23733, 1.23978, 1.2437, 1.23967, 1.23791, 1.23574, 1.23316, 1.2327, 1.22988, 1.23031, 1.22613, 1.22865, 1.21999, 1.23669, 1.1989, 1.19954, 1.1842, 1.18047, 1.18108, 1.15284, 1.15257, 1.15285, 1.14674, 1.1444, 1.16745, 1.13543, 1.13071, 1.12781, 1.11858, 1.11834, 1.11826, 1.11828, 1.11176, 1.11018, 1.10611, 1.10545, 1.10192, 1.12203, 1.26125, 1.09178, 1.09468, 1.1015, 1.10258, 1.10407, 1.10818, 1.10093, 1.10114, 1.09911, 1.09639, 1.09671, 1.09637, 1.09436, 1.09096, 1.09093, 1.09419, 1.07385, 1.07525, 1.127, 1.08809, 1.10323, 1.10838, 1.13789, 1.06074, 1.0644, 1.03872, 1.0639, 1.0514, 1.05243, 1.06037, 1.00928, 1.01176, 1.02563, 1.05838, 1.03635, 1.02671, 1.08705, 1.04255, 1.06395, 1.03186, 1.04941, 1.01118, 1.00657, 0.988809, 1.05025, 1.05129, 1.05491, 1.04789, 1.04256, 1.0598, 1.06813, 1.07631, 1.07796, 1.09674, 1.0831, 1.06333, 1.06397, 1.06593, 1.08067, 1.06334, 1.06551, 1.09868, 1.09664, 1.09702, 1.09091, 1.09378, 1.08936, 1.08749, 1.08548, 1.07758, 1.08761, 1.0884, 1.09083, 1.20673, 1.21715, 1.35282, 1.14042, 1.05313, 1.05932, 1.06117, 1.06277, 1.06351, 1.05465, 1.06005, 1.0611, 1.05686, 1.06331, 1.07166, 1.05691, 1.05125, 1.04947, 1.36831, 1.05267, 1.05692, 1.05667, 1.05097, 1.05452, 1.0403, 1.0421, 1.04671, 1.05164
1.37913, 1.29277, 1.28564, 1.34385, 1.26326, 1.25916, 1.26187, 1.26351, 1.26403, 1.25335, 1.29636, 1.60644, 1.24356, 1.24321, 1.23953, 1.23311, 1.22937, 1.23049, 1.23152, 1.2287, 1.2285, 1.22916, 1.2191, 1.2356, 1.19952, 1.18706, 1.18735, 1.1767, 1.1684, 1.15409, 1.15297, 1.15263, 1.19103, 1.14262, 1.14201, 1.13717, 1.13993, 1.12701, 1.12214, 1.11991, 1.11924, 1.11813, 1.11143, 1.10945, 1.10535, 1.10507, 1.154, 1.11147, 1.24362, 1.24403, 1.09894, 1.10326, 1.10431, 1.10545, 1.10713, 1.10529, 1.10595, 1.10259, 1.09895, 1.09888, 1.09538, 1.09364, 1.08954, 1.08961, 1.0914, 1.09223, 1.0951, 1.09377, 1.0919, 1.09944, 1.10478, 1.04292, 1.03567, 1.04279, 1.06926, 1.03597, 1.03552, 1.06006, 1.03831, 1.0227, 1.01134, 1.02874, 1.01149, 1.01184, 1.00122, 1.04296, 1.07965, 1.08196, 1.02922, 1.0509, 1.06055, 1.00465, 1.16383, 1.05252, 1.05123, 1.05566, 1.05849, 1.05635, 1.05741, 1.06555, 1.07387, 1.08395, 1.09549, 1.08385, 1.08341, 1.06449, 1.06538, 1.05563, 1.07779, 1.06342, 1.31267, 1.09483, 1.09647, 1.09174, 1.09161, 1.09018, 1.08749, 1.08563, 1.07464, 1.076, 1.08828, 1.09045, 1.21441, 1.21425, 1.35191, 1.14048, 1.05382, 1.05777, 1.05944, 1.06217, 1.06496, 1.05416, 1.05989, 1.05997, 1.28473, 1.06275, 1.06045, 1.05959, 1.04915, 1.04919, 1.07308, 1.05102, 1.05477, 1.05607, 1.05665, 1.13438, 1.047, 1.04725, 1.04915, 1.05113
1.36888, 1.36854, 1.28563, 1.36148, 1.26187, 1.25546, 1.26051, 1.26332, 1.26333, 1.26098, 1.29803, 1.55093, 1.24251, 1.24343, 1.23022, 1.23055, 1.2283, 1.23582, 1.23441, 1.22782, 1.22863, 1.22861, 1.22239, 1.21364, 1.19782, 1.2477, 1.18059, 1.17415, 1.19968, 1.15436, 1.15311, 1.17365, 1.16835, 1.14125, 1.14089, 1.13621, 1.13554, 1.13568, 1.124, 1.1226, 1.12164, 1.11867, 1.1109, 1.10938, 1.10603, 1.10616, 1.10947, 1.11188, 1.12513, 1.2359, 1.10037, 1.10091, 1.10579, 1.10754, 1.10683, 1.10496, 1.10618, 1.10397, 1.10438, 1.09778, 1.09506, 1.08504, 1.08539, 1.08449, 1.08629, 1.08762, 1.09347, 1.09302, 1.08999, 1.08323, 1.08309, 1.02015, 1.01842, 1.04345, 1.06613, 1.0428, 1.04528, 1.05284, 1.03294, 1.04712, 1.06585, 1.01558, 1.00937, 0.99067, 1.0567, 1.02893, 1.07791, 1.08236, 1.02981, 1.05908, 1.07385, 1.02583, 1.04344, 1.05356, 1.05261, 1.05437, 1.0598, 1.05692, 1.05798, 1.07239, 1.07359, 1.07485, 1.09279, 1.09992, 1.17773, 1.06371, 1.06482, 1.05513, 1.0553, 1.05879, 1.1752, 1.17467, 1.09727, 1.09771, 1.09035, 1.09028, 1.08727, 1.08712, 1.08263, 1.07334, 1.08652, 1.09049, 1.21578, 1.30586, 1.22024, 1.13812, 1.05194, 1.05463, 1.05888, 1.06208, 1.06415, 1.0623, 1.05952, 1.05983, 1.06139, 1.06235, 1.06028, 1.0605, 1.05575, 1.04783, 1.04479, 1.05095, 1.0523, 1.05626, 1.05631, 1.05849, 1.0477, 1.04962, 1.0538, 1.05466
1.36021, 1.57871, 1.40905, 1.83814, 1.25639, 1.25539, 1.25879, 1.26451, 1.26425, 1.26435, 1.25797, 1.62512, 1.24247, 1.24314, 1.24448, 1.23194, 1.22747, 1.2352, 1.23515, 1.23618, 1.22943, 1.22592, 1.2162, 1.20929, 1.26136, 1.24621, 1.18031, 1.17448, 1.16284, 1.1575, 1.15361, 1.18256, 1.13855, 1.14063, 1.13803, 1.13609, 1.13518, 1.13473, 1.13061, 1.12448, 1.12182, 0.902743, 1.10919, 1.10881, 1.10643, 1.10656, 1.1122, 1.11255, 1.12668, 1.24278, 1.09892, 1.10164, 1.10504, 1.10721, 1.10666, 1.10631, 1.10691, 1.10519, 1.10421, 1.09883, 1.0933, 1.08563, 1.20306, 1.08076, 1.08137, 1.0846, 1.09358, 1.09416, 1.08749, 1.08172, 1.07912, 1.14646, 1.01868, 1.06454, 1.08113, 1.0466, 1.07024, 1.05526, 1.0714, 1.0334, 1.05717, 1.08378, 1.00939, 1.01443, 1.02367, 1.08846, 1.05421, 1.17894, 1.03889, 1.04556, 1.04711, 1.21396, 1.21067, 1.05164, 1.0548, 1.05638, 1.05864, 1.06571, 1.06439, 1.06941, 1.07569, 1.0748, 1.07816, 1.10112, 1.08884, 1.06531, 1.06651, 1.07772, 1.05851, 1.05884, 1.06352, 1.30636, 1.09756, 1.09756, 1.08779, 1.08802, 1.08718, 1.08587, 1.08478, 1.0738, 1.07357, 1.08912, 1.28101, 1.3501, 1.14707, 1.14753, 1.0504, 1.05375, 1.05687, 1.05997, 1.06577, 1.061, 1.05868, 1.0598, 1.06198, 1.06392, 1.0587, 1.06075, 1.05452, 1.04858, 1.04302, 1.04372, 1.05026, 1.0556, 1.05714, 1.0597, 1.05001, 1.05437, 1.05506, 1.05875
1.36044, 1.35559, 1.40717, 1.39616, 1.25823, 1.25638, 1.26049, 1.26452, 1.26422, 1.26379, 1.25932, 1.48677, 1.24656, 1.24321, 1.23925, 1.23182, 1.22728, 1.23175, 1.23573, 1.23564, 1.23056, 1.22037, 1.21459, 1.21055, 1.20284, 1.25981, 1.18443, 1.17098, 1.16202, 1.15848, 1.15353, 1.13894, 1.13676, 1.13765, 1.13915, 1.1359, 1.1355, 1.13276, 1.13148, 1.1263, 1.12293, 0.894135, 0.865431, 1.10874, 1.10547, 1.10578, 1.11319, 1.11111, 1.10668, 1.10605, 1.2123, 1.10284, 1.10416, 1.10501, 1.10513, 1.10759, 1.10673, 1.10559, 1.10454, 1.10098, 1.09492, 1.0959, 1.07488, 1.20137, 1.08259, 1.08267, 1.09038, 1.09159, 1.08358, 1.07891, 1.07814, 1.17798, 1.05723, 1.08035, 1.07662, 1.07749, 1.08544, 1.07125, 1.07539, 1.07742, 1.07181, 1.07839, 1.11551, 1.01112, 1.02422, 1.07442, 1.05654, 1.05194, 1.05385, 1.04556, 1.0458, 1.21323, 1.21238, 1.05579, 1.05817, 1.05756, 1.05963, 1.06971, 1.19441, 1.06505, 1.07446, 1.07632, 1.07809, 1.09708, 1.09536, 1.06436, 1.06632, 1.06651, 1.05925, 1.0589, 1.05696, 1.13627, 1.09482, 1.09754, 1.08712, 1.08487, 1.08708, 1.08534, 1.08461, 1.074, 1.07097, 1.08708, 1.23169, 1.32302, 1.14694, 1.14806, 1.15476, 1.04934, 1.05546, 1.05826, 1.06384, 1.06185, 1.06081, 1.05892, 1.06296, 1.06354, 1.0561, 1.06193, 1.0515, 1.04749, 1.04443, 1.04277, 1.05049, 1.0494, 1.05894, 1.06012, 1.05176, 1.05481, 1.05673, 1.05974
1.35492, 1.40186, 1.35294, 1.46545, 1.25858, 1.25255, 1.25565, 1.26332, 1.26383, 1.26434, 1.25905, 1.25162, 1.24697, 1.24385, 1.23762, 1.23029, 1.2267, 1.22728, 1.23244, 1.28959, 1.22962, 1.26852, 1.21231, 1.20577, 1.3094, 1.31195, 1.18025, 1.17218, 1.16985, 1.15433, 1.15356, 1.17891, 1.13584, 1.13616, 1.13893, 1.13639, 1.13765, 1.12987, 1.13128, 1.13193, 1.12532, 0.895446, 1.12709, 1.12924, 1.10512, 1.10547, 1.10723, 1.10717, 1.10605, 1.10628, 1.10794, 1.10176, 1.10155, 1.10558, 1.10569, 1.1066, 1.10757, 1.10652, 1.1045, 1.10162, 1.09501, 1.09533, 1.07351, 1.07081, 1.07143, 1.08161, 1.08728, 1.08843, 1.08086, 1.07474, 1.0735, 1.07213, 1.07131, 1.07973, 1.07448, 1.07504, 1.08181, 1.07446, 1.07329, 1.07436, 1.07253, 1.07331, 1.0784, 1.05273, 1.04699, 1.05321, 1.05643, 1.05103, 1.05164, 1.05568, 1.05369, 1.05658, 1.05669, 1.05893, 1.05839, 1.05981, 1.06163, 1.0702, 1.19512, 1.06743, 1.07662, 1.07661, 1.07706, 1.10909, 1.09614, 1.08324, 1.06585, 1.06643, 1.06599, 1.05742, 1.05618, 1.16754, 1.22196, 1.09679, 1.09732, 1.08267, 1.08616, 1.08463, 1.08403, 1.0848, 1.07056, 1.27875, 1.21861, 1.31511, 1.14742, 1.29882, 1.14558, 1.04821, 1.05062, 1.05703, 1.06364, 1.06527, 1.063, 1.05454, 1.06013, 1.0619, 1.0564, 1.06306, 1.06333, 1.0505, 1.04919, 1.05068, 1.04958, 1.05068, 1.06269, 1.05993, 1.05325, 1.05722, 1.05792, 1.05874
1.35413, 1.3805, 1.40265, 1.43456, 1.34416, 1.25364, 1.25425, 1.25764, 1.26338, 1.26378, 1.25651, 1.25146, 1.24907, 1.24083, 1.23815, 1.22988, 1.22198, 1.22614, 1.22943, 1.29541, 1.22882, 1.26288, 1.3951, 1.319, 1.19888, 1.18501, 1.17722, 1.17242, 1.16978, 1.15621, 1.15363, 1.1944, 1.13506, 1.13671, 1.14011, 1.13572, 1.13324, 1.12904, 1.13153, 1.12982, 1.12265, 0.873198, 1.1299, 1.12642, 1.10544, 1.1058, 1.10708, 1.10542, 1.10521, 1.10669, 1.1071, 1.09918, 1.10051, 1.10248, 1.10234, 1.10159, 1.10623, 1.10515, 1.1047, 1.10145, 1.09748, 1.08199, 1.07115, 1.07352, 1.07726, 1.07847, 1.07854, 1.08416, 1.07807, 1.07592, 1.07269, 1.07092, 1.07093, 1.07417, 1.07499, 1.07575, 1.08003, 1.07957, 1.07301, 1.07161, 1.06892, 1.07065, 1.07652, 1.29375, 1.05685, 1.14672, 1.06178, 1.0552, 1.03957, 1.05703, 1.05397, 1.05778, 1.18155, 1.05812, 1.06117, 1.06103, 1.06309, 1.07023, 1.07076, 1.07918, 1.07729, 1.07822, 1.07831, 1.07898, 1.09741, 1.08907, 1.06839, 1.06923, 1.06923, 1.06409, 1.06349, 1.06698, 1.13645, 1.09597, 1.09659, 1.08863, 1.08797, 1.08462, 1.08368, 1.08441, 1.06695, 1.0737, 1.2329, 1.27056, 1.3062, 1.19921, 1.29377, 1.04645, 1.0479, 1.05424, 1.06435, 1.06685, 1.06032, 1.05565, 1.05652, 1.06114, 1.06005, 1.06301, 1.06315, 1.04974, 1.04902, 1.05053, 1.04948, 1.05288, 1.05763, 1.098, 1.05625, 1.05675, 1.06039, 1.0622
1.38298, 1.37918, 1.39886, 1.35581, 1.26063, 1.2514, 1.25147, 1.25639, 1.2599, 1.25803, 1.25602, 1.24829, 1.24453, 1.24065, 1.23572, 1.22622, 1.22222, 1.22398, 1.22788, 1.31549, 1.22681, 1.23656, 1.20556, 1.19885, 1.27413, 1.17782, 1.17639, 1.17337, 1.17135, 1.15553, 1.15543, 1.16376, 1.13684, 1.14128, 1.14035, 1.13696, 1.1323, 1.13125, 1.13098, 1.12963, 0.87342, 0.900239, 1.13339, 1.12666, 1.10585, 1.10575, 1.10628, 1.10379, 1.10449, 1.10462, 1.10857, 1.09796, 1.0978, 1.10009, 1.10145, 1.10134, 1.11166, 1.10542, 1.10444, 1.10115, 1.09791, 1.21788, 1.07261, 1.07096, 1.07558, 1.0837, 1.08345, 1.15237, 1.0767, 1.07555, 1.07503, 1.07225, 1.07018, 1.07337, 1.07504, 1.0767, 1.07767, 1.08008, 1.07269, 1.07266, 1.06678, 1.07155, 1.08499, 1.06372, 1.06181, 1.06286, 1.06323, 1.18735, 1.06039, 1.05824, 1.05831, 1.05962, 1.1051, 1.05975, 1.06218, 1.06393, 1.19799, 1.06676, 1.28007, 1.19214, 1.08411, 1.07843, 1.07834, 1.07799, 1.09754, 1.0997, 1.06857, 1.06979, 1.06988, 1.06433, 1.06405, 1.06668, 1.2939, 1.09543, 1.09459, 1.09404, 1.08915, 1.08424, 1.08364, 1.08242, 1.06706, 1.06714, 1.25766, 1.21699, 1.31948, 1.19519, 1.19635, 1.04663, 1.04778, 1.04969, 1.06609, 1.06659, 1.05998, 1.05602, 1.054, 1.12808, 1.05974, 1.06093, 1.06301, 1.05021, 1.05069, 1.05115, 1.04921, 1.0536, 1.06076, 1.06135, 1.05999, 1.05863, 1.06381, 1.06459
1.34645, 1.38118, 1.33713, 1.33638, 1.40595, 1.25307, 1.25095, 1.25074, 1.2571, 1.25447, 1.25528, 1.24539, 1.24453, 1.23895, 1.32655, 1.22486, 1.22205, 1.22249, 1.26529, 1.22218, 1.22677, 1.25812, 1.20453, 1.28523, 1.28661, 1.17702, 1.17315, 1.15179, 1.16414, 1.16236, 1.15057, 1.14934, 1.15861, 1.14686, 1.14012, 1.13567, 1.13301, 1.1292, 1.12998, 1.12971, 0.896662, 1.13755, 1.13627, 1.14799, 1.15981, 1.10801, 1.38483, 1.10243, 1.10105, 1.12077, 1.09835, 1.09747, 1.09347, 1.0999, 1.10051, 1.10088, 1.10219, 1.10452, 1.10443, 1.10131, 1.09791, 1.25273, 1.07037, 1.06976, 1.07582, 1.25528, 1.07376, 1.3251, 1.07567, 1.07509, 1.07457, 1.06436, 1.0689, 1.2181, 1.07598, 1.07662, 1.07737, 1.08161, 1.07749, 1.07015, 1.06984, 1.07161, 1.07373, 1.08136, 1.29143, 1.09106, 1.06468, 1.06155, 1.05969, 1.05851, 1.05881, 1.05956, 1.1972, 1.06072, 1.06351, 1.06757, 1.06803, 1.06787, 1.07607, 1.08257, 1.08716, 1.08811, 1.07901, 1.07898, 1.07715, 1.09928, 1.08722, 1.06942, 1.07054, 1.06387, 1.07129, 1.07107, 1.07382, 1.0925, 1.09482, 1.09457, 1.09018, 1.08306, 1.08342, 1.08522, 1.09206, 1.0655, 1.30984, 1.18214, 1.23907, 1.31663, 1.25761, 1.13987, 1.04616, 1.04935, 1.05805, 1.06499, 1.06455, 1.05013, 1.05103, 1.05364, 1.0578, 1.05964, 1.06013, 1.0508, 1.0522, 1.05331, 1.05052, 1.05417, 1.06347, 1.06381, 1.05842, 1.06066, 1.06445, 1.06346
1.32739, 1.3742, 1.37468, 1.3659, 1.34607, 1.25211, 1.25119, 1.25315, 1.25348, 1.25502, 1.25422, 1.25322, 1.23999, 1.23786, 1.23334, 1.22319, 1.22284, 1.22129, 1.35507, 1.34067, 1.31775, 1.25416, 1.4786, 1.23724, 1.27933, 1.26073, 1.16785, 1.16357, 1.16241, 1.1572, 1.15035, 1.14961, 1.15712, 1.14584, 1.14332, 1.14039, 1.13209, 1.12805, 1.12753, 1.13263, 0.895795, 1.14008, 1.11879, 1.11649, 1.14744, 1.10623, 1.10461, 1.0999, 1.09891, 1.19395, 1.09749, 1.0966, 1.09522, 1.09456, 1.09842, 1.09811, 1.09605, 1.1068, 1.10469, 1.10204, 1.10157, 1.32033, 1.07185, 1.06774, 1.06844, 1.257, 1.07217, 1.07243, 1.07685, 1.07679, 1.07761, 1.07413, 1.07257, 1.07412, 1.07562, 1.07804, 1.07812, 1.07957, 1.07764, 1.07483, 1.07138, 1.07263, 1.07363, 1.07913, 1.07915, 1.09175, 1.06633, 1.06739, 1.06445, 1.06313, 1.05986, 1.06124, 1.0748, 1.06362, 1.0639, 1.06751, 1.06885, 1.07178, 1.07836, 1.08183, 1.089, 1.08734, 1.08741, 1.07789, 1.07693, 1.10086, 1.0834, 1.06887, 1.07026, 1.07348, 1.07371, 1.07274, 1.07336, 1.08808, 1.09414, 1.0954, 1.09819, 1.08534, 1.08398, 1.09082, 1.08993, 1.06421, 1.06581, 1.24787, 1.23726, 1.29103, 1.28114, 1.14068, 1.04659, 1.04953, 1.05483, 1.06429, 1.06475, 1.05512, 1.04596, 1.04607, 1.05633, 1.05664, 1.05855, 1.05923, 1.05137, 1.05227, 1.05135, 1.0597, 1.06454, 1.06549, 1.06185, 1.07882, 1.06691, 1.06339
1.32617, 1.32703, 1.35811, 1.37155, 1.35066, 1.2513, 1.25346, 1.25307, 1.24989, 1.25245, 1.25356, 1.24968, 1.24328, 1.23735, 1.2333, 1.22347, 1.22409, 1.39497, 1.32995, 1.33318, 1.282, 1.18752, 1.18558, 1.24489, 1.20941, 1.2768, 1.16321, 1.16118, 1.1612, 1.15964, 1.16366, 1.15011, 1.14774, 1.14529, 1.14465, 1.14046, 1.14655, 1.12636, 1.12652, 1.12913, 1.13198, 1.12913, 1.12129, 1.11804, 1.12125, 1.12897, 1.36796, 1.09755, 1.09799, 1.09364, 1.09498, 1.09563, 1.09628, 1.09771, 1.09652, 1.09537, 1.09409, 1.10355, 1.10441, 1.1019, 1.09862, 1.07905, 1.0791, 1.068, 1.06728, 1.06542, 1.07017, 1.0703, 1.07686, 1.07524, 1.07224, 1.07324, 1.07253, 1.07334, 1.07598, 1.07787, 1.08009, 1.07863, 1.08004, 1.07739, 1.07261, 1.07301, 1.07727, 1.07816, 1.07766, 1.07519, 1.07314, 1.06841, 1.06567, 1.0654, 1.06324, 1.06428, 1.07541, 1.0763, 1.06365, 1.06825, 1.07003, 1.07433, 1.07814, 1.08353, 1.08802, 1.08742, 1.08728, 1.07836, 1.07841, 1.07787, 1.08379, 1.06883, 1.06906, 1.07274, 1.07388, 1.07333, 1.07422, 1.10889, 1.09434, 1.09508, 1.09384, 1.08819, 1.0874, 1.08971, 1.09061, 1.0627, 1.06347, 1.30602, 1.25702, 1.28774, 1.18751, 1.29164, 1.0467, 1.04787, 1.05701, 1.06224, 1.06321, 1.12616, 1.22439, 1.04901, 1.05374, 1.05699, 1.05747, 1.05712, 1.05219, 1.05257, 1.0535, 1.05716, 1.06468, 1.06572, 1.06249, 1.06509, 1.06661, 1.06376
1.32585, 1.32599, 1.38461, 1.31235, 1.31234, 1.60174, 1.43466, 1.25544, 1.24815, 1.24877, 1.25076, 1.25053, 1.24264, 1.23708, 1.23448, 1.22699, 1.2239, 1.37759, 1.19919, 1.19979, 1.27652, 1.188, 1.18171, 1.24356, 1.20996, 1.27614, 1.16348, 1.1598, 1.16054, 1.15964, 1.15863, 1.14942, 1.1483, 1.14587, 1.14538, 1.14328, 1.14781, 1.12582, 1.12608, 1.12678, 1.12983, 1.12874, 1.12946, 1.12129, 1.11756, 1.12356, 1.13397, 1.09487, 1.09738, 1.093, 1.09185, 1.0942, 1.09713, 1.09762, 1.09792, 1.0947, 1.09585, 1.10355, 1.10388, 1.10247, 1.09819, 1.07848, 1.07726, 1.06644, 1.06662, 1.06391, 1.06399, 1.06792, 1.07696, 1.07471, 1.07126, 1.07352, 1.07165, 1.07322, 1.07497, 1.07959, 1.08132, 1.07869, 1.08042, 1.07926, 1.07544, 1.07516, 1.07794, 1.07729, 1.08563, 1.08424, 1.07305, 1.0687, 1.06802, 1.06371, 1.06315, 1.06455, 1.06643, 1.07085, 1.06803, 1.06851, 1.06918, 1.07442, 1.07685, 1.08184, 1.08852, 1.08872, 1.08698, 1.08426, 1.07795, 1.07753, 1.09283, 1.08082, 1.07623, 1.07497, 1.0741, 1.07349, 1.07427, 1.07679, 1.08924, 1.0947, 1.08918, 1.09162, 1.0931, 1.09914, 1.12707, 1.10948, 1.06109, 1.06168, 1.30979, 1.2232, 1.21353, 1.25843, 1.0473, 1.04743, 1.05194, 1.06032, 1.06157, 1.06218, 1.05061, 1.05044, 1.05015, 1.05664, 1.05799, 1.05371, 1.05386, 1.05908, 1.05535, 1.0608, 1.06319, 1.06583, 1.06283, 1.06545, 1.06551, 1.06395
1.32659, 1.32192, 1.31605, 1.31267, 1.3576, 1.3474, 1.67878, 1.69253, 1.24778, 1.2466, 1.24963, 1.25003, 1.24907, 1.48357, 1.23382, 1.2323, 1.22247, 1.3256, 1.35039, 1.20154, 1.20195, 1.18133, 1.17899, 1.24752, 1.64032, 1.27247, 1.16269, 1.25521, 1.15394, 1.15413, 1.16409, 1.15007, 1.14644, 1.14467, 1.1438, 1.13975, 1.14659, 1.18748, 1.12644, 1.12577, 1.12977, 1.1292, 1.12895, 1.1218, 1.12071, 1.12024, 1.13271, 1.09416, 1.09432, 1.09166, 1.09158, 1.09428, 1.09571, 1.09791, 1.09501, 1.09455, 1.09797, 1.10159, 1.10288, 1.10177, 1.09695, 1.09126, 1.07716, 1.06403, 1.06642, 1.06618, 1.06313, 1.06741, 1.07505, 1.07484, 1.07055, 1.07129, 1.07018, 1.07143, 1.07591, 1.08089, 1.08482, 1.08078, 1.07936, 1.08037, 1.07782, 1.07412, 1.07588, 1.07702, 1.08584, 1.0882, 1.07155, 1.06908, 1.06232, 1.06281, 1.06429, 1.066, 1.06796, 1.0699, 1.06804, 1.06742, 1.06852, 1.07379, 1.07607, 1.08185, 1.08695, 1.08917, 1.08739, 1.08374, 1.0804, 1.07767, 1.07762, 1.08747, 1.07723, 1.07589, 1.07597, 1.07565, 1.07327, 1.07564, 1.07538, 1.25679, 1.09168, 1.09069, 1.09288, 1.11483, 1.31927, 1.19249, 1.05994, 1.0598, 1.23319, 1.23904, 1.30449, 1.2688, 1.11963, 1.04775, 1.05313, 1.19497, 1.06273, 1.05944, 1.05203, 1.05086, 1.05057, 1.0564, 1.05726, 1.05346, 1.05451, 1.05789, 1.05719, 1.06044, 1.06281, 1.06472, 1.06226, 1.06458, 1.06696, 1.06436
1.32366, 1.31857, 1.31459, 1.31422, 1.35753, 1.90306, 1.31349, 1.58152, 1.64576, 1.24416, 1.24963, 1.24967, 1.24797, 1.23945, 1.2339, 1.22931, 1.22249, 1.22061, 1.3266, 1.30609, 1.19467, 1.18128, 1.17915, 1.17963, 1.27414, 1.61379, 1.18582, 1.15076, 1.15174, 1.15311, 1.15453, 1.03358, 0.970627, 1.14424, 1.1396, 1.13983, 1.14529, 1.13012, 1.12596, 1.12519, 1.12633, 1.12879, 1.12903, 1.11915, 1.11846, 1.11831, 1.13743, 1.09476, 1.09436, 1.09002, 1.09094, 1.09436, 1.09503, 1.0958, 1.0939, 1.09614, 1.09818, 1.09947, 1.10343, 1.10143, 1.09748, 1.08976, 1.07662, 1.06189, 1.06502, 1.06636, 1.06244, 1.06363, 1.06304, 1.07036, 1.07034, 1.06969, 1.06945, 1.07101, 1.07627, 1.08416, 1.08465, 1.08486, 1.07997, 1.0795, 1.07739, 1.07583, 1.07591, 1.07725, 1.08783, 1.08832, 1.08973, 1.06856, 1.06782, 1.06284, 1.06436, 1.19484, 1.06821, 1.06886, 1.07359, 1.06753, 1.07045, 1.07141, 1.07416, 1.08106, 1.08461, 1.08607, 1.08642, 1.08479, 1.08146, 1.07828, 1.07647, 1.07623, 1.07741, 1.07552, 1.07617, 1.07479, 1.07551, 1.07486, 1.07505, 1.07532, 1.08937, 1.09029, 1.09084, 1.22009, 1.10503, 1.1056, 1.28679, 1.05883, 1.05871, 1.23044, 1.21717, 1.27072, 1.27283, 1.04832, 1.05222, 1.05428, 1.05992, 1.05888, 1.05254, 1.05157, 1.04702, 1.05596, 1.05649, 1.05142, 1.04954, 1.05657, 1.05972, 1.05948, 1.06063, 1.06305, 1.06083, 1.0634, 1.06948, 1.06524
1.31893, 1.3175, 1.31313, 1.30824, 1.34234, 1.34681, 1.33436, 1.56809, 1.56846, 1.24996, 1.24906, 1.24928, 1.24635, 1.24683, 1.23533, 1.22923, 1.22801, 1.22089, 1.21452, 1.20404, 1.19124, 1.18192, 1.17974, 1.17799, 1.61601, 1.26778, 1.22297, 1.15374, 1.14969, 1.15003, 1.15616, 1.15082, 1.14471, 1.14369, 0.95846, 0.906552, 0.844121, 0.85447, 1.12707, 1.12518, 1.12609, 1.12803, 1.12558, 1.12074, 1.1207, 1.11925, 1.16493, 1.15419, 1.09782, 1.09031, 1.09118, 1.08855, 1.09411, 1.09577, 1.0932, 1.09798, 1.09891, 1.09987, 1.10063, 1.10097, 1.098, 1.21093, 1.09925, 1.07013, 1.06537, 1.06584, 1.06136, 1.06282, 1.06135, 1.07115, 1.07147, 1.0671, 1.06919, 1.07023, 1.0739, 1.08464, 1.08632, 1.08393, 1.08203, 1.07872, 1.07698, 1.07728, 1.07828, 1.08763, 1.08808, 1.08874, 1.08911, 1.0712, 1.06503, 1.06386, 1.06075, 1.05975, 1.0692, 1.0693, 1.0708, 1.07607, 1.07017, 1.07332, 1.07489, 1.07868, 1.08412, 1.08653, 1.08591, 1.08584, 1.08344, 1.08029, 1.07664, 1.07667, 1.07572, 1.07501, 1.07607, 1.0743, 1.07419, 1.07602, 1.07451, 1.07411, 1.29409, 1.09048, 1.08682, 1.21307, 1.10578, 1.10565, 0.00391017, 1.05997, 1.05826, 1.05763, 1.21799, 1.2711, 1.15722, 1.05032, 1.05073, 1.05364, 1.05271, 1.05625, 1.05292, 1.05171, 1.0462, 1.05575, 1.05599, 1.05002, 1.05201, 1.05697, 1.06017, 1.06048, 1.05748, 1.06197, 1.06315, 1.06525, 1.06793, 1.06883
1.31847, 1.31741, 1.31488, 1.30667, 1.36533, 1.33045, 1.34112, 1.64249, 1.61345, 1.57977, 1.25374, 1.24884, 1.24609, 1.24646, 1.23922, 1.22996, 1.22836, 1.22336, 1.21558, 1.20537, 1.18669, 1.18217, 1.17983, 1.17768, 1.39959, 1.2602, 1.60359, 1.15452, 1.15524, 1.14941, 1.1544, 1.1492, 1.1494, 1.17713, 1.17554, 0.911705, 0.87014, 0.877925, 1.12585, 1.12522, 1.12518, 1.12621, 1.12688, 1.12504, 1.14715, 1.11195, 1.1082, 1.10692, 1.09784, 1.08964, 1.09026, 1.08778, 1.08998, 1.09174, 1.09129, 1.09919, 1.10066, 1.09934, 1.09869, 1.10067, 1.09555, 1.09471, 1.09178, 1.0735, 1.06801, 1.06502, 1.06565, 1.06344, 1.06358, 1.06964, 1.06637, 1.06383, 1.0668, 1.07231, 1.07476, 1.08086, 1.08688, 1.08604, 1.08483, 1.08024, 1.07737, 1.07799, 1.0804, 1.08544, 1.08832, 1.08984, 1.0884, 1.08871, 1.3027, 1.06229, 1.06135, 1.0593, 1.06058, 1.06893, 1.07315, 1.07573, 1.07031, 1.0733, 1.07518, 1.0826, 1.08498, 1.08729, 1.08578, 1.0846, 1.08425, 1.0806, 1.07823, 1.07389, 1.07415, 1.07471, 1.07492, 1.07566, 1.07483, 1.07677, 1.07708, 1.07357, 1.07535, 1.08826, 1.08782, 1.08798, 1.24005, 1.16079, 1.17065, 1.24755, 1.05655, 1.05709, 1.30882, 1.16739, 1.16324, 1.05296, 1.0515, 1.05318, 1.0529, 1.05314, 1.05269, 1.0507, 1.04457, 1.05383, 1.05605, 1.04948, 1.0523, 1.05444, 1.05916, 1.05893, 1.05905, 1.06287, 1.06279, 1.0653, 1.06758, 1.06826
1.31846, 1.31773, 1.3093, 1.30676, 1.31275, 1.32942, 1.32937, 1.31271, 1.30134, 1.5853, 1.25488, 1.25411, 1.24707, 1.24279, 1.24302, 1.23122, 1.22934, 1.22601, 1.2031, 1.20402, 1.26528, 1.60775, 1.1776, 1.20782, 1.40258, 1.18444, 1.26278, 1.26476, 1.15488, 1.15582, 1.1483, 1.14969, 1.15123, 1.14467, 1.14194, 1.13797, 1.13841, 1.13831, 1.1294, 1.12519, 1.12482, 1.12563, 1.12751, 1.13075, 1.24075, 1.11956, 1.10619, 1.10603, 1.10009, 1.08983, 1.09069, 1.08487, 1.09018, 1.09077, 1.09148, 1.09875, 1.10067, 1.10063, 1.09845, 1.09957, 1.09963, 1.09191, 1.09081, 1.0698, 1.06824, 1.06513, 1.06525, 1.06381, 1.06479, 1.06553, 1.06403, 1.06007, 1.06572, 1.36742, 1.10817, 1.09068, 1.08697, 1.08631, 1.08478, 1.08228, 1.07973, 1.07819, 1.08147, 1.08428, 1.08924, 1.08973, 1.08848, 1.08725, 1.30371, 1.0636, 1.06177, 1.06042, 1.05963, 1.19254, 1.19476, 1.0779, 1.07172, 1.07425, 1.06719, 1.08272, 1.08427, 1.08763, 1.08696, 1.08409, 1.08423, 1.0821, 1.07905, 1.07345, 1.07167, 1.07418, 1.07692, 1.07574, 1.07614, 1.07699, 1.07702, 1.07677, 1.07491, 1.33031, 1.09067, 1.08712, 1.12319, 1.16036, 1.18176, 1.2257, 1.05583, 1.05616, 1.05824, 1.15417, 1.15399, 1.05636, 1.05456, 1.05338, 1.05178, 1.05262, 1.05195, 1.05243, 1.0427, 1.05388, 1.05493, 1.05202, 1.05425, 1.05419, 1.05635, 1.05615, 1.05439, 1.2257, 1.06173, 1.06508, 1.06724, 1.06977
1.32121, 1.3158, 1.3099, 1.30521, 1.30514, 1.3296, 1.33079, 1.31632, 1.29222, 1.33088, 1.25654, 1.25594, 1.24718, 1.24219, 1.2425, 1.44112, 1.34802, 1.34789, 1.21786, 1.31257, 1.25355, 1.6018, 1.58827, 1.58731, 1.17523, 1.25694, 1.17068, 1.17134, 1.15015, 1.15081, 1.15086, 1.15096, 1.15144, 1.19258, 1.14318, 1.13827, 1.13639, 1.13602, 1.12889, 1.12822, 1.12298, 1.12312, 1.12956, 1.12985, 1.13264, 1.1162, 1.11609, 1.10601, 1.1065, 1.09458, 1.08532, 1.08425, 1.08813, 1.08919, 1.09124, 1.09738, 1.09951, 1.09881, 1.09788, 1.09774, 1.09776, 1.09797, 1.09618, 1.28202, 1.06609, 1.06493, 1.0654, 1.06492, 1.06459, 1.06605, 1.06204, 1.05849, 1.05996, 1.08706, 1.10263, 1.08583, 1.08431, 1.0864, 1.08642, 1.08236, 1.08268, 1.08022, 1.08149, 1.08384, 1.08879, 1.08882, 1.08792, 1.08696, 1.08637, 1.06336, 1.0612, 1.06621, 1.06713, 1.07851, 1.24057, 1.07713, 1.07538, 1.07364, 1.07506, 1.07894, 1.08494, 1.08706, 1.08718, 1.08512, 1.08452, 1.08361, 1.08354, 1.07289, 1.06877, 1.07025, 1.07368, 1.07037, 1.07702, 1.07722, 1.0769, 1.07675, 1.0751, 1.07555, 1.0892, 1.08683, 1.08474, 1.13694, 1.08637, 1.16431, 1.08483, 1.05709, 1.06055, 1.30125, 1.06572, 1.0646, 1.05613, 1.05295, 1.04981, 1.05, 1.05252, 1.04946, 1.04608, 1.04728, 1.05323, 1.05273, 1.05606, 1.05412, 1.05314, 1.05384, 1.05333, 1.05344, 1.20436, 1.0667, 1.06821, 1.06991
1.32198, 1.31687, 1.3088, 1.30365, 1.30499, 1.32988, 1.32985, 1.49973, 1.57155, 1.57338, 1.27137, 1.25546, 1.49599, 1.23688, 1.24441, 1.2407, 1.36328, 1.36177, 1.2512, 1.25285, 1.61004, 1.24692, 1.58812, 1.34405, 1.20352, 1.17473, 1.2575, 1.17579, 1.14994, 1.15139, 1.15156, 1.14825, 1.15283, 1.3126, 1.14347, 1.14072, 1.13583, 1.1354, 1.1304, 1.12797, 1.12316, 1.12453, 1.12767, 1.1317, 1.13217, 1.11722, 1.11589, 1.10872, 1.10544, 1.12224, 1.082, 1.0829, 1.08455, 1.08853, 1.08999, 1.09481, 1.09867, 1.09767, 1.09645, 1.09686, 1.09888, 1.09974, 1.10246, 1.35111, 1.171, 1.06346, 1.06338, 1.06537, 1.06486, 1.06646, 1.06122, 1.06196, 1.06075, 1.06943, 1.07124, 1.10202, 1.09168, 1.0862, 1.08704, 1.08318, 1.08247, 1.08048, 1.08026, 1.08078, 1.0863, 1.08951, 1.08945, 1.08563, 1.08574, 1.06291, 1.06306, 1.06738, 1.07122, 1.07252, 1.07841, 1.07863, 1.08754, 1.07163, 1.07368, 1.07743, 1.08701, 1.08726, 1.08737, 1.08544, 1.08488, 1.08404, 1.08377, 1.08388, 1.06732, 1.06638, 1.07173, 1.06986, 1.07038, 1.07648, 1.07593, 1.07604, 1.07693, 1.07474, 1.07565, 1.08681, 1.08449, 1.13598, 1.15759, 1.08001, 1.18483, 1.06389, 1.0608, 1.06457, 1.06627, 1.06924, 1.05605, 1.05286, 1.05263, 1.05293, 1.052, 1.04776, 1.04397, 1.04772, 1.05332, 1.05582, 1.05839, 1.05973, 1.051, 1.05431, 1.05645, 1.05221, 1.21589, 1.06645, 1.06843, 1.06892
1.32255, 1.35427, 1.42336, 1.30144, 1.30294, 1.34996, 1.32576, 1.31609, 1.30747, 1.59573, 1.53161, 1.2554, 1.25428, 1.24853, 1.24518, 1.24286, 1.36506, 1.25767, 1.2597, 1.24063, 1.61029, 1.24291, 1.23548, 1.58137, 1.21445, 1.21328, 1.38561, 1.65071, 1.25364, 1.15278, 1.15303, 1.15348, 1.15371, 1.19152, 1.30023, 1.14229, 1.13752, 1.13476, 1.12922, 1.12911, 1.12391, 1.12477, 1.12644, 1.12696, 1.13266, 1.11534, 1.11559, 1.11029, 1.10522, 1.10181, 1.30508, 1.08025, 1.08411, 1.08916, 1.08971, 1.09131, 1.0961, 1.19695, 1.09554, 1.09602, 1.0998, 1.10143, 1.10349, 1.16275, 1.1659, 1.06256, 1.06585, 1.0656, 1.06527, 1.0669, 1.06078, 1.06207, 1.06446, 1.06525, 1.07118, 1.07347, 1.23966, 1.08678, 1.08678, 1.08467, 1.08162, 1.08136, 1.07699, 1.07983, 1.0846, 1.08827, 1.08764, 1.08389, 1.08541, 1.09524, 1.06362, 1.06408, 1.07331, 1.07258, 1.0784, 1.07999, 1.08028, 1.07048, 1.07193, 1.07508, 1.08464, 1.08575, 1.08679, 1.08588, 1.08543, 1.08453, 1.08357, 1.08304, 1.14285, 1.06551, 1.06844, 1.0679, 1.06758, 1.07732, 1.07403, 1.07455, 1.07714, 1.07353, 1.0742, 1.08414, 1.08248, 1.0754, 1.1533, 1.0778, 1.18317, 1.06271, 1.06354, 1.06549, 1.06758, 1.06918, 1.05632, 1.05575, 1.05499, 1.05442, 1.05082, 1.12043, 1.04585, 1.04906, 1.13503, 1.0577, 1.0595, 1.06124, 1.04897, 1.04971, 1.05556, 1.05753, 1.1998, 1.06573, 1.06816, 1.06957
1.47113, 1.44433, 1.47219, 1.2997, 1.30228, 1.35826, 1.32586, 1.31818, 1.3039, 1.55878, 1.53018, 1.25472, 1.25532, 1.46722, 1.24672, 1.24466, 1.24551, 1.33076, 1.22468, 1.24417, 1.24301, 1.24238, 1.23368, 1.2219, 1.20911, 1.26058, 1.17882, 1.29192, 1.16131, 1.15457, 1.15329, 1.15377, 1.15512, 1.15467, 1.30631, 1.14335, 1.13586, 1.13531, 1.13279, 1.12647, 1.12533, 1.12448, 1.12725, 1.12431, 1.11996, 1.23253, 1.11631, 1.11538, 1.10637, 1.11388, 1.10892, 1.0817, 1.08223, 1.08819, 1.08796, 1.08808, 1.10865, 1.08289, 1.09394, 1.0948, 1.10085, 1.10131, 1.10258, 1.10052, 1.10349, 1.07697, 1.06446, 1.06524, 1.06686, 1.06926, 1.07514, 1.18272, 1.0653, 1.06702, 1.07332, 1.07378, 1.23589, 1.09153, 1.08425, 1.08384, 1.08158, 1.08113, 1.0758, 1.07814, 1.08134, 1.08732, 1.0859, 1.079, 1.10063, 1.15314, 1.06293, 1.06433, 1.0735, 1.07391, 1.07919, 1.08025, 1.20254, 1.07009, 1.07029, 1.06872, 1.08384, 1.08721, 1.08229, 1.08265, 1.08458, 1.08398, 1.0819, 1.0819, 1.14311, 1.06334, 1.06466, 1.06701, 1.06416, 1.09454, 1.28999, 1.07407, 1.07712, 1.07202, 1.07345, 1.07872, 1.07967, 1.0725, 1.07003, 1.0717, 1.06174, 1.06183, 1.05952, 1.06655, 1.06684, 1.06811, 1.05955, 1.05481, 1.05517, 1.05774, 1.04684, 1.04618, 1.04287, 1.04814, 1.14289, 1.05831, 1.06002, 1.06089, 1.04733, 1.04752, 1.05607, 1.05749, 1.22261, 1.06549, 1.06745, 1.06859
1.37477, 1.4668, 1.36906, 1.29822, 1.29815, 1.30213, 1.32564, 1.326, 1.57945, 1.28441, 1.27921, 1.25398, 1.25414, 1.25356, 1.24974, 1.24467, 1.24489, 1.23173, 1.22372, 1.26002, 1.25957, 1.2405, 1.23537, 1.22148, 1.68673, 1.22414, 1.21704, 1.24831, 1.15552, 1.1545, 1.15373, 1.15346, 1.15487, 1.15343, 1.14944, 1.14168, 1.13407, 1.13413, 1.13413, 1.13301, 1.12516, 1.12577, 1.12825, 1.12687, 1.11831, 1.12021, 1.11503, 1.1165, 1.10476, 1.10519, 1.28494, 1.08809, 1.08827, 1.0881, 1.08753, 1.08768, 1.31925, 1.08426, 1.08393, 1.09794, 1.10094, 1.10161, 1.1012, 1.09759, 1.09679, 1.0804, 1.11327, 1.07243, 1.06998, 1.07011, 1.07691, 1.31263, 1.06715, 1.06606, 1.07448, 1.07402, 1.07562, 1.09178, 1.08493, 1.08342, 1.08266, 1.08116, 1.07704, 1.07744, 1.0831, 1.08527, 1.08302, 1.07769, 1.19561, 1.29908, 1.09252, 1.18813, 1.07334, 1.07437, 1.07818, 1.07926, 1.07397, 1.06984, 1.06947, 1.06989, 1.25458, 1.08622, 1.08717, 1.08017, 1.0838, 1.08448, 1.08331, 1.08059, 1.21207, 1.12705, 1.06577, 1.06758, 1.0649, 1.06662, 1.06695, 1.11185, 1.07478, 1.07323, 1.07356, 1.07396, 1.21343, 1.07098, 1.07013, 1.07116, 1.06483, 1.0615, 1.05735, 1.05531, 1.14339, 1.06555, 1.18074, 1.05334, 1.05532, 1.05779, 1.04658, 1.04493, 1.04383, 1.05255, 1.0532, 1.05903, 1.06065, 1.06101, 1.04621, 1.04537, 1.04707, 1.05688, 1.2178, 1.06691, 1.06666, 1.06681
1.47846, 1.47471, 1.39666, 1.29793, 1.30099, 1.30164, 1.32544, 1.32526, 1.62343, 1.62691, 1.28121, 1.27148, 1.25651, 1.25642, 1.24249, 1.24265, 1.24516, 1.23656, 1.23043, 1.22382, 1.23622, 1.23476, 1.22717, 1.22089, 1.21637, 1.20081, 1.25296, 1.15965, 1.15682, 1.15661, 1.1561, 1.15655, 1.15519, 1.15337, 1.14901, 1.14622, 1.13744, 1.13311, 1.13345, 1.13384, 1.12667, 1.12632, 1.12675, 1.1266, 1.12107, 1.124, 1.11537, 1.11462, 1.11133, 1.10337, 1.09761, 1.08814, 1.08779, 1.08819, 1.08794, 1.08723, 1.08488, 1.0847, 1.10919, 1.09741, 1.10175, 1.10113, 1.10055, 1.10073, 1.09734, 1.08969, 1.11565, 1.12177, 1.07168, 1.10071, 1.07766, 1.07509, 1.07174, 1.06816, 1.07083, 1.0749, 1.07509, 1.07635, 1.08877, 1.0817, 1.0839, 1.08165, 1.07756, 1.07764, 1.08198, 1.08417, 1.08018, 1.07755, 1.13932, 1.29908, 1.3336, 1.0719, 1.07373, 1.0735, 1.07731, 1.07735, 1.07148, 1.07001, 1.0679, 1.06752, 1.2088, 1.25029, 1.08753, 1.07955, 1.08082, 1.08435, 1.08456, 1.07775, 1.09657, 1.29889, 1.06408, 1.10771, 1.06377, 1.0649, 1.06635, 1.07246, 1.07247, 1.07284, 1.07334, 1.0715, 1.07116, 1.06986, 1.07007, 1.07187, 1.06476, 1.06416, 1.05582, 1.05237, 1.15235, 1.12306, 1.0532, 1.0529, 1.05284, 1.22029, 1.0772, 1.04342, 1.0434, 1.05159, 1.05336, 1.05923, 1.06031, 1.19829, 1.04423, 1.04385, 1.04668, 1.0542, 1.15996, 1.06651, 1.06656, 1.06595
1.49043, 1.30401, 1.30133, 1.30155, 1.30094, 1.301, 1.37748, 1.32366, 1.32143, 1.55185, 1.28094, 1.53994, 1.25906, 1.25861, 1.39613, 1.24808, 1.24783, 1.23918, 1.23231, 1.22364, 1.21689, 1.23305, 1.23244, 1.33413, 1.21584, 1.53007, 1.36655, 1.15902, 1.15792, 1.15627, 1.15646, 1.15624, 1.15614, 1.15055, 1.14965, 1.14529, 1.13984, 1.13313, 1.13323, 1.13379, 1.187, 1.12603, 1.12506, 1.1231, 1.1311, 1.23417, 1.11504, 1.11383, 1.11574, 1.10188, 1.10183, 1.09067, 1.08819, 1.09142, 1.0902, 1.08466, 1.08477, 1.08468, 1.11038, 1.11402, 1.10406, 1.105, 1.10071, 1.10118, 1.10343, 1.14177, 1.12233, 1.19629, 1.14816, 1.08837, 1.08266, 1.0781, 1.07241, 1.06878, 1.07075, 1.07407, 1.07534, 1.07586, 1.08104, 1.08365, 1.13988, 1.08464, 1.08461, 1.0782, 1.08256, 1.08381, 1.08061, 1.07945, 1.08361, 1.09761, 1.0978, 1.07997, 1.07309, 1.07343, 1.07514, 1.08599, 1.07355, 1.0674, 1.06652, 1.0671, 1.06742, 1.0783, 1.08814, 1.09004, 1.07822, 1.08398, 1.08371, 1.07704, 1.09821, 1.09994, 1.06098, 1.2927, 1.06334, 1.06493, 1.06571, 1.0671, 1.07381, 1.07333, 1.07187, 1.06875, 1.06983, 1.07118, 1.07072, 1.07326, 1.06333, 1.06078, 1.05867, 1.05253, 1.04584, 1.04557, 1.0612, 1.05277, 1.05597, 1.11971, 1.08145, 1.04207, 1.04327, 1.04901, 1.05292, 1.05747, 1.05882, 1.18766, 1.17476, 1.04483, 1.04481, 1.04832, 1.05681, 1.06687, 1.06706, 1.06584
1.30539, 1.30159, 1.3004, 1.30139, 1.30174, 1.30156, 1.30419, 1.32107, 1.32554, 1.51821, 1.28263, 1.27071, 1.26218, 1.26041, 1.2557, 1.25294, 1.24584, 1.2376, 1.22972, 1.22981, 1.21663, 1.22945, 1.22641, 1.1854, 1.32309, 1.21166, 1.17284, 1.16, 1.15724, 1.15661, 1.15554, 1.15569, 1.15606, 1.49371, 1.14933, 1.14868, 1.27035, 1.13742, 1.13701, 1.13438, 1.18737, 1.12493, 1.12204, 1.12223, 1.1309, 1.35686, 1.25034, 1.11896, 1.12892, 1.1157, 1.10633, 1.09056, 1.09045, 1.09068, 1.09077, 1.08516, 1.08422, 1.08571, 1.31136, 1.11193, 1.10445, 1.10522, 1.10111, 1.1024, 1.10601, 1.1055, 1.10452, 1.14762, 1.09305, 1.08825, 1.08561, 1.07917, 1.07591, 1.06984, 1.07061, 1.07357, 1.07336, 1.07409, 1.07442, 1.11396, 1.14977, 1.08693, 1.08526, 1.087, 1.08051, 1.08241, 1.08097, 1.07863, 1.0873, 1.09829, 1.09883, 1.08925, 1.07178, 1.07209, 1.07319, 1.07588, 1.07562, 1.06976, 1.06532, 1.06532, 1.068, 1.07064, 1.09045, 1.09154, 1.08492, 1.08287, 1.08186, 1.07744, 1.07713, 1.10102, 1.18871, 1.05968, 1.06306, 1.06377, 1.0657, 1.06656, 1.06669, 1.06738, 1.06977, 1.06607, 1.06458, 1.06749, 1.07233, 1.0703, 1.06279, 1.06021, 1.06017, 1.05047, 1.04565, 1.04254, 1.04162, 1.17879, 1.04776, 1.1796, 1.04232, 1.0407, 1.04289, 1.04916, 1.05092, 1.20137, 1.08264, 1.17445, 1.08845, 1.04567, 1.04622, 1.04755, 1.05652, 1.06406, 1.06604, 1.06434
1.30268, 1.30041, 1.30019, 1.30131, 1.30139, 1.30129, 1.30367, 1.32045, 1.31773, 1.29217, 1.28456, 1.26421, 1.26298, 1.26054, 1.25683, 1.25273, 1.24986, 1.23908, 1.25134, 1.22526, 1.2206, 1.24343, 1.1895, 1.21054, 1.38881, 1.19825, 1.17117, 1.16044, 1.15661, 1.15698, 1.15426, 1.15645, 1.32756, 1.14566, 1.14901, 1.14869, 1.26393, 1.13682, 1.13733, 1.13434, 1.13252, 1.12418, 1.12133, 1.12246, 1.1321, 1.13258, 1.12503, 1.12478, 1.18202, 1.11423, 1.1154, 1.09249, 1.09272, 1.09135, 1.09138, 1.08466, 1.08384, 1.09816, 1.3067, 1.1047, 1.10049, 1.10802, 1.10304, 1.10516, 1.11098, 1.11399, 1.10127, 1.10127, 1.24761, 1.08947, 1.09103, 1.08187, 1.07936, 1.06859, 1.07195, 1.07396, 1.07383, 1.07415, 1.07364, 1.09218, 1.23028, 1.08813, 1.08594, 1.0721, 1.07999, 1.08048, 1.07949, 1.07865, 1.07751, 1.09837, 1.09915, 1.09575, 1.07197, 1.07239, 1.07325, 1.07318, 1.07482, 1.07478, 1.06764, 1.06591, 1.07712, 1.07448, 1.08785, 1.09275, 1.09424, 1.08089, 1.08228, 1.07753, 1.07612, 1.10184, 1.18199, 1.06012, 1.05742, 1.06361, 1.06262, 1.065, 1.0661, 1.06568, 1.06734, 1.06407, 1.06279, 1.06357, 1.0676, 1.06568, 1.0664, 1.06134, 1.05608, 1.05029, 1.04578, 1.04066, 1.0398, 1.03786, 1.04087, 1.03726, 1.11213, 1.11298, 1.04318, 1.04551, 1.04719, 1.08372, 1.07205, 1.19119, 1.05083, 1.0449, 1.04354, 1.0434, 1.04828, 1.06013, 1.06117, 1.06326
1.30168, 1.30038, 1.30194, 1.30151, 1.30255, 1.30165, 1.303, 1.30766, 1.6899, 1.31686, 1.28599, 1.26617, 1.26384, 1.26106, 1.25904, 1.25674, 1.24952, 1.24248, 1.24092, 1.23215, 1.22954, 1.2254, 1.21741, 1.24018, 1.2304, 1.34322, 1.18671, 1.35068, 1.15642, 1.15655, 1.15399, 1.15521, 1.14339, 1.14353, 1.1473, 1.14692, 1.26055, 1.13694, 1.13744, 1.13315, 1.1324, 1.1518, 1.12155, 1.12331, 1.12246, 1.11838, 1.12514, 1.19897, 1.18881, 1.17802, 1.1215, 1.09751, 1.09271, 1.09314, 1.09229, 1.11196, 1.0837, 1.09581, 1.09239, 1.09798, 1.09755, 1.10529, 1.24028, 1.11167, 1.11189, 1.11302, 1.12498, 1.12656, 1.09225, 1.09274, 1.0945, 1.08671, 1.08047, 1.07985, 1.07616, 1.07457, 1.07221, 1.07421, 1.07478, 1.17419, 1.09186, 1.08874, 1.06887, 1.08419, 1.07946, 1.08007, 1.08007, 1.07701, 1.0773, 1.09753, 1.09782, 1.09811, 1.0707, 1.07213, 1.07371, 1.07131, 1.07389, 1.0737, 1.0677, 1.06552, 1.06015, 1.06891, 1.19884, 1.09322, 1.09358, 1.08008, 1.08156, 1.07695, 1.07465, 1.16844, 1.14492, 1.05316, 1.05672, 1.0596, 1.06346, 1.06367, 1.06213, 1.06207, 1.06189, 1.06262, 1.06174, 1.06307, 1.06497, 1.06545, 1.0647, 1.05879, 1.05659, 1.04998, 1.13903, 1.03944, 1.03769, 1.03664, 1.03537, 1.03613, 1.0344, 1.0341, 1.03727, 1.04121, 1.046, 1.08696, 1.07785, 1.0474, 1.04939, 1.04936, 1.04273, 1.04503, 1.04862, 1.05616, 1.05914, 1.06132
1.30219, 1.30461, 1.30508, 1.30191, 1.30428, 1.30557, 1.30716, 1.30872, 1.30828, 1.31095, 1.28393, 1.26823, 1.26314, 1.26222, 1.25868, 1.25719, 1.24938, 1.24166, 1.24344, 1.24344, 1.20158, 1.20054, 1.19934, 1.19634, 1.23332, 1.53571, 1.29687, 1.18143, 1.16114, 1.15481, 1.15566, 1.15449, 1.14237, 1.14311, 1.14607, 1.14705, 1.26079, 1.16769, 1.16049, 1.13104, 1.132, 1.12543, 1.12585, 1.12218, 1.12046, 1.11832, 1.1188, 0.00461335, 1.13241, 1.13375, 1.1243, 1.25682, 1.0934, 1.09419, 1.09521, 1.08523, 1.0839, 1.09198, 1.09119, 1.09405, 1.09766, 1.10096, 1.45004, 1.11391, 1.11281, 1.11209, 1.1252, 1.11418, 1.12576, 1.08858, 1.09287, 1.10754, 1.26181, 1.08046, 1.07874, 1.07818, 1.07424, 1.07376, 1.07303, 1.0719, 1.06717, 1.06689, 1.06704, 1.08833, 1.09176, 1.08035, 1.07869, 1.0769, 1.07745, 1.08611, 1.09763, 1.09751, 1.07054, 1.07245, 1.07218, 1.07175, 1.0741, 1.07275, 1.07168, 1.06731, 1.0586, 1.2511, 1.07862, 1.09167, 1.09265, 1.31331, 1.0801, 1.07511, 1.07356, 1.24391, 1.1552, 1.05153, 1.05243, 1.05423, 1.0605, 1.06131, 1.06075, 1.06094, 1.06212, 1.06284, 1.06303, 1.06286, 1.06103, 1.06549, 1.08527, 1.14333, 1.05112, 1.05275, 1.13052, 1.03204, 1.03875, 1.03625, 1.03557, 1.03626, 1.0326, 1.03246, 1.16721, 1.03941, 1.03963, 1.04318, 1.31621, 1.04751, 1.04779, 1.04795, 1.04615, 1.04791, 1.04877, 1.05021, 1.05665, 1.05809
1.31092, 1.30251, 1.30482, 1.30416, 1.30582, 1.30492, 1.30603, 1.30906, 1.30704, 1.30559, 1.50438, 1.50607, 1.2666, 1.25845, 1.25794, 1.25872, 1.24929, 1.27602, 1.32939, 1.2109, 1.23367, 1.20377, 1.20084, 1.19439, 1.23951, 1.36896, 1.44108, 1.17551, 1.16195, 1.15838, 1.15679, 1.15632, 1.15595, 1.14858, 1.14835, 1.14646, 1.14424, 1.16754, 1.13296, 1.13255, 1.13335, 1.12572, 1.1255, 1.12515, 1.11893, 1.11865, 1.11906, 1.12374, 1.132, 1.13271, 1.20886, 1.25029, 1.094, 1.09415, 1.09521, 1.09203, 1.08418, 1.08808, 1.09185, 1.09259, 1.09193, 1.10009, 1.19073, 1.11217, 1.1131, 1.11623, 1.11668, 1.11291, 1.08631, 1.08734, 1.09438, 1.14705, 1.09105, 1.08379, 1.07956, 1.08056, 1.07331, 1.07334, 1.07051, 1.07162, 1.0667, 1.0665, 1.06673, 1.06776, 1.0904, 1.07796, 1.07633, 1.07498, 1.07792, 1.08815, 1.09791, 1.09603, 1.06926, 1.07167, 1.07271, 1.07124, 1.07098, 1.07275, 1.07348, 1.07006, 1.06812, 1.08716, 1.07404, 1.29933, 1.24548, 1.0778, 1.0786, 1.07486, 1.07054, 1.06821, 1.24798, 1.0496, 1.04906, 1.05262, 1.05296, 1.06118, 1.05963, 1.05965, 1.05736, 1.06079, 1.06263, 1.06066, 1.06002, 1.07417, 1.09165, 1.14071, 1.14123, 1.04874, 1.04438, 1.03623, 1.0367, 1.03539, 1.03216, 1.03122, 1.03051, 1.02972, 1.09425, 1.04444, 1.033, 1.04201, 1.04228, 1.04143, 1.04128, 1.04586, 1.04703, 1.04818, 1.11854, 1.04984, 1.05487, 1.0548
1.31103, 1.31124, 1.30721, 1.30727, 1.30586, 1.30504, 1.30401, 1.30935, 1.30632, 1.30185, 1.505, 1.27027, 1.26584, 1.26009, 1.25838, 1.33302, 1.43776, 1.26798, 1.33121, 1.20948, 1.22744, 1.21209, 1.20134, 1.19323, 1.18845, 1.18425, 1.35762, 1.17612, 1.16244, 1.16208, 1.1591, 1.15465, 1.15521, 1.14746, 1.14752, 1.14571, 1.1439, 1.17058, 1.13261, 1.13286, 1.13341, 1.14961, 1.12693, 1.12741, 1.12259, 1.12032, 1.11937, 1.12217, 1.13242, 1.13221, 1.17086, 1.23722, 1.09418, 1.09411, 1.09362, 1.09313, 1.08517, 1.08805, 1.09036, 1.09073, 1.09007, 1.09477, 1.18413, 1.12551, 1.15415, 1.11582, 1.11692, 1.11004, 1.20847, 1.08993, 1.09437, 1.29692, 1.08955, 1.08403, 1.08198, 1.08117, 1.07813, 1.06767, 1.06923, 1.07308, 1.06641, 1.06582, 1.06511, 1.06778, 1.09204, 1.07779, 1.07651, 1.07358, 1.08027, 1.08566, 1.09778, 1.09787, 1.09621, 1.06988, 1.07142, 1.07048, 1.07062, 1.07275, 1.07396, 1.0742, 1.07109, 1.06895, 1.06751, 1.07335, 1.08758, 1.07425, 1.07419, 1.07401, 1.06666, 1.06694, 1.25159, 1.04827, 1.04948, 1.05239, 1.05184, 1.05451, 1.0583, 1.05952, 1.05846, 1.05751, 1.05873, 1.05941, 1.05792, 1.0917, 1.13559, 1.12544, 1.09173, 1.1355, 1.04356, 1.03709, 1.03558, 1.03521, 1.03251, 1.02973, 1.02825, 1.02492, 1.17097, 1.08582, 1.16082, 1.03565, 1.03953, 1.03604, 1.04093, 1.04593, 1.04851, 1.04935, 1.11326, 1.11657, 1.05377, 1.05391
1.31137, 1.3103, 1.30651, 1.30755, 1.30759, 1.30351, 1.30319, 1.3092, 1.30882, 1.30106, 1.42619, 1.45653, 1.26678, 1.26541, 1.26373, 1.26239, 1.29463, 1.29135, 1.26834, 1.24401, 1.21961, 1.21983, 1.20235, 1.28827, 1.18561, 1.23762, 1.36428, 1.17454, 1.16602, 1.16351, 1.16299, 1.15575, 1.15061, 1.1459, 1.14693, 1.14469, 1.14254, 1.14182, 1.13205, 1.13228, 1.14364, 1.12963, 1.12721, 1.12676, 1.12475, 1.12277, 1.11848, 1.11862, 1.12747, 1.17437, 1.16834, 1.15007, 1.09431, 1.0941, 1.09336, 1.09101, 1.09169, 1.09145, 1.09043, 1.08928, 1.08972, 1.09114, 1.17948, 1.17908, 1.236, 1.11393, 1.11396, 1.10944, 1.11337, 1.09005, 1.09509, 1.09795, 1.08802, 1.08295, 1.08388, 1.08389, 1.08332, 1.07987, 1.0721, 1.08009, 1.0808, 1.0653, 1.06451, 1.06758, 1.49065, 1.07825, 1.07406, 1.07514, 1.08053, 1.08748, 1.08838, 1.09834, 1.30527, 1.07017, 1.0723, 1.07108, 1.07172, 1.07287, 1.07556, 1.07435, 1.075, 1.06916, 1.06757, 1.07228, 1.09259, 1.0742, 1.07342, 1.06728, 1.06402, 1.06386, 1.07451, 1.24342, 1.04208, 1.05029, 1.05046, 1.05361, 1.05729, 1.0592, 1.05892, 1.05787, 1.05288, 1.05712, 1.05755, 1.05767, 1.0702, 1.07824, 1.05381, 1.13439, 1.13385, 1.03833, 1.0372, 1.03618, 1.02773, 1.02597, 1.02489, 1.02421, 1.02253, 1.24282, 1.24229, 1.03452, 1.03413, 1.03559, 1.03779, 1.0416, 1.04891, 1.04924, 1.0492, 1.11898, 1.09505, 1.05475
1.31503, 1.30917, 1.30623, 1.30646, 1.30517, 1.30073, 1.3039, 1.30903, 1.31017, 1.29875, 1.29062, 1.42586, 1.26632, 1.26385, 1.26384, 1.39141, 1.23247, 1.23233, 1.25411, 1.22333, 1.22049, 1.22242, 1.19896, 1.18587, 1.18625, 1.18299, 1.27881, 1.27449, 1.17018, 1.17003, 1.20562, 1.15307, 1.14873, 1.14544, 1.14681, 1.1997, 1.14023, 1.141, 1.13278, 1.13009, 1.13023, 1.12913, 1.12589, 1.12535, 1.12283, 1.12285, 1.11894, 1.11732, 1.11996, 1.14767, 1.16061, 1.11312, 1.09426, 1.09403, 1.094, 1.08993, 1.09243, 1.09198, 1.09051, 1.08877, 1.08899, 1.09079, 1.17562, 1.19612, 1.24059, 1.12267, 1.11573, 1.19789, 1.10964, 1.09199, 1.09415, 1.09754, 1.09124, 1.08116, 1.08459, 1.08617, 1.08317, 1.08078, 1.07524, 1.07492, 1.07263, 1.06527, 1.0642, 1.07782, 1.09284, 1.07778, 1.07422, 1.07408, 1.07806, 1.08285, 1.09164, 1.09344, 1.09311, 1.06977, 1.07335, 1.07318, 1.07196, 1.07327, 1.07317, 1.07443, 1.0748, 1.07049, 1.07008, 1.07222, 1.07165, 1.07157, 1.07322, 1.06752, 1.06405, 1.05952, 1.14808, 1.12361, 1.03984, 1.04131, 1.05104, 1.08766, 1.08142, 1.05777, 1.05869, 1.05734, 1.05263, 1.05558, 1.05663, 1.05746, 1.0571, 1.05493, 1.05381, 1.13088, 1.13933, 1.08398, 1.03476, 1.07399, 1.02629, 1.02619, 1.02527, 1.02497, 1.02183, 1.00956, 1.0093, 1.0317, 1.03183, 1.03192, 1.03834, 1.03972, 1.04753, 1.0495, 1.15675, 1.05997, 1.06003, 1.17065
1.3178, 1.31354, 1.30848, 1.30807, 1.30711, 1.29731, 1.30326, 1.30528, 1.30819, 1.50987, 1.28403, 1.41577, 1.26485, 1.26772, 1.26331, 1.34399, 1.23258, 1.25143, 1.25724, 1.22462, 1.22312, 1.21431, 1.44188, 1.18422, 1.18532, 1.18208, 1.23568, 1.34614, 1.17022, 1.16992, 1.16779, 1.14878, 1.14514, 1.14469, 1.14747, 1.15166, 1.13929, 1.13881, 1.13801, 1.12884, 1.12854, 1.12831, 1.12579, 1.12535, 1.12286, 1.12276, 1.12302, 1.1142, 1.11431, 1.11512, 1.15598, 1.15432, 1.09604, 1.09383, 1.09347, 1.09, 1.09238, 1.09152, 1.08746, 1.08804, 1.08787, 1.08924, 1.12599, 1.15243, 1.13714, 1.13746, 1.13646, 1.11638, 1.11309, 1.10117, 1.09445, 1.09681, 1.10149, 1.09849, 1.08385, 1.08774, 1.08767, 1.08032, 1.07578, 1.0735, 1.07452, 1.08329, 1.07103, 1.0778, 1.07188, 1.07695, 1.07699, 1.075, 1.07782, 1.07825, 1.09094, 1.09396, 1.09416, 1.07024, 1.07103, 1.07401, 1.07274, 1.07266, 1.07086, 1.0742, 1.07365, 1.06943, 1.06909, 1.0683, 1.0693, 1.06746, 1.06644, 1.06742, 1.06735, 1.05984, 1.05777, 1.05443, 1.04368, 1.04369, 1.04973, 1.45748, 1.17796, 1.05639, 1.05678, 1.05516, 1.05314, 1.0516, 1.05712, 1.05698, 1.05517, 1.05372, 1.05315, 1.12557, 1.09137, 1.13299, 1.07811, 1.06441, 1.16721, 1.02602, 1.02406, 1.02326, 1.02127, 1.02162, 1.02203, 1.0221, 1.023, 1.03165, 1.03744, 1.04341, 1.04598, 1.04667, 1.05238, 1.10498, 1.29264, 1.10208
1.31635, 1.31228, 1.3118, 1.30589, 1.30761, 1.29846, 1.29841, 1.30011, 1.30201, 1.50963, 1.28223, 1.27833, 1.41527, 1.26556, 1.26117, 1.27758, 1.232, 1.26696, 1.23513, 1.23086, 1.22728, 1.21181, 1.27466, 1.19208, 1.18569, 1.18384, 1.18001, 1.17637, 1.16792, 1.16804, 1.30486, 1.17868, 1.14089, 1.14032, 1.14054, 1.13801, 1.13875, 1.13766, 1.13436, 1.12859, 1.12762, 1.12614, 1.12545, 1.12518, 1.12308, 1.12219, 1.12235, 1.11506, 1.11274, 1.11232, 1.26714, 1.15033, 1.09739, 1.09517, 1.09386, 1.0899, 1.09177, 1.08879, 1.08729, 1.08726, 1.08709, 1.08743, 1.15729, 1.14376, 1.13696, 1.13632, 1.18694, 1.12288, 1.11525, 1.09819, 1.09466, 1.09687, 1.09492, 1.0921, 1.08476, 1.08978, 1.09128, 1.08023, 1.07991, 1.07468, 1.07677, 1.07068, 1.07082, 1.07076, 1.07272, 1.0787, 1.07769, 1.07469, 1.0758, 1.07754, 1.08064, 1.09014, 1.09232, 1.09165, 1.07108, 1.07374, 1.37393, 1.07186, 1.07079, 1.07187, 1.07252, 1.07245, 1.0678, 1.06744, 1.06864, 1.06051, 1.06061, 1.06688, 1.06763, 1.06043, 1.05767, 1.05428, 1.04236, 1.04365, 1.04588, 1.4539, 1.04768, 1.05569, 1.05444, 1.0546, 1.05352, 1.05027, 1.05367, 1.05029, 1.04842, 1.05294, 1.05273, 1.05348, 1.051, 1.05099, 1.03693, 1.03723, 1.03385, 1.06005, 1.02824, 1.02302, 1.13162, 1.01858, 1.01668, 1.01823, 1.02531, 1.02596, 1.03724, 1.0416, 1.04258, 1.0427, 1.04246, 1.09713, 1.09867, 1.09133
1.31956, 1.31062, 1.31234, 1.32557, 1.30431, 1.29862, 1.29777, 1.29898, 1.30157, 1.28945, 1.2842, 1.27715, 1.27145, 1.26808, 1.26531, 1.23073, 1.27531, 1.26307, 1.2465, 1.23207, 1.22647, 1.20925, 1.26541, 1.19282, 1.18418, 1.18434, 1.18094, 1.1763, 1.16825, 1.16604, 1.17084, 1.1714, 1.1415, 1.13971, 1.1424, 1.13679, 1.13771, 1.13696, 1.13273, 1.13093, 1.12703, 1.12598, 1.12578, 1.12856, 1.12318, 1.12207, 1.1219, 1.11502, 1.11161, 1.11036, 1.10713, 1.14025, 1.13316, 1.09744, 1.09539, 1.09143, 1.09274, 1.08949, 1.0876, 1.08739, 1.08701, 1.08525, 1.21344, 1.20721, 1.12979, 1.13595, 1.13059, 1.1844, 1.11282, 1.09797, 1.09424, 1.09296, 1.09221, 1.09511, 1.08707, 1.0873, 1.09269, 1.08092, 1.0805, 1.07545, 1.07783, 1.0804, 1.08029, 1.06994, 1.07008, 1.07845, 1.07795, 1.07368, 1.07336, 1.07563, 1.07762, 1.08627, 1.09061, 1.09087, 1.06983, 1.07088, 1.06751, 1.06714, 1.06993, 1.07007, 1.07034, 1.07126, 1.0685, 1.06621, 1.06301, 1.23823, 1.05755, 1.05619, 1.16373, 1.06058, 1.05586, 1.04953, 1.04139, 1.04225, 1.04426, 1.04581, 1.04708, 1.05554, 1.05608, 1.05334, 1.05311, 1.04966, 1.04936, 1.04868, 1.04656, 1.05152, 1.05317, 1.05285, 1.0507, 1.04951, 1.05009, 1.047, 1.03539, 1.04215, 1.02864, 1.02482, 1.02532, 1.12673, 1.01537, 1.01814, 1.02558, 1.02651, 1.03802, 1.0413, 1.04054, 1.0415, 1.044, 1.08589, 1.06109, 1.06229
1.31892, 1.31609, 1.31422, 1.3155, 1.30357, 1.29899, 1.29651, 1.29703, 1.29839, 1.55304, 1.28458, 1.27779, 1.27086, 1.26883, 1.26241, 1.23224, 1.26778, 1.27872, 1.24585, 1.22967, 1.22651, 1.20701, 1.20338, 1.19442, 1.18929, 1.18635, 1.18111, 1.17434, 1.21539, 1.16461, 1.16836, 1.14716, 1.14592, 1.13766, 1.14048, 1.13913, 1.1388, 1.13346, 1.12978, 1.12941, 1.12885, 1.12574, 1.12566, 1.12647, 1.12372, 1.12262, 1.1216, 1.11599, 1.11162, 1.11151, 1.10789, 1.11502, 1.1153, 1.09966, 1.09968, 1.0953, 1.09259, 1.09132, 1.08654, 1.08599, 1.0868, 1.0871, 1.20947, 1.21173, 1.12718, 1.15189, 1.13189, 1.1297, 1.11919, 1.15413, 1.09408, 1.09076, 1.09367, 1.09253, 1.08741, 1.32583, 1.37464, 1.08094, 1.08408, 1.08348, 1.07931, 1.08042, 1.07938, 1.0749, 1.07149, 1.07798, 1.07896, 1.07523, 1.07337, 1.0719, 1.07795, 1.08491, 1.0851, 1.17402, 1.19002, 1.06809, 1.06854, 1.06562, 1.07128, 1.07179, 1.28805, 1.07029, 1.07051, 1.06451, 1.06039, 1.05495, 1.05462, 1.05427, 1.05336, 1.05387, 1.05502, 1.04919, 1.04216, 1.04284, 1.17046, 1.0404, 1.04616, 1.05049, 1.05089, 1.05313, 1.05336, 1.0498, 1.049, 1.04758, 1.04662, 1.05127, 1.04759, 1.04616, 1.04919, 1.04873, 1.04714, 1.04431, 1.04593, 1.03452, 1.03535, 1.03114, 1.12247, 1.12294, 1.01569, 1.02036, 1.02574, 1.02927, 1.03487, 1.04008, 1.0399, 1.0421, 1.05069, 1.08649, 1.06209, 1.06463
1.33128, 1.32243, 1.34678, 1.43954, 1.33008, 1.29859, 1.29576, 1.2949, 1.29582, 1.49376, 1.28445, 1.27636, 1.27145, 1.26683, 1.26249, 1.23237, 1.30174, 1.25065, 1.25105, 1.23028, 1.22657, 1.28951, 1.30057, 1.19493, 1.19019, 1.18704, 1.18429, 1.17328, 1.16879, 1.1664, 1.16778, 1.14648, 1.14601, 1.13668, 1.13987, 1.13907, 1.13813, 1.13318, 1.13303, 1.12973, 1.12866, 1.12735, 1.12581, 1.1257, 1.12263, 1.1243, 1.12037, 1.11515, 1.11173, 1.11161, 1.11246, 1.11446, 1.11479, 1.10178, 1.10027, 1.09799, 1.093, 1.09183, 1.08546, 1.08512, 1.08553, 1.08636, 1.09426, 1.10351, 1.12217, 1.16045, 1.20176, 1.12937, 1.11915, 1.13673, 1.09368, 1.08928, 1.08955, 1.09163, 1.08694, 1.08835, 1.10544, 1.08198, 1.08341, 1.08355, 1.08181, 1.07919, 1.07899, 1.07637, 1.0735, 1.07575, 1.08065, 1.08025, 1.0739, 1.0732, 1.07502, 1.0777, 1.0838, 1.33102, 1.1641, 1.06982, 1.07232, 1.06425, 1.07031, 1.06279, 1.06222, 1.06998, 1.07044, 1.06502, 1.05691, 1.05619, 1.05455, 1.05336, 1.05329, 1.05281, 1.05011, 1.04951, 1.0441, 1.03714, 1.03419, 1.03579, 1.03473, 1.0454, 1.11674, 1.04829, 1.0512, 1.05076, 1.04758, 1.04827, 1.0497, 1.04818, 1.04787, 1.04612, 1.04828, 1.04696, 1.04808, 1.04937, 1.0378, 1.03534, 1.03472, 1.03186, 1.12615, 1.14728, 1.11504, 1.02302, 1.10665, 1.03092, 1.03888, 1.04232, 1.03929, 1.04926, 1.05064, 1.06154, 1.0618, 1.06456
1.33328, 1.3289, 1.32058, 1.36502, 1.29566, 1.29902, 1.2948, 1.29408, 1.29222, 1.33175, 1.28069, 1.27743, 1.27311, 1.26725, 1.26192, 1.23232, 1.30543, 1.24848, 1.24975, 1.22917, 1.22832, 1.20372, 1.19698, 1.19539, 1.19438, 1.18697, 1.18422, 1.17773, 1.16687, 1.1666, 1.16365, 1.17584, 1.14482, 1.14049, 1.13918, 1.13779, 1.13752, 1.18055, 1.12713, 1.12903, 1.12904, 1.12709, 1.12619, 1.1264, 1.12369, 1.12429, 1.1191, 1.11993, 1.11206, 1.11308, 1.11492, 1.11387, 1.12753, 1.10415, 1.1041, 1.09739, 1.09448, 1.09277, 1.08411, 1.08454, 1.08461, 1.08504, 1.08472, 1.09405, 1.30858, 1.15328, 1.12553, 1.12881, 1.11987, 1.12201, 1.09255, 1.0895, 1.08988, 1.09051, 1.08694, 1.08979, 1.10606, 1.08386, 1.08341, 1.0837, 1.08353, 1.08381, 1.0813, 1.08059, 1.07478, 1.07745, 1.08069, 1.08028, 1.07366, 1.07301, 1.07452, 1.07538, 1.34333, 1.085, 1.08607, 1.0742, 1.07316, 1.07352, 1.06807, 1.06772, 1.06739, 1.06776, 1.06855, 1.06823, 1.05467, 1.05158, 1.0521, 1.05268, 1.05136, 1.0523, 1.0499, 1.04691, 1.23953, 1.03587, 1.03317, 1.03305, 1.03474, 1.03624, 1.03683, 1.04593, 1.05208, 1.05041, 1.04624, 1.04746, 1.04822, 1.04903, 1.05051, 1.04965, 1.05115, 1.04927, 1.04764, 1.04885, 1.03885, 1.0369, 1.03389, 1.03126, 1.13581, 1.08429, 1.08368, 1.0901, 1.09094, 1.03769, 1.03956, 1.0426, 1.04216, 1.05073, 1.05427, 1.05759, 1.05996, 1.06173
1.52777, 1.32779, 1.31786, 1.80956, 1.29463, 1.29776, 1.29562, 1.29233, 1.29085, 1.28935, 1.28333, 1.27713, 1.26923, 1.2673, 1.26528, 1.23169, 1.28907, 1.24727, 1.24611, 1.22842, 1.22624, 1.21252, 1.19597, 1.19433, 1.19424, 1.1982, 1.18375, 1.17416, 1.16703, 1.16648, 1.16404, 1.17301, 1.17871, 1.14112, 1.13927, 1.13725, 1.13976, 1.12538, 1.12543, 1.12549, 1.12907, 1.12869, 1.12571, 1.12875, 1.12399, 1.12354, 1.12033, 1.11969, 1.11173, 1.11271, 1.11493, 1.11516, 1.11714, 1.12232, 1.10455, 1.10856, 1.09767, 1.09194, 1.089, 1.08513, 1.08646, 1.08517, 1.08949, 1.09286, 1.09305, 1.1895, 1.12138, 1.12161, 1.16849, 1.20516, 1.09099, 1.08907, 1.08963, 1.09004, 1.08767, 1.08885, 1.11204, 1.11184, 1.08463, 1.08375, 1.08386, 1.08376, 1.08236, 1.08049, 1.07886, 1.07816, 1.08067, 1.08152, 1.08018, 1.07113, 1.07382, 1.07369, 1.07285, 1.08724, 1.1604, 1.07089, 1.07162, 1.07295, 1.06681, 1.06619, 1.06576, 1.06444, 1.06871, 1.24669, 1.05016, 1.04955, 1.04945, 1.05131, 1.05095, 1.05133, 1.05116, 1.03953, 1.04224, 1.2144, 1.03272, 1.0323, 1.03265, 1.03582, 1.03777, 1.04775, 1.04951, 1.05022, 1.04844, 1.04832, 1.04293, 1.05322, 1.05344, 1.05282, 1.0514, 1.05174, 1.04743, 1.04941, 1.17702, 1.03709, 1.03527, 1.20849, 1.13618, 1.1653, 1.07275, 1.08823, 1.08953, 1.08936, 1.03985, 1.04306, 1.04706, 1.05173, 1.05428, 1.05623, 1.05623, 1.05897
1.33014, 1.32665, 1.31766, 1.4849, 1.29387, 1.29775, 1.2943, 1.29389, 1.28917, 1.28933, 1.2864, 1.28502, 1.26552, 1.26671, 1.26676, 1.23268, 1.39616, 1.24794, 1.24134, 1.24939, 1.22662, 1.22196, 1.19569, 1.19384, 1.19432, 1.1979, 1.18108, 1.17385, 1.16907, 1.16931, 1.16605, 1.17196, 1.16833, 1.1469, 1.14197, 1.14186, 1.14254, 1.15424, 1.12522, 1.37437, 1.13213, 1.129, 1.11838, 1.12926, 1.1238, 1.12219, 1.12172, 1.12143, 1.11266, 1.11372, 1.11524, 1.11594, 1.11809, 1.12155, 1.10542, 1.10518, 1.10058, 1.09393, 1.09149, 1.08732, 1.08707, 1.08629, 1.08823, 1.09304, 1.09291, 1.09129, 1.13966, 1.14129, 1.16833, 1.09751, 1.08843, 1.08794, 1.08826, 1.08979, 1.0893, 1.08848, 1.08818, 1.15622, 1.08479, 1.0844, 1.08386, 1.08457, 1.08404, 1.08119, 1.08037, 1.08088, 1.08056, 1.07995, 1.07958, 1.09731, 1.07335, 1.07304, 1.07036, 1.06678, 1.07874, 1.07681, 1.07011, 1.17038, 1.06619, 1.06438, 1.06265, 1.06081, 1.23377, 1.05861, 1.05479, 1.05026, 1.04914, 1.05103, 1.05198, 1.05126, 1.05145, 1.04969, 1.04059, 1.02896, 1.03182, 1.03235, 1.03202, 1.03672, 1.0386, 1.04812, 1.04796, 1.05362, 1.05502, 1.05709, 1.05323, 1.05559, 1.05542, 1.05549, 1.05222, 1.05232, 1.04607, 1.04993, 1.17116, 1.17753, 1.17792, 1.08471, 1.0746, 1.12642, 1.10405, 1.08486, 1.09583, 1.09491, 1.0807, 1.0812, 1.04897, 1.05314, 1.05435, 1.05609, 1.05619, 1.05645
1.33143, 1.33212, 1.31534, 1.31559, 1.2938, 1.8134, 1.29868, 1.29392, 1.28822, 1.28858, 1.28501, 1.28444, 1.27441, 1.26647, 1.26726, 1.23294, 1.30178, 1.25156, 1.24068, 1.24779, 1.24597, 1.2552, 1.19498, 1.19359, 1.19293, 1.19397, 1.1988, 1.17287, 1.17146, 1.16906, 1.16901, 1.16466, 1.17066, 1.14844, 1.14112, 1.14069, 1.13967, 1.15323, 1.12345, 1.13411, 1.13126, 1.13197, 1.12014, 1.12892, 1.12514, 1.1247, 1.12134, 1.12136, 1.11644, 1.11502, 1.11608, 1.11636, 1.1197, 1.12138, 1.1101, 1.10469, 1.1018, 1.09299, 1.09206, 1.08765, 1.08746, 1.089, 1.0875, 1.08945, 1.09208, 1.09132, 1.11578, 1.15811, 1.10705, 1.30207, 1.0871, 1.08576, 1.08579, 1.08958, 1.08923, 1.08773, 1.08956, 1.20265, 1.09379, 1.08836, 1.08368, 1.08354, 1.08267, 1.08289, 1.08034, 1.08033, 1.08041, 1.08031, 1.08061, 1.08065, 1.07719, 1.07171, 1.06521, 1.06564, 1.07568, 1.07718, 1.06657, 1.06371, 1.06348, 1.06297, 1.05978, 1.06004, 1.05984, 1.06022, 1.05539, 1.05585, 1.04919, 1.05118, 1.0525, 1.04948, 1.05082, 1.05099, 1.04094, 1.03738, 1.02771, 1.03229, 1.03339, 1.03987, 1.04475, 1.04922, 1.0546, 1.05485, 1.0581, 1.05797, 1.05875, 1.05758, 1.05767, 1.08507, 1.13041, 1.04729, 1.04516, 1.0469, 1.04547, 1.16374, 1.1683, 1.18126, 1.12944, 1.07712, 1.11685, 1.08817, 1.09145, 1.08527, 1.07709, 1.07989, 1.04901, 1.05275, 1.05319, 1.0565, 1.05611, 1.05476
1.3381, 1.51538, 1.3145, 1.31457, 1.80587, 1.30751, 1.2968, 1.29469, 1.28787, 1.2878, 1.28673, 1.28263, 1.39278, 1.26628, 1.26511, 1.23136, 1.34453, 1.25292, 1.24375, 1.24023, 1.24246, 1.24111, 1.19584, 1.19186, 1.19209, 1.18798, 1.42608, 1.17517, 1.17235, 1.16934, 1.16822, 1.16404, 1.16143, 1.17204, 1.14178, 1.13902, 1.13945, 1.15034, 1.14961, 1.13327, 1.1308, 1.13195, 1.12785, 1.12781, 1.1276, 1.12793, 1.12199, 1.12189, 1.11696, 1.11639, 1.11618, 1.1169, 1.11861, 1.11942, 1.11665, 1.10501, 1.10312, 1.09141, 1.09247, 1.08743, 1.08742, 1.08808, 1.08719, 1.0873, 1.09272, 1.09441, 1.09464, 1.1474, 1.10378, 1.29554, 1.08282, 1.08413, 1.08415, 1.08727, 1.0905, 1.0885, 1.08853, 1.09281, 1.09394, 1.09397, 1.08216, 1.08373, 1.08424, 1.08379, 1.08118, 1.07964, 1.07942, 1.0806, 1.08101, 1.07934, 1.07907, 1.08044, 1.06705, 1.06432, 1.06349, 1.16986, 1.17782, 1.05968, 1.0571, 1.06157, 1.05989, 1.05809, 1.06066, 1.06173, 1.05859, 1.05616, 1.05349, 1.05448, 1.0556, 1.05342, 1.05082, 1.05079, 1.04125, 1.0382, 1.02569, 1.04402, 1.03968, 1.04341, 1.04675, 1.05043, 1.0548, 1.05408, 1.05601, 1.05838, 1.06011, 1.06053, 1.07798, 1.12068, 1.13479, 1.04619, 1.04386, 1.04532, 1.04457, 1.04386, 1.18228, 1.07071, 1.06026, 1.09601, 1.09574, 1.11528, 1.08765, 1.08478, 1.08028, 1.11564, 1.26092, 1.0506, 1.05374, 1.05349, 1.05508, 1.05476
1.5146, 1.4375, 1.31284, 1.31331, 1.80623, 1.30657, 1.2965, 1.2953, 1.30485, 1.2879, 1.28533, 1.51642, 1.27136, 1.26494, 1.26413, 1.23417, 1.33785, 1.25276, 1.27509, 1.23689, 1.23966, 1.32108, 1.19479, 1.19231, 1.19007, 1.18575, 1.17461, 1.17545, 1.17235, 1.17106, 1.16825, 1.16395, 1.15586, 1.17021, 1.2258, 1.13886, 1.14077, 1.15193, 1.15396, 1.13377, 1.13578, 1.13229, 1.12689, 1.12897, 1.13049, 1.12962, 1.12179, 1.12107, 1.12122, 1.11628, 1.11629, 1.11808, 1.11868, 1.12006, 1.11239, 1.10715, 1.10449, 1.09125, 1.09066, 1.08884, 1.08813, 1.08846, 1.08586, 1.08807, 1.09458, 1.09513, 1.09419, 1.09733, 1.09889, 1.10141, 1.08131, 1.08074, 1.08351, 1.08491, 1.08974, 1.08805, 1.08925, 1.0882, 1.09133, 1.09189, 1.08278, 1.08377, 1.08371, 1.08365, 1.08183, 1.07984, 1.07971, 1.08073, 1.07949, 1.07917, 1.07921, 1.07864, 1.07008, 1.06358, 1.06302, 1.06622, 1.25133, 1.05325, 1.05318, 1.0565, 1.05992, 1.05927, 1.05933, 1.0603, 1.05979, 1.05969, 1.05256, 1.0538, 1.05659, 1.05371, 1.05009, 1.05252, 1.04138, 1.03933, 1.04249, 1.0394, 1.03905, 1.04478, 1.04722, 1.05333, 1.0534, 1.05477, 1.05731, 1.05893, 1.05967, 1.06108, 1.05287, 1.05134, 1.04685, 1.04575, 1.04317, 1.04195, 1.04272, 1.04299, 1.16666, 1.04692, 1.04671, 1.06061, 1.06547, 1.03683, 1.08527, 1.08876, 1.07949, 1.07521, 1.07444, 1.05082, 1.05204, 1.05283, 1.05455, 1.05471
1.51383, 1.4995, 1.50008, 1.31563, 1.31629, 1.31455, 1.29922, 1.30603, 1.28123, 1.28734, 1.28514, 1.29915, 1.38639, 1.26821, 1.26635, 1.34337, 1.35479, 1.25308, 1.24307, 1.24066, 1.23489, 1.23944, 1.19501, 1.19463, 1.19092, 1.18308, 1.18221, 1.17435, 1.17335, 1.17122, 1.17009, 1.16632, 1.15896, 1.16039, 1.15026, 1.14764, 1.14624, 1.13989, 1.15461, 1.13591, 1.13615, 1.13454, 1.13229, 1.12985, 1.131, 1.13067, 1.12166, 1.12182, 1.12045, 1.11841, 1.11749, 1.11562, 1.11906, 1.12165, 1.1094, 1.10822, 1.10187, 1.09579, 1.09125, 1.08934, 1.08938, 1.09009, 1.08806, 1.08807, 1.08899, 1.09524, 1.09391, 1.09384, 1.09816, 1.09246, 1.08206, 1.08095, 1.08368, 1.0839, 1.08932, 1.08868, 1.08932, 1.08863, 1.09138, 1.09218, 1.10113, 1.08419, 1.08393, 1.0838, 1.08054, 1.0811, 1.0792, 1.07894, 1.07939, 1.07922, 1.07775, 1.07736, 1.07948, 1.0692, 1.06643, 1.06185, 1.06984, 1.05305, 1.05255, 1.04833, 1.06086, 1.0585, 1.05665, 1.05987, 1.05933, 1.04504, 1.0527, 1.05292, 1.17044, 1.13517, 1.04771, 1.12192, 1.04107, 1.04202, 1.04209, 1.04039, 1.04198, 1.04665, 1.04975, 1.05291, 1.05358, 1.2361, 1.0581, 1.05954, 1.0593, 1.05964, 1.05343, 1.1947, 1.0466, 1.04549, 1.04433, 1.03925, 1.04098, 1.04406, 1.04417, 1.04672, 1.04412, 1.04308, 1.10839, 1.0405, 1.04076, 1.03623, 1.04253, 1.07372, 1.07009, 1.0511, 1.05233, 1.054, 1.05494, 1.05393
1.84857, 1.49883, 1.4909, 1.31394, 1.31757, 1.31718, 1.30188, 1.30666, 1.28057, 1.28987, 1.28499, 1.45993, 1.46127, 1.26814, 1.26759, 1.25258, 1.30498, 1.2554, 1.2433, 1.23468, 1.22818, 1.23732, 1.19453, 1.19191, 1.19036, 1.18175, 1.18195, 1.17377, 1.17511, 1.17471, 1.17027, 1.16671, 1.1614, 1.15313, 1.15389, 1.1601, 1.31299, 1.1405, 1.13873, 1.13703, 1.13803, 1.13591, 1.13266, 1.13159, 1.13038, 1.12945, 1.12175, 1.12363, 1.1241, 1.11928, 1.11648, 1.11843, 1.12246, 1.12281, 1.11039, 1.1083, 1.10484, 1.09511, 1.09092, 1.08845, 1.0883, 1.08877, 1.08861, 1.0864, 1.09065, 1.0943, 1.09382, 1.0939, 1.09902, 1.09102, 1.07938, 1.0806, 1.08244, 1.08481, 1.08911, 1.0887, 1.08918, 1.08765, 1.08443, 1.08536, 1.10097, 1.08667, 1.08374, 1.08389, 1.08266, 1.08248, 1.07949, 1.07917, 1.08009, 1.07987, 1.07792, 1.07845, 1.07982, 1.07183, 1.0643, 1.06488, 1.06959, 1.24992, 1.05147, 1.0499, 1.05085, 1.05616, 1.05544, 1.05522, 1.14466, 1.04489, 1.05314, 1.05283, 1.16102, 1.08066, 1.04579, 1.04476, 1.0409, 1.04253, 1.04391, 1.04349, 1.04511, 1.04639, 1.05058, 1.05049, 1.05063, 1.081, 1.05633, 1.05869, 1.0583, 1.05863, 1.05761, 1.1959, 1.04755, 1.04378, 1.04504, 1.03877, 1.04065, 1.04423, 1.04566, 1.04721, 1.0466, 1.04406, 1.04563, 1.04072, 1.08719, 1.03854, 1.03965, 1.0726, 1.06834, 1.05375, 1.05371, 1.05327, 1.05365, 1.05428
1.4216, 1.49891, 1.50045, 1.33529, 1.32063, 1.32308, 1.30244, 1.30043, 1.29109, 1.29113, 1.28614, 1.46057, 1.46081, 1.27333, 1.26614, 1.24548, 1.2539, 1.25483, 1.24422, 1.23642, 1.22877, 1.22224, 1.23071, 1.19153, 1.1887, 1.1806, 1.18061, 1.17365, 1.17471, 1.17668, 1.17185, 1.16769, 1.16506, 1.15366, 1.15273, 1.15618, 1.33648, 1.14216, 1.16449, 1.14006, 1.1366, 1.1357, 1.13364, 1.13204, 1.12955, 1.12967, 1.12585, 1.12529, 1.1254, 1.12217, 1.11833, 1.11819, 1.12031, 1.12519, 1.11062, 1.10997, 1.1065, 1.10202, 1.08916, 1.08855, 1.08932, 1.08961, 1.09044, 1.08898, 1.08767, 1.09027, 1.09419, 1.09427, 1.10021, 1.10123, 1.08386, 1.08153, 1.08135, 1.08195, 1.08623, 1.08771, 1.08816, 1.08728, 1.08599, 1.08424, 1.09426, 1.09378, 1.08313, 1.08233, 1.0829, 1.08304, 1.07925, 1.0783, 1.08039, 1.08053, 1.07874, 1.07821, 1.07958, 1.07838, 1.06571, 1.06565, 1.06733, 1.06452, 1.04999, 1.0493, 1.04869, 1.05526, 1.05312, 1.05265, 1.05181, 1.05195, 1.05078, 1.05149, 1.15449, 1.14209, 1.04397, 1.04268, 1.04318, 1.04318, 1.04411, 1.04592, 1.04598, 1.04688, 1.04972, 1.05012, 1.06926, 1.08407, 1.05746, 1.05906, 1.05471, 1.05685, 1.05747, 1.05834, 1.05131, 1.04404, 1.04513, 1.03896, 1.04104, 1.04331, 1.04534, 1.04625, 1.04455, 1.04478, 1.04638, 1.09901, 1.09015, 1.04116, 1.04132, 1.07343, 1.06438, 1.05261, 1.05062, 1.04978, 1.05317, 1.05426
1.93988, 1.49445, 1.50658, 1.52163, 1.32223, 1.32246, 1.43774, 1.30098, 1.29448, 1.29088, 1.28764, 1.28502, 1.45543, 1.27554, 1.34259, 1.24486, 1.25695, 1.25443, 1.24307, 1.29134, 1.22853, 1.21967, 1.22672, 1.71025, 1.18721, 1.18294, 1.17781, 1.17627, 1.17405, 1.17562, 1.17189, 1.17032, 1.16698, 1.15045, 1.1535, 1.1556, 1.16559, 1.14652, 1.15786, 1.14142, 1.1417, 1.13543, 1.13256, 1.1325, 1.14312, 1.12635, 1.12417, 1.12409, 1.12595, 1.12328, 1.1186, 1.11842, 1.12313, 1.12383, 1.10837, 1.10933, 1.11, 1.25088, 1.08872, 1.08806, 1.08964, 1.0907, 1.09056, 1.08854, 1.08715, 1.08943, 1.0883, 1.09443, 1.0946, 1.21491, 1.08333, 1.08236, 1.08074, 1.08354, 1.08538, 1.08897, 1.09072, 1.09083, 1.08543, 1.08762, 1.09208, 1.09357, 1.08477, 1.0818, 1.08083, 1.0836, 1.07907, 1.07895, 1.07907, 1.08039, 1.08147, 1.07492, 1.07805, 1.07772, 1.06739, 1.06212, 1.06102, 1.06352, 1.04907, 1.04789, 1.04698, 1.04939, 1.05264, 1.05204, 1.05167, 1.05149, 1.05032, 1.04914, 1.1704, 1.04416, 1.04347, 1.04274, 1.04356, 1.08574, 1.0533, 1.0492, 1.05404, 1.05045, 1.05015, 1.05031, 1.06911, 1.05561, 1.05887, 1.05969, 1.05359, 1.05351, 1.05735, 1.0577, 1.04819, 1.05014, 1.05042, 1.04249, 1.04059, 1.04233, 1.04571, 1.04581, 1.04589, 1.04518, 1.04766, 1.04907, 1.04735, 1.04283, 1.04291, 1.07412, 1.05127, 1.05237, 1.04781, 1.04731, 1.05206, 1.05265
1.5628, 1.39657, 1.50414, 1.4601, 1.45908, 1.32128, 1.31021, 1.3023, 1.29504, 1.29029, 1.28841, 1.485, 1.36316, 1.33698, 1.26492, 1.24305, 1.30511, 1.25303, 1.24909, 1.28944, 1.2789, 1.21707, 1.25314, 1.2187, 1.18416, 1.18206, 1.18074, 1.17481, 1.17318, 1.1736, 1.17382, 1.16975, 1.16787, 1.16116, 1.16052, 1.16077, 1.16733, 1.14344, 1.14184, 1.14148, 1.14115, 1.1392, 1.1357, 1.1435, 1.1289, 1.12536, 1.12432, 1.12309, 1.12831, 1.12779, 1.11872, 1.11867, 1.12233, 1.12327, 1.11114, 1.11073, 1.11126, 1.15037, 1.09089, 1.08745, 1.08835, 1.09016, 1.09089, 1.08805, 1.0883, 1.08832, 1.08715, 1.0894, 1.09403, 1.09374, 1.08939, 1.08296, 1.08001, 1.08143, 1.08427, 1.08894, 1.09082, 1.08962, 1.0875, 1.08874, 1.09259, 1.0943, 1.08742, 1.08084, 1.08243, 1.08409, 1.08084, 1.07902, 1.07872, 1.07986, 1.06885, 1.07326, 1.07164, 1.07636, 1.16485, 1.06359, 1.05796, 1.05696, 1.22705, 1.04631, 1.04576, 1.04611, 1.04995, 1.04973, 1.05042, 1.05083, 1.04734, 1.04699, 1.19238, 1.04294, 1.04231, 1.04133, 1.08234, 1.05278, 1.05267, 1.05055, 1.05365, 1.05182, 1.05161, 1.05023, 1.0674, 1.05684, 1.05731, 1.05957, 1.05264, 1.05178, 1.05622, 1.05609, 1.04716, 1.04804, 1.05076, 1.0425, 1.04143, 1.04399, 1.04443, 1.04509, 1.04355, 1.04653, 1.04719, 1.05005, 1.04792, 1.04567, 1.04425, 1.04594, 1.21856, 1.0493, 1.04598, 1.04808, 1.05187, 1.05122
1.54522, 1.50869, 1.50576, 1.50659, 1.45109, 1.32323, 1.30583, 1.30471, 1.29642, 1.2959, 1.28841, 1.28555, 1.31356, 1.33791, 1.27063, 1.29918, 1.24464, 1.25081, 1.24685, 1.28485, 1.22278, 1.21782, 1.2576, 1.25025, 1.2368, 1.18184, 1.17942, 1.1745, 1.17291, 1.17357, 1.17398, 1.16783, 1.16827, 1.16054, 1.16178, 1.16317, 1.16399, 1.15264, 1.14196, 1.1405, 1.14104, 1.13952, 1.13703, 1.13743, 1.12927, 1.12879, 1.1292, 1.12245, 1.12851, 1.12888, 1.12675, 1.12317, 1.12885, 1.1279, 1.10939, 1.11119, 1.1116, 1.11507, 1.08754, 1.08742, 1.08897, 1.08937, 1.09045, 1.08905, 1.08914, 1.08929, 1.08535, 1.09033, 1.09405, 1.09264, 1.08833, 1.086, 1.08052, 1.08034, 1.08514, 1.09033, 1.09048, 1.08804, 1.08965, 1.0912, 1.09386, 1.0953, 1.09566, 1.08174, 1.08228, 1.08283, 1.37524, 1.07865, 1.07926, 1.07728, 1.07478, 1.07318, 1.07117, 1.07174, 1.27739, 1.06384, 1.05889, 1.05614, 1.05636, 1.15047, 1.04397, 1.18118, 1.05292, 1.05135, 1.05047, 1.05059, 1.04623, 1.04338, 1.0432, 1.0425, 1.04129, 1.03987, 1.08163, 1.05376, 1.0534, 1.05055, 1.05224, 1.05202, 1.05241, 1.05234, 1.06686, 1.05977, 1.05872, 1.05981, 1.05265, 1.05063, 1.05547, 1.05332, 1.05055, 1.04558, 1.04318, 1.04264, 1.04311, 1.04586, 1.04614, 1.04376, 1.04209, 1.04414, 1.04877, 1.05007, 1.04889, 1.04737, 1.04345, 1.04344, 1.07837, 1.04805, 1.04606, 1.04523, 1.04731, 1.17128
1.54149, 1.49971, 1.39174, 1.47132, 1.47099, 1.32314, 1.42811, 1.30208, 1.29884, 1.29501, 1.28482, 1.28445, 1.314, 1.36694, 1.30712, 1.26318, 1.24138, 1.24737, 1.2462, 1.23425, 1.40174, 1.21451, 1.20903, 1.56117, 1.51948, 1.18056, 1.17913, 1.17835, 1.1736, 1.17356, 1.17452, 1.16667, 1.16716, 1.16609, 1.16213, 1.16369, 1.16, 1.15475, 1.14047, 1.13973, 1.14221, 1.1396, 1.13895, 1.13757, 1.1401, 1.12919, 1.12936, 1.1252, 1.12867, 1.12875, 1.14425, 1.12881, 1.12847, 1.12651, 1.11281, 1.11136, 1.11347, 1.14544, 1.08831, 1.08783, 1.09041, 1.08988, 1.08976, 1.0905, 1.09008, 1.08851, 1.08753, 1.08988, 1.09479, 1.09178, 1.08821, 1.08775, 1.08094, 1.08072, 1.08544, 1.08977, 1.09961, 1.08754, 1.08901, 1.09299, 1.09497, 1.09787, 1.09783, 1.08224, 1.08182, 1.08239, 1.09029, 1.36858, 1.07753, 1.07638, 1.07642, 1.07254, 1.07205, 1.06965, 1.26479, 1.19513, 1.05979, 1.056, 1.05546, 1.0573, 1.04251, 1.03394, 1.17823, 1.05282, 1.05478, 1.05107, 1.04808, 1.0459, 1.03912, 1.03982, 1.04796, 1.04215, 1.20148, 1.05256, 1.05242, 1.05022, 1.05023, 1.05017, 1.04918, 1.05149, 1.05728, 1.06004, 1.05926, 1.05967, 1.06083, 1.05028, 1.05224, 1.05324, 1.05045, 1.04567, 1.04164, 1.04383, 1.0423, 1.0459, 1.04734, 1.04408, 1.04437, 1.04579, 1.04807, 1.05015, 1.0476, 1.04702, 1.04066, 1.04262, 1.07382, 1.04654, 1.0439, 1.04013, 1.04651, 1.06011
1.5365, 1.50635, 1.35885, 1.46659, 1.46816, 1.46558, 1.48936, 1.30192, 1.29817, 1.29556, 1.28333, 1.28425, 1.28475, 1.30822, 1.27082, 1.29488, 1.28992, 1.24628, 1.24066, 1.23612, 1.31804, 1.21341, 1.2117, 1.27913, 1.19409, 1.1793, 1.1785, 1.17126, 1.17154, 1.1734, 1.17346, 1.16573, 1.17146, 1.16972, 1.16439, 1.16385, 1.15985, 1.1597, 1.14567, 1.13991, 1.14027, 1.13973, 1.13882, 1.13785, 1.16936, 1.13045, 1.1287, 1.12519, 1.12675, 1.12966, 1.13271, 1.13297, 1.12862, 1.12351, 1.11597, 1.11309, 1.11182, 1.12027, 1.08818, 1.0886, 1.09033, 1.09001, 1.09021, 1.08911, 1.08824, 1.08881, 1.08804, 1.0884, 1.0941, 1.09265, 1.08945, 1.08496, 1.08266, 1.0803, 1.08629, 1.08763, 1.2642, 1.0876, 1.08735, 1.09305, 1.09771, 1.12704, 1.15331, 1.08305, 1.08149, 1.08115, 1.09179, 1.06951, 1.07829, 1.07662, 1.07428, 1.07248, 1.07205, 1.06661, 1.06563, 1.06985, 1.06909, 1.0562, 1.05484, 1.05657, 1.04109, 1.03499, 1.14236, 1.05464, 1.05535, 1.05558, 1.04977, 1.04326, 1.03735, 1.04103, 1.04713, 1.04276, 1.04279, 1.07134, 1.05094, 1.04945, 1.05051, 1.04738, 1.04506, 1.04759, 1.05242, 1.0588, 1.05665, 1.05965, 1.06061, 1.05063, 1.05055, 1.04995, 1.04938, 1.04798, 1.04062, 1.0424, 1.04255, 1.0459, 1.04747, 1.04647, 1.04532, 1.04573, 1.0474, 1.04973, 1.0473, 1.0466, 1.04355, 1.03893, 1.04511, 1.04706, 1.04278, 1.04221, 1.04521, 1.04348
1.76047, 1.52333, 1.52346, 1.52473, 1.46828, 1.46846, 1.42949, 1.47913, 1.29758, 1.29479, 1.2879, 1.28338, 1.28482, 1.30408, 1.31671, 1.28583, 1.27214, 1.24528, 1.237, 1.23421, 1.25741, 1.21181, 1.21065, 1.4051, 1.389, 1.17809, 1.17859, 1.17709, 1.1719, 1.17377, 1.17354, 1.17457, 1.17133, 1.16731, 1.16672, 1.16424, 1.15992, 1.15359, 1.14314, 1.13831, 1.13916, 1.13958, 1.13879, 1.15061, 1.14468, 1.13731, 1.13316, 1.12492, 1.12524, 1.12963, 1.13469, 1.13481, 1.12845, 1.12618, 1.11593, 1.11208, 1.11091, 1.14421, 1.25956, 1.08904, 1.08918, 1.08904, 1.09001, 1.08805, 1.08767, 1.08854, 1.09001, 1.0891, 1.09373, 1.09166, 1.08747, 1.0876, 1.0821, 1.07787, 1.07847, 1.08758, 1.1391, 1.08541, 1.08843, 1.0929, 1.09931, 1.17712, 1.10437, 1.10332, 1.08344, 1.08193, 1.36802, 1.06814, 1.06737, 1.07543, 1.07558, 1.07391, 1.07356, 1.06703, 1.06498, 1.06815, 1.06742, 1.05546, 1.05355, 1.05393, 1.18095, 1.03867, 1.04029, 1.05316, 1.0562, 1.05878, 1.10615, 1.04676, 1.04222, 1.10876, 1.0483, 1.04371, 1.04388, 1.06794, 1.05085, 1.0538, 1.05045, 1.04605, 1.04295, 1.0466, 1.0499, 1.165, 1.05966, 1.05808, 1.05746, 1.05085, 1.0468, 1.04846, 1.04797, 1.04586, 1.02934, 1.04223, 1.04163, 1.04632, 1.04572, 1.04631, 1.04342, 1.04545, 1.04639, 1.04929, 1.04928, 1.04848, 1.04384, 1.03774, 1.03953, 1.04543, 1.04432, 1.04118, 1.0454, 1.04602
1.68723, 1.52373, 1.50194, 1.43935, 1.33733, 1.33656, 1.47932, 1.4746, 1.57636, 1.2958, 1.28611, 1.28424, 1.37804, 1.30546, 1.39982, 1.28384, 1.23262, 1.24304, 1.23402, 1.25485, 1.25331, 1.26546, 1.39724, 1.21206, 1.23812, 1.17774, 1.17712, 1.17516, 1.17404, 1.17395, 1.17395, 1.17378, 1.17198, 1.16779, 1.16704, 1.16593, 1.15829, 1.15235, 1.15201, 1.13942, 1.13929, 1.14028, 1.14809, 1.14538, 1.14759, 1.14246, 1.14141, 1.12514, 1.12578, 1.12989, 1.13516, 1.13571, 1.12355, 1.11899, 1.114, 1.11152, 1.10917, 1.15312, 1.14989, 1.08729, 1.08719, 1.08591, 1.08909, 1.08774, 1.08678, 1.08726, 1.08923, 1.08504, 1.09058, 1.32083, 1.08734, 1.08014, 1.08023, 1.07732, 1.07836, 1.08342, 1.10099, 1.10334, 1.09132, 1.0956, 1.098, 1.17168, 1.10601, 1.11274, 1.08517, 1.08414, 1.08396, 1.06682, 1.06619, 1.075, 1.07549, 1.07326, 1.07354, 1.06899, 1.06273, 1.0666, 1.06684, 1.06737, 1.05176, 1.0509, 1.05631, 1.03828, 1.04278, 1.05014, 1.05696, 1.05833, 1.0562, 1.05062, 1.04468, 1.04915, 1.04692, 1.04408, 1.04426, 1.05084, 1.05323, 1.0547, 1.05286, 1.05057, 1.04204, 1.04225, 1.0461, 1.17224, 1.06841, 1.06436, 1.05991, 1.05062, 1.0445, 1.04471, 1.04652, 1.04608, 1.02952, 1.04354, 1.0432, 1.04326, 1.04378, 1.04605, 1.04432, 1.04585, 1.04594, 1.04775, 1.04719, 1.04863, 1.04319, 1.03836, 1.03709, 1.04454, 1.04484, 1.03989, 1.04025, 1.04557
1.71675, 1.51596, 1.35999, 1.36035, 1.48226, 1.33609, 1.46902, 1.45696, 1.54001, 1.29567, 1.29288, 1.28243, 1.28123, 1.31276, 1.30186, 1.2759, 1.23249, 1.24016, 1.23975, 1.23186, 1.24849, 1.24786, 1.2443, 1.21272, 1.23274, 1.2992, 1.17605, 1.17573, 1.17239, 1.17346, 1.17425, 1.17393, 1.1717, 1.16566, 1.16642, 1.16557, 1.1571, 1.15072, 1.15151, 1.14059, 1.13958, 1.14473, 1.14744, 1.14532, 1.14309, 1.14579, 1.14256, 1.12521, 1.12667, 1.12912, 1.13475, 1.13716, 1.12337, 1.12143, 1.11357, 1.1112, 1.10937, 1.10495, 1.15113, 1.09067, 1.08722, 1.08414, 1.08742, 1.08752, 1.08715, 1.08714, 1.08664, 1.08422, 1.08764, 1.08784, 1.07929, 1.07749, 1.07703, 1.07576, 1.07753, 1.08267, 1.10118, 1.10171, 1.09294, 1.09443, 1.09788, 1.09751, 1.10991, 1.11045, 1.09655, 1.08404, 1.08226, 1.08165, 1.08807, 1.07376, 1.07042, 1.07276, 1.07339, 1.07115, 1.06664, 1.05976, 1.06781, 1.06852, 1.05133, 1.05114, 1.05768, 1.11536, 1.04189, 1.0485, 1.05624, 1.0537, 1.05508, 1.05345, 1.04488, 1.04763, 1.05406, 1.04744, 1.0466, 1.0502, 1.0524, 1.05306, 1.0533, 1.05286, 1.04063, 1.04155, 1.04418, 1.04406, 1.05714, 1.05536, 1.05616, 1.05043, 1.04494, 1.04503, 1.04453, 1.0445, 1.04328, 1.04259, 1.04471, 1.04629, 1.04598, 1.04607, 1.04399, 1.046, 1.04359, 1.04058, 1.0484, 1.04933, 1.04292, 1.0403, 1.03752, 1.03751, 1.0424, 1.0391, 1.04201, 1.04364
