0.924669271155112,0.924443054994989,0.923286513823728,0.922748466672545,0.921869763028052,0.922182310443414,0.922602452338595,0.964571977572098,0.989667858545348,1.01280141620094,0.920516701079206,0.919365960312662,0.918403119112111,0.917058376595222,0.916747667331076,0.916341083726127,0.912162394482578,0.912840211765841,0.913481195527898,0.914639698477899,0.916121985734662,0.916795902784702,0.943324798548954,0.961764095333971,0.977891117558225,1.0149345994978,1.01066675026642,1.003092190039,0.993596813093397,0.983749393263621,0.975003886140813,0.970917069541158,0.970766930899607,0.969897142792266,0.968046659236617,0.964972448816574,0.96080014608758,0.969891421880742,0.970991469050788,0.973878092963441,1.03065314691171,1.0297443500407,1.02791808275296,1.06133484017266,1.06068707295976,1.05602165812072,1.0557737614524,1.05532799524385,1.0480149546864,1.04121021127728,1.03603569798087,1.05973477973912,1.0625473081128,1.06448489664093,1.06558551720609,1.06629495325884,1.06790214420972,1.07063864815025,1.07004767008454,1.06951767757388,1.06917527598203,1.07157805280153,1.07257367519003,1.07305137328041,1.07398648600421,1.07554660034079,1.07662897084438,1.07808929180538,1.07873443475696,1.07855440247594,1.07877327015909,1.0787093865156,1.08551835875989,1.09110184919019,1.09168179031941,1.09251249326427,1.10328377590276,1.09111727215087,1.08976556799962,1.08907730706236,1.087640289365,1.08418644731316,1.07946121591101,1.08651514607695,1.09224434989649,1.09898247684778,1.09817483752184,1.06796320559252,1.07020919148509,1.07306202463758,1.07651255033274,1.08064949240428,1.08507587078299,1.08887877443269,1.09150315060149,1.06332523226265,1.06215644857824,1.06097835721412,1.06006928472788,1.05975142836503,1.05744588598479,1.06065357514355,1.06453955221587,1.07265685745665,1.07366923390236,1.07288474689572,1.07394381412527,1.07442582306203,1.07121884163388,1.06134764642735,1.06554591795362,1.08288637882373,1.08366556608724,1.08337938937803,1.08835706033479,1.07673020727535,1.0733973750449,1.07358823883631,1.07408273005072,1.07383195908951,1.0739032337104,1.07313911042452,1.07228116829014,1.07301749096504,1.07316400375773,1.07300400465678,1.07247969148954,1.07135626462846,1.07038153113252,1.06869229186097,1.06771503308123,1.1416230705842,1.11811705908877,1.10174290951411,1.07600922226566,1.07525425585838,1.07290183055013,1.07026269477162,1.06931015157727,1.06838233428781,1.06737788976347,1.06490855187922,1.0635277900459,1.06369993469689,1.06409416223375,1.06600834216791,1.06442577812775,1.06433127405167,1.06310449595744,1.0620361681924,1.06117106124536,1.0598736578689,1.0585274877745,1.05715812212502,1.05626184639702,1.05070498740628,1.04836260123575,1.04545529081405,1.04377263993518,1.04252633584169,1.04163009444831,1.04061624259793,1.03811186058696,1.03750013815956,1.03768854437727,1.03132625683907,1.0281264091288,1.02504232724149,1.02187107322897,1.01917979125433,1.01610206358774
0.924311058528878,0.923747267163653,0.924841992984435,0.923204803447659,0.924522141741961,0.922729674010791,0.92502707624771,0.935042951505118,0.968461691004237,1.06430442706844,0.922463358406906,0.92112450346685,0.919264489102726,0.917274218880417,0.915696897549454,0.915524466279275,0.913559705525483,0.913987372034274,0.913766655069266,0.913386091163383,0.916080006284475,0.916387203714601,1.00609201835176,0.918257709837959,0.916899339030805,1.02156999197383,0.929065717974008,0.929713752356904,0.931120317379872,0.930179744856871,1.0805090798847,0.942711954022186,0.94470318151498,0.947585787859768,1.07066197315833,0.965438763681083,0.956332592998654,1.03233032619057,0.989770058346092,0.980978750647757,1.06992520301591,1.09082667833828,1.0053460237662,1.0700507699902,1.05827506216616,1.05772166619522,1.06348859054548,1.07081414330198,1.05143539663431,1.02943204724943,1.03080381103922,1.07308601624334,1.07223662999062,1.07093652419558,1.08757840729234,1.06523596462863,1.09160595801933,1.09041948288817,1.09336909164761,1.1116605843687,1.06774246674708,1.07329632655699,1.07367138201633,1.14358739402618,1.06115119881622,1.06141300972272,1.06818200932966,1.0787402190219,1.07854277745934,1.07789597047262,1.07898528743549,1.07905075402206,1.07630755642737,1.15064651343727,1.10253017670785,1.09490858646942,1.12086851186495,1.09337236904329,1.09337923452457,1.09341252663463,1.12442155740552,1.1247906521823,1.07449171411958,1.09959436203952,1.10045319347575,1.09993756752877,1.0953417671503,1.05026840257148,1.08504459433254,1.09546960287261,1.08771679517898,1.10370881636334,1.08671079051966,1.06358242874419,1.09295672046105,1.05517134052854,1.0538511948302,1.05278440171349,1.05998781263159,1.06144564801622,1.05350664385902,1.10089452627943,1.10039141422365,1.07231264924481,1.07826726383174,1.07298486552244,1.08020665098321,1.08191042989484,1.07058751972792,1.04689708216351,1.07890170268105,1.08068650479202,1.03617590562674,1.04409100709081,1.09879941531078,1.06722444499121,1.06168472485247,1.05964559596105,1.0595082897668,1.05938138831732,1.05740037557219,1.05469948031997,1.07280279566632,1.07257804471896,1.07202156006469,1.07218928449815,1.05262528833141,1.05162323256043,1.05197225228256,1.05397176638101,1.06031008212791,1.34503131296424,1.14075491637828,1.37082558261265,1.07546658440903,1.07606337545067,1.07629028236242,1.24803420396619,1.18448690752797,1.18837246862852,1.06226525251484,1.06168782553874,1.06143230400942,1.06090741293463,1.06315819750426,1.06579759310284,1.06526112565346,1.0634042732969,1.06298957010007,1.06154210576349,1.09803004702898,1.09592794287256,1.19372416962567,1.1958019180242,1.13714993533247,1.04257883756706,1.04180047156914,1.04042652739031,1.04213437753991,1.04167385794911,1.18593557288674,1.18370983671053,1.02858374178443,1.02589081893559,1.03854207344508,1.01825619516691,1.01855718163918,1.02010389554705,1.01918504580813,1.01659248394528,1.01450533119886
0.923935497363209,0.924447643498561,0.923923896970864,0.924690879198812,0.924269570527826,0.925309853772116,0.925277862453174,0.926759629764916,0.927208689233381,0.927283128992348,0.924495259225764,0.922805931361757,0.919926987040591,0.918354857647846,0.917578420980218,0.916014444772595,0.915243135788301,0.914519343500813,0.914791601442554,0.916752061932377,0.919892209100241,0.955352994900527,0.970953263288866,0.919714984884,0.921289670084934,0.929029717660758,0.930196415928026,0.930901304686206,0.932027310165078,0.932109380850182,0.980090101484047,0.945942291708299,0.949139663778519,0.953568410911091,0.965155363162283,0.964419259220285,0.988001107404576,0.995513193721916,0.998654761584944,0.999491441426293,1.04136645998013,1.05897279134409,1.059411709051,1.0612223892642,1.06402594810309,1.066937690496,1.06906805252891,1.06993456693198,1.06940108379895,1.06960307959696,1.07113499068242,1.07318878896648,1.07429008470219,1.07391709111788,1.07295785781147,1.0696066555506,1.09379407838802,1.09595017652574,1.09775757193498,1.10329988626246,1.093668722367,1.07959962151278,1.07801717991905,1.07081685380714,1.07038585018883,1.07290077107744,1.07522095184373,1.08114653344985,1.08662447603883,1.09330223150722,1.09894858498557,1.10299148983981,1.10614338681387,1.11226140639924,1.11436853567131,1.11686635441599,1.11973558633168,1.12156541654658,1.12314506975087,1.12422198377089,1.12474572328509,1.12455151899663,1.09274356807818,1.09938711780621,1.09938034485948,1.09826790017834,1.09523063636461,1.09316769176491,1.09295926839355,1.09472654270946,1.09807125786283,1.10089361277105,1.09975245839314,1.09693259946401,1.09502463992272,1.06695785844464,1.06299619602575,1.05789495253265,1.0590019639013,1.05967475733474,1.05875320248805,1.05890970500422,1.05960025415218,1.05992779928088,1.06102932987807,1.06202211997415,1.06370186507886,1.06694275485175,1.06953656797043,1.07009288840514,1.07267447012094,1.07643364194063,1.05343165911202,1.0575547414708,1.06180503158186,1.06585809956338,1.06392250214612,1.06091973794245,1.06042214985346,1.05988453701567,1.05918867127122,1.05689215127558,1.06273778783361,1.06617363985446,1.07200464976367,1.07199707744299,1.05725251273944,1.05077269444509,1.05090073620066,1.05177575384302,1.07889811238161,1.09460841390887,1.10688842943762,1.11862747092216,1.11567611581898,1.1113848122589,1.11661178204674,1.18303447400592,1.18330681726357,1.18448213194378,1.12738499818658,1.10480096770243,1.08909104505103,1.06408961280686,1.06458942857645,1.06585129357431,1.06491634130971,1.07521840578675,1.07881740473931,1.08264424282888,1.09365597578082,1.10928694333744,1.11459724674903,1.10606279500389,1.09753996467432,1.04407041804174,1.04146435477098,1.04105911570503,1.04364972530845,1.06418898335966,1.10117767313893,1.07102517527865,1.02695205525581,1.02541422767284,1.02305266671296,1.01977847441519,1.01850831075122,1.01892089819478,1.01840503173519,1.01664164950733,1.01516146403557
0.924370824064815,0.923254092877364,0.924663941641408,0.923598199220039,0.926247979221531,0.925042141907697,0.926862315110105,0.926729356128768,0.92770322375258,0.927111284839058,0.926767246358719,0.925127864368532,0.918072181105804,0.919530985146555,0.918620608345542,0.916847915234867,0.916156961953026,1.12595316665255,0.978181585102273,0.99785603522245,0.925816642608174,1.11680752199236,0.999257524115174,0.919224192963827,0.922947531382569,0.926335747717513,0.930358813410025,0.930675331109758,0.932231986104389,0.932616216241688,1.01500685066668,0.943210458542072,0.966448777321135,0.957538759053647,0.963978807671841,0.960064681368123,1.00192654343204,0.991138716811117,0.999496313074216,1.00614637912825,1.01884310736615,1.05831315071437,1.05891709065553,1.03690195557341,1.09166939092478,1.08822660111773,1.10896062745708,1.08205185286784,1.08590895384831,1.0884369898378,1.08965183027089,1.08025800005381,1.10631397050022,1.10665902318355,1.07454308525404,1.06639511311441,1.14403763696907,1.1222016932834,1.11967593564123,1.1513494811717,1.15306015301149,1.08545583725398,1.08097680629153,1.06561716255433,1.06637274658546,1.07665960922435,1.07654760360276,1.10785239005116,1.1068664810311,1.10780191763107,1.13596726027235,1.15425339350028,1.11057370245977,1.11046847747521,1.14242277276093,1.14416937272431,1.14615790252276,1.15162068127197,1.13840777580054,1.15183198900023,1.12609921514707,1.13294591067818,1.08817920532728,1.13256016233893,1.08099600428501,1.12967310963088,1.13194537944261,1.11465669520818,1.1061083904175,1.09225262402595,1.14359179224104,1.14388791093291,1.1233651164681,1.09512811389611,1.09695491884011,1.07138180264966,1.07451978486683,1.0574275439805,1.07522737230124,1.10363397603578,1.05734206233042,1.05784292671083,1.05825797030515,1.05698286905196,1.06302042206994,1.06323997053229,1.04970279350853,1.0470757269803,1.055906896203,1.07077401692622,1.0359558264558,1.09282226968357,1.04827391343337,1.07932061488054,1.02875661063722,1.07326004933712,1.06680967470357,1.06080394795869,1.06118518976558,1.06152377882338,1.0620431903609,1.05379260736905,1.04357056387571,1.04308989017608,1.07194773678468,1.071791338996,1.08602388185291,1.0429097712342,1.04594971770887,1.04391083753661,1.13334962281894,1.04933189058492,1.04925697645772,1.13289847684713,1.13836611654081,1.09563035346363,1.12005979818918,1.17804741149823,1.18304109031882,1.19882906510838,1.23645565577888,1.18973293944955,1.12727620437898,1.05249488898492,1.05254215673373,1.05299616722889,1.06429259149765,1.1014477588931,1.10644271124617,1.13914597226361,1.08794305044819,1.13564836965802,1.13493364220381,1.10111020462622,1.06757193581795,1.04746167227426,1.03986240534702,1.04029144994449,1.05080466893383,1.0828517220945,1.18204349414621,1.02731046251195,1.02241698950581,1.01688836418245,1.01626472198547,1.01783838761918,1.01698711434951,1.01818216143621,1.01853892365939,1.03045363434944,1.02279157796678
0.923644279611569,0.924080158053568,0.923910366009897,0.925080626221539,0.925588093099006,0.926642144718815,0.926570049651536,0.927707115727304,0.927606897284264,0.92767526097525,0.926261322452024,0.925432875176188,0.923242635003676,0.921390117407134,0.920502601806819,0.920597116275914,0.944793161802752,0.951035838577764,0.962260559026729,0.974889811365278,0.980267155697069,1.01452758534608,1.0081530599776,0.92017173447029,0.920453683543463,0.928994984416447,0.933563722467251,0.945407620091294,0.953700100913523,0.958167777736445,0.963243200943301,0.969886803637789,0.973951574910365,0.99029456787978,0.996569164617115,1.00339588864018,1.01105813232333,1.02011426037289,1.02967283833454,1.03733724513624,1.04319553588147,1.05699166397339,1.05662708601972,1.06416269631831,1.09146566766789,1.08927811075721,1.08582827173091,1.08504552714292,1.08750873233339,1.08975705946847,1.09350314891886,1.09709723981204,1.09939938162468,1.10148930736845,1.07788009030408,1.06941180743453,1.11331233940116,1.11816851474639,1.11765227671015,1.11666662471896,1.11644251897556,1.11455191157628,1.10292344018268,1.09115652025619,1.07765209610761,1.07765131949756,1.07845796190282,1.09321631156406,1.11674732031066,1.11743770359498,1.14463321183666,1.14984542168192,1.11856075515037,1.11902054857219,1.14335482658196,1.14468198336187,1.14598179460266,1.13998404448987,1.13781983057467,1.13584640941007,1.13174723683209,1.13438090554238,1.13563089738117,1.1343605943169,1.13303774002781,1.13111833146701,1.13310797783883,1.13553826603215,1.13672100530987,1.1373684106342,1.13833029328213,1.13906798760261,1.13037419556028,1.11090752511077,1.09541540330379,1.0871764799743,1.07794587050103,1.08015368137424,1.08231259428683,1.08373415324731,1.07666071610477,1.06066237762016,1.05998243187523,1.05918282692046,1.06092334074147,1.06221738342971,1.05410669261592,1.0503167449157,1.04743004137276,1.04586229874574,1.03969991994336,1.04220051489778,1.04506322359264,1.06053296199452,1.04889576460742,1.06398890704858,1.06547251150319,1.06381832061861,1.06386289573594,1.0620778877489,1.0600669293355,1.05052875614258,1.04354246678351,1.04431036021278,1.06804719424395,1.06461250275328,1.06248893214113,1.05865627374901,1.05548843343013,1.05407167605691,1.05226978461725,1.05052309577823,1.04997244185282,1.08485087527473,1.11497290237332,1.11219989687616,1.11781904565308,1.12468407705207,1.12703059116856,1.19600439786887,1.18945008424604,1.11542020934831,1.09143653812017,1.06874509874811,1.07753197771404,1.08805154125225,1.09830927154431,1.10643882254675,1.1094519590275,1.1147378420229,1.10036014365362,1.10031088915814,1.10232279329575,1.0882825273806,1.08353943005482,1.07705850812646,1.07248478516057,1.0682444482744,1.05993943881621,1.06870765021487,1.09724131732153,1.05302174508538,1.0184189103278,1.01803905398485,1.01693886951402,1.01558647505434,1.01345464913925,1.01134916236581,1.00974013094107,1.00868308398292,1.00811946004536
0.923652639592829,0.923205554970699,0.923237190769429,0.945010833309366,0.99289521676572,0.926216521409834,0.928179292489949,0.926907483163981,0.927902349611671,0.927253583683662,0.926912050193336,0.925340001561372,0.925210017796731,0.922247375345961,0.92091991944519,0.920403262369871,1.11411710419426,0.93198639319613,0.949384520948696,0.92885109829819,0.987715520917354,1.02339277247886,1.13046383411603,0.920553138033841,0.91859640590056,0.930787126331686,0.935551593077481,0.974287993775793,0.975629670049228,0.97559795026308,0.952878005553662,1.00605876614769,0.9796199211434,0.996856963390389,1.02073386056098,1.06305785619315,1.07187704395028,1.05268556355433,1.05117320161179,1.04899518055771,1.04921079320068,1.1074640793748,1.05218968689064,1.07014695352166,1.09338045312158,1.0940236298882,1.08410851867161,1.08315108429438,1.08989694145361,1.10748381292303,1.10745645620106,1.09834888248713,1.08615153169886,1.1040067285372,1.081367115916,1.06630147376504,1.10890786675735,1.11852882577136,1.11659517564416,1.11574153348886,1.11622413156138,1.13667337497051,1.12354141916148,1.12569059199929,1.07740198636815,1.07712634526554,1.08085379998086,1.08075746235354,1.12219504133213,1.1262442169488,1.15366683001432,1.16029175365373,1.11782260869157,1.11925063412407,1.14930855560016,1.11614779058915,1.16203623497114,1.10383580910676,1.10628221454638,1.1061513596217,1.10695354813661,1.10826992641281,1.18031858330513,1.18586394568313,1.13225350746843,1.1271597889169,1.11191209845449,1.14988685459832,1.13682855923601,1.13892862316733,1.12066340602935,1.1743452994868,1.14823294009422,1.12866278673357,1.09332329103767,1.09377316111531,1.07602745046209,1.10209632645675,1.09004797568363,1.08497110163826,1.09103183646768,1.06178830812878,1.06350043908577,1.07576402127459,1.06041642280649,1.11085954437437,1.12012734970406,1.08422832838887,1.0432080420791,1.03241116221341,1.03058839342379,1.02744231163384,1.02277703758974,1.09263827276176,1.01739677601813,1.05569667946378,1.07876730350972,1.07135684956673,1.06854327746385,1.07136846967472,1.05816324156929,1.03204809149246,1.03025529413047,1.04628475139147,1.13813552029782,1.04312492615621,1.0350032244707,1.08970423299648,1.07593957581106,1.08870383955891,1.03630469185733,1.03670008601668,1.03892673835016,1.03878953615027,1.3469225967629,1.0380593899503,1.03829351066111,1.03975149638617,1.09235633970598,1.25055591569774,1.17255123231005,1.04248459080141,1.04236164239745,1.0430174509905,1.18613683626437,1.18748648479675,1.10361227724025,1.13720044611334,1.11726780917199,1.12223262425892,1.09998175047618,1.09813656096091,1.10352745627294,1.08176795838622,1.17267421351519,1.18364350394472,1.07584777297164,1.07490053148332,1.05154837223166,1.0289854566606,1.1829403000789,1.07558071810678,1.01089026480089,1.01039790686842,1.00329558127915,1.00226405167439,0.999323264881936,0.998624396097545,0.996785580311994,0.998182560269039,0.998138198268533
0.923229500931617,0.923131303831246,0.922825780902698,0.953196387916994,0.967733908491389,0.930705966809953,0.926121764208216,0.926983215624947,0.92709978064588,0.927266614057093,0.926082876777014,0.926381233952468,0.926161277206153,0.92791791239882,0.929904236290692,0.930348223282487,1.02430636706709,1.02283337987374,1.01822669304815,1.01356316893671,1.00622325193799,1.02104196116437,1.03198368425115,0.933940976172331,0.9268388518816,0.927799137396937,0.962706589330428,0.975703070688484,0.976595267979443,0.977824313598616,0.997926882674331,1.01168027605194,1.01543668756769,1.01885087766554,1.03632331264647,1.05517916816534,1.05380263683758,1.05338718757425,1.05735507866312,1.05938817288898,1.06077180348875,1.08662592005817,1.07153903159406,1.07144431811581,1.08282853590823,1.09470565642429,1.09492447364696,1.09433129035542,1.09259315928318,1.10009003011844,1.10384934678476,1.10059639578768,1.08137770162446,1.0800399398997,1.07903639899082,1.07680572755,1.10555449044045,1.11088871610416,1.11438341554092,1.11846730054208,1.12047673653159,1.12620771334983,1.10927672339982,1.09799459849768,1.08050187904746,1.0838718069957,1.08737547882664,1.10754949450598,1.12634369385599,1.13017509447582,1.14403778807969,1.150719769779,1.13696352825214,1.1165819879203,1.11477971772814,1.11326853267465,1.11240783749908,1.10736675461162,1.10806194772389,1.10761479735135,1.10780917978231,1.11010676685386,1.12007971150224,1.12020625497725,1.11995356777938,1.11914940348336,1.11726286941822,1.12332720066514,1.1280299992583,1.13116368095156,1.13887479162379,1.15251823115044,1.15135660788025,1.11420557077331,1.10721480758553,1.10380814634205,1.09693656726546,1.09838689271537,1.09251462537589,1.0901535522576,1.08552811466167,1.06120722981106,1.0610806104242,1.06265224066487,1.06337336048717,1.06714476439636,1.06880975209029,1.05047469259881,1.03943244326194,1.03059758353004,1.02983556214524,1.02893528036934,1.02904144389772,1.04461199561534,1.03261963112915,1.0434365210585,1.05202283434849,1.06103312024846,1.05201679785137,1.05077304756854,1.04685908526616,1.02919679939542,1.02888608838341,1.04754854904912,1.04640204627597,1.04342589141142,1.03946194420861,1.06467367042515,1.05279601695803,1.0441139910736,1.0375798525407,1.03798960341893,1.03952089729656,1.04006938094196,1.0402594872697,1.03957770483389,1.0396715971485,1.04018160264872,1.06642240541819,1.0785145321225,1.08541318187145,1.0985857819217,1.10332169004217,1.10532472772884,1.10852163724212,1.11334347825229,1.11948390266976,1.126387605095,1.11249536323053,1.10851315204396,1.1063262923945,1.11381851636237,1.1240748412273,1.13257278037545,1.15805575245584,1.15858954425659,1.06382069463415,1.05595147424379,1.04652112612567,1.02953828477584,1.03043149590475,1.03146721778479,1.02084406712345,1.00447860790929,1.00224270741179,1.00106446238698,0.999004182723199,0.996791549263519,0.995286088451854,0.996366536681825,0.997163017597963
0.923089016133873,0.922405174276719,0.922121503362138,1.21312980672421,1.05728979794325,0.940029027601314,0.925261131449949,0.926277149570592,0.926861049957152,0.926347070438838,0.925957606588692,0.92548877049624,0.926653317140345,1.10125005731963,1.082232647476,0.935845819743729,1.04628516204655,1.03131788671269,1.01835613451328,1.01686592170833,0.996367946064872,1.01879292394162,1.06024669804835,0.944646260877469,0.926140661304247,0.925996008768224,1.03016460762854,1.04928866933907,0.987711133276755,0.978588488916957,1.0155448102662,1.03820204419751,1.02185876736486,1.02372210635284,1.07120314407549,1.05780369555737,1.04920703999089,1.0496787435425,1.05929865642987,1.0604154451875,1.06129442910368,1.11949658706184,1.07279598248503,1.07238559329142,1.07239288527871,1.10788301879582,1.09637887767084,1.09467391973385,1.09368788411354,1.09392149442416,1.11059592301668,1.2607848308905,1.07471206760849,1.07445073593829,1.07417212477979,1.07346750016435,1.09810378981161,1.1032087252003,1.11264375378386,1.15898717551666,1.1540448039304,1.14824712023661,1.07439491606091,1.07487989296347,1.07041071354869,1.10665676056127,1.09293170788089,1.15124713869322,1.14486602131196,1.13345596876256,1.13091039656687,1.16330869522319,1.16504739778001,1.11467359275814,1.1137241576361,1.11096728595983,1.11091393188708,1.10932843937145,1.10981162795509,1.08765610923075,1.08809398416136,1.16148815322736,1.11821706453584,1.12033599825662,1.11980891651127,1.12082196713468,1.11545330814569,1.11214547899133,1.11091163825883,1.11036397911953,1.15477506110835,1.15366071064074,1.1532360394011,1.08968758427992,1.11358462136022,1.15608951428572,1.09702240046988,1.09747661102102,1.10113273046003,1.10495643201858,1.07933340736994,1.05653690300606,1.05776172866087,1.06400600508024,1.04064407235709,1.0405550874218,1.06810358169133,1.02735772928905,1.03124210357525,1.0291088774291,1.02895362870671,1.02918297972087,1.02854579387323,1.06782547017065,1.01467702982022,1.01455605408628,1.01309382974259,1.07783265082473,1.03117016159732,1.01618689408956,0.996861686288324,0.988973490478045,0.988159165981598,1.04893855097108,1.03080482286982,1.02024131358563,1.01974730374362,1.07908372816584,1.04161637649725,1.02716785143235,1.02677262414929,1.0274054179981,1.04019108011578,1.042189564582,1.04023053998367,1.06375767605421,1.11801510920884,1.02965029792353,1.03074025916218,1.03463663897697,1.07814025049924,1.13183125409994,1.18187062155687,1.18742849664065,1.09706343067151,1.09397011559924,1.19058507510644,1.19043414487406,1.09472156433113,1.03282731100064,1.09653401812986,1.14624576634784,1.13105230010085,1.14157248083298,1.1592957644855,1.16090367664316,1.01788051458133,1.01665834518801,1.02115948916807,1.02530083174095,1.00835188706894,1.03193520450498,1.20045909319984,0.999306670739627,0.998332331583326,0.993627891710305,0.993330341841206,0.99346661982656,0.993766212037202,1.01808980116341,0.998185675206242
0.92319696458947,0.922488797985749,0.921858407867705,0.921578828785652,0.922065575685792,0.923176077618414,0.924434849600448,0.925877039974191,0.926373825723408,0.926390884232123,0.925781096530066,0.926011758999169,0.926163542274144,1.03557480267183,1.01885558731934,1.005509148317,1.01260151517129,1.02382262976429,1.02030045640125,1.01906101153755,0.988967867276366,0.982580986732291,0.976681380629297,0.970424827883,0.971697320039084,0.972383552930803,0.982498954856126,0.987139944743479,0.993664588960542,1.00386286470593,1.02092265466484,1.02269616706711,1.0225320253714,1.05210274484093,1.0756586989949,1.07892249636803,1.08035016277192,1.08187008891598,1.08593314173114,1.09061456644713,1.09481878199297,1.09915674832706,1.07324118490053,1.07309708767049,1.07963024452208,1.10062554707,1.09567985191609,1.0941926985599,1.09327497364399,1.09307716872414,1.09374215606339,1.09391987314541,1.08193434121342,1.07413716573947,1.07500584926073,1.07586175290214,1.10469671156151,1.1062209598264,1.11204407097947,1.11442397917843,1.11865045139822,1.12225497402219,1.07382340658476,1.07368758381583,1.07837566980193,1.10944143751355,1.12255547963059,1.15417546155584,1.15681635512525,1.15902982247492,1.15997679413762,1.16011049211208,1.16018769226007,1.13360879255986,1.11403565890289,1.1126975373222,1.11151498628822,1.11076681849086,1.11076125216318,1.11093779275401,1.11510841049501,1.12265528702198,1.12119685106115,1.11916044986687,1.11580663709718,1.11323702316241,1.11164195503635,1.11048043699361,1.11042930380685,1.11009132967888,1.1260906585092,1.14017464669934,1.12368657799503,1.10433404919501,1.11322627124399,1.11161623536829,1.11062071421768,1.10931169170498,1.10802947622807,1.10658374171709,1.08545177925019,1.0820535651034,1.07763989430381,1.07173972945375,1.04579798994972,1.0374477393367,1.03451546297248,1.03157850340591,1.03055992241404,1.02973854220547,1.02998748879602,1.03039827953068,1.03023354808346,1.03094730137519,1.01543282084904,1.01498142028534,1.01525916375759,1.01652385986331,1.00580077346661,1.00200512270901,0.993877183871106,0.989144719255751,0.988511436298668,0.993428725112008,0.99680833950567,1.00588998258893,1.00819559195573,1.0122229692945,1.01718648639122,1.02898996877706,1.02785851496745,1.0267265469054,1.02491723947222,1.02324785252633,1.02245912971127,1.0229730671653,1.02479866741403,1.02735930903793,1.02769839311409,1.06291627721189,1.08034870757314,1.08267776779575,1.08462872274874,1.08694382800201,1.09074443826768,1.13562118569017,1.19015558234246,1.19030654293137,1.07804845855532,1.06485950409534,1.07771927705522,1.14153101269841,1.13747402189886,1.09376384145559,1.06889933830895,1.04804443839613,1.01988702091344,1.0204059915428,1.02213384462314,1.02304339370702,1.02309859331445,1.02510398138075,1.06568471614656,0.997711846491201,0.995886092158021,0.993011934973256,0.991887290694148,0.992408851496412,0.994007160053362,0.996146614783304,0.997173115712415
0.92331047324866,0.922388473824114,0.920790171119777,0.920523707773402,0.92140488760307,0.922111736467738,0.92408678287396,0.925246441688531,0.926626508411353,0.925776356775618,0.925760374442616,0.92563663471969,0.926011944423074,1.06693280561855,0.987347714178935,0.999503650431727,0.990420918569628,1.02596061399031,1.01992594787494,1.02029182502882,0.971325994433842,0.970939675125626,0.970739337170769,0.969636395631888,0.97357969591775,0.974137942891548,0.973916408129416,0.974782464469893,1.001348819934,1.01555220429055,1.07923787167739,1.02375713574116,1.02358630076685,1.08647895468836,1.08620547727331,1.08591438805796,1.11035626025633,1.08931171729575,1.09384370263984,1.09730022826079,1.11066739636073,1.10393138899167,1.07437369925965,1.07414439913597,1.08963428517932,1.1048333426568,1.09489219661657,1.0920051170996,1.09217153998615,1.09244896307593,1.09284841251499,1.09459980302458,1.09502162457296,1.07262383255568,1.07549883725317,1.07738614194149,1.11645784373595,1.115396765227,1.11290769622976,1.09854009689617,1.11614665471405,1.12588591988182,1.07333236933531,1.07102815394258,1.08788982902847,1.11145282098825,1.13715618897518,1.15404153688611,1.1557389081339,1.16013921886467,1.16044537606605,1.12215726375724,1.16055339546028,1.17558733778169,1.10215052553952,1.08535816253206,1.08566828548579,1.08543630348099,1.11111051530915,1.11093229724008,1.1176946630188,1.12376732504369,1.12305350203642,1.11025317124789,1.10960546693651,1.10807260601075,1.10787165437301,1.10792006823372,1.10518847163941,1.0968172232342,1.10774608841704,1.16606093161871,1.08498870782165,1.08379881103428,1.12818592006837,1.11082367427347,1.11028176878386,1.1130912298122,1.11309510444281,1.14993621384177,1.09241005842496,1.09331802075451,1.08624849443635,1.08515565907627,1.05789433304319,1.03590723924372,1.03574622139589,1.05636331771713,1.05858458261249,1.05981556315363,1.12661030537579,1.12877679695185,1.03111125009809,1.03106699595895,1.0154443487407,1.01473151388038,1.0142117532473,1.0154481535865,1.00322588132631,0.976557993776282,0.967634111025583,0.965373023056002,0.956216193839141,0.98946013230209,0.9960745308557,1.00377424378877,1.00848012993575,1.009083421202,1.01525721232302,1.03039426735858,0.976662851924477,1.02042846565806,1.01934735861335,1.01922916248438,1.01878211177607,1.01922313153087,1.01903886118576,1.02274553352453,1.02376016949093,1.39658433519443,1.08195714545501,1.0758954277521,1.04217535046733,1.04139677376213,1.04035007442094,1.18809974357004,1.18978482326578,1.19054401653206,1.06185122262116,1.02094571515731,1.01959084785369,1.17893427501475,1.18134351182991,1.01403885363072,1.01435678782081,1.01471617407508,1.00856766039489,1.00659530713498,1.0057569489248,1.00639363817604,1.04300266706865,1.00770163155555,1.18335762561194,0.99209613251045,0.991355662788674,0.990764972416816,0.989828439091089,0.990020879623374,0.988607768681977,0.98827869633023,0.987172596019813
0.923002122547817,0.920533451285177,0.920125795618579,0.921018033595737,0.922076970588935,0.923205864321737,0.924543023407186,0.926277700015214,0.92764489882,0.927186067490621,0.926402090660724,0.926559496205524,0.926639685914548,1.02774912900943,0.994599839532638,0.995821097095724,0.991893511097531,0.987209067835454,0.984442197888982,0.981471937785039,0.969686118095198,0.970053539782607,0.969211534134698,0.969488512572509,0.971285842734062,0.981335441251737,0.986638630037099,0.99712926162001,1.00622154033318,1.01783523213224,1.06771008443153,1.06173814312342,1.0631606416191,1.08624906110741,1.08746061183524,1.09560645159127,1.10082632914902,1.10106481593283,1.10127034670016,1.10309486102725,1.10518695522614,1.10328864950948,1.08415982784056,1.07695510069782,1.07947375688946,1.0822159071827,1.08589047925956,1.08962028260389,1.09176052785453,1.09246831764908,1.09407683026182,1.09253600937577,1.09430378695803,1.0807089547387,1.08315008583446,1.08650177283594,1.1021984499606,1.1142472198117,1.11368359323361,1.09957135614355,1.10155542356983,1.10224074594347,1.10221920586087,1.10338663066821,1.1196300809526,1.12613243238831,1.13434699073356,1.15535251741432,1.15658761073923,1.15876612506948,1.15941093400921,1.13832378606539,1.14955069559305,1.13676147293815,1.12281336630284,1.1158148686225,1.11592066434196,1.11613119795456,1.11691223054968,1.11860638202161,1.12087673180205,1.12287765203691,1.12364840962423,1.10949968909457,1.1092131022243,1.10819863131548,1.10661494038471,1.10586361907414,1.1019470268078,1.09849714903426,1.10690189412402,1.10705891264354,1.10866122465602,1.11033149051256,1.11071975938735,1.11004587206001,1.11107076221037,1.11282012698684,1.11185602934552,1.1105155931148,1.09543331186662,1.09001266587282,1.0876520613887,1.08157817059219,1.0758718523197,1.07358729990431,1.0719224838497,1.07192289249076,1.07349271416437,1.08699332901499,1.10458384640491,1.09692814322975,1.03291526093769,1.03153999661201,1.01757923814061,1.01440196064286,1.01450771910508,1.00678789445365,1.00048490370283,0.981384342005151,0.972044976925421,0.96305868717504,0.961812209849133,0.974965844989379,0.984342098787167,0.992658295282215,1.0014351029458,1.00242659559253,0.997435048066871,0.992368966666742,0.987693501464413,1.02020456060863,1.01977630000928,1.01871788152142,1.01876801356999,1.01803744744139,1.01910527489132,1.02007584771833,1.02082052093413,1.05700853021954,1.06698133417482,1.05771109723154,1.04177021267753,1.04129441536871,1.04074516272214,1.0941645416798,1.07243675354166,1.06057289041996,1.0452484803678,1.02183142546711,1.02138118461471,1.07969382343513,1.05381015503594,1.01429456226246,1.01367421386392,1.01307955292934,1.00978098143715,1.00720141266087,1.00551319919184,1.00539614471042,1.00504796200434,1.00583226242519,1.00049993783084,0.990630159031943,0.990101905125528,0.988669391831316,0.987923236789445,0.987442149903564,0.986936675154728,0.986361062196478,0.984883336544078
0.923784559964749,0.91696903762656,0.917457342823928,0.92102700603176,0.922637237249402,0.922823155395289,1.03068755309265,1.10141975286991,0.929754977299401,0.927110738530184,0.926594775120897,0.927018318974133,0.927395254110479,1.1391211191099,0.995813842503308,1.01213507413614,1.02098319048322,0.978380308426003,0.978360017243307,0.979030729265966,0.968869126703836,0.967366103650991,0.969286333507916,0.966547460930009,0.971185025712071,0.990661594501562,0.993280951091777,1.00868221958367,1.00996017805614,1.01843083694527,1.07213373414932,1.04876319698493,1.06642227140376,1.09757738592591,1.09019375524862,1.11033542407153,1.10118146708641,1.1013892393541,1.1008587582315,1.11866644367598,1.10734744907837,1.10115284955678,1.0953902792698,1.06990012865782,1.07012424392495,1.07026169782173,1.07687066886949,1.08225525045019,1.09225237416827,1.09469105782345,1.09524599839914,1.08910162853895,1.10687703432804,1.07926461679489,1.11085968600856,1.0900154482416,1.08715414996807,1.12869986586223,1.11350907945361,1.09862647081948,1.09816222757238,1.09939235171417,1.12448661180411,1.10662388443109,1.12239411884432,1.15650932058092,1.13118216461158,1.21439962173876,1.17123729974462,1.17296057940131,1.18118232956928,1.12292853427445,1.19311604475183,1.10434368947528,1.12562629556982,1.11516488227189,1.11570950935211,1.12906646979519,1.13000847286753,1.13045153728187,1.17710541387589,1.13702504582695,1.18631452632968,1.10940056153223,1.10940097807648,1.20238589406515,1.10413416232584,1.09570403900795,1.09773560389706,1.09546926945332,1.10462203724799,1.10494341229215,1.1657728024578,1.11235808987415,1.11262230161773,1.10890281187914,1.11965054453666,1.11762832576731,1.10988467647081,1.10815787775543,1.10694105120667,1.08290924399003,1.10823399485914,1.07815219669839,1.07839991285166,1.07887049498036,1.07039121407987,1.07086832407522,1.07545722944223,1.12207721304679,1.11571178848945,1.0858981077745,1.03587479179371,1.04607468366125,1.02101317437553,1.0132440477812,1.02446665198062,0.989694849134709,0.992591141530037,0.984446886445146,0.978541389092862,0.962185704870528,0.961343996692161,0.962468172396536,0.960337335874254,0.97265327236212,0.956949841340336,1.02546201996318,0.994455630632284,0.972439342051638,0.975575886027244,1.17090889375408,1.00725129716465,1.01857062285751,1.01613441627069,1.0174616691481,1.01716579604812,1.01902642724908,1.01882447929166,1.02866251665509,1.23986527863863,1.00946115885374,1.00964448798589,1.00955221167426,1.01038501000392,1.25889354709184,1.01153106032749,1.01205839035837,1.01220307425804,1.01193546650495,1.01164033700529,1.28889658913728,1.00701462963278,1.00896199875957,1.01213740897597,1.05291113523184,1.04586930130563,1.03817182510556,1.00413722282464,1.00234181247382,0.999688535473532,1.03103052945862,0.988968025345923,0.990249603559143,0.988925917956858,0.986694804052054,0.984422735996359,0.984926175788098,0.985445478196192,0.98455400505088,0.983668056473273
0.924271988994838,0.925022069316614,0.92496408786076,0.923705486989471,0.924236422642754,0.924505724746968,0.998849249106975,0.979627738762154,0.931874150212245,0.93064837397926,0.965424088421215,0.980162168490339,0.994563432667912,1.01788920474822,1.0062189260324,1.00941417443303,1.01723194463275,0.977488897282245,0.977189526625865,0.971065378233764,0.968057357457572,0.968109227337534,0.967880230119083,0.970935014470954,0.972217699458408,0.992457932057668,0.997900048910266,1.00901272204334,1.01110501586016,1.01975600208367,1.05605527533886,1.05881277695995,1.06282088401144,1.07664430404368,1.08795927306047,1.09051616815269,1.09240085949423,1.09643910984996,1.10023136637547,1.10113264756802,1.09920317024537,1.09863033721922,1.09702078702404,1.08720557894445,1.07346040315783,1.07121306261317,1.07961959137801,1.08733450815678,1.09256057031998,1.09362840532166,1.09541271801786,1.09575190214206,1.10168366263717,1.09833697939661,1.10189920995246,1.09813664980799,1.09539221933837,1.11201353277611,1.11322383409167,1.11448277200685,1.11456353724026,1.12259012179186,1.12537549277043,1.13165195401251,1.13972560415133,1.15129264967672,1.16300389082182,1.1712708076912,1.17120758387955,1.17276855601175,1.17609688135829,1.17139115996015,1.15989928529253,1.14071058623862,1.1365502679371,1.13221027195645,1.13821806897791,1.14481969836692,1.15177093638254,1.15836273503741,1.16326750626875,1.15583778824862,1.14868600779738,1.11950661434275,1.12038108240914,1.12305200614564,1.12350818358371,1.12279696707799,1.12161277658129,1.12039193545889,1.11968855126963,1.13409506823767,1.15161309707326,1.14706471425354,1.14062610576172,1.13068346803073,1.12142644945007,1.11414661724325,1.11019526058172,1.10885905270239,1.10803871657369,1.10847985083563,1.10854404131814,1.09689843159061,1.09160065547559,1.08524367674996,1.07856503043982,1.07822489627249,1.07749342832515,1.07852142214959,1.08040381765041,1.07424374268292,1.03883471833937,1.04095681571318,1.02040208579992,1.01863389586616,1.00964731161008,0.999619677432,0.996815911638445,0.991006425751319,0.976002073257936,0.972753978376132,0.96964584616647,0.967622908857394,0.96625154849107,0.969414136619452,0.979250607078342,0.988003642169475,0.989095748039323,0.989892791116695,1.01111300509827,1.02797235563815,1.02187450698979,1.0156799212417,1.01600348961699,1.01544621250668,1.01607925844945,1.01565420713388,1.0145293593473,1.0144301954331,1.01382210192072,1.0120078413442,1.01104228873541,1.01122071993183,1.01214006089747,1.01309514207931,1.0127709687333,1.01257889694723,1.01212474783361,1.01228767330641,1.01235342728286,1.05666499291184,1.00607760039462,1.00425053442449,1.00132220924788,0.999245300937661,0.998171133430052,0.997322322544624,0.996599922967006,0.99682506230701,0.997208934247059,0.99640401447026,0.99054680858759,0.989722196325663,0.989209547085197,0.985796491566426,0.985169249892503,0.984570345113087,0.985265942399895,0.985020978685946,0.98318245028536
0.924130147899402,0.924698154565479,1.14821348817014,1.07891969152795,0.925609485148679,0.925798817554067,1.21155817652533,0.930428588391368,0.932679367851807,0.930554626699184,1.09373921509573,1.05510497898116,1.00240800051663,1.05262830139461,0.981458400697384,0.98215588157018,1.02265298105275,0.97689076935387,0.976452666357633,0.96785492759676,0.968897486808873,0.964660019459182,0.966287252216977,0.973691568749188,0.974667007663819,0.993333754368316,1.00656022486018,1.0674815909129,1.04348830401995,1.02473895516266,1.05246945727493,1.06768988879821,1.05638621251656,1.0663984568538,1.08418693653713,1.08366034528949,1.09055391913165,1.09185170166702,1.10028240928226,1.10468986502689,1.09482229832747,1.09719971760749,1.09752898279234,1.09844129250516,1.07668368463021,1.07124582719518,1.08463066905905,1.10487893487212,1.10755451124761,1.10968213329555,1.09473764642534,1.09541769507754,1.10429557576184,1.09573847022306,1.14349419085936,1.14070612102564,1.09137190450369,1.11035119649706,1.11277972005734,1.11603823238945,1.11580374041607,1.12530815348128,1.12592520422479,1.16665379072939,1.14515013627836,1.14642195233691,1.20967587814463,1.1719169392109,1.17096772106683,1.19324566826902,1.19031585281501,1.18948955156375,1.14292467534914,1.14654431944635,1.18101296437061,1.11946306079139,1.1678450818034,1.18302633975841,1.15918823534566,1.16307165574059,1.24796316871676,1.17411008698504,1.13705025356707,1.11596727422239,1.11933099202506,1.12162008591109,1.12389595205918,1.14102871145147,1.1335966390283,1.12870112856801,1.11989106180982,1.15636927319239,1.16636737232184,1.14812962893079,1.14070587861342,1.14938447723979,1.14972410505458,1.10527450606432,1.10855246935773,1.10927741444615,1.12232229328728,1.16955938029399,1.12280642247523,1.14884485075937,1.10379557962751,1.1465887163353,1.07888416387417,1.07866550751434,1.07796295827571,1.0770721216385,1.08213941653779,1.05737946837375,1.03938528722006,1.03995491625076,1.02172550824119,1.02554110019899,0.99630754518122,1.00024563291838,1.00026159383841,1.00097849261206,0.956916032038926,0.978156500572378,0.998087113336841,0.975064925682306,0.963565608314313,0.958613869013666,0.995152783560676,0.988127959171026,0.989729748991059,0.991809423356732,1.037684443501,1.03526522483585,1.05006420142787,1.0127760511793,1.01431678436854,1.0148799779679,1.01402788683492,1.01463655655996,1.0141740672614,1.0151898664599,1.01498592988014,1.04990003369908,1.01091170565427,1.01176241507732,1.01299351222841,1.0133407667816,1.01302023821085,1.01281823840694,1.01022842077854,1.00652094758099,1.00541359000156,1.16670012135706,1.00222307505663,1.00256740101297,0.997931280449943,0.996217439305671,0.996065013063964,0.995936342938078,0.995849805255492,0.996080898006241,0.995037908807488,0.995379531306894,0.991811096109075,0.991192473066903,0.989700262033419,0.984226649658068,0.983748745230481,0.984210116634382,0.985579521601653,0.986608998696674,0.975889385913636
0.925949279998787,0.92678888618543,0.934680750878129,0.934972856088704,0.935010714269151,0.982182631287816,1.00851137212719,0.935551883553737,0.936029187938786,0.937709234010235,1.04940068093551,1.05287577650166,1.01543208101712,1.00202538150018,0.980363176897461,0.979697462690172,0.978161706789768,0.976824703047592,0.97521429172387,0.971810475817001,0.971736994737305,0.974640005259239,0.976268292604993,0.977378971261055,0.98044230168358,0.995108480968126,1.02780681031899,1.0666188081436,1.06548422877628,1.06386972820357,1.06200845510903,1.06204683967505,1.05856391694863,1.0621409875503,1.07260777697659,1.07912944651264,1.08469493125902,1.08891306145131,1.10132177423784,1.10262777487081,1.10115523967878,1.09934044620513,1.09948047903846,1.10052703631122,1.10018923145839,1.10121627709528,1.10315211945579,1.10518001347909,1.10752762947761,1.10863622952,1.10403005517952,1.10369929521305,1.10276048481217,1.0997557616464,1.10341814525046,1.10534123486232,1.1063863335521,1.10759684102617,1.11373619244056,1.11475856324497,1.12419656989624,1.13376494862698,1.13879485360911,1.14387632792547,1.14481893169376,1.14699261641372,1.16335259811004,1.16624938413373,1.17025302528404,1.17400841706601,1.17742763144517,1.17137364400979,1.15457992116871,1.15576145769429,1.17115021904007,1.14515541522817,1.15373180726624,1.15455796523561,1.15650849581861,1.15989855047679,1.15275079912266,1.14894031804911,1.14189787125668,1.14180459079838,1.14271306711209,1.14420849962329,1.14574704326384,1.14697505293562,1.14785678945923,1.14850613231574,1.14873227805168,1.1528747054426,1.15835230403478,1.1563252672917,1.1541957651747,1.15245674369449,1.1509214176283,1.13920090337205,1.11234071353759,1.11298390997074,1.11855977020364,1.15066300449916,1.14950060028755,1.14912105330105,1.10474595951589,1.10507098559226,1.10219141038691,1.09811800106721,1.08761603088631,1.08156584020537,1.07505030826726,1.06416313262131,1.04091415430666,1.04056260514636,1.02712104571506,1.02569181742594,1.00417784164028,1.00068614641575,1.00025164329767,1.00044466319436,0.991397019653168,0.98719313075175,0.98230496199806,0.973371157899269,0.972327912350272,0.971233636805833,0.975884086056028,0.988289749528724,0.990388488967894,0.991367613924836,1.00438863050685,1.01776487712413,1.02784873187478,1.01312955823052,1.01326302936002,1.01334632035132,1.01309895543179,1.01290042187797,1.01299356689829,1.01352990554647,1.01277051477876,1.01140331255923,1.01109769436372,1.01188886113274,1.01381192743087,1.01487569162635,1.01525103795737,1.0117002033694,1.01008011961826,1.00652690045546,1.00609982365581,1.0052175374309,1.00289662508232,1.00015271474963,0.997820318253398,0.996938748920295,0.996363361422106,0.995776987772816,0.995105237210386,0.99457116102727,0.993922899217124,0.992329626244433,0.990382191054067,0.988102933620151,0.985403691239161,0.984632823230896,0.985208184741011,0.985338768057459,0.986041334301399,0.984990220444899,0.97562885077065
0.927965416919524,0.928885674512334,0.932224600409774,0.932883466844398,0.932875989975049,1.11598184030536,1.09091513497786,0.935186207120626,0.936569941077242,0.937482213812601,1.0407551494093,1.05867718190422,1.02657690400949,0.960811002598071,0.960462173387886,0.953859461346192,0.955739314553777,1.03770219887781,0.974503118001476,0.971932929011856,0.972209693385807,0.974134226312329,0.976456671326688,1.04198223827051,1.04107740962859,0.994028039893327,1.04923306208088,1.06696616336053,1.06628214416444,1.07294849763096,1.05998360326815,1.0602108662521,1.05610196598652,1.05517500847474,1.06511711980984,1.07414848439985,1.06737372165226,1.06981990569569,1.10126894522442,1.13416781215005,1.14637747652393,1.14457793351034,1.19426137329705,1.10271597859777,1.18937334516658,1.18939112667257,1.12566706582128,1.10993971938215,1.10991194384834,1.11025175340795,1.11644557485293,1.12768056509537,1.08924555641099,1.08915321053071,1.10008618174012,1.10512735123593,1.13511702466707,1.08254407967905,1.11375107586808,1.11453023160296,1.16732171228252,1.14784986569852,1.15628184747165,1.14253101408152,1.14287288218448,1.14906755121443,1.15921558999092,1.15724636975352,1.16664167824094,1.16549385250054,1.1839361076924,1.1562825536643,1.1548138260965,1.15848282132529,1.18775094286085,1.13196992303186,1.1253732948777,1.15416421115797,1.153321188199,1.21711662879332,1.14351838497003,1.14178360559392,1.14282089504241,1.19429966597823,1.19341639467139,1.19823505504932,1.19885905471961,1.18755281004193,1.1625697143459,1.1492453622178,1.14974137218046,1.15061294674521,1.16037251810073,1.16587837746088,1.16541511701109,1.16437533472682,1.18647666761234,1.18748290478278,1.11163276240361,1.11248071415473,1.11595572317767,1.15188103072546,1.14878891629148,1.16808262329636,1.10531931156496,1.10497482229973,1.11550969489285,1.10023757782304,1.11012732708065,1.12485042369943,1.06913718995726,1.07027338404759,1.04226674814861,1.04010146327372,1.02824531686764,1.03216146713859,1.01549853371455,0.990859000869454,1.00564451117488,1.02182496094924,0.997141940602819,0.999236902688946,0.956640371386584,0.972641796319466,0.985952332958918,0.970179279565337,0.968694940595517,0.985992822085809,0.9848982785332,0.982245411142965,0.960606265052265,0.960599257685711,1.0771438707699,1.00812811260309,1.01207384556784,1.01209651905572,1.01192907535282,1.01103223524902,1.01132702593576,1.01273618434043,1.0109394360694,1.00991154575302,1.00962526943343,1.01019351544418,1.22839332723653,1.22925863520885,1.22344337398201,1.00050686927059,1.00127413285957,1.00248172566166,1.16646926042389,0.994635487926333,0.994884644159205,0.996853266433831,0.996938588889011,0.996660502572665,0.996829411728253,0.995619659748847,0.994259735150138,0.993407316590388,0.993247952815096,0.990668601515565,0.987801992891178,0.986809398053323,0.981126498748287,0.977735531885165,0.97526315041888,1.15386070176614,0.985975698412101,0.982931152862913,0.963417975320547
0.929534645818989,0.930737040213253,0.932133302894063,0.977147389088099,1.00550852150398,1.09163383522635,1.08401743904682,1.03992050488253,1.03437302007685,1.02294768400332,1.02461823174242,1.02786560171713,1.02650111152389,0.965678324672819,0.962292331809887,0.959333789368511,0.957239965977913,0.96395507420116,0.976083154804801,0.977236382714013,0.979706165898642,0.984640402621846,0.998901437007378,1.02022455358807,1.02987308793775,1.02167129842008,1.05804206523144,1.06669469063597,1.06634583829138,1.06417475600612,1.06093969227684,1.05984218378405,1.06532662731657,1.06946450141981,1.07386886324744,1.07906332826679,1.0846164107388,1.08853151153873,1.10102289331941,1.10639564986023,1.10581147357569,1.10316659512888,1.10199473878903,1.10242594042095,1.13418604805287,1.13199750854693,1.1278576728745,1.12424800043574,1.12187244626509,1.12089946813544,1.1183070832401,1.11440277431171,1.10128138974746,1.10085390513438,1.10238111981571,1.10423034308227,1.1223466501674,1.11898637088373,1.1295640146371,1.13148534795523,1.15673087888415,1.15134229922034,1.15478464764157,1.15580943565973,1.15580855862675,1.15628976779756,1.1596662663438,1.16161847146009,1.1649892664209,1.16812404213425,1.16921436853188,1.17237895939713,1.17422826685216,1.176502770591,1.17824265337841,1.17331734947991,1.16643888923669,1.15191890609317,1.15058157592274,1.15153890518565,1.15316327587376,1.17111764293238,1.18200441321355,1.19427239119669,1.19428428268672,1.19650185037083,1.19745623221664,1.19244152893983,1.16969255201573,1.15245842883528,1.15203847230176,1.15212069682467,1.15754325035303,1.16571252740515,1.16545237668438,1.16554036683023,1.15476441754783,1.14543193345528,1.11090483506737,1.11248581592421,1.1137726411234,1.11031770545917,1.10866390894917,1.10696667356912,1.10604511358832,1.10672412229738,1.11001150584546,1.11346279021245,1.11593151366564,1.11645989555151,1.09070777638932,1.05135667426389,1.03972574516873,1.03870532020821,1.03630962956671,1.0341842766655,1.01934633783547,1.00856200944879,1.0073425081355,1.00629560106741,0.996424790092735,0.994229427284775,0.97673871760822,0.971032536683224,0.970722707603144,0.970222248566633,0.973801909266901,0.975248304078712,0.974894085602992,0.97268426287816,0.961753250438694,0.963093708894473,1.01470016330349,1.01306589756396,1.01250953300407,1.01231660890775,1.0117611576986,1.0104611947586,1.0082607987436,1.00676786807365,1.00776977137366,1.00853951308477,1.00899395753761,1.00964992613053,1.04840896634186,1.0767285536466,1.04463577634294,1.00074877125288,0.99902492954403,0.996429426179499,0.995178955445533,0.994815755834663,0.994724250641292,0.9947551492099,0.994751301899377,0.994702523085452,0.994557076519011,0.993877981302603,0.992861275034393,0.992497814396264,0.992575517311182,0.988131611016013,0.985002298644815,0.98195100331437,0.979723742178418,0.975891487718796,0.9742151371077,0.970486705793417,0.967450422476738,0.966277390219353,0.964202459338165
0.930154891914963,0.930998549540377,0.933219324913809,1.11919671372033,1.11756886198084,1.10342815040644,1.06823351935381,1.06892251370938,1.03686328754987,1.02122020342131,1.02336084838941,1.03342390767563,1.04400769732253,0.969301365222055,0.974571994091349,0.990067079955039,0.949605941389764,0.949944283136561,0.976794062555593,0.977979072458591,1.04656374120664,0.990893168481122,1.01240119187304,0.997743974511726,1.06453655592983,1.01314923202284,1.0616146689541,1.06536291767574,1.06702575609923,1.04662400362647,1.10002245305506,1.05624670555295,1.07739343359686,1.15085069337294,1.09073151227621,1.09160307152044,1.09201762904022,1.09276270290343,1.1017512851865,1.1064677067938,1.10719964568262,1.10125928783086,1.10037745838044,1.09881757842889,1.13550379691389,1.13341382616084,1.24181871662275,1.14118842079684,1.1414943780876,1.14199322949228,1.1981504831228,1.10624759860933,1.10366102653862,1.15458898294647,1.15537623615513,1.09641903318636,1.1259055382763,1.11759956353323,1.13139627364751,1.13813605586005,1.17939172402715,1.13452688351176,1.13447482107664,1.17017085535504,1.18990778084834,1.2118207368032,1.21259017436402,1.17469328908158,1.1737455599851,1.17300326255285,1.16797106456159,1.17374166588879,1.17394015032803,1.19768297838976,1.17895189740003,1.18369048092459,1.20532304938177,1.1471956520518,1.14739732860731,1.14664156244353,1.15417633477779,1.2417741623478,1.21995568025066,1.20487620276246,1.2261972682061,1.13426631420299,1.19857068813401,1.22384720325608,1.17805682130942,1.15300120953583,1.17634261607086,1.15325417113919,1.15592562968759,1.17687793135108,1.17639993246737,1.16847696115056,1.13824507729518,1.13795328016656,1.11110612258282,1.11303126530081,1.20087641873288,1.10276097021413,1.07415408716524,1.09758761267396,1.07679678257753,1.0768919065919,1.08083548929088,1.12158042018939,1.11730169644475,1.11828259892597,1.17145940459316,1.03645107595941,1.03820434963098,1.03842230435274,1.04546510727531,1.05247164512258,1.02135669271407,1.01117922652919,1.00861345825665,1.00663076748131,0.987290989463563,0.992205138008963,0.981084553862236,0.969833829816382,0.964055957538628,0.967472550823598,0.977373997982177,0.978382388235341,0.977083606658133,0.970046502757828,0.95269893740287,0.966254632643487,1.01698235986176,1.01475101552286,1.0142054517002,1.01198351013267,1.0124488701222,1.00343027057164,1.00452174154338,1.00392606154009,1.00299559010122,1.00290300019461,1.0027846176279,1.00311590718329,1.00328171873149,1.26760410768568,0.994420050981005,0.994156929755026,0.995545618631737,0.994795466155143,0.993881635339778,0.994132242125295,0.994479557923486,0.992321974784905,0.992792461036435,0.993072612365149,0.99270184494649,0.992358312427627,0.991284594048705,0.991029484931422,0.993212802793005,0.982877613871289,0.981931197326515,0.979005047245297,0.97812754027185,0.97306995508487,0.969338344419651,0.968404244797569,0.967003515816237,0.967321077919519,0.965346986340159
1.0384160725234,1.02613253012908,1.02381104553127,1.03478788802049,1.03783657508349,1.04015990450255,1.05080982513029,1.05176466510906,1.03940732188528,1.0382400115776,1.03703823558334,1.03738717075772,1.03997831492164,0.971306484683294,0.973306619921392,0.963826703777837,0.96082956591206,0.975875570066165,0.982611919128729,0.987884423562916,1.01011126472053,1.01996893633266,1.02961599645079,1.03974362386081,1.0498499308068,1.05397009149065,1.0583028985632,1.0669778714671,1.06764371314181,1.0688491642303,1.07122133179693,1.07548514225959,1.07746121145214,1.12421256894303,1.11405037888897,1.10278682339804,1.09368292321852,1.09425821087713,1.10351359006252,1.10469717908576,1.10426780458955,1.10208472185895,1.10037577820359,1.10569745722447,1.13617679236519,1.13699751925522,1.13815327697828,1.14015444136124,1.14066712767077,1.14025855210571,1.13859157920366,1.13282523321895,1.1193366464324,1.12244295523783,1.12782383749118,1.125397930414,1.13055274050713,1.14213794621767,1.14966200463722,1.15796949576143,1.16997989236637,1.16486310309818,1.16663941733145,1.16806529810624,1.17920557776933,1.18507432245426,1.18992420086322,1.17911220347592,1.17947703421066,1.18111328906619,1.18289300220355,1.18368072141102,1.18304395593503,1.19005563136399,1.18033619202883,1.18093508833049,1.18090138035962,1.16950955164442,1.16940474715377,1.16909254055995,1.16866562980011,1.16984047218175,1.17321896771317,1.15677227585544,1.15307355792962,1.15161779404792,1.17202579005391,1.18573915923645,1.18335131976477,1.18193550325893,1.18115823397809,1.18009280946281,1.1788802818569,1.17731855712385,1.17555004451398,1.17157576391855,1.13142847702437,1.12633103942126,1.11257054923494,1.11494978091173,1.11756097120167,1.10969498114424,1.10688054452918,1.10521081234544,1.07841557424709,1.07900465332916,1.08087176622703,1.10587876852554,1.10559870910575,1.0837912891439,1.07091083739511,1.03785969299995,1.04098156045304,1.04394088724064,1.04624672967648,1.04926539866229,1.03288582614647,1.02469112662726,1.02054395438218,1.00207053002404,0.995154168172991,0.993897384182459,0.98001320132403,0.977001279301736,0.97547433729641,0.973534218505545,0.97596001983697,0.977079237485585,0.977351465468252,0.974854997739723,0.974917557194513,0.974916435953372,0.992364875871304,1.00526351257445,1.00651671223157,1.00756378989699,1.00589484842805,1.0051348666504,1.00366035750257,1.00265842692233,1.00229521518065,1.00201145780934,1.00195642680399,1.00172957227228,1.0466370437605,1.07449764433631,1.04137619974331,0.993950366825839,0.994346131536587,0.993808034276083,0.992984550804266,0.992506168936196,0.992032967556112,0.990923718259932,0.990429703895807,0.990098185760904,0.99049362003503,0.98956881013366,0.988518234898596,0.987270439253603,0.984135132538507,0.982483998824579,0.979647961332967,0.978134331491327,0.977741905208766,0.975814289522961,0.973980022626969,0.967533595070599,0.965833176448095,0.965080677092524,0.96323392607714
1.11676312603451,1.02944082087008,1.02297123928732,0.94396371871641,1.01711334333589,1.01652742740086,1.04770719806447,1.05080999509159,1.04215756531003,1.04496511894448,1.03489396259422,1.16797873575615,1.03941257215968,0.960225573262514,0.997453611868659,0.95543827252105,0.953798830519085,0.996557756532939,0.997117707580305,0.997197147575996,0.997610851954653,1.04466478286146,1.04529231332008,1.05067723926591,1.04808361328266,1.07329956447722,1.04651847245027,1.08572712865657,1.08560641753406,1.08514666749538,1.07015961918062,1.07896812334481,1.07959032107692,1.13489449184868,1.13403455100928,1.13555263469693,1.08524651732596,1.09732709443608,1.10415501677438,1.10418170402851,1.10360452248334,1.10266402036518,1.09913586226917,1.11683465586409,1.1360304890018,1.13864465881633,1.13807637872309,1.13910984362135,1.13994817898419,1.13984817838806,1.13592559781709,1.14677689375469,1.11601886498603,1.11567962477166,1.13143204730926,1.1235668284193,1.13533002998382,1.16660422129056,1.16728607571268,1.17400484986965,1.17356362889402,1.16351629060878,1.16774685682386,1.16713469676233,1.16625131839267,1.17099300936401,1.20518382251956,1.17968038198273,1.18403360012473,1.19490798323739,1.19320369847566,1.18456714446355,1.18298364152358,1.23462656652252,1.15724611577785,1.14701336499185,1.18063915917343,1.16899697771785,1.16883303150126,1.16810820501978,1.16669009750086,1.16617830211595,1.17394280132913,1.13002601036865,1.13181143887117,1.14516310115887,1.14459149659206,1.1888387930785,1.19027328461007,1.19368112541362,1.18135820503117,1.18044479580759,1.17832391042079,1.16187188039187,1.17973925989403,1.19255372820565,1.12340580554918,1.11680490927155,1.11477158833867,1.11708185801158,1.11832974243637,1.15860229186059,1.13316319139658,1.13477234139848,1.07823211357027,1.07859350811363,1.07038687278966,1.10588048511157,1.1051433044452,1.05325314133523,1.05926730350205,1.0339151502464,1.0435883735395,1.06554562583699,1.08610196820648,1.05578426218997,1.04300609468609,1.0338174439813,1.02406060484068,0.995978896211225,0.996084555014292,1.00521733213201,0.981917191246781,0.996435201099227,0.987925655061063,0.97206865074526,0.957288850969854,0.958817110553358,0.979854833749116,0.999615561667013,0.974198346802205,0.973804541526985,0.978204570854834,1.00420233846337,1.00700573055487,1.00736750683732,1.00441154401378,1.00750163631879,1.00204398714423,1.00057266812609,1.00072662312925,1.00124271966351,0.998024813185279,0.99993202865597,1.23508971520016,1.23516661773254,1.26733777725471,0.992617777578642,0.992924142074965,0.992316890525462,0.991580018508885,0.990381917833433,0.990225200967862,0.988839742438984,0.987837282528608,0.98656798185188,0.984279520089436,0.984663809612843,0.985868906383596,0.98605646934971,0.983005773033525,0.983524612040057,0.976627285345156,0.975108036933705,1.29756275339782,1.1174734677428,1.29863714466372,0.961016435787494,0.963403697359262,0.959051766409627,0.960016606111566
1.02948130737987,1.02765513239229,1.02415939441845,1.02158735475301,1.01926638383141,1.02923628460948,1.04585578569469,1.04415180568302,1.04200714074008,1.03957042064119,1.03740991646775,1.05183187923997,1.0370306900925,0.958874971845333,0.958265909031703,0.958815787569142,0.967247458857127,0.997015199417645,0.997063649146282,0.997713903050289,1.00324234969779,1.02283733638032,1.02890853544657,1.05513458023311,1.0602975707786,1.07260940322812,1.07259892864353,1.08597835867272,1.08572274228145,1.08521793868041,1.08477536688818,1.08500780352432,1.08647137176773,1.08825158536062,1.08931999130912,1.09778681105062,1.09759454399391,1.10200416665308,1.1046952525509,1.10618844262499,1.11703955639612,1.12294108231689,1.12753920892919,1.13119075492537,1.13852848776843,1.13980537100097,1.13955783362368,1.13900500119262,1.13928245546292,1.1386796434002,1.13712112084159,1.13586978072281,1.13546553104077,1.1418981800805,1.14377284026466,1.14595278343241,1.14872663560828,1.16737300029405,1.16942710324837,1.17209592699468,1.17287010936838,1.16898045992121,1.16857956523009,1.16924988372934,1.17124701059723,1.17368887447281,1.17987225813702,1.1820878509994,1.18527757973106,1.19030650690997,1.18998560728494,1.1854106186246,1.18357324545838,1.17747917236789,1.15420167652615,1.14851402462878,1.14821339324455,1.14611218291569,1.14340516987534,1.14131998186597,1.14035100303676,1.13994055826393,1.13888423534286,1.13672774893075,1.14066608425603,1.14851562987998,1.17584004833712,1.1887617882508,1.18953928232279,1.19080477653963,1.18449903629642,1.18248864507296,1.17715899809635,1.17713968286161,1.17831832607763,1.16403696715135,1.13430545488131,1.12802702549314,1.11490983651097,1.11634424875386,1.11722318193268,1.11826362296776,1.12014136698076,1.12034429558622,1.08728567811652,1.09096447403209,1.09605053124187,1.1053938982383,1.10468306309647,1.09829020927489,1.09401401459589,1.08958325435008,1.08016792172147,1.08044567742911,1.08082404159939,1.06029974040408,1.05366496806078,1.03818607748556,1.02691349147803,1.02221486882831,1.01501832725919,1.00789888369658,0.998553987978714,0.988661155334837,0.978644936350382,0.971031322231551,0.967255153315517,0.975132077725189,0.982280705593886,0.98937206999077,0.975662613156528,0.976602250106932,0.977770628754769,0.99043537554947,0.993321970761092,0.997269737816687,1.00243591919342,1.0058039620309,1.00226329506753,1.00146823480134,0.999888891500288,0.997452829162328,0.995844681304721,0.994623045020491,0.993903693459641,0.9933491077673,0.992437415864438,0.991650835836945,0.991560178183732,0.991181965037457,0.990463438755721,0.989297034810159,0.988073696388937,0.986853243380105,0.985748049975154,0.984787094759137,0.98339536866748,0.983913148655643,0.983978291281359,0.984671400750526,0.983151813453711,0.981108912277498,0.977336130540628,0.974930822380761,0.974124950562142,0.97301595423745,0.971765101708052,0.968940233173492,0.964409918061796,0.962569283806831,0.961315914705656
1.02874456944481,1.02745277284716,1.12288097718378,1.09231846812275,1.00124742088359,1.04229427318958,1.07068811360981,1.03619957782367,1.03373617230885,1.02315362787182,0.990598791162128,1.09017867068541,1.03445257164368,0.956896721634786,0.957664287867035,0.959324763974215,0.978416761877177,1.04928785062264,0.996054173938282,0.981037851174608,1.00691547882541,1.00781160261838,1.01912440661421,1.10338010174729,1.10237977781966,1.07096764269448,1.07084227514278,1.10660908720482,1.09740155206637,1.09493709396621,1.08421243885264,1.0842872210551,1.09638409919337,1.08008667659303,1.08062460350217,1.09649369187248,1.09840682387705,1.10614938213165,1.10678954103887,1.1098435191101,1.12686005742738,1.13488386449518,1.13540553907433,1.17426720799863,1.17403047152328,1.14252590012844,1.14163649783227,1.13716824545535,1.13859379426509,1.20470338095519,1.14859026627913,1.13427012457784,1.13363128153058,1.1802061080382,1.17792875829823,1.17785968631075,1.15266932403593,1.16841847959138,1.1785951910678,1.21832416464417,1.24195197004983,1.16954794408766,1.15946995133868,1.18114900939121,1.17843208992899,1.17752617055472,1.16952249177713,1.30291695119403,1.2445568032074,1.22461730639107,1.22333575221989,1.20902998713352,1.23025469580166,1.14760164727686,1.13709748084681,1.13175329951948,1.12430520333972,1.1233404274038,1.12309590244825,1.12336364536294,1.13799274168853,1.13814439237277,1.13883535828255,1.13385341500833,1.14830613232328,1.15736487718879,1.30013365461683,1.29972403430589,1.29456711517424,1.31470861731902,1.20822080335036,1.19371994992688,1.17680484578,1.18842413074817,1.18913733658395,1.14083385474497,1.14072082994911,1.15741157677481,1.11522131927657,1.11742549839209,1.11594844777783,1.11433682819065,1.12291453473346,1.1224369026173,1.0838084816086,1.14137530205216,1.13143301000338,1.1315369147874,1.11391135427692,1.1139993729785,1.11366168583387,1.1120466147002,1.0805147977003,1.07960574345628,1.07890410634806,1.12088942225692,1.08698153629157,1.03996343081112,1.03082790258813,1.02674982538412,1.02638822688657,1.03169373670526,1.03056454438267,0.982188580050522,0.972235759964164,0.971875159227394,0.960598746157884,0.988746614729988,0.984924924660947,1.0029849557665,0.964523765501124,0.979047652938621,0.978369472730427,0.988283182420724,0.989301682482745,0.991690997434705,1.0004741672002,1.00837283260055,0.996878997741797,0.991607835842052,0.990917388474705,0.992640967682774,0.992725748954864,0.991826787446282,0.993151680229527,0.991854163064698,0.988849915496223,0.989236504631866,0.989611874210818,0.989855511725886,0.989454215549374,0.988103704335935,0.985820100163564,0.9844744417092,0.984024476568658,0.982220171863713,0.98226948814141,0.97876691998901,0.981088990514966,1.23293057175233,1.33757272896951,0.972792593182533,1.29620422559878,1.03166035081351,0.976438176293957,0.975168183537936,0.975512683109052,1.11361986526128,0.96825263642833,0.971981352619728,1.33605437437059
1.01639154559517,1.02080670907814,1.04786679170532,1.03190240017533,1.00486552931313,1.00779041867675,1.01207163094008,1.01592436536709,1.01688109487251,1.01936934197114,1.00959172270168,1.01803681079386,1.02586178365779,0.972859846145336,0.972327259802002,0.972152141544663,1.00179773658179,1.02331029016254,0.995614344307791,0.991331366643485,1.01043472342688,1.01269028496534,1.02720110504285,1.0729868505997,1.07398425111581,1.07283877259652,1.07244827405097,1.10337827098005,1.09998270422563,1.09809978345982,1.08795501857648,1.08666651839252,1.08836273541615,1.08922307000558,1.09223637256274,1.0972183532012,1.10151104852683,1.10822817724947,1.11040271045183,1.11456732941732,1.13116239175149,1.13395609672489,1.1372591967499,1.14096821505499,1.14105138336029,1.14120374554786,1.14047400851884,1.13926745178377,1.13888057695104,1.13764658727467,1.13801536542424,1.14000737285828,1.14400002031344,1.18022364800436,1.1794113283647,1.17931200001167,1.18035476957699,1.18150457556656,1.18345243530659,1.18479705141902,1.18580329899671,1.16556372301996,1.16201018970489,1.17040904093094,1.17280795645994,1.18164892492662,1.18309597860466,1.26320772622703,1.25437197280054,1.24458096839767,1.22002129242653,1.21068400488379,1.17852552857786,1.14712615101006,1.13749294900761,1.13553124390501,1.12300513519683,1.12208723374624,1.12214394365446,1.12205136248792,1.14238855936231,1.15454661661677,1.1639321202156,1.1769319559573,1.19047585917507,1.20238967773814,1.26980535860922,1.27295757802624,1.26708913587277,1.26438368065044,1.22911714456107,1.20552938429824,1.19844018325794,1.18717259454934,1.18172331161951,1.1649736351626,1.15535877003049,1.14147844874134,1.1146406530385,1.11534822079194,1.11596152306938,1.11817023820562,1.12168876368708,1.12200012341256,1.09470906147185,1.09934204944589,1.11563971696617,1.11517602972805,1.11399320878725,1.1130320255454,1.1117644455847,1.11146439462439,1.10009090272254,1.09587991257325,1.10184587695305,1.10667494996616,1.08736653022607,1.07549423670455,1.06160314673174,1.05057250284257,1.04090131303033,1.02944743713288,1.02886989247299,1.00026271681639,0.994115239347831,0.985234825954262,0.974824058393505,0.973597435615029,0.972862308087558,0.97132629280535,0.968248794131275,0.973020405857901,0.975162540076765,0.987185320608572,0.988115119349673,0.989658368364407,0.990544467900214,0.991895187055609,0.992356267662194,0.991712079591973,0.990566502565234,0.98960640255146,0.988692923474061,0.987570113677645,0.98668639848603,0.986497804364697,0.986817949983815,0.98714212017152,0.987183501364991,0.987040032344696,0.986835671068288,0.986531350548608,0.984638055704359,0.982960913088757,0.981750819618034,0.980890938268086,0.9805921855936,0.979866612056072,0.980189391473889,1.02340440188977,1.039240663436,1.03148870212356,1.0317328664542,1.03189203777947,1.01961772971598,1.01429149114891,1.00571926521553,0.998057233438072,0.968154145906104,0.969544798976377,1.01152907358519
1.01233512480473,1.01268156530975,1.08327061571913,0.989525247612364,0.98749184008541,0.986264524771167,0.986218628178575,0.999712933370109,1.00937174642877,1.03361756834172,0.960486460367233,0.960480589962271,1.07337903985238,0.971302503059087,0.969718477214634,0.969512401700258,1.02453926881349,1.08184097019902,0.996689414867817,0.983176684490973,1.0186959384856,1.01822096992171,1.03769738311798,1.07179894590663,1.07568498991262,1.07337841423089,1.07319738606508,1.19414595979728,1.14539328147061,1.19503388325296,1.09532821364327,1.07587440169311,1.07595180017184,1.08927361897893,1.09791423118804,1.09766159731617,1.10337449935598,1.11953073261797,1.11801662748674,1.11957495420347,1.15605818166765,1.11987098061179,1.17145663037772,1.14010082024457,1.1405939465563,1.14033755548385,1.1387275892915,1.14109787943537,1.13891969273154,1.1366587401587,1.13581674642431,1.14091523811453,1.14835759503212,1.19250618602141,1.20002974366242,1.16189141297831,1.22649321929898,1.18597723009209,1.185079140802,1.18606156807544,1.18791920574064,1.13187926164037,1.13199427707957,1.15065100623353,1.16836176482486,1.18235034186336,1.18712121920915,1.30124764906188,1.25421809405308,1.24768619238601,1.17007401597046,1.21482596903235,1.14226136613242,1.146387332156,1.11898441755129,1.13552664714046,1.11790096341208,1.12036654170364,1.12052677927116,1.11994052471744,1.14739810251504,1.16925348338699,1.22819298634684,1.2244754356365,1.2730660752349,1.35019904616058,1.25398824608225,1.25384279744564,1.26604932548316,1.26804981131817,1.23853163077675,1.21370218691192,1.22128160368848,1.18465080741461,1.17140613384663,1.17974148922289,1.17961056934791,1.11364824419995,1.11416016435469,1.11459372632876,1.11497729565303,1.13215960455096,1.12379655508474,1.12232577375339,1.09145544170172,1.09178221892886,1.11444689816572,1.0801157498548,1.07964909791091,1.07069108606241,1.10944545678619,1.12225410683929,1.11688917520911,1.08306064642404,1.13432933271945,1.13260086048436,1.08837120368186,1.10345421354977,1.07119000654835,1.08272500418758,1.06325541161847,1.02768047677524,1.02709323653377,1.00800785535869,1.00766361754527,0.997965821497026,0.977567347774558,0.955615976454558,0.964893288103287,0.956116048729827,0.949471774853762,0.956575124378245,0.945116339870794,1.00534580712707,1.00568537528635,0.978260889531818,0.976576018075801,0.983205085811369,0.980158533114523,0.977231673937476,0.972155070472019,0.97260735911295,0.985304554574147,0.985654066872172,0.9845073410452,0.984818292703522,0.984746033502798,0.984051542460341,0.984534652600407,0.984135270449435,0.983960264909564,1.34053840403408,0.98285486122859,0.981464613521208,0.978777695635277,0.978642205346649,0.974957488388112,1.06065504572936,0.972449351846182,0.971436554906266,1.06353937607787,1.03163926946969,0.961742455771392,1.29411759831177,1.3325538367322,1.32935583532411,1.3430569158059,0.941031631493238,0.94215600352,0.941694260678358,1.2362869341745
1.01541164134752,1.0183291788254,1.02184972282147,0.986906675064089,0.985995759459843,0.985059409979947,0.984053998376091,0.980851266115699,0.977984930685788,0.976799731613664,0.976140370615288,0.996565934677315,1.01525637347642,1.00983818406245,1.00664684583067,1.00021162519549,1.00366168813317,1.00330172648379,0.999290901515319,0.997327834984707,1.00870155856188,1.02158875228753,1.03027514740477,1.05957344850295,1.0775059551857,1.08931048204256,1.10503595893801,1.11256312605181,1.11960546592187,1.12437885855847,1.10880165600687,1.08937701454699,1.08993119070144,1.10210737944368,1.10568820165402,1.10999490551936,1.11309104321333,1.11740796443813,1.11674740661956,1.11742740737848,1.11774532312513,1.11859144445649,1.14051129303668,1.14014956495918,1.14039209075939,1.14040016982104,1.13979304003705,1.14000388482204,1.13961096284929,1.138190064856,1.13843388114992,1.14067463228035,1.15209490236399,1.19449490328624,1.19502496575918,1.19163439888225,1.18951520196643,1.18828686981674,1.18752095045032,1.18702896855796,1.18735133308195,1.13401520059238,1.13375419054308,1.15120383174022,1.16801025764307,1.1845282956517,1.18706781749717,1.25748165695099,1.25514891717938,1.25436439423441,1.21089721495953,1.21312514669183,1.17671157719674,1.1460708430592,1.14103233849394,1.13454555935481,1.11879522333523,1.12003329043678,1.12036810148236,1.12716483748807,1.14241061967929,1.1776257544486,1.19875359331227,1.24543678447684,1.29475801386155,1.30437545940384,1.30359407408337,1.301764765092,1.29713260215156,1.29043646390252,1.26029694694458,1.20411650218102,1.19736007272471,1.1930176299525,1.16632519681458,1.15942744831886,1.15353375568301,1.15157205788056,1.14613989040231,1.13462614413444,1.13354265261062,1.1329666780017,1.12790062164663,1.12697200792642,1.11359060430831,1.1075418669447,1.11086178136995,1.09984162292448,1.0799232485992,1.07950731892023,1.07622791779632,1.07293716290898,1.06999669677011,1.06797234109127,1.06680915736922,1.06610099331221,1.06496024882422,1.06311343553459,1.06129772341254,1.05552344302142,1.05174068492704,1.0449072252042,1.03469752831074,1.02450428471591,1.01091907505598,1.00648154026819,0.996372481182418,0.986532251926158,0.970893920759315,0.961412797741842,0.956485943958637,0.952812864226996,0.950172407723047,0.971542649745974,0.971719117954892,0.97301121433427,0.97394540491249,0.974986439403682,0.976048560462269,0.976391233744765,0.97521685829709,0.973205552721933,0.981288388478037,0.983317609753223,0.983798650771587,0.983485026014228,0.983053019490548,0.982542192851902,0.982145499270989,0.981525249150765,0.98115536841936,0.979873645745362,0.980648907042475,0.979967141424392,0.978848769119124,0.978968128439312,0.972263376341503,0.969871183362699,0.966844338785113,0.964137182543954,0.961061700678975,0.95900468847804,0.956031593189413,0.951919807989098,0.948361736996414,0.94569717129388,0.943538734156569,0.942290491261082,0.942658682939577,0.942535460737274,0.943210589314376
1.02173856358684,1.06465086526093,1.02812298085112,0.985097430029364,0.984603229600929,0.981446480405549,0.984437988656964,0.976786209806359,0.976564813634019,0.976338269981263,0.976074857214168,1.01090641456593,1.01920727350895,1.01137318374321,1.00787176995884,0.990749604022946,1.00527052068099,1.00624383727606,1.00332901670597,0.997082944537394,1.00397427571676,1.02636414573043,1.02379513397832,1.04339862111945,1.07916202274826,1.1038711795196,1.13451598934584,1.10903703229358,1.1147154440999,1.12851200494649,1.1285582943155,1.08855335865976,1.09022001924599,1.12278331828233,1.16061934064492,1.15742683863433,1.15876622817629,1.14132716065552,1.14180457957705,1.14123595092205,1.1191669464758,1.11932674846405,1.14060415412711,1.14965652791977,1.23840908064138,1.19301832808757,1.13913773270808,1.13993557676101,1.14013455638321,1.1390691852475,1.14698562998964,1.13142218315807,1.16186308339639,1.20692376538291,1.20963033949807,1.27987525421033,1.17285556600522,1.2211743255304,1.21524132268102,1.22388726660399,1.18726082193381,1.13506892238026,1.13431804090308,1.1511385268657,1.16790447093532,1.18540998498878,1.18653213030819,1.26453419888135,1.25738805080688,1.26112198882927,1.20921249435524,1.21896926678228,1.2168208499401,1.14526040876046,1.14860855589941,1.13386166954531,1.10434872649067,1.12181543914843,1.12149752449713,1.13760776184342,1.13822206571068,1.18978653332893,1.16648822933304,1.28596643151481,1.34725362534909,1.34682877770892,1.32161620510201,1.31936558194819,1.30859111859942,1.31161309053948,1.29661457691315,1.1885992258072,1.18955564954551,1.33702221443657,1.14517861811235,1.14467038148235,1.13957716143202,1.15948209039526,1.14724177594437,1.13769502598624,1.13389211932821,1.18916117228896,1.18372147783282,1.18349036132347,1.16774814713531,1.10471484106015,1.11975139120693,1.12032612992456,1.08124457121554,1.0827260787261,1.06171645961533,1.06226411508715,1.06114924051236,1.05962131984936,1.05889385711321,1.05834208410568,1.06116572733951,1.05871027156427,1.05981340593214,1.04676661087313,1.03921904089408,1.05941348413993,1.05536414239575,1.03545560293299,1.01931285791166,1.01593964304656,1.00914120182613,1.0089174435819,0.97690879151098,0.972573125185819,0.964322675971317,0.947827197842652,0.948342152127816,0.969751527106054,0.970121483534003,0.959021876549833,0.956940777805674,0.955874856913761,0.96804279201641,0.978556280375183,0.977577357630092,0.967259803662447,0.978164591491148,0.983418324100579,0.981448373677764,0.982133699099932,0.981705354045263,0.980318513800423,0.980008763023224,0.97848890322145,0.977112374086946,0.977067426213394,0.976137970681355,1.25541287456097,0.973344075485022,1.00301222035127,0.963911785821584,0.965474528335508,0.965171293055004,0.964960560613005,0.960411795007598,0.95285643469815,0.95207144754501,0.951125327994361,0.94736972756933,0.945235895416108,0.942890736410802,0.942288106719452,0.942100902744323,0.941509488368445,0.941050002268466
1.0233807111974,1.02503802571338,1.02701002554705,1.00752321905156,0.996995457185275,0.981148966945302,0.979617187532267,0.977262026143091,0.975702194375995,0.976507647162256,0.976905731308072,1.01259841919793,1.01461735603616,1.01132567131584,1.008009677777,1.00589881745179,1.00507993374036,1.00484883059974,1.00433153373169,1.00473131252973,1.02265758336638,1.03233296733604,1.04471004765398,1.05843475163829,1.08037165442979,1.09171073282818,1.11494080364368,1.11171577359146,1.11152339781085,1.12758803503106,1.12621587069587,1.12386736897651,1.1359625174088,1.14611430970159,1.16032520262586,1.15939860319526,1.15956893435778,1.14471886870362,1.14287688395514,1.14203841473002,1.12939218594672,1.12935266783795,1.14349912705355,1.15091602549964,1.16437277741944,1.1566691184689,1.14741767712518,1.14562865119613,1.14228180847972,1.14048220475091,1.14459406113825,1.1460340852081,1.14799008403034,1.20699234309815,1.20712282473908,1.20517170803223,1.20385311634211,1.20229079208246,1.20265679584969,1.20311363232052,1.20257494307138,1.1516619743218,1.15578488624372,1.1594023341211,1.18081576478633,1.18823497234193,1.18873705090096,1.21238219442221,1.2278208246451,1.23671172304165,1.20721428684268,1.20503351602722,1.17846396249104,1.14535050300013,1.14808706672602,1.13561167155043,1.13324262278915,1.12206207126052,1.12223688677063,1.12820997208467,1.15800530140915,1.17767440416257,1.20597981881702,1.23371323065758,1.32041643032412,1.31757023712241,1.320095793175,1.31237291595604,1.30747796380838,1.3085230938801,1.26056398111383,1.19637377089578,1.18258515624433,1.16627657806346,1.14753415991183,1.15047960406874,1.15052375352613,1.1499503724715,1.14877086590789,1.16574236116852,1.1733531871058,1.17871101202432,1.18206178889559,1.1829018061204,1.1684799846527,1.1221228554475,1.10388205075191,1.09394125572238,1.07512526379674,1.07373969592874,1.06122132854855,1.06088742957188,1.05964278575379,1.05840389848858,1.05789637142415,1.05817300896587,1.06040420052981,1.06003496240027,1.05962509563745,1.05876993774403,1.05806251903323,1.05783648982829,1.05641865354284,1.04596279364193,1.03061052155214,1.01824186665558,1.01562987502977,1.00844598944326,0.982277809002325,0.974086333790697,0.962492563340645,0.960445189177769,0.962382777440088,0.963460583957188,0.962827262519849,0.961358329219093,0.957400809346154,0.95765896359845,0.959148091475412,0.960234627544988,0.961779837268667,0.964071892509975,0.980870501935402,0.982873702283359,0.98308024004082,0.981893521161196,0.98099246427672,0.979586796793,0.978925506221404,0.977845592751055,0.976707052665532,0.976222572630443,0.974763293434051,0.972968093506523,0.971307107737567,0.969438980342197,0.964964815116708,0.965154470637875,0.964028569389544,0.962735100691339,0.959167803487525,0.95109821238362,0.950413457597147,0.949711874675392,0.945118704016873,0.943234548327015,0.941774309526254,0.941149501201784,0.941269560057342,0.941112774075702,0.941487004668707
0.981601766366422,0.981720776016979,1.0276783155645,1.0290426095616,1.03022647315357,0.962887904405092,0.965661759081257,0.965558517659535,0.970262777497996,0.966561239778182,0.97752349613099,1.02452854667265,1.05828383268719,1.06894780582276,1.07769467259227,1.05685190580291,1.02327422622234,1.00419804936453,1.00441824883387,1.00484718203318,1.03444206668249,1.03975895794553,1.05868218682068,1.07431495450631,1.08167828726499,1.0814329793679,1.1180275951116,1.10579144662097,1.10982527337276,1.12739743768271,1.11019559315497,1.12072974712525,1.21932346743833,1.20737252357684,1.19253545645922,1.18637674212165,1.17180397827246,1.14622451019743,1.14843518028806,1.22904145257962,1.12851486594926,1.12839667564255,1.19102948446069,1.15076678862637,1.18272149897666,1.14921171764219,1.14980886006753,1.14731656345263,1.1428256424271,1.13638331182843,1.13612667746229,1.14916870865259,1.14122126866711,1.43614146816645,1.20685819365044,1.20582430818453,1.20338801373394,1.19658120586143,1.20439883919326,1.20537443034333,1.20731137842243,1.14675721676689,1.16193173144651,1.16203847201054,1.19124760005613,1.1900875015575,1.19076810346393,1.18972103617908,1.21725055760737,1.2985749897971,1.17309043012815,1.20083094300831,1.15063825146307,1.14079670476931,1.19154009874333,1.17083326209121,1.19326549879702,1.1213495970942,1.12178574045144,1.12088617201656,1.17118651331182,1.17015800534786,1.24566332527754,1.19747544946268,1.32815236666413,1.31213685640351,1.32288010641386,1.30606698950731,1.30681773780166,1.31003189968253,1.23352092709957,1.20607406449612,1.14623475672412,1.14570899200839,1.1463515889409,1.15255971274045,1.15869918017031,1.14918420276791,1.14844475644143,1.20855404946881,1.20879093864592,1.17550184836779,1.18908908110096,1.19112857949908,1.16890590138275,1.14178091332111,1.07269265868089,1.06967426373162,1.06893931384193,1.06084803364251,1.06166319907061,1.06178196638405,1.07534683541848,1.07394869379217,1.06820710312247,1.05652989030102,1.05202069155543,1.18113780894685,1.0698348969944,1.06810540801647,1.06894911476934,1.09292685491811,1.06240234262461,1.06641746570677,1.04232284911266,1.02299729486124,1.02375886827254,1.00878827535609,0.988301019000065,0.974836643879254,0.954398711758956,0.955808635469157,0.974708040802121,0.96452075100033,0.948177035996973,0.970900024621786,0.94749573218275,0.947499505659587,0.949945760478307,0.95218281135036,0.957653214592014,0.956889227403299,0.993017251962662,0.988113440854095,0.988843479424308,0.981001428867198,0.98074075384838,0.977980200761435,0.978143980431497,0.976599989367323,0.976266841209483,0.974940091907702,0.974099076194146,0.9715707981303,0.969842425503712,0.967026186352202,0.965430329068571,0.964909653588783,0.963346018969298,0.960940649109752,0.956066201469667,0.949959937002425,0.949928977508102,0.949493045678711,0.942660319310175,0.940323787166993,0.939901206614037,0.939039635132161,0.939710977711461,0.939603116919205,0.939930002625832
1.00877576985494,0.988472703391038,0.995310684570262,1.00298002004918,1.01017501909355,0.981362342942275,0.964638959753787,0.964642035736163,0.982157313411893,0.985371053410971,1.00927238786056,1.03937556857224,1.06334067437319,1.06521188291465,1.06286414300477,1.0615300766491,1.05946576763795,1.05733309386955,1.05532826350072,1.05239230069204,1.04999695364311,1.04949671237617,1.0587715452275,1.07759955020424,1.08062815761435,1.08094384420011,1.10713211647398,1.10713643853675,1.10870595294037,1.11564422402959,1.14018195122902,1.15999929311783,1.21514013152444,1.21205633811051,1.201236835204,1.17648637062925,1.17294812867752,1.15101602192893,1.15049505402009,1.15140061277162,1.13807463766364,1.13792001886498,1.16199711218653,1.16162373538362,1.1614780197503,1.14761888480531,1.14652121333379,1.14593728908866,1.14361846622517,1.14124209378792,1.13699171068226,1.14571503494962,1.14683815610909,1.24685032686886,1.22731905168263,1.20364336569225,1.20542829050857,1.20618379889757,1.20557033121163,1.20586500587406,1.20667352803719,1.19299167825438,1.19112195290027,1.18351991570961,1.19132815013218,1.19122996995692,1.19217318157925,1.1908844105181,1.18810095414603,1.18558107121975,1.18321981036159,1.1829500518062,1.15408123651708,1.14987624695389,1.15751892243809,1.16338276503893,1.19282150701175,1.19364000792879,1.1954403814609,1.19711865905001,1.19834272741952,1.20652549362071,1.24435117112368,1.25690040059298,1.30600183322558,1.30757884883043,1.30759493210168,1.30693031490575,1.30695182985923,1.30822973054454,1.26021756544543,1.20522476977634,1.17945053770732,1.14599388228869,1.1472917623409,1.14859281884635,1.14852093204192,1.14836516697098,1.147205279109,1.17408237172767,1.18363097456873,1.17976840217999,1.18993225222152,1.19028894980829,1.15096172694855,1.12902693266594,1.07912697485039,1.06882907591496,1.06769736058312,1.06461956322889,1.06516599115598,1.06955227066658,1.07354758924442,1.07391213595966,1.07446126638258,1.07479984691227,1.07516174345136,1.08408448177187,1.07217177788365,1.06682840911695,1.06778416407183,1.07597447831824,1.07324642646907,1.07062515017925,1.03924221132721,1.03354162943763,1.02826543344534,1.00958296920304,0.994131901040996,0.979867838721732,0.973777916499766,0.956871130188542,0.959282602748032,0.962134725057487,0.961476075855542,0.960789715035942,0.9468521125325,0.947123160628926,0.94812009532533,0.950420169890643,0.954960944976333,0.955949419032522,0.992138782859504,0.989682230626894,0.98746691126574,0.983639027154554,0.981501868547587,0.979404418046673,0.978507919710531,0.977450817445589,0.976036236662677,0.974604188373715,0.973216721210864,0.972338898461781,0.968954790100219,0.967897669899898,0.962916312424351,0.961866608467215,0.960198035135633,0.957308688619496,0.954552357793473,0.952654936837758,0.951898251572661,0.945106029734352,0.940219637975402,0.939330108700366,0.938700649374283,0.938293208099201,0.938518937616237,0.938392587771064,0.937880711908815
1.17798566928241,0.967319382583625,0.967694059087025,0.967311242225001,1.01766013921231,0.999626165769567,0.947849703996056,0.949943426163845,0.989644608316777,0.993819144691717,1.03315343393358,1.05477204993099,1.08915187169381,1.07133095759294,1.04569777943103,1.10721910099493,1.07492488686714,1.06173252490801,1.05712918976142,1.05185630088173,1.04746160988163,1.04747241945978,1.05869657334181,1.08476269381607,1.08131083749167,1.08158803525892,1.10643565395134,1.09331153057187,1.09924393327854,1.09402579093069,1.17625436493971,1.19016794138132,1.22215503478715,1.22216132961796,1.30910580005632,1.16109635953895,1.17445660715239,1.1513530017781,1.151391401989,1.15304714438212,1.13725225061143,1.13678257800484,1.17091528811116,1.15980305579965,1.16009999417621,1.14264068968325,1.14335872721631,1.146309868678,1.14441484956836,1.14333664970951,1.13558604237955,1.14222602879348,1.15487989457992,1.32772858218643,1.32983592814049,1.20078382936838,1.21043719075853,1.20600566855648,1.20613766577187,1.20597619100337,1.20726896085322,1.19529700602579,1.22157791127619,1.17053121050345,1.25419493393722,1.25184488860208,1.1951621630655,1.19206857596077,1.18661582873591,1.1838833019095,1.29178235080191,1.18487760202286,1.16495972227508,1.14516931754866,1.1450326531967,1.14595347608888,1.20084027179438,1.19325052198776,1.19594627531431,1.20311367005096,1.19993333716211,1.24385620904367,1.24345798462512,1.30874963398709,1.30762478530233,1.36527604094991,1.31097082273487,1.3108269836427,1.30822724984483,1.27982584857527,1.26935863272252,1.20375378145466,1.20487133012678,1.14417036436549,1.14816336784386,1.14660750842611,1.1357983878289,1.14297418026814,1.1447624843901,1.14292460475877,1.18923303669617,1.17747051705473,1.20764536631669,1.20776962584461,1.13452756025941,1.11562811004573,1.08691322895077,1.04824539914303,1.05165021780549,1.04820394418258,1.0726639138227,1.07179454908765,1.07160465604198,1.07938831993516,1.12310913216739,1.15667549135403,1.07591850625885,1.10370544220786,1.07600437340879,1.06304970647675,1.06147719918427,1.08131526363717,1.0793335771432,1.07277367057754,1.03475415602178,1.04043901402867,1.04386584907206,1.0105925911598,1.00000753142815,0.988478695805486,0.98993154932998,0.955330504997216,0.951847009454141,0.962728448828634,0.973060113130039,0.95979862480966,0.947185717085347,0.947146020464593,0.946744677499293,0.947178395466869,0.954393902489889,0.956303777692523,1.03646796350985,0.970613734651992,0.97086602776306,0.983475659833221,0.981673668477154,0.979025760613214,0.978690170974507,0.977728850069538,0.976162866283065,0.97308158723923,0.972405855811735,1.11855673752445,0.968484799180302,0.966962697171761,0.960732982272646,0.953161907024632,0.952146827501945,0.951792315180442,0.952443249133782,1.01380347680761,1.02645552860393,0.942208238306667,0.938668996858661,0.937536554510835,0.937524952500994,0.936585443652533,0.937156535053957,0.937232559447444,0.936502301925728
1.00802041214441,0.984715803543937,0.969034795901207,0.969654232603791,0.971808807013247,0.964888507423238,0.948891799937668,0.94954684501809,0.996356510553348,0.999946699118069,1.0273093001142,1.03566700148811,1.09015235862567,1.09169883742357,1.09325264585059,1.09457476233749,1.09221403487974,1.09164428761084,1.08988944850727,1.08664897199553,1.08102663429779,1.08110972881018,1.08063178399365,1.0810061047432,1.08837740847591,1.0941862463822,1.10786680699251,1.10941869518028,1.11095382439767,1.11173223518624,1.13483104925209,1.14967168541266,1.16063512588677,1.16964596068053,1.18342458219575,1.18107204279526,1.17811164067409,1.16053477105767,1.15834091614142,1.15609873547963,1.15442655436252,1.15468748630595,1.1547552070493,1.1549652819721,1.1552843903074,1.15385324421362,1.15274759252828,1.15195496926746,1.15164969925832,1.15184981221335,1.15382420174743,1.16034301565925,1.16555708297652,1.19840266853003,1.21000316733391,1.20991928361446,1.20969735386672,1.20833777669978,1.20651589472238,1.20650235371628,1.2066546360192,1.19851564431225,1.19545361121847,1.19335471241455,1.19144231318014,1.18884451250247,1.18570496672145,1.18249972250852,1.17969562976877,1.17739995529121,1.17543357369714,1.17355628622554,1.15233712804528,1.14455646010699,1.14490302626538,1.14566514769261,1.16700694786381,1.17817281019912,1.19810453664461,1.20253693711853,1.20176691689795,1.2201094268699,1.2443727012919,1.2638761603007,1.27624069560167,1.29368014000573,1.25383201366612,1.24786880353223,1.23855125893243,1.22945079930098,1.22233205028091,1.20309229235277,1.20344070687113,1.19852601697281,1.19307281671587,1.19372356671895,1.19526038673409,1.19596660656089,1.19585794205896,1.19503682373632,1.19289468737708,1.17776732607048,1.17326349847813,1.16904738177459,1.12231276148362,1.11498125035103,1.09977170199801,1.08494651511188,1.0829229567857,1.08062404920149,1.0728591600408,1.0723136444412,1.07193618531805,1.07707823406079,1.11162113860908,1.09903436205092,1.08228739788439,1.08144168179323,1.07941610928219,1.07844155021856,1.0788914217122,1.07989828401926,1.07884442542283,1.07580472986917,1.04594621405121,1.04317089230796,1.03721736944452,1.01260207641802,1.00549338081767,0.991972795861843,0.983898020267046,0.970269647920106,0.963773390900168,0.962278450923216,0.960369886675408,0.959830161288843,0.960591778360853,0.962853290112006,0.965641145939004,0.966849590351856,0.96786885777564,0.968759462553602,0.982182599972443,0.97753347332177,0.972325002317148,0.972885421628347,0.974380529828365,0.9769388081156,0.978509205141238,0.97870318393927,0.978194791898699,0.97222957140637,0.970440187955887,0.96934211239399,0.967180373400018,0.96480793440817,0.9634725615844,0.952745837529438,0.951464334847854,0.951788734672605,0.952558033667584,0.994372127511732,0.978998441463797,0.948062521997213,0.941364949747241,0.937209900554344,0.936923264054847,0.936419036582017,0.936163395389121,0.935685302495595,0.933330021792525
1.0059419686563,1.00590350780092,0.957207774651182,0.99754305224189,0.973039801187317,0.943765681468159,0.943835817113968,0.944111005061013,1.00144071056547,1.00582460941555,1.02172159980375,1.02325435413123,1.08948397226633,1.11283372253806,1.10448837247291,1.09534182619483,1.09332437082527,1.09421023078111,1.09432703767559,1.09448424475122,1.07605828051146,1.11229536434036,1.0801553080162,1.07783757515314,1.09504191385983,1.14974084556564,1.10690890650356,1.10816613247056,1.1105071870837,1.11272704410293,1.09704013383671,1.12020291867455,1.14024171623642,1.13991736454865,1.18627186266077,1.18609801819394,1.18702141796371,1.16159150598329,1.16342070161597,1.17027949152417,1.17146706224366,1.1566848503688,1.14911913059557,1.1539481934543,1.15295104164386,1.15463564532675,1.15897426870299,1.18558681689147,1.17010634307902,1.15116698757291,1.15671910379252,1.22024100873254,1.1729569611318,1.1783226872013,1.21013693654079,1.22914286301561,1.21182889823411,1.20966915016435,1.20721676336069,1.2067591747541,1.20705930072072,1.21397277629005,1.19121399532782,1.1949183728667,1.15912114519886,1.1611013386429,1.16425616771597,1.17176523401076,1.16979328221409,1.16960967367537,1.16822817788125,1.17139275339733,1.14452967525428,1.14284920478312,1.14478864342843,1.14574210875902,1.15648471543598,1.15616779204625,1.19797122992688,1.28813297220449,1.19442021691502,1.19410429549541,1.24550005119361,1.24579207924623,1.25691750010056,1.3515398154263,1.15321241321513,1.2130380890706,1.21297994598047,1.21276223400645,1.2142330432463,1.16206487393149,1.21977146307537,1.23407339453243,1.19273402265236,1.19249345286062,1.21238853564434,1.21294307108333,1.20936228112122,1.21046863071472,1.20209384379233,1.1787584302362,1.16401864390737,1.16489854211008,1.11315657943158,1.11400171655761,1.11490218255716,1.0882570542041,1.08820841632635,1.08776421625473,1.07466587064326,1.07267700499655,1.07120443055034,1.07556672350323,1.13931660006598,1.08853830051238,1.08347308096607,1.08225975711259,1.08449653754932,1.09416730319458,1.16804089062278,1.06641902553591,1.11663672523355,1.09588611048704,1.0504935730871,1.06207788313486,1.02961027904944,1.01429068085251,1.01014290343421,0.993766451090084,0.978513778124452,0.978693602742601,0.965116046336722,0.951371131738401,0.95363943592702,0.942688523734484,0.966401608416885,0.967330102639084,0.967259767072945,0.967033506752313,0.967916493801495,0.968812690232444,0.98701807318871,0.987381757710713,0.971534950755115,0.972750521535638,0.973515052795091,0.975256370561994,0.978108969023915,1.092043247652,1.17438068701829,0.96247585904149,0.968588418450093,0.960643639799,0.960598870137458,0.960466516498761,1.32174099651405,0.946618355123571,0.94755860048755,0.946582952521688,0.944601462293716,1.12507411925317,0.966337548799979,0.957428766907023,0.971313678166176,0.936760121569304,0.936976897860566,0.935669915956502,0.93535276430617,0.935904315392074,0.930149103803212
