1.16999705387851,1.16880783173818,1.16772727531998,1.16724559258958,1.16802870562806,1.17216051024498,1.18531281491754,1.21273496663487,1.1678423880851,1.17583717978465,1.27260158886433,1.30433409804879,1.18295133965115,1.16061250762252,1.19244613209635,1.16949217336913,1.18540219133607,1.16259979857792,1.15286633493756,1.14449527332049,1.14254740715378,1.14309661181865,1.14342001756472,1.1429183502537,1.14150641298875,1.14172594243167,1.19512038913152,1.3678847908364,1.23793180470755,1.1707949594818,1.16148016879251,1.15184169285414,1.16638241279861,1.19245499661812,1.15696710672029,1.13859819143257,1.1360711030757,1.13404962434925,1.13287464352326,1.12906375856924,1.12567879959074,1.12379996423179,1.12330914642593,1.12319669360214,1.12446152688311,1.12671030540517,1.12813559619085,1.12945772852953,1.13156243241862,1.14344026060947,1.18150825433778,1.15410311534091,1.16293575597788,1.18369908929281,1.15942568441951,1.15727171498551,1.15957215079611,1.16122851836057,1.16359290908629,1.15631494069851,1.15167703078705,1.14465769119698,1.12249306489395,1.10604033481933,1.10436346619821,1.12296960343811,1.13823895243389,1.15479375799323,1.16360986553017,1.18331256552102,1.22993249120364,1.25798835345611,1.27114893969388,1.28837550903047,1.29475226550631,1.28498650187467,1.30556289419967,1.32644821702584,1.33757639798513,1.31484677556031,1.3046727633826,1.3053147201992,1.32219033316522,1.30125544084969,1.32463119283133,1.34496903871449,1.34083902999951,1.30981934295041,1.31374702176546,1.3491414966147,1.35809454434752,1.33107497125901,1.29205951716051,1.33597812642086,1.3227599682383,1.37116704688364,1.37776457402942,1.3341277218051,1.32891931894571,1.36751832340699,1.415472551832,1.40260810360972,1.36725929717209,1.32556528196819,1.30561861852018,1.3036707217705,1.30299704533378,1.29846362453373,1.29561841681721,1.2871432330581,1.28890146942087,1.30310648696186,1.30804903445799,1.31152211292251,1.32656578403275,1.33283380906453,1.32585089138771,1.32240820153017,1.31141997743718,1.30157553801541,1.31474221045135,1.36036976357252,1.38158261957816,1.40757399516786,1.39551842351673,1.38654357184055,1.39338068577318,1.37963315712956,1.37491647316798,1.37309557283603,1.37369927709168,1.37196545737715,1.38687997690858,1.42394799883796,1.42783716391624,1.41999191233163,1.43586633290473,1.4309467389493,1.4090610057504,1.366258578289,1.34085992682394,1.35130924500476,1.35202353930919,1.35785269193161,1.36503734659102,1.369799022777,1.36056132421523,1.35347052113003,1.34192823682972,1.34408661439875,1.33684648097139,1.32261776515702,1.32237735190746,1.31070921936512,1.3073638657585,1.30268396944098,1.2942737018962,1.29692259265843,1.30584308520508,1.32398438651964,1.30855200367345,1.31191328545103,1.32349766557603,1.39842258849889,1.42970806181432,1.35347288252026,1.30486764804021,1.31047715048276,1.2990617401342,1.30054249802444,1.32636443469846,1.33820503253637,1.32876989243205,1.32891965765738,1.32218491474959,1.30479743152654
1.17011623944596,1.16889671534202,1.16781600476088,1.16691150062961,1.16696246185819,1.16805078153349,1.18174262604379,1.21488132432949,1.17037031010142,1.1547094562427,1.15830597683098,1.16650156627436,1.15599641383805,1.15505701579492,1.16587102045758,1.15728892647031,1.15851498759287,1.15364855790017,1.15103765322469,1.14447253744949,1.14280296968237,1.14308795819416,1.14345281103084,1.14274840809675,1.14071355095004,1.14076206339333,1.15330750087218,1.23003831428546,1.3214063555317,1.19682454498942,1.15830451519569,1.14951423654541,1.14363685332743,1.14191073239465,1.14136569469524,1.13954672485605,1.1388692581156,1.14180281703013,1.15495014412839,1.13399715037985,1.1261304622229,1.12493016234162,1.12405210046679,1.12356377830267,1.12454417307464,1.12732472234017,1.12830447204025,1.12970044894163,1.13005495075188,1.13343461755929,1.15862932877022,1.17775641285848,1.22098754760033,1.17508680031505,1.15443008395969,1.15847274744141,1.16151561044663,1.16352009995407,1.16754539531341,1.17503474026775,1.19262839868713,1.22180215365966,1.14308906122264,1.11464181363269,1.09914265253185,1.09536962047688,1.11389359129555,1.15770712940034,1.16809439906072,1.17421442105166,1.21672352145723,1.23564935892119,1.2471611976891,1.26855878268781,1.2981166934193,1.28610066909738,1.28833886143742,1.30174725400886,1.32889057841955,1.33732627031314,1.32179311939803,1.31209426210274,1.31740706480574,1.29193678500449,1.30279050498439,1.31565121758201,1.32419904867098,1.30369234492958,1.30233756902481,1.32671972579903,1.34859658052099,1.31127911152812,1.29097109095571,1.3081221146543,1.35440279114027,1.38407794333486,1.38411385961154,1.33552809897487,1.3303297912149,1.36402314124915,1.38809068017126,1.37640133526116,1.37452619136553,1.35458534057247,1.31330003046893,1.30399254920758,1.29708535271774,1.29389697182559,1.29138512470724,1.28766691907247,1.29432658497779,1.32296267347101,1.32304652692514,1.3164840564491,1.33185660914153,1.33571415650823,1.32695963474384,1.32142360213866,1.32150288712358,1.30594312984828,1.31583354894261,1.3726322470457,1.39483857157362,1.41692672939874,1.40603613456886,1.38434193293406,1.38702884319426,1.4065226256174,1.40701869766613,1.39567614260782,1.39079983728719,1.37812388242437,1.38591557975424,1.39045453675979,1.41429177022981,1.41968023435778,1.42816933380732,1.42423659872993,1.40697842611355,1.35746281041016,1.35555809227594,1.35433351070705,1.35308778168452,1.34959109283689,1.33992537640281,1.35419068474562,1.36183686207719,1.35261105499086,1.3322775629447,1.32620627818344,1.3235883952031,1.32346464501449,1.33311039551745,1.33678681748039,1.33814398497141,1.33566379613358,1.32027445905121,1.31687310061672,1.31703639553775,1.31552021705083,1.30855158945251,1.30737678987068,1.31076122727903,1.36447373486664,1.49049653382404,1.41904034585322,1.31586642686888,1.29761714782072,1.296270328194,1.30684691617323,1.31871208276339,1.33706863454585,1.33862312051891,1.33976701997201,1.32354308370106,1.28593713324615
1.16983575427766,1.16884341397689,1.16765487805851,1.16682428052765,1.16678750994782,1.16688088753081,1.17216651437215,1.18722926023019,1.17580404080238,1.16706824453359,1.15687297582708,1.15475977038376,1.15396851023972,1.15250764391616,1.15336911328157,1.15264630774727,1.15220503503804,1.15148533775525,1.15030529942134,1.14526719735104,1.14372912339443,1.14345424276092,1.14364925285542,1.14190370634107,1.14019708164521,1.14087914569896,1.1419464234003,1.15468896984334,1.18881310888924,1.15171380867743,1.13955008464119,1.13896015389417,1.13901740188608,1.13909320691291,1.13968799628136,1.1402683054926,1.14091888724524,1.16849521150926,1.25340130154744,1.16019308340498,1.12884412301209,1.12728032679492,1.12710305595038,1.12589495741077,1.12661024134991,1.12867844108923,1.12906879909657,1.12988298074849,1.13128867582043,1.147958300775,1.20219018297086,1.17562869471625,1.20155607157092,1.16519855620731,1.15449517090873,1.1580588764983,1.16309551053389,1.17060608401124,1.19448920835209,1.21427199974514,1.2350889466996,1.22616745963313,1.13767884008943,1.11102976994427,1.10255316029928,1.08937662573567,1.112014469081,1.15484110454333,1.17632855143269,1.17736079157825,1.20134536565804,1.21428472079924,1.23899615253714,1.27820003018047,1.30466276059847,1.30720005499695,1.2998733366488,1.29930907235686,1.32929109677916,1.35335097106188,1.37333314861653,1.36421409999953,1.32890945356059,1.31177279737106,1.33077508808348,1.31948786012539,1.30621070728007,1.30078921415299,1.29693470672286,1.29982365026992,1.3022603120255,1.29638097121805,1.30490556712237,1.3395863234838,1.3695693299683,1.38967020500884,1.39011882847995,1.35037954988938,1.33811645294563,1.34863605586824,1.37646228700185,1.36328074684609,1.3650329362681,1.33402864463872,1.31139404025079,1.30418602270837,1.29599692302981,1.29468394268968,1.29350413938409,1.28989982144635,1.29477959403322,1.320122680004,1.30383099544719,1.30525285639509,1.31750094042767,1.32261403217752,1.32350287750484,1.31797885070029,1.31603452906622,1.32034129695116,1.33445160849166,1.39931621665897,1.43978741271382,1.42140779006429,1.38455526400955,1.37697962540355,1.37965459761751,1.39799854654886,1.39449524048916,1.36717323081054,1.3672207926697,1.35803789657944,1.3794020808565,1.38794581080105,1.4041769718976,1.41273390310459,1.41527779165566,1.40077171076573,1.34939890214323,1.33850635407568,1.34330384908885,1.34306714729701,1.35311409572309,1.35226235369326,1.33363169328538,1.3333110594773,1.3348166429891,1.32013371394868,1.32028568794212,1.33269936307594,1.33590651092201,1.32797941703916,1.32977828931262,1.3365524239545,1.33635471789724,1.33702168334644,1.33776808435139,1.33536946563511,1.3177942681379,1.30864440277968,1.31353814298147,1.30902133900474,1.30957629136324,1.35219926975446,1.51629122493786,1.50546393456615,1.35043122798846,1.30748018550075,1.30666223826882,1.30311849273903,1.30416698435627,1.31082417081939,1.31274224188289,1.31944130874745,1.3177248590536,1.30602795435935
1.16915318917818,1.16872597779757,1.16812387157362,1.16694112148467,1.16660329516689,1.16683325964548,1.1680942759317,1.17269152274537,1.19919376407758,1.26141703523764,1.18066399368848,1.1551083495553,1.15381765897603,1.15201378996561,1.15110689578046,1.1509125059608,1.15174021075764,1.15204655639392,1.15094760397834,1.14585238955476,1.14392699500008,1.14265812170456,1.14340590519084,1.14337779835378,1.14309527435308,1.14139530451331,1.14203982640415,1.14318837559697,1.14483460244408,1.13763894851778,1.13542925731423,1.14506064883071,1.17355111580218,1.14860439023822,1.14065420150048,1.1406547815777,1.14222225893408,1.18028792604439,1.29433545147256,1.17416753657724,1.13343509308626,1.13002215347313,1.13127630339259,1.13830204985121,1.13186014020334,1.13033163375346,1.13026732585766,1.13057595618944,1.13216765631277,1.15170578788628,1.21341047330448,1.18230807794812,1.18945451422721,1.1640411236529,1.15731768898415,1.15645423867143,1.16254631597116,1.20389697240549,1.26672181403753,1.21634609076271,1.18589556466991,1.1454979872472,1.14358483561322,1.13377003118815,1.13146609788544,1.09932833538686,1.11649699675199,1.14271132257256,1.15851014968314,1.17482637172291,1.19902323639109,1.2100874138118,1.22024261234168,1.25054669293324,1.29673646536121,1.31171896890967,1.28202606256879,1.27468609780319,1.29600974618245,1.33883241362153,1.35564719027324,1.36523110046897,1.36641544728103,1.34824579119638,1.35181913911717,1.35891170507947,1.31472545337995,1.31089871945149,1.31308203179359,1.31443226746835,1.29982808538263,1.2879590393248,1.30245540434145,1.36395287575661,1.39368810935762,1.39443121265871,1.3728868242015,1.36816804457825,1.34793274041889,1.34950715517508,1.370903000641,1.35659705759847,1.35029577158082,1.31706326198853,1.30707748509772,1.30057523162321,1.30332162169226,1.30264187352174,1.30587018826031,1.30256499839274,1.29552093798212,1.29758828561604,1.29812021885211,1.32520916982867,1.32231208003355,1.32563331359318,1.32224703102159,1.31084754575766,1.31845617369832,1.33030455556914,1.35638293617199,1.40163035181644,1.41647326788387,1.39600975343157,1.37654485425835,1.38206832300816,1.37288239188047,1.3588986193811,1.35955367694522,1.36206385273897,1.36227224392082,1.3435765534624,1.37687934490051,1.38616978435936,1.37207998925046,1.38583650820826,1.38884479804626,1.36943013144205,1.3206577261564,1.30518602318334,1.31262553386189,1.31980539403516,1.32915010575817,1.33052648703173,1.3180210178999,1.31742345274981,1.31791521006238,1.30810123314858,1.31713666880792,1.34601983074068,1.35943873732892,1.33589402246517,1.33270364050247,1.32370998839387,1.31633592794632,1.31758488427492,1.32168214673061,1.3292727538109,1.31216467950835,1.30739475622677,1.33116125639894,1.3098804277267,1.31092036824142,1.35051073380336,1.48872989115101,1.49391763350012,1.37057317452405,1.32522372279882,1.33889038756085,1.31250524919292,1.30460840361886,1.30250286398886,1.30133077251246,1.30522484335181,1.3110299682237,1.30794376988325
1.16934941632771,1.16885452418228,1.1685980900526,1.16722117089468,1.16648785417731,1.16756364872702,1.16902225337437,1.17053031718063,1.23799996734037,1.43607543703949,1.22557756200481,1.15610066814836,1.1538354995997,1.15250154336386,1.14993051092492,1.14951082838745,1.14914627140473,1.14907363742297,1.14816241203351,1.14671609799883,1.14507046667123,1.14443620324963,1.14530976911305,1.14720358774926,1.15157368513466,1.14390130354257,1.14216812770264,1.14266417764703,1.14233917297876,1.13731809258925,1.13622743218363,1.17175925396429,1.28059194618069,1.17619041768234,1.14157607485535,1.14102176632745,1.14179096231892,1.15073266725788,1.17480795070181,1.14442598981233,1.13439620670327,1.13316765865444,1.14281233181463,1.17363113615259,1.14248171775265,1.13214367440748,1.131902372828,1.13161837239361,1.13214616237392,1.14990681267651,1.21566687889026,1.21304005924655,1.17513848930548,1.16048205158155,1.15825750876895,1.15686736487672,1.1752104938078,1.25855305558499,1.26069936996955,1.1671552307155,1.1480745050136,1.11428166380658,1.11142843123965,1.10325968265472,1.09539317784374,1.11200020984323,1.13216231105943,1.15148177484101,1.15971006114714,1.17924037775264,1.19286061081125,1.21128867060306,1.22100732038781,1.26056043285602,1.27501975938067,1.27985660228267,1.26283942230218,1.2933567314491,1.32745008147835,1.34303615760682,1.35087804034224,1.37148991606244,1.36474548736322,1.35077780431218,1.34885786192279,1.35884824812774,1.32001446939589,1.31865098623713,1.31069574096218,1.30255106948019,1.29661179913032,1.29410855978741,1.30586635720484,1.34617068549329,1.39550068634725,1.40105560574426,1.38107541194136,1.36285928243329,1.35675432539096,1.3574034000182,1.34793430412443,1.33371062972781,1.32483751098255,1.30570971015463,1.2967022689037,1.29978361317327,1.31886074994379,1.30676566794464,1.30968981587423,1.3291775495996,1.31483145474368,1.30147833930629,1.29436256214221,1.31444414389499,1.3163787301464,1.3219610706119,1.3108843491059,1.31089805518504,1.33399229235764,1.32952199840691,1.36482505504622,1.38490776122741,1.39336850481334,1.39367000301014,1.37799374960541,1.37145681931369,1.37417861776605,1.36030083228086,1.3302105633228,1.32635870234159,1.32895955338182,1.32569596970962,1.3373756877977,1.34508218985605,1.341883432861,1.34865858024479,1.35183400176333,1.35130144395739,1.32714620649402,1.30685218634859,1.31414590701282,1.30952276191663,1.32714784152277,1.31427844335462,1.2976294567956,1.3117466384694,1.32143702183369,1.30514465248156,1.30215487896335,1.29939280730399,1.30198410102101,1.32209347410652,1.35329640136084,1.33431350915585,1.32394238203185,1.31341447790932,1.31014301470806,1.31987713213911,1.31831740704426,1.30033989530859,1.30273775371642,1.30146616582171,1.30525590217134,1.33686474341444,1.36712265307491,1.37622598025507,1.35421218558028,1.34046263744057,1.33181910527742,1.31988953472112,1.31670614307155,1.30699738376303,1.30068323853206,1.30363664857237,1.31588457157896,1.31087487980078
1.17037449919535,1.16958487357566,1.16901522303132,1.16898293974406,1.16885953735601,1.16949769770779,1.1693745740209,1.16861797357458,1.18339546169645,1.22804186528838,1.17428495792352,1.15621005869517,1.15426304383716,1.15370142176325,1.15128106090483,1.15032888873549,1.14879990791367,1.14714795344428,1.14694600979303,1.14766913855493,1.14685043106075,1.14646161567302,1.14695711164608,1.14749262044134,1.14871227613331,1.14610652196049,1.1451540344393,1.14941970267946,1.15949249797087,1.1414953793923,1.13602164259483,1.1466742129229,1.18594179406668,1.1778251442606,1.14709776553478,1.14052692526489,1.14181993501506,1.14258945991264,1.14225248092553,1.13846312852657,1.13728933600864,1.13672310516306,1.13899104579473,1.14625935587153,1.13777277291119,1.13399087895689,1.13362847625448,1.13309666339464,1.13218813661218,1.14670336365962,1.20119746137575,1.20053210538394,1.16896975469668,1.16141680191049,1.15862695186974,1.15612005623593,1.15888799674155,1.18958281452111,1.22267900743642,1.14741570669432,1.12764406662591,1.11752529802917,1.11000231192357,1.10672919020677,1.09141605006571,1.11157697344088,1.14470487685339,1.15367921969163,1.16154031514254,1.18663348309929,1.20421084429782,1.23501985857189,1.23936142826242,1.26974871841629,1.25004011984279,1.24262113238643,1.25936788085939,1.31907707387241,1.33873722834044,1.3398426388791,1.3437109290018,1.35686879345906,1.34994402667544,1.34074233324082,1.34656039978795,1.32305940404578,1.31523686095168,1.33349298420268,1.3140853816377,1.28628126853571,1.28860675433006,1.28482381715313,1.2888007401348,1.31698677163725,1.36721515028878,1.38293054026324,1.3830059407144,1.3780128582456,1.34823401217156,1.3455032381232,1.33317768167213,1.31050667579065,1.29779139708202,1.29477665782573,1.28751866476141,1.28929392457065,1.30283115163626,1.30252864023722,1.30251657824459,1.30905043097565,1.31378368968812,1.29279368588813,1.29123053434962,1.31636526102823,1.31910323311937,1.31785425985431,1.31316669664951,1.30853368689561,1.32316436647524,1.34690322662069,1.37340530514973,1.36545533873966,1.36646118004176,1.3690416429612,1.37534336650685,1.35469346960737,1.34430187481925,1.33759000353814,1.32463787690723,1.32871700792473,1.32867966672184,1.32228795607109,1.3244541179228,1.33598293031177,1.33046561872445,1.31741609416972,1.31523284923011,1.31642806359419,1.3005651880707,1.3018597584708,1.30561598340643,1.30240486254909,1.32003718229929,1.29489390225555,1.27049515870119,1.27200978421736,1.27861709567833,1.27839960923656,1.28964145220054,1.29788171924615,1.28496466816335,1.29738919263967,1.33295649179767,1.33867102603989,1.35625405381507,1.31817396240235,1.28857293262818,1.28669029313577,1.29070840516569,1.29249891714824,1.30218851974151,1.30534854247295,1.29721657634033,1.30905827573759,1.3374847642757,1.34639779229692,1.3413622441664,1.33976141862116,1.33700492379821,1.32904811689704,1.32094448302303,1.31360105675755,1.3015001753977,1.3013021134671,1.30697209514639,1.28328713204007
1.17626615631813,1.18216719528367,1.17388359708352,1.17240038252345,1.17218527445805,1.17097698503203,1.17025954702538,1.16893759520475,1.16841507026264,1.16811976397198,1.16878636444429,1.15926542922928,1.15380558478364,1.15509011931497,1.15437945824831,1.1531943430395,1.15220586547349,1.14980985022961,1.14882878055287,1.14979143941904,1.14970483621615,1.14909890677733,1.14917805481792,1.14919765685803,1.14905826101116,1.14830177041436,1.14828912025805,1.16872506409518,1.21392894382299,1.15502718584282,1.13649657064985,1.13743373072813,1.167681109934,1.25250814247517,1.16738959037901,1.14567005322146,1.16411402521771,1.14874393172422,1.14265292167335,1.14003566653403,1.13898489209835,1.13865666629954,1.13858790174044,1.13825168818569,1.13690570039434,1.13602787894415,1.13553789539879,1.13527367194721,1.13418384682117,1.13792588711144,1.15914777423827,1.19209881829424,1.17234268323066,1.16404566921486,1.16196199157859,1.156809188993,1.15214338976029,1.14815472763823,1.16029162831494,1.14770461511457,1.12499021509725,1.10548281637495,1.09939350437515,1.10607288705101,1.09464779975336,1.11133580929445,1.13212435587097,1.14672039105232,1.17317284786006,1.20015489768217,1.21280462351028,1.22967946406058,1.25147208908732,1.25212038216716,1.24494856175962,1.25166376152065,1.29163154550178,1.33104651839543,1.33663174903977,1.33041315754429,1.33580597352362,1.3412981710554,1.33799620807405,1.34071329558131,1.34650252019055,1.31193995840383,1.30697915908962,1.31717891876873,1.29789062709283,1.27615291768227,1.27375055854326,1.26993775740582,1.27111329377872,1.28782927899807,1.31694953545127,1.36444717131067,1.37458117172006,1.37026473938835,1.35380469228017,1.34769132118524,1.33042842294091,1.30390873109561,1.28616777764063,1.28098190001003,1.28423785831436,1.28754640839932,1.29705527141277,1.30027761933003,1.29821465294656,1.29769679983376,1.29860782946178,1.2886885992929,1.29182264406061,1.3151418958518,1.32350842104687,1.32351744471743,1.31949778199611,1.31823880981737,1.33977124458397,1.40505981125125,1.40119137013928,1.38196812567541,1.35606987637284,1.34957041989871,1.35644301360372,1.37048149946715,1.3509666167621,1.32601559845382,1.32398495186143,1.35144423879656,1.35521258723067,1.32758312908746,1.32281968390174,1.32265831972362,1.31690427341759,1.31323425992659,1.31369711077571,1.31506682587762,1.29799308886789,1.30148691079129,1.30045368078024,1.2874583405862,1.29178092295387,1.27852704862861,1.26085822718502,1.26073355856699,1.26882644963914,1.27682089034064,1.29510413885068,1.30388061682741,1.28522200869943,1.29116865897149,1.29775936296393,1.30900515010026,1.31907234223998,1.32002334197813,1.28838905716679,1.28257088194151,1.27873682706801,1.28621712037123,1.31190036761847,1.298545916867,1.29294241015197,1.30245494607058,1.32292932506813,1.33893259975665,1.32556373740925,1.31801829155483,1.33328010926255,1.34925350774063,1.33506840456043,1.30854859932044,1.30045469960097,1.29982774704827,1.29247490268494,1.2829758949186
1.19085599603799,1.21863663212076,1.1859669929268,1.17470111015326,1.17375925888395,1.17179482290117,1.17089019201597,1.17024833935452,1.16962972328213,1.17583728433779,1.1993410421746,1.1402462535327,1.03157395284087,1.12461873073709,1.15472585890934,1.15443478104606,1.15590661296916,1.15727473207492,1.15350362057724,1.15271383115215,1.15244740476353,1.1510420618377,1.15100194916724,1.15119604745026,1.15001907803053,1.14782591923505,1.14605963563405,1.15192271536535,1.16499181602141,1.14308914451711,1.13651171269758,1.13674455028241,1.14426639751121,1.16625375214821,1.14594438040334,1.16295498570338,1.23616771979011,1.16867823814516,1.1452290959073,1.14073218256165,1.13892544097624,1.13872010965392,1.1387877423526,1.13851910547698,1.13739521820032,1.13684761788033,1.13650317717496,1.13793040375226,1.13699070907736,1.13780642164703,1.14737286733047,1.17781840130752,1.17786331047104,1.16611638799962,1.16207615985365,1.15621950837185,1.15015393998517,1.14391766956895,1.15144049939086,1.19738386358901,1.1396808005843,1.11450473497983,1.09875255570209,1.09576905808145,1.10207433462208,1.14810677348137,1.16698605819963,1.17821766714051,1.19181209677061,1.21964657490925,1.232653195392,1.2260626793784,1.24342276050916,1.24131147143336,1.24273430755024,1.24446441820568,1.2628424939943,1.30913539385195,1.32729770486891,1.32648632835751,1.33222562800462,1.33658583831092,1.33512380750671,1.3488748198382,1.35173615134659,1.31720393692234,1.31174271678769,1.31823328975006,1.28797270546987,1.27446754407204,1.27339028921425,1.27384470015835,1.26748174024528,1.27439390845947,1.29623306281403,1.34898725130326,1.36625907307822,1.38028333306191,1.35591054036768,1.34129682748834,1.31859163977497,1.29414735867554,1.28553038562609,1.27721408870523,1.27760795353661,1.28212110372253,1.29487814382936,1.30215057987628,1.30320045977767,1.3007123791537,1.29562213984497,1.29187878580024,1.29327425852088,1.30927936443026,1.32318476097081,1.34101170426368,1.32367267197353,1.32165209717333,1.35510501291948,1.41315282994889,1.38931351113595,1.38199687257081,1.3767990896913,1.37119977328559,1.35403714273652,1.35729177258336,1.34820359087808,1.32816722052135,1.32258847927325,1.34544255509036,1.35158647750714,1.32641853566368,1.3227077169828,1.31616800365656,1.31367835557977,1.31477909385708,1.31275433581127,1.31255913976923,1.30646210358735,1.29892915205321,1.2885891168233,1.28058081934397,1.29250187423185,1.28563137144587,1.2709346311566,1.26160277384592,1.272929623365,1.27198742016904,1.27053301867589,1.30428522499234,1.30995920531588,1.31204205869837,1.29307402870732,1.29509989692429,1.28821647582077,1.28726170786874,1.28163314050737,1.28142872820405,1.28124840682135,1.2794708250713,1.28275821877005,1.28970670629211,1.29589537155625,1.30810891312041,1.3119730097524,1.31736273295165,1.3406118139554,1.3202610109207,1.31775174968859,1.32989171823005,1.34500888923625,1.31264903504733,1.30919721974974,1.31317710004021,1.30387364219846,1.29775564103837
1.18353895590591,1.19044707425026,1.18170223337071,1.1768378183651,1.17556588171097,1.17403345201745,1.17206015131121,1.17046401885265,1.16959762403154,1.1703313998925,1.17543103161234,1.05141939034681,0.668859533605589,1.04842503624103,1.1654971252558,1.15750162526484,1.15615889033609,1.15585357834701,1.1539227658939,1.15327230408569,1.15330646869592,1.15336883151106,1.15385624519481,1.15355697693538,1.15110972722804,1.14642521703439,1.14386823426466,1.1435603550101,1.14356504753886,1.13821324803314,1.13683588025396,1.13733054933548,1.13843015772585,1.13872362709272,1.13862569244721,1.14487715357087,1.16433038487721,1.15569223601512,1.16554208261283,1.1447028133907,1.13812727439698,1.13809736209842,1.13821913944487,1.13800903771998,1.13722671394315,1.13701058443945,1.1361421264875,1.13944030918017,1.14019661844736,1.14665827792891,1.15034660292773,1.15770319482039,1.16297109117056,1.16245032175607,1.16347820860568,1.16382925190201,1.14999025074322,1.14404326993914,1.1447148982578,1.16676355311601,1.13174976792126,1.11669714019214,1.10111297921907,1.08949543231423,1.09439138224464,1.11976688001062,1.15316902512306,1.20611772701961,1.21606143162331,1.22183941718266,1.2229585101171,1.23530882657051,1.26042373051185,1.24445603016062,1.23994708153896,1.23669288886949,1.24452226748739,1.26470195371704,1.30479649838273,1.31190550935082,1.30485478308083,1.31586149527553,1.31339892533272,1.32024062616501,1.34055921209776,1.33288826228415,1.31614435458327,1.29332990694208,1.2812522955994,1.28097559665388,1.27901192190526,1.2773801382788,1.27087915039234,1.28679003380382,1.31810376875083,1.35714542170593,1.38341841000142,1.39301015219483,1.35547287555183,1.33585479902304,1.33856526198056,1.30427523316988,1.28784418161079,1.28078473145994,1.2777020554328,1.28013554467406,1.29634020027421,1.31967302337859,1.32414346867051,1.31655179364424,1.29907749607994,1.29776609669791,1.30530475594942,1.32385939742289,1.33234269246088,1.33253580262272,1.31954022292303,1.32752390472456,1.3606082528353,1.4023023445801,1.41130915024229,1.37300085089552,1.36581720847281,1.3749995319703,1.35831954530247,1.35620896699075,1.35292514284214,1.34758938590667,1.33448913303411,1.34465560099751,1.34424255082203,1.32503657397873,1.32003704808345,1.31706028946406,1.31677195006402,1.31661999455059,1.31110469158046,1.30940008514443,1.31086602236814,1.30840424870164,1.28413206302184,1.2745370861325,1.28183067176416,1.31228246379337,1.3144300840563,1.28121110393285,1.28171025878401,1.27111740080345,1.25377874824799,1.28347669516899,1.30031288420641,1.30737870894547,1.28104646040362,1.28734686717584,1.28293168631931,1.28524345192504,1.28976788286216,1.29293176228237,1.29350490955548,1.28176647027458,1.28181890235755,1.30105002461203,1.30217426684966,1.28224665758316,1.27589295427212,1.28379413733686,1.32270743396705,1.32756835047612,1.32997703756063,1.34015955391221,1.3354553111933,1.3173649229644,1.32299962800604,1.31170412783428,1.30253978151522,1.29406102237191
1.18097777637582,1.18121235183059,1.18059406678753,1.17829976228917,1.17714594131226,1.17609480742003,1.17356851668306,1.1714079897503,1.17042258071064,1.1702192990568,1.16985379906231,1.15151073773895,1.10459619230214,1.21698294127533,1.22029563284828,1.16845887272265,1.15671442703961,1.15551956874955,1.15471807225075,1.15416450512961,1.15435723949074,1.15499699999623,1.15464978588147,1.15127131240446,1.14870230015219,1.14636795625111,1.14444554805173,1.14269737830617,1.14165556827395,1.13893258751409,1.13882492987765,1.13894435119218,1.13894682261727,1.1387633189073,1.13883656011079,1.13914888439319,1.14082678115322,1.16416886936217,1.22837200604079,1.15911221682061,1.13729508332526,1.13748578522249,1.13777358039503,1.13769638568686,1.13694871259623,1.13687550307202,1.13778523181409,1.13965122906845,1.14318462150082,1.16575213309078,1.1589411003521,1.15742620638372,1.15857417679882,1.16118534986777,1.16958600384225,1.18923390653914,1.15702517224581,1.14950354483289,1.13457461088789,1.13015690855512,1.13086715897949,1.14465284903616,1.10057899892752,1.08615826320127,1.09099354588944,1.11291845996657,1.15567674148271,1.23215893128076,1.21255380286535,1.20938333347644,1.2279346581853,1.24350218609696,1.27023627821182,1.26781165371833,1.24199095268798,1.23521173330032,1.23885037636283,1.246101642724,1.26565577055764,1.27440207778576,1.26518348189731,1.27513742487193,1.29951849498576,1.29656084358648,1.29918152129968,1.30199760767304,1.29238988672372,1.28309556874866,1.28047380214938,1.2808331126254,1.27496162675935,1.2741526808091,1.28436081371574,1.30961727928796,1.33331947607488,1.34966202954114,1.37838940954091,1.38357834401338,1.35468815968276,1.32958783372699,1.3385994880973,1.33053526324282,1.29752208464515,1.27913359567151,1.27565362236627,1.27759852517235,1.29265996033254,1.30896798506372,1.31165735512699,1.30882473167348,1.30248090304419,1.30178328719071,1.30990996160273,1.33562701562083,1.34236389226263,1.32530044024658,1.3269953031606,1.35673124420885,1.37963083668678,1.3863626268378,1.37112610703887,1.36469854357386,1.36108694093341,1.37517876369626,1.37237992696671,1.36357864730132,1.3557476226711,1.36057412361618,1.36406096504006,1.36390072308804,1.35857205103315,1.34491532687824,1.34287133485375,1.33519710687021,1.32206883918818,1.31501405167027,1.31627113913494,1.3097875298765,1.31258745849255,1.31819346955207,1.28826135397943,1.28015330813544,1.27470071840499,1.28724679005549,1.31038808187097,1.31116781582624,1.28021015341589,1.27664703794608,1.26621046251524,1.28113292637316,1.28873599293435,1.28453873477029,1.27460170171655,1.28779454126425,1.29573119053964,1.3111212362203,1.32135504901776,1.31953170847845,1.29863497186499,1.2905658283416,1.30203349446487,1.3100973268554,1.30634692517094,1.26879249429938,1.26587192855432,1.28098871316869,1.31283616712213,1.32166085267733,1.33256747098709,1.35143511212189,1.32839961656133,1.3137635791703,1.31786968642329,1.29420343317816,1.2940259686948,1.28424364631213
1.18454637061549,1.18301484842763,1.18226872021873,1.18053252212346,1.17835436070102,1.17624605224134,1.1744597909158,1.17277524825755,1.17094119845696,1.17070305870203,1.17084064331514,1.17516766324455,1.19948168561635,1.24696024093308,1.2361834598733,1.17776517610127,1.17107423849616,1.16121863974877,1.15679915056007,1.15629729635926,1.15673224910018,1.15647083709492,1.12488073814206,1.02786211334013,1.12147569123519,1.14695946756241,1.14404311144141,1.14174166056807,1.14075563782906,1.14060891570108,1.14054805571264,1.13997934790869,1.13868726658222,1.13791436088955,1.13799762083773,1.13830865482796,1.1400702289282,1.15465549811894,1.18180496109815,1.1467267999621,1.13642655687239,1.137081240227,1.13772993639264,1.13764183001223,1.13602930082203,1.13468601164655,1.13479239971651,1.13526088435235,1.13683073009422,1.14572155418679,1.15523117092496,1.15692610442846,1.15698259454822,1.15781435132379,1.15974349187828,1.16689905719754,1.15744802483803,1.17458392984261,1.14834797132611,1.12533392918769,1.11981707689643,1.10981920785774,1.09330156266016,1.09183155892334,1.09597817996264,1.10224196054251,1.15201004056564,1.28423655998914,1.22688328231884,1.20900393122961,1.20340100676924,1.21149264223036,1.22834281374021,1.24356629510421,1.24418631370173,1.24472985135651,1.2472701132406,1.258414937747,1.26433466215912,1.25774296824328,1.25792126856583,1.28011755729769,1.30610613387912,1.31995020664296,1.3230598243212,1.3177211020901,1.29142852544793,1.28378410684311,1.28715197544034,1.2909798161399,1.28073748737454,1.27770714252666,1.29254075533472,1.32819826156202,1.34063481218423,1.35092728367857,1.37042409910752,1.36508814323031,1.35826150764943,1.32307779263673,1.32126384882435,1.33603624632823,1.3200806001026,1.2852334806683,1.2803747346539,1.2735281578191,1.27870212183338,1.30148981185398,1.31143251752228,1.30869961660037,1.30470535284264,1.31070799806733,1.33580899339826,1.36154949840404,1.38385341327324,1.35874570622804,1.35826227499714,1.36749544110814,1.37770881112139,1.38526742845,1.37152821136538,1.38345871140292,1.36611627279363,1.3713214706961,1.36895337002185,1.36010301464603,1.38809366536673,1.37438405326306,1.37229946174643,1.36618394897656,1.37323703114107,1.36693180957938,1.38016779332836,1.3716286931905,1.33278341754093,1.32510644076509,1.31374257509607,1.30728644558246,1.30147773251836,1.29843354536214,1.29327618765591,1.29963316835765,1.29503781738548,1.30471366079931,1.30888478547195,1.29974094643571,1.29015251037497,1.29135660752336,1.27930031132003,1.28199979326292,1.2868061335234,1.29123025819835,1.28346433043456,1.28936853370852,1.30808080429154,1.32237439380177,1.32832684516102,1.32489092003327,1.31453939680275,1.30614505011635,1.2965954004942,1.28870077301959,1.29742092481007,1.26789745495907,1.26609542303658,1.2942953955929,1.30394816553984,1.29031358780947,1.28719880483436,1.30313718632961,1.28946085078309,1.29170200145633,1.29677826560471,1.28372062297582,1.27989072019772,1.27618616418992
1.19524760899237,1.18720486540108,1.18506989436412,1.18631868742585,1.17929122255197,1.17553161682723,1.17419475003628,1.17298097330396,1.17117069411904,1.17086146710407,1.17171569012231,1.17543275006411,1.17999526611339,1.19104919803567,1.18960724275885,1.18672282298405,1.21826266343645,1.18744457424634,1.16209637332752,1.15817900797188,1.15892537796061,1.15656770275287,1.03047267692176,0.651770091206574,1.04179516992774,1.14706572033311,1.14194077899141,1.14080490747395,1.14011792868979,1.1402496099053,1.14077286665308,1.14045741184737,1.13805901492435,1.13682668339362,1.13628852131908,1.1351249977175,1.13978369170903,1.17541812093774,1.22532748822648,1.15672021314788,1.13607394530515,1.13645844339992,1.13744741928253,1.13697013859492,1.13393603786189,1.13277235605117,1.13299774446935,1.13376837254268,1.13611110252428,1.14645565740804,1.16390585409495,1.15885559660844,1.1562722171715,1.15698414437115,1.15743264416884,1.15344365183235,1.15032215645191,1.16508656943962,1.15859845001554,1.13175705564487,1.12106182887132,1.10705742840575,1.09481509283416,1.09489703558672,1.1020417569953,1.09581386729265,1.13562381805418,1.20090179060614,1.21003247931279,1.20340568978954,1.19926801153396,1.20402164970257,1.22079156315396,1.22558237164632,1.24507859325479,1.26563013897758,1.2682289999263,1.26649147414579,1.26761307571554,1.25965995540523,1.26601803999489,1.28455136872252,1.30437005805605,1.30386691807085,1.30331235454846,1.29613190078009,1.28867607906626,1.28845124150936,1.2891640289359,1.28857524922161,1.28090553175242,1.28544081283184,1.30335396168883,1.33621860533867,1.34811933116991,1.36023926127204,1.35692046914326,1.33496263597454,1.32495536547853,1.31449022739555,1.31432970788555,1.31561676683926,1.29424407557509,1.28690081261596,1.30128585066036,1.27866723313483,1.27385568359422,1.29741980792531,1.31989577980207,1.31181522630719,1.3080734296756,1.32253475923357,1.35798612834319,1.37464984111751,1.36778816812531,1.37962685227042,1.37444383488305,1.37246762507635,1.38720242800079,1.39139616313289,1.36803758429282,1.36518333729319,1.37084510115669,1.36839855006912,1.36598834966697,1.37503629725465,1.39091319368478,1.37347083759327,1.35644484249964,1.36147510730707,1.36992636442981,1.36247448822248,1.38805343024236,1.38836363757212,1.37338204864775,1.34184624836562,1.31533758305706,1.31152433130607,1.30849649424566,1.29945252158502,1.29716198750312,1.29485367589295,1.2924511684838,1.29586684269473,1.29420371477932,1.29589360091971,1.29801986933278,1.30028394588816,1.29420465820541,1.29757994335805,1.30222923060695,1.29133631842081,1.28293546579507,1.28689965398272,1.29970795202237,1.33423401131851,1.34611850584421,1.32949611505141,1.31924544767109,1.30549206052386,1.32420915530868,1.28650164790421,1.2866734387944,1.27215743300817,1.26060231979206,1.26364838521795,1.26968355039468,1.27062091859656,1.27445766164739,1.27789375010706,1.2634075559191,1.27006577628083,1.28173024794666,1.26539629420337,1.25738040966091,1.25394535061051
1.18793359026102,1.18623471087643,1.18865584676675,1.20000347485761,1.18218286545246,1.17551778525355,1.17389130270972,1.17284428092428,1.17112092337749,1.17057858762183,1.17097676729291,1.17441027975502,1.17589835254951,1.17592818388631,1.17624312086147,1.1790267210681,1.19987166878497,1.22948501482002,1.18741298586803,1.16292436924451,1.16049505251399,1.1589343292389,1.12577321392919,1.03325044060908,1.13587846942147,1.14689185407858,1.14023911728375,1.14020296367965,1.13970342717053,1.14013553772998,1.14062617026032,1.14082528730826,1.14008940882414,1.13836107648386,1.13641797089274,1.133954836693,1.1344680896414,1.14411678822521,1.15763315507092,1.14061606370666,1.13561611892058,1.13584161934254,1.13599479543709,1.1351478325455,1.13339978425587,1.13258506940461,1.13266412892006,1.1332476130486,1.14157611667524,1.16904192674819,1.15966263280776,1.15575513441347,1.15441431556688,1.15918021903313,1.17112237009906,1.16685467309752,1.18198857522737,1.21250588018262,1.15083195278897,1.13375390026524,1.15238906431372,1.14195488537109,1.10374581592544,1.09367489378379,1.09958077939693,1.11795425356165,1.16014510581413,1.18316194017284,1.2074733157572,1.22584685691782,1.22631257113794,1.21026702912915,1.21756068797243,1.21627185231235,1.23041817557535,1.2722456202421,1.2805147220488,1.26240809067137,1.25642159586085,1.26387890363381,1.29464164341519,1.29777034604995,1.30729913371027,1.30475349698597,1.30755647984907,1.28946383279797,1.29285571060646,1.31272381665428,1.30249470324399,1.29573188771819,1.28996305317086,1.29574291353181,1.32397313315561,1.34388294623539,1.3509354992212,1.34559416240992,1.34583733947844,1.35345564872313,1.32568912933876,1.31740576054732,1.31815259731312,1.30658992203592,1.28792213775547,1.28584912583968,1.28806204113651,1.27224405314498,1.26786191464532,1.27983001593861,1.29978420865291,1.30515674169554,1.30503182014312,1.31562754283745,1.35099296614474,1.35276701572601,1.35586711911476,1.38637859137419,1.38934936743191,1.37666600289592,1.38834503933127,1.38583789799057,1.35615937382962,1.33942203230459,1.37009333186911,1.35775156244132,1.34360501417567,1.3388214118848,1.37972924111151,1.41717634367879,1.36377931346388,1.3556453532547,1.3575249657998,1.35398926842022,1.35883156235499,1.38469106978841,1.38415648516726,1.33790501558758,1.3208208521317,1.33403051888724,1.34342904289226,1.30992125067586,1.29911752855844,1.29760708866967,1.29175242024273,1.28751383046043,1.28718560716611,1.28850544525455,1.2983808414434,1.30000144830893,1.29921836442568,1.30333180512336,1.31759876284208,1.31300536866413,1.29091513836639,1.28714224631207,1.30365759921286,1.33417405568972,1.33673112540068,1.31641515029185,1.30355540446268,1.30576142768764,1.32401370957207,1.30419675152602,1.31872331563221,1.27360625963982,1.25485760157369,1.25944657834834,1.27048099616253,1.28242498845095,1.27586304918178,1.27485683229289,1.26838670929488,1.27509002430335,1.26790581992139,1.25935241538407,1.24436134882523,1.23780232654597
1.18668698675331,1.18614482429531,1.18358264093754,1.1848187185502,1.1779095468147,1.17504013475704,1.17362961203533,1.17224912348256,1.17090310484284,1.17007651675655,1.16874509791621,1.16930703361377,1.17003993859669,1.17097848265615,1.17461748319364,1.17604065209451,1.17947925247913,1.19954149027535,1.22054135792003,1.1744062271788,1.16103790691742,1.15952971592096,1.15680936398412,1.15469758334802,1.16080739450526,1.17741369864258,1.15013866613022,1.14330843438557,1.14271877625842,1.14242018387999,1.14245627432713,1.14236212895612,1.14177254728148,1.14021498321411,1.14197843598887,1.15453347086195,1.13779912542279,1.13208679797241,1.13493704287638,1.13525084850989,1.13546021069981,1.13570529997419,1.13581929272631,1.1353450426011,1.13401777695135,1.13559728595881,1.14199204433085,1.13555012275847,1.14617955951585,1.18734023733316,1.16057310791594,1.15206976656415,1.15122852565648,1.16504445824996,1.20331418270045,1.18665770625299,1.26410258237704,1.26167206961025,1.15481838866955,1.13448280656493,1.15080611261226,1.13446842161865,1.11185072953415,1.09602460742651,1.10349805161177,1.13984874864611,1.16224263979789,1.18006343025099,1.20025862675101,1.21544720380518,1.22334723462029,1.21952297694157,1.21336148510793,1.21269813743304,1.22487258042582,1.2518491701441,1.26524914205792,1.25842642602113,1.2571650372622,1.26836325818094,1.30381864478635,1.32132941981955,1.31701880982508,1.29765292627847,1.30057356112068,1.29561801386739,1.30392529853856,1.315169619366,1.32816626092195,1.32385217584167,1.31444706420229,1.31905435599854,1.34498396981337,1.3461300146893,1.34761267673633,1.35894018695381,1.35868097532618,1.35943109591529,1.33243173337415,1.32438213105767,1.31980966639539,1.30346654063004,1.29793773863077,1.2910486290259,1.28775259837567,1.27598229145168,1.27049951498582,1.27828427794937,1.28672557232079,1.29433891647898,1.3214265054838,1.33963511954474,1.36586606879474,1.35346141245037,1.35410801472566,1.3687324735039,1.37822369750091,1.36797788824935,1.38003056758473,1.3612227255105,1.34975763905628,1.33458688268633,1.36343611294937,1.33915540086884,1.31799518178937,1.31715376740843,1.35458644804,1.36557225668269,1.3505343826535,1.34696729350921,1.34482969770888,1.34350850243533,1.33767826123255,1.34723667063891,1.35387095438975,1.33018616782958,1.32690433163453,1.34642649617105,1.34866478716176,1.32233743071396,1.31000284924704,1.32253273397789,1.3103499322735,1.29005718715647,1.28815074332255,1.30020208363183,1.32107255535955,1.3107148496531,1.30484443840885,1.31059965576167,1.32941489758636,1.33268698146486,1.30252194436646,1.29847491866973,1.32803493190316,1.32603045301838,1.31617506453644,1.31172202382258,1.30244282626482,1.3045983959206,1.32347747546729,1.32672612184098,1.29344007138721,1.28043500525422,1.26664395044587,1.27655801501225,1.27444500152992,1.29277757540149,1.3037323995397,1.30881536336307,1.28164322904886,1.26857234076302,1.25497339192302,1.25732706902579,1.25587516249592,1.23707883794978
1.18718189913747,1.1865157852892,1.18355855836271,1.1806701101333,1.17714905882628,1.17498488417364,1.17365917393,1.1724343669803,1.17131399933482,1.16985380089958,1.1680991137673,1.16735390898118,1.16799047672851,1.1690147295534,1.17152392977962,1.17463830892387,1.17482227071468,1.17745970409931,1.18400843017232,1.16768670470604,1.16267118153631,1.15908890723447,1.15776903013942,1.15728829999402,1.18893761915642,1.28855143237819,1.1824550291088,1.15763024582999,1.18590329858335,1.19086554825981,1.18164913546611,1.15160911233553,1.14394922746773,1.14186403685394,1.15816950902959,1.21763663487791,1.15069755152213,1.12931420092189,1.13249320558624,1.13465173136404,1.13521309593255,1.1356797866481,1.13569528546113,1.13561355196096,1.135986615054,1.1448795984568,1.17162941171895,1.14577577184416,1.14040016624348,1.15127407253272,1.15054710352052,1.15184621224189,1.14936701102712,1.16937437161784,1.23410065306331,1.19246875540784,1.25786318637006,1.22681238198917,1.14551552380912,1.1238715608827,1.12892091867489,1.12866587079132,1.10497116802545,1.09433706192383,1.11132513258945,1.16360773421206,1.16039365946093,1.17012270420154,1.18176218657363,1.20104905899526,1.20939846791769,1.21337146373802,1.21226146550047,1.21348123450301,1.22278067793697,1.23699736509476,1.27172869012057,1.26452557380237,1.26947445182676,1.28693681816763,1.29119832693529,1.30755882330591,1.29754730023306,1.28830636673636,1.29559361965113,1.32228746342466,1.31992003494387,1.31582330642718,1.323962466311,1.32680223675137,1.33225063402859,1.3341821865569,1.34214547838815,1.35093300515882,1.35434545492689,1.34873590947492,1.35015871490716,1.3623305744065,1.34000219570342,1.33103913301555,1.32310016571673,1.31561780454174,1.30033896227166,1.28590529801088,1.28127966503699,1.27726327941779,1.27872731780319,1.27609804082515,1.2742318837388,1.2876914473499,1.30053825348862,1.32551725394784,1.33672748651678,1.35822874045192,1.34458921963637,1.34271784531665,1.3574024856551,1.35316764023772,1.34758707306004,1.33312618200447,1.32826278851566,1.33370883149482,1.36227942895064,1.32561677128044,1.32189113562501,1.31411233707541,1.32364911200642,1.32823303406276,1.33922134939188,1.34154203054121,1.33444663133633,1.33523128722082,1.33356621454959,1.33263789191812,1.33139192524266,1.33134060504811,1.33121537786766,1.35073321732394,1.32996704069324,1.32394715169373,1.32174798533316,1.32894341248805,1.34041595665919,1.30333741111499,1.29897292146751,1.32766942097135,1.33468209317765,1.31079314013109,1.30552366904096,1.33371789330665,1.34653057948576,1.36100296047046,1.31718612282008,1.30338743170419,1.30841338948173,1.32183003754092,1.31382585754645,1.32593917614753,1.31325582515291,1.31769528771567,1.39347126132224,1.42316573452771,1.33181035774292,1.29247779770676,1.28679057971459,1.28329651980242,1.28257896855496,1.28809503590587,1.29941844654725,1.28786758895513,1.26829350306171,1.25619365292969,1.25370858805943,1.27349719026836,1.2728641563849,1.25029926143659
1.18712806489455,1.1854752954154,1.18263145464435,1.180180625588,1.1782513452883,1.17688603949104,1.17476366392692,1.17393266837618,1.1729136112251,1.1705095444922,1.16804683252516,1.16693705731905,1.167079092563,1.16799333994179,1.16957207560626,1.17134244652505,1.17239231911583,1.17391632095649,1.17371810103718,1.17199447025551,1.16980979659506,1.1610647061622,1.15971784802039,1.15939973444371,1.16990388025058,1.17288805068928,1.04866620877217,1.19827467474014,1.34651087408787,1.36717088185283,1.3059002409829,1.17654946010389,1.14552004930215,1.14222749335157,1.14667793703508,1.17270701393822,1.14050907523811,1.12930575978295,1.13131685655453,1.13268400260892,1.13363815863281,1.13504276747516,1.13473653386828,1.13513891091469,1.13636444579542,1.14088816879475,1.14853862709411,1.14153336324707,1.13924256315766,1.14030455185195,1.14210526946237,1.1456817614573,1.14603221351994,1.14883750921511,1.16394771693643,1.1673324803407,1.20897192455774,1.16019080194591,1.13181041597607,1.12743784536855,1.11753366110404,1.10832809730704,1.09611331733095,1.09867413801525,1.10723146192489,1.14310218652066,1.16200988787992,1.16629692318367,1.160675700565,1.16983893705765,1.1943648000841,1.20845114071041,1.21152736892238,1.21975561538551,1.23291688362641,1.23004060946358,1.2476685185068,1.256808280262,1.26744605047801,1.27742533751704,1.27739437292298,1.28473147738935,1.29937873714123,1.29973911295058,1.31007519068271,1.33842853090629,1.33291880213171,1.31836102841815,1.33154968095674,1.33615398119338,1.33383638996345,1.32673592501229,1.32997342183868,1.34694756680383,1.38109099889441,1.35007717063769,1.3458188324009,1.35703891694542,1.34670395179386,1.35298796756746,1.34220977868752,1.3231256991061,1.29708287324325,1.28606854444327,1.28205994747598,1.27676493366412,1.27860841777461,1.28263767420702,1.27771226131739,1.28605998664939,1.29662675403684,1.31576133334674,1.31437230589218,1.33448850944879,1.36526289049591,1.35453814201014,1.33783420750338,1.33491769571969,1.33070952216226,1.32470671839992,1.3239711837893,1.33073545832302,1.33857912269735,1.31702813486488,1.30865676198513,1.30719218052537,1.30739052713155,1.31812106572657,1.32433462326221,1.33417939008211,1.33557634068005,1.33545567830072,1.33444723004196,1.33186060813946,1.33516658750226,1.35776155457464,1.36604966130967,1.43972391842661,1.35880579307661,1.33239508575304,1.32239105940944,1.31484162682463,1.31674347169062,1.3016353648973,1.29727602240626,1.30742216051489,1.31050471487691,1.30060664207213,1.30683490384485,1.34276861947107,1.36421451604606,1.37532816673917,1.34531680040987,1.32795448618974,1.30618435371671,1.31840313204272,1.31313099240025,1.33586170170178,1.32633284743824,1.31030128771597,1.34242652175609,1.40361684931579,1.34027520575614,1.31731781086606,1.31657507371396,1.28955232441118,1.2824233489987,1.28408898454197,1.29732649435344,1.30043230382175,1.29140797733692,1.2690313088401,1.26180378243813,1.28660148369424,1.2885821898951,1.28708314520301
1.18682467234988,1.18400263253549,1.18142737074795,1.18008192839834,1.17901956446479,1.17812752539103,1.17593558961886,1.17508365698144,1.17339151527849,1.17122527411929,1.16802374088312,1.16677356654058,1.16644788715114,1.16714978613538,1.16883039884357,1.17008021091746,1.1712340480744,1.17351194584147,1.17399382666988,1.173701410051,1.14438960060054,1.0409727899456,1.13190236685983,1.16283240303354,1.17077069663479,1.07396420708965,0.700120364608359,1.19989875081108,1.2538181114059,1.31774594679473,1.22090076715619,1.15617876900116,1.14524200680757,1.14307458110902,1.15791511278162,1.21167251767348,1.16847411918601,1.13577003911647,1.13123983801594,1.13208465563212,1.13236813571185,1.13272218055807,1.13304404430081,1.13420992445649,1.13915121955634,1.15245054415091,1.14532979094589,1.14090290873742,1.13906229398751,1.1390222549324,1.13949713416877,1.14415136521213,1.15391230427365,1.18800201516056,1.18934776093359,1.17184122157229,1.17952901668323,1.13966266799146,1.13596732135083,1.16639815339387,1.16442779373404,1.13227858197165,1.10989645295779,1.12683287068975,1.11921554682052,1.12011354332545,1.15070015510258,1.16021418079301,1.16079283051456,1.17530809756124,1.19205543689255,1.21141476399542,1.21541672473793,1.22346680455679,1.23686644184444,1.22844245057283,1.23091269406053,1.25047785628723,1.26969752178455,1.29950181835832,1.29755075908619,1.28690916742743,1.29347547260728,1.30090155427217,1.323319251734,1.31450115965873,1.32382030778082,1.30917350606456,1.32174745249267,1.32945039001489,1.31716903981514,1.30836925294285,1.32009256193534,1.34856337965282,1.38049921406815,1.35609273274209,1.35304435804724,1.34322432400596,1.34636911530845,1.34717113908055,1.32690168436716,1.30525105017734,1.29636763814844,1.29933667352885,1.28610607294229,1.2792424336172,1.27932693283532,1.29137397178581,1.30804341763409,1.33739339078178,1.34965516292947,1.32634373901316,1.31280214660751,1.33836111128457,1.36622768722318,1.33925985119947,1.3291087915816,1.32782445748788,1.32763469079934,1.32821963896859,1.32770830823275,1.34033418116117,1.33487449333389,1.30992907398999,1.30533925195595,1.31455838455604,1.30769709659971,1.30894323562667,1.32016623621915,1.33484845754423,1.33447782048358,1.33743177851841,1.34075983904783,1.33599960108868,1.34247155146573,1.36135182928388,1.35833642310749,1.37029133209322,1.3519289509609,1.33841976445586,1.33097858395642,1.32658034281605,1.32543136765107,1.31203069179525,1.30236498761969,1.31274630287345,1.31320328829256,1.31288357858218,1.32263405346356,1.35021962803961,1.39480132194904,1.41343184341628,1.38728926708575,1.34979307644372,1.31250403545596,1.29773290066036,1.2880346520579,1.29949203498427,1.33147861135607,1.33096205750027,1.33343406946631,1.34576037963393,1.32150672682704,1.31304915750544,1.31039973760183,1.31574339474927,1.30651288381908,1.27851318346741,1.27259938867593,1.27451863637559,1.27179937251626,1.27346829944261,1.28224562118621,1.29732975256902,1.2819449464593,1.27275721428465
1.18619806258808,1.18284985315478,1.18099308890097,1.18096777212816,1.19562516498264,1.23757607043923,1.18908857492611,1.17335105712819,1.17243413996201,1.17055791846948,1.16798390272532,1.16625239944409,1.16609309983935,1.16685408667418,1.16837798550975,1.17018924697105,1.17216800384192,1.17413274146037,1.17492970709141,1.17942051009821,1.07342768904416,0.666709323352371,1.04471269283282,1.16487343708808,1.16792846029587,1.1426096440304,1.05551033296775,1.09686187512899,0.749181534013816,1.10801758323917,1.19841947180003,1.16926869371327,1.1508049622765,1.14459401274992,1.14697587252675,1.17504830425506,1.2144446937913,1.15967216572291,1.13447839313027,1.13224200353298,1.13234971595785,1.13218904632762,1.13229705211746,1.13317861957658,1.14652676862303,1.18476723271938,1.15334414255804,1.14212125921429,1.13911020324278,1.13879745608011,1.1406162462716,1.1473333516068,1.18825237113904,1.32524850982887,1.32144398520009,1.1745875556935,1.14066005353005,1.13717561079644,1.14700060960961,1.15616840698737,1.1533945602208,1.1416783752734,1.12851391342572,1.12471126092954,1.10425447463393,1.12549900405837,1.14346287126441,1.15360055217506,1.15968471719839,1.18152954295727,1.19847557428044,1.22691517063802,1.23060012689545,1.22287503516058,1.23189810313981,1.23602466896858,1.22771212671464,1.23771696465412,1.2723929901291,1.3206193961031,1.31363349948894,1.31070959364517,1.30112541769145,1.29939726350704,1.30249526174884,1.29515911769496,1.3018531081479,1.29630246019772,1.28973832273713,1.31413172238128,1.31802463908278,1.31922190653535,1.32273710143403,1.34359375369902,1.34812060013168,1.34226212180254,1.33661217730819,1.33867174509421,1.32895613954306,1.32594856290048,1.32350364247703,1.31516887907078,1.30868657967003,1.30482868846267,1.2946565037597,1.29917242220036,1.29408975148384,1.30381456811174,1.31662085068452,1.32149576287212,1.32997343478561,1.33287924863733,1.33221919107481,1.32426377814075,1.33902175230074,1.32301804005608,1.33083100703161,1.32950931085681,1.32868495052908,1.33007853625199,1.33444331835548,1.3386857662398,1.34230824766698,1.31305794244467,1.30734192413917,1.30965541903152,1.30721112030497,1.30473976544989,1.31100467902155,1.33162443732426,1.34058777121607,1.33391900669196,1.33509243458145,1.33831692567088,1.34473005211003,1.36000476522295,1.35945901569083,1.36622401501796,1.34525868018288,1.33614838556142,1.32732761832171,1.32739109669664,1.32646555185303,1.31750074553727,1.31544832343299,1.31756562642476,1.31243198278407,1.32022027082671,1.34265063412785,1.48415212751201,1.53283758896173,1.56276819395362,1.51911233351899,1.40851657834546,1.34146867897416,1.31831912587536,1.29299440909985,1.29411602967766,1.33050211090896,1.33087457490872,1.31893878830275,1.31846399056478,1.32387369918436,1.33232115104517,1.31227845716905,1.32981132948969,1.3031017924999,1.27215872283599,1.27762625129184,1.27069919033743,1.27303032822772,1.28644842392323,1.29492970190578,1.28437397222925,1.27415023589069,1.26276439827604
1.18780687826433,1.18339549073435,1.18132460603669,1.1974623494741,1.31995329020632,1.51872034127293,1.31291899686558,1.18853698750701,1.17179314591239,1.17036346684452,1.16705842754519,1.16593990339755,1.16610702320101,1.16724974290656,1.16963564912894,1.1725414321166,1.17469514623462,1.17636368688509,1.17811859989051,1.19292833728046,1.20877993273944,1.08954427742331,1.17986846001183,1.17765958134001,1.17078449206076,1.17169027392196,1.20377472901623,1.32838746979788,1.24927710264704,1.18291956968658,1.26832947197532,1.12193561800532,1.15769008712318,1.17336660498437,1.169568782749,1.15440236571826,1.17565807844177,1.20264224294891,1.14792870162879,1.13214103734308,1.13232744532122,1.13255567213616,1.13244066389854,1.13303761238073,1.1372939535588,1.14814107640253,1.14363958260431,1.14293696274452,1.14107693262783,1.14121170538871,1.14425851407526,1.15978453841009,1.20786250598062,1.20258825098296,1.19198810302572,1.14253268885358,1.13113078690381,1.13959420700524,1.15241826395791,1.14679622195412,1.14161692706251,1.1256320353637,1.09974354700755,1.08695607688788,1.08767501810148,1.10539728976864,1.13536439308128,1.14614284969696,1.15788778932986,1.19391155735775,1.21900318495205,1.22975953262082,1.23122061154912,1.22976281624158,1.24933660927721,1.22666047073428,1.21735692235173,1.22244745768022,1.25708434942831,1.29959152623614,1.30423097536374,1.29748177324129,1.31158146228094,1.31664029980505,1.3178594404266,1.29659943134096,1.29795170822133,1.29529339427087,1.27859000124458,1.28334904699775,1.29344369636374,1.33075889852303,1.34025717735864,1.35017474136335,1.35900239471694,1.35290072109155,1.32956987263868,1.34188101207495,1.33182308047145,1.3275827757089,1.32834932198555,1.32061321199607,1.32747323076961,1.32675701030154,1.31353272404637,1.32077924834817,1.30457164227014,1.3087559482093,1.33800757497422,1.32017629218111,1.32554875925493,1.33163367762107,1.34977878307035,1.34013546066333,1.3025504834413,1.30751319152711,1.33154575127657,1.33721435655522,1.33659198623249,1.33310925247963,1.34045584991578,1.34261793950344,1.32916700814798,1.31852300337198,1.30814721592132,1.30562641036053,1.30500011608897,1.30410806045999,1.30798982046315,1.3235885198809,1.33126354444314,1.3371166644779,1.34961978314886,1.35734600613917,1.36686599388749,1.35263250466591,1.36391647976633,1.35368494959713,1.34304990473478,1.33808243613066,1.33839560577947,1.34079610760907,1.338240187127,1.33676374701941,1.33724288114572,1.31814898973402,1.31535004133005,1.31495043981394,1.35234027205026,1.54292124254233,1.5722038513706,1.58018213184654,1.5624895732866,1.50069846352422,1.37427150738936,1.33126637189349,1.32297389907041,1.32126355945476,1.33193532359341,1.31065462905463,1.3019816209539,1.31303621039934,1.33876987774884,1.34290481711326,1.31648345696549,1.33464449334616,1.28312000145954,1.26254197501164,1.26733247201049,1.27970545726562,1.2882645634974,1.29149424320343,1.29937270050709,1.30293665505397,1.29207592890592,1.27801141159392
1.18873761759534,1.18633531807205,1.18236978427122,1.24315634659051,1.52079159403749,1.67438655665798,1.5201914609551,1.23774532079804,1.17323563182125,1.16954613629991,1.16704143782707,1.16691288760031,1.1671270985657,1.16860291170746,1.1722532811007,1.17603009657481,1.17830073021001,1.17963254798723,1.18035439373256,1.19014283914389,1.23021846761457,1.25139153380604,1.24320874176892,1.21651150563433,1.18475696720991,1.18228958135767,1.19075108609505,1.27376956980554,1.24637381346095,0.726025983757,0.908107271845799,0.695624308096043,1.14790671645987,1.28066153695589,1.26244808970086,1.1706983653731,1.17876176556275,1.27215101421786,1.16696863188019,1.13027128861329,1.13448747039107,1.15192462623353,1.13774034792114,1.13338551709363,1.13449908148061,1.13607872969724,1.13919792692554,1.14094443327705,1.14146540625013,1.14356275645914,1.15185557145703,1.20373065504796,1.28997535037571,1.20658783497819,1.17246361208758,1.13926809363865,1.12855684213023,1.1322832748553,1.15647189480434,1.14215315833521,1.1310123965745,1.1069146981048,1.111551004195,1.08966998263389,1.09517996549082,1.11591051345505,1.13257475187694,1.15004232456856,1.17178305260956,1.18475270226051,1.20525597951545,1.21366079355592,1.22043516237202,1.22504958920909,1.23082273499386,1.226747691059,1.22081275051621,1.21491257933948,1.22544757049838,1.25659007245961,1.27511831484788,1.27647583988023,1.28089432219854,1.287909616761,1.30750707860598,1.29454882444692,1.29923795952258,1.29858424628831,1.28447062323036,1.27981109845712,1.28560095971632,1.31319655715498,1.3152166388605,1.29698868372281,1.29296217980654,1.29373211836008,1.3038952293279,1.32463836629072,1.30778920283587,1.3080846076609,1.31141841842514,1.3092924793967,1.3152395823149,1.33365784793202,1.31839208932081,1.31318309227313,1.30310693039932,1.30818256566814,1.34002418534195,1.32638873611668,1.33774319371885,1.33891324965861,1.36217442362314,1.32661877155426,1.28456689397439,1.28501395506578,1.31432811023398,1.35050262626618,1.35277080604461,1.34094827052194,1.3391582436731,1.32713743085096,1.32380098501267,1.3337387760219,1.31948740574895,1.3122167605925,1.30757309002654,1.30569714798814,1.31020515941978,1.33373125519891,1.34938229751476,1.35569730849174,1.37537210410516,1.38755901202284,1.40510902130155,1.36939851111665,1.37499618463184,1.36777973084194,1.36800212533586,1.35959450474255,1.36524263068872,1.38680576544701,1.37586048264995,1.36974593936282,1.36561287262472,1.3280961528828,1.31410808807304,1.30676714726589,1.36032962035089,1.54339212753662,1.57237880013527,1.56975442494931,1.56114934484657,1.52682596267288,1.40725703957647,1.3596129290071,1.35956553716505,1.35937692493707,1.33902809367321,1.31267098084501,1.3022976800173,1.31546437345235,1.32681541607331,1.33793942688792,1.312058189224,1.33196822676907,1.28536970866474,1.26305023729637,1.27110769169911,1.2990609193452,1.29173487110801,1.29480525593272,1.30066697605463,1.32149487210147,1.29356345985688,1.29973343067501
1.1879048158982,1.18612242418609,1.18049745429431,1.19485383083727,1.31772841381914,1.52245068949611,1.32464217217668,1.19747328835092,1.17859434416047,1.17362072225908,1.18114301475005,1.21746946553563,1.18114433955591,1.17075359262631,1.17396818922108,1.1777709404295,1.17995140920064,1.18118686072721,1.18364485923661,1.18659154073188,1.19799161308394,1.20653718055434,1.23147333295684,1.30705916767765,1.21114970603892,1.18160288801692,1.15401315182599,1.09513090222849,1.21272342635746,0.988237754163576,0.658132647589289,1.01969185014953,1.28781914581288,1.30954284300956,1.25849740531031,1.17120426073332,1.1840539497779,1.29079236943454,1.20394293045447,1.17236431336166,1.17477232007433,1.23508711875524,1.15844221141134,1.13436271873947,1.13477636355445,1.13609124541899,1.13789880296046,1.13969693423222,1.14083106001227,1.14423783178178,1.17140337197965,1.28180751041488,1.32797658350243,1.29183163162451,1.20019300614436,1.15404886138704,1.137026979209,1.122891976691,1.12486625227539,1.11906909794722,1.11546426025055,1.09875437872645,1.1037597480249,1.10880461905828,1.08475169260786,1.08912289113484,1.11670980745243,1.15166669636761,1.17625513001548,1.18707448306711,1.2063850551,1.22003782304304,1.23011124192158,1.24297329373459,1.24137047079134,1.23877265531,1.23053427069232,1.2260878661616,1.2329663740127,1.25714391294227,1.27528227308519,1.27705757977921,1.27771122788574,1.27955873570596,1.30176125676743,1.29145812188825,1.29097318742999,1.28868250354291,1.28363075298725,1.27853699953011,1.27443900754457,1.27569152358633,1.27734647349295,1.27218141847954,1.26528915371504,1.26956595886466,1.28811482373842,1.29892477784123,1.30684124139843,1.30930617931969,1.30612379542149,1.3044471470862,1.3142184149882,1.34203319001293,1.32312601989786,1.31016647073197,1.30382925527452,1.31213752759013,1.35183604680627,1.33899444462362,1.33523847275033,1.33395769888272,1.32582415419673,1.29130124549217,1.27612787984261,1.27754165027012,1.30876105812846,1.37246489191341,1.36837437322558,1.35968788459098,1.35993523584537,1.32823766224633,1.33200897103274,1.37707734492488,1.36268636558237,1.34678150957579,1.33000299067784,1.31708124961312,1.31200826411415,1.32588838102038,1.34897842944817,1.3846949283818,1.374189226887,1.37364709574131,1.37861161072664,1.37454289769643,1.39228665968672,1.38823689262359,1.36440408703927,1.36130177822451,1.3812115506344,1.36212195391816,1.34995573613923,1.3503465838046,1.36700105917028,1.35778659756722,1.34129328993249,1.31180775816685,1.36436588804118,1.53152926884084,1.5658561804738,1.56608923565645,1.56310437259277,1.52974334336336,1.41667845282633,1.37972323336957,1.36218919161515,1.36654108823982,1.35007004762104,1.34572410757332,1.31645306068719,1.30436716224989,1.30226640331,1.30161166549681,1.2929772336394,1.30245815350122,1.30012982256394,1.27029433229253,1.27346512875465,1.27686537588724,1.27072267076689,1.27488010376765,1.28967539364918,1.32116010596765,1.29501321338709,1.28790705898438
1.19503321397397,1.20191883535114,1.18304298286639,1.17820067976105,1.19482974455272,1.24385392226597,1.19890598652095,1.18139615462019,1.17873521341164,1.17679592884036,1.22314904600564,1.37085198810899,1.22066374571055,1.17320561148918,1.17752070846059,1.18009608290776,1.18134044530476,1.18457106121508,1.19326018523063,1.19085967484919,1.19056498001881,1.1912179910473,1.20132178276115,1.23800488443156,1.22776652392532,1.19713488809692,1.09810238943287,0.743813723529533,1.20330967791357,1.25494872462815,1.1466902283989,1.24606093326751,1.28401685919075,1.24238105408141,1.19547790113528,1.16033926533702,1.17709684168242,1.26859901591659,1.27535913849301,1.31493686543379,1.28337994915028,1.29810173869889,1.17805427820328,1.13727614988548,1.13487736406656,1.13558019976782,1.13717134325767,1.13947080780365,1.14046980205323,1.14206375990568,1.15689493515701,1.21282850544633,1.23633604383755,1.26765556440545,1.30073683185976,1.23845884190461,1.17965059894938,1.12531214029048,1.11727031445515,1.12798895417934,1.12257855163387,1.11330448788495,1.09350457969498,1.08149485390838,1.07590974055615,1.09406189604093,1.12868348921635,1.15164248148452,1.16642083407443,1.17585027113287,1.19061915076163,1.21525866902163,1.25197464724954,1.26116009054637,1.24492106505666,1.2400729011468,1.24230872521422,1.24583443313816,1.26464739011329,1.27929975681965,1.29073246921562,1.29282529765686,1.29616343345392,1.27306275156943,1.27245783923764,1.2773302090463,1.28485723555953,1.28660375726711,1.28111928074514,1.27220614722738,1.25622799107068,1.25488166375939,1.26244231466122,1.26229588634425,1.26357610089818,1.27330507910129,1.28370949911277,1.29666877915982,1.32411427535818,1.32982231219384,1.31392491994474,1.30722340865729,1.30911813087359,1.32210524160361,1.32021650686863,1.31139120448316,1.30495006939696,1.31365392596436,1.34531598658667,1.31447415863137,1.30305978034056,1.30369517479344,1.30417283492302,1.28340554273987,1.27448831766993,1.27249121144206,1.28726538415673,1.30982081058242,1.33822416495126,1.35933910553029,1.35711978325073,1.33956504813679,1.34123743328033,1.38683435778287,1.3876438160334,1.37685119308386,1.36122716137113,1.33776500643273,1.32629081528017,1.32032870021805,1.34000329813389,1.37907960175828,1.37797644422028,1.39214779600098,1.39632382805663,1.39654212007011,1.39257768747556,1.37445710779293,1.36404290609463,1.35725201324935,1.35900514400093,1.35042317065466,1.35036833896506,1.34204902463245,1.34545660243362,1.35800247696255,1.31734883903214,1.30447901855948,1.32152806263585,1.3952713904963,1.4944228895336,1.53315669499276,1.53886771718015,1.51053282612106,1.40897898418765,1.37904347614735,1.35271601307344,1.35309921446078,1.36720035922561,1.36371117183531,1.35115035714079,1.32425983136805,1.3087924114464,1.3040410786004,1.29508305696237,1.30964638232576,1.30883116339476,1.27302346316953,1.26030161778545,1.25752855466394,1.26330335543541,1.28077968619527,1.27470053719036,1.30662632916963,1.3157159403007,1.32326067747443
1.21880448880312,1.25582924490124,1.19575296881133,1.17848100383455,1.1795604942718,1.18181697753179,1.18167164442769,1.18081103258109,1.1786430154105,1.17757094768324,1.18868041026779,1.22512463389552,1.18585671379785,1.18512160183426,1.22213847743147,1.19306107735465,1.18475612460746,1.18719811217099,1.19133602933037,1.19061065975559,1.1904402116177,1.19048479062804,1.19218290960599,1.22791908107084,1.32560712452783,1.25395033023293,1.33724623695588,1.27053518082952,1.23622894346218,1.21738187185715,1.20944514257253,1.2098525921455,1.23786806166997,1.29416638232794,1.24038736550771,1.19429911060339,1.17229619351638,1.17679995113684,1.18977597127569,1.26031712716321,1.35876378144804,1.3958418418131,1.22596312474459,1.14551057265522,1.13495853948532,1.13478908202118,1.14099900831048,1.15714620634062,1.14642821907855,1.1464582287747,1.16629032397731,1.2056870414543,1.2374247491958,1.31842762362216,1.31791154658708,1.25713740924516,1.19665245870179,1.13169756576134,1.13215489696121,1.13652297294928,1.12475127993227,1.11196418521446,1.08957164134834,1.07371410787274,1.07946859393894,1.10615242950427,1.13518342949275,1.16061785351646,1.1692487377192,1.17683271774958,1.17968823314495,1.20433269292265,1.22047470782714,1.23965466941885,1.24635450638407,1.24531492790278,1.24567645417435,1.26419051068921,1.29168579585425,1.29942263020245,1.28997434373368,1.29920085915688,1.29740328505396,1.27009766892146,1.26469226286072,1.27951753107996,1.2846994400324,1.28110330122438,1.26852533151527,1.26587994259133,1.25465379731247,1.25976225500855,1.26315726667358,1.26064999828497,1.26797979295062,1.27959367204316,1.28525398850588,1.30154430041613,1.32084553325553,1.33223593634756,1.31763933221355,1.31094204599428,1.3077079403862,1.31839158314729,1.31973906131869,1.30953568931344,1.30713541427081,1.31459663644318,1.31882841924344,1.3121938962952,1.29641206960931,1.29030097759858,1.29105718419037,1.28778656481818,1.28344811574241,1.27523059005911,1.2820365889192,1.30138318172959,1.36022692356606,1.36895602513335,1.35953061335673,1.35628170733804,1.35854995279845,1.37622316885641,1.40466519120971,1.38793789147304,1.35340541758869,1.36077220359757,1.36896340138578,1.32576409537545,1.33533690063431,1.39232943646961,1.382295217977,1.39248195723071,1.39693505891616,1.40964401659705,1.44029873617827,1.38035950377579,1.37723387987723,1.36475432049949,1.3538760957041,1.3538460733427,1.35338928081871,1.35306211085293,1.35436385431244,1.32791909713457,1.30475848054537,1.31912279019637,1.32419143888884,1.34810443604532,1.37236467425787,1.4112949060429,1.42897199280114,1.41963212005207,1.36777771456222,1.3628878305683,1.35129806943327,1.35347932031051,1.36625588111164,1.35507381080263,1.36160113519374,1.37295316579356,1.32162499163807,1.29862509713436,1.29421902176039,1.2942056504766,1.28893091272443,1.27160459057958,1.2575423249856,1.25430376726821,1.25899922346114,1.27087654743686,1.26200627007875,1.26924299020815,1.28020243499447,1.29071578415547
1.20138664956788,1.22047192478341,1.19128537189985,1.1941582711242,1.18433796326275,1.18180009427724,1.18207148549937,1.18095342659874,1.17940054601521,1.17840527818508,1.17757429326624,1.17739032416501,1.17532038702214,1.21839186074544,1.3535740519739,1.22648491539435,1.18644041671687,1.18678236765854,1.18713562194266,1.18731971233382,1.18862032259872,1.18900001285623,1.18965293294066,1.16640725490116,1.09318634221564,1.17348500317341,1.26017091587905,1.34515896870291,1.23376635422264,1.21257321824634,1.21998177579206,1.22301635237874,1.25912208078939,1.31810728472808,1.2452095786139,1.25495465257268,1.10149837268935,1.13688935160335,1.15432606830329,1.17659635886563,1.22916384702106,1.2181195390341,1.18557074876785,1.14726989310648,1.13918937167804,1.13601569196553,1.15368793884011,1.20997390984297,1.16708202980808,1.19055179756594,1.25614694910464,1.25531658910377,1.20277800114037,1.27467541371995,1.22850828404191,1.24987441970844,1.21432849068507,1.1575971677873,1.19414804827881,1.18953775318891,1.13458384793202,1.12558337402285,1.1280946619481,1.09320519719902,1.09663060444055,1.11377135173161,1.16134450535935,1.17248438859585,1.16714236944896,1.19264707732793,1.18427109594153,1.19200287727586,1.20874032137128,1.23978651836976,1.25966450785616,1.27699679519059,1.27074652547533,1.28077966586312,1.28479239511479,1.29474634285173,1.2858570196828,1.28715219719545,1.28704251127249,1.28133610860344,1.27791328253723,1.2848676582171,1.28810452416911,1.28688784744063,1.27981575612241,1.2645931927335,1.25826422494418,1.26981585889504,1.26877781243531,1.26339050852189,1.27702990533327,1.28614330796248,1.2979996935474,1.32614703411801,1.32730385361521,1.33160040539568,1.33622527804405,1.34515087517657,1.34406886689041,1.33915367352509,1.33580308738095,1.31507548644185,1.31496626129391,1.33251185569073,1.31180112343793,1.31618145338576,1.29136758484303,1.28442099799631,1.28504793462047,1.29343820157917,1.31316496289394,1.29679382166086,1.29246708931795,1.30922127998139,1.33265476275449,1.3592072472025,1.35534220896833,1.3283148783414,1.32780967564732,1.33487678973388,1.36495556389405,1.39114968040541,1.35960545001829,1.3771706627226,1.35112090093006,1.31919809396908,1.31698061301617,1.34171612359745,1.36701274850123,1.39038120753037,1.39422510691867,1.39449472138614,1.38442499987687,1.37302359168166,1.40681658364695,1.36540875372434,1.34912519270577,1.3439980244554,1.34017790254646,1.33787026588801,1.32695036817237,1.31164297663058,1.3080086621534,1.32180473911341,1.31017007645933,1.33247302218027,1.34058941100648,1.36881694002936,1.37098270651626,1.36047333838749,1.34977498083751,1.36319682366904,1.36744389004562,1.3762570064036,1.37138814374389,1.34914200960771,1.34715961375345,1.35444806289214,1.33842526041996,1.31393132506277,1.31591717662365,1.30394892767034,1.29710431523723,1.29743124355343,1.27298154103619,1.26176057935671,1.26285958088781,1.27814222858592,1.25398261747021,1.24082042239809,1.2373335958838,1.24004135109932
1.19481073694397,1.20600258939219,1.20479937883193,1.2566732457375,1.20096362093663,1.18310785987273,1.18317929083532,1.1817428166541,1.17943675889479,1.17849766947638,1.17826904673628,1.17780728420771,1.1759354506478,1.18650957897129,1.22137913327459,1.19241132656223,1.18469281047423,1.18497750585968,1.18473183825261,1.18424419745868,1.1850743640108,1.18565808626176,1.18436237530834,1.05684835199423,0.665610911955385,1.05760825867705,1.19300239459246,1.21725097742331,1.21439753371674,1.28265042183042,1.3249502355825,1.30778633086919,1.22290368966347,1.21126986046261,1.20161540251672,1.11773912083327,0.703090829854834,1.0729783424776,1.17127879183654,1.15585506893581,1.15860298391122,1.15169241563456,1.15164141752801,1.15312443814321,1.17689119064937,1.14565837216877,1.14118704314907,1.15909073067268,1.1727903625785,1.28796517641238,1.37527374747284,1.30056058103924,1.17299769722666,1.17392586483007,1.21431106077699,1.26226400350914,1.18396756548082,1.18106199569784,1.16997453250478,1.13123436762244,1.11542874497815,1.13906211950324,1.1415411329311,1.11554404914298,1.11440608391556,1.10865847385045,1.11979337630732,1.12430084130238,1.13027574452255,1.15931601480786,1.17889121344394,1.1982162759119,1.19862270960177,1.2112996206406,1.23868280846686,1.26777411989256,1.2879445275111,1.29424420772686,1.29069645801016,1.28754274160678,1.28423218083214,1.28365632330516,1.28512307029187,1.29205019446854,1.30976435207472,1.29857746995958,1.29229067431099,1.29567199779911,1.28807091464001,1.28198185249482,1.26595477910849,1.27231199840287,1.26849911137293,1.27231107154249,1.28536732351209,1.30397574531202,1.33757493796676,1.37881237509843,1.36236765930226,1.39094863467647,1.41535685714865,1.47186541643267,1.49719347821082,1.47029386377257,1.44427379136627,1.3642497264775,1.32242414055322,1.3146527720555,1.30684992812449,1.29165462542319,1.27507624937557,1.27442431652199,1.27738416502788,1.2841084181755,1.29603412752331,1.3053389470362,1.30390855119149,1.32505797017962,1.3339227505615,1.33700946255288,1.33347786185735,1.32058771803346,1.32472799553517,1.31485714640702,1.33231725959153,1.35614932539826,1.35587776368129,1.35241437756982,1.34983705927414,1.32567348811463,1.31471675430727,1.32086854998121,1.33339361203944,1.36923680461269,1.38173565755427,1.38784354355756,1.37674732562151,1.36147061247414,1.37211770786846,1.36289540753397,1.34637068553865,1.32687553945959,1.33537566414345,1.33748909877165,1.32362674488282,1.32445329213221,1.31544669740255,1.31297717027478,1.3099121803539,1.31982437244243,1.34086097743429,1.33606030504332,1.33814638753494,1.37009485526248,1.36528473596363,1.37323226757097,1.37316588967589,1.37684231588542,1.35371455970133,1.34289207403745,1.34481030972571,1.35762971397897,1.36398622059738,1.35503091907477,1.33911633377974,1.32597157565919,1.30438941091494,1.31659333749608,1.31273362462799,1.29200079562984,1.26621137355244,1.27173708851147,1.24265907892494,1.22577514715859,1.2272803311033,1.22222725066371
1.19284782895758,1.19483194969514,1.20914964296874,1.25780724691606,1.20105614642705,1.18322118292844,1.18328963481808,1.18229185104901,1.17831775913828,1.17777091262108,1.17817799668105,1.17829040092846,1.17776356237059,1.17702258396402,1.17821709258441,1.1902360916799,1.22408577932301,1.19435178765848,1.18403583286865,1.18344784944338,1.18330556621359,1.18392695600525,1.18382001839938,1.15145731689771,1.05233411598889,1.14857856592704,1.17997630684665,1.18885217795615,1.23323938050873,1.33479686549597,1.36822547908118,1.33004830140414,1.21201427208437,1.1826704332348,1.18419053689964,1.17358646527197,1.12235933832877,1.22694404018077,1.23158321616567,1.17325175966621,1.15943240601825,1.15842760733163,1.15057842273154,1.17992800724321,1.27216814116768,1.16996113773963,1.13753002604616,1.13957285108843,1.14560526725195,1.17363277575379,1.19252844711561,1.17285947500894,1.14270211971551,1.13888655822115,1.15477028735487,1.1771151073291,1.16171200945463,1.2111957106634,1.20700154996779,1.12322226515436,1.10381241237109,1.10881866322128,1.10235829216399,1.09967150650036,1.11078935992583,1.0983337660488,1.10591578295551,1.12509737744034,1.13928483303564,1.15282816591999,1.17771146229547,1.18890200637241,1.18974086803563,1.20597132339257,1.22939605387465,1.26398576095797,1.28356712182474,1.28723622867248,1.29093267164676,1.29075421195826,1.28727141590799,1.29020551861006,1.28819591682417,1.29116567713221,1.30394605540337,1.30350339490102,1.29492361241488,1.3146406685805,1.28865732881327,1.28136771271692,1.26566510169688,1.26368209971809,1.26206460703728,1.26531681387367,1.27893689154697,1.30664774838416,1.33544984905766,1.35018234102362,1.39606279848784,1.40230255462342,1.34999308803305,1.36965936914593,1.46016013821532,1.48600984958141,1.4628715486252,1.41836724466129,1.32867037865626,1.31175513019197,1.32068846336469,1.30510692161738,1.27343838272862,1.27115956964809,1.27491550808422,1.29026283159374,1.30616124770643,1.30855486229031,1.3072346292811,1.32866077780959,1.34080742464517,1.35327823802668,1.36615402385684,1.33845284720388,1.35188898392539,1.32731905267451,1.32990153973853,1.34806078154049,1.35241803546826,1.34839541752434,1.34177183673865,1.32050177047286,1.31561702394595,1.33019369600674,1.3355325319829,1.34508605941638,1.35096331631074,1.35575105060164,1.36621921171548,1.3651449157931,1.38298155712176,1.38341977776825,1.34891158465378,1.32501962831886,1.32459080096353,1.33784096392066,1.34251707496556,1.33715824485262,1.32679189139043,1.32564067861531,1.35346107579029,1.34862594370495,1.34988982627698,1.32757119239395,1.3315097843167,1.37283251118939,1.37185521015262,1.37323683122372,1.36036634480788,1.34886052743104,1.34807954565329,1.35287130375892,1.35294658320611,1.36809821664433,1.3735084458969,1.36058310238793,1.32003663741073,1.30967267100111,1.3140870871341,1.33897190425559,1.3406078888247,1.3254213358252,1.26660455097572,1.25066895818426,1.24164828299342,1.23298363083122,1.23258509545393,1.22898016841806
1.19408718203232,1.19264001729394,1.19452985822095,1.20272344375952,1.18919047844914,1.18447232974498,1.18330692041137,1.18183644670107,1.17753870627183,1.17700145369952,1.17753187974982,1.17790791684258,1.17792497898922,1.17721124455082,1.17761895623851,1.21970289689605,1.34725959944148,1.22447205633524,1.18359036771619,1.18250044774357,1.18245717386694,1.1826307510182,1.181921595429,1.1813302294689,1.17908010591356,1.17773743360108,1.17708244498582,1.19770190677245,1.29366634998831,1.3801139274289,1.3980214388352,1.33725959553961,1.2124665694153,1.18242279525259,1.18217679305029,1.18627305753931,1.20009512709672,1.21514303099582,1.21612781789964,1.19856081353642,1.20979079067464,1.21569760006907,1.16688978391007,1.18101241758539,1.23840818474721,1.16233399413377,1.13886163133046,1.13898725141782,1.13835570731642,1.13774848749623,1.13737042633722,1.13703195451157,1.13634138158932,1.13829393490315,1.1651685901693,1.21524297925004,1.17986038988389,1.20049719831979,1.21451998435848,1.12680897512118,1.10422618773877,1.10529740725034,1.09881824778041,1.09815904247351,1.09946664916306,1.09031083582939,1.09581066616878,1.11631988643808,1.12821573438581,1.15949300548789,1.18084063105762,1.19343806541431,1.19067390854613,1.20471894930251,1.24279632906902,1.25724702482461,1.28906189785118,1.28146877076111,1.27940145920963,1.3078057069872,1.30993751671344,1.31592789731637,1.29382064249446,1.29438887605649,1.31197768790917,1.28477486387357,1.28042561271667,1.28398834810859,1.26886440577028,1.27475125903267,1.26680751019651,1.2666736016464,1.26445834763423,1.26645546290432,1.27692351199419,1.30539614591695,1.32685697956117,1.32799241418946,1.3308418510476,1.33261304172747,1.31451938644964,1.31769461143906,1.36842999174962,1.42379746842216,1.35702123496585,1.33184770176279,1.32262163670571,1.32773201769182,1.31936022808629,1.28417787264014,1.26861787305795,1.26990822739257,1.27820251003148,1.28981833627122,1.3119552243052,1.30922375073228,1.32402275470719,1.33862089611206,1.34838843102007,1.37646218149353,1.38018523533286,1.33736910825147,1.34030541828478,1.33453048759122,1.32874152276705,1.34699645379176,1.34860790910395,1.3365585462803,1.32196284722667,1.31219695722972,1.31144593257494,1.33473194439184,1.35862068030069,1.3626023312416,1.34434930704549,1.34266817819133,1.34825057834332,1.35015150154708,1.34647917283031,1.36254607901137,1.34663510611715,1.34514872747596,1.3388817682878,1.33655108640007,1.36898928636507,1.35059547583857,1.33246928845587,1.33471975071092,1.32119608910043,1.31911268241145,1.33927884280237,1.32901553994301,1.33184251834867,1.36362374599969,1.36982064150486,1.38889597084959,1.41155064913891,1.35686371941386,1.36294198237125,1.38330962693228,1.3658315714587,1.3701439689803,1.36901444266123,1.36077838231379,1.33516253191745,1.32576889562135,1.32432761561539,1.34574893261036,1.31800968075772,1.29964098983125,1.25967674050783,1.25054523717058,1.24376513097779,1.23540332124036,1.2302612617353,1.22896154312233
1.19471329178673,1.19292794516854,1.1912404535772,1.18961196668397,1.18810045555528,1.18605053319395,1.18248201867368,1.18073070038654,1.17823511105962,1.17653272048184,1.17721863314367,1.17775920173612,1.1778188603231,1.17740414598931,1.17609499540846,1.18695680978469,1.21996668189979,1.19115658175708,1.18152476308156,1.18141867805843,1.18129640654572,1.18280012927712,1.18128495903037,1.18117328981943,1.18040090312903,1.17561667387516,1.17608004559657,1.18094700011225,1.21540072529074,1.29732406062478,1.36024369586031,1.31191450996796,1.21042686803202,1.19897869745258,1.18540617144225,1.18259578848958,1.1924502269526,1.2267711070763,1.20882926853254,1.21232097333885,1.27705179335868,1.28074669229186,1.17888914838788,1.15606066658671,1.16176644462209,1.14564716455187,1.13949757236198,1.14076588299192,1.14565738646656,1.13845716687976,1.13665172111666,1.13693446662331,1.13544940878092,1.14602694257647,1.2065650467626,1.21793940358685,1.16607047485396,1.22210225228655,1.2241950903525,1.12752048015745,1.10541802912868,1.11070195499302,1.09282441003638,1.08067601221047,1.07850584539896,1.08074416978376,1.08901681362052,1.09385322392763,1.11004845820835,1.16233082388814,1.18232701657767,1.19542109522762,1.19699638436278,1.19870333804147,1.22889523396385,1.23878922748916,1.27539952202216,1.2814930789261,1.26979716886089,1.28183812366379,1.3090194769835,1.299226930626,1.2927604240793,1.29100817376272,1.28709040366725,1.26107331605044,1.24923170265478,1.24868618006072,1.24365924882716,1.25058311824711,1.26608468616374,1.27493273451008,1.27134263259541,1.27362827563572,1.28536278838036,1.32847376778937,1.30915755566638,1.30513304720882,1.32497634031772,1.32869974298215,1.31513681859048,1.31208954430327,1.3274658044758,1.33566553993944,1.32590462100846,1.32313516774359,1.34521413195453,1.33994737396726,1.32621640308128,1.30028226773071,1.28850399692586,1.28034380095667,1.29829354967705,1.30030100046591,1.31362315408226,1.32537374673249,1.34261915325861,1.38088455056657,1.36914637033808,1.36984155469204,1.3769303923402,1.3443336226058,1.37237928170396,1.36736938128712,1.3310072412881,1.33892282033193,1.34002679801843,1.32788650921762,1.32049242045494,1.30927239665503,1.31570189108954,1.35881662987622,1.36062469461032,1.36307904927495,1.36884148472307,1.37486323444203,1.36800282120371,1.35044597543916,1.33663642692876,1.3538782587707,1.33576312325951,1.34015046384711,1.35760030135866,1.33633376284859,1.34028325901675,1.33612819636864,1.3368652712478,1.34728049286078,1.3163530117931,1.30879006673399,1.33010678470805,1.33027024685002,1.33115450117954,1.35483187363256,1.34548239261162,1.37203541940585,1.35701709235458,1.36191941482833,1.34870456827621,1.34136219215335,1.32460794008951,1.32624540394249,1.3317377534571,1.3328713995042,1.33192733428163,1.33002029621996,1.33877198014998,1.34647632868342,1.32350548602671,1.30376355376893,1.25988799045741,1.26188843153909,1.25101694330909,1.24185776734667,1.2360909825452,1.24811687938495
1.19458334700027,1.19337190989267,1.1926570319007,1.19105493565104,1.18904564031749,1.18769788106256,1.18445273954521,1.18169889623011,1.18004675993845,1.17657659801504,1.17637312799554,1.1773214254922,1.17770357180215,1.1771899964675,1.17488787139888,1.17450874013636,1.17731053509097,1.17831660131553,1.17859068906053,1.17860560908782,1.17712993528167,1.17956730045165,1.17921187144883,1.179251283099,1.17879748661475,1.17571213171557,1.1751600811584,1.17423848656892,1.1763177232181,1.21453149588767,1.29559248360869,1.22575394654237,1.21923139096367,1.2636126424272,1.1981837388521,1.17756440887037,1.20406727855894,1.28952423212283,1.22547809399481,1.25775024719534,1.29741257487066,1.23953158957812,1.16717291916095,1.15086716220425,1.14543983621749,1.1420794462946,1.13970498812755,1.14617818482685,1.16769706742279,1.14789962686685,1.16205695091571,1.16836395419352,1.14482649132971,1.13611199700987,1.1438939385028,1.14024847391176,1.14265815496915,1.2221551649542,1.23879679316718,1.13186054626954,1.10351203901928,1.10617035697584,1.10690817017031,1.08273679152033,1.0769574071524,1.07897191852231,1.08689877712939,1.08494793840815,1.1108942307842,1.15863268922337,1.16681716032301,1.17481016609614,1.18757404664623,1.19505013328468,1.22002327407568,1.23057358012434,1.25450619728688,1.26970236794362,1.26670483804808,1.2658965009127,1.27281601490296,1.27808242543509,1.30727122265507,1.30050543214383,1.2777879877452,1.25799042682438,1.23521153045875,1.23103515835016,1.23494864438374,1.25209934812318,1.25895726986684,1.27088848149569,1.27813728070712,1.26904515795652,1.2756186660195,1.31755119021755,1.3046474194533,1.29399140208418,1.29787012821271,1.30457696697481,1.31932873521621,1.32686991992622,1.36211587956411,1.33624676906586,1.33201502089975,1.32969700312321,1.33365568872481,1.33461516000989,1.32506966116427,1.32334955542583,1.31418916838105,1.29382350469212,1.2978556695849,1.30506331329336,1.32527375722258,1.37640558998333,1.38295279824964,1.36420262527099,1.35453874275291,1.35967780717213,1.36333110285475,1.3434505514379,1.35441463640533,1.33873701027109,1.33239234397197,1.33639554648815,1.32225916597986,1.32026029506673,1.32059426734865,1.30468323507204,1.30595479610163,1.32433287012158,1.31545712331012,1.32330535832925,1.36957613996265,1.40282728374971,1.435011014878,1.42733485338496,1.38064026103463,1.39381397718661,1.35052248764114,1.33383252631771,1.33838560780499,1.34497317239957,1.37950925274067,1.37402685209246,1.34628157810774,1.36104943013397,1.33951182812916,1.31376237638752,1.31307646437808,1.32113318021727,1.33226036751341,1.34894848735206,1.32916109923989,1.32915436767898,1.32106050843807,1.32770840744709,1.33818013672649,1.33844275865933,1.33406649627011,1.32614211584189,1.30686096391841,1.30514211593158,1.31695906202115,1.31919455591928,1.31949181065968,1.3067770050575,1.30176933756665,1.29463312331299,1.25196293170277,1.24883143206047,1.25772621419434,1.25121888798221,1.23961944666349,1.25034740432054
1.19236645226413,1.19281390307582,1.19382633541677,1.19324568436423,1.18980270397271,1.18796129038259,1.18506897806238,1.182040272441,1.18055790553316,1.17690325415819,1.1754547379102,1.17652300108216,1.17643890015697,1.17422182013771,1.17322702192833,1.17349761875243,1.17474171548615,1.17598408261204,1.17664906361822,1.17603961866334,1.17039224154735,1.17102064277672,1.17562077241517,1.17598991386495,1.17503179406036,1.17479746271699,1.1741160078886,1.17246387488592,1.17111140476059,1.17552107082983,1.19289873491591,1.19608707041781,1.26996327418779,1.25736084040639,1.19066262502415,1.17433472445431,1.18077522529885,1.20462625720221,1.22498147593835,1.32910908988118,1.29200391313093,1.27434081143872,1.18437779093459,1.15165081077521,1.14438935222015,1.1412018715486,1.1389829187069,1.13811323554663,1.1426452712868,1.1556944820206,1.23882150173903,1.26677740463365,1.18622891542174,1.14961079807369,1.12611651669934,1.11888656228211,1.12061524838088,1.16114989624507,1.24395788496489,1.16468148945082,1.12691801086126,1.10799853444331,1.10079793430045,1.09440887215294,1.09221196002966,1.08414874238868,1.08572469788052,1.08251326488457,1.106264991399,1.14967047400381,1.16203898618497,1.1806118762157,1.20110788491749,1.20639148664906,1.21559991926849,1.22215255442304,1.2354896570584,1.26157378289073,1.26082687137801,1.25582311167632,1.2601077587111,1.2725449233497,1.3051733744607,1.2950687419642,1.26514231475783,1.25335609066926,1.23432084420862,1.2283828021581,1.23430503093533,1.26587438533863,1.27000977238606,1.25649581164345,1.24877662735694,1.24865021048341,1.26749952773724,1.30800606186601,1.3117128046127,1.29301172407242,1.2882193765042,1.30287365892992,1.34405598288767,1.33255464162909,1.34701807320982,1.3430441418985,1.3539685617824,1.33743282660549,1.34287431837212,1.36160020150288,1.33052832493545,1.3234906849375,1.31571797233474,1.29134191662012,1.28421113249351,1.30693223962787,1.33521176508447,1.37994358110434,1.38550676441137,1.35786657841152,1.34966126026082,1.35197576192631,1.34382230273905,1.33415596257241,1.33287584032485,1.33101959177178,1.34749456750411,1.33006563199886,1.32243181491179,1.31342851158533,1.30924013508707,1.30271141226713,1.31396670636034,1.3450437448057,1.3150368936557,1.31680399915627,1.37030830656206,1.43753227866649,1.43789737344129,1.44455267042272,1.42552397547023,1.42362809129404,1.40017514973406,1.34526828315389,1.33532692902712,1.34706121355857,1.38477302461509,1.3703640970664,1.35137242105448,1.36157542854928,1.35600642244571,1.33204399003519,1.31810234307725,1.30402671647453,1.32434541613592,1.33422344724544,1.32386090249113,1.32100459950835,1.31462051444774,1.31005258668065,1.3131289059123,1.31857548507193,1.32545400555519,1.32287252126642,1.31277703159314,1.30948126521607,1.30050111988299,1.29822199484454,1.29755496625505,1.30839525970051,1.30208961748423,1.28314526816586,1.24888508543452,1.24104499789994,1.24445129495188,1.24520770304736,1.25082152773895,1.28841843391105
1.1942645147008,1.19514099229419,1.19562505889994,1.19520342590111,1.19264566123942,1.18936327626347,1.1855285590669,1.18221659594402,1.18102449379577,1.17951229597432,1.17622333598873,1.17564390068279,1.17496307611945,1.17378666564758,1.17466487020261,1.1752015187275,1.17406007332968,1.17460117530485,1.17586423204047,1.17558518545347,1.17276984740594,1.17166643408599,1.17250710572873,1.17291029473086,1.17989204364094,1.20330998357465,1.20213026228117,1.17668443630897,1.16957754761898,1.16764623943353,1.16725206222009,1.18895874472724,1.26733186054399,1.22424223709919,1.18019562880591,1.17301928240307,1.17286930399286,1.18325582066488,1.24409960200867,1.34372441955392,1.34186391265118,1.25358725515757,1.19609362577606,1.15503368540871,1.14437489627247,1.14052384076859,1.13911448584608,1.13701140617382,1.13376838256159,1.13727358872148,1.16090789917106,1.18612048409066,1.19718383466833,1.15569584592512,1.12512461538043,1.11824715613547,1.11506609461953,1.13602634803428,1.23015321274087,1.26830027297827,1.22886941763938,1.15648613193146,1.11017390249838,1.09491972461573,1.09993568553531,1.09278806880427,1.08128222505763,1.07826739028944,1.09374195721481,1.13065786440323,1.1471490745249,1.17194600004871,1.18430413827406,1.18491650235,1.20069925271083,1.21046002758157,1.22684938718354,1.24780171446736,1.23519139462162,1.23472054406903,1.24610559310964,1.2684708268688,1.30703184667906,1.3010403916388,1.25423373701655,1.23880181047624,1.23640508191471,1.23177262726866,1.23287145381824,1.23683663815879,1.24421424407649,1.26426653644543,1.24845504450764,1.24809475652299,1.26831713376972,1.27646855127837,1.29779801244285,1.28971623522833,1.2863593286539,1.30012311530926,1.34210400059963,1.33822220617391,1.33739434682673,1.34262062079073,1.36393248447828,1.34741229683856,1.35555361239181,1.33857795488095,1.32766162728815,1.3394102785016,1.30363712484175,1.28973078563692,1.28652237577192,1.30226189605742,1.3466582511358,1.34888586375226,1.3544781910927,1.35239691203477,1.35599603045807,1.35704924168548,1.33227556363461,1.3247017326138,1.32546381253135,1.33019744045642,1.33151165483219,1.32554648126089,1.32680328566646,1.32961621788933,1.32360448122652,1.31555850287729,1.32522775462977,1.3249825516311,1.31947675498982,1.3240064608079,1.33613849850305,1.3759938114456,1.37196845510769,1.41588863053912,1.42150449398592,1.40954936585023,1.3949564455355,1.34460497596598,1.33400122301063,1.3373704224206,1.35380086684859,1.36686566398005,1.36256293558633,1.34320032086218,1.32778421482745,1.31514043205568,1.31908499222357,1.30128532311127,1.31401527503619,1.33142883475025,1.33054840408785,1.33145167076333,1.31058027991506,1.29603001008102,1.29589403131755,1.30253701250632,1.3175304708164,1.31425965186495,1.31257912758453,1.31995461528046,1.31955152129348,1.31971793521895,1.30688586856999,1.30044633166982,1.28726851210423,1.27863981873445,1.26153946087787,1.24501690126941,1.24566283188944,1.24921194920678,1.24401438305456,1.25746801997219
1.20337938004218,1.2035827153894,1.1986263010172,1.20009241808926,1.21091770742921,1.20740009902958,1.1902140457609,1.18324125698883,1.18230610960873,1.19342422058515,1.23975760338084,1.24322443445426,1.18813518430344,1.17308910276057,1.17424223511389,1.17517518324769,1.17507434363912,1.17587938493247,1.17660150869059,1.17592380897121,1.1729594932443,1.17100533784824,1.17079146817843,1.17296276632962,1.19755709320944,1.29167899958213,1.29075500500028,1.19401109775566,1.16903247162925,1.16686797901696,1.16486771149999,1.16872103479335,1.18462112792961,1.17568483625307,1.1734696183852,1.18688873328877,1.17553677716809,1.18074932898486,1.2141489281261,1.21533104769019,1.25379217033012,1.31297215181729,1.1917098595467,1.1478862578222,1.1440088730892,1.1408397920615,1.13785377288539,1.13350442950724,1.13243072652967,1.13258125266743,1.13375160535742,1.14112186258269,1.15570272455652,1.13723033087988,1.12775427127863,1.12469515047207,1.11614185775034,1.11867681387311,1.1593963664551,1.2372563606356,1.23962782866914,1.20863291724294,1.12816046709441,1.0873331425697,1.09649892435703,1.09513038018923,1.08319162161256,1.07809286718734,1.09491571542775,1.13074118441894,1.15057840956828,1.17300427259503,1.18065031766224,1.18690849097396,1.20081664245281,1.20616489282717,1.21427762473928,1.22501714980322,1.22803546414441,1.22833740430518,1.23441472593718,1.2496051333823,1.26659815153398,1.2681194697761,1.2478137447073,1.2372345750578,1.23990170623186,1.24740031109661,1.25772722520671,1.23568925423723,1.23346199749339,1.25188643893187,1.25297266781378,1.25609215220103,1.26883250825311,1.24820483071167,1.25421380150336,1.28056922595429,1.28863387359956,1.30442672421073,1.33449074170651,1.33686068480502,1.33919906991183,1.35608728931393,1.35775654251569,1.34831485788247,1.33986182369888,1.33395467057761,1.32145228741282,1.32405150368384,1.30321946032058,1.29378612914635,1.2905796123055,1.2957258219633,1.32809395810569,1.33574092361357,1.34039039654704,1.34733356997762,1.36604875537648,1.34804183393134,1.3198939329685,1.3123504943163,1.32085113334803,1.32684186381869,1.32494489841147,1.32352756939754,1.3247658992599,1.32979985419774,1.3314002196884,1.32996430973787,1.33793227412064,1.32614553324478,1.31375238769421,1.31383180628849,1.32022864630053,1.31913198203059,1.32298213636835,1.34535966693935,1.34935372642748,1.33543781605404,1.33968387066916,1.33226049192257,1.32647660209836,1.31792168727334,1.33883136352058,1.36190234162749,1.36224088041045,1.34742602323189,1.31465506720168,1.30364973953966,1.30326777711472,1.29143307187335,1.29982418164154,1.30518343168763,1.33172815126788,1.3164626946154,1.3070188594903,1.30182115030859,1.30628047643444,1.3092512300361,1.30312493266649,1.28318627401078,1.2890026812099,1.29356727795231,1.28887637929958,1.27434863055221,1.29406753155118,1.34125146147543,1.31351411953151,1.30160069367785,1.29507433506057,1.2609778086931,1.25779572623616,1.24639898436538,1.24431975495627,1.2559438973073
