1.30321, 1.26776, 1.28258, 1.19197, 1.19935, 1.29132, 1.24085, 1.1678, 1.16809, 1.17937, 1.2675, 1.14863, 1.14874, 1.13558, 1.1337, 1.13266, 1.1321, 1.12856, 1.12812, 1.1292, 1.13235, 1.20621, 1.1292, 1.13037, 1.13102, 1.13217, 1.13238, 1.13386, 1.13211, 1.13219, 1.13264, 1.12868, 1.12806, 1.12668, 1.12799, 1.12908, 1.13922, 1.13816, 1.13015, 1.12995, 1.13176, 1.17924, 1.14264, 1.14301, 1.17584, 1.11746, 1.11681, 1.11453, 1.10459, 1.1046, 1.09947, 1.09888, 1.10032, 1.09757, 1.09766, 1.0979, 1.09191, 1.08814, 1.08586, 1.09004, 1.09099, 1.08861, 1.36558, 1.2177, 1.21628, 1.2032, 1.09455, 1.09199, 1.09218, 1.15743, 1.22849, 1.18531, 1.124, 1.12429, 1.12348, 1.1224, 1.12536, 1.1299, 1.07318, 1.05354, 1.09899, 1.10522, 1.11014, 1.15052, 1.15618, 1.19826, 1.24401, 1.21811, 1.26783, 1.2454, 1.26823, 1.27037, 1.27666, 1.25428, 1.255, 1.27378, 1.25135, 1.26623, 1.26741, 1.30182, 1.25393, 1.2554, 1.28014, 1.29199, 1.28817, 1.28819, 1.30962, 1.34041, 1.34336, 1.2948, 1.29212, 1.3198, 1.45026, 1.3566, 1.36315, 1.3738, 1.38563, 1.38865, 1.36998, 1.40603, 1.3028, 1.30365, 1.32533, 1.29501, 1.29448, 1.29627, 1.29565, 1.29313, 1.28913, 1.29009, 1.30245, 1.30242, 1.32689, 1.32699, 1.3957, 1.407, 1.35826, 1.35366, 1.34986, 1.38258, 1.36414, 1.38563, 1.38628, 1.30634, 1.30148, 1.30352, 1.30531, 1.37704, 1.35679, 1.33302, 1.33295, 1.37259, 1.34316, 1.39562, 1.33476, 1.38109, 1.37185, 1.33403, 1.2972, 1.29877, 1.3374, 1.37119, 1.3195, 1.31895, 1.33346, 1.35143, 1.50589, 1.50717, 1.50743, 1.52615, 1.54112, 1.48252, 1.40001, 1.33738, 1.28525, 1.27201, 1.26841, 1.29681, 1.29324, 1.27833, 1.27734, 1.30266, 1.31688, 1.25405, 1.22416, 1.24241, 1.24072, 1.21412, 1.18837, 1.17018, 1.17803, 1.19392, 1.17335, 1.22503, 1.16337, 1.16464, 1.17804, 1.17791, 1.16772, 1.1306, 1.11814, 1.13767, 1.08739, 1.08749, 1.09419, 1.09108, 1.06987, 1.06182, 1.04465, 1.03896, 1.0655, 1.04441, 1.04634, 1.11587, 1.03188, 1.13803, 1.07653, 1.07745, 1.08169, 1.07201, 1.07103, 1.07204, 1.07321, 1.07284, 1.07351, 1.2532, 1.07624, 1.0768, 1.04924, 1.04764, 1.38639, 1.05146, 1.04987, 1.04919, 1.04986, 1.05035, 1.05109, 1.05315, 1.05229, 1.05205, 1.05073, 1.05128, 1.05284, 1.05042, 1.04833, 1.03975, 1.03753, 1.03663, 1.03833, 1.03906, 1.03737, 1.29189, 1.03397, 1.03436, 1.0339, 1.03537, 1.03482, 1.03476, 1.03343, 1.03253, 1.03212, 1.03207, 1.03335, 1.03841, 1.11899, 1.04764, 1.16869, 1.15312, 1.06904, 1.0688
1.21093, 1.21086, 1.20828, 1.20799, 1.29975, 1.28425, 1.28525, 1.17342, 1.17076, 1.26486, 1.18148, 1.17929, 1.1793, 1.1979, 1.19495, 1.14387, 1.15034, 1.20958, 1.1389, 1.12861, 1.12864, 1.12785, 1.12833, 1.12949, 1.13028, 1.13216, 1.13375, 1.13431, 1.13456, 1.13424, 1.13368, 1.13341, 1.12895, 1.12817, 1.12721, 1.12739, 1.13816, 1.13784, 1.13211, 1.13213, 1.13241, 1.18073, 1.1804, 1.17776, 1.25965, 1.25845, 1.1172, 1.11653, 1.54727, 1.10618, 1.10493, 1.10028, 1.09823, 1.09683, 1.09622, 1.09534, 1.09679, 1.08718, 1.08782, 1.08841, 1.0923, 1.09214, 1.09191, 1.09393, 1.0957, 1.09735, 1.09745, 1.09476, 1.09517, 1.09626, 1.15164, 1.12188, 1.12201, 1.4622, 1.11948, 1.16093, 1.06691, 1.08954, 1.0504, 1.08765, 1.10426, 1.13308, 1.13271, 1.17424, 1.27921, 1.22788, 1.226, 1.27773, 1.29017, 1.2937, 1.30473, 1.28291, 1.30963, 1.26621, 1.25295, 1.32065, 1.32225, 1.27402, 1.44493, 1.2607, 1.25139, 1.28181, 1.29339, 1.28486, 1.28258, 1.31547, 1.31466, 1.30597, 1.36055, 1.29349, 1.34806, 1.33115, 1.32949, 1.38113, 1.36523, 1.36723, 1.37094, 1.37186, 1.35186, 1.33031, 1.36215, 1.34006, 1.32266, 1.32176, 1.28909, 1.28896, 1.36469, 1.30316, 1.36028, 1.31174, 1.31105, 1.30412, 1.31975, 1.35389, 1.36543, 1.36384, 1.35953, 1.35734, 1.35715, 1.35487, 1.38455, 1.36808, 1.4184, 1.3598, 1.3868, 1.326, 1.32508, 1.31973, 1.31293, 1.37185, 1.33942, 1.38248, 1.37041, 1.36963, 1.362, 1.39689, 1.38972, 1.36398, 1.39907, 1.37011, 1.29251, 1.29179, 1.32415, 1.30701, 1.3137, 1.30613, 1.30192, 1.30213, 1.30174, 1.34682, 1.34316, 1.3205, 1.3692, 1.3678, 1.327, 1.26482, 1.26516, 1.25367, 1.28235, 1.26648, 1.33749, 1.26445, 1.30025, 1.26202, 1.2426, 1.35007, 1.26423, 1.21252, 1.18425, 1.17884, 1.17714, 1.18852, 1.16725, 1.16481, 1.15238, 1.15185, 1.15326, 1.13266, 1.14702, 1.1345, 1.10351, 1.1037, 1.10174, 1.11573, 1.09404, 1.08555, 1.07365, 1.05643, 1.03459, 1.02892, 1.03001, 1.03406, 1.04035, 1.05132, 1.05216, 1.05597, 1.07951, 1.08068, 1.07552, 1.07606, 1.07435, 1.07035, 1.06992, 1.07071, 1.07722, 1.32303, 1.07889, 1.08005, 1.05137, 1.04974, 1.04995, 1.04937, 1.05033, 1.0475, 1.04769, 1.04932, 1.04923, 1.05061, 1.05267, 1.05315, 1.05404, 1.05396, 1.05436, 1.47303, 1.07386, 1.03866, 1.03933, 1.03598, 1.0429, 1.04405, 1.04273, 1.04247, 1.03986, 1.03978, 1.03705, 1.03938, 1.03939, 1.03647, 1.03604, 1.03424, 1.03159, 1.02832, 1.0293, 1.03244, 1.04685, 1.08026, 1.03893, 1.04015, 1.18712, 1.17814
1.20742, 1.36076, 1.20569, 1.18871, 1.19057, 1.19176, 1.22461, 1.17534, 1.17422, 1.17252, 1.16768, 1.35793, 1.17482, 1.17249, 1.27467, 1.15289, 1.15147, 1.14669, 1.14425, 1.14059, 1.22549, 1.13558, 1.1356, 1.13575, 1.1339, 1.13297, 1.13504, 1.13545, 1.1354, 1.13526, 1.13449, 1.13397, 1.12816, 1.12795, 1.12769, 1.12872, 1.12899, 1.13538, 1.13758, 1.1384, 1.14338, 1.15268, 1.15342, 1.15373, 1.26104, 1.35344, 1.11899, 1.11834, 1.11709, 1.11487, 1.16097, 1.16314, 1.09421, 1.09315, 1.09782, 1.09747, 1.09715, 1.09025, 1.08969, 1.08825, 1.08672, 1.08578, 1.09102, 1.0938, 1.09583, 1.09747, 1.09754, 1.1012, 1.26405, 1.124, 1.16029, 1.12352, 1.12345, 1.14799, 1.14785, 1.09637, 1.04323, 1.04998, 1.04969, 1.11821, 1.18601, 1.21633, 1.21087, 1.20991, 1.32591, 1.26384, 1.29427, 1.30731, 1.31205, 1.30852, 1.35884, 1.32137, 1.319, 1.27395, 1.29662, 1.25608, 1.24671, 1.27124, 1.25856, 1.25887, 1.26381, 1.27082, 1.27703, 1.31006, 1.2908, 1.25655, 1.25618, 1.27085, 1.27455, 1.29059, 1.30294, 1.30263, 1.30122, 1.30238, 1.36193, 1.3637, 1.3325, 1.34291, 1.49968, 1.51194, 1.36426, 1.31877, 1.2768, 1.29926, 1.28457, 1.29077, 1.30673, 1.30518, 1.32061, 1.29286, 1.28996, 1.29119, 1.30944, 1.39853, 1.3987, 1.3444, 1.39503, 1.461, 1.4606, 1.37866, 1.44366, 1.38458, 1.45319, 1.34114, 1.34065, 1.35445, 1.3332, 1.3245, 1.32328, 1.38404, 1.38131, 1.37818, 1.3768, 1.3775, 1.35091, 1.34929, 1.40013, 1.32308, 1.30694, 1.31596, 1.30099, 1.29989, 1.35885, 1.35778, 1.37924, 1.30666, 1.29856, 1.30583, 1.31971, 1.30147, 1.30117, 1.31071, 1.32185, 1.31747, 1.27772, 1.31685, 1.40664, 1.28582, 1.3102, 1.31002, 1.30129, 1.25537, 1.23964, 1.23701, 1.22262, 1.22104, 1.21613, 1.21683, 1.18904, 1.18903, 1.19897, 1.25428, 1.19783, 1.21014, 1.21138, 1.14549, 1.17314, 1.16628, 1.15286, 1.13476, 1.13421, 1.13344, 1.12956, 1.12776, 1.12692, 1.08205, 1.0812, 1.12239, 1.07489, 1.04024, 1.04061, 1.04945, 1.05817, 1.06966, 1.05775, 1.05763, 1.0777, 1.07041, 1.07151, 1.0713, 1.07179, 1.07223, 1.07064, 1.06881, 1.07078, 1.32063, 1.07739, 1.32035, 1.33811, 1.33984, 1.0565, 1.05614, 1.05508, 1.05623, 1.04942, 1.04803, 1.04923, 1.05021, 1.05299, 1.05013, 1.053, 1.05422, 1.05413, 1.39174, 1.08027, 1.07768, 1.08419, 1.08329, 1.04295, 1.15292, 1.04629, 1.0469, 1.0467, 1.04224, 1.042, 1.04137, 1.03886, 1.18774, 1.03292, 1.03327, 1.03287, 1.02998, 1.02712, 1.02755, 1.03167, 1.02911, 1.0304, 1.03497, 1.12652, 1.12916
1.19627, 1.19422, 1.19429, 1.19221, 1.191, 1.29197, 1.18885, 1.17616, 1.17483, 1.17441, 1.17102, 1.17062, 1.16427, 1.16524, 1.16147, 1.16725, 1.15408, 1.15008, 1.14975, 1.14546, 1.25786, 1.243, 1.13405, 1.13323, 1.13367, 1.13607, 1.13582, 1.1358, 1.13457, 1.13538, 1.13543, 1.13508, 1.13308, 1.12885, 1.12687, 1.12684, 1.12483, 1.12422, 1.12678, 1.15659, 1.15346, 1.26125, 1.17138, 1.17265, 1.18338, 1.17995, 1.32711, 1.17164, 1.11711, 1.11563, 1.11119, 1.11155, 1.34318, 1.09379, 1.09132, 1.09123, 1.09089, 1.09098, 1.09247, 1.09166, 1.0926, 1.0906, 1.09087, 1.09232, 1.09607, 1.09808, 1.09946, 1.10141, 1.10577, 1.12177, 1.1835, 1.1731, 1.16149, 1.13148, 1.09118, 1.07581, 1.09757, 1.04237, 1.04259, 1.17544, 1.22939, 1.21418, 1.22238, 1.22069, 1.22195, 1.28775, 1.2874, 1.31393, 1.32914, 1.30359, 1.30338, 1.34421, 1.33054, 1.2863, 1.33009, 1.34698, 1.24645, 1.24797, 1.26498, 1.2625, 1.27691, 1.30263, 1.28434, 1.32066, 1.32237, 1.26899, 1.25631, 1.27409, 1.26417, 1.26398, 1.2621, 1.26857, 1.2692, 1.28787, 1.30209, 1.29758, 1.34669, 1.36785, 1.37092, 1.3609, 1.34444, 1.31948, 1.2743, 1.33604, 1.38751, 1.33885, 1.30922, 1.30917, 1.33751, 1.29106, 1.29029, 1.42548, 1.33022, 1.38438, 1.30292, 1.32649, 1.3279, 1.32577, 1.32474, 1.34132, 1.35699, 1.37957, 1.41053, 1.34101, 1.35137, 1.34652, 1.33152, 1.33623, 1.336, 1.36712, 1.37438, 1.39257, 1.39254, 1.40068, 1.34687, 1.3314, 1.32597, 1.33198, 1.31577, 1.30707, 1.30749, 1.32577, 1.32565, 1.39029, 1.31543, 1.34029, 1.2942, 1.31644, 1.30478, 1.30212, 1.29982, 1.29909, 1.29955, 1.32474, 1.36204, 1.42789, 1.42821, 1.37462, 1.3744, 1.34704, 1.25585, 1.25374, 1.23328, 1.29413, 1.22238, 1.22296, 1.24589, 1.21974, 1.18865, 1.19205, 1.191, 1.18189, 1.20652, 1.18963, 1.21621, 1.21228, 1.21383, 1.15024, 1.18151, 1.14374, 1.13363, 1.12272, 1.14654, 1.13618, 1.11898, 1.12583, 1.12304, 1.08456, 1.0662, 1.04653, 1.03549, 1.05334, 1.07847, 1.09552, 1.05834, 1.05725, 1.06994, 1.18755, 1.06787, 1.07088, 1.07047, 1.07129, 1.0685, 1.06749, 1.06688, 1.06854, 1.06706, 1.06623, 1.06166, 1.05971, 1.05621, 1.0547, 1.05354, 1.05199, 1.0526, 1.05018, 1.04982, 1.04963, 1.05113, 1.05393, 1.05635, 1.05688, 1.11238, 1.10792, 1.10808, 1.04362, 1.04362, 1.04385, 1.08213, 1.16354, 1.04674, 1.04625, 1.04579, 1.04641, 1.04663, 1.04594, 1.03452, 1.06705, 1.0241, 1.02647, 1.02813, 1.0285, 1.02815, 1.02883, 1.02313, 1.02654, 1.02991, 1.03175, 1.03328, 1.1
1.19495, 1.19496, 1.19539, 1.18654, 1.18089, 1.17504, 1.17391, 1.17256, 1.17354, 1.17348, 1.17342, 1.1701, 1.1678, 1.16495, 1.16541, 1.16045, 1.15273, 1.15167, 1.144, 1.14355, 1.14402, 1.15383, 1.13402, 1.13308, 1.13289, 1.1326, 1.1323, 1.1298, 1.12878, 1.12978, 1.13406, 1.13264, 1.13365, 1.13061, 1.12825, 1.12494, 1.12224, 1.12202, 1.12251, 1.12215, 1.30431, 1.14272, 1.13927, 1.13929, 1.20796, 1.20817, 1.18775, 1.1818, 1.20903, 1.1103, 1.11069, 1.11288, 1.23645, 1.15401, 1.15589, 1.14322, 1.09443, 1.09284, 1.0925, 1.09314, 1.09381, 1.0953, 1.09845, 1.105, 1.31166, 1.11041, 1.10849, 1.10279, 1.12475, 1.13034, 1.15097, 1.15133, 1.15039, 1.12768, 1.13565, 1.08069, 1.07555, 1.11603, 1.10532, 1.18762, 1.21909, 1.25908, 1.25737, 1.252, 1.2307, 1.26165, 1.26621, 1.28218, 1.30742, 1.30543, 1.27977, 1.28102, 1.27594, 1.28074, 1.28075, 1.34832, 1.28484, 1.27172, 1.29165, 1.34355, 1.29546, 1.35547, 1.35476, 1.32135, 1.32524, 1.34928, 1.26696, 1.27356, 1.29072, 1.26909, 1.27485, 1.2876, 1.29105, 1.29114, 1.30158, 1.30861, 1.30907, 1.31583, 1.31486, 1.32307, 1.3101, 1.29575, 1.29582, 1.29581, 1.28738, 1.3053, 1.30243, 1.30625, 1.38504, 1.30488, 1.3468, 1.33997, 1.33937, 1.37109, 1.3455, 1.34274, 1.31458, 1.31942, 1.32265, 1.32231, 1.32124, 1.41971, 1.38407, 1.40584, 1.40505, 1.32504, 1.32962, 1.34079, 1.34571, 1.32914, 1.34431, 1.35186, 1.33786, 1.33739, 1.32779, 1.30144, 1.33501, 1.33025, 1.30474, 1.41042, 1.30868, 1.3232, 1.32465, 1.36978, 1.33518, 1.33699, 1.37547, 1.30935, 1.33226, 1.33223, 1.32442, 1.33273, 1.31883, 1.39375, 1.39183, 1.3629, 1.36148, 1.30049, 1.30053, 1.353, 1.27507, 1.25846, 1.39872, 1.22986, 1.22783, 1.27252, 1.22652, 1.24595, 1.18493, 1.18209, 1.21704, 1.21673, 1.36997, 1.52948, 1.19881, 1.17381, 1.1792, 1.19226, 1.15963, 1.13222, 1.14211, 1.17719, 1.12049, 1.10053, 1.10528, 1.1136, 1.11187, 1.06681, 1.06903, 1.06724, 1.0232, 1.03483, 1.03231, 1.03163, 1.03188, 1.05081, 1.03361, 1.0564, 1.06265, 1.06446, 1.06647, 1.0669, 1.06709, 1.06647, 1.0635, 1.06354, 1.06543, 1.06305, 1.0603, 1.05923, 1.05877, 1.0589, 1.05032, 1.05394, 1.05299, 1.05327, 1.05283, 1.05314, 1.05436, 1.05614, 1.05649, 1.1401, 1.15564, 1.11267, 1.0465, 1.04532, 1.09708, 1.08462, 1.08498, 1.13112, 1.2364, 1.05015, 1.0502, 1.05969, 1.16557, 1.03851, 1.03745, 1.03596, 1.18079, 1.02537, 1.02277, 1.026, 1.02769, 1.02627, 1.0262, 1.02939, 1.03189, 1.03143, 1.03217, 1.05724
1.19695, 1.18943, 1.18655, 1.18537, 1.29919, 1.17168, 1.17134, 1.17042, 1.17299, 1.17251, 1.17345, 1.17065, 1.16984, 1.16195, 1.16378, 1.16172, 1.16011, 1.16023, 1.15711, 1.35467, 1.25068, 1.36365, 1.16058, 1.18439, 1.183, 1.13432, 1.13359, 1.13305, 1.39644, 1.12574, 1.12511, 1.12456, 1.12577, 1.12665, 1.12828, 1.12765, 1.12526, 1.12093, 1.12177, 1.11326, 1.12182, 1.12839, 1.13519, 1.13446, 1.13634, 1.13661, 1.13784, 1.13302, 1.12637, 1.11384, 1.11268, 1.11424, 1.31872, 1.13344, 1.13364, 1.27387, 1.10514, 1.10439, 1.2081, 1.09565, 1.09627, 1.09589, 1.11184, 1.10331, 1.199, 1.1158, 1.11879, 1.12644, 1.12886, 1.46949, 1.18421, 1.1443, 1.15321, 1.16613, 1.09809, 1.14989, 1.13587, 1.12908, 1.16898, 1.22957, 1.22054, 1.23657, 1.29075, 1.23904, 1.23681, 1.26008, 1.27576, 1.3123, 1.2704, 1.27062, 1.27166, 1.27314, 1.26588, 1.27622, 1.3204, 1.30988, 1.26436, 1.26424, 1.37829, 1.37873, 1.41497, 1.4163, 1.35026, 1.36092, 1.36064, 1.31853, 1.35881, 1.31595, 1.2732, 1.27714, 1.37464, 1.31296, 1.31553, 1.29783, 1.31771, 1.3434, 1.36131, 1.31916, 1.32421, 1.29874, 1.2987, 1.32611, 1.29365, 1.27565, 1.27476, 1.29586, 1.32026, 1.4058, 1.33581, 1.33565, 1.3327, 1.33462, 1.33391, 1.33404, 1.32306, 1.31331, 1.29695, 1.32441, 1.33669, 1.32034, 1.32822, 1.41368, 1.41461, 1.3674, 1.36761, 1.30713, 1.30651, 1.30143, 1.33387, 1.29038, 1.28426, 1.28719, 1.28567, 1.39622, 1.3738, 1.33282, 1.34203, 1.34354, 1.31222, 1.32421, 1.4014, 1.32473, 1.32343, 1.3192, 1.31852, 1.31021, 1.3808, 1.38002, 1.33036, 1.31164, 1.30561, 1.28264, 1.30689, 1.30259, 1.38284, 1.37183, 1.3676, 1.37784, 1.30514, 1.27949, 1.26087, 1.25987, 1.26111, 1.3119, 1.27049, 1.23373, 1.23143, 1.23134, 1.18328, 1.18288, 1.16763, 1.20375, 1.3781, 1.20646, 1.17995, 1.16756, 1.17135, 1.14629, 1.14927, 1.17742, 1.13053, 1.13824, 1.10451, 1.09078, 1.09163, 1.08683, 1.08869, 1.06281, 1.03895, 1.02934, 1.03569, 1.03604, 1.04629, 1.03464, 1.03593, 1.07052, 1.07077, 1.07896, 1.07923, 1.05998, 1.06407, 1.06469, 1.06573, 1.0662, 1.06308, 1.06209, 1.06012, 1.05861, 1.06069, 1.06039, 1.05979, 1.05854, 1.05545, 1.05451, 1.05307, 1.05379, 1.05341, 1.05365, 1.05408, 1.05073, 1.05294, 1.05254, 1.0527, 1.04911, 1.04672, 1.04755, 1.12104, 1.08535, 1.1192, 1.05517, 1.05546, 1.05607, 1.05181, 1.0494, 1.04397, 1.04385, 1.04168, 1.03463, 1.03374, 1.035, 1.03212, 1.03088, 1.032, 1.0287, 1.02911, 1.03015, 1.0304, 1.03179, 1.02929, 1.02928
1.19431, 1.19476, 1.18811, 1.38104, 1.41661, 1.16854, 1.16779, 1.16898, 1.17014, 1.173, 1.17254, 1.174, 1.16382, 1.16321, 1.16339, 1.16505, 1.1653, 1.16314, 1.16314, 1.21329, 1.215, 1.20816, 1.14581, 1.1453, 1.14139, 1.14018, 1.14237, 1.15349, 1.2574, 1.20371, 1.12899, 1.12809, 1.12789, 1.12582, 1.1285, 1.12909, 1.12341, 1.12291, 1.12175, 1.11715, 1.11649, 1.11683, 1.14051, 1.13335, 1.13227, 1.13454, 1.22711, 1.13631, 1.13615, 1.11576, 1.117, 1.11716, 1.12186, 1.12183, 1.12253, 1.11821, 1.11619, 1.11495, 1.11546, 1.25444, 1.0984, 1.09764, 1.09589, 1.09416, 1.22873, 1.21583, 1.22461, 1.22643, 1.14299, 1.14574, 1.1459, 1.14652, 1.15089, 1.12561, 1.11647, 1.09006, 1.12555, 1.12634, 1.15179, 1.21334, 1.23992, 1.2234, 1.23694, 1.23305, 1.33169, 1.32761, 1.35836, 1.28912, 1.28803, 1.2946, 1.28424, 1.28426, 1.27397, 1.26712, 1.27646, 1.27675, 1.29843, 1.32973, 1.33167, 1.33548, 1.38086, 1.35549, 1.38909, 1.37211, 1.37184, 1.30573, 1.30445, 1.30261, 1.30092, 1.3042, 1.30965, 1.30972, 1.3019, 1.29971, 1.29789, 1.35965, 1.37012, 1.37072, 1.36185, 1.31748, 1.31452, 1.30594, 1.30596, 1.32407, 1.3229, 1.30475, 1.35206, 1.38232, 1.34043, 1.33539, 1.35805, 1.34548, 1.34397, 1.38605, 1.42058, 1.42021, 1.28561, 1.32239, 1.32656, 1.36933, 1.43449, 1.34992, 1.37641, 1.37576, 1.36388, 1.38309, 1.34163, 1.36819, 1.35277, 1.32165, 1.32196, 1.31933, 1.30639, 1.31218, 1.3784, 1.37821, 1.32266, 1.32037, 1.31955, 1.38422, 1.35344, 1.40903, 1.40573, 1.31005, 1.36308, 1.32477, 1.32533, 1.3226, 1.36194, 1.32194, 1.28782, 1.28736, 1.27959, 1.27944, 1.28518, 1.28506, 1.36858, 1.34803, 1.33059, 1.26285, 1.26296, 1.26442, 1.26349, 1.29876, 1.23962, 1.23933, 1.23293, 1.25959, 1.18371, 1.22603, 1.15957, 1.17326, 1.17423, 1.23026, 1.23572, 1.18052, 1.18208, 1.14693, 1.14782, 1.13237, 1.13073, 1.13164, 1.13106, 1.12075, 1.09394, 1.12361, 1.12608, 1.07508, 1.08083, 1.02715, 1.04695, 1.03252, 1.01792, 1.01844, 1.00078, 1.05398, 1.01343, 1.07768, 1.0816, 1.11571, 1.06977, 1.06855, 1.0641, 1.06389, 1.06311, 1.06316, 1.05786, 1.05962, 1.06271, 1.06326, 1.06442, 1.06393, 1.06263, 1.05964, 1.05571, 1.05503, 1.05635, 1.05564, 1.05348, 1.05154, 1.05051, 1.05267, 1.05294, 1.29493, 1.04948, 1.04903, 1.05134, 1.05285, 1.05369, 1.05492, 1.05368, 1.05311, 1.05336, 1.13384, 1.04347, 1.04583, 1.03976, 1.0393, 1.03733, 1.0333, 1.03296, 1.02736, 1.02864, 1.02682, 1.03437, 1.03516, 1.02803, 1.0292, 1.03132, 1.02965
1.19306, 1.19449, 1.19521, 1.43772, 1.20148, 1.2202, 1.27519, 1.17336, 1.17287, 1.175, 1.17708, 1.1777, 1.20572, 1.16389, 1.16415, 1.167, 1.16838, 1.16882, 1.16279, 1.1617, 1.2716, 1.20523, 1.33247, 1.14514, 1.14388, 1.14357, 1.14149, 1.13967, 1.13904, 1.13926, 1.14801, 1.25001, 1.2437, 1.1465, 1.14651, 1.2366, 1.12919, 1.12753, 1.12683, 1.11695, 1.11551, 1.11606, 1.11756, 1.1219, 1.12514, 1.12243, 1.12006, 1.11859, 1.11827, 1.11955, 1.11785, 1.11765, 1.1184, 1.1185, 1.11892, 1.11885, 1.37991, 1.11448, 1.11356, 1.11162, 1.11145, 1.20391, 1.20314, 1.0948, 1.17527, 1.1785, 1.17871, 1.14647, 1.14428, 1.1339, 1.13294, 1.1304, 1.16796, 1.11244, 1.09316, 1.09281, 1.14608, 1.14575, 1.18856, 1.25708, 1.21897, 1.30158, 1.22201, 1.22198, 1.40813, 1.37371, 1.37535, 1.3582, 1.35724, 1.30361, 1.29083, 1.29097, 1.29544, 1.28399, 1.28387, 1.27821, 1.27387, 1.32059, 1.32456, 1.33997, 1.32869, 1.34895, 1.36046, 1.36734, 1.31653, 1.31405, 1.31204, 1.32286, 1.31387, 1.39604, 1.39517, 1.39516, 1.34963, 1.30642, 1.3238, 1.35675, 1.41006, 1.33124, 1.33189, 1.41199, 1.31593, 1.31039, 1.31348, 1.31819, 1.35067, 1.32282, 1.38198, 1.32117, 1.34355, 1.37105, 1.37081, 1.47163, 1.40007, 1.34626, 1.39995, 1.37533, 1.35836, 1.32922, 1.34672, 1.32598, 1.33394, 1.4849, 1.33706, 1.33718, 1.338, 1.33762, 1.34343, 1.35043, 1.36936, 1.34279, 1.38674, 1.34905, 1.37365, 1.34049, 1.34069, 1.35243, 1.35257, 1.34773, 1.3163, 1.31513, 1.33991, 1.38111, 1.38023, 1.38021, 1.33392, 1.33337, 1.32654, 1.31093, 1.32561, 1.30064, 1.30706, 1.32417, 1.27261, 1.27251, 1.28427, 1.28184, 1.28199, 1.2944, 1.34382, 1.29481, 1.26481, 1.264, 1.26496, 1.24986, 1.25942, 1.23292, 1.23107, 1.30523, 1.19093, 1.17819, 1.1672, 1.16922, 1.16679, 1.19096, 1.15839, 1.14553, 1.17357, 1.2333, 1.17004, 1.17056, 1.13876, 1.1395, 1.14777, 1.16424, 1.13768, 1.0976, 1.09927, 1.11217, 1.09067, 1.07227, 1.06788, 1.07401, 1.01545, 1.03667, 0.992476, 1.00481, 1.03088, 1.08748, 1.04572, 1.11701, 1.06518, 1.06697, 1.06774, 1.06723, 1.06338, 1.06262, 1.05914, 1.05695, 1.05828, 1.0643, 1.35046, 1.12903, 1.05873, 1.06016, 1.05824, 1.05642, 1.05547, 1.05345, 1.05059, 1.0481, 1.0488, 1.05075, 1.05349, 1.05287, 1.05309, 1.05099, 1.05115, 1.2296, 1.05343, 1.05429, 1.05319, 1.05105, 1.05107, 1.04542, 1.0442, 1.03883, 1.03872, 1.03426, 1.0338, 1.03373, 1.02743, 1.0257, 1.02591, 1.02876, 1.01573, 1.01735, 1.11508, 1.02955, 1.03043, 1.02766
1.19412, 1.19427, 1.19455, 1.39003, 1.22928, 1.51523, 1.182, 1.18231, 1.17875, 1.17741, 1.177, 1.17763, 1.33644, 1.16398, 1.16511, 1.16568, 1.16863, 1.1684, 1.16912, 1.16284, 1.15825, 1.1947, 1.19453, 1.18413, 1.24403, 1.14052, 1.13942, 1.13912, 1.14007, 1.14033, 1.14171, 1.14232, 1.15138, 1.14272, 1.13966, 1.31909, 1.13013, 1.12636, 1.12531, 1.1273, 1.1218, 1.11834, 1.11555, 1.11616, 1.11871, 1.12247, 1.12213, 1.11996, 1.11877, 1.11986, 1.10853, 1.11671, 1.11684, 1.11676, 1.11609, 1.11645, 1.10729, 1.10543, 1.10706, 1.10814, 1.33277, 1.33114, 1.31183, 1.21, 1.34317, 1.16719, 1.16723, 1.14388, 1.14428, 1.30924, 1.30856, 1.35739, 1.10543, 1.10556, 1.09087, 1.09066, 1.18672, 1.18675, 1.18257, 1.2387, 1.2661, 1.26791, 1.23064, 1.41493, 1.38806, 1.3809, 1.37789, 1.36486, 1.36857, 1.36919, 1.31451, 1.29221, 1.29133, 1.29518, 1.28884, 1.30606, 1.3033, 1.28639, 1.28607, 1.30013, 1.30522, 1.33433, 1.30835, 1.31307, 1.31894, 1.31256, 1.31975, 1.3079, 1.31902, 1.33948, 1.33951, 1.38344, 1.32175, 1.32142, 1.33843, 1.40609, 1.40543, 1.3439, 1.38892, 1.41001, 1.32727, 1.29794, 1.29859, 1.30715, 1.33271, 1.33245, 1.33206, 1.34823, 1.30941, 1.31541, 1.31428, 1.33325, 1.34539, 1.37895, 1.37804, 1.37872, 1.35379, 1.45508, 1.43692, 1.4347, 1.34975, 1.48252, 1.3456, 1.32924, 1.33225, 1.33073, 1.33012, 1.33495, 1.36477, 1.32005, 1.36437, 1.3583, 1.36053, 1.37172, 1.315, 1.34866, 1.38089, 1.38401, 1.38788, 1.32202, 1.33107, 1.30721, 1.3065, 1.37167, 1.32779, 1.30995, 1.30875, 1.33353, 1.38087, 1.31953, 1.34403, 1.31431, 1.30963, 1.26782, 1.2739, 1.28212, 1.2635, 1.27744, 1.27453, 1.28363, 1.27559, 1.25798, 1.25945, 1.25452, 1.30897, 1.24217, 1.25812, 1.26703, 1.24294, 1.18898, 1.16884, 1.16819, 1.18444, 1.19985, 1.18479, 1.19079, 1.20629, 1.208, 1.1618, 1.15538, 1.1581, 1.14658, 1.1603, 1.14746, 1.13202, 1.10172, 1.10195, 1.19163, 1.11217, 1.10903, 1.10811, 1.07939, 1.04353, 1.01937, 1.02075, 1.04747, 1.02262, 1.02209, 1.02218, 1.06321, 1.05739, 1.05693, 1.05396, 1.06971, 1.06944, 1.06695, 1.05816, 1.05717, 1.05628, 1.05637, 1.05244, 1.05245, 1.04983, 1.04943, 1.05014, 1.31536, 1.15722, 1.04625, 1.04645, 1.04471, 1.04533, 1.04796, 1.04689, 1.26827, 1.05071, 1.05219, 1.04954, 1.04841, 1.04912, 1.04835, 1.04845, 1.04933, 1.0455, 1.0431, 1.04243, 1.03424, 1.03335, 1.03007, 1.02778, 1.02854, 1.02297, 1.02141, 1.02372, 1.02543, 1.02333, 1.02297, 1.02756, 1.0305, 1.03186, 1.03193
1.19588, 1.19601, 1.19768, 1.19175, 1.30912, 1.3796, 1.40171, 1.39861, 1.1881, 1.18702, 1.17705, 1.177, 1.17604, 1.17119, 1.34476, 1.16659, 1.16667, 1.16831, 1.16888, 1.16732, 1.1597, 1.15661, 1.15249, 1.18114, 1.14043, 1.13966, 1.14015, 1.14205, 1.14284, 1.14402, 1.144, 1.14439, 1.14482, 1.1465, 1.14321, 1.19446, 1.31133, 1.13058, 1.12695, 1.12663, 1.12631, 1.12272, 1.12099, 1.1183, 1.11976, 1.12467, 1.12499, 1.12273, 1.1217, 1.12272, 1.11968, 1.11945, 1.12066, 1.12055, 1.11912, 1.11595, 1.11659, 1.36687, 1.11087, 1.10825, 1.10705, 1.20153, 1.26837, 1.13555, 1.13541, 1.13561, 1.13935, 1.14496, 1.14529, 1.12938, 1.12922, 1.12738, 1.09826, 1.08221, 1.1274, 1.13626, 1.17194, 1.18132, 1.21619, 1.24752, 1.24692, 1.26267, 1.3919, 1.42102, 1.38516, 1.37835, 1.36368, 1.36747, 1.35795, 1.36386, 1.36521, 1.31446, 1.3774, 1.38044, 1.31203, 1.31274, 1.27975, 1.2795, 1.35879, 1.27566, 1.27602, 1.30341, 1.34103, 1.32495, 1.32708, 1.31382, 1.31908, 1.38299, 1.2954, 1.33571, 1.30103, 1.29129, 1.2917, 1.40852, 1.37815, 1.38111, 1.32487, 1.34897, 1.29233, 1.29621, 1.29456, 1.29376, 1.33986, 1.3167, 1.38461, 1.3856, 1.34418, 1.35793, 1.30796, 1.36541, 1.3366, 1.34026, 1.39247, 1.34233, 1.42825, 1.42891, 1.41616, 1.41084, 1.40109, 1.39288, 1.42645, 1.34156, 1.31895, 1.31814, 1.31594, 1.31533, 1.35242, 1.3672, 1.39896, 1.35945, 1.31518, 1.31616, 1.31372, 1.31208, 1.31082, 1.30946, 1.32691, 1.32215, 1.32891, 1.33954, 1.4127, 1.37513, 1.37816, 1.37908, 1.30822, 1.30722, 1.43659, 1.5663, 1.3467, 1.31502, 1.32608, 1.32563, 1.31675, 1.26444, 1.26192, 1.26367, 1.28663, 1.28453, 1.27718, 1.27767, 1.27851, 1.28663, 1.36413, 1.36418, 1.32661, 1.22607, 1.28966, 1.25172, 1.24997, 1.18416, 1.19828, 1.19772, 1.25717, 1.20469, 1.18425, 1.18472, 1.20612, 1.1818, 1.23656, 1.2372, 1.16466, 1.18396, 1.16809, 1.1364, 1.11375, 1.10679, 1.10539, 1.11119, 1.05979, 1.06093, 1.06336, 1.05393, 1.02986, 0.993866, 0.992045, 0.994588, 1.03395, 1.03264, 1.05195, 1.0518, 1.05357, 1.05396, 1.07253, 1.07241, 1.06644, 1.07317, 1.05661, 1.21263, 1.05049, 1.05171, 1.22442, 1.33348, 1.04647, 1.04566, 1.04556, 1.0451, 1.04396, 1.04339, 1.04478, 1.04511, 1.04329, 1.04369, 1.04156, 1.04185, 1.04321, 1.04816, 1.04829, 1.04962, 1.05135, 1.05036, 1.04672, 1.04594, 1.04091, 1.03723, 1.03225, 1.03185, 1.03214, 1.02871, 1.02687, 1.02524, 1.02504, 1.02439, 1.02285, 1.35157, 1.35261, 1.11552, 1.12343, 1.55134, 1.03076, 1.03165
1.20199, 1.20067, 1.20174, 1.5223, 1.1978, 1.19624, 1.19553, 1.38927, 1.19414, 1.18864, 1.18536, 1.18111, 1.17729, 1.17691, 1.17717, 1.178, 1.29612, 1.16989, 1.17004, 1.16298, 1.16398, 1.32644, 1.1448, 1.1443, 1.14396, 1.14435, 1.14458, 1.14681, 1.14286, 1.14245, 1.14258, 1.14316, 1.14366, 1.1459, 1.14576, 1.14255, 1.14286, 1.14399, 1.14206, 1.12987, 1.21358, 1.12265, 1.12143, 1.12175, 1.12978, 1.12958, 1.12879, 1.12681, 1.12542, 1.12508, 1.12784, 1.11768, 1.11855, 1.12303, 1.1228, 1.12153, 1.12206, 1.1191, 1.35097, 1.34576, 1.23479, 1.27702, 1.13544, 1.13564, 1.1339, 1.13588, 1.31295, 1.14843, 1.13793, 1.14247, 1.1421, 1.13918, 1.11051, 1.11062, 1.13741, 1.18717, 1.17483, 1.22261, 1.23076, 1.30784, 1.30871, 1.26678, 1.30627, 1.2867, 1.33369, 1.33408, 1.36405, 1.3581, 1.37856, 1.35501, 1.35829, 1.31207, 1.31228, 1.34781, 1.28168, 1.28119, 1.30076, 1.28819, 1.29316, 1.34512, 1.28853, 1.28804, 1.29817, 1.31986, 1.31092, 1.31151, 1.31571, 1.31534, 1.31521, 1.31529, 1.32281, 1.32082, 1.29016, 1.29066, 1.29112, 1.31995, 1.30806, 1.28595, 1.29776, 1.29579, 1.29899, 1.29717, 1.29694, 1.30521, 1.48906, 1.38174, 1.33107, 1.33029, 1.32254, 1.39536, 1.32458, 1.43495, 1.43338, 1.58342, 1.58266, 1.57566, 1.57316, 1.40182, 1.40827, 1.37093, 1.37833, 1.36858, 1.3518, 1.33738, 1.36059, 1.35406, 1.38452, 1.38431, 1.37895, 1.36143, 1.36338, 1.37572, 1.34069, 1.31939, 1.34112, 1.28956, 1.30543, 1.30371, 1.34788, 1.32666, 1.33298, 1.32255, 1.41183, 1.41259, 1.35071, 1.38111, 1.38135, 1.3855, 1.38888, 1.3058, 1.34019, 1.32335, 1.32283, 1.39036, 1.35058, 1.42709, 1.26075, 1.28813, 1.34639, 1.31893, 1.33657, 1.34683, 1.36585, 1.36837, 1.24666, 1.23991, 1.31213, 1.24291, 1.19448, 1.19436, 1.20469, 1.27031, 1.21213, 1.21824, 1.26198, 1.16906, 1.18503, 1.20272, 1.23011, 1.23911, 1.20213, 1.21196, 1.17065, 1.11121, 1.10131, 1.1223, 1.06858, 1.06881, 1.0668, 1.05226, 1.01298, 1.01188, 1.00776, 1.00732, 1.00626, 1.04409, 1.05931, 1.0299, 1.02472, 1.0362, 1.03621, 1.0323, 1.03291, 1.06215, 1.06289, 1.06019, 1.06111, 1.05063, 1.05031, 1.04964, 1.05274, 1.05284, 1.14221, 1.04766, 1.04707, 1.04626, 1.3304, 1.16853, 1.0488, 1.04886, 1.04437, 1.04361, 1.04231, 1.0423, 1.04158, 1.04364, 1.04482, 1.04578, 1.04569, 1.04879, 1.06123, 1.05563, 1.05179, 1.12571, 1.03184, 1.0295, 1.02979, 1.02436, 1.02714, 1.02672, 1.0252, 1.02617, 1.02534, 1.01855, 1.01827, 1.01815, 1.31218, 1.03923, 1.03968, 1.03274
1.20518, 1.20332, 1.20572, 1.20437, 1.19901, 1.19748, 1.19724, 1.19835, 1.19837, 1.1985, 1.19274, 1.18417, 1.18353, 1.18298, 1.17702, 1.178, 1.17557, 1.17608, 1.40225, 1.2731, 1.14893, 1.14735, 1.14656, 1.14247, 1.14302, 1.14316, 1.14346, 1.26926, 1.16665, 1.16819, 1.14287, 1.14362, 1.14367, 1.16992, 1.16827, 1.14677, 1.14514, 1.1435, 1.14205, 1.14123, 1.13667, 1.12553, 1.12495, 1.13564, 1.14985, 1.14944, 1.53945, 1.13161, 1.1311, 1.12973, 1.12689, 1.1351, 1.12346, 1.12629, 1.12594, 1.12625, 1.13248, 1.29385, 1.20014, 1.20111, 1.12927, 1.13032, 1.13456, 1.13608, 1.1376, 1.2286, 1.15168, 1.14919, 1.27306, 1.14632, 1.14616, 1.08358, 1.08382, 1.10151, 1.12468, 1.13941, 1.2228, 1.22515, 1.22242, 1.26408, 1.28737, 1.30936, 1.3227, 1.32306, 1.30157, 1.3352, 1.33946, 1.31239, 1.30942, 1.30789, 1.32912, 1.30015, 1.29903, 1.29942, 1.28795, 1.28556, 1.2882, 1.36811, 1.28675, 1.28751, 1.28898, 1.2931, 1.28471, 1.32105, 1.31903, 1.35121, 1.33338, 1.3335, 1.31054, 1.31827, 1.29849, 1.29504, 1.29129, 1.29162, 1.2916, 1.28845, 1.28636, 1.28546, 1.32237, 1.31053, 1.29358, 1.29935, 1.30047, 1.30156, 1.31465, 1.38734, 1.40271, 1.32441, 1.30525, 1.39652, 1.33135, 1.39219, 1.40003, 1.69927, 1.57249, 1.57503, 1.56116, 1.40521, 1.40592, 1.40705, 1.40921, 1.41618, 1.34291, 1.33094, 1.37422, 1.3667, 1.36376, 1.35468, 1.48573, 1.50123, 1.35625, 1.35401, 1.30021, 1.36067, 1.27644, 1.29483, 1.29413, 1.3316, 1.30148, 1.29919, 1.30815, 1.30295, 1.30412, 1.33484, 1.34728, 1.33013, 1.3197, 1.32604, 1.33661, 1.38128, 1.31239, 1.31385, 1.3358, 1.3116, 1.32221, 1.3545, 1.26002, 1.35695, 1.35497, 1.35714, 1.34822, 1.34985, 1.33691, 1.34305, 1.28246, 1.32594, 1.24273, 1.28483, 1.23266, 1.20658, 1.22699, 1.24657, 1.26429, 1.2369, 1.25758, 1.17957, 1.18126, 1.18206, 1.18562, 1.15699, 1.14913, 1.14261, 1.11831, 1.11654, 1.10505, 1.08376, 1.1088, 1.07427, 1.06083, 1.06079, 1.03334, 1.0166, 1.02928, 1.01154, 1.05117, 1.01007, 1.01032, 1.03322, 0.998916, 1.00208, 1.16066, 1.14698, 1.15059, 1.05761, 1.05886, 1.05965, 1.05809, 1.0595, 1.04954, 1.04971, 1.0508, 1.05237, 1.05222, 1.05262, 1.05071, 1.052, 1.05279, 1.05243, 1.04911, 1.04604, 1.04476, 1.044, 1.04276, 1.0425, 1.04356, 1.04227, 1.04276, 1.04314, 1.04172, 1.04302, 1.04272, 1.04296, 1.04259, 1.07005, 1.07429, 1.03205, 1.03207, 1.03119, 1.0293, 1.02569, 1.02528, 1.02464, 1.0243, 1.0231, 1.04048, 1.18244, 1.02958, 1.03009, 1.03177, 1.03077
1.20672, 1.2068, 1.20814, 1.20718, 1.20268, 1.19954, 1.19879, 1.19944, 1.19858, 1.19561, 1.19508, 1.18543, 1.18399, 1.18218, 1.18074, 1.17864, 1.17587, 1.17398, 1.17363, 1.17614, 1.20936, 1.14874, 1.15219, 1.1547, 1.268, 1.17485, 1.1529, 1.15278, 1.15295, 1.15465, 1.16783, 1.16697, 1.16723, 1.16691, 1.14956, 1.15092, 1.15036, 1.14847, 1.14626, 1.14621, 1.27967, 1.18666, 1.12995, 1.12921, 1.13144, 1.14611, 1.51971, 1.14176, 1.14096, 1.13876, 1.13644, 1.13363, 1.13032, 1.13003, 1.12886, 1.12941, 1.1304, 1.13302, 1.13341, 1.13565, 1.13607, 1.13596, 1.13879, 1.14038, 1.15337, 1.15428, 1.15911, 1.15437, 1.19343, 1.14978, 1.14024, 1.10144, 1.10172, 1.11243, 1.13275, 1.15002, 1.16681, 1.18648, 1.23358, 1.24553, 1.24912, 1.26499, 1.26303, 1.30416, 1.29397, 1.29162, 1.30955, 1.30079, 1.30006, 1.29825, 1.29075, 1.30046, 1.3153, 1.31926, 1.35095, 1.31199, 1.33832, 1.28815, 1.28688, 1.39414, 1.28497, 1.28468, 1.31837, 1.4159, 1.39664, 1.31854, 1.31564, 1.30841, 1.30707, 1.30679, 1.29243, 1.29285, 1.29451, 1.28959, 1.2891, 1.29876, 1.29844, 1.29979, 1.29423, 1.30066, 1.30625, 1.31394, 1.29201, 1.29208, 1.31648, 1.38082, 1.37952, 1.38113, 1.42243, 1.37506, 1.38122, 1.38197, 1.37559, 1.37062, 1.36745, 1.40311, 1.38734, 1.40581, 1.39912, 1.39802, 1.37991, 1.39023, 1.32662, 1.32595, 1.41266, 1.41203, 1.37102, 1.46778, 1.36451, 1.41331, 1.4101, 1.36479, 1.3097, 1.28776, 1.27776, 1.2773, 1.28944, 1.31951, 1.30917, 1.3079, 1.29918, 1.36826, 1.30802, 1.30229, 1.31256, 1.29718, 1.30876, 1.3401, 1.32713, 1.35029, 1.32283, 1.35421, 1.30133, 1.29984, 1.32345, 1.30103, 1.28959, 1.37565, 1.36453, 1.27451, 1.25855, 1.27832, 1.26786, 1.25794, 1.26926, 1.25756, 1.23022, 1.25491, 1.2364, 1.22387, 1.21493, 1.19196, 1.24266, 1.21836, 1.20012, 1.17121, 1.17049, 1.15617, 1.15432, 1.14719, 1.15375, 1.13629, 1.12072, 1.10369, 1.08016, 1.0798, 1.08533, 1.06099, 1.04064, 1.0492, 1.02592, 1.02974, 1.01206, 1.00832, 0.998039, 1.01968, 1.01891, 1.00454, 1.00463, 1.05887, 1.03878, 1.14713, 1.05016, 1.05174, 1.05404, 1.14915, 1.05722, 1.05828, 1.05966, 1.04819, 1.04722, 1.04902, 1.0499, 1.0539, 1.05422, 1.05412, 1.05171, 1.04938, 1.04933, 1.04457, 1.04289, 1.04232, 1.04255, 1.04285, 1.04367, 1.04332, 1.04231, 1.04134, 1.04109, 1.04154, 1.04158, 1.04256, 1.04309, 1.04232, 1.0389, 1.03931, 1.03602, 1.03056, 1.03078, 1.03015, 1.16441, 1.02299, 1.10284, 1.03116, 1.03167, 1.03179, 1.0313, 1.02983, 1.03062, 1.0308
1.20758, 1.20733, 1.20809, 1.20786, 1.20804, 1.20466, 1.20472, 1.20443, 1.20015, 1.19715, 1.19636, 1.19003, 1.18525, 1.18249, 1.18193, 1.17768, 1.17536, 1.17522, 1.17324, 1.17239, 1.17718, 1.17956, 1.16045, 1.15971, 1.16056, 1.16165, 1.25196, 1.17145, 1.15602, 1.81301, 1.15777, 1.15903, 1.16369, 1.14879, 1.14939, 1.15039, 1.15023, 1.14871, 1.14822, 1.14842, 1.16709, 1.17537, 1.17422, 1.16121, 1.49653, 1.16974, 1.14621, 1.14697, 1.14307, 1.14049, 1.13964, 1.13559, 1.13014, 1.12932, 1.12897, 1.12953, 1.13252, 1.13269, 1.13816, 1.13735, 1.1393, 1.13766, 1.13641, 1.22644, 1.16457, 1.16499, 1.16608, 1.16645, 1.16437, 1.14869, 1.10117, 1.10181, 1.12846, 1.10294, 1.1097, 1.14091, 1.14384, 1.15368, 1.21772, 1.25393, 1.24413, 1.31491, 1.31503, 1.26912, 1.32031, 1.29143, 1.40573, 1.31056, 1.29942, 1.30545, 1.35804, 1.33967, 1.28992, 1.30392, 1.30203, 1.31025, 1.38205, 1.36833, 1.29796, 1.29799, 1.28754, 1.41702, 1.40294, 1.33161, 1.32685, 1.35119, 1.44065, 1.38472, 1.3845, 1.3047, 1.30561, 1.29727, 1.30228, 1.30714, 1.28619, 1.28809, 1.29708, 1.31252, 1.32465, 1.30685, 1.3374, 1.31296, 1.31268, 1.29836, 1.3845, 1.38401, 1.42689, 1.42647, 1.37981, 1.38005, 1.36178, 1.42012, 1.41594, 1.41372, 1.40277, 1.36881, 1.45421, 1.41563, 1.41682, 1.41692, 1.42308, 1.34727, 1.35691, 1.3995, 1.38138, 1.34683, 1.34878, 1.37295, 1.35509, 1.33757, 1.31937, 1.33728, 1.3584, 1.31532, 1.37921, 1.37881, 1.3189, 1.29728, 1.32581, 1.3159, 1.35735, 1.31082, 1.31178, 1.39974, 1.33308, 1.29271, 1.29155, 1.29786, 1.29883, 1.3358, 1.32207, 1.32145, 1.33592, 1.33517, 1.32649, 1.26389, 1.24808, 1.25914, 1.26082, 1.26182, 1.26203, 1.25677, 1.2576, 1.26465, 1.22697, 1.22301, 1.22232, 1.22296, 1.22628, 1.22382, 1.20861, 1.18863, 1.20566, 1.1785, 1.21675, 1.18342, 1.1788, 1.16024, 1.1597, 1.15966, 1.14936, 1.14764, 1.11526, 1.11421, 1.1237, 1.10764, 1.08376, 1.10986, 1.10909, 1.09725, 1.07706, 1.03024, 1.0308, 1.05278, 1.06552, 1.05004, 1.04003, 1.01618, 1.00318, 1.03465, 1.03555, 1.03935, 1.14965, 1.04585, 1.04892, 1.05046, 1.05017, 1.05764, 1.06308, 1.06383, 1.04655, 1.04536, 1.0463, 1.04701, 1.04994, 1.05074, 1.04923, 1.04681, 1.04742, 1.04596, 1.04315, 1.04104, 1.18505, 1.51238, 1.04327, 1.04235, 1.04282, 1.04036, 1.04051, 1.03953, 1.03994, 1.04253, 1.05073, 1.04204, 1.04237, 1.04238, 1.10609, 1.03541, 1.03657, 1.09892, 1.09496, 1.05003, 1.03413, 1.03384, 1.03356, 1.03511, 1.02758, 1.03093, 1.03181, 1.03205
1.20811, 1.20787, 1.20722, 1.20803, 1.20833, 1.20991, 1.2079, 1.2087, 1.20934, 1.44673, 1.45844, 1.45644, 1.18146, 1.18051, 1.17766, 1.17702, 1.17663, 1.17415, 1.17377, 1.17349, 1.17339, 1.17325, 1.17754, 1.33591, 1.16193, 1.16098, 1.16129, 1.1572, 1.15852, 1.15986, 1.15882, 1.15721, 1.1577, 1.15073, 1.15064, 1.15057, 1.14968, 1.14956, 1.14653, 1.1494, 1.14961, 1.14244, 1.14225, 1.16065, 1.1444, 1.14496, 1.14711, 1.14685, 1.14756, 1.1472, 1.14325, 1.1345, 1.13286, 1.13311, 1.13115, 1.13211, 1.13404, 1.13499, 1.13488, 1.13587, 1.23962, 1.16365, 1.1472, 1.1533, 1.15974, 1.16206, 1.16103, 1.17154, 1.18489, 1.2296, 1.23256, 1.24845, 1.10446, 1.10181, 1.07867, 1.12079, 1.14538, 1.19856, 1.19829, 1.20969, 1.30263, 1.2872, 1.31111, 1.30193, 1.29251, 1.30848, 1.32052, 1.40589, 1.35066, 1.34057, 1.35435, 1.35352, 1.34991, 1.30319, 1.30272, 1.2937, 1.29239, 1.30265, 1.27189, 1.28519, 1.3638, 1.40392, 1.41983, 1.34238, 1.40166, 1.40645, 1.35462, 1.41042, 1.38717, 1.31731, 1.29741, 1.29897, 1.3033, 1.29272, 1.29593, 1.28843, 1.29102, 1.28902, 1.42754, 1.44106, 1.44172, 1.30526, 1.31265, 1.32679, 1.37799, 1.47753, 1.382, 1.36731, 1.37562, 1.39588, 1.39476, 1.409, 1.33628, 1.33182, 1.36341, 1.44314, 1.37624, 1.41947, 1.42637, 1.36684, 1.31517, 1.32579, 1.32587, 1.34402, 1.32953, 1.31201, 1.35022, 1.30064, 1.30617, 1.30153, 1.32808, 1.32742, 1.35209, 1.31991, 1.34128, 1.33944, 1.33674, 1.41955, 1.30238, 1.30161, 1.31193, 1.30704, 1.319, 1.56629, 1.52696, 1.34248, 1.34304, 1.3051, 1.3048, 1.31151, 1.3162, 1.30129, 1.30423, 1.31365, 1.27912, 1.23849, 1.23913, 1.24281, 1.26417, 1.26365, 1.26819, 1.26801, 1.27952, 1.26754, 1.30471, 1.286, 1.21874, 1.21293, 1.21306, 1.22026, 1.21218, 1.18384, 1.18449, 1.18275, 1.20379, 1.16979, 1.17128, 1.15041, 1.15148, 1.1661, 1.15998, 1.16516, 1.13019, 1.10996, 1.11164, 1.1117, 1.09617, 1.12245, 1.11893, 1.10233, 1.09825, 1.09425, 1.04345, 1.04398, 1.06056, 1.0155, 1.01192, 1.06668, 1.06438, 1.06269, 1.15104, 1.04204, 1.04225, 1.04214, 1.04286, 1.04559, 1.04764, 1.04677, 1.04666, 1.04956, 1.04547, 1.04027, 1.04201, 1.04458, 1.04636, 1.04711, 1.04917, 1.04941, 1.05029, 1.43548, 1.1649, 1.39487, 1.11088, 1.07378, 1.03932, 1.04054, 1.04086, 1.04071, 1.04044, 1.03941, 1.0389, 1.03928, 1.04042, 1.04051, 1.04238, 1.03983, 1.04006, 1.03902, 1.04123, 1.04036, 1.03811, 1.03914, 1.03899, 1.03575, 1.03671, 1.03026, 1.03034, 1.02915, 1.03068, 1.03222
1.21128, 1.20933, 1.20895, 1.2082, 1.20973, 1.20985, 1.21085, 1.27539, 1.21635, 1.21525, 1.21501, 1.3709, 1.18457, 1.18299, 1.17748, 1.17676, 1.17625, 1.17485, 1.1749, 1.17371, 1.17237, 1.17606, 1.17547, 1.17266, 1.16487, 1.16339, 1.15989, 1.16001, 1.15555, 1.15624, 1.15531, 1.16158, 1.15451, 1.15488, 1.15272, 1.15278, 1.15333, 1.15381, 1.19318, 1.1484, 1.14938, 1.14901, 1.14234, 1.14249, 1.14379, 1.14732, 1.14876, 1.14813, 1.14884, 1.14917, 1.14968, 1.1404, 1.1396, 1.1396, 1.13976, 1.14337, 1.13929, 1.13771, 1.13615, 1.13621, 1.13705, 1.16875, 1.19596, 1.16429, 1.16457, 1.16056, 1.15913, 1.28442, 1.12871, 1.12865, 1.10502, 1.10122, 1.0961, 1.09494, 1.12709, 1.10232, 1.16409, 1.17981, 1.19527, 1.20016, 1.21403, 1.28088, 1.23501, 1.23492, 1.23647, 1.29941, 1.34323, 1.34493, 1.35051, 1.36344, 1.36416, 1.3759, 1.30897, 1.31079, 1.30969, 1.2997, 1.28278, 1.28193, 1.3021, 1.30286, 1.39245, 1.41726, 1.35082, 1.36527, 1.34406, 1.33993, 1.34003, 1.30744, 1.30819, 1.28776, 1.28741, 1.30312, 1.30389, 1.30455, 1.31565, 1.28609, 1.28607, 1.29051, 1.31164, 1.32633, 1.30548, 1.31023, 1.31007, 1.33595, 1.39151, 1.34748, 1.34977, 1.3712, 1.39624, 1.3294, 1.32988, 1.31801, 1.33294, 1.32355, 1.32254, 1.33535, 1.33478, 1.36021, 1.30265, 1.31689, 1.30611, 1.29991, 1.29835, 1.3435, 1.3433, 1.32426, 1.29161, 1.29135, 1.27242, 1.35407, 1.27911, 1.32648, 1.38083, 1.33033, 1.31349, 1.31277, 1.36838, 1.36639, 1.31763, 1.30003, 1.3, 1.29986, 1.29935, 1.33216, 1.36519, 1.40903, 1.3889, 1.32562, 1.32549, 1.3681, 1.32977, 1.30557, 1.32829, 1.3432, 1.33553, 1.24858, 1.24146, 1.25191, 1.25604, 1.25123, 1.25402, 1.30509, 1.31001, 1.35781, 1.26297, 1.32823, 1.28126, 1.28865, 1.2157, 1.21574, 1.21047, 1.18244, 1.18291, 1.17758, 1.17709, 1.20593, 1.28076, 1.16856, 1.16214, 1.16406, 1.13246, 1.13651, 1.1375, 1.09968, 1.09785, 1.116, 1.11671, 1.06433, 1.06356, 1.0528, 1.06841, 1.09217, 1.02584, 1.03408, 1.04299, 1.0287, 1.01595, 1.02036, 1.04933, 1.03694, 1.03712, 1.04339, 1.04255, 1.04384, 1.04489, 1.04549, 1.04431, 1.04109, 1.04233, 1.04281, 1.04567, 1.04324, 1.0419, 1.04257, 1.04262, 1.04397, 1.04561, 1.04553, 1.12678, 1.05824, 1.06298, 1.03426, 1.03318, 1.03219, 1.30308, 1.03724, 1.03973, 1.03975, 1.04057, 1.04166, 1.04123, 1.03951, 1.03849, 1.03898, 1.03985, 1.0402, 1.04075, 1.04235, 1.04097, 1.08828, 1.03868, 1.03549, 1.03664, 1.03719, 1.03379, 1.03277, 1.03176, 1.03209, 1.03127, 1.03179
1.21003, 1.20965, 1.2091, 1.21113, 1.2107, 1.20924, 1.20741, 1.20867, 1.21673, 1.21843, 1.32008, 1.21644, 1.18535, 1.18508, 1.18633, 1.18593, 1.18055, 1.1775, 1.17898, 1.17793, 1.1772, 1.17716, 1.17772, 1.17677, 1.16899, 1.16565, 1.16298, 1.16315, 1.16194, 1.1602, 1.16034, 1.15422, 1.15753, 1.15802, 1.15639, 1.1571, 1.15633, 1.15565, 1.15562, 1.15553, 1.16094, 1.16329, 1.14305, 1.14261, 1.14302, 1.14316, 1.14582, 1.14474, 1.14565, 1.14929, 1.14886, 1.14607, 1.14558, 1.14415, 1.14425, 1.14275, 1.14276, 1.14201, 1.14191, 1.1429, 1.13945, 1.22306, 1.19441, 1.17014, 1.17028, 1.16267, 1.15875, 1.18758, 1.15413, 1.12936, 1.12965, 1.09593, 1.09524, 1.1235, 1.12253, 1.11802, 1.13544, 1.19121, 1.21305, 1.21794, 1.20943, 1.24258, 1.22974, 1.23908, 1.27672, 1.34733, 1.33274, 1.32599, 1.33723, 1.33557, 1.36691, 1.33778, 1.32334, 1.30771, 1.3085, 1.30221, 1.27725, 1.29, 1.28686, 1.28818, 1.28805, 1.34627, 1.38185, 1.32218, 1.32216, 1.36045, 1.31091, 1.31114, 1.27994, 1.27713, 1.28972, 1.31626, 1.30114, 1.29863, 1.29773, 1.29586, 1.28799, 1.30288, 1.3322, 1.32217, 1.31962, 1.31585, 1.32802, 1.37445, 1.45528, 1.39616, 1.33847, 1.34428, 1.36082, 1.34709, 1.32112, 1.31668, 1.36906, 1.32083, 1.322, 1.34421, 1.31283, 1.31706, 1.29784, 1.32622, 1.28968, 1.31577, 1.281, 1.2837, 1.28475, 1.25731, 1.25693, 1.27194, 1.27386, 1.27433, 1.26853, 1.31985, 1.28688, 1.28576, 1.30871, 1.35902, 1.28325, 1.28191, 1.28215, 1.28353, 1.29157, 1.29261, 1.29677, 1.35536, 1.31186, 1.31295, 1.39909, 1.39865, 1.37879, 1.30472, 1.30418, 1.30241, 1.30834, 1.30703, 1.2788, 1.24602, 1.24763, 1.33232, 1.24906, 1.37311, 1.3229, 1.32285, 1.35397, 1.35172, 1.2851, 1.32605, 1.25963, 1.26009, 1.22654, 1.2395, 1.22355, 1.20285, 1.18599, 1.18779, 1.18906, 1.20178, 1.19956, 1.16165, 1.18416, 1.14826, 1.13467, 1.13342, 1.09901, 1.09085, 1.08106, 1.09124, 1.10266, 1.06405, 1.07791, 1.04105, 1.04257, 1.05052, 1.00773, 1.01103, 1.00511, 1.01479, 1.01366, 1.01629, 1.0181, 1.10768, 1.03884, 1.04056, 1.04341, 1.04485, 1.04652, 1.0461, 1.04484, 1.04283, 1.04175, 1.04299, 1.04283, 1.0447, 1.04559, 1.04012, 1.04255, 1.04303, 1.04342, 1.04384, 1.04279, 1.34423, 1.03702, 1.0356, 1.03493, 1.03201, 1.03188, 1.03601, 1.03606, 1.03735, 1.03728, 1.03913, 1.03794, 1.2471, 1.05371, 1.15308, 1.03981, 1.04173, 1.04234, 1.04137, 1.04079, 1.42631, 1.03428, 1.03129, 1.03239, 1.03724, 1.03368, 1.03247, 1.0304, 1.03024, 1.03034, 1.03004
1.2136, 1.21168, 1.2118, 1.21303, 1.21139, 1.20838, 1.20897, 1.20585, 1.20562, 1.38445, 1.21737, 1.23395, 1.18537, 1.18653, 1.18737, 1.18733, 1.18752, 1.18715, 1.18503, 1.18384, 1.18113, 1.17839, 1.17718, 1.17707, 1.17464, 1.17465, 1.1758, 1.28609, 1.16205, 1.16203, 1.1624, 1.16146, 1.16106, 1.15986, 1.16047, 1.16154, 1.16147, 1.16046, 1.15287, 1.15078, 1.14953, 1.14993, 1.14316, 1.14301, 1.14667, 1.14617, 1.14558, 1.14571, 1.14605, 1.14992, 1.15102, 1.14287, 1.1428, 1.14297, 1.14282, 1.14272, 1.1427, 1.14504, 1.14589, 1.14669, 1.1884, 1.18829, 1.18394, 1.16833, 1.16865, 1.15702, 1.15143, 1.15032, 1.14393, 1.18851, 1.12356, 1.09895, 1.09151, 1.09147, 1.123, 1.14637, 1.24339, 1.22947, 1.21228, 1.20334, 1.21694, 1.2668, 1.23736, 1.23598, 1.24293, 1.27039, 1.27199, 1.32217, 1.3393, 1.30966, 1.28121, 1.27805, 1.35409, 1.3098, 1.28451, 1.28232, 1.2902, 1.2749, 1.26678, 1.2861, 1.30103, 1.37181, 1.37166, 1.42248, 1.49265, 1.4941, 1.30714, 1.29349, 1.27957, 1.28299, 1.29939, 1.29933, 1.30703, 1.30883, 1.3293, 1.32607, 1.29804, 1.31232, 1.3391, 1.33902, 1.31664, 1.3159, 1.40159, 1.38842, 1.3582, 1.35776, 1.38805, 1.34799, 1.37749, 1.4026, 1.35913, 1.34626, 1.35048, 1.32365, 1.3468, 1.31648, 1.31686, 1.30511, 1.30754, 1.30856, 1.3234, 1.28094, 1.2804, 1.27225, 1.27057, 1.33763, 1.25721, 1.2608, 1.28114, 1.23341, 1.29006, 1.33126, 1.2672, 1.26729, 1.2809, 1.31949, 1.28683, 1.28678, 1.28172, 1.28266, 1.28407, 1.31365, 1.40969, 1.32231, 1.27052, 1.33305, 1.33278, 1.34465, 1.38121, 1.29947, 1.33698, 1.31848, 1.31562, 1.28529, 1.25451, 1.31646, 1.24583, 1.26053, 1.27716, 1.36382, 1.34075, 1.33994, 1.33085, 1.25858, 1.2614, 1.27907, 1.27844, 1.24172, 1.23611, 1.21962, 1.21755, 1.20859, 1.19508, 1.19251, 1.19266, 1.22229, 1.22065, 1.17527, 1.16641, 1.14325, 1.12165, 1.10249, 1.10539, 1.09463, 1.13639, 1.05952, 1.08585, 1.08393, 1.09075, 1.01837, 1.0186, 1.01957, 1.00771, 1.05088, 1.00166, 1.01255, 1.01474, 1.02056, 1.02035, 1.10463, 1.03192, 1.03898, 1.03987, 1.04645, 1.04476, 1.04561, 1.04594, 1.04598, 1.04497, 1.044, 1.04362, 1.044, 1.04223, 1.04052, 1.04184, 1.04256, 1.04168, 1.03965, 1.03779, 1.03865, 1.03917, 1.0398, 1.03936, 1.03854, 1.03643, 1.03521, 1.0364, 1.03695, 1.03269, 1.03346, 1.03215, 1.03186, 1.0299, 1.03258, 1.03373, 1.05133, 1.0383, 1.03621, 1.03719, 1.0367, 1.0336, 1.03223, 1.03087, 1.02953, 1.02642, 1.02999, 1.03, 1.03068, 1.02694, 1.02759
1.21296, 1.21205, 1.21115, 1.21063, 1.21161, 1.20857, 1.20774, 1.20349, 1.20287, 1.20258, 1.2597, 1.2421, 1.18997, 1.18738, 1.18738, 1.18779, 1.18931, 1.19054, 1.18833, 1.18651, 1.18279, 1.18103, 1.17974, 1.17694, 1.17744, 1.17801, 1.18508, 1.18468, 1.184, 1.17355, 1.16402, 1.16546, 1.16342, 1.16322, 1.16351, 1.16345, 1.16226, 1.15512, 1.15185, 1.14698, 1.14696, 1.14701, 1.14752, 1.14813, 1.14673, 1.14295, 1.14351, 1.14369, 1.1424, 1.14706, 1.33388, 1.14127, 1.14239, 1.14246, 1.14268, 1.14336, 1.1377, 1.13771, 1.13966, 1.13953, 1.14092, 1.19542, 1.16221, 1.16295, 1.1614, 1.17395, 1.26, 1.14486, 1.15, 1.11628, 1.09897, 1.09926, 1.0975, 1.09874, 1.12635, 1.13299, 1.44521, 1.205, 1.19554, 1.20705, 1.21895, 1.24838, 1.24991, 1.24045, 1.28101, 1.27053, 1.26595, 1.25658, 1.25698, 1.29302, 1.31189, 1.37796, 1.29341, 1.29326, 1.32354, 1.29121, 1.28099, 1.27945, 1.28657, 1.37252, 1.34409, 1.38418, 1.38453, 1.39348, 1.31629, 1.31536, 1.32079, 1.46768, 1.28877, 1.30603, 1.2722, 1.27269, 1.30894, 1.31226, 1.31271, 1.33674, 1.32802, 1.33931, 1.3549, 1.36185, 1.36824, 1.39285, 1.36454, 1.36286, 1.36368, 1.41947, 1.37259, 1.38464, 1.39724, 1.39618, 1.35139, 1.3572, 1.38456, 1.38413, 1.37846, 1.38522, 1.33333, 1.30852, 1.31153, 1.31032, 1.30651, 1.29241, 1.3132, 1.29535, 1.32112, 1.2888, 1.28354, 1.28803, 1.31071, 1.2958, 1.28067, 1.28037, 1.28128, 1.28868, 1.36238, 1.32073, 1.32593, 1.32854, 1.32609, 1.32169, 1.32245, 1.32286, 1.26465, 1.26391, 1.32301, 1.32277, 1.29091, 1.27087, 1.31845, 1.29514, 1.26077, 1.27934, 1.27681, 1.26116, 1.23851, 1.23391, 1.2336, 1.2442, 1.24016, 1.24688, 1.29492, 1.34171, 1.25797, 1.45434, 1.24677, 1.24099, 1.23985, 1.25038, 1.28667, 1.22525, 1.22103, 1.20759, 1.20807, 1.18714, 1.15366, 1.15756, 1.15553, 1.21257, 1.17054, 1.12249, 1.14569, 1.10134, 1.12205, 1.12911, 1.06853, 1.05332, 1.07043, 1.07843, 1.08154, 1.02623, 1.05467, 1.054, 1.00152, 1.01206, 1.01843, 1.01847, 1.02897, 1.02984, 1.08025, 1.02174, 1.02985, 1.10847, 1.04165, 1.04382, 1.04917, 1.04763, 1.04711, 1.04659, 1.04648, 1.05625, 1.03991, 1.04061, 1.03853, 1.04049, 1.04209, 1.03891, 1.03884, 1.03862, 1.03923, 1.03957, 1.03854, 1.03867, 1.0373, 1.03551, 1.03424, 1.0336, 1.03301, 1.03222, 1.03106, 1.03187, 1.02927, 1.0303, 1.03376, 1.03373, 1.03558, 1.03297, 1.0324, 1.03273, 1.03272, 1.02935, 1.03089, 1.03142, 1.02836, 1.0286, 1.02303, 1.02196, 1.02199, 1.02257, 1.02153, 1.02167
1.31978, 1.20877, 1.20905, 1.21187, 1.21236, 1.20771, 1.2036, 1.20266, 1.20156, 1.20143, 1.19703, 1.19544, 1.18826, 1.18796, 1.1882, 1.19119, 1.19232, 1.19142, 1.18595, 1.18462, 1.18082, 1.18066, 1.1791, 1.17718, 1.17664, 1.17726, 1.17281, 1.18168, 1.1827, 1.18276, 1.18312, 1.26502, 1.16634, 1.1678, 1.16742, 1.16545, 1.1636, 1.48322, 1.46799, 1.14583, 1.14644, 1.14661, 1.14709, 1.14761, 1.14778, 1.14701, 1.14351, 1.13898, 1.13902, 1.13954, 1.14181, 1.14127, 1.14148, 1.14157, 1.14117, 1.13826, 1.13723, 1.13654, 1.13581, 1.13673, 1.16508, 1.16277, 1.15713, 1.15795, 1.15961, 1.17797, 1.23989, 1.18528, 1.13666, 1.13768, 1.17572, 1.1272, 1.13236, 1.11513, 1.1165, 1.15162, 1.1719, 1.21247, 1.24665, 1.24053, 1.20964, 1.21689, 1.2161, 1.23849, 1.29978, 1.26003, 1.26141, 1.28152, 1.32384, 1.28597, 1.30882, 1.2913, 1.28496, 1.28716, 1.34171, 1.29402, 1.2915, 1.28967, 1.28941, 1.34978, 1.3429, 1.37472, 1.37096, 1.38285, 1.3269, 1.31879, 1.31935, 1.39179, 1.28688, 1.2859, 1.26926, 1.26831, 1.2818, 1.30219, 1.3145, 1.31568, 1.34774, 1.33921, 1.37894, 1.35389, 1.40615, 1.41895, 1.39179, 1.36544, 1.31886, 1.31771, 1.45328, 1.31647, 1.32351, 1.3703, 1.49706, 1.49048, 1.36108, 1.3473, 1.34521, 1.40187, 1.35641, 1.31906, 1.31722, 1.36596, 1.33349, 1.37266, 1.3174, 1.31917, 1.2944, 1.2876, 1.32542, 1.32571, 1.3013, 1.30169, 1.30175, 1.33552, 1.2931, 1.28662, 1.28563, 1.34878, 1.31258, 1.33695, 1.33654, 1.34799, 1.27381, 1.28967, 1.25424, 1.25362, 1.26347, 1.26344, 1.30335, 1.26581, 1.26161, 1.26151, 1.26686, 1.267, 1.23624, 1.2374, 1.23616, 1.23509, 1.23774, 1.23712, 1.23762, 1.24428, 1.27272, 1.24602, 1.23319, 1.2742, 1.27027, 1.28172, 1.23727, 1.2432, 1.23534, 1.21889, 1.2657, 1.26387, 1.24679, 1.27924, 1.16383, 1.15274, 1.15335, 1.17783, 1.14943, 1.14268, 1.1526, 1.10203, 1.09349, 1.06321, 1.04975, 1.07637, 1.04634, 1.04745, 1.04271, 1.04225, 1.00842, 0.998715, 1.0617, 1.01523, 1.03888, 1.00459, 1.04312, 1.03355, 1.04823, 1.04921, 1.31522, 1.04175, 1.0443, 1.04234, 1.04289, 1.04353, 1.04788, 1.25804, 1.25937, 1.27474, 1.18462, 1.05022, 1.27119, 1.03856, 1.03831, 1.03822, 1.03851, 1.04115, 1.04117, 1.03986, 1.03646, 1.03464, 1.02908, 1.0308, 1.03489, 1.03658, 1.03691, 1.035, 1.03213, 1.03336, 1.03055, 1.02949, 1.03172, 1.03186, 1.0346, 1.03363, 1.0352, 1.03464, 1.03086, 1.03096, 1.03012, 1.03111, 1.02953, 1.02783, 1.02352, 1.02357, 1.02219, 1.02187, 1.0217, 1.02229
1.22567, 1.2231, 1.296, 1.21101, 1.21048, 1.21068, 1.20366, 1.20282, 1.202, 1.20093, 1.19891, 1.19644, 1.19706, 1.19083, 1.19185, 1.1931, 1.19338, 1.19174, 1.18817, 1.18525, 1.18207, 1.1808, 1.17899, 1.1783, 1.1763, 1.1735, 1.17378, 1.17558, 1.17592, 1.18063, 1.18179, 1.18068, 1.18136, 1.16726, 1.16677, 1.16441, 1.1644, 1.16384, 1.35086, 1.15639, 1.15641, 1.155, 1.15336, 1.1512, 1.15144, 1.15101, 1.32902, 1.14032, 1.13404, 1.13392, 1.13897, 1.14075, 1.14229, 1.14266, 1.14117, 1.14183, 1.14267, 1.14586, 1.14427, 1.14355, 1.14569, 1.15747, 1.15332, 1.21982, 1.14844, 1.14968, 1.2898, 1.13566, 1.13467, 1.12647, 1.12923, 1.09665, 1.09739, 1.09691, 1.20485, 1.19636, 1.17159, 1.17726, 1.20298, 1.21375, 1.2183, 1.21525, 1.24519, 1.22912, 1.25355, 1.28641, 1.27275, 1.27098, 1.29533, 1.31564, 1.28543, 1.28561, 1.35416, 1.3201, 1.31503, 1.32174, 1.31665, 1.32855, 1.33267, 1.33453, 1.35077, 1.34749, 1.3469, 1.33855, 1.33931, 1.33232, 1.35669, 1.32029, 1.28517, 1.29465, 1.25867, 1.26652, 1.30661, 1.26945, 1.26856, 1.27301, 1.34339, 1.31274, 1.32384, 1.32316, 1.32979, 1.4181, 1.3221, 1.33673, 1.32497, 1.32435, 1.35604, 1.34366, 1.31602, 1.31525, 1.33343, 1.33346, 1.39159, 1.33564, 1.3365, 1.38147, 1.32587, 1.32576, 1.33445, 1.31538, 1.33376, 1.32177, 1.32167, 1.30979, 1.35286, 1.29762, 1.29666, 1.30639, 1.30179, 1.2966, 1.36738, 1.36879, 1.36184, 1.35859, 1.29519, 1.33377, 1.31003, 1.32774, 1.30178, 1.4631, 1.49286, 1.32333, 1.31637, 1.28027, 1.28126, 1.28076, 1.28103, 1.28081, 1.26989, 1.31692, 1.25076, 1.27496, 1.31152, 1.31159, 1.23651, 1.29059, 1.22039, 1.21865, 1.25391, 1.25392, 1.27205, 1.25187, 1.25042, 1.23921, 1.24051, 1.29516, 1.21831, 1.30829, 1.27971, 1.19442, 1.28883, 1.27556, 1.23997, 1.23902, 1.21608, 1.15449, 1.19594, 1.21137, 1.14469, 1.14984, 1.15033, 1.14902, 1.08168, 1.07163, 1.07129, 1.06332, 1.0638, 1.06932, 1.07061, 1.02237, 1.01494, 1.00249, 1.03178, 1.03149, 1.00737, 1.013, 1.04378, 1.03736, 1.08187, 1.18349, 1.03708, 1.03988, 1.0403, 1.04373, 1.04295, 1.03911, 1.04076, 1.05595, 1.05728, 1.2951, 1.02667, 1.1423, 1.05121, 1.35362, 1.03572, 1.03416, 1.0345, 1.03801, 1.03912, 1.03926, 1.03732, 1.03639, 1.03566, 1.03437, 1.03913, 1.03985, 1.04048, 1.03786, 1.03519, 1.03371, 1.03311, 1.0338, 1.03238, 1.0326, 1.0315, 1.03182, 1.03391, 1.0339, 1.03536, 1.03604, 1.03532, 1.03305, 1.03234, 1.02637, 1.02705, 1.02839, 1.0284, 1.24576, 1.22879, 1.06175
1.22907, 1.22749, 1.2303, 1.23324, 1.22008, 1.21625, 1.21492, 1.20815, 1.20708, 1.20474, 1.20453, 1.20023, 1.19854, 1.1934, 1.19364, 1.19366, 1.19386, 1.18751, 1.18748, 1.18695, 1.18571, 1.18452, 1.18338, 1.18114, 1.17698, 1.17473, 1.17283, 1.17355, 1.17525, 1.17551, 1.17781, 1.17938, 1.17947, 1.17893, 1.18034, 1.17007, 1.17019, 1.17151, 1.17005, 1.16862, 1.42608, 1.42951, 1.16237, 1.15715, 1.15248, 1.14941, 1.14989, 1.30298, 1.14005, 1.13658, 1.1373, 1.13875, 1.13871, 1.13851, 1.13853, 1.1396, 1.29824, 1.1489, 1.14904, 1.14249, 1.14258, 1.143, 1.15038, 1.15072, 1.47404, 1.13656, 1.1357, 1.13148, 1.12706, 1.20092, 1.12553, 1.18739, 1.15, 1.092, 1.09298, 1.16516, 1.16079, 1.15951, 1.22599, 1.22327, 1.24509, 1.21818, 1.22009, 1.25878, 1.22776, 1.26413, 1.32719, 1.31059, 1.30858, 1.28136, 1.29591, 1.29419, 1.29484, 1.29646, 1.30108, 1.33984, 1.33629, 1.33513, 1.31561, 1.29596, 1.36108, 1.33241, 1.3292, 1.33373, 1.35521, 1.321, 1.33378, 1.29538, 1.31578, 1.29163, 1.27534, 1.30178, 1.29957, 1.306, 1.39376, 1.32233, 1.29161, 1.29136, 1.36857, 1.31273, 1.37065, 1.32924, 1.32951, 1.33115, 1.32466, 1.32976, 1.30598, 1.30568, 1.31356, 1.30777, 1.30674, 1.32027, 1.32991, 1.32911, 1.35701, 1.33617, 1.40172, 1.34364, 1.34755, 1.32986, 1.33379, 1.32921, 1.33087, 1.33129, 1.31891, 1.31879, 1.32297, 1.32117, 1.34981, 1.33831, 1.56411, 1.55871, 1.60565, 1.38598, 1.42766, 1.28648, 1.28452, 1.29492, 1.34474, 1.30277, 1.30042, 1.34605, 1.30848, 1.30318, 1.32606, 1.32556, 1.26087, 1.26108, 1.26428, 1.26543, 1.35278, 1.27394, 1.27092, 1.26321, 1.25478, 1.23999, 1.22565, 1.21184, 1.21213, 1.23739, 1.23492, 1.23849, 1.26002, 1.32308, 1.32251, 1.2342, 1.1829, 1.18308, 1.19275, 1.16979, 1.17163, 1.22907, 1.20793, 1.18685, 1.17981, 1.18294, 1.19569, 1.17079, 1.1807, 1.18043, 1.13334, 1.13372, 1.10277, 1.07721, 1.12012, 1.11697, 1.09467, 1.05334, 1.06932, 1.04104, 0.985474, 0.991392, 0.994492, 0.973762, 0.973909, 1.00366, 1.00636, 1.03395, 1.30927, 1.03641, 1.03682, 1.03793, 1.03902, 1.042, 1.03955, 1.03895, 1.03925, 1.03943, 1.05525, 1.0599, 1.02591, 1.02586, 1.02566, 1.03026, 1.03359, 1.03417, 1.03408, 1.03375, 1.03686, 1.03747, 1.03953, 1.03953, 1.03764, 1.03779, 1.03899, 1.04025, 1.03979, 1.03948, 1.03621, 1.03516, 1.03222, 1.03256, 1.02842, 1.02735, 1.0284, 1.02688, 1.03227, 1.03232, 1.03277, 1.03271, 1.03445, 1.03498, 1.03269, 1.02925, 1.02811, 1.02802, 1.02876, 1.02932, 1.02931, 1.03286
1.34133, 1.23668, 1.22796, 1.22741, 1.34351, 1.21724, 1.21557, 1.21025, 1.20821, 1.20824, 1.20495, 1.20425, 1.19889, 1.19767, 1.19519, 1.19505, 1.19561, 1.18731, 1.18687, 1.18847, 1.74353, 1.17798, 1.17806, 1.17869, 1.17954, 1.17214, 1.17204, 1.17314, 1.17489, 1.17975, 1.64008, 1.18418, 1.18703, 1.18616, 1.18883, 1.23302, 1.47086, 1.17745, 1.17744, 1.49462, 1.17531, 1.49542, 1.33302, 1.4233, 1.2859, 1.35787, 1.15294, 1.15145, 1.1513, 1.22526, 1.19777, 1.26555, 1.13935, 1.13874, 1.13866, 1.13933, 1.13999, 1.14389, 1.14948, 1.14634, 1.14834, 1.15034, 1.27502, 1.20887, 1.2083, 1.13722, 1.13477, 1.19198, 1.15624, 1.14831, 1.14813, 1.07691, 1.08498, 1.09276, 1.08751, 1.14703, 1.14728, 1.18262, 1.18511, 1.24795, 1.23951, 1.2225, 1.22255, 1.2166, 1.21866, 1.21743, 1.2155, 1.31913, 1.31914, 1.33369, 1.3361, 1.34313, 1.34267, 1.31243, 1.29515, 1.29566, 1.27901, 1.27548, 1.35097, 1.37409, 1.38488, 1.29934, 1.39313, 1.30064, 1.32702, 1.3068, 1.31914, 1.31949, 1.30512, 1.30996, 1.30343, 1.30182, 1.30182, 1.35588, 1.35574, 1.32263, 1.32276, 1.37089, 1.2786, 1.27782, 1.40916, 1.32926, 1.34065, 1.33517, 1.36264, 1.32221, 1.34703, 1.30931, 1.30861, 1.30551, 1.3083, 1.30564, 1.33908, 1.33797, 1.33624, 1.35492, 1.45835, 1.33231, 1.34009, 1.33405, 1.3342, 1.33259, 1.35888, 1.33733, 1.34275, 1.3888, 1.31355, 1.36387, 1.29983, 1.61307, 1.58934, 1.56768, 1.74498, 1.55753, 1.33777, 1.31904, 1.36561, 1.32038, 1.42379, 1.30553, 1.30159, 1.30905, 1.31214, 1.34632, 1.37467, 1.28799, 1.26359, 1.33207, 1.2694, 1.26874, 1.3311, 1.34943, 1.30714, 1.32492, 1.29494, 1.29627, 1.24006, 1.20722, 1.22066, 1.23079, 1.25122, 1.28088, 1.24566, 1.22383, 1.26133, 1.25998, 1.2602, 1.18231, 1.18198, 1.16705, 1.19097, 1.26373, 1.20018, 1.18068, 1.17772, 1.17598, 1.18386, 1.19242, 1.13958, 1.13989, 1.10813, 1.07577, 1.08101, 1.07599, 1.11302, 1.08731, 1.08526, 1.06357, 1.08402, 1.08489, 1.0323, 1.01276, 0.997847, 1.02741, 0.991707, 1.01647, 1.24881, 1.27147, 1.06713, 1.036, 1.0359, 1.03739, 1.0395, 1.04023, 1.03952, 1.0386, 1.03889, 1.03775, 1.0372, 1.03787, 1.08318, 1.07256, 1.04966, 1.03439, 1.03544, 1.03463, 1.03233, 1.03363, 1.03729, 1.03878, 1.03884, 1.03867, 1.03917, 1.03925, 1.0398, 1.03596, 1.03572, 1.03595, 1.03676, 1.03246, 1.03273, 1.03109, 1.02599, 1.02701, 1.02622, 1.02784, 1.0285, 1.02971, 1.0281, 1.20574, 1.20517, 1.02928, 1.03122, 1.02908, 1.02933, 1.03052, 1.03007, 1.02932, 1.03077, 1.03285
1.24981, 1.23947, 1.42261, 1.22994, 1.34764, 1.33814, 1.21443, 1.21251, 1.21181, 1.21166, 1.20848, 1.20499, 1.20209, 1.19623, 1.19508, 1.19452, 1.19341, 1.19377, 1.18381, 1.18405, 1.18573, 1.18745, 1.18712, 1.1847, 1.17919, 1.17408, 1.1753, 1.17624, 1.17943, 1.1877, 1.18726, 1.18739, 1.1876, 1.19809, 1.1975, 1.19781, 1.19848, 1.18586, 1.187, 1.18717, 1.22784, 1.31836, 1.22952, 1.30615, 1.29986, 1.35357, 1.16078, 1.33093, 1.15604, 1.31986, 1.31189, 1.13273, 1.24712, 1.42622, 1.14031, 1.13956, 1.14102, 1.14219, 1.14483, 1.14542, 1.14951, 1.28912, 1.19929, 1.37424, 1.37509, 1.13426, 1.13125, 1.19805, 1.32008, 1.10762, 1.12591, 1.12263, 1.09836, 1.10539, 1.07809, 1.10776, 1.13351, 1.1711, 1.22072, 1.19533, 1.28496, 1.28846, 1.29262, 1.24318, 1.23639, 1.24336, 1.25166, 1.30161, 1.27235, 1.28807, 1.31811, 1.32331, 1.33286, 1.29547, 1.33669, 1.28782, 1.32556, 1.32711, 1.27791, 1.27586, 1.28338, 1.29191, 1.29906, 1.31861, 1.3375, 1.39732, 1.3068, 1.3094, 1.3185, 1.31887, 1.36416, 1.30617, 1.30598, 1.30605, 1.34589, 1.34803, 1.35055, 1.27745, 1.27721, 1.27737, 1.34262, 1.31601, 1.36044, 1.36525, 1.40232, 1.31899, 1.35667, 1.35664, 1.38258, 1.34657, 1.31051, 1.31237, 1.34153, 1.39053, 1.37421, 1.39846, 1.36013, 1.40882, 1.40925, 1.3679, 1.35327, 1.41587, 1.3574, 1.34158, 1.34014, 1.39234, 1.38962, 1.30121, 1.30275, 1.34986, 1.56414, 1.57104, 1.57105, 1.56091, 1.3807, 1.34312, 1.43755, 1.49401, 1.37839, 1.37087, 1.30279, 1.31679, 1.32649, 1.32637, 1.28807, 1.29485, 1.26074, 1.26053, 1.26129, 1.26123, 1.27327, 1.27229, 1.29959, 1.2916, 1.33219, 1.28599, 1.21224, 1.21178, 1.21157, 1.23455, 1.26855, 1.25, 1.22478, 1.24384, 1.30189, 1.31012, 1.25502, 1.25458, 1.17104, 1.16989, 1.17291, 1.16483, 1.16435, 1.15106, 1.15713, 1.17414, 1.17395, 1.1532, 1.11282, 1.11458, 1.10998, 1.11021, 1.08682, 1.09508, 1.10051, 1.08524, 1.06995, 1.04749, 1.04951, 1.04942, 1.04815, 1.05057, 0.990981, 0.988688, 0.982472, 1.00654, 1.26894, 1.24803, 1.05694, 1.30853, 1.04266, 1.03912, 1.03949, 1.04107, 1.0427, 1.04345, 1.03868, 1.03869, 1.03692, 1.03706, 1.03724, 1.03735, 1.03791, 1.03744, 1.03577, 1.03547, 1.03222, 1.03301, 1.03358, 1.03883, 1.0387, 1.03848, 1.03796, 1.0397, 1.04, 1.0421, 1.03596, 1.03537, 1.03581, 1.30103, 1.03217, 1.02983, 1.02881, 1.0266, 1.02739, 1.029, 1.02904, 1.03049, 1.02675, 1.02511, 1.02562, 1.02596, 1.02669, 1.02638, 1.02749, 1.02857, 1.03134, 1.0291, 1.02955, 1.03103
1.24654, 1.2461, 1.24593, 1.24154, 1.23612, 1.33993, 1.22631, 1.21522, 1.21366, 1.21108, 1.20834, 1.20532, 1.20411, 1.19964, 1.19765, 1.19769, 1.2257, 1.18417, 1.18397, 1.18605, 1.18778, 1.18806, 1.18823, 1.18586, 1.18435, 1.18368, 1.18241, 1.18044, 1.18159, 1.58087, 1.19438, 1.19385, 1.19587, 1.19703, 1.19619, 1.19753, 1.19772, 1.19677, 1.4047, 1.19691, 1.34359, 1.20182, 1.20206, 1.19431, 1.19439, 1.35716, 1.33995, 1.19217, 1.15742, 1.15607, 1.1563, 1.43378, 1.57433, 1.26485, 1.1434, 1.13925, 1.1392, 1.13999, 1.14578, 1.14915, 1.14944, 1.14708, 1.17525, 1.36776, 1.37164, 1.26121, 1.19814, 1.11825, 1.1173, 1.1288, 1.1303, 1.12103, 1.07686, 1.10425, 1.09525, 1.11038, 1.17739, 1.1772, 1.22729, 1.22697, 1.2261, 1.22825, 1.30586, 1.24024, 1.23977, 1.25666, 1.28091, 1.28349, 1.28738, 1.28971, 1.28353, 1.26333, 1.27984, 1.29228, 1.28732, 1.2619, 1.26413, 1.28675, 1.26254, 1.27457, 1.28265, 1.29716, 1.30029, 1.3477, 1.3509, 1.35106, 1.31619, 1.30821, 1.30799, 1.33146, 1.31214, 1.30883, 1.37407, 1.28524, 1.2874, 1.28854, 1.28867, 1.29042, 1.27489, 1.28567, 1.28772, 1.31963, 1.38857, 1.37515, 1.31234, 1.31406, 1.37863, 1.3463, 1.44356, 1.33666, 1.41849, 1.31938, 1.31395, 1.31546, 1.38116, 1.38056, 1.40206, 1.39657, 1.35728, 1.35669, 1.37085, 1.35097, 1.42674, 1.34447, 1.34191, 1.33201, 1.33874, 1.31038, 1.29488, 1.35478, 1.35474, 1.33815, 1.37864, 1.42644, 1.34373, 1.34756, 1.34801, 1.34617, 1.3489, 1.34809, 1.34467, 1.346, 1.29597, 1.29618, 1.29149, 1.31933, 1.26177, 1.26045, 1.25814, 1.2584, 1.27344, 1.25016, 1.2587, 1.23495, 1.23022, 1.21748, 1.21713, 1.21585, 1.22007, 1.27027, 1.27388, 1.24907, 1.25233, 1.25404, 1.21476, 1.21364, 1.21706, 1.22224, 1.16438, 1.16337, 1.16805, 1.18471, 1.13218, 1.13215, 1.12821, 1.12878, 1.14422, 1.10937, 1.11898, 1.12644, 1.10124, 1.11128, 1.11133, 1.05133, 1.07414, 1.04874, 1.04975, 1.04974, 1.0495, 1.0144, 1.01353, 1.0401, 1.00846, 0.990582, 0.990693, 1.01979, 1.03285, 1.15376, 1.04523, 1.04446, 1.04463, 1.04387, 1.04477, 1.04826, 1.04359, 1.04198, 1.04229, 1.04238, 1.0363, 1.03652, 1.03607, 1.03644, 1.03882, 1.04029, 1.04055, 1.03598, 1.03436, 1.03274, 1.03329, 1.03732, 1.03911, 1.03987, 1.03737, 1.03815, 1.06204, 1.04155, 1.0388, 1.03853, 1.03633, 1.03602, 1.0343, 1.03196, 1.02843, 1.02872, 1.02777, 1.02942, 1.03311, 1.03299, 1.03424, 1.05144, 1.02205, 1.02326, 1.02509, 1.02479, 1.02501, 1.01956, 1.02201, 1.13649, 1.02983, 1.0304
1.2447, 1.24598, 1.24657, 1.2395, 1.24009, 1.33089, 1.3406, 1.33305, 1.2153, 1.21217, 1.21164, 1.20769, 1.28508, 1.20267, 1.20213, 1.1979, 1.19864, 1.20263, 1.20893, 1.39628, 1.18907, 1.18955, 1.19618, 1.18475, 1.18544, 1.18533, 1.18553, 1.17942, 1.18429, 1.18864, 1.18925, 1.19155, 1.1908, 1.18997, 1.1911, 1.19187, 1.1928, 1.19123, 1.18758, 1.33219, 1.19447, 1.19718, 1.35166, 1.35486, 1.1888, 1.18751, 1.18787, 1.18881, 1.20534, 1.29475, 1.15617, 1.15605, 1.15455, 1.15338, 1.1501, 1.14831, 1.14246, 1.14213, 1.1461, 1.1469, 1.1431, 1.18282, 1.14256, 1.14275, 1.13987, 1.24282, 1.21587, 1.17594, 1.1243, 1.1066, 1.10824, 1.12152, 1.0826, 1.13187, 1.11189, 1.11255, 1.1093, 1.15681, 1.17075, 1.18935, 1.22136, 1.20183, 1.2403, 1.2788, 1.28405, 1.29819, 1.33042, 1.28754, 1.28771, 1.28854, 1.28977, 1.29366, 1.35397, 1.35355, 1.29465, 1.29319, 1.26587, 1.26574, 1.28706, 1.26599, 1.28806, 1.34259, 1.34479, 1.45089, 1.32499, 1.31997, 1.55009, 1.58298, 1.49889, 1.49872, 1.50211, 1.32012, 1.32175, 1.31204, 1.27144, 1.27425, 1.276, 1.32424, 1.31354, 1.3143, 1.30279, 1.33057, 1.332, 1.31642, 1.31633, 1.32991, 1.30486, 1.35808, 1.35015, 1.35777, 1.35875, 1.47663, 1.31855, 1.31771, 1.33789, 1.38887, 1.3548, 1.40506, 1.39025, 1.35409, 1.35714, 1.35815, 1.35068, 1.31597, 1.31226, 1.31893, 1.43674, 1.31556, 1.40926, 1.29563, 1.30119, 1.36828, 1.32375, 1.39948, 1.40158, 1.35305, 1.32315, 1.34323, 1.34295, 1.34378, 1.34525, 1.40952, 1.37267, 1.37083, 1.35319, 1.29294, 1.38715, 1.35052, 1.29655, 1.26108, 1.28788, 1.25145, 1.23556, 1.21994, 1.21961, 1.22044, 1.20776, 1.23702, 1.23928, 1.25784, 1.25879, 1.27809, 1.27795, 1.21755, 1.21927, 1.22045, 1.19659, 1.19073, 1.16348, 1.1645, 1.21643, 1.18993, 1.16819, 1.1573, 1.10293, 1.0907, 1.06522, 1.06533, 1.06462, 1.12721, 1.09766, 1.09793, 1.0671, 1.07366, 1.07746, 1.08009, 1.04709, 1.05239, 1.02294, 1.02393, 1.04622, 1.02235, 1.022, 0.989316, 1.03468, 1.03527, 1.04039, 1.0701, 1.043, 1.0432, 1.04442, 1.0458, 1.04583, 1.04686, 1.04772, 1.04804, 1.04219, 1.04241, 1.04175, 1.03817, 1.039, 1.03857, 1.037, 1.04081, 1.04057, 1.03812, 1.03527, 1.03362, 1.03347, 1.03517, 1.03854, 1.0392, 1.03823, 1.03659, 1.03562, 1.03447, 1.03677, 1.03876, 1.03823, 1.03317, 1.03473, 1.02876, 1.02847, 1.02953, 1.02986, 1.03043, 1.03321, 1.03348, 1.0336, 1.05315, 1.02046, 1.02024, 1.02376, 1.02424, 1.0225, 1.02437, 1.02321, 1.02442, 1.02589, 1.02782
1.24608, 1.24559, 1.24512, 1.24328, 1.24354, 1.32941, 1.33037, 1.23014, 1.21777, 1.21648, 1.31869, 1.22327, 1.20115, 1.20397, 1.20327, 1.20131, 1.20114, 1.19713, 1.19647, 1.19553, 1.19326, 1.18822, 1.1875, 1.18234, 1.18305, 1.18403, 1.18474, 1.18418, 1.18408, 1.18397, 1.56219, 1.18964, 1.18854, 1.18796, 1.1876, 1.18823, 1.18812, 1.18802, 1.18597, 1.18393, 1.18248, 1.18416, 1.38052, 1.38347, 1.19159, 1.18767, 1.18781, 1.1895, 1.19016, 1.21577, 1.2061, 1.18917, 1.20105, 1.15947, 1.15676, 1.2551, 1.31265, 1.14435, 1.1441, 1.14412, 1.14351, 1.14289, 1.14311, 1.14334, 1.13592, 1.22499, 1.17496, 1.18087, 1.17738, 1.10835, 1.10956, 1.11043, 1.08239, 1.10507, 1.10308, 1.09477, 1.11131, 1.15801, 1.17087, 1.18416, 1.18843, 1.18833, 1.21994, 1.23682, 1.29114, 1.2751, 1.26805, 1.3007, 1.29854, 1.29291, 1.28276, 1.28215, 1.28192, 1.29159, 1.25842, 1.31261, 1.31301, 1.26525, 1.27884, 1.2705, 1.29059, 1.29861, 1.30107, 1.34241, 1.35478, 1.35355, 1.31296, 1.42916, 1.3102, 1.3083, 1.30742, 1.32164, 1.34055, 1.33969, 1.33976, 1.26916, 1.26923, 1.27686, 1.41168, 1.3129, 1.34335, 1.34764, 1.34777, 1.39756, 1.37516, 1.32333, 1.40524, 1.3247, 1.3357, 1.34646, 1.38106, 1.31274, 1.31102, 1.30882, 1.37142, 1.37794, 1.31207, 1.33272, 1.32205, 1.32243, 1.3862, 1.32421, 1.35814, 1.36221, 1.32707, 1.38467, 1.33965, 1.32483, 1.328, 1.30621, 1.34255, 1.33867, 1.33347, 1.37523, 1.33668, 1.34646, 1.31661, 1.47101, 1.3744, 1.37093, 1.37277, 1.39446, 1.33511, 1.34034, 1.34027, 1.30948, 1.366, 1.29553, 1.30352, 1.30263, 1.25512, 1.25004, 1.2338, 1.23567, 1.22501, 1.20493, 1.20444, 1.20547, 1.21847, 1.27522, 1.26436, 1.20732, 1.27482, 1.22706, 1.21612, 1.22661, 1.21617, 1.2173, 1.23909, 1.1647, 1.19774, 1.15132, 1.1337, 1.10754, 1.06293, 1.06203, 1.0611, 1.0641, 1.05527, 1.0573, 1.06447, 1.06714, 1.0405, 1.06944, 1.06561, 1.08836, 1.04678, 1.04908, 1.02473, 1.05277, 1.01508, 1.04034, 1.02041, 0.998276, 1.01673, 1.01801, 1.04093, 1.0422, 1.04098, 1.04104, 1.04045, 1.04187, 1.04232, 1.04634, 1.04649, 1.04618, 1.04602, 1.04011, 1.03957, 1.0399, 1.03587, 1.03678, 1.03706, 1.03874, 1.03874, 1.03872, 1.03718, 1.03386, 1.03403, 1.03398, 1.03689, 1.0365, 1.03847, 1.04021, 1.0358, 1.14934, 1.04144, 1.04093, 1.03799, 1.03712, 1.03662, 1.0359, 1.03133, 1.03134, 1.0317, 1.03217, 1.03238, 1.0491, 1.22373, 1.04646, 1.02206, 1.02166, 1.01943, 1.02423, 1.02499, 1.02378, 1.024, 1.02541, 1.02675, 1.02635
1.25112, 1.2503, 1.24762, 1.24732, 1.24038, 1.23798, 1.25566, 1.25779, 1.24263, 1.21571, 1.21119, 1.20968, 1.21637, 1.2016, 1.19927, 1.19774, 1.19898, 1.19951, 1.19843, 1.19512, 1.19456, 1.19439, 1.18834, 1.1882, 1.18146, 1.18332, 1.18392, 1.18488, 1.17872, 1.17957, 1.18387, 1.18351, 1.18367, 1.18586, 1.1846, 1.18531, 1.185, 1.18509, 1.18156, 1.18225, 1.18103, 1.17747, 1.17801, 1.17623, 1.17604, 1.42954, 1.18158, 1.18092, 1.1809, 1.182, 1.19108, 1.17692, 1.1836, 1.16162, 1.15706, 1.1569, 1.15093, 1.14573, 1.14605, 1.21157, 1.14179, 1.14404, 1.14309, 1.16535, 1.3289, 1.12551, 1.12436, 1.2694, 1.26886, 1.10847, 1.10781, 1.10563, 1.07939, 1.07943, 1.08236, 1.0935, 1.09282, 1.11301, 1.17719, 1.19456, 1.19414, 1.18587, 1.23905, 1.23634, 1.28859, 1.27443, 1.2739, 1.26916, 1.26894, 1.33262, 1.31266, 1.27678, 1.26523, 1.23263, 1.23543, 1.23583, 1.29438, 1.32914, 1.32972, 1.27365, 1.28749, 1.34389, 1.29563, 1.29466, 1.29771, 1.298, 1.31927, 1.31807, 1.34191, 1.33129, 1.33413, 1.37205, 1.31947, 1.31939, 1.30717, 1.29548, 1.27886, 1.29847, 1.40595, 1.40577, 1.40172, 1.34899, 1.35084, 1.36485, 1.33491, 1.33428, 1.32228, 1.38075, 1.32797, 1.33204, 1.31288, 1.30747, 1.30415, 1.30512, 1.30557, 1.37756, 1.37555, 1.37539, 1.46841, 1.49133, 1.43298, 1.43271, 1.43319, 1.36197, 1.33443, 1.33404, 1.40542, 1.38226, 1.37917, 1.37951, 1.3499, 1.30417, 1.33781, 1.33274, 1.31328, 1.31942, 1.31946, 1.31585, 1.35177, 1.34852, 1.34803, 1.2904, 1.29524, 1.28471, 1.37108, 1.28163, 1.3371, 1.32209, 1.24287, 1.24309, 1.24605, 1.30441, 1.29511, 1.26845, 1.27032, 1.22654, 1.20894, 1.21915, 1.22138, 1.28878, 1.21332, 1.21602, 1.26693, 1.19895, 1.18444, 1.18423, 1.21917, 1.18187, 1.19427, 1.22024, 1.16815, 1.21142, 1.14509, 1.09472, 1.07892, 1.07174, 1.07281, 1.07667, 1.08815, 1.05654, 1.07392, 1.05794, 1.05895, 1.05813, 1.03698, 1.03333, 1.0329, 1.00793, 1.01122, 1.02111, 1.05392, 1.03746, 1.00121, 1.00195, 1.07354, 1.06351, 1.06359, 1.04243, 1.04131, 1.0397, 1.03898, 1.03959, 1.0382, 1.04053, 1.04153, 1.04371, 1.04463, 1.04407, 1.03822, 1.038, 1.03838, 1.03691, 1.03744, 1.03668, 1.03707, 1.03541, 1.03552, 1.03333, 1.02964, 1.03034, 1.03081, 1.03662, 1.0388, 1.03916, 1.04186, 1.04232, 1.04252, 1.0424, 1.04315, 1.03961, 1.04043, 1.03923, 1.03005, 1.03026, 1.02987, 1.03133, 1.03191, 1.03271, 1.14006, 1.0528, 1.02113, 1.05299, 1.04605, 1.02388, 1.02494, 1.02521, 1.02691, 1.02737, 1.0284, 1.02732
1.36166, 1.26723, 1.31661, 1.2441, 1.24274, 1.24355, 1.33877, 1.33372, 1.22104, 1.21545, 1.21021, 1.20955, 1.20927, 1.20744, 1.2066, 1.2196, 1.1988, 1.21378, 1.20433, 1.20202, 1.19911, 1.19407, 1.1887, 1.18746, 1.18828, 1.18048, 1.18073, 1.18071, 1.18141, 1.18196, 1.18066, 1.18073, 1.18294, 1.18272, 1.17962, 1.17954, 1.17541, 1.18161, 1.18099, 1.17973, 1.17594, 1.17632, 1.17356, 1.17251, 1.17082, 1.35682, 1.22357, 1.17957, 1.17871, 1.17889, 1.17257, 1.17314, 1.17154, 1.20548, 1.15345, 1.15132, 1.14639, 1.14598, 1.13816, 1.13915, 1.13926, 1.13899, 1.31225, 1.16081, 1.12906, 1.12456, 1.12034, 1.11966, 1.26732, 1.2679, 1.26902, 1.12879, 1.09723, 1.09738, 1.10222, 1.08658, 1.11026, 1.13587, 1.15352, 1.15054, 1.21413, 1.22548, 1.20535, 1.21954, 1.24465, 1.26764, 1.22723, 1.24069, 1.27294, 1.30044, 1.32198, 1.25477, 1.23623, 1.24955, 1.25797, 1.23258, 1.23212, 1.23247, 1.27408, 1.27036, 1.26956, 1.26866, 1.33458, 1.33266, 1.29147, 1.3673, 1.33737, 1.33764, 1.33107, 1.33176, 1.33598, 1.38821, 1.32118, 1.32233, 1.31253, 1.29189, 1.29148, 1.29071, 1.31743, 1.38076, 1.34079, 1.34656, 1.34741, 1.34949, 1.3691, 1.36834, 1.40607, 1.32566, 1.32557, 1.32793, 1.34819, 1.34008, 1.33456, 1.35421, 1.34269, 1.31044, 1.31135, 1.35742, 1.3678, 1.33178, 1.42443, 1.43058, 1.30853, 1.30635, 1.34098, 1.35028, 1.37278, 1.37188, 1.37288, 1.30317, 1.30252, 1.3463, 1.28607, 1.31189, 1.34821, 1.331, 1.31071, 1.33632, 1.336, 1.3205, 1.32577, 1.32605, 1.30013, 1.30933, 1.35674, 1.40994, 1.3222, 1.32334, 1.31681, 1.26805, 1.24004, 1.23502, 1.30947, 1.26315, 1.22095, 1.22324, 1.25843, 1.19789, 1.19921, 1.24291, 1.27089, 1.27004, 1.26675, 1.24519, 1.24402, 1.15645, 1.15699, 1.15818, 1.22959, 1.1426, 1.14274, 1.17741, 1.10843, 1.11591, 1.07138, 1.0696, 1.07199, 1.07173, 1.08801, 1.09167, 1.07084, 1.0995, 1.06046, 1.01958, 1.02255, 1.03635, 1.04405, 1.00393, 1.00484, 1.01114, 1.01222, 1.04933, 1.06962, 1.01321, 1.04941, 1.04906, 1.04659, 1.05533, 1.04603, 1.04147, 1.04075, 1.04028, 1.03913, 1.03859, 1.03898, 1.04085, 1.04109, 1.04271, 1.04286, 1.04284, 1.0378, 1.03684, 1.03719, 1.03613, 1.03539, 1.03249, 1.03186, 1.03082, 1.02925, 1.02856, 1.02935, 1.03631, 1.0397, 1.04129, 1.04242, 1.04339, 1.04361, 1.0446, 1.04514, 1.03888, 1.03912, 1.03933, 1.04164, 1.03214, 1.03207, 1.03283, 1.03325, 1.03365, 1.03354, 1.23614, 1.23621, 1.04328, 1.04946, 1.20491, 1.03233, 1.02567, 1.02533, 1.02674, 1.02363, 1.02295
1.33996, 1.45222, 1.30118, 1.30121, 1.35022, 1.4621, 1.3364, 1.33659, 1.22262, 1.21538, 1.21514, 1.21092, 1.20929, 1.20856, 1.20854, 1.20872, 1.20817, 1.20568, 1.20542, 1.20585, 1.32697, 1.19323, 1.19166, 1.19178, 1.18876, 1.18852, 1.18278, 1.17893, 1.17818, 1.17878, 1.18049, 1.18377, 1.18395, 1.17753, 1.17705, 1.17857, 1.17871, 1.1788, 1.1787, 1.17465, 1.1753, 1.17457, 1.17263, 1.16883, 1.16847, 1.16825, 1.17164, 1.17414, 1.1746, 1.17497, 1.16717, 1.16654, 1.41701, 1.15377, 1.14997, 1.14938, 1.15044, 1.13838, 1.13493, 1.1391, 1.14006, 1.14076, 1.13598, 1.1323, 1.13216, 1.1572, 1.11901, 1.11656, 1.11651, 1.12589, 1.12657, 1.08586, 1.07447, 1.06213, 1.07838, 1.10995, 1.0779, 1.10703, 1.13725, 1.17284, 1.16937, 1.22375, 1.22372, 1.21851, 1.21128, 1.21815, 1.21568, 1.23371, 1.23716, 1.23501, 1.23105, 1.22699, 1.22795, 1.25328, 1.25285, 1.25273, 1.25154, 1.24517, 1.22926, 1.21805, 1.28335, 1.23911, 1.25267, 1.34147, 1.3408, 1.3557, 1.35334, 1.35354, 1.31898, 1.31935, 1.34669, 1.33354, 1.33299, 1.32224, 1.37627, 1.39112, 1.31297, 1.2728, 1.30954, 1.3423, 1.34277, 1.33746, 1.35199, 1.33911, 1.29218, 1.35839, 1.30143, 1.30257, 1.31304, 1.31268, 1.31307, 1.33349, 1.33398, 1.34996, 1.38416, 1.39005, 1.32696, 1.29128, 1.31374, 1.32736, 1.30419, 1.31412, 1.42594, 1.42701, 1.42732, 1.31102, 1.31319, 1.31326, 1.44284, 1.32341, 1.31379, 1.31775, 1.28551, 1.28491, 1.30851, 1.30839, 1.29646, 1.36448, 1.29518, 1.2864, 1.26738, 1.26521, 1.25721, 1.25702, 1.25426, 1.25383, 1.25378, 1.26607, 1.2665, 1.23192, 1.25047, 1.27398, 1.23385, 1.2979, 1.2378, 1.20799, 1.20324, 1.19821, 1.21465, 1.23988, 1.3416, 1.20244, 1.24212, 1.24, 1.20006, 1.15088, 1.14986, 1.15622, 1.15682, 1.12714, 1.10686, 1.09703, 1.09486, 1.07553, 1.07603, 1.08193, 1.0853, 1.07317, 1.10172, 1.09051, 1.07028, 1.07838, 1.08153, 1.01926, 1.02077, 1.03259, 1.00891, 1.0051, 1.00944, 1.0096, 1.047, 1.02098, 1.01971, 1.01813, 1.01914, 1.05809, 1.05764, 1.05305, 1.04956, 1.05138, 1.05684, 1.04573, 1.04232, 1.04156, 1.03812, 1.03947, 1.03935, 1.03869, 1.04059, 1.04198, 1.04226, 1.04177, 1.03516, 1.03526, 1.03529, 1.03231, 1.03084, 1.02866, 1.0285, 1.02873, 1.02676, 1.02905, 1.03508, 1.04059, 1.03973, 1.04106, 1.04227, 1.24783, 1.06084, 1.03908, 1.03533, 1.03757, 1.03825, 1.03266, 1.03192, 1.03451, 1.03446, 1.03311, 1.03348, 1.03441, 1.03465, 1.03472, 1.03555, 1.03555, 1.03407, 1.10773, 1.02949, 1.0284, 1.02794, 1.05738
1.30586, 1.30524, 1.44478, 1.25282, 1.24621, 1.2439, 1.24306, 1.44511, 1.32883, 1.2219, 1.22216, 1.22217, 1.40275, 1.21191, 1.20975, 1.2099, 1.20974, 1.20736, 1.2072, 1.66493, 1.2227, 1.22173, 1.19149, 1.1912, 1.19117, 1.19126, 1.18751, 1.18749, 1.18777, 1.55371, 1.49168, 1.21842, 1.19066, 1.19094, 1.19234, 1.43533, 1.17942, 1.1784, 1.17817, 1.17599, 1.17564, 1.17356, 1.17195, 1.17074, 1.17083, 1.17095, 1.17082, 1.17027, 1.17104, 1.1687, 1.16825, 1.16162, 1.15941, 1.15991, 1.22361, 1.20077, 1.14249, 1.13647, 1.13863, 1.1388, 1.13891, 1.13785, 1.13321, 1.12861, 1.12659, 1.12162, 1.11883, 1.11867, 1.13156, 1.10877, 1.24203, 1.09237, 1.12888, 1.14933, 1.07087, 1.12574, 1.10802, 1.09141, 1.11571, 1.18613, 1.17664, 1.21461, 1.20847, 1.23398, 1.22642, 1.23024, 1.21903, 1.21639, 1.21514, 1.22074, 1.24312, 1.23384, 1.27705, 1.27639, 1.27079, 1.27101, 1.24934, 1.27548, 1.24324, 1.24266, 1.24285, 1.27997, 1.26435, 1.25956, 1.25848, 1.29853, 1.30954, 1.49889, 1.49989, 1.40397, 1.31327, 1.31914, 1.3198, 1.32204, 1.36387, 1.43891, 1.31319, 1.31307, 1.30273, 1.30773, 1.30907, 1.31691, 1.3366, 1.30533, 1.30609, 1.34433, 1.2992, 1.33762, 1.33338, 1.3105, 1.32936, 1.37628, 1.33439, 1.32294, 1.32669, 1.32718, 1.29271, 1.29457, 1.27046, 1.27412, 1.29677, 1.41589, 1.41574, 1.27746, 1.2757, 1.28232, 1.28792, 1.30462, 1.30042, 1.32282, 1.32975, 1.28476, 1.28531, 1.28253, 1.26876, 1.26906, 1.28212, 1.28074, 1.28752, 1.28766, 1.28152, 1.26594, 1.26978, 1.29245, 1.24509, 1.2472, 1.22889, 1.2458, 1.24913, 1.21948, 1.24022, 1.27352, 1.21029, 1.21496, 1.21474, 1.2201, 1.23024, 1.18747, 1.20365, 1.24378, 1.24895, 1.24912, 1.24296, 1.19491, 1.27144, 1.15448, 1.15494, 1.12922, 1.12242, 1.10718, 1.09175, 1.09151, 1.08441, 1.09203, 1.07541, 1.07605, 1.05438, 1.08535, 1.05198, 1.0528, 1.06654, 1.0665, 1.06409, 1.03188, 1.03375, 1.01307, 1.01537, 1.04764, 0.991934, 1.03565, 1.04316, 1.01799, 1.02441, 1.02461, 1.08044, 1.16416, 1.06144, 1.06005, 1.05997, 1.06013, 1.21242, 1.04658, 1.04298, 1.04211, 1.04132, 1.04162, 1.03918, 1.03818, 1.03786, 1.03793, 1.0382, 1.03825, 1.05865, 1.03259, 1.03233, 1.03203, 1.03226, 1.02728, 1.0279, 1.02541, 1.02551, 1.02759, 1.11085, 1.03556, 1.03882, 1.03682, 1.03651, 1.06134, 1.29861, 1.03678, 1.03713, 1.03745, 1.03771, 1.03858, 1.03683, 1.03484, 1.03336, 1.03389, 1.03279, 1.03308, 1.03228, 1.03259, 1.03629, 1.03727, 1.03567, 1.03531, 1.0325, 1.03316, 1.03313, 1.07118
1.27887, 1.30214, 1.35078, 1.3508, 1.24695, 1.2446, 1.24015, 1.23499, 1.24421, 1.22194, 1.31181, 1.30972, 1.21846, 1.21876, 1.21361, 1.2088, 1.20816, 1.20771, 1.20691, 1.75046, 1.66666, 1.66665, 1.19164, 1.19093, 1.19018, 1.1937, 1.19349, 1.18879, 1.55201, 1.19806, 1.19942, 1.20142, 1.49923, 1.50561, 1.31743, 1.18945, 1.43295, 1.17882, 1.17819, 1.17776, 1.17415, 1.17402, 1.17385, 1.17453, 1.17413, 1.17423, 1.17349, 1.17247, 1.17045, 1.16796, 1.16205, 1.16245, 1.4151, 1.41456, 1.20232, 1.13889, 1.13624, 1.13794, 1.1384, 1.13801, 1.1375, 1.1354, 1.30881, 1.14598, 1.14595, 1.14502, 1.1164, 1.11403, 1.1131, 1.2798, 1.10139, 1.09672, 1.09604, 1.1056, 1.09875, 1.16984, 1.08285, 1.08524, 1.0926, 1.09239, 1.16841, 1.17917, 1.14802, 1.178, 1.17804, 1.20754, 1.28096, 1.23236, 1.23117, 1.23747, 1.23371, 1.24458, 1.24472, 1.26842, 1.26776, 1.28303, 1.27825, 1.22702, 1.22084, 1.25138, 1.25169, 1.26837, 1.29935, 1.30004, 1.3646, 1.37414, 1.29182, 1.28935, 1.2892, 1.29903, 1.34115, 1.35392, 1.34828, 1.33496, 1.31905, 1.50033, 1.33093, 1.3274, 1.32197, 1.32307, 1.32047, 1.39133, 1.31899, 1.32156, 1.33658, 1.36289, 1.34009, 1.34272, 1.33993, 1.33952, 1.3662, 1.29228, 1.28408, 1.31515, 1.2837, 1.37799, 1.37509, 1.30111, 1.2982, 1.31237, 1.32043, 1.31872, 1.31298, 1.25964, 1.22769, 1.22737, 1.24257, 1.25986, 1.26026, 1.26842, 1.32696, 1.33561, 1.29085, 1.31511, 1.31504, 1.26113, 1.28114, 1.28069, 1.28496, 1.32115, 1.26231, 1.26433, 1.25183, 1.24093, 1.24328, 1.2198, 1.21603, 1.21661, 1.2113, 1.20927, 1.21557, 1.21679, 1.27722, 1.24423, 1.22788, 1.26724, 1.23414, 1.20084, 1.20976, 1.21086, 1.22158, 1.21709, 1.22524, 1.1757, 1.17731, 1.15295, 1.15373, 1.11306, 1.11115, 1.08472, 1.08155, 1.0785, 1.19449, 1.07328, 1.06796, 1.04986, 1.04741, 1.04511, 1.07693, 1.05475, 1.06149, 1.02098, 1.02296, 1.03297, 1.00513, 1.00979, 1.00916, 1.02536, 1.01615, 1.0378, 1.01513, 1.01388, 1.00862, 1.00876, 1.049, 1.05011, 1.05999, 1.05732, 1.05671, 1.06002, 1.06103, 1.22337, 1.04223, 1.04054, 1.04091, 1.04191, 1.04009, 1.03265, 1.03337, 1.03503, 1.0358, 1.03505, 1.03681, 1.14083, 1.20544, 1.20477, 1.11196, 1.10545, 1.19845, 1.1229, 1.04197, 1.14367, 1.15513, 1.12622, 1.10263, 1.02516, 1.11514, 1.39441, 1.05674, 1.1229, 1.03557, 1.03529, 1.03619, 1.03742, 1.03762, 1.03804, 1.03509, 1.03176, 1.02933, 1.03179, 1.03197, 1.0327, 1.03374, 1.03998, 1.0409, 1.03922, 1.03666, 1.03553, 1.03269, 1.03488
1.27736, 1.27538, 1.36726, 1.26333, 1.44906, 1.25277, 1.24916, 1.23656, 1.28043, 1.25749, 1.30479, 1.22232, 1.22061, 1.21887, 1.21666, 1.21692, 1.20957, 1.20679, 1.20518, 1.20464, 1.20468, 1.20359, 1.2035, 1.20295, 1.19236, 1.19343, 1.19306, 1.1902, 1.23804, 1.29929, 1.20989, 1.16315, 1.16318, 1.16348, 1.20082, 1.16689, 1.38146, 1.41393, 1.18071, 1.18149, 1.18224, 1.17727, 1.17729, 1.17706, 1.17724, 1.1756, 1.17581, 1.17371, 1.16532, 1.15969, 1.15101, 1.15103, 1.14224, 1.14604, 1.14139, 1.13793, 1.13853, 1.13792, 1.13812, 1.13769, 1.13685, 1.27987, 1.24968, 1.34936, 1.32673, 1.29264, 1.14649, 1.112, 1.11131, 1.1102, 1.15945, 1.10198, 1.10154, 1.15626, 1.08388, 1.09135, 1.11195, 1.08856, 1.13343, 1.14448, 1.19937, 1.19989, 1.18132, 1.1781, 1.20595, 1.2193, 1.21976, 1.24196, 1.24343, 1.27786, 1.24097, 1.23918, 1.23896, 1.33992, 1.29936, 1.28141, 1.22779, 1.23362, 1.24792, 1.34325, 1.34311, 1.29225, 1.28846, 1.27298, 1.24932, 1.35348, 1.35615, 1.27365, 1.3013, 1.31643, 1.37796, 1.34879, 1.34902, 1.33098, 1.33066, 1.32207, 1.32409, 1.32369, 1.40277, 1.3985, 1.33204, 1.33318, 1.37455, 1.28815, 1.32115, 1.27701, 1.28075, 1.28791, 1.31361, 1.28858, 1.33705, 1.28528, 1.29094, 1.29486, 1.40556, 1.38537, 1.36236, 1.36329, 1.36086, 1.32592, 1.2781, 1.26451, 1.22301, 1.22289, 1.26321, 1.26458, 1.26578, 1.29591, 1.24895, 1.29177, 1.3133, 1.28488, 1.2825, 1.30427, 1.24924, 1.24387, 1.26831, 1.28798, 1.32363, 1.32274, 1.34034, 1.26719, 1.27049, 1.30148, 1.21231, 1.21847, 1.21839, 1.2271, 1.20821, 1.20555, 1.20461, 1.21459, 1.19906, 1.20607, 1.24106, 1.22151, 1.20513, 1.20629, 1.22707, 1.206, 1.20493, 1.23412, 1.23628, 1.22539, 1.18768, 1.17386, 1.14498, 1.11456, 1.14818, 1.13582, 1.08628, 1.08579, 1.0875, 1.07565, 1.06111, 1.07733, 1.07178, 1.02309, 1.02896, 1.01849, 1.01854, 1.05248, 1.01859, 1.01818, 1.02165, 1.02967, 1.03214, 1.01171, 1.00402, 1.05931, 1.11102, 1.02604, 1.02667, 1.04175, 1.04305, 1.05038, 1.06217, 1.06145, 1.05803, 1.05658, 1.05693, 1.05832, 1.0558, 1.04218, 1.04173, 1.04152, 1.04151, 1.04453, 1.04033, 1.0387, 1.03774, 1.03653, 1.03271, 1.03193, 1.03274, 1.03234, 1.16176, 1.01505, 1.01476, 1.01589, 1.01374, 1.01549, 1.02171, 1.02241, 1.02168, 1.02096, 1.02167, 1.02159, 1.36931, 1.29191, 1.03217, 1.03352, 1.03626, 1.03563, 1.03679, 1.03806, 1.03276, 1.03166, 1.03238, 1.0333, 1.03427, 1.03551, 1.03651, 1.04077, 1.0408, 1.04254, 1.04095, 1.03554, 1.03582, 1.03245
1.27181, 1.26779, 1.26449, 1.26113, 1.25748, 1.26448, 1.44775, 1.28087, 1.23185, 1.2256, 1.22466, 1.22228, 1.2361, 1.3072, 1.21588, 1.21512, 1.2111, 1.20933, 1.20945, 1.20556, 1.20574, 1.20462, 1.20474, 1.20269, 1.2022, 1.5587, 1.19851, 1.18415, 1.17772, 1.41916, 1.2016, 1.20451, 1.16322, 1.16326, 1.16392, 1.44166, 1.43047, 1.42779, 1.18119, 1.18075, 1.18148, 1.18049, 1.17874, 1.17877, 1.17741, 1.17844, 1.26101, 1.27541, 1.18011, 1.18084, 1.16047, 1.15451, 1.14666, 1.14475, 1.14718, 1.14273, 1.18037, 1.1396, 1.14007, 1.13983, 1.39802, 1.13531, 1.20193, 1.15791, 1.22981, 1.23133, 1.11457, 1.11192, 1.10926, 1.10899, 1.10936, 1.10489, 1.10316, 1.06423, 1.05503, 1.04626, 1.04696, 1.04695, 1.14559, 1.13322, 1.14664, 1.1125, 1.15332, 1.15389, 1.1882, 1.23586, 1.21331, 1.22356, 1.23534, 1.27422, 1.27835, 1.28055, 1.28024, 1.25207, 1.25484, 1.29215, 1.23092, 1.23623, 1.23627, 1.22229, 1.2194, 1.21885, 1.23835, 1.23823, 1.24036, 1.30232, 1.3066, 1.25997, 1.35598, 1.3874, 1.37395, 1.29657, 1.30897, 1.33103, 1.32102, 1.31953, 1.3252, 1.32602, 1.32674, 1.32868, 1.32965, 1.33122, 1.32976, 1.32427, 1.28779, 1.28778, 1.28747, 1.2828, 1.27261, 1.28678, 1.28192, 1.27233, 1.30534, 1.30544, 1.30369, 1.31086, 1.31088, 1.31261, 1.3154, 1.31784, 1.29172, 1.30317, 1.2582, 1.27535, 1.26764, 1.25049, 1.24992, 1.28025, 1.2792, 1.31559, 1.58613, 1.43038, 1.29929, 1.29923, 1.25858, 1.26153, 1.25074, 1.25163, 1.33006, 1.27128, 1.28313, 1.22591, 1.22576, 1.22284, 1.21964, 1.22048, 1.2511, 1.24044, 1.2406, 1.20173, 1.20127, 1.19842, 1.20477, 1.1929, 1.2013, 1.1979, 1.19477, 1.20329, 1.21345, 1.24572, 1.20951, 1.22871, 1.22204, 1.2333, 1.17508, 1.17203, 1.14089, 1.14039, 1.10524, 1.09816, 1.09551, 1.0986, 1.09184, 1.07721, 1.0776, 1.03654, 1.03596, 1.01874, 1.03373, 1.03317, 1.00971, 1.03315, 1.05452, 1.04619, 1.0478, 1.03531, 1.03545, 1.01455, 1.00064, 1.04269, 1.01998, 1.03103, 1.07472, 1.06441, 1.05958, 1.06193, 1.06921, 1.07034, 1.06609, 1.05621, 1.05641, 1.05338, 1.29898, 1.11508, 1.04088, 1.04044, 1.04051, 1.04205, 1.04201, 1.04094, 1.03915, 1.03593, 1.03539, 1.03231, 1.03247, 1.03234, 1.14422, 1.01497, 1.01337, 1.01414, 1.01719, 1.01523, 1.01691, 1.01868, 1.01953, 1.02199, 1.02127, 1.13923, 1.36374, 1.36161, 1.03071, 1.03263, 1.03322, 1.03357, 1.03496, 1.0357, 1.036, 1.03602, 1.03314, 1.03221, 1.03275, 1.03685, 1.0401, 1.04005, 1.03891, 1.03995, 1.03863, 1.03569, 1.03546, 1.02962
1.46481, 1.36327, 1.26008, 1.25821, 1.25327, 1.34534, 1.51459, 1.37787, 1.23029, 1.22412, 1.22416, 1.22176, 1.2195, 1.2185, 1.21885, 1.29882, 1.21265, 1.20819, 1.20614, 1.20507, 1.2049, 1.20452, 1.20466, 1.20115, 1.20028, 1.20236, 1.20101, 1.20135, 1.54404, 1.20532, 1.46512, 1.20683, 1.16319, 1.16321, 1.20237, 1.1667, 1.16773, 1.18996, 1.18773, 1.17819, 1.17825, 1.17744, 1.17697, 1.17486, 1.17572, 1.1755, 1.17551, 1.39538, 1.24066, 1.22853, 1.22321, 1.17804, 1.18021, 1.17801, 1.15044, 1.14965, 1.39862, 1.5381, 1.16164, 1.13908, 1.13856, 1.19553, 1.17607, 1.17657, 1.26484, 1.30544, 1.11455, 1.11016, 1.10844, 1.10658, 1.10993, 1.11098, 1.10522, 1.09752, 1.07703, 1.05201, 1.05169, 1.14619, 1.14633, 1.10212, 1.10665, 1.12755, 1.15338, 1.17004, 1.20869, 1.19185, 1.19131, 1.23319, 1.28478, 1.22328, 1.26677, 1.26626, 1.28716, 1.28788, 1.25305, 1.31515, 1.23145, 1.23112, 1.24057, 1.22706, 1.22816, 1.2289, 1.23052, 1.29674, 1.29658, 1.25808, 1.3, 1.26353, 1.258, 1.26009, 1.27937, 1.28009, 1.28076, 1.30518, 1.28429, 1.31543, 1.32785, 1.32843, 1.31731, 1.36596, 1.36217, 1.33181, 1.33244, 1.33364, 1.32197, 1.29618, 1.30267, 1.29041, 1.34952, 1.37464, 1.31689, 1.3187, 1.31861, 1.31239, 1.29692, 1.31606, 1.36543, 1.33859, 1.60533, 1.51962, 1.33764, 1.28246, 1.28639, 1.27176, 1.25872, 1.27996, 1.28088, 1.2787, 1.28147, 1.33921, 1.32053, 1.59644, 1.32459, 1.27902, 1.26113, 1.26391, 1.25572, 1.336, 1.33301, 1.27249, 1.32541, 1.22905, 1.25769, 1.21677, 1.19645, 1.19779, 1.20465, 1.18973, 1.1888, 1.20282, 1.23961, 1.20225, 1.23629, 1.17565, 1.17589, 1.18405, 1.19581, 1.19278, 1.18892, 1.19481, 1.18236, 1.22097, 1.20303, 1.20387, 1.21322, 1.19221, 1.15788, 1.10092, 1.10492, 1.10843, 1.09876, 1.06046, 1.07554, 1.08214, 1.09918, 1.05703, 1.02966, 1.03748, 1.05237, 1.1286, 1.06075, 1.00544, 1.01309, 0.996678, 0.995226, 0.996851, 0.991157, 1.01093, 1.01901, 1.00185, 1.00082, 1.00102, 1.04306, 1.05652, 1.06191, 1.05984, 1.06143, 1.06083, 1.0614, 1.05693, 1.05602, 1.0515, 1.04952, 1.05013, 1.0465, 1.04683, 1.04356, 1.04331, 1.04262, 1.04345, 1.04256, 1.03902, 1.03763, 1.03573, 1.03247, 1.14648, 1.04109, 1.14275, 1.01382, 1.01502, 1.01625, 1.01806, 1.01431, 1.01552, 1.02108, 1.02149, 1.02146, 1.01929, 1.02415, 1.0256, 1.02711, 1.03319, 1.03477, 1.0334, 1.03404, 1.03537, 1.03615, 1.03641, 1.0358, 1.0359, 1.03722, 1.03881, 1.0402, 1.04119, 1.04112, 1.04019, 1.04016, 1.03894, 1.03642, 1.0319
1.27615, 1.2963, 1.2593, 1.25182, 1.25167, 1.34792, 1.40948, 1.23783, 1.23287, 1.31732, 1.22199, 1.21829, 1.21659, 1.21662, 1.21828, 1.21924, 1.21904, 1.29628, 1.20462, 1.20435, 1.20487, 1.20472, 1.20354, 1.2039, 1.20309, 1.57921, 1.56817, 1.20325, 1.49177, 1.49468, 1.2098, 1.209, 1.20874, 1.49001, 1.4634, 1.2019, 1.20327, 1.26115, 1.17364, 1.17766, 1.17746, 1.17515, 1.17582, 1.17435, 1.1744, 1.1756, 1.17565, 1.17201, 1.17185, 1.17064, 1.1701, 1.16834, 1.16665, 1.26334, 1.15416, 1.15359, 1.15166, 1.14488, 1.1432, 1.14407, 1.13657, 1.13524, 1.2161, 1.24064, 1.12178, 1.11688, 1.11657, 1.10988, 1.10777, 1.10536, 1.10354, 1.10509, 1.1083, 1.14734, 1.08879, 1.08865, 1.13899, 1.08439, 1.07861, 1.09552, 1.09528, 1.11202, 1.13299, 1.19348, 1.17298, 1.16518, 1.19456, 1.24976, 1.28575, 1.29107, 1.22609, 1.28511, 1.32018, 1.31408, 1.28065, 1.29653, 1.24495, 1.23675, 1.22534, 1.22616, 1.24043, 1.23624, 1.2795, 1.22896, 1.23175, 1.21952, 1.21958, 1.35859, 1.36009, 1.25289, 1.27037, 1.2508, 1.24959, 1.24988, 1.27862, 1.27226, 1.27712, 1.31368, 1.31061, 1.31588, 1.32035, 1.31897, 1.37679, 1.376, 1.29352, 1.295, 1.29544, 1.3141, 1.32707, 1.33236, 1.39952, 1.30193, 1.30189, 1.29971, 1.30952, 1.30677, 1.30631, 1.29321, 1.31593, 1.33958, 1.35826, 1.35778, 1.34804, 1.25187, 1.25144, 1.26413, 1.26445, 1.27248, 1.30202, 1.27787, 1.28628, 1.27786, 1.26463, 1.26956, 1.27043, 1.26662, 1.25586, 1.26886, 1.26517, 1.26456, 1.26115, 1.25284, 1.27058, 1.21147, 1.19128, 1.19282, 1.1929, 1.17711, 1.17661, 1.20556, 1.17815, 1.21968, 1.20115, 1.21505, 1.21596, 1.17161, 1.15689, 1.15736, 1.17481, 1.16769, 1.16364, 1.16581, 1.16669, 1.18055, 1.14549, 1.13336, 1.12972, 1.11177, 1.09404, 1.11549, 1.06244, 1.06059, 1.04056, 1.07894, 1.04011, 1.06914, 1.02305, 1.02873, 1.03122, 1.00812, 0.988536, 0.984847, 0.974449, 0.966409, 0.965961, 1.00658, 1.00763, 1.01126, 1.01769, 1.00957, 1.01825, 1.05641, 1.05502, 1.05556, 1.26011, 1.26787, 1.13624, 1.06986, 1.17758, 1.18448, 1.04938, 1.04936, 1.04823, 1.04897, 1.04448, 1.04462, 1.04288, 1.04233, 1.04289, 1.04363, 1.04456, 1.04355, 1.03901, 1.03596, 1.03554, 1.03706, 1.04508, 1.09796, 1.04817, 1.02078, 1.0213, 1.02219, 1.01306, 1.03413, 1.01776, 1.01937, 1.02059, 1.02071, 1.02095, 1.02362, 1.02584, 1.03016, 1.03412, 1.03593, 1.03556, 1.03564, 1.03601, 1.03672, 1.03186, 1.03205, 1.03616, 1.0376, 1.03898, 1.03985, 1.04047, 1.0412, 1.04137, 1.04063, 1.03438, 1.03448
1.26556, 1.26571, 1.2659, 1.26767, 1.4495, 1.84365, 1.24021, 1.23506, 1.23312, 1.22745, 1.48232, 1.53377, 1.21524, 1.21572, 1.21576, 1.21564, 1.22308, 1.29222, 1.2681, 1.20077, 1.19985, 1.2002, 1.20125, 1.20048, 1.20101, 1.20111, 1.56812, 1.56753, 1.2125, 1.48776, 1.21183, 1.20864, 1.45329, 1.45727, 1.4296, 1.2034, 1.19859, 1.17617, 1.17602, 1.17866, 1.17955, 1.17697, 1.17669, 1.17435, 1.17415, 1.17671, 1.17749, 1.17702, 1.17432, 1.17048, 1.16882, 1.16616, 1.16322, 1.16306, 1.16409, 1.25349, 1.1458, 1.14172, 1.1907, 1.2383, 1.13131, 1.13102, 1.16429, 1.22955, 1.12029, 1.11767, 1.115, 1.11028, 1.10792, 1.10665, 1.10327, 1.10299, 1.1005, 1.10372, 1.10643, 1.10698, 1.12722, 1.12827, 1.13287, 1.08838, 1.12447, 1.09516, 1.09574, 1.12344, 1.18203, 1.14948, 1.16177, 1.19395, 1.27054, 1.21556, 1.22383, 1.27642, 1.27639, 1.28082, 1.25687, 1.2668, 1.26773, 1.22141, 1.22196, 1.22322, 1.21697, 1.21646, 1.3038, 1.23141, 1.20546, 1.20543, 1.20628, 1.22179, 1.23161, 1.23454, 1.25282, 1.25147, 1.25153, 1.25205, 1.25319, 1.27478, 1.30089, 1.33475, 1.31922, 1.34399, 1.3632, 1.33356, 1.43515, 1.34667, 1.33257, 1.30016, 1.29806, 1.30998, 1.31036, 1.29607, 1.29604, 1.30444, 1.30169, 1.30095, 1.30829, 1.33415, 1.28895, 1.28765, 1.28594, 1.28506, 1.27953, 1.27843, 1.27126, 1.2514, 1.2667, 1.27409, 1.28439, 1.29531, 1.28383, 1.27912, 1.28766, 1.26713, 1.26143, 1.32837, 1.31595, 1.26178, 1.29122, 1.36402, 1.36389, 1.29479, 1.24976, 1.24277, 1.20996, 1.23939, 1.18763, 1.19071, 1.19083, 1.18025, 1.19458, 1.18345, 1.19355, 1.16393, 1.15687, 1.16564, 1.20598, 1.16099, 1.19144, 1.17199, 1.18043, 1.13703, 1.16674, 1.16675, 1.16647, 1.15496, 1.12568, 1.12519, 1.10757, 1.10497, 1.07179, 1.06485, 1.06469, 1.04064, 1.03908, 1.05324, 1.06625, 1.02232, 1.0047, 1.00448, 1.02019, 0.998728, 0.986204, 0.994492, 0.968012, 0.960384, 0.966416, 0.964896, 0.976564, 0.98214, 0.998999, 1.03407, 1.08814, 1.05449, 1.05315, 1.05368, 1.12034, 1.12342, 1.07033, 1.07087, 1.23373, 1.1788, 1.18292, 1.04952, 1.04773, 1.04513, 1.04541, 1.04311, 1.04389, 1.04341, 1.04149, 1.04225, 1.04207, 1.04367, 1.04242, 1.03594, 1.0374, 1.03878, 1.03895, 1.04334, 1.04575, 1.04671, 1.02475, 1.02345, 1.02384, 1.0243, 1.02532, 1.0218, 1.02234, 1.01996, 1.02129, 1.01979, 1.12646, 1.02922, 1.03735, 1.03933, 1.04012, 1.03883, 1.03818, 1.25185, 1.03201, 1.03234, 1.03128, 1.03337, 1.03446, 1.03913, 1.03744, 1.04044, 1.04086, 1.038, 1.03213, 1.03093
1.26156, 1.26257, 1.26563, 1.26539, 1.26409, 1.26458, 1.2502, 1.33697, 1.23237, 1.23133, 1.32959, 1.22196, 1.21026, 1.20977, 1.21029, 1.25389, 1.20834, 1.20838, 1.20809, 1.24485, 1.24406, 1.20127, 1.20175, 1.20222, 1.20119, 1.20156, 1.59931, 1.56691, 1.20406, 1.20225, 1.5133, 1.50898, 1.45514, 1.46743, 1.19359, 1.18931, 1.18967, 1.18761, 1.18912, 1.19492, 1.18433, 1.31221, 1.18077, 1.17788, 1.17932, 1.18208, 1.18203, 1.17809, 1.17572, 1.17174, 1.17075, 1.1656, 1.16426, 1.16248, 1.54634, 1.33718, 1.14538, 1.14091, 1.13271, 1.13327, 1.39306, 1.12522, 1.12532, 1.12295, 1.11998, 1.12026, 1.11707, 1.11655, 1.11131, 1.11495, 1.10585, 1.10612, 1.31011, 1.10426, 1.10453, 1.10326, 1.10315, 1.12738, 1.11635, 1.11543, 1.11505, 1.0859, 1.18046, 1.1008, 1.10125, 1.14463, 1.15676, 1.20787, 1.14987, 1.1496, 1.18156, 1.23248, 1.24436, 1.26805, 1.32236, 1.27795, 1.2598, 1.23281, 1.23034, 1.21924, 1.32911, 1.20465, 1.26905, 1.21458, 1.2154, 1.23602, 1.23419, 1.21897, 1.2876, 1.30013, 1.24971, 1.24937, 1.30051, 1.27887, 1.35024, 1.31907, 1.31988, 1.28766, 1.28759, 1.30806, 1.33648, 1.30519, 1.36062, 1.30161, 1.30143, 1.29804, 1.29763, 1.30273, 1.30185, 1.28976, 1.28684, 1.33795, 1.28794, 1.28402, 1.2838, 1.29198, 1.28478, 1.28405, 1.25149, 1.26673, 1.26885, 1.26214, 1.25923, 1.25977, 1.2601, 1.36028, 1.27366, 1.27253, 1.27794, 1.27718, 1.27209, 1.2715, 1.27776, 1.34997, 1.28126, 1.33793, 1.30028, 1.28573, 1.32355, 1.24196, 1.22877, 1.24632, 1.21074, 1.18857, 1.18783, 1.20997, 1.1723, 1.20349, 1.21729, 1.15657, 1.15192, 1.16673, 1.14873, 1.14753, 1.19587, 1.15201, 1.15328, 1.16733, 1.15092, 1.1504, 1.15174, 1.21519, 1.10866, 1.11189, 1.10989, 1.11008, 1.10842, 1.07134, 1.06992, 1.09473, 1.05661, 1.05661, 1.03196, 1.03931, 1.02697, 1.04246, 1.0151, 1.02623, 1.01927, 0.994856, 0.994175, 1.03116, 0.99428, 0.995594, 0.977713, 0.977342, 0.977477, 1.01593, 1.01573, 1.01634, 1.10695, 1.06029, 1.05806, 1.05585, 1.05692, 1.2536, 1.07169, 1.07296, 1.07346, 1.07336, 1.36415, 1.21176, 1.05299, 1.04759, 1.04496, 1.04627, 1.04669, 1.04708, 1.04607, 1.04537, 1.03973, 1.04004, 1.03876, 1.03804, 1.03858, 1.03897, 1.03308, 1.03171, 1.03142, 1.03216, 1.03236, 1.02769, 1.0267, 1.02358, 1.02367, 1.02316, 1.02245, 1.02637, 1.0259, 1.02507, 1.02584, 1.12533, 1.03643, 1.03608, 1.03814, 1.0417, 1.04108, 1.04069, 1.03801, 1.03379, 1.03454, 1.03486, 1.03477, 1.03392, 1.03383, 1.03564, 1.03628, 1.03697, 1.0354, 1.03522
1.26007, 1.25982, 1.25999, 1.26039, 1.26089, 1.26188, 1.26511, 1.42604, 1.32619, 1.2342, 1.2269, 1.38772, 1.32402, 1.20393, 1.20401, 1.20348, 1.20787, 1.20852, 1.20861, 1.20872, 1.20902, 1.28779, 1.23305, 1.23018, 1.20518, 1.20521, 1.20581, 1.20615, 1.2075, 1.20739, 1.20538, 1.20093, 1.19803, 1.19901, 1.19639, 1.19557, 1.19189, 1.19118, 1.18941, 1.19086, 1.19102, 1.18844, 1.18458, 1.18253, 1.1837, 1.21024, 1.17801, 1.17701, 1.17611, 1.17334, 1.172, 1.16698, 1.16577, 1.1686, 1.30903, 1.2018, 1.14296, 1.39523, 1.39384, 1.12472, 1.12476, 1.12209, 1.12081, 1.11558, 1.1165, 1.11513, 1.1148, 1.11524, 1.11523, 1.11502, 1.11479, 1.11481, 1.108, 1.10797, 1.10906, 1.10843, 1.10751, 1.10806, 1.10877, 1.11164, 1.09643, 1.10174, 1.15656, 1.10436, 1.11502, 1.11827, 1.11559, 1.13272, 1.14649, 1.19182, 1.22891, 1.22864, 1.20815, 1.24246, 1.24501, 1.31511, 1.24127, 1.2292, 1.22938, 1.25487, 1.19963, 1.19677, 1.19283, 1.21035, 1.23652, 1.22996, 1.2785, 1.40159, 1.24595, 1.2465, 1.32356, 1.25918, 1.28283, 1.28189, 1.34329, 1.30317, 1.30344, 1.28252, 1.28206, 1.30898, 1.31709, 1.37079, 1.33992, 1.30155, 1.3017, 1.31594, 1.31249, 1.31528, 1.29593, 1.27364, 1.2725, 1.27347, 1.29369, 1.3506, 1.35004, 1.29017, 1.32012, 1.25315, 1.25301, 1.25093, 1.25019, 1.25939, 1.26407, 1.26259, 1.26666, 1.28106, 1.28106, 1.30569, 1.26531, 1.25109, 1.24989, 1.27378, 1.28615, 1.27503, 1.25776, 1.22944, 1.22996, 1.26881, 1.2642, 1.21527, 1.22009, 1.21902, 1.20212, 1.20276, 1.19319, 1.19296, 1.24335, 1.19644, 1.23045, 1.19936, 1.19706, 1.15211, 1.15328, 1.15885, 1.20158, 1.1633, 1.1723, 1.12082, 1.11869, 1.13359, 1.09626, 1.08894, 1.08791, 1.0956, 1.0998, 1.10195, 1.10352, 1.14057, 1.09717, 1.09947, 1.0669, 1.0632, 1.04394, 1.03768, 1.01757, 1.01802, 0.982341, 0.988473, 0.991548, 1.02006, 1.02848, 1.00343, 1.00467, 1.00435, 0.97087, 0.971737, 0.97757, 0.977651, 1.06128, 1.06015, 1.05971, 1.05892, 1.06002, 1.05991, 1.05798, 1.05935, 1.25415, 1.98709, 1.07017, 1.07059, 1.14594, 1.05989, 1.17251, 1.29572, 1.04464, 1.04716, 1.23818, 1.04485, 1.04568, 1.04495, 1.04235, 1.04004, 1.04056, 1.03972, 1.03877, 1.03898, 1.03559, 1.03322, 1.03356, 1.03185, 1.03239, 1.03233, 1.033, 1.02877, 1.02566, 1.025, 1.02179, 1.02475, 1.02833, 1.03014, 1.03172, 1.03215, 1.03424, 1.03854, 1.03933, 1.26506, 1.0387, 1.03727, 1.03737, 1.03304, 1.03419, 1.03617, 1.03389, 1.038, 1.0396, 1.04057, 1.03982, 1.03242, 1.0324, 1.03414
