0.934919789359709,0.935074712715668,0.935307335960601,0.962573782040315,1.19510653203926,0.932153174491955,0.939724696624557,1.06709526209994,1.06749807552922,1.11660106141174,0.91242562160613,0.913489242122293,1.03412483532931,0.902693557191959,0.90142772494554,0.993117917911867,1.00175113908775,1.00933520676129,1.02183812445462,0.876174515068122,0.876161006536397,0.901488527639736,0.903723594518931,0.903280037311049,1.46030810969811,0.894532283468829,0.89480286779133,0.894989193558639,0.895375921495751,0.895580286614836,0.897092054145904,0.896262842542422,0.896367795188793,0.896234195629671,0.896637542613165,0.895378662781857,0.894047366402488,0.887069431533048,0.911682635196813,0.89406829953694,0.894064538367344,0.893714951953567,0.89441359213882,0.894334086094133,0.893094707112805,0.892618967354968,0.89176289713192,0.891685632388379,0.890880434194442,0.892869958503003,0.892745286277065,0.892299835059337,0.889447317183742,0.894367041935864,0.894175004469543,0.893922946243025,0.894109605339636,0.894566981364575,0.895081091609215,0.895443047504138,0.895189001783445,0.894483478483067,1.08024419440398,0.898068055846086,0.899698270209759,0.901950261978588,0.885286277597888,0.878219520744833,0.87837021296404,0.879651147204599,0.878983602058471,0.87897575390929,0.87919539212261,0.897339506300204,0.894891146683869,0.894346794706061,0.89422384344125,0.89446739238462,0.977638825862254,1.0588202286126,0.926908103887794,0.928178545791269,0.928895055788584,0.930302990139956,0.932230791980967,0.967910219169825,0.931233987928354,0.889190420758526,0.889390469126636,0.890965061478625,0.892267558043693,0.894328928429869,0.896026191196129,0.903429883856654,0.894858508125032,0.896242226815556,0.89638509561648,0.897404974068201,0.899838143065842,0.903013275625369,0.903618708384845,0.904005835913396,0.903932851724084,0.904887741640326,0.90557279613024,0.908549453689255,0.908611338187473,0.907581476309124,0.906197444278752,0.912683326966957,1.12312071805021,1.06182391673174,1.108961730931,0.92800550241998,0.92882460367708,0.929355903312589,0.930378038563702,0.931236940939283,0.933092539213627,0.935276750901075,0.973980303832289,0.95972473772451,0.952726678892425,1.0812327585855,0.975745798913706,0.975768819305505,1.07769224350594,1.14866006915858,1.14074299241748,1.1439953999034,1.07749297513595,1.06507019768502,1.02928393961669,1.13892280424441,1.18361779852416,1.18337608632191,1.10081106711515,1.14783038326203,1.00979367939252,1.09725704217395,1.04570771033781,1.04371485514718,1.04162747694502,1.13142136474068,1.04088428571025,1.04578655802903,1.04953101084189,1.04906285675225,1.12467172726398,1.06163927114239,1.06173855941699,1.06197138678247,1.06110911926975,1.06147972142909,1.066881824387,1.06716235952598,1.06867011027359,1.06987176328252,1.07206355490708,1.07253382574121,1.07208458500552,1.07129760835081,1.07007760571805,1.068383295798,1.06822382227355,1.06817680256002,1.06850291522073,1.06828742515498,1.06854350315587,1.06607972724603,1.06749324234411
0.937095289781361,0.936294858231317,0.937605435761681,0.954569129833148,1.15984628686059,1.05787944613997,0.938946191289121,0.926244412632137,0.925000736574364,0.918447581629455,1.04938574246837,0.914533263115474,0.908376386489119,0.903691308945491,0.902731404522437,0.984342922512631,0.994734349258906,1.08869473940154,1.0314788607618,0.928633325194328,1.06967895100001,0.905440187217218,0.904029793249469,0.903559085591013,1.0115097667559,0.89526523055467,0.895681650944124,0.895911760851277,0.896384193218448,0.896640103739469,0.896644447945012,0.896597275269265,0.896248836873816,0.896806849353016,0.896196167617198,0.895249282687775,0.892899809518037,0.888909895439394,0.891251469587811,0.912597622634558,0.893943997918985,0.893181893030647,0.894152414120739,0.893877980957779,0.894163025647141,0.8921734920887,0.892244880055758,0.891379483915745,0.892261203047432,0.892367038850531,0.893485607622812,0.892896852586615,0.893207804586951,0.89360187091114,0.893975076927296,0.893782048790949,0.894212468549625,0.894720292794877,0.895039043038909,0.895535113275047,0.895546788355365,0.895142536873264,0.895076247370194,0.89935660947491,0.899833048940727,0.900215849961724,0.893076373169722,0.878632876265556,0.878801394357015,0.879386294341074,0.879573155956329,0.879483911376095,0.879969918768053,0.980487397855708,0.894961733844489,0.894531580307563,0.892879987835955,0.890407849100386,0.890184480139668,1.00906698580547,0.938510715740557,0.943538823574178,0.956840994396554,0.931422148088207,0.932235501627547,0.932992785420843,0.933822338567258,0.978959202862716,0.890350642859421,0.889477068030275,0.89300001659824,0.893696902531775,0.895459504831433,0.901865611876405,0.9038866330981,0.895548862099666,0.895924819020018,0.896288386059757,0.899265861618272,0.901620039696053,0.904360354513192,0.904195096872356,0.905304689470914,0.905048872203708,0.90677896702288,0.90919213988627,0.909801780005166,0.910331698009482,0.912041007721725,0.9130234400316,1.11453553317646,0.967572053764386,0.926838112483863,0.927625440050425,0.928381730818754,0.928793444002094,0.930107783036783,0.931035731443702,0.933442043699825,0.935002954210658,0.93648342633268,0.953005618325504,1.10944213940658,1.1273186352524,1.12161063200861,1.12184568855778,1.10367794205798,1.21774772992708,1.14324841073016,1.165833248181,1.02997373175904,1.05672151592105,1.02838325567719,1.02806167787024,1.12735240345514,1.13230621641634,1.08057670310376,1.03568245266076,1.15495097237294,1.00862722307766,1.01646746830018,1.0333391988982,1.04539495397294,1.077054874857,1.04113001041099,1.05262876249877,1.05195636304458,1.05132853605565,1.06224011395356,1.06353745955357,1.06442329323815,1.06401963009493,1.06220470740231,1.06178752269069,1.06658921151558,1.06680943359837,1.06836739678146,1.06973998198207,1.0717581762443,1.07180354593534,1.07120940772081,1.07126996434023,1.07067271182101,1.06991922007733,1.0682633920153,1.0684087013715,1.06858811391424,1.06854786767396,1.06889019921732,1.06687090263249,1.06674062567745
0.937632275673512,0.940375274812627,0.953349069268669,0.988047189820458,0.93947559058374,0.952060673542534,0.950708695916282,0.952710083007904,0.950947696511961,0.921277101889751,0.915762018022943,0.914963047336091,0.911105850134876,0.906231395344425,0.902458886448002,0.902735857246392,0.968837096908168,1.16833967984587,0.924745316067661,0.915623041326451,0.912351635786355,0.906565362105383,0.90498369620696,0.904449064366407,0.897462281352762,0.896767958726784,0.896853588732464,0.896696212174046,0.897094853121111,0.897235956856098,0.89698062620702,0.896568864384197,0.896139951777024,0.895783695036765,0.896429323069661,0.895227232982489,0.893306814129725,0.889352901961004,0.887931160447079,0.88820721811867,0.908723975256957,0.892351555997795,0.894285755609386,0.894143434375712,0.893297414582208,0.893720879901699,0.89219706617016,0.891990871591485,0.891969826036663,0.893860793671589,0.893212779974073,0.89342214797201,0.893460860809739,0.893655534516387,0.893737936173783,0.893730385493209,0.894151839994664,0.894503543023001,0.894798553741463,0.895089303510023,0.895076964914195,0.895211813479507,0.894674612250974,0.89945855757327,0.899105641357265,0.900171916293869,0.900286710653748,1.08686473500107,0.878204617033879,0.879325578567415,0.879815029247602,0.87981351743153,0.880324985071563,1.01580778693787,0.987539127797313,0.987952559218846,0.891755764740261,0.890448922239171,0.967012690759622,0.915838002291659,0.921491251176107,0.947942239194989,0.95778353694417,0.932537555441248,0.934096355916516,0.934839965762769,0.934914731742074,1.16971212568021,0.888693108435469,0.889380386048452,0.89139768408975,0.892810357000907,0.894118893388744,0.896207667430863,0.905763233283614,0.895159549384485,0.895248422421114,0.895448621513068,0.897092333316461,0.898533704270197,0.903321407538413,0.903977088100557,0.905110604203534,0.90593023696284,0.906763392004176,0.909149589991606,0.910544272870077,0.911786486569041,0.912527980069636,0.914435047103724,0.918637733386176,0.925667734483793,0.927379959021955,0.926621314867897,0.928157788871603,0.907580098250727,0.930548667718056,0.931198598943533,0.933211933266945,0.934138706025476,0.937319703442923,0.950435846667816,1.24694025699988,1.10079924827796,1.09966139519818,0.975584708724995,1.10163973862459,1.11585032709454,1.1492179724777,1.12518072849998,1.13781850746249,1.08293884350839,1.0345272702017,1.0954183008228,1.02163925365781,1.04381747354441,1.03370972287302,1.02101901116264,1.14663183021422,1.01584383634293,1.01609250903667,1.02354560635862,1.02196090574098,1.09418030223626,1.04336710474274,1.05734661150336,1.05501785815358,1.05430055565516,1.10783889811056,1.06478605398515,1.06655486434865,1.06704023927378,1.06794768930336,1.06272496569568,1.06457502083482,1.06640269483997,1.06777987305617,1.06847191740467,1.07164809783252,1.07176849635771,1.07145222900964,1.07101767087654,1.07055072787642,1.06978829544197,1.06825744179379,1.06752903886503,1.06838239697672,1.06905523661619,1.06781212856078,1.06721417766404,1.06734200648747
0.949796904224247,0.947947091028107,0.96616352431272,0.953766389805671,0.940729427601433,0.939803464588262,0.948159543190476,1.01104365307631,1.0553243760157,0.925272143498534,0.927082449222378,0.927897630825421,0.998976277927192,0.936318637776072,0.903775548591927,0.90313104879106,0.943143461566953,0.999390811086641,0.913494893331153,1.00203204531628,0.910696838132368,0.909548615307591,0.950284723948164,1.15660915224294,0.897676192867035,0.898049104449032,0.898264555367681,0.898522790614529,0.899093326799442,0.899148010748174,1.18226266808982,0.923390377586207,0.926704989523654,0.895265042640286,0.89568328276513,0.896367800220707,0.89377061732442,0.917837885129752,0.888953793392705,0.88776487592174,0.888118798684576,0.890429517339379,0.982999070066493,0.892447446844479,0.893380887076122,0.892958506806644,0.892325337672998,0.890410637340683,0.891834098732854,0.892732542772877,0.893750929067168,0.89331627127009,0.893792488078677,0.893733408516797,0.894091039163219,0.894256602025006,0.894310233736614,0.894042559136312,0.894735143457204,0.894376027898239,0.894764662754089,0.89488755903935,0.895091087313132,0.895019792806325,0.897886273781204,0.896990372379802,0.898138344520468,0.898758229314981,0.878868280996361,0.878837282268323,0.87934921439756,0.879506945304697,0.880458206461765,0.881119337773242,0.881625296606915,0.989776664113504,0.890390959504649,0.886615904806375,0.886306544463326,0.913384152060367,1.24026792599395,0.967805747949592,0.991751551880786,0.931471596619399,0.934574987312032,0.935362566125655,0.935530131791358,0.960498822608984,0.88789098871219,0.888538883216163,0.890053053843607,0.891558844750677,0.893326982691888,0.894734125690673,0.910819649809471,0.911295567179589,0.89536334333738,0.894682633090552,0.896019102188653,0.896942084042043,0.902383790353497,0.903297062798805,0.90595524912944,0.906224976560185,0.908122873312055,0.910346671290598,0.911935825485814,0.913308486083194,0.914955739137312,0.915613656750641,0.921144980035974,0.923498207020039,0.921600031333523,0.927315539896501,0.926622403505615,0.924184470952935,0.930850479529018,0.931204377311009,0.933409554258068,0.934002367153306,0.938359018414758,0.938976680912298,0.939818906937078,1.19823573166115,1.09738498057339,1.09709869864853,1.09395825732581,1.03025853714122,1.13631176535956,1.13769637867655,1.13794924357904,1.10879672223041,1.12706677121023,1.02663823059973,1.02235278165772,1.02362519801194,1.03321870120812,1.13036867842916,1.04490992753918,1.04697507133337,1.02154509543245,1.02439063507845,1.02656183977279,1.10989357741198,1.1665701742104,1.05574217451177,1.0555178978195,1.05524477901463,1.05519427549267,1.14268616925424,1.06973766923954,1.06848207703962,1.06770562220587,1.06561816101817,1.06535066840071,1.06564816691811,1.06699407506471,1.06648291429763,1.06821390179847,1.06971707974685,1.07025813147377,1.07024730993837,1.06977415287998,1.07002476965297,1.06885384065287,1.0676650862979,1.06759873235845,1.06744020790762,1.06697032751732,1.06640524477093,1.1624787496532
0.938715693969984,0.945311233912154,1.17004013160288,0.946625097113926,0.94702947250037,0.946354022850027,0.945048837150733,0.94264900647128,0.94272029980891,0.94242990777604,0.926145970647291,0.926213873482353,0.925908305124687,0.99589496268489,0.906620546183099,0.902355001959262,0.902098025556388,0.901226522673644,0.911820749622834,0.910531606761859,1.15739464011039,0.910266025049956,0.907779433622159,0.89873096444996,0.899298348937476,0.899605870042465,0.899492437136964,0.899748679614551,0.899883728930865,0.899559454483087,0.9156590406231,0.920879996260598,1.01405605190266,0.89460513965235,0.894424660364298,0.891485721642846,0.89244375589787,0.891993242852822,0.89104360542561,0.888452465168836,0.887750965665827,0.889064890953428,0.889166735021773,0.891824574564062,0.892324083420639,0.893212868696598,0.892194834547614,0.892341876293206,0.891385033984564,0.893512389392132,0.892612569279482,0.893085459270135,0.892622020010664,0.893872466338743,0.894502557061755,0.894859010262289,0.894463731164563,0.894799785531975,0.894231538735628,0.894612851171005,0.894374624776188,0.894776564692066,0.895763191563345,0.895803907837938,0.892591486617613,0.8941932753191,0.895771303620934,0.907811150859191,0.879062285621751,0.878735587225586,0.878619014042648,0.878688198256886,0.878825730204448,0.879594477914756,0.880332504046614,0.970828730788995,0.890043556263619,0.886982745872904,0.886654883639739,0.906441152602386,0.912803204121788,0.949248948291755,1.02063302699537,0.927947093927731,0.935656131532889,0.935231724735095,0.935424782643121,0.935593873967944,0.970275593606148,0.888242865750344,0.888697967643612,0.890122604645595,0.890651123632723,0.89398561421542,0.894961990654298,0.899939077665127,0.896253024739697,0.894829207676419,0.894288958479503,0.897032011168547,0.898696752944966,0.901457170724257,0.902695606926869,0.906361819417341,0.907133551514268,0.912345310892456,0.913044385663734,0.914992320544865,0.916027505703331,0.917256988488218,0.922978167085082,0.923842276367353,0.924520344537568,0.925943761158908,0.928061702366209,0.926795342434548,0.929524501185779,0.930390705461924,0.932878319037872,0.935812671296212,0.93722464214332,0.939129731892925,0.939830712819256,1.19908164167225,1.08844974964541,1.0889152334769,1.09191911015979,1.09364132017393,1.1354608585856,1.11180867883442,1.13684036170329,1.09834450101448,1.0849526618015,1.09774456436886,1.11538239836514,1.02732022559313,1.03000837016225,1.02769056561822,1.02592572716595,1.02559455352327,1.02602110915517,1.02588312360754,1.0265569783582,1.08520759644953,1.05926677895965,1.05577610485847,1.05562552962691,1.05524285793985,1.05472910928008,1.05475265748679,1.08155754790051,1.08089857907849,1.09985791798444,1.06926217221505,1.06748201231462,1.0665168625648,1.0671427146652,1.06696791894169,1.06636004740745,1.06841471510209,1.06853236724103,1.06882655641478,1.06795752955794,1.06773192783176,1.1357030925023,1.06533965762337,1.06639739379304,1.06596139581398,1.06615020095626,1.0649401710295,1.07610364549388
0.965389036728261,0.944304601385553,0.94556851907334,0.947158613898236,0.947360308575979,0.946837371147722,0.944834039261993,0.94094982545963,1.05342539435813,0.941830572079978,0.922399106136444,0.924456369412506,0.996683215631915,1.18976356779989,1.15067930488912,0.904318908878283,0.902973590205059,0.901846587842997,0.899815855646728,0.899737506143333,0.898377353244076,0.899908700783769,0.989938984851451,0.899506459270971,0.899849080904,0.900301593006663,0.900490720068323,0.901183958280285,0.901770032636725,1.00833276733219,0.887946825986938,0.888384877460499,0.887322895477663,0.889249759074025,0.889128091591319,0.890946722343651,0.891907306206467,0.892626784134731,0.893259578526148,0.893937517660048,0.888153443056044,0.888401467239955,0.888172854634809,0.89778109852851,0.892457176358564,0.892310723155792,0.892352633046253,0.891100643084347,0.892174118157038,0.892383880612414,0.893364684439323,0.892997030413504,0.892874612404315,0.893859148752858,0.894249927679404,0.894374639519091,0.89431033867602,0.894081660225328,0.89293201220736,0.893097680295013,0.893204684180697,0.893191914475774,0.893353850822659,0.894966528270146,0.894041431808887,0.89353127325334,0.892755325987189,0.891209893198432,1.07594977390826,1.0823203356756,0.87773813058468,0.877790267563343,0.877683194846891,0.878058728137101,0.878677733888444,0.878342236915515,0.877971284053123,0.878684903373351,0.878480619040247,0.916721208656758,0.911855986541988,0.912182150628678,0.913075989498034,1.02552718644484,0.956123932953331,0.933939935818895,0.934670045829643,0.934808916058199,1.08323077464725,0.888666290994678,0.888497622269531,0.889122992153615,0.888612743101311,0.888251392887935,0.894543148083952,0.899185104161915,0.895581646843453,0.895039668132596,0.894726203282593,0.895429866027218,0.898064895110033,0.900047159271543,0.902110279598526,0.903712964483496,0.90839947975983,0.911331976956523,0.913522535865048,0.917053482025151,0.917584663636713,0.917534433863149,0.923900393919845,0.924679474861062,0.924803487434741,0.927672328014299,0.929448107244616,0.929417658091909,0.929875403005198,0.930621929061406,0.932822197239326,0.938354964479665,0.938983354387508,0.940017137157718,0.940831863035371,0.942523604832629,1.08094607294177,1.07358187736734,1.07276040866183,1.07122979465959,1.13431513594519,1.11211251236043,1.08108271696586,1.07473790419657,1.07096336861305,1.08848085757566,1.09645082399027,1.1069881861579,1.07382646686201,1.12475367082585,1.10634318818915,1.09935413753684,1.02648831992032,1.02675411606967,1.02758076026279,1.20829598026822,1.06606745708133,1.05555284179968,1.05549000944706,1.05456032477617,1.05403759203188,1.05362106140643,1.07992926154138,1.08031458673767,1.08020321390775,1.08001712392105,1.06981697243025,1.19252895599403,1.1034655787567,1.05815589733228,1.05936358047968,1.06177906766292,1.06536086557213,1.06772536233286,1.06679800039388,1.06688428419929,1.06697850199464,1.0655870805031,1.06609174065105,1.06500937555888,1.06436920851435,1.0633927133176,1.14028794358363
0.938620828978659,0.943739785202136,0.944901773889966,0.946688759057931,0.946913742291347,0.945908926402674,0.946351724706409,0.938416555472423,0.936107680301182,0.934020227957136,0.932708599247194,0.926101871380233,0.99773050563029,0.916293307142694,0.910423209467387,0.905351135725493,0.904148430863769,0.903413492260194,0.899001874526796,0.898011341139063,0.898204347188652,0.899560210560422,0.899993134897043,0.899889186584608,0.900009418149951,0.900829893585196,0.900718406297193,0.901147580183823,0.950457341982548,0.986935351263477,0.889250068222266,0.888756341076807,0.887940783652745,0.887948665703874,0.889222856036155,0.890367076299764,0.891741538911332,0.893041944730627,0.89257972606367,0.893449860018162,0.887739880882903,0.889030403816209,0.887713964921816,0.88880525929094,0.891080540162708,0.892583374132653,0.892297076551411,0.892897829833237,0.892338719288757,0.893951047556989,0.893206656361522,0.893509030879231,0.893391934904733,0.893487432493455,0.893294185352468,0.894037356680825,0.893777391932916,0.893784089124112,0.892679975858555,0.892858016054944,0.89062311110073,0.891625667017143,1.02291228843616,1.22183054044585,0.894367485803332,1.20479149593651,0.9023362997144,0.906418817424549,1.00413462237974,0.992074896063703,1.0692991546685,0.877009775736048,0.875825415980122,0.875540365255913,0.87612956430558,0.876590839756347,0.876665738997404,0.875968869803577,0.873903766183665,0.874093369883435,0.907802855521084,0.911280993052628,0.915026048949521,1.00089035150258,0.932433777686245,0.934027069515817,0.934287434045703,0.934531597787905,0.934457491146815,1.12087343458287,0.889310733247957,0.889252343654139,0.888903382910959,0.88881951282621,0.889070986322343,0.889291721991161,0.89241519983664,0.892800476944963,0.894567997231543,0.895708553570925,0.897140430788195,0.899675658177868,0.901163511159453,0.902857007817424,0.914602719244983,0.914169005655067,0.91309913396285,0.919966650627803,0.924696355937875,0.924107909566744,0.924669688323866,0.925386597331915,0.926971018332835,0.927744690781957,0.93006390540285,0.930082551770091,0.930795814493933,0.930572635657824,0.933152534528,0.935263400147207,0.941188176336276,0.940994629310842,0.941092096099615,0.943103418559833,0.948191834044437,1.07162198315248,1.07290841860291,1.07359498273357,0.97062459468894,1.09357145004066,1.04664056242005,1.07325149133286,1.07259511952703,1.04489599608361,1.04565480187336,1.03924357245193,1.04012461974466,1.03875708463813,1.04164384557114,1.04279775073176,1.04318622459261,1.0436184563194,1.04351134298649,1.04362473472046,1.18162399633544,1.14499091381384,1.05685259093523,1.05117722448176,1.05234688539177,1.05157761676928,1.19924093965977,1.14852508805283,1.19019512284016,1.233353852235,1.12929913320604,1.18100778090298,1.13305170306393,1.1811438412963,1.16102539343177,1.17173189297972,1.24774300833695,1.06844462919106,1.06693727789493,1.177480763628,1.25161865726537,1.06555143255932,1.06610958414901,1.06464523349556,1.14804736029455,1.17601895384131,1.18345969002381
0.946828516398573,0.942539493553879,0.965612695655918,0.946296966005231,0.946309501331006,0.945793212494472,0.946586171464115,0.937708343059268,0.936437701038881,1.01069725686588,1.00201573941874,0.924361323831923,0.91997149099483,0.915935143850896,0.911977337606136,0.906156678094196,0.905356826437504,0.905184288407861,0.902711767700156,0.898331129732018,0.898838720942174,0.89971858915434,0.899928561440289,0.899575867526851,0.900141066538892,0.900015910102023,0.900648127792146,0.900939743770964,0.901076214736848,0.945534163571455,1.04324002390702,0.894042157311885,0.8878770558387,0.888086946903288,0.887932742012358,0.889027490062005,0.891971966153798,0.892830281424152,0.893257072147901,0.893008256996713,0.893614852437764,0.889920194182395,0.888112573062511,0.887854827099467,0.891633704635532,0.891962512515912,0.892877386553174,0.892849153290445,0.893502271947236,0.892796013997,0.893862358538369,0.89351077911692,0.894001485536821,0.893794585456153,0.893983843145684,0.893575617968271,0.893571017606144,0.893071394186344,0.893473474299857,0.892883900968404,0.890959621439103,0.890405083666711,0.889140832757224,1.04699482854814,0.886605141283366,0.885569005889927,0.88509571004195,0.884179440065694,0.881626356893229,0.879522743368643,0.986494999284742,0.876607056291366,0.874437431641311,0.873280128245948,0.874131512518463,0.875456438062162,0.875762574001111,0.875446658870405,0.87277838145745,0.873815001202855,0.908202065434875,0.910083683748899,1.00382526846952,1.00340101288205,0.930952262147357,0.93375392790444,0.933931501053125,0.934053521360338,0.934366967506726,1.08395519608563,1.08373260515691,0.924367821231179,0.890950501779695,0.889191175356871,0.890265742423052,0.891054625393905,0.891107547076425,0.904220796035169,0.906259658533998,0.895907430064578,0.897692748615964,0.899399820575641,0.900814368013571,0.902478967870575,0.914980851535508,0.913518627037773,0.913117848327923,0.913044376323791,0.924549927111358,0.924573528096864,0.9248074810067,0.925984064028274,0.928028457618354,0.929433561058706,0.930074734232618,0.931742500309768,0.931930215838408,0.933296199725093,0.934567113802204,0.93689873625562,0.942718463318086,0.941533146586381,0.94070638754645,0.943479198324068,1.05315421379203,1.0557293195999,1.06885438390538,1.14095982762396,0.978176060154072,0.978376295977444,1.10360754951283,1.09323399041753,1.10968151752035,1.03428778658273,1.03374842154968,1.03159707928444,1.03067814959762,1.03091436771551,1.10339437264394,1.04378344038814,1.04274968145288,1.04330762734594,1.04231125495442,1.04484119949277,1.27589976558859,1.05673268371322,1.05708286344328,1.06319539033376,1.04836503551741,1.1512446060554,1.15219409597055,1.11873184024941,1.09735231341811,1.05925595104587,1.17481304431603,1.10316731647408,1.09283233250238,1.04995808168418,1.04847271623784,1.04827063272106,1.04971387009258,1.05839423365436,1.10314372813181,1.13758489860379,1.05738688577099,1.05807885513434,1.05858726598335,1.05867695523153,1.18385052237533,1.07061141061251,1.18130106608456
0.939865290029981,0.938168680251305,0.966080920298391,0.945357770733896,0.945638368355269,1.1181202467378,0.952371415186574,0.971587528331884,0.929470136865846,0.929400449533577,0.928778728101653,0.925725629837987,1.03171665793946,0.929136809467119,0.909660688419518,0.908147063819565,0.906389934968308,0.904456516621505,0.903242394952451,0.901242468746959,0.900571229456291,0.899899042147531,0.89953691560872,0.899863774273455,0.899651571836832,0.900131605904019,0.900607901108198,0.901146336207139,0.901058467826917,0.972713840053882,1.17905166274156,0.896464215371006,0.888418718949581,0.887827272148018,0.888295048768988,0.888579066344837,0.898416720532627,1.17616294713677,0.892917792797949,0.893430838352099,0.892720237604097,0.890335199875676,0.88806368789463,0.888460866552641,0.888818542442375,0.892673270848844,0.893155344165721,0.894021045765614,0.89253651820744,0.893529305666421,0.893142775374834,0.893704566341736,0.893660456823673,0.894283420061676,0.893413997574938,0.893638266514279,0.893237829429253,0.893489961427178,0.892680838696687,0.89341234369153,0.891064861870166,0.889873906371949,0.888407438063619,0.903005033630088,1.23222236004081,0.885532772457165,0.884890062478274,0.88503796487828,0.879536029672024,0.878641758805514,0.877331225013561,0.877253485951499,1.05280390945201,0.872378166705632,0.872851764098066,0.874948947220104,0.875213760463886,0.876356952670853,0.869729501066146,0.868830194142306,0.897696159548658,0.898180536218381,0.898096327882459,0.91855470267887,1.01700810520671,0.932886465721058,0.933471521907221,0.933732786738306,0.934005010080715,1.0934766636804,0.953875680374722,0.945675107866838,0.893693609699804,0.889240607518349,0.889817130668437,0.89170987995864,0.891714106952504,0.903292925291661,0.917736766720619,0.897994811256447,0.898515317331489,0.89985722546603,0.902183781854665,0.909829036886345,0.91025854365429,0.914477799356062,0.913034125075254,0.910591278767614,0.948949393814936,0.948615341328956,0.923550542185183,0.925007661387694,0.938695395178497,0.951328350934127,0.952613394690941,0.951803493709434,0.943907290659072,0.943785304561819,0.938031156520901,0.938664310670458,1.00647693915351,0.95128475327805,0.947451457598677,0.94631009580369,0.948487754441861,0.950664867851566,1.03201288349065,1.04998126460579,1.0714383774131,1.08272169025713,1.14208180817393,1.07624663886209,1.05993903052348,1.03246063160632,1.03307722507608,1.03256836892931,1.03011852868881,1.02980931095643,1.0302433964252,1.04535540470344,1.04370597216109,1.04300189966647,1.04024105998967,1.15275947514029,1.27583071171013,1.01565362626862,1.01539899854235,1.01540869791078,1.06485468480797,1.04051315089886,1.05786871870677,1.073011719428,1.0858802087436,1.08680732721932,1.08518947233029,1.04211522460247,1.0848905675117,1.18316900024457,1.04934695901053,1.04881341783527,1.04945055953481,1.05102097315752,1.05131310312639,1.05186436816792,1.05207471095208,1.05236047623708,1.05219227442886,1.0541712193483,1.05221088414562,1.04973581032863,1.05014864317488
0.939976295366167,0.936067446001329,0.990016123654389,0.944493230460091,0.945228358920076,1.00178165950399,0.944424511278299,0.938287107149788,1.00871301274975,0.929626808178471,0.929007297773494,0.926809207179421,1.14099434397678,0.991337402547931,0.926965110371067,0.908481134529777,0.90731331750101,0.903996511836913,0.903342063834833,0.902219084569913,0.900398032843691,0.899768870882695,0.898899440095315,0.899125553488427,0.899743579145242,0.900047351961034,0.900752256443793,0.901414694069457,0.901178926545625,0.900579034394674,0.912884900672155,0.902432235255363,0.888969739519314,0.8882292026713,0.88799276458495,0.889118327678323,0.906396773959757,1.175794659785,0.892872877376782,0.892979148826554,0.890752519125367,0.889751065099347,0.889119781873492,0.88805147099684,0.888476243481906,0.908841711827603,0.894296753844807,0.894378681332976,0.8946590330611,0.893369332739265,0.894011418338831,0.893372683328882,0.893687654614916,0.893341728066199,0.893627253224846,0.892910815090864,0.892864384667772,0.892837602216055,0.892114779746157,0.891420938107965,0.890728108203085,0.889187654048633,0.888057130600761,0.888354039420218,1.22590558500904,0.890205750463091,0.883627022601165,0.885029400388039,0.879281860191297,0.876925644766273,0.876925568480938,0.876528670704498,0.980383807662619,1.05616159154928,0.869929807875995,0.870612817314098,0.87314509753364,0.987669312199713,1.01142297580528,0.86800985580338,0.868281333673685,0.890465623009352,0.875868559968238,0.994296462084109,0.928562065210523,0.932076879927208,0.933035508917103,0.932891114386539,0.933031475845602,0.933134086120469,1.07198358341982,0.972572900009022,0.895705035714706,0.889539909452055,0.889743552979364,0.890012573784792,0.893386566225168,1.02041764045554,0.91662982978307,0.916859502504052,0.905883710492173,0.906302780426445,0.904230921497837,0.909696201738406,0.909155829763148,0.907188184510636,0.908166883150824,0.909501293613154,0.899572472582464,0.899479249572021,0.924479379493753,0.925158069618837,0.925324105248967,0.918608251392763,0.918224334389094,0.960833248990911,0.946360627975634,0.943252741769202,0.943625910333276,0.998449049553621,0.954372972083972,0.953393007008638,0.954149033616765,0.947532174008542,0.948128545483437,0.952482171729819,1.02490227840253,1.03291646955722,1.05217711149655,1.12101634075993,1.09696789031375,1.06563627126699,1.02866762912024,1.03110803212971,1.03139435847993,1.02977491608508,1.02845695906944,1.02708485755894,1.02811206725605,1.02770844024184,1.02544461005508,1.03178216335076,1.01757112527558,1.01793186961429,1.01719210829549,1.01542228646338,1.01451826008847,1.01522639025486,1.01520770200346,1.01579860176144,1.01816693625953,1.01816778844552,1.01751102456795,1.01746863230725,1.05240435618486,1.05058365436374,1.07021859828565,1.04096079469638,1.04942353900585,1.04911923358267,1.05002608485284,1.05130423865604,1.05161734123451,1.05096685349059,1.05153023976506,1.05148438608777,1.05115763698934,1.05038347598198,1.04890768768405,1.04781168963529,1.04631262535012
0.932039389151861,0.934042735383318,1.12731304430743,0.944595709985305,0.944655549076298,0.944712732605931,0.944681428746863,0.937912727317508,0.933409942870563,0.930055168930449,0.928792813263015,0.927469215623115,0.926173651947608,0.924373286571323,0.926275524921768,0.912723606392638,0.912284413861028,0.951348742945203,0.905180899390496,0.905002545222623,0.899975919720557,0.899555409907576,0.898666301539703,0.898683610132435,0.899394013905827,0.899761316720245,0.900746787208671,0.901988060286457,0.902269625076894,0.901307551216605,1.17414020563628,1.06443060402709,1.1747616905424,0.888912758999742,0.888388777648149,0.888967840357747,0.916085195232515,0.926628218719856,0.89323330866644,0.892682808800181,0.890441400094144,0.889702986907769,0.889732033757255,1.24675899056893,0.907005954572428,1.17572023163257,0.894473088900709,0.894976878471625,0.894861298278883,0.895727059392653,0.893508270855957,0.893251689555502,0.891957749433508,0.892796879484984,0.892909430237159,0.892557055380907,0.89191682698976,0.891719329585611,0.890907232500216,0.890659918979332,0.890141189856107,0.887836539507561,0.8865891915828,0.886186063558041,0.88375368722393,0.882705203472859,0.881367994398939,0.879698022132076,0.878040309857337,0.876743599879465,0.875433551784482,0.875206693417801,0.874023897041711,1.01635223272543,0.867284600229688,0.86585563368407,0.866163276887185,0.866581383193165,0.869835040199247,0.867814967983697,0.867636678138388,0.900250084138981,0.913578017439263,0.991320318511059,0.986686637667744,0.968071578113084,0.945529300835436,0.932556233611062,0.932519387475197,0.932879575633213,1.00875461789747,1.02742774861116,1.09685144648172,0.889044829910441,0.889345594827498,0.89637897944523,0.895636538446319,0.896209779763083,0.906898465618941,0.905827022008822,0.905989092975815,0.908085301356707,0.911480433554477,0.910933981396964,0.915112314744178,0.905720943790813,0.903239611726962,0.899856138237053,0.899138786215237,0.896996910515843,0.90966498311387,0.916328656954574,0.909407662936687,0.909344701105562,0.917373023931032,0.935703043043543,0.949893570596131,0.961982090133296,0.962978698258174,0.956047347324426,0.954785405489199,0.952483961674729,0.95196976629713,0.948185824962814,0.949861665926747,0.959940037593007,1.0063484923453,1.0056964975186,1.05226891794625,1.0729289023192,1.06428540770516,1.06342552281937,1.05797293717987,1.02137873509376,1.02899877861769,1.02788280402245,1.02750215185886,1.02659637403055,1.0638618132975,1.03176767177873,1.21959706597312,1.07473458195448,1.0172690209721,1.0149450117963,1.01213493357914,1.01015881502475,1.01194120440345,1.01058652692404,1.01545852940653,1.01549325966747,1.01966198361645,1.01916024040787,1.0197409017049,1.0180345360611,1.17251287003672,1.15812435191135,1.10494558887197,1.15944889560599,1.04753641879805,1.17490843003412,1.05101412096342,1.05183683987767,1.05258552477373,1.05191831954509,1.05085308855626,1.05137567490941,1.05152545810555,1.05139004956798,1.05019303567119,1.04789560092094,1.04775708203332
0.930043609783058,0.934582363190704,0.99174664674789,0.944665370139656,0.944714201819753,0.944921996760218,0.945259737012185,0.939171972448908,0.934587910324543,0.932062569205043,0.93087734414904,0.929248159354554,0.926984434512678,0.925341016740538,0.927214954543661,1.13015288505899,0.91177373114448,0.908726081971357,0.907006374264751,0.90663780064118,0.899252033468394,0.899902676053659,0.898880971790234,0.89822704071065,0.898165061136249,0.899191111088436,0.900464568409131,0.90139349651594,0.902724955303171,0.902593894194527,1.03478667021152,1.05145238463197,1.08523341374386,0.989050146030358,1.1659277947508,1.00437995380518,0.928875453182134,0.927418084118276,0.912546567355312,0.894928159803177,0.897474114824954,0.89908640546916,1.17774827078568,0.908711532470028,0.908837830510855,1.16015645334345,0.894297539486147,0.894408171777134,0.896010782975245,0.895222028192984,0.894309370886568,0.892991069509883,0.891945194212683,0.891824324110847,0.891855379748705,0.891325564988451,0.89096746761752,0.890927131543659,0.889743896544225,0.890759463625544,0.886167645776912,0.885659367926466,0.884186256433549,0.883999836137144,1.07318493011295,0.881097087996513,0.880024405264794,0.878793703132463,0.878379148539196,0.875886412273643,0.875065225735793,0.874066567725325,0.873393483434827,0.872002521668148,0.866745266241131,0.865979879504623,0.86630966509756,0.865971266244187,0.87019948377511,0.869066198538348,0.948247653366916,0.904634019795415,0.873686009408939,0.990145194318326,0.978602325279701,0.995015701135968,0.952551652831857,0.932587945654424,0.931028165945253,0.93038099978862,1.05218847700064,1.05426944936782,1.05583737743474,0.888311748474488,0.895955628179083,0.896389301478931,0.896791952593253,0.896588210907071,0.909378001246856,0.911213536687606,0.91172213612734,0.908558838569647,0.911636538036186,0.949818365315004,0.97976157079533,0.900134874920898,0.90139218045129,0.901308072086339,0.901233059917812,0.895655398669707,0.89541067453216,0.921327743461607,0.927000418402306,0.90247652555281,0.946553029594812,0.933043582326425,0.95316068073734,0.959905106976903,0.965861835501612,0.949583012122098,0.950325165135125,0.949175973385546,0.946465061208852,0.947012644722523,0.995411359090195,1.01102731061801,1.00934200877201,1.01460329401853,1.06568065081133,1.00859157238783,1.01020674810671,1.04206024710578,1.03107871147422,1.03146325597469,1.03767748120544,1.03564879029908,1.03669408878853,1.03559896312403,1.06154372304805,1.07080993597931,1.20989078298656,1.11957068126598,1.1970873148357,1.12163732167566,1.0119334511262,1.01050270220667,1.01127651015446,1.00867448645906,1.00610066230688,1.03230938941772,1.0202156407527,1.01978207892867,1.01977579765276,1.01909889833871,1.02450066937319,1.02450426926971,1.07097714381274,1.08242663821187,1.04140054432966,1.04325444531501,1.05082929952531,1.08269420557868,1.27146301558703,1.05233488664624,1.05138591619526,1.05202632587482,1.0513196713886,1.05142351109036,1.05022204370865,1.04838072170755,1.04653574499206
0.926199499483613,0.935180846273954,0.990114250089811,1.10106393875885,0.945254894109715,0.945401656820629,0.944286662443542,0.940859685543527,0.934006838536278,0.932766784281233,0.932055703340306,0.931062982907105,0.931532213169366,0.92534937622638,0.922644949649643,0.914902122773049,0.912535085674891,0.908645490790526,0.907029358025498,0.906030179585171,0.905298999636557,0.902059446381105,0.900192641625288,0.899001499476089,0.89927094433317,0.899105611896464,0.900643113449737,0.901792400023042,0.902799744435411,0.903404318332151,0.903566829035463,0.907402716911745,0.917554802760177,1.03332223723494,1.16847164660556,0.890864923648473,0.928668076617694,0.927177595749315,0.957474669787138,0.89675639443107,0.897324497793992,0.898637702954986,0.898242072558399,1.13975150387546,1.16575018293551,0.891645790796029,0.893103799630114,0.893878646744253,0.895432917524132,0.896535936174405,0.893714610126375,0.893509966612969,0.892401932712498,0.892132659453943,0.890730166318722,0.889519239227384,0.889407350104256,0.889098123094773,0.888647717040981,0.885543392190823,0.884908148862714,0.883534049320751,0.882317058439925,0.881160338327252,1.08401484435482,1.04626976282434,0.878364265856663,0.877799485621947,0.87530581756469,0.875028423394832,0.873626173613717,0.87338027261369,0.87216755953941,0.871587508357639,0.865658842726116,0.865908353247853,0.866138834109174,0.865579394272913,0.866314568381889,0.87186548014604,0.99214870937556,0.913675262290333,0.87554465588645,0.956685718087311,1.00886482067294,0.994793836756026,0.960938410331005,0.97356128239061,0.929839137226505,0.929212519980524,1.05982955329814,1.05597604525133,1.06501153917899,0.949827321057529,0.908833585001225,0.89499705530379,0.899346840183992,0.902102651200414,0.910818013462033,0.919662117374043,0.919372319069906,0.904096338617846,0.903918797065266,0.922771226793594,0.947600143575182,0.898279045425078,0.90166896478947,0.935760985497979,0.917231039880298,0.941893386858793,0.932601897677682,0.937038142113119,0.951001976224474,0.933043462348425,0.923290820433932,0.93831765954529,0.955171776642834,0.957797035264688,0.967530461008344,0.958281771502339,0.945592282180396,0.946921352385414,0.946009009757956,0.946048477250078,0.974982158305227,0.975232982396073,1.02670116950679,1.046918678046,0.997564199208955,1.0165488593309,1.03672067895655,1.05041818059981,1.05856002315729,1.02911440853281,1.06756029598625,1.04745858728951,1.04745580394728,1.04678867817578,1.06165397531681,1.06182988706083,1.04910078849708,1.08865274832971,1.17709700921451,1.11295808040934,1.1232617654335,1.01484558664225,1.01383296813491,1.00712452477751,1.00543829718582,1.13133543272757,1.03794871955085,1.02701563184645,1.01923316801677,1.01799130896152,1.01836655109602,1.02222809506995,1.05917383566624,1.14655318606299,1.06276228058112,1.04178025945939,1.14241830611768,1.09715088339749,1.13322570998002,1.04715514784101,1.0488887547555,1.05007096037417,1.05050167801266,1.05064757075755,1.05114681878883,1.0470014946596,1.04677979391458
0.926521158576428,0.935244902119237,0.990282178926654,0.973928178170689,0.945797627201577,0.945876954420514,0.945857623782522,0.946234950339554,0.940582660810191,0.932585693413979,0.93222728916009,0.930908745939984,0.92903757311083,0.926561710394596,0.932904128363054,1.12410211601138,0.984788595372492,1.03536769135083,0.905724601420582,0.904936409575377,0.904089428777537,0.902722521912806,0.900186837757773,0.900003528291674,0.899950076199224,0.900583041293287,0.900852615216127,0.901801564058252,0.902543082585004,0.903063584321735,0.903079065192881,0.903033563501545,0.903465425644162,1.14899636157137,1.16859960267207,0.925125643733971,0.927934811316616,1.16518962114192,1.16547209886878,0.898958302557139,0.898870406433059,0.899057589733282,0.89869092765602,0.898089162240915,1.24139868325369,0.892017186390649,0.892858638589579,0.892047353172703,0.896936729559615,0.896118057745639,0.895082420526802,0.893985814944656,0.893572436803922,0.892017217470995,0.890299558771736,0.888474423622255,0.888164845967873,0.887579964629805,0.886364231081641,0.88514960273736,0.88038891727363,0.881896803811702,0.881112631063557,0.877656976864021,0.876034153631721,0.874894415356521,0.87532889384696,0.874667506728498,0.875491076221592,0.874697335205049,0.873375561142752,0.872504803422076,0.871652348357436,0.870053136561802,0.868765093397307,0.866048644080367,0.866643198767609,0.865538342172083,0.871702243742712,0.872410035308634,0.87832560789663,0.926224494054057,0.981271874137283,0.948263109419307,0.889034454038086,0.993335609731715,0.957777237246047,0.944915016717899,0.919710475155178,0.960455831077431,0.949990733463472,0.94793093514365,0.89564777574288,0.881620029818452,0.917759100012521,0.900301893205796,0.900685488520647,0.902694398247334,0.897491788614224,0.927112829685827,0.899587260550794,0.902027076088982,0.944449098928092,0.897789168361477,0.898136865976653,0.899203162956974,0.902849595664477,0.905068004111781,0.920732417100323,0.956985106088355,0.918260771880017,0.940812963463943,0.948891737612825,0.963227087969753,0.956705803947647,0.939618605841851,0.956306943300047,0.983507194349475,0.959880842914233,0.948296478886461,0.94610905294171,0.947283470534564,0.946853149911853,0.948263172854152,0.956817916774123,0.973842060135941,1.03181913258654,1.0415196400491,0.994384074586558,1.00836111844802,1.04097023121325,1.05516333870331,1.10019240318776,1.03464001881945,1.04905587048146,1.04749086665064,1.04819797790352,1.04869978038029,1.05360740565668,1.04705282993563,1.04951308869101,1.05106161006579,1.05154990006375,1.086303761866,1.15943122840725,1.12842661481059,1.09480279474509,1.12651688241161,1.00601715471339,1.00818843729295,1.13573761747922,1.0559048653883,1.01760893517563,1.01908509321285,1.01962098501738,1.02040284427437,1.0455531727395,1.02190406855099,1.02278695488736,1.13100322667422,1.03488953263591,1.03952569263761,1.03974259706002,1.04578982174532,1.04699152417162,1.04858995876966,1.04891566705018,1.04990916032171,1.04944089657075,1.04834820300944,1.04663868007306
0.926661586314858,0.930507664455042,0.931530750168361,0.975024372125795,0.94594862185376,0.945896174276473,0.945964737695522,0.946133939875215,0.947012669653836,1.38028329630092,0.931367126925582,0.930974870182259,0.930670090957441,0.936637912706416,1.18020831520572,1.12513792332651,0.959910546060708,0.934333245573472,0.90570790473855,0.90518955417404,0.904575944909455,0.903565819075972,0.901795104949703,0.900547466616702,0.90050257435888,0.900513432768357,0.900786131460615,0.900917817034155,0.902137864327666,0.902498138429764,0.903271096839568,0.903045589495224,0.903590591108181,0.915350715451,1.11526321913798,0.922760740180359,0.922909971341791,0.918885089660508,1.15724074264699,0.900498891482295,0.90039511476193,0.899762308699938,0.898862028801761,0.898332818704594,0.898453207834373,0.89393019479533,0.892684165767005,0.891719043251449,0.891052234867928,0.893413603956295,0.894451518382996,0.894679817488037,0.895013114072032,0.893047000541861,0.888508692193745,0.887872086599601,0.886982109272657,0.885977252032796,0.883814080022032,0.882991470958998,0.880426914918711,0.881674859622477,1.1772994205757,0.873138015542516,0.874472837470023,0.874402298808375,0.875240411629277,0.875691144803253,0.875804719268731,0.875910827338787,0.872496749257381,0.87235516477662,0.87193433973213,0.869968357523169,0.868932907322362,0.869269197748081,0.869105199747805,0.870536959167714,0.876256261512289,0.880628059936149,0.957354980449577,0.938688294604398,0.952027665171613,0.950663468312176,0.889446891287546,0.961350410083323,0.954341962235651,0.951344914635797,0.920307170112996,0.920533559878322,1.12342876364421,0.946141644468676,0.910429339444871,0.87975077718124,0.924741386405385,0.998052815570183,0.901376149985263,0.902770589944546,0.95963279199956,0.898088259134869,0.898555074337614,0.901324157976262,0.956715012323073,0.95659439660777,0.932250000616349,0.931719722928136,0.920669882137755,0.911823693769247,0.912054997469448,0.923993498768767,0.93800736996827,0.944492870133381,0.947736104629154,0.949677845435295,0.95084240981121,0.95573099213819,0.957450733883697,0.965643099290544,0.959446653342331,0.947987292274154,0.946819832710374,0.948610155708162,0.951316425444436,0.953119957588283,1.02503551227461,0.972089989438653,1.03518312275612,1.08635034115852,1.08822566215898,1.0552906234454,1.08557257027505,1.06543689225406,1.13352771673827,1.05295027014107,1.05204279966813,1.05221044971986,1.05005317846508,1.04487006182536,1.09174264165239,1.03368216358126,1.03579208102553,1.05166829441326,1.05050563170692,1.04987487294519,1.04982234768738,1.05183609262345,1.07807046575751,1.12328052468216,1.13654793936457,1.12973435447099,1.02041808207666,1.07131936793764,1.15661757086691,1.02016213293083,1.03035518219241,1.14213373297133,1.04970803801437,1.02402995036932,1.23358206312144,1.1267736750093,1.03698381020929,1.03861125048079,1.03805673886647,1.04321476762845,1.04421363719435,1.04592271385262,1.04712915878358,1.0475544329457,1.04822285897046,1.04718223781303,1.04891339739493
0.92721810243381,0.928806735564122,0.929688027595536,0.973230186316985,1.08838392032713,0.945639407721239,0.945712826424068,0.945308986720352,0.945043270526306,0.944945246921126,0.986093563467565,0.985697379444999,0.987946329870701,1.17976809673055,0.917548794871169,0.916858206845239,0.916450681183554,0.913027889365226,0.907803704599164,0.906219440797358,0.906063213258086,0.908605646631716,0.909827801380582,1.09065406658141,0.90064376380288,0.900310029272475,0.900381985655697,0.900783727458207,0.90091475739945,0.902549318950175,0.902638368644876,0.903002959426976,0.902995982207775,0.903184458604768,0.984932808527342,1.14476632729953,0.908171497991429,0.908395299639022,0.906418073542347,0.902276612709123,0.902065967433399,0.900779332114257,0.899690553940935,0.898937151860738,0.897668595220282,0.895060632412227,0.892895079295885,0.890109911308846,0.890609099700158,0.892699487730093,0.894864110035388,0.894524551275144,0.894518448605506,1.10704573098021,0.886115609341439,0.885744954978175,0.88585552276677,0.884431194857896,0.881766531596575,0.880406930432945,0.877095124464894,0.875083398760425,0.873346971956103,0.872561354241585,0.872891180698313,0.874135682597399,0.874789814757255,0.875368697336796,0.87629285949564,0.876229840422218,0.871223987899714,0.871366038674382,0.870823599321487,0.8689420076585,0.869776877961483,0.869916242808988,0.870233064962144,0.872091003539792,0.878110553275558,0.883095417776542,0.883542072959933,0.902033984815253,0.920047658068704,0.920266660218226,0.891999649912401,0.974597920561594,0.941776103060372,0.917755653457923,0.915844802813956,0.915567815441471,0.938216196387894,0.942905672423032,0.895197354546981,0.87729885432167,0.900736832128083,0.886645935788577,0.90089273398388,0.90095290866969,0.900194524806066,0.898647421991968,0.898939963231342,0.900774640372813,0.901104114463157,0.907109791433899,0.961852150629884,0.927648990412992,0.929187948008139,0.929950924643154,0.985355148538485,0.952813972585936,1.00241103172691,1.00252572731956,1.00374972282643,0.954073280390935,0.951187336963166,0.959195328740081,0.959929287001791,0.960756898209531,0.952264933069455,0.95345007224643,0.955769488305052,0.960370061388838,0.965651681110453,1.08216000982255,1.04879113094796,1.08157277550825,1.04424256850932,1.08694121835672,1.04927644544044,0.991707543977858,0.994221001006846,1.04264582706318,1.08208267677877,1.04046629532747,1.02493690608033,1.09091228908,1.05726345782986,1.0656791339818,1.06703429047821,1.06753148717841,1.0335125116162,1.05251445082732,1.05191121188133,1.05135314742246,1.05059540524459,1.05151904012915,1.05923276310391,1.05885322990088,1.0564556849214,1.05595920434939,1.12672599280419,1.09092803100344,1.11210448831621,1.1566262028807,1.09704968295977,1.05456309567133,1.05949631029479,1.23215264783738,1.23238827159865,1.23312630752363,1.05456783859155,1.05590435313417,1.06736819330515,1.04068953760948,1.04135255318827,1.0431604402006,1.04513852105124,1.04553039636346,1.04563710536475,1.04649932840129,1.04404592619447
0.926391540952026,0.928140848847619,0.929543018393532,1.06633846977225,1.00407790001928,0.966098702249117,0.981276886343872,1.02880727957119,0.945407909901911,1.02246298681861,0.985913918687778,0.985217287196972,0.996827525391386,0.923617893673484,0.917635484440067,0.915744281017652,0.917890700800782,0.912109148092534,0.907934806933217,0.906950630493923,0.907205269122868,0.91048242727706,0.911801734657981,0.912903220193847,1.06483654777319,0.89989417932901,0.900168311048798,0.899883580830503,0.901135031825234,0.901655240450473,0.902939976754247,0.902866400676192,0.902876855524281,0.903304689856883,1.10340037618535,1.10114462510904,0.905931790914435,0.903951302559332,0.904770132594079,0.903726947695733,0.902824656871141,0.901414885587717,0.900149912721637,0.899693785594058,0.894547113424096,0.893973022325902,0.892731652231463,0.891402579128525,0.889949558136187,0.890933335603648,0.895494739171219,0.894456725817889,0.894433572528083,0.887219688398152,0.886708412597243,0.886432460570087,0.885907353347212,0.883549571807178,0.880684007746625,0.878201194011535,0.876489562096098,0.875235414459946,0.873504199820523,0.871921995959398,0.872999833840253,0.873380796099185,0.874440371908034,0.874639820859067,0.875684303041364,0.876782022440698,0.871429407629652,0.87169287115517,0.871272724008831,0.988281691768476,0.869950047131094,0.870154428373911,0.905781291231702,0.960846718194723,0.939666554101324,0.882869477186374,0.882722564328934,0.882987281613006,0.882549365590152,0.888065998004122,0.890320697476909,0.890657790655376,0.933883167120515,0.962048719112852,0.915396672402009,0.913557558253499,1.05802610901034,0.954512863544475,0.977617385033708,0.887045034984392,0.886494902269201,0.885977163583582,0.91206222276069,0.926635136577862,0.900264928656908,0.900421613560641,0.979842564741479,0.948269486261016,0.913418710776288,0.962074304193233,0.964256776753636,0.928568820221668,0.929165311366384,0.928932914620583,0.95997622560474,0.953537308470519,0.975587705570932,1.00186563199026,1.02812395369038,0.967512475394595,0.95081910421773,0.950565220684025,0.960301187573516,0.958766699661478,0.960550726922164,0.961369180511154,0.969137774746706,0.969585688096469,0.968886583065694,0.980520360953723,0.980620160244256,0.983260073546605,0.983771295073366,0.984277140373503,1.05214755103287,1.04443745947668,0.995353400045926,1.01665216050127,1.00162099633585,1.00672708738472,1.08447329590366,1.02093597352835,1.04817180568453,1.10186586842613,1.07365106588762,1.06961237639665,1.06942173577175,1.05238333588147,1.05252244069225,1.05349427099619,1.0534639361015,1.05484682546208,1.0572960115509,1.05767034781128,1.04618861329179,1.05057389340639,1.05900551493164,1.07540195623025,1.0856779654173,1.0853317388018,1.06365651393692,1.06759504726565,1.06072379870571,1.11530881931837,1.11422184035489,1.10605762621811,1.09778217291103,1.05838229304062,1.05880965618992,1.10396361273746,1.04309574303529,1.04396748769368,1.04508743030434,1.0443928078932,1.04607908938134,1.04413538053664,1.03728666223279
0.925961524273419,0.927393404003969,0.929698579760382,0.962536673499009,0.969009154637893,1.0228770362235,0.996075216190844,1.01254739971814,0.974669404092002,0.938786879130835,0.938906752359024,0.952910979919117,0.951492896581802,1.02592184832825,1.02535790832085,0.92084743390792,0.919911926637611,0.910523100552767,0.908138571961303,0.907525500343168,1.11533219639509,0.913476494742756,0.913640543420754,0.912976619830334,1.00426774125269,0.899777622359205,0.900057852352287,0.900289099981552,0.90053100197093,0.901911048372837,0.902211504101916,0.902976557117424,0.902955204186207,0.903652035747264,0.904856715863393,0.905018047449233,0.905427588806605,0.904947025687954,0.90560821306776,0.904758476757313,0.903554935495392,0.901922869340293,0.900172547266728,0.899887329990456,0.892040766769323,0.892525939028353,0.892988805598253,0.892788311355762,0.891120914680834,0.890903122524055,0.892815795272515,0.893092074040775,0.892804358798986,0.890867660305326,0.888333827829449,0.887968175837284,0.886973033504215,0.884347109250739,1.08510386110041,0.876736588606164,0.876320320678338,0.876127356314687,0.875005214351778,0.87316964134746,0.872633577418705,0.873752254196136,0.87421554165367,0.874710569793993,0.875288636410401,0.876024256637654,0.974971633317181,0.927631972150704,0.890697996323776,0.882292015421518,0.856440249670093,0.962565207276052,0.926238929161393,0.923472890576596,0.951768233993144,0.88473149058799,0.88413004084943,0.883847764271177,0.88336673808007,0.885293328336244,0.889513327881536,0.912508858787979,0.912647658787033,0.913173493415044,0.91364814363262,0.912311324544855,0.910602538163796,0.910084489091146,0.909442684836741,0.926656604878304,0.892454223519893,0.898222464914595,0.936637510493737,0.983776303766101,0.90063445867774,0.957207897991339,0.979000411111622,0.994694988210885,1.00324311429619,0.933685418485588,0.941874052223491,0.942709454685664,0.941701397211727,0.939932949671657,0.960387954684036,0.960738632416084,0.990603687640085,1.00163633423171,1.02659095987553,1.0119543674886,1.00771161332542,0.992937132139999,0.97500602801609,0.958799817811544,0.971156078926974,0.971264250135809,0.992331005399669,0.993636787986737,0.993381393478117,1.0087116557196,1.04106390189943,0.982946653708469,0.983128797065881,0.983188248773767,0.983439445709575,0.98257707651443,1.04213982830221,1.03016703398186,1.05551337955191,1.00633268648099,1.02986914970358,1.02438236903062,1.03258642024764,1.04236093204175,1.01924117534139,1.01925205062675,1.05053723829783,1.05073125543587,1.05014032196364,1.09445962511356,1.05279217217323,1.05452897814484,1.05613034604977,1.06144503455547,1.03997217074773,1.06052315080699,1.0605156906164,1.05972033285376,1.05734282953295,1.05518615584648,1.06339546414258,1.04870075266659,1.05202206181022,1.04726545497129,1.04708123189738,1.09328634708339,1.05687948411361,1.05908321596332,1.06037077288901,1.06130405504429,1.04590717503884,1.04536507631793,1.04587402687251,1.04515270416011,1.04556223319805,1.04520039873875,1.043392663338
0.924587529770976,0.925827005126845,1.05812081388339,0.987430154615661,0.931373470124789,0.975057573365716,0.974655984114908,0.973572639249478,1.00760390296367,0.939424898868197,0.951330060990745,0.952177464630897,0.951194269592162,0.950782764712804,0.951024398908088,0.943183726544719,0.932091323168342,0.960286592016763,1.16400132899186,1.00275707105983,0.930742367478618,0.898321184222266,0.89123893208247,0.913352395363393,0.912073146235273,0.900753735620712,0.900591025272153,0.899902198939862,0.901252826810223,0.900605741188845,0.902592763825744,0.903103077942879,0.904427545040727,0.904550552102282,0.90487864741869,0.905037730734784,0.905419197965159,0.90549269892278,0.90542642334981,0.905018433192393,0.904326126131275,0.902431527207419,0.900696959768437,0.89958337861996,1.02331790335075,0.893554015566493,0.893457797971551,0.893396377780301,0.891343572880105,0.891253299289616,0.891854238600225,0.892323981539303,0.892293167714357,0.891449405484044,0.889638729899421,0.88901651044896,0.890167400511241,1.08841681077093,0.873703706836602,0.876111207110638,0.876644273685856,0.876980921134225,0.876495915457674,0.874401101265378,0.875614029942156,0.873797760812812,0.874452712898794,0.874158536928205,0.874180436999047,0.876052581694205,1.1123593734438,0.996187887670312,0.976560211631164,0.890831947705441,0.984072587414612,0.942319482021596,0.926392942823203,0.891218413456002,0.891179762414718,0.891048388869095,0.884407318166893,0.883989945091759,0.88331759580359,0.88393647706577,0.969078251456804,0.960070361814738,0.911916908675492,0.912507268087832,0.913279102322224,0.911904351934497,0.909829916742723,0.91048452193129,0.904506342173646,0.934862696120205,0.945831437596956,0.93447895361553,0.9472296267159,0.987206166791252,0.986828921513012,0.978578748435148,1.02103579374844,1.01353512914864,1.00085463044285,0.968895403923056,1.03218999490007,0.971900399358237,0.979435572139622,0.987186015889357,1.01116000201251,0.989804593948101,0.999137506815189,1.00081663401751,1.0005272433151,1.02912234279273,0.966833515710441,0.967018196363544,0.985241281479289,1.0015894295545,0.973319388029045,0.972516574786415,0.989308581589489,0.994978881516668,1.02338469256437,1.00858044031329,1.01075579881826,0.99493510099528,0.988166967702918,0.980389450035747,0.9808489973997,0.981993946785769,0.992177438441439,1.02326033129443,1.02095504662581,1.00494092533171,1.04106837950091,1.02176052637183,1.02433822454592,1.0199481776098,1.01823374418605,1.03773144713738,1.06080581370937,1.05008755960857,1.05137690445092,1.05909776012874,1.05100738152975,1.05285094647793,1.05067095126103,1.04229349977386,1.04677130175735,1.04166591104834,1.05563922294184,1.05521120836117,1.05506192638952,1.05462449284506,1.06023004616081,1.05808700409446,1.05735318495161,1.05806809652194,1.05770416307902,1.05950014674817,1.05869726542532,1.05936029907934,1.05820990590518,1.05539941280721,1.05445007048168,1.04959843833432,1.04797264026994,1.04641195219658,1.04643672516383,1.04534705899973,1.0451031595397
0.923964308708749,0.924431248472489,1.01373719794542,0.958804986785385,0.924995558509948,0.924509004786755,0.965151004404003,1.05436577853903,1.01141871347953,1.06559543619939,1.06773103559676,1.051322219226,1.0496750277149,0.951923489710471,0.951886241904162,0.995549138885869,0.921175026381732,0.91418326341257,1.1466188999384,0.951260527646213,0.892318560947133,0.892893837396035,0.892402716967427,0.892384647906618,0.912058706930437,0.901446209844216,0.901159687254382,0.901066048878869,0.900382787243123,0.90134460291412,0.90180570156812,0.902994499294056,0.903806464373357,0.904447391060849,0.90495620368655,0.905315004889531,0.905382087030823,0.905324054483269,0.905411375639279,0.904600398676215,0.904276289225014,0.9026914459261,0.900816385633481,0.898402855080241,0.896432593370464,0.894331695690651,0.894078340674845,0.893132692426176,0.893113551898962,0.89123470782331,0.89144967009757,0.891896520196162,0.892617026051049,0.892105749516014,0.890107190719051,0.889589085410964,0.891234205651224,1.07605949137464,0.874409146920621,0.87489976796601,0.878756532984133,0.878844278829495,0.878404153879384,0.876880367845909,0.875587033779258,0.874655150927473,0.875575225407654,1.12152256434923,0.873385340337714,1.11052762494005,1.11874208623169,1.02050428627699,1.12792589747874,0.97703695673593,0.969520909041511,0.932069761010913,0.92838273712299,0.890902790319226,0.89092606139649,0.903173081982146,0.902985392777929,0.902093626449046,0.910103342222434,0.895602849126927,0.896783241488415,0.941225778604674,0.91054143980869,0.911141489520419,0.919174918618304,0.924245559544053,0.92585121140157,0.942682930298751,0.9620268453223,0.961806783082462,0.933379303570092,0.937738950744989,0.950909908095643,1.04498338558742,0.988783197347378,0.960513170910292,1.02511309041818,1.02090793523327,1.01461393533369,1.01633996246022,1.02692681008724,1.00200058603874,0.990779819896917,0.968703903453847,0.968976849327584,0.98857188945941,1.05174996195908,1.01712659294027,0.995156210514799,0.990815923955789,0.981468988881141,0.993857573601544,0.995662516161305,0.997798822835877,1.00403365759174,0.998865909697618,0.996394058834377,0.99588398005547,0.995849104277793,1.05475372453758,1.01741380887232,1.01753423015165,1.00566324649079,1.00385843837021,0.984106564319565,1.03502218129208,1.0951770983581,1.02477080341841,1.01268516314375,1.02275458592278,1.02757390954242,1.02960814931031,1.02942184608439,1.07218704585418,1.01640131860149,1.02327285451522,1.0390758539125,1.03814550708302,1.03820226221368,1.02288668496421,1.02559682162095,1.02726595646547,1.04804638808556,1.06653976536999,1.04822937659677,1.05799309732568,1.03313776917922,1.03804370310841,1.04588868758448,1.10984207473752,1.06033867660882,1.05935084407704,1.0586417460805,1.05854084694244,1.05728892373688,1.05796503767376,1.05887159344718,1.06009176729607,1.05909232265844,1.1351075008383,1.05289355839003,1.05290734935265,1.04859782851148,1.04801554234168,1.04668601718094,1.04544506519057,1.04455425608948
0.922830881918828,0.922917012520162,1.05566950296828,1.01206821775882,0.924929082414082,0.923420735013018,0.950711749408265,1.01604109384893,0.968309026948067,1.00686551587964,1.05843272193709,1.05343011575123,1.08298966337092,1.06754619045351,0.919203371336394,0.912892747832585,0.912414378120753,0.912991120326913,0.92695796670767,1.16249599538142,0.893096836639763,0.893440659137584,0.893261012048726,0.893405781634093,0.911313940461732,0.902421608966752,0.902316864145204,0.901319020269981,0.901675380069723,0.900719233564706,0.902432423387754,0.902666970212892,0.902906629501173,0.903904346974089,0.903851400740021,0.904749976942213,0.904855764578691,0.905110117898826,0.904457992305944,0.904965603187065,0.904197752699571,0.903391495980299,0.9030655075955,1.23066080515358,0.897454523120833,0.895193783925458,0.89511943699778,0.89427824772207,0.895056621066103,0.892196398225685,0.891383170553259,0.891950330858478,0.893246596954822,0.893279575206951,0.889820724561742,0.890259460545181,0.891836627546751,1.03653190113333,1.03346163458503,1.07519698712917,1.08156064072699,0.880699249727474,0.880264165329322,0.878631486564409,0.878214209197286,0.879181073803188,0.879342894869655,1.11562834154008,1.10825887857177,0.984837859444463,0.883890118723967,0.909339993161323,0.8838644547504,0.969178658090206,0.949206448577998,0.939741569040539,0.940092180680713,0.939962847316056,0.891404144309238,0.894243227939333,0.89510295302778,0.901719306233431,0.900782059841281,0.895772813109711,0.896711780439403,0.903183557759212,0.909721323214293,0.910735912061084,0.921112909060805,0.92279408360896,1.03122753060542,1.03303850398216,1.03436987199034,0.954721988088001,1.02525967348102,0.964477213846692,0.964789631870507,0.963680374733872,1.04643475423259,1.02967197468641,1.02259186367083,1.02083816001056,0.985563459130883,0.986586816792741,1.01929719992535,1.02773244789279,1.00802970628081,0.993612045500174,1.00114191991969,1.01187002702223,1.01028691977191,1.02609450509616,1.04149708380918,0.995748782097071,1.00377033971638,1.02620531098325,1.0104963286692,0.998173626274074,0.999490666353598,1.00267485498945,1.03561911615852,1.03021726100706,1.02279477232755,1.00418727102668,1.00775931663363,0.999596475638307,1.00859195865975,1.01097334773774,1.00188147178383,1.00280930619329,1.02648278372804,1.0277769977783,1.05194422861296,1.0164998243903,1.04230040653182,1.03146879223904,1.03021324997795,1.08070374835312,1.08212565877512,1.09678905296132,1.05670946694993,1.03784603131388,1.03614709868404,1.01950120324596,1.01995566522846,1.06654490509269,1.04553750226288,1.0181198047465,1.02452840513615,1.04735590011075,1.03359501982154,1.03808252952977,1.02165302141679,1.03896659023365,1.05202068710586,1.04562867625244,1.05133320733918,1.06798301136344,1.05112764480632,1.09157927859034,1.08754195282295,1.06196273576259,1.06292112953878,1.04804125447607,1.07207301350658,1.1122158043478,1.04892455583666,1.04886887015081,1.04848250795331,1.04584362664983,1.04481017687401
0.92012928379033,0.921001747954366,1.05515158370108,1.01326520012746,1.06538017476401,0.920930361250918,0.920177480596055,0.919841179942357,1.06096953057958,0.97182372794059,1.00983876929457,1.0115005844127,1.01349852837882,0.921105268868909,0.914979193983335,0.910817393685937,0.911029637272974,0.910706165696751,0.924886497564508,0.993624812235457,0.893794948773057,0.894046145805773,0.893819474910345,0.89433635513592,0.909787111013431,0.905310532114993,0.903799041844107,0.903147748557936,0.902024351160882,0.902705431315416,0.90210725613305,0.902834114873406,0.903280964724793,0.903575999498496,0.903612589019619,0.903876439070569,0.904575365556811,0.904708357715645,0.904851858933252,0.904459021052445,0.904372514450674,0.903298353268796,0.903051934039968,0.900761028247799,0.899765440960839,0.900132335173732,0.897434673372107,0.895331786870743,0.895199102524568,0.893874344935043,0.906449556332741,0.898004058077795,0.893609499156237,0.893670724686151,0.891750349267841,0.891432890150377,0.891886656300508,0.891206861718962,0.941385629803863,1.06759207593448,0.882637421745198,0.882806202600789,0.881947457331806,0.880171455821549,0.879095494408873,0.879606575388683,0.881155151532474,0.977086485397146,0.977155538413878,1.08555418824352,0.993562989780013,0.913402280208123,0.929930000697562,0.93936371344872,0.93865441533529,1.17905166274156,0.976167962661449,0.945199391084245,0.924096068682495,0.896439681367501,0.897149517190836,0.905778395405465,0.941614828486887,0.895947966199828,1.00295734464733,0.997017246984411,0.998551609346435,1.03457819338248,1.03525151220352,0.968162742944536,0.965031049741265,1.03411345804377,1.0341089351037,1.03407797243863,0.967258028662001,0.957903300873759,0.966580885483594,0.965992381819834,0.97572163944301,1.01676652422547,1.0337014576482,1.0279171635827,0.996781712716672,1.00437122826252,1.00232916356249,1.01724607821891,1.01754983085933,1.01852830387433,1.04350950127757,1.04958141560885,1.08145836969465,1.06417688812167,1.08266286379443,1.04408572574001,1.02060773254874,1.03507951160877,1.01798021882844,1.00125954408159,1.0140328597809,1.01370211237944,1.04330959444248,1.03838838884002,1.03210182428007,1.0427862528872,1.00720564952677,1.02757607217545,1.04451556431968,1.06493893327692,1.02476886891866,1.0669263291968,1.02564350765994,1.03137563506901,1.03537263199472,1.01753772745104,1.02848435253802,1.02972561336175,1.03047443708622,1.0283140982541,1.09276373833236,1.03439646555552,1.03540082527923,1.03741386368794,1.03849951298315,1.02059306097308,1.02013789074786,1.01916481544148,1.04334451620344,1.04195556798103,1.04238358200084,1.04668886739825,1.04523795721681,1.04083139793267,1.04320287993643,1.0239337718957,1.09416672412571,1.04003070773738,1.04008616733629,1.04040124147424,1.09459869755321,1.09342636366679,1.04520170923658,1.04547472631109,1.04346011644063,1.05050789801209,1.07072584105759,1.04406034888069,1.04720442316506,1.11158924232102,1.1123067238548,1.11213199033867,1.11811538612064
0.918441381714741,0.918524559679578,0.917977183591324,0.912417213537111,0.913298122853562,0.919416000795865,0.919515107414133,0.91942346795234,0.920176101106944,1.00945346539938,0.938947046544334,0.946861466703969,0.961997637698499,0.918982358225167,0.917682580889193,0.909554276649748,0.910038719571343,0.909602268031866,0.994332490337223,0.935622137604389,0.894345737072634,0.894403325419786,0.894142234974696,1.10342040236121,0.906859441266122,0.905718492823467,0.904912356200199,0.904211804980345,0.903274141033521,0.90200067715179,0.902611276682737,0.902786308896627,0.90300672655163,0.903393990121116,0.90339156177487,0.904224460947028,0.904272563261751,0.904593618384103,0.904039262350795,0.904103782945488,0.903167360764089,0.902806905570104,0.90218728539383,0.900664516917869,0.899539009979245,0.89984337256677,0.898462412187036,0.89751104528129,0.895676340527018,0.894845023609432,1.11487471445031,0.955657610369574,1.11154286481475,0.89463952136,0.893217655607025,0.892059685747946,0.892096670185795,0.89092544609408,0.890494897320139,0.888338795116096,0.886189840883203,0.88530139694498,0.884564839112143,0.882355880409387,0.883554204432752,0.884427279987322,0.884697625969776,0.887661404134732,0.888976058031409,1.08742439745174,0.993557235290142,0.907274899082559,0.903331410978935,0.903310239230293,1.10302527890498,1.09403592352361,1.00390175309087,1.10241912112358,0.961263790714864,0.929872347870554,0.90886382782449,0.912753488295823,0.918618098462967,0.909349238871582,1.00428128158503,0.998204232462275,1.00030391449354,0.951399042128586,1.05551657223298,1.03565069391553,0.975382181785914,1.03593631825101,1.03468675584762,1.03493640984027,1.01319541713626,0.998250870695355,0.997367838692496,0.996297812122334,1.03790841969426,1.02362179078178,1.01512625784131,1.03895085692162,1.07014137530579,1.01572688146432,1.0160949041489,1.06242097006048,1.05263025672383,1.05593646977523,1.07638446593612,1.068238891065,1.04365006944334,1.04340049932872,1.02939959008935,1.04401303672053,1.03665624617224,1.05569605080377,1.05517021005603,1.05495005262437,1.07919736113508,1.08611187683995,1.07581218465349,1.06139476829105,1.04195715700064,1.07773132358551,1.06392182954707,1.06628728274615,1.06778412999304,1.06648464237894,1.06503807099575,1.06267432849235,1.06995612388519,1.06385060860595,1.0630055203475,1.06533830856617,1.02376734239666,1.03085046502026,1.03318480133692,1.03660883183185,1.05752957794524,1.02818934497989,1.04989969938477,1.04521088387983,1.04895207570802,1.02236994752292,1.0247266795192,1.04892430008017,1.0431936144788,1.04163635537499,1.01813245947684,1.04581344029347,1.02711534542728,1.02420825389411,1.024733648655,1.02402568979606,1.02441264407034,1.0202133507569,1.02247336044127,1.02441056773369,1.05657381264731,1.03450778836452,1.03565765651692,1.03555016164567,1.03742635355764,1.09401119354594,1.04248868168906,1.04339735439075,1.04410395967713,1.033322768054,1.10696204680732,1.10654959416529,1.30703439472734
0.918800210664339,0.918364815707791,0.918120676035841,0.912087365700293,0.913235742800146,0.91808891772518,0.918158675940505,0.918168622694462,0.918670275529711,0.922923110734151,0.923503871236243,0.924350077449289,0.925462681101827,0.924204517825201,1.16829686089929,0.909234459885043,0.909566110144462,0.908626877767296,0.925189217452692,0.925845391490296,0.895164889590501,0.913073851167741,0.930064520726735,0.919751953258412,0.905964773141105,0.906076496379177,0.905318128560048,0.905023527037999,0.903001000829032,0.902796520662055,0.902138613355973,0.903056721520005,0.903596494590173,0.90340542785086,0.903856004311088,0.903621732377726,0.904075145716329,0.903928893912267,0.903952582795871,0.903392813434332,0.903324480707385,0.902090539858982,0.901361606737698,0.899428777534304,0.899768560008823,0.899461175411744,0.89937533409974,0.899099581475305,0.898654075170972,0.897512783756005,0.899431449133705,0.909776531194691,0.909756576564937,0.89651205564648,0.894331656620701,0.892949206077017,0.892610016588031,0.891884392302633,0.890490153001309,0.888756977728893,0.887983635494987,0.887593842717731,0.887225634783692,0.887035442913694,0.891650334349278,0.977707594514211,0.889341984110206,0.889919472823929,0.890624295376165,0.993918291218901,0.903151092928178,0.903688324449877,0.903241218262094,0.903208436881604,0.917628923187066,0.917906998151482,0.952500842131841,0.953239666148895,0.936316761250945,0.928900818370164,1.04052958255623,0.942940065914851,0.925858976591155,0.926780587019501,1.00490790433148,0.975457007682209,1.00306047535105,1.05961921281867,1.060750018167,1.03319386525876,1.04092957208358,1.03956980893647,0.986618891522684,1.0034465289825,1.00295694759725,1.04326937660673,1.04427245831106,1.04249311801876,1.04341084279232,1.05038329427832,1.05972970182513,1.05732600842515,1.05639172302684,1.03626209637368,1.04646599497638,1.04417710733666,1.04988394228755,1.03262091518824,1.03250143775251,1.0365050761519,1.03861509483228,1.04390377904629,1.04603736752022,1.04450541159886,1.0501472625887,1.04728521514102,1.06762918214779,1.07555789078242,1.0724569095373,1.0649134179435,1.06378599335537,1.0637929936272,1.06357097172932,1.06283000835732,1.09452703579513,1.06795212512663,1.06866490568064,1.06855423267018,1.07028269268913,1.06951454659588,1.06602788866982,1.0649387269833,1.04635501911906,1.06636583231681,1.06828514034709,1.04985348034501,1.04008723738382,1.0346979369026,1.02829678249175,1.02695951987553,1.02434605639564,1.03900027824862,1.03645878925073,1.05799813881263,1.02619630097269,1.07064773735148,1.04453825048092,1.04342990229401,1.0494924722621,1.04556913661843,1.05153015511676,1.02192639290125,1.01875186702518,1.02684421985109,1.05089283341271,1.00721346063256,1.0225362662218,1.02345168288605,1.05766218237867,1.04379200561994,1.03413076671541,1.03348579534745,1.03131951336814,1.03064730053345,1.02902406792982,1.04342611371883,1.04357827874502,1.04310609666692,1.1087004239754,1.02911076283846,1.06604883039239
0.918723799320792,0.918417768297307,0.917843184291638,0.917807927169725,0.91632691855682,0.91668802247357,0.917271568388057,0.916229077647732,0.919362218086972,0.921160599466824,0.923052132210943,0.92393066008169,0.924320014212516,0.924336904218616,1.19848143468637,0.910609616974392,0.910143593539492,0.909019497999658,0.988868638535467,0.929282109404516,0.927679345228406,0.927899143031154,0.927812684373491,0.921921207591741,0.906105982683439,0.905942231670115,0.905938232790304,0.904932242906428,0.904122022234641,0.902799864472721,0.902828538223487,0.903007786103717,0.90411902691209,0.903732975178789,0.903897314055469,0.903903720421543,0.904065394738496,0.903953507862701,0.904468543962597,0.902500339970373,0.902121971816601,0.901240052684626,0.900210654076189,0.899353686536311,0.899084735903778,0.899677394182783,0.899772897359901,0.899723787490828,0.899379317446271,0.899701331725028,0.899385013448827,0.90826977628441,1.02404296907455,0.9005610635067,0.895247937226253,0.894514028337163,0.89354180828675,0.89206479818035,0.891146607194624,0.89030127763719,0.889807202490736,0.889581621985515,0.891066312919994,0.97409119636685,0.892054595695139,0.977790143414132,0.891131275143455,0.893455831228816,1.08091746971894,0.943500407258601,0.903348384206722,0.904060347051938,0.90360277758719,0.904013747771442,0.916186365803827,0.979117476747266,0.952388248043199,0.921921478758724,0.924349050270459,0.937282285778671,0.970955911532887,0.952885845038089,0.946285758996236,0.935491593406565,0.986687409340318,0.999794300639703,1.00300906011676,0.98383361088625,0.99295043577702,1.05876042638079,1.0111739632136,1.04257953414356,1.05036346947917,1.04186065883238,1.05018437167758,1.04814645347212,1.04601803050121,1.03160219757622,1.03115800333991,1.07744622912957,1.06431370586084,1.0648304557088,1.06413032040019,1.03814067176308,1.06286093839423,1.11242337833881,1.07608116761181,1.11143501479536,1.11041647115609,1.03440416607496,1.04010036487905,1.05832901325805,1.08798827883725,1.08713712268412,1.04973630806068,1.08064373946406,1.07802394141339,1.11609953413055,1.07368461890032,1.08849721086674,1.09469429486312,1.09615660322694,1.09663008527925,1.0640975240721,1.09431949229451,1.04723179729881,1.05398293266093,1.04522481367783,1.07110698657314,1.04945441223213,1.09694126299839,1.0817565529117,1.0556908719738,1.05878488114908,1.1108423798331,1.0796143216423,1.06794547313439,1.072553585381,1.05564087510452,1.05523905407682,1.0228949020421,1.04061716608978,1.04005859927403,1.02665572378707,1.06367366211868,1.06366642934927,1.03357441248962,1.03102184585512,1.03195648261752,1.02429233931632,1.05122939930531,1.02079468191076,1.01159775049575,1.01168909489817,1.01948249604071,1.02131442716151,1.02134650215184,1.01080917267491,1.06094547338446,1.04205466413647,1.03307124416715,1.03307113915324,1.03189499258751,1.03271879892724,1.02289193867011,1.06058921542924,1.0433469257356,1.04323320143962,1.04286295543659,1.04278587830163,1.02248810992413
0.91958918118052,0.919079450591972,0.918034013502196,0.917177152593532,0.91646228947728,0.916962058871283,0.917361537456902,0.917121735624962,0.920059786569735,0.921257758299961,0.92229721367962,0.923753682453206,0.924530018064858,0.924131635690079,0.921333850104381,0.911645387060325,0.911318972070614,0.910548753238839,0.910368414667876,0.928433960994656,0.928430420438414,0.928285436041489,0.927053323455198,0.975359460055979,0.90794556828171,0.906922539132363,0.906855285629758,0.906911072386119,0.904992306653679,0.903750396107723,0.90286158905279,0.902641766727623,0.903401496090116,0.903602506398876,0.90372003430646,0.91356060332173,0.90419541748406,0.903689906170406,0.90310141692083,0.901426602067993,0.900446922500548,0.900249967815042,0.899701970231674,0.898827528397939,0.89913060673033,0.89951593829005,0.900169003401833,0.899848642329443,0.900433328115596,0.900963016339447,0.90166258566741,0.904019286581665,0.902826636787936,0.902016028020408,0.900700034714429,0.894872076678886,0.894298285251151,0.893987157317842,0.891552102954806,0.891270214079231,0.890967807476813,0.936193863271233,1.09441945198281,0.984130057190276,1.09178690335511,0.971134877249824,0.892968600146621,0.892818732120744,0.899457141791753,0.902197631660566,0.904199581033677,0.90494298041563,0.903967707483546,0.955730453401281,0.917235625799545,0.974326738934104,0.952383849521758,0.934349128925862,0.932971685785985,0.976181810304553,0.960606077871749,0.960156153779819,0.960673798130842,0.971189448775552,1.02976771784834,1.03044379290916,1.02008811790345,1.00758111559718,1.07919473078031,1.05877546388492,1.07982781576423,1.05748881250997,1.05916995287756,1.05840362671486,1.05155469173683,1.07039755989417,1.04760768912241,1.03183040353519,1.04452020061968,1.08830614521773,1.11259379827079,1.08250591150464,1.07309541740419,1.12148512856733,1.02781336221183,1.03451298221923,1.06368108171637,1.03668083198543,1.03789853228056,1.04603837654895,1.06440098903358,1.06641290674681,1.08121597378518,1.10483832305153,1.10457643553644,1.11813244197878,1.07864364282179,1.08000280213992,1.07457265610828,1.11242597317174,1.12112537180764,1.12050091364015,1.11988267453009,1.08842684139056,1.05549904763899,1.05424207489202,1.07922429310056,1.10040834476417,1.05075991188746,1.09685280250172,1.08546749286767,1.08739920311465,1.09038830410882,1.06027511915306,1.11277553140048,1.06313714454302,1.06457663713096,1.06407265367352,1.05721945761164,1.04113297759144,1.02835122749213,1.04305479210401,1.0494676250796,1.02776917940197,1.02813973014711,1.02880502944545,1.02994135235502,1.02892317980417,1.07846293937805,1.07203771152806,1.02169486824997,1.02095354369967,1.04058959840626,1.01123171070105,1.00929340233592,1.02024692708651,1.01955863775263,1.05021917699088,1.00017420424262,1.04327672815834,1.0365052443664,1.03355383868234,1.03190551905856,1.03312139274133,1.07398526651647,1.01635381548573,1.03111616037667,1.04351011080342,1.04326791509481,1.04197255134243,1.01672866148933
0.920246722175809,0.919710835118771,0.91912508885609,0.917638576529272,0.917774292350946,0.917525642316375,0.918046575341639,0.918805677884802,0.920400954417021,0.922786674361673,0.923743089377128,0.924209776775559,0.924859928842262,0.925135735849627,0.92058589652837,0.914101539704019,0.913054494663054,0.912254629000626,0.912098253739494,0.962869689565595,1.08832357480483,0.929152193333747,0.927143715664511,0.925371054164869,0.908500282353491,0.908318446666742,0.908279636376059,0.907996584245851,0.90781528334741,0.90833322057488,0.909276907649704,0.911899211469605,0.912111440727271,1.05828513767591,1.26424688528824,0.891583169123688,0.892438157473488,0.893529527018599,1.21945513808617,0.90004447178628,0.900149060883975,0.899703869843626,0.899254966411667,0.89885811142746,0.898551799276911,0.899337496324178,0.900291014635304,0.966728327403354,0.900880718516057,0.901686771774772,0.901582930124935,0.902792638566126,0.902658860876577,0.901527532252697,0.900679134253148,0.894129344992967,0.895291886266112,0.894586725601664,0.893813677901845,0.892635677129199,1.08748621990719,1.00879557976412,1.08775193128208,1.02796192991969,1.08497238218569,0.896519601319903,0.895214462634888,0.895927778321385,0.896432192359858,0.90576230293818,0.906725726780604,0.906818280943488,0.908527261319851,0.908527291914279,0.931216367206449,0.951205998087191,0.951886128237347,0.933930304554484,0.956922423928856,0.977201894528066,0.9817540842913,1.00872082944452,1.04490984608569,1.0631252038145,1.03013865169615,1.02991044209353,1.02764462927724,1.0249591106172,1.06692743846669,1.05863195411835,1.05136813328918,1.05826813070916,1.06095256697184,1.06385011214067,1.05228403385136,1.05439489367045,1.04901025073821,1.04417516687328,1.04411321365463,1.03695767926453,1.11403237292294,1.08764127868394,1.09097041602234,1.12279226705567,1.12310799614678,1.08229694039038,1.07879186068521,1.07067550922985,1.07036258429265,1.05167199235677,1.05062181133523,1.07563620825136,1.11342620798068,1.07430583941291,1.12302874656055,1.08047627204011,1.07962666511144,1.07983945244827,1.0896854577563,1.08820051723104,1.1209792239873,1.12092630084783,1.12664036323981,1.09321882400909,1.11780920684706,1.14065670506306,1.12184631424521,1.11267689101953,1.08005397576627,1.09920084284522,1.10593775467508,1.10569799862202,1.10657213809822,1.10805940891474,1.11208179481269,1.09354002371222,1.09470685996211,1.09621124271001,1.05681412891638,1.05217415600062,1.05506853442071,1.05598027505692,1.06001081218999,1.04486548998138,1.0875805061625,1.03362583911775,1.03155084148745,1.02755579554676,1.02839655650925,1.03716556113931,1.01656215260398,1.01604693564716,1.01624069586075,1.00860472658381,1.00947285818089,1.01156586466848,1.01319403883389,1.03319518522626,0.997435103477125,1.06183799050802,1.03639494114019,1.03390812080357,1.03246559669974,1.03241337275606,1.03151628629101,1.02812557390832,1.02081385017938,1.01652845492993,1.01080356762487,1.04325215483124,1.01176125041142
0.920563372009691,0.920885177084291,0.919377298674055,0.918004026453828,0.917650241378139,0.918033240856928,0.918271144729984,0.918758877217062,0.92077999570727,0.92271344361591,0.924149027789819,0.924142267230453,0.924924165896636,0.924621622705129,0.920273304469332,0.915153855124714,0.914493208614182,0.91441775842412,0.912880816234092,0.912509209940167,1.13843935047386,0.930051104206564,0.928350715980935,0.926053499200036,0.980046817281681,0.909595825406996,0.909297984745049,0.909476364023251,0.908209697917745,0.908773776493543,0.914112740838238,0.913438487333651,0.91413025267015,0.915002973670496,0.915928195212914,0.892810127151541,0.892817948403629,0.893399301015192,1.21927559806712,0.899606388517573,0.899038584149789,0.899151157822424,0.898984028804007,0.898709573387777,0.899044834877687,0.898284222529833,0.89973610636964,1.09542741592977,0.965729537126044,0.902108630439231,0.902646551900612,0.90255020640559,0.902221365680769,0.901072404459469,0.90120476694198,0.900739776333424,0.898008907861306,0.896915666725556,0.895622909007863,0.895148343266233,0.987823146482148,0.983540404504283,0.903534341917246,0.903397220717871,0.996181371411763,1.0994325408803,0.935340001958518,0.896500059252223,0.89412784022313,0.898384133540351,0.911925617770112,0.92435458797934,0.947782500399477,0.925269951530013,1.04141865124136,0.937999619757203,0.955577122533473,0.967811228930158,1.00555959195435,1.00555776268742,1.04195608907333,1.03991884288881,1.06968435515244,1.02208953438963,1.03546651833199,1.04607445877921,1.0556595843646,1.08428306626907,1.06453613650013,1.08596112147054,1.08451685789592,1.06776164831289,1.0526578195446,1.07760989760031,1.05308732505885,1.0543115838246,1.05216858267395,1.05012036144728,1.05261118944955,1.03696985836959,1.07902569919397,1.08731169180491,1.08544043139831,1.08573836979316,1.08836998848631,1.09140857740758,1.08839808097844,1.08193757797463,1.04834695190846,1.05070456614739,1.05151975657086,1.07793196602104,1.08104054272252,1.12235671845225,1.11450361767543,1.07996736142894,1.0800502523519,1.08030531259708,1.13447684666198,1.12946390711215,1.13016347980026,1.10120560866651,1.07329791378435,1.07544439441253,1.07599293376304,1.09963638029521,1.12761317882539,1.15426795290144,1.09998331319701,1.09486067090895,1.1180998168888,1.10923925970611,1.1069312578927,1.09111534979043,1.1386230533164,1.11539572847524,1.10097627627955,1.09744490912916,1.06417732873216,1.05019815555191,1.04666513608698,1.0567223438635,1.05525669232057,1.06339046743784,1.03314925697694,1.03387540235478,1.03241440103368,1.04586173424309,1.02922083064852,1.0187560050915,1.08900540868225,1.01079425949203,1.00435945999325,1.03797909457014,1.03035270540803,1.01335231837744,1.00644242038053,0.992031507346283,1.04373171067609,1.07790254022151,1.07729275065705,1.04275217074164,1.04348372708508,1.03077724152967,1.02582411441528,1.00244825193911,1.01084021761454,1.01819356930828,1.00787877232239,1.00728787503048,1.00701170413668
0.927027437332897,0.923709630491752,0.928905612759984,0.929135162472077,1.13564126808455,0.947769579138169,0.947049294293201,1.16884032046468,0.921253730435993,0.922821223075117,0.923475939009156,0.923561693301538,0.9233969843442,0.923700995085771,0.920904619654526,0.916041851496044,0.915664581444046,0.915120615792805,0.913750841458457,0.913953150540641,0.915112624758596,0.921346750827698,0.92429973727449,0.924071010556732,0.92343141784977,0.910924940798206,0.910374495349539,0.909413117892141,0.910055809765484,0.909661354114386,0.912136726674239,0.91256246093463,0.913311822605572,0.912671391843974,0.911444352487272,0.893662937271273,0.893263628126612,0.893713528202998,1.21951038118894,0.899700116997562,0.899193839073515,0.89874020974554,0.898167487633286,0.898238538445933,0.898269133743462,0.897968969417116,0.898822096564006,0.897672939805965,0.965877509657112,0.90170576143059,0.902288003821164,0.90219985610669,0.902129050893962,0.900626647871752,0.901050465119328,0.901283747554922,0.898714253533269,0.897505550728642,0.897075339854526,0.897142019326914,1.08215180779636,0.980658175415884,0.905116662273405,1.02302379947022,0.98138341368392,0.980357401047264,0.949463512494241,0.914844496515422,0.910231524965671,0.927838397811079,0.990266750968036,0.948440967522879,0.928242338588084,0.930575912089889,0.927584576925127,0.968970462908623,0.981340949617161,1.0127554138041,0.993905918144337,1.05155903753604,1.03980364895315,1.03754926835796,1.02342300854655,1.02153762460599,1.04364599570518,1.07247726248552,1.06242214621161,1.07114839094707,1.06673434847241,1.05506748917564,1.05474494732458,1.07339530806582,1.08373066895554,1.07729654932596,1.06503991013097,1.08871853484652,1.07888648518072,1.08791610251285,1.05227872503874,1.11173597528823,1.08884177647615,1.0878163701557,1.09247976492353,1.08396983192738,1.10083738249179,1.09984008879354,1.09303111968101,1.12360996358938,1.04723173188435,1.04723565893159,1.09180780547254,1.08931269959284,1.08637186079044,1.12310901023697,1.1024257858316,1.1498527879668,1.13293785193937,1.14993800259473,1.15007596421994,1.0811700510821,1.13229858941865,1.09103608766553,1.07412419756416,1.14066274795714,1.13251115569887,1.14542270560539,1.1348481825091,1.14669506004008,1.09737156832275,1.09695991668385,1.11476745419544,1.1110164852654,1.11921470394415,1.09061494609166,1.08897907014255,1.11833779609938,1.10511646414393,1.11234299598112,1.06373026493257,1.06366980030699,1.06975868712514,1.06926355798109,1.06997097002383,1.03286359814187,1.06070186781722,1.03667436058062,1.03424911271608,1.01858580236872,1.01715735091562,1.01377071126576,1.02781879147496,1.00755818343833,1.00001249811384,1.00047315968563,1.00162354228261,0.99523246559633,0.998393347434035,0.994520202752173,0.985187483031884,0.986188651250574,1.05248083968807,1.04226158385083,1.04288355767468,0.99439200981994,0.994334407429755,1.00242208599004,1.00714950443397,1.02109114658715,0.996614530947585,1.00254737704079,1.05031603825183
0.928564059697372,0.92105377998054,0.909793039491058,0.911491389579667,1.13352937030173,0.942385936996355,0.945547889495711,1.01364180525327,0.921965499114544,0.92243978361954,0.922654548450127,0.922760076202686,0.922950664444344,0.921804783245577,0.920758225861056,0.918348842494544,0.917271577203893,0.91690231636347,0.914579515817946,0.914695009640002,0.915184413518675,0.918127525909513,0.919753520307579,0.921405307026225,0.921612074698364,0.911367313777079,0.911139679287743,0.911521746848981,0.909964626471846,0.910991794165746,0.911731197134581,0.912466860000382,0.912401859962362,0.91070177625373,0.909456389899091,1.046045261098,0.950397072509365,1.22305624678847,0.901767712748308,0.901043569045135,0.899263672536438,0.898700523172548,0.897323912283557,0.898461837106851,0.897557095490681,0.897573538169763,0.898456762273805,1.17975946499574,0.965695010185429,0.900666598348222,0.901572215564301,0.901526410784522,0.901565070905077,0.900562748166651,0.900176875271317,0.900488148876368,0.898184811988093,1.08827154817464,1.05311488812641,0.910986911779955,0.975053405509912,0.973500122368994,0.97368057902587,0.970154873623974,0.990067313173194,0.990292357057708,0.964354726395995,0.924715723704264,0.900316748841014,0.926612768020687,0.988195045336246,0.957412539795455,0.95273729178322,0.931340570227654,1.00956169177445,0.985190621226994,0.989228284950121,0.993592845109085,1.04042864487007,1.04777353776498,1.02008494204102,1.03518119699869,1.03111927275443,1.03280128752311,1.0889928361065,1.04981468430405,1.05416383999688,1.04395253658378,1.07633305420589,1.11802484079465,1.08409944562377,1.07880600068375,1.08834263989746,1.0882013294331,1.18589662844364,1.08986458795816,1.07124530940394,1.0452151407501,1.04631629635872,1.04298785262059,1.06767774080496,1.08511961862743,1.12807085451903,1.12658038617688,1.08966612038896,1.04613995913396,1.04606121599044,1.04580157371691,1.087927454437,1.09209609825688,1.09274264705234,1.09685596838621,1.11913547700471,1.09947364318353,1.11517677288519,1.10050931236416,1.12977783405721,1.12997766131823,1.12865286406145,1.07638467563191,1.07835363883967,1.07847814777137,1.07780236823105,1.0657577710043,1.12971226988626,1.08957754355464,1.09095925650374,1.09015949365964,1.08990030322606,1.09083683923536,1.0825870140435,1.08164508994216,1.07986885161995,1.07910426528201,1.12261864251175,1.12097253610441,1.09240316917726,1.0602325176269,1.07630632343863,1.06338939710914,1.06620905326437,1.06741696294744,1.06663515045612,1.05012209645346,1.02761701919597,1.02789001925874,1.03531309103116,1.03511516673788,1.01228419426792,1.01274419872009,0.999153089131131,1.00499604549868,0.999564293347891,1.00062223815118,1.03225493327005,1.00009627306283,1.00099147396101,1.03819428759338,0.986229434181621,0.98673496109884,1.0481682777682,1.0367875738207,1.02177220700352,0.990841036734442,0.963115241691178,0.961198203838344,0.990666565891547,1.02003761897552,1.00144851291131,0.992566299550924,1.04944717203944
0.998087342509265,0.917876693390488,0.91127847140924,0.911485804924868,0.911378341689339,0.941934723895567,0.945475304606508,0.945276941474587,0.922175011834746,0.922712183010671,0.9222487699482,0.922451499314173,0.921503602492912,0.921634092781282,0.919284326341432,0.919093727725843,0.917764009145169,0.916637146596091,0.915233673170825,0.914612824062002,0.915334861286374,0.916170041286244,0.915286728190982,0.915444702885374,0.915948983537041,0.911273250133945,0.911747236977486,0.911610254366363,0.912094935910896,0.910993429341286,0.912744721138338,0.91265643388772,0.912471972613068,0.910376456001866,0.907814192864376,0.905012910302141,0.904395724492183,0.903653088030629,0.903532034529424,0.902038838816911,0.899922681016122,0.899018592074083,0.89837337191416,0.898221636602556,0.898340034213177,0.897712686674749,0.89772354747888,0.896882552772452,0.896760106021511,0.898679912312985,0.900026169368608,0.900666863762219,0.900927476151668,0.900116339793741,0.900416319245792,0.900693253425164,0.899005569226743,1.02366375244767,0.953404997341315,0.916379480201541,0.975423733977261,0.974607489975502,0.976090118750826,0.976055070812742,1.00400908089738,1.01649218066281,0.985702890627755,1.00702109616216,0.950220334705152,0.989428536969715,0.947588122388183,0.964367089761584,1.03578043468566,1.03696064987654,0.988023082230125,0.991681563402537,1.01095897818777,1.04306012159688,1.04169663800079,1.06090177269026,1.04036468147342,1.05740651228086,1.07693196185995,1.0901691820761,1.0531097146776,1.09149814623031,1.05731958040199,1.04422602338806,1.04616135415207,1.04579867124708,1.06454239006219,1.06574271974748,1.06630033373967,1.08131691581259,1.08148241629538,1.06600028054634,1.0648758454752,1.04537130494969,1.0487314124661,1.04807875264409,1.06004497885618,1.08440821296258,1.08195689772884,1.0824827941012,1.0946577656268,1.0450215469606,1.04555600647469,1.0391976040576,1.03747951416121,1.05057621515803,1.08593639653986,1.09798688949195,1.10344790119315,1.14872046653322,1.08932605286321,1.12593735321863,1.1265876528049,1.10552430616492,1.08191311966123,1.05421301293366,1.05496882140161,1.05853615222789,1.06021392506664,1.0583609834453,1.0914690538908,1.08785252984693,1.09114322580458,1.0812884621648,1.08900064362873,1.09029244964311,1.07742179334012,1.07893272001732,1.07912662750034,1.09733268849203,1.12381933326912,1.07620044138431,1.07661297442717,1.07469465510857,1.10215639976606,1.10192084186643,1.1212599479905,1.07420071744534,1.06539894027177,1.08473206022351,1.02808340799401,1.0279678532475,1.0430691513084,1.05526600345651,1.01300971277158,1.01135706392605,1.00888341992986,1.01234282859602,1.01368910048486,1.02043314567997,1.00935918309712,1.00882879316199,1.00533431854333,1.00742108543776,1.00954073740731,0.989629578130763,0.977064562428359,0.999896607927116,1.01800623071635,0.979981387471606,0.965486444287415,0.953887867835481,0.976134170410128,1.00417626068972,0.994983918754865,1.01096687945311,0.992256531171337
