0.924710879358968,0.923745928353918,0.922821621627558,0.922137527269749,0.920977656811381,0.920555190474257,0.919106535466573,0.917117494684531,0.915981980023594,0.915877115225573,0.915347991593095,0.916168232914271,0.915613277949792,0.914756064968373,0.913937261578385,0.913982668444555,0.913700225149758,0.913820974945395,0.913400093835134,0.912555850146219,0.912884853281527,0.914295029073688,0.914405173371605,0.912764209121204,0.911941209589034,0.911477468983014,0.910778906632096,0.909626607595933,0.91021473915867,0.911138021477362,0.910790096106543,0.909070607852098,0.908464284165883,0.908355351193813,0.907271264074042,0.951767492295747,0.988123750019822,0.997507332696995,1.10658258649067,0.893831121452879,0.893438221481105,0.893339854046156,0.892443518328309,0.891691246666264,0.890879440892364,0.888736366929135,0.887849985291083,0.887007039238759,0.885613542416734,0.95951359654713,0.874443516582343,0.885360466900454,0.88570852796106,1.01635218508896,0.865386024752209,0.865388551829964,0.865663713681281,0.951683610950026,0.868987118639953,0.870714824400614,0.871613723139572,0.875639472360658,0.876558320975566,0.878106465458848,0.879426016144177,0.880384953580127,0.882008122458715,0.882066718173886,0.881445670508316,0.880511317640635,0.879533609324332,1.01662843583952,0.933240762193463,0.933499743230282,0.873383979577395,0.873360841879644,0.872955201468851,0.87261136319007,0.873029784786946,0.873887496906306,0.874718255678255,0.875270603285217,0.875721697754012,0.877291178859089,0.877995586937109,0.878553305937207,0.879259347472147,0.877498797164888,0.876634115481642,0.876823477544622,0.87789095800902,0.876991523826662,0.877172690939221,0.876728883009472,1.16092628882743,1.09615423302187,0.871064868644822,0.87068150554054,0.870464125547163,1.00541449429881,0.870759194722543,0.870738266018799,0.870846345971757,0.870650985318419,0.986128626410494,0.894937212631892,0.894764245217909,0.894284672693869,0.908223380870167,0.963569495966792,0.00398593860235595,0.934206247207856,0.936102199145387,1.07521876392263,1.07324883510096,0.913018138105478,0.882071198033457,0.881779169570574,0.88172102247832,0.882236392876941,0.883509333397451,0.884840868107229,0.885089654945043,0.884972536953042,0.884973787178805,0.884922295719381,0.885506608823094,0.886447327285363,0.887895563865847,0.888228077099483,0.888097455504181,0.888015716394299,0.888089865369305,1.07374217162715,1.07382520602413,0.898033643428673,0.900109468411635,1.04810375573147,0.957107684148322,1.03394047159471,0.915056598679395,0.915964266235788,0.916547052480552,0.916837063608579,0.91670269755511,0.915434044588784,0.915738329833157,0.920305343610113,0.921335582135622,0.9235926301952,0.925253893869157,0.926475585985939,0.932684090607013,0.933531887686903,1.02058495962673,1.05950930511952,1.07712834001154,1.03118284511389,1.13232969955364,1.13365349907026,1.08326650614007,1.10745139891152,1.06241853080225,1.06260421590303,1.06496200169062,1.08981881392232,1.00633504509662,1.00628138558416,1.25748605397256,1.25624868081901,1.17796202899139
0.92820408661385,0.924764802826382,0.924298728318649,0.923543196001889,0.922680097441244,0.921891773618333,0.920652666257125,0.91811413926232,0.917014125832905,0.916563354699337,0.916268059364545,0.916102415114868,0.915732717907152,0.915351374996581,0.915208104697361,0.914938698627252,0.914639325069172,0.914282502960563,0.913897545492529,0.913535604324741,0.913337520800322,0.913786558014329,0.913838042745639,0.913014157950394,0.912351859692136,0.911870980590732,0.911403370569672,0.910935401633762,0.911069259737489,0.911368032960157,0.911211470469577,0.910569633608313,0.91003277661444,0.909131250142824,0.908513342299717,0.962475014995469,0.966038707544368,0.970534425651854,0.9679863723431,0.940562113613561,0.894193124170058,0.893932324547534,0.893513395445017,0.892971622496363,0.892229161058227,0.890689522474152,0.888038684948002,0.886763219509152,0.885729798406387,0.885039694846896,0.87482069027934,0.87416520371591,0.874544967809131,0.874426895021152,0.868984364051769,0.866544055353266,0.866820016585524,0.869021549975233,0.870431649754999,0.872004275478014,0.873513686703526,0.875776262251072,0.877477069666698,0.878960665347069,0.879975967094948,0.880850311326855,0.881711522630315,0.881976681254494,0.881853141415121,0.881610404524939,0.88159402948714,0.885108431967112,0.880108005156484,0.877296143752102,0.873602747519659,0.873163011545497,0.873162887023863,0.873540929112569,0.873971177484284,0.874557081831056,0.875806605852498,0.876529137321225,0.87716429038792,0.877932092482174,0.878545278544768,0.879223323035682,0.879603021548504,0.878893717145912,0.877743433711947,0.877680596551983,0.878061853626348,0.878200309297401,0.878119872726031,0.87798701169039,0.881925689592461,0.885462708527339,0.881775272348197,0.871123555705978,0.871081848732083,0.87123763042609,0.870943769977663,0.870795685168723,0.870639065843939,0.870576187070569,0.902939044268482,0.899034334526376,0.894077646327378,0.89368509409459,0.898596047485383,0.95225222910394,0.944027825681097,0.93574105109315,0.936055434205772,0.982740207065363,1.00966921532207,0.929190589126235,0.897400900804568,0.882226396944597,0.881958529031769,0.882107985848202,0.882833563706671,0.883720908003861,0.884347061766901,0.884733987780266,0.884767794419023,0.884866794340961,0.88533797437303,0.886294196436325,0.887368096679306,0.88783421545089,0.888030332358728,0.888208063277028,0.888456450347553,0.893419405024405,0.894884890754189,0.896982961041733,0.898928168951095,0.935532503643525,0.949712176925016,0.986508099866921,0.968087827397733,0.949355083632741,0.915983513320716,0.915926871261614,0.916149155448117,0.916490471487047,0.91725078624134,0.919924540214126,0.921435498121931,0.923165134136631,0.924813580402848,0.926056614243033,0.931667912961412,0.932555079592024,1.02600471805269,1.06751823749714,1.07233280313056,1.05739833886003,1.08474149809801,1.09677796729552,1.08350358716124,1.08523829106506,1.08985469685405,1.09138608848285,1.08949470504885,1.08953955226617,1.04955216201812,1.03276148068203,1.05017430889134,1.06887023102517,1.09216155945961
1.04352835267532,0.925775522028811,0.925701466126954,0.92467187171046,0.924291583356974,0.923652929317295,0.923221484660379,0.918008396274803,0.917109383623255,0.916880840151496,0.917073226277317,0.916186598321259,0.91580717953458,0.915498267774983,0.916409823845414,0.915897159983542,0.915646112840136,0.914745545329897,0.91438323495632,0.914113477135863,0.913174122498353,0.91352717360086,0.914173927260643,0.913050389450585,0.912588598951531,0.912183832436714,0.912019965231321,0.911573720257074,0.912002748082527,0.912186130673637,0.911959889720746,0.912131921558946,0.911743423808955,0.909359086124725,0.908988635773074,0.993395715738259,0.931331810663715,0.973470851560303,0.966842128927141,1.10728184620303,0.895205102297738,0.894633871533723,0.894480226247312,0.894263370296128,0.893934913309382,0.89392666541718,0.886566697027735,0.886312758248171,0.884958534739186,0.882906876785291,0.876632870981789,0.874270080191147,0.873852551403529,0.873287508997315,0.872529838439674,0.865687005190795,0.866190051077615,0.868825832334455,1.01410764774066,0.872245823207009,0.943975131178434,0.94217950188475,0.878159306589563,0.880242252152224,0.8806118052125,0.88133679130086,0.881894882270245,0.882134432750856,0.8821955914738,0.882425207544982,1.06897795307067,0.89335393591464,0.866407224208837,0.865601066603216,0.866202764856888,0.871626727537092,0.872813136194943,0.874270522145375,0.87472322269394,0.874602076810292,0.877475763103222,0.877727834189463,0.878535528086806,0.878673874966382,0.879085255335944,0.880155375504335,0.881126389981447,0.880816678776785,0.877836443878183,0.878086982671276,0.878882039036519,0.879259331759596,0.878813623705627,0.878813318699218,0.877838325671469,0.896899126398007,1.00755543761565,0.870846071544842,0.870797268267628,0.870787413472415,0.870490760895036,0.870437440590382,0.86997875533729,0.870023981774024,0.906672352649385,0.906280745691316,0.892777877354187,0.892801124669699,0.892870120329716,1.03571993062113,1.0100613487775,0.935982656654749,0.936958998909729,0.937311903444993,1.07641082482793,0.943584608199671,0.91206395507766,0.882497667844044,0.88144938939178,0.881136129369189,0.881944600643238,0.882834262037889,0.883870344288169,0.884868630830563,0.884479904117162,0.884483312689681,0.884632831266433,0.886079053027146,0.887351888178525,0.887655109767799,0.887686920318829,0.887844315677332,0.888441764143837,0.891417668294846,0.893591151211682,0.89516263311034,0.898914528879771,0.901666241135001,0.902768183523612,1.0291409632948,1.03008514077108,1.0307432024134,0.915210145266391,0.914513151337011,0.915193118511726,0.91690747521911,0.917034778541955,0.920385365048887,0.921414163490387,0.922510489527779,0.924463950244098,0.926200829447427,0.930029531695724,0.932929922920957,1.03220541698932,1.07343214570232,1.09388978598523,1.04633476768351,1.03991316780172,1.11515816500893,1.08122335728597,1.08124850445449,1.08908734432084,1.19110990153105,1.08502322646414,1.08676754912458,1.08618355929949,1.00484265592252,1.00453026577084,1.01612328315812,1.01630746961303
0.937714284562275,1.0464289855562,0.925697676217468,0.92562255153575,0.925431607313354,0.925346457585447,0.925067677443423,0.924108449811111,0.918156903848516,0.917024732840487,0.916709048086714,0.916861287847003,0.917607633178077,0.919686729529385,0.919660681037216,0.917316491476245,0.915940099157547,0.915053346804383,0.914575010048191,0.914033373014919,0.913648911708472,0.913735252340574,0.914504219137544,0.913801113559309,0.913227903398033,0.913582014304167,0.913802681715765,0.989668089152046,0.916923081990386,0.917032725534494,0.91664017547284,0.91835528348962,0.912629468474664,0.911465025160311,0.911145844086379,0.911833823389421,0.91082642321622,0.908357012680082,0.90738941162602,0.907347986436568,0.959902608536924,0.895184523961419,0.894367269227695,0.894466551043313,0.894050241887667,0.894138502445279,1.01316666862157,0.887281297829928,0.885825748026669,1.10603871782551,0.876133118230402,0.87424213627134,0.873524792732005,0.873431137336883,0.873038681818031,0.873077364052203,0.872623375211187,0.871812914213574,0.87268625503667,0.873825959428778,0.877386745132056,0.87812214183246,0.881957714804937,0.881537549160631,0.881491618672545,0.882045477511176,0.882734261597768,0.883052349550074,0.883013794182885,0.883113136606144,0.896812007292398,1.02042688365973,0.897618048189184,0.866806033771854,0.867120089011488,0.868643750017153,0.869404709401734,1.03316031669336,0.888012976526854,0.878190824460716,0.878824666121931,0.880256810707751,0.880720735413982,0.879582801979666,0.879741017148023,0.881444461754682,0.88225794727698,0.882700243197706,0.885050859581467,0.884410230221203,0.883573297567888,0.882142320907012,0.881189454795215,0.879896458795582,0.879671567840964,1.02252477516163,1.12535850842342,1.12739010432005,0.870756539625326,0.870248969382757,0.870208700243747,0.86998135961762,0.869149711882656,0.868840615545841,0.868946990574867,0.974336172495958,0.892322446881711,0.892603396897387,0.893078411248833,1.02231194522811,1.01106841880493,0.998724058074652,0.936658390466997,0.936296810022459,0.935821288186622,1.07598606685805,1.02785980057727,0.944870636021934,0.880438268709352,0.881239431223309,0.881369851052259,0.88208358175682,0.882990232893524,0.884422471321218,0.884121934513467,0.884497781094213,0.885174554008966,0.885538906198755,0.886391029614868,0.886657418814767,0.887477702646282,0.887492131066439,0.88816610850067,0.889694641765893,0.892470902788679,0.894297392962387,0.89700368275724,0.899285583219576,0.900783240294095,0.902706971832296,1.11453342840523,0.912449611961431,1.22491127935465,0.913532250090195,0.914322622747921,0.91553570731744,0.916850750792257,0.920015430033485,0.921799097055202,0.922708916463041,0.924538830926472,0.9255304496731,0.929598433661929,0.931231867691504,0.933033145125437,1.0168099859435,1.07716519470378,1.11263427211499,1.01624443713682,1.21097947169454,1.04007550378719,1.1751100383015,1.05944364373009,1.17821475340521,1.03328350985719,1.03523161584863,1.08550028832888,1.00732156169785,1.0067815367677,0.995102629642351,1.01053920535835
0.938054364561824,0.938617688531504,0.926575943862685,0.925636261740671,0.925959803451327,0.926107094861929,0.924716139055199,0.923539288235951,1.13891255714216,0.917015888352147,0.916693332070332,0.917137181173611,0.91769310908854,0.919420965360721,0.919675933530761,0.919553451312948,0.919814416184847,0.999439189194377,1.16855771581165,0.926938919298613,0.913580372308997,0.913963644343775,0.914191775056995,0.913531061210396,0.914061386756927,0.915124869528648,0.915788561566795,0.917029039291295,0.918750810240056,0.91869970975368,0.91962050162612,0.920044343616392,0.920383771507322,0.918422964422609,0.961293774386438,0.986024589526952,0.986791972627317,0.912126883554302,0.906755468861176,0.906180952329921,0.906306818809446,1.09308083105705,0.894709963854096,0.894044131693317,0.893306783286525,0.892740005307967,0.892296712307827,1.00424894908005,0.885174147503431,0.884794038398891,1.17969407419361,0.879538879886893,0.874081293257608,0.873963491122,0.873447529002657,0.873357225225708,0.873469493353758,0.87366601067235,0.874230346992478,0.875610677654425,0.876426700564981,0.886679161926943,0.883042622008061,0.882681021371494,0.882504471057676,0.882552174447932,0.883242659523523,0.883649094123355,0.884069647143465,0.883677925051667,0.896419640184095,0.896112883557917,0.896841820783312,0.90916352563723,0.867514085739664,0.867676327026411,0.930721872342155,0.87019187369982,1.12429716587034,0.885945236191369,0.883499758235836,0.882555222767118,0.882441555244007,0.882192754535245,0.881758081562094,0.882205093033896,0.883570944543061,0.88457801545853,0.885012030795708,0.885176915224596,0.885291665724659,0.884432701065928,0.883294637195099,0.882020546400047,0.879819980393901,0.87941804840552,0.878088575660306,1.09779269730973,0.870943325865868,0.870202694049065,0.869458810165983,0.869439367954812,0.869801896058771,0.869771916049265,0.870019200694698,0.870713731133476,0.892782561678858,0.892784937694135,0.893610279091231,1.06943601215896,1.02293442496472,1.03203560658905,0.934457672292045,0.934741764434837,0.99933697778649,1.0769800015343,1.077383956376,0.936276266809381,0.960191202509969,0.880531241037756,0.880776185553436,0.881602012773809,0.882362002188354,0.883805941125902,0.884581413217183,0.884783695590982,0.885327727979867,0.885520568232828,0.8855006187197,0.886203468255813,0.886955503145728,0.887056522838586,0.887878168544111,0.888516272022882,0.891470136953717,0.894238227257479,0.896474789780265,0.898599170337083,0.899323400950273,0.900793592269491,0.902482479812512,0.903669696435945,1.22438494638851,1.22446672486869,1.22529469296676,0.915510670619266,0.916456477876188,0.921141789199866,0.922469746516225,0.923037562022317,0.924504634931475,0.925517598421816,0.928463084634031,0.929973710107162,0.931047938085007,1.07935829205756,1.06632304021217,1.06753478316577,1.04889880455504,1.01877389013933,1.01562859245188,0.987314954463772,1.02846493365447,1.03391424655479,1.03471224660931,1.0361034258726,1.09687893739195,1.25117395590104,1.00393214145513,0.998004987672292,0.998274109295872
0.938350539156271,0.937941567219598,0.937513697456227,1.02660799420351,0.926092895521494,0.926813068323514,0.926472061284593,0.922351540459164,0.922438321527924,0.925320100391131,0.914756694015297,0.915382850852702,0.916094053406296,0.917354375430974,0.91901497573011,0.91937943463862,1.13093581671974,0.999191714563667,0.903615297682291,0.92544271752808,0.907284598680839,1.0996160247036,0.914002181553822,0.91412278198795,0.914205374399805,0.915263790818426,0.917671127532659,0.918315043317346,0.918470658939832,0.918299551296211,0.918993772012462,0.919743343932194,0.9206545187928,0.923369470277225,0.959647784634932,0.984685596398643,0.96398825147261,0.981117368617907,1.09770926472571,1.05923899288149,0.930244718819034,0.930486322595177,1.08007764210976,0.894581791187092,0.892932249572994,0.891890229671584,0.892231377969892,0.891099390632958,0.899951654361676,0.897852830958433,0.929964383830206,0.880449910156099,0.880224773375458,0.87545437395906,0.873935878227885,0.873727636014924,0.873916692731828,0.874634422238565,0.875464112059105,0.875693433965878,0.876742920010358,0.882633490205146,0.884867972899733,0.884858814077188,0.884859931287682,0.884696309503041,0.884730445602907,0.885102632316063,0.886752851473216,0.884904784149805,0.885220694244236,0.918553738769806,1.01401145283985,1.05208483917688,0.998033419557284,0.927466993737145,0.898195418114497,0.930730706721401,0.903507393611582,1.07257024066254,0.883336293105469,0.883266454435882,0.883523511607252,0.883566240674637,0.882717666810403,0.88316669967408,0.884549124942436,0.885715994892284,0.886279754575024,0.887438255130461,0.887448058294242,0.885989580970246,0.884068408899011,0.883338166827074,0.88102928961186,0.879386297151547,0.879121775818993,0.879631479331364,1.09772529680084,1.00474976593028,0.86958521374959,0.869394613370763,0.869493632007945,0.870018084829556,0.87014576550348,0.870818883638312,0.891870738475722,0.892786028055806,0.894091373315408,1.15417541111061,1.03242665107423,1.11429170899849,0.984408027587868,1.09153284373588,0.928699427512101,0.932038925735532,1.07867558920036,1.07952966467383,0.912313900301903,0.880465637875809,0.880939488338798,0.881221616559522,0.881885936815517,0.883163859488825,0.884522263561782,0.885381128620584,0.8871214053633,0.887240856949688,0.886204953490901,0.886909454393868,0.886966254508199,0.887250903127515,0.887628787877979,0.888339709886577,0.889806219769078,0.89478638223993,0.895706355536117,0.898129342899987,0.899253900059424,0.899606848952159,0.901041143324069,0.903800713895731,0.904172361821635,1.14602623869877,1.2254124411136,0.917147965168335,1.2307870388978,1.22942259608578,0.922668720377068,0.922958725924461,0.923643746205485,0.924819353227415,0.925960034376314,0.929821513111254,0.933084065275436,0.935230956818015,1.07228769718303,1.07601162413186,1.0770126020868,0.966496907631684,0.973645288530367,0.980992251966707,1.01322835309527,1.02791726739885,0.00382169969799722,1.05039564961174,1.05359142551182,1.09346342007331,1.09367060281357,0.998586061819851,0.997868085659826
0.938022864587939,0.937325120668663,0.936702792632234,0.936145809935106,0.932291496507784,0.932417712570393,0.932810348340157,0.921443721265163,0.921042845034527,0.916233892038361,0.915901765252323,0.916352940496786,0.917602901774729,0.917958016466339,0.918450138740938,0.917784420595862,0.916451347072065,0.945421123809294,0.90517697329651,0.905728942188577,0.906340567084601,1.11554009702129,0.914550124940593,0.914706177908159,0.914679435292098,0.915526921070256,0.917100377130974,0.917608162413671,0.91757211831606,0.917753396078592,0.917938571224534,0.93654967267809,0.936903447620627,0.925365115605667,0.925957466723972,0.926016447120063,1.08850542800089,0.95290172060577,0.953908887041665,0.913616759772782,0.913283536498052,0.911914322895667,1.08720082410123,1.07610808054233,1.08203502919068,0.892916774586279,0.893793443433666,0.894590536351047,0.892981868478809,0.903118646842853,1.00986304873113,1.01670850480832,1.17426402037791,1.08986089561067,0.867587877806739,0.867402989042422,0.94229119779582,1.21235209261139,1.07497799878908,1.18656581161379,0.879428467924561,0.886094917552804,0.886663565378868,0.887101717461598,0.886789415154769,0.886164902593627,0.885603968558915,0.886651372240558,0.88764899783935,0.887765125676381,0.887884824850887,0.888720614100003,0.888129966837359,0.88678673955854,0.945727070046356,0.877144730597344,0.877657732400514,0.915780680067782,1.03086357867937,1.02851545149462,0.883897735125398,0.883596565846958,0.885065044614113,0.885201791392758,0.884826861478196,0.885267872790241,0.885347972734132,0.885854971216111,0.886973991729494,0.887637058516233,0.887644481863751,0.886524570323777,0.884377327718066,0.883819439146391,0.882781198306644,0.879890924929661,0.879223780595577,1.15515955440948,0.913306284949836,0.913766931138749,0.997260724556892,0.870364469541577,0.87017086600652,0.870289304259904,0.870314223273574,0.870593079311933,0.870798628368729,0.89174052001358,0.903987337526088,0.893154024383284,1.03001980382044,0.976816308779879,1.02962616016016,1.05563401627474,0.965878931496532,0.933227589797919,0.9167445502928,0.916739683038027,0.957390864427762,0.970097171339983,0.918084855534086,0.880558931104616,0.881467539623404,0.882269488784455,0.883815277918687,0.885852097735327,0.887140812479635,0.888511117738877,0.886654705228063,0.887723495531479,0.887812862852186,0.887942871294526,1.13299906451299,1.01131083362092,0.961622462384061,0.896735116065508,0.896923220858444,0.897498766959329,0.897861139111473,0.896623744299319,1.06146738578982,0.903739014603697,0.903938012347313,0.904417778202729,1.22444151355199,0.922534699612472,0.995504223352145,1.22886717830052,0.963300826364011,0.923431658495824,0.923469172070961,0.924844237890563,0.926802671645763,0.928651719320761,0.930512720046084,0.935633505885944,1.03720941848914,1.07389471670293,1.082507613498,0.966490564764447,0.966550853825953,0.981170753021889,1.16649937602461,1.17278251727803,1.05242100805362,1.05338702535447,1.05300030303629,1.05315472860105,1.18036268606189,0.998905192571959,0.997264311637471
0.939734718802277,0.939233629261848,0.936982236979783,0.935595252568558,0.930727009212111,0.932221745514005,0.93246847938918,0.932692488453875,0.944639605608959,0.917519140860454,0.917176139151675,0.917702928397881,0.918327378040102,0.91813771967225,0.917577402314525,0.916439168051332,0.914592705987892,0.913493000647789,1.16882533372626,0.906232444542679,0.907121114657977,1.12112374333064,0.914270802604996,0.914305818964746,0.913706988791292,0.914888523810739,0.915777657933036,0.917455617786821,0.91806736326009,0.918611046874671,0.951865369987423,0.937066564531529,0.936493415317291,0.925713041238591,0.926955844958058,0.92720178069748,0.926895947331489,0.927375440873828,1.08604491089731,1.09174363911152,1.09745716484482,0.93146418013647,1.17867539955092,0.913536437783459,0.91447456127501,0.897669271452002,0.895734311689887,0.895380376880068,0.895468311901375,1.01024087500915,1.01161121672938,1.01474179192745,1.01593473547904,0.930973774588486,0.869881719562112,0.869287228534166,0.870005469360157,0.870220738131937,0.932985113001164,1.07963098500399,0.885775199644805,0.887022754226622,0.88763064875462,0.888156318281502,0.888213594684505,0.888447740472974,0.890445911902864,0.888882047536591,0.889038362935841,0.88931602019052,0.8902152177879,0.889441814373898,0.888311108314046,0.886600416045557,0.887257772159468,0.887355725987558,0.888039253137516,0.888271684836149,0.889937550399226,0.888096039455675,0.886479845233976,0.885431396810298,0.885238944670026,0.885470266481647,0.885522422181639,0.886404788072522,0.885986323522745,0.886389709301116,0.886299506858975,0.887669296867938,0.887950601127196,0.887531652155008,0.887745873801015,0.889271471807511,1.31936766090403,1.31879213850703,0.886097666105136,0.905158983035886,0.915815291385611,0.917409757984332,0.995137046911961,0.870595937841086,0.871170168519769,0.871521692111614,0.872285504955615,0.872170075697783,0.872381252683837,0.873207678135909,0.895845969478626,0.898194041776284,0.893788363532702,1.01237984127047,0.969962096039348,1.10746364258248,0.918478468762418,0.916689848439259,0.917191412255892,0.917270377714876,0.990783392468939,1.32960327055226,1.16404285497202,0.882018225824023,0.882339279396941,0.882911661755843,0.883919250706781,0.884503768898322,0.888118288089155,0.889446252154841,0.890341823401712,0.888039528761318,0.888319634550245,0.888817324265113,1.0456954192297,1.37520191006659,0.962485009048258,0.897314701227618,0.898355830985895,0.898507509226742,0.898246760568659,0.896621490920693,0.896887761501013,0.902394125140123,0.90372596892133,0.902894675305015,1.21832253741956,1.11940368811181,1.12007241691839,1.27304220048451,0.969966884031453,0.922613272691764,0.923348685399619,0.924431682917061,0.925855476060639,0.927776079672655,0.929074180234292,0.935036891828688,1.13368969138939,1.01079297582846,1.12313450512626,1.13891452455549,1.0254587418419,1.02510759285444,1.02517574895369,1.17243690719924,1.17344823195696,1.1793031610708,1.1284571170624,1.12881626487691,1.15929306570125,1.17911634052066,1.09466960996728
0.940241879249835,0.940348409220771,0.940165499550324,0.930131461867417,0.929844944370473,0.930997388583442,0.931715045400806,0.931860696918789,0.929117677266068,0.928219848947091,0.919515803082628,0.919270357397815,0.919292703779127,0.919232926410266,0.919058985521726,0.917347096939451,0.914293683956227,0.914063720696171,0.91361552383554,1.16404274260718,0.912434188408141,0.91306591493805,0.91266129076051,0.912634725174849,0.912868397283101,0.91362813456191,0.914958580900164,0.918035210934493,0.91875491742449,0.919832873208017,0.921445782623861,0.93813273520911,0.936358156596487,0.933805088702953,0.928819802212007,0.929555660262313,0.930091544499245,0.930221269502636,0.947829769708927,0.959893250766047,0.933905141401287,0.928173658280134,1.06359117579959,0.922470035990092,1.06209758281453,0.91499184259506,1.05778346683032,1.05607177942993,0.896766212690391,0.895869620111595,0.98685062122775,1.16951596060266,1.00430967878243,1.01585449872144,1.00765547515938,0.86997053756935,0.870934611583272,0.897159826055708,0.897314306215936,0.896856501209009,0.88785606119206,0.888065509293133,0.888177656397383,0.888694078621678,0.888921708718401,0.889982597432329,0.890122439733884,0.889974072400678,0.890469744239855,0.890393373003485,0.890322152027379,0.889680759516789,0.889195760406456,0.905104696220838,0.905628516609395,0.887747428524264,0.887995811934267,0.888784592578588,0.888258681852847,0.88784203540359,0.886856288330793,0.886146217579149,0.885464791381372,0.885292857195028,0.885558049370413,0.886448848966135,0.886521577165044,0.880470998651217,0.881465439257485,0.88881063973221,0.888536188963096,0.887887120298306,0.887897046622567,0.8881210746692,0.887852773193636,1.24840292792433,0.889743623394179,0.89169272995918,0.925323060076276,0.89411205605473,0.896144645493451,0.89944881151413,0.872026209395754,0.872428426155781,0.872842042031981,0.872864930085924,0.873067449302834,0.873472156275632,0.896721588204626,0.888105760435435,0.889115538529584,0.889051728896237,0.889179434726788,0.957282462872741,0.957794715119543,0.941716643050178,0.917034096670868,0.923747185759293,0.92488106784085,0.932516011116003,1.0668889191344,0.956659872010833,0.956987912870527,0.8831513882685,0.883494426645973,0.885179734372821,0.886101082223906,0.891017366512133,0.8920602020925,0.894706161690174,0.889252929774941,0.889880888030549,0.891687553109444,0.959324428226881,0.958715111417365,0.897776860206925,0.898206709283648,0.898709845155129,0.899001481239422,0.899495053417006,0.900945356145676,0.90292077932152,0.901674581496187,0.90106039566061,0.901102538131041,1.11775881162445,1.11939784647948,1.10981870000633,1.00005830550221,0.923069281562358,0.923832778596162,0.92506079874582,0.926131974114723,0.927819974226351,0.929413769620536,1.1117191238839,0.969304460785692,0.948834329987245,1.06212381841692,1.13426492468733,0.972347812611096,1.14478620242411,1.14492432687721,1.02628902873253,1.1355690774188,1.2868879982469,1.07293212903258,1.12854377935838,1.13334003590276,1.01633536887641,1.17814958764689
0.941094788363332,0.9407272575473,0.940884981014713,0.93328884760206,0.929998531713096,0.929931739635098,0.929042489998257,0.927779993049012,0.927800387989207,0.926818277762356,0.926369799519923,0.922508890121234,0.921323615262723,0.919712116475697,0.919528590923738,0.919518199471615,0.91488311619051,0.914433542186427,0.913061473298727,0.912702592283788,0.913261530539987,0.913183888347913,0.912820768670377,0.912657206084181,0.912339623990519,0.91289668483933,0.914005751097412,0.915713723076995,0.919811992393825,0.920493740870317,0.922724973988111,0.925422883775069,0.930158877105469,0.931904294350929,0.931488485541179,0.931434467451502,0.931896019580746,0.932667672562271,0.954580339716046,1.17008801845923,1.18664996165464,1.05258430995696,0.921708704777668,0.937273363669605,0.911946653859053,0.911736208341572,1.05014999289515,1.08927172671263,0.901743476505842,0.896852415797295,0.897068277391899,1.01168204556699,1.08355096550059,1.08152953594106,0.916878832504736,0.906081885397795,1.1619104321263,0.897380602172288,0.897477275970196,0.897166237124966,0.889047588687708,0.889095758641379,0.88962907113418,0.889950800806246,0.890553338362831,0.890723980416427,0.890674101150485,0.890529108934422,0.890641457746652,0.890670328038237,0.890818338287578,0.900296405727037,1.03994572575399,0.882253292528683,0.883203137757326,0.887540558967042,0.887862608838792,0.888168659741027,0.8884231611511,0.888369036946894,0.887597242055004,0.886163318194673,0.886105168983887,0.886097971295213,0.886105028232415,0.887078551944974,0.88746350944057,0.887849704759033,0.887826282984965,0.887998944141944,0.888062583137985,0.887894485317952,0.888163218870089,0.888478333191017,0.888419810759291,0.888169051248646,0.88746762441053,0.885736509077829,0.885553146782516,0.893778280792729,0.895306685634354,0.895951455910249,0.872499597423809,0.873004388775619,0.873158935376254,0.874114109487709,0.874157934438824,0.874718768547861,0.976729064558634,1.02938083783708,0.889444269885765,0.88936256160439,0.88561567816549,0.885151456968286,0.985605133958263,1.0059258644668,0.919484461135553,0.921949440079552,0.92658995803687,0.927143195135895,0.927850705694217,1.17738910699362,0.989583467257791,0.884167389587475,0.883252733677595,0.883912512552104,0.887519602644447,0.88983994557981,0.891543785633086,0.896674052832629,0.890249781706521,0.890130591079368,0.890828015465719,0.892326048456168,0.894232644348476,0.896699152957157,0.898927530019524,0.899785316496912,0.899198829018203,0.900188873949489,0.901158646182812,0.903911333361785,0.905657702403536,0.906411215975661,0.907870191113156,0.90942117128931,0.911514500783529,1.10369391563513,0.922446745326367,0.92353992385626,0.923891151909525,0.925063991891267,0.926421538625716,0.928122714253313,0.929697556848143,0.930716071485106,1.10465060318643,1.10622092931619,1.10931140359915,1.11507989996792,0.974200995397414,1.11891272578682,1.21327580605857,1.16163127774719,1.17178860295477,1.03488950200922,1.0237387120139,1.02369136812473,1.02391655763041,1.13533506131918,1.12750172287554
0.941984630004809,0.941299936144651,0.939418828633029,0.938647115225385,0.937442927685483,0.936250128340028,0.928482041196596,0.927422159196638,0.926493197348874,0.926600491837592,0.926122375476512,0.924968866322433,0.923805632488793,0.924348582961641,0.929555641549476,0.92134341651863,0.921121711724379,0.915049498896372,0.914273085353351,0.913809413452942,0.914253163942179,0.913667734669882,0.913305462588923,0.912849538357465,0.912901125483481,0.912819177236464,0.913508026686385,0.915462227015289,0.917320226237406,0.919077588978201,0.921391820960325,0.984504176296309,0.92976643714013,0.931033663254892,0.931919605532797,0.932956597727611,0.932586056479501,0.99241124229073,0.990598355941765,0.951274654647234,0.934594248872173,0.930096853573969,0.947617273641206,0.937399334905789,0.916896998197024,0.91726742971427,0.91044885025953,0.906204155358851,0.901495351968964,0.897113072351436,0.896964879697095,0.897010724838543,1.16468157246785,0.91920155696165,0.913749154487073,0.922560851812541,0.905939324435368,1.16519954262515,0.898528977507117,1.17214897556893,0.890608119281181,0.890442900918806,0.890440504032283,0.890785500570507,0.891173601225572,0.891100827764619,0.890913502873408,0.890181260981436,0.890145299341029,0.890393169056916,0.890351215811321,0.889430874176857,0.903096006923393,0.882225263664242,0.882153040401586,0.882018297745914,0.902817023402218,0.888297002880559,0.888636368871896,0.887930350337522,0.888051251853461,0.88737792657036,0.886069062980671,0.886467355567208,0.88715840187081,0.887651807703982,0.887757117392697,0.88773968318569,0.887527024720677,0.887893500684959,0.887829704056824,0.887661333011669,0.888288828342317,0.888459089380728,0.888320369099905,0.887996062379514,0.887662615187949,0.886993541558271,0.89454311552344,0.89447513605837,0.895032347962985,1.00194398188006,0.949729836504087,0.872375407400525,0.872965230282474,0.874078144484915,0.874712534476121,0.875511396177841,0.975906067572365,1.01372214928163,0.98930963645789,0.98472214087073,0.8848169733434,0.884886008219074,0.910427556758445,0.911930389826014,0.91741920597018,0.996150878319149,0.956326289367216,0.928305388124703,0.929561082236848,0.930251770496987,0.930445470113177,1.1085336074165,0.883395451945016,0.884292604624954,0.886333442439361,0.888424526881791,0.890908724253286,0.89258297768794,0.900098748047904,0.889718339998778,0.889665355215098,0.890624996322687,0.892740534232955,0.894380958445465,0.897641130459755,0.899361478388767,0.899394869507372,0.900438684273597,0.901897694488219,0.904206398783492,0.906405710608506,0.907469892148068,0.908737159740531,0.909895245442812,0.913316448850421,0.916347465084486,0.922432445472966,0.922972213934841,0.901031244760589,0.901359407311309,0.931795899740682,0.929192550004826,0.929496100106274,0.93006629091524,0.933761576988621,0.97690566032049,1.23787938853034,1.09635917706283,1.17432044000382,0.9721611135225,1.09863687009762,1.03443803812155,1.12047106760828,1.12036739190174,1.13478934400351,1.03005131530866,1.15452478545179,1.11621304031308,1.01644267407378
0.945149650059896,0.940834553977276,0.940071819229032,0.939070725338623,0.937200072710723,0.934935775530182,0.928050102605764,0.926981877314565,0.926151031583356,0.925696910110919,0.925549634053606,0.925255232307175,0.925175651234807,0.925737996868046,0.926519846194544,0.923818288964059,0.921064005626848,0.917517854564242,0.915115681450923,0.914488974934189,0.914272830102089,0.913917483101425,0.913322119548716,0.912567707957716,0.912456393012135,0.91275599110317,0.913554547750813,0.915462196368475,0.917140709566173,0.918595938452991,0.920525697356015,0.942015079576143,0.929275821002439,0.9304299966026,0.931559025510783,0.93459309111099,0.947387764669632,0.956722064425902,0.955112398250346,0.94908238642509,0.937582643378654,0.940400633369736,0.941158530635563,0.940120992848225,0.929391371749982,0.915219460755356,0.910030184169062,0.905814828067487,0.903430273442879,0.898105708158164,0.897947015671447,0.936182476375768,0.956733083989897,0.919961908824938,0.920311743376614,0.922482249098102,0.90774729225554,0.926545142982455,0.920955828817584,0.964516598685791,0.891237090526757,0.891354801294695,0.891530774142805,0.891826978690327,0.891939187359225,0.89169761973277,0.891029997240863,0.890363046349008,0.88973239337441,0.889503039435726,0.889415036768626,0.88888644818711,0.887851291437,0.882621672951312,0.882540233794661,0.882501816520352,0.88382811567888,0.886114736594035,0.886928006119979,0.887073731531352,0.887322895415793,0.887006621592439,0.886052469942039,0.886135611259426,0.886945086854116,0.887433137367583,0.8875806567486,0.887671623458445,0.887710492081547,0.88787172887279,0.887920457098252,0.887975207562515,0.888092431706668,0.888074958125191,0.888003114617573,0.887739721387414,0.887577312468393,0.887914108964353,0.890338810932948,0.893656162846993,0.89444133644818,0.914258027720624,0.930560544524873,0.879608900353927,0.873435727920527,0.873788632470596,0.874250082066111,0.87481581325358,0.911883743544427,0.936486634650487,0.984816016750875,0.984358016381352,0.883682821508596,0.883860439014986,0.898272482076993,0.913734514996438,0.91499598254096,0.970566857215086,0.956573826854645,0.928762000152797,0.929800782871649,0.93027430449412,0.930385778533917,0.940672107118605,0.883581649508502,0.884301590492734,0.885991311457263,0.887925026977738,0.889293661685974,0.889800022179116,0.89506211180511,0.891383309519749,0.890063368876033,0.890450191691632,0.891903186729342,0.893851621560998,0.896287991101548,0.898439315579418,0.899943443370709,0.901247635730823,0.902836198291727,0.90494267867386,0.907714271880309,0.908727903335969,0.910177419824834,0.911823646854024,0.914179796881116,0.916601887601944,0.922368377079268,0.923204354560345,0.924449443678129,0.927208513173248,0.929452179648198,0.929089839548945,0.929770646640784,0.930270624497894,0.95708628140814,0.963862575637603,1.11017097126894,1.11956544870252,1.13616897790006,1.10028642865276,1.09975808959122,1.10361520294322,1.12111806951889,1.12092563171431,1.11209678638515,1.09475506423674,1.07963483465646,1.06456136674344,1.01912438010698
0.950527388840281,0.941261009078048,0.940880775869861,0.940317133938829,0.936895709880614,0.932450351210304,0.927971863541902,0.926010134079487,0.925234849650587,0.924527811980715,0.925001387567734,0.925289031941965,0.925677264499615,0.926402831158938,0.927085413817095,0.926546918532356,0.927027003096701,1.11798656278723,0.914899039940301,0.914294332606419,0.914231203910254,0.914308375969893,0.91337486472776,0.911574003908395,0.911530246414612,0.912109151971654,0.912473348517465,1.09548939228849,0.916614445880809,0.91733042889193,0.920682743608435,0.956027041695379,0.927569566243162,0.9292871359376,0.930063734609584,0.937864884763707,0.964536827669844,0.96221673015122,0.9520495299563,0.947145804866359,0.935966850544668,0.940605970996306,0.941519499766699,1.04428804223936,0.940564027564718,0.918305911636414,0.958452597332437,0.99426612232643,0.993764040823216,0.898419578792762,0.897662746545324,0.972631963964656,0.993703621686307,0.906973529454993,0.922061973275731,0.993984703999742,0.903953290811856,0.944325115991499,0.899466978562738,1.053758263282,0.891740925243858,0.892191662620166,0.892420440235392,0.892923664529957,0.892968921342904,0.892670737323326,1.17869266522283,0.920843279408749,0.888898649436971,0.888657431726035,0.889394923470018,0.889896932660913,0.887821864218127,0.88328598928423,0.882703419409636,0.882280049496067,0.882325937573252,0.977297235228524,0.88640779765655,0.886363707057629,0.887085111136912,0.887181847491328,0.884906668759342,0.885040667502492,0.887065439719647,0.887558105070793,0.887509765556195,0.887626273860928,0.88780912234087,0.887989121183484,0.888047232420926,0.888204173354915,0.888022267368774,0.887758486881716,0.887863913669844,0.887441686968725,0.887138741267924,0.886584555837642,0.886321360592159,0.885360437358079,0.884340777498178,0.890512074283219,1.14369514826124,0.894419080472058,0.873091207676605,0.873203128402817,0.873586848729255,0.874624145170193,0.875285860290945,0.875757679602023,0.985602556099313,0.984453236402263,0.881964783785512,0.881882481503174,0.882236721532724,0.914612992274649,0.911322683459695,0.989501497954582,0.957617805455047,0.927709084092455,0.930480926849521,0.931093545120367,0.931111400767409,0.949522135250006,0.882978216419673,0.883239811103012,0.885092928392385,0.887504577180403,0.888623975572764,0.888874758592135,0.904996216906373,0.905767524215678,0.889296263700814,0.889519729527874,0.890739829851881,0.89271359835503,0.895382853206053,0.89815805069604,0.900653732323572,0.90172310067593,0.903264203795589,0.905197171908318,0.910561123879428,0.909594246480481,0.911390340611243,0.912523649168177,0.91523234546968,0.917153144936467,0.922443070036971,0.923045671012958,0.92263376736015,0.927725428542211,0.927795110422671,0.927855501095315,0.929924562436218,0.930716480923309,1.2403224811056,0.935806659282934,1.09043522983972,1.19225600671799,1.14792043895453,1.10060277115645,1.02629381860845,1.13185762280823,1.13373565476691,1.13346409264433,1.09821122638225,1.12402789788581,1.02196169418214,1.02157575393052,1.01812277053336
0.946401487233478,0.941634436040753,0.941775637879931,0.940895222646722,0.93693139042453,0.933910546602558,0.93010183709552,0.925375038673251,0.924667984232438,0.92415527935068,0.924521049179746,0.925287719029197,0.925889709024841,0.926729871940558,0.927147881461697,0.926864627123249,0.927298968161363,0.971349903214027,0.970711916011369,0.972055258198629,0.915434022534423,0.915050572310873,0.914810439941805,0.912604304736066,0.911691612421402,0.911205219032361,0.910527909687674,0.916612603591824,0.917786706046572,0.91825455777766,1.15769760818025,1.03204679322,0.951567473641211,0.928597503023653,0.929551892842815,0.930353195009419,0.936358014490223,1.166572163542,0.952896040195838,0.942236724053311,0.940930523010297,0.939177163330995,0.937228830944017,0.930254483783172,0.938487112947785,0.91952132671112,0.998629499395724,1.00091445341676,0.99158936303753,1.02895686567901,1.03495279853302,0.896636033106032,0.895780731000947,0.905652112386578,0.905769330087751,0.903418037222557,1.15350786131251,1.15170072098593,0.893170295321289,0.893037396892698,0.893457025519784,0.893729246161142,0.893787756977294,0.893869541701204,0.8927221815845,0.909588814176523,0.909928150873488,0.885849547921785,0.909255298642786,0.888357689476154,0.886942796157283,0.885758483465877,0.886128489679398,0.885538599369721,0.885856136743363,0.882890300511295,0.882219064956158,0.882071035137524,0.975950512819543,0.886159580354615,0.886749195532364,0.886702318381162,0.885871895710002,0.885919828767746,0.886632008343198,0.887433290526067,0.887328588337782,0.886992104286517,0.887727757992367,0.887832982611565,0.888479282235365,0.888821900658415,0.888316518701894,0.887192170123525,0.887527942510367,0.886532935008814,0.88700196915655,0.887000711361003,0.885961942209368,0.885489641020118,0.885423219210155,0.888638169153525,0.892261299392114,0.895482604306357,0.873187785003564,0.872934573942159,0.872873299635388,0.872870287777848,0.873478532465704,0.874604889886205,0.874846066584648,0.874693940087,0.966238572370163,0.8813866054938,0.927199261423849,0.904464038805296,0.909234050111244,0.910484383901836,1.01813596185284,0.927138292991736,0.930004138487959,0.931911326529612,0.931596652368047,0.00388653039016904,0.995348607575277,0.883021038253098,0.883185618970818,0.982701390536357,0.888294873760427,0.888695470051737,0.894239418320344,0.899476646267134,0.889872627685903,0.888936295983863,0.889644506649748,0.892016890381385,0.893717020684321,0.896763848226264,0.898823551914004,0.901951988603579,0.903311125042208,0.906031513071173,0.910274289977124,0.911258919487004,0.912507049366624,0.913718724543378,0.917783390972107,0.919124977160301,0.921525518240205,0.924112073017548,0.92289445467181,0.926094482939222,0.926228085914317,0.927159964057047,0.931379438580758,0.932752671212163,0.933875358870161,0.935785261944461,1.19279008633735,1.07869011824973,0.949342164202959,0.956563898021736,1.08928867762147,1.04576479315171,1.06244131109043,1.13160858849228,1.13214440010074,1.09762590369654,1.10123314844727,1.09463340967464,1.11181428853606
0.946376884542598,0.944597802472871,0.943702991035364,0.942345932063887,0.939876242968563,0.933642845880675,0.93240897131429,0.926553603968302,0.925832856593361,0.924917127626536,0.925042158391036,0.926174610435564,0.926267936985333,0.92703306459789,0.92880039969152,0.981283470329624,0.00381212743896133,0.9628419880225,0.961037257198797,1.05822143947074,0.959566721533629,0.920128640163985,0.918116446178987,0.917574538004063,0.918103100241448,1.00854810138564,0.917498407752401,0.918112858415424,0.917487689711351,0.916128599622017,0.918893527083845,0.920410121229087,0.924861427755332,0.925688313152621,0.92956516212721,0.932437152328883,0.961014255397872,0.93936187413866,0.941620079207169,0.941920319682078,0.941843361439901,0.937596161628773,0.935937910425022,1.14104486762305,0.928267767928679,0.936680285495701,0.995594549157902,0.994776690289759,0.917581036048739,1.22550853460682,1.01706293503987,0.899194717396333,0.896994589867647,0.89421373577217,0.893451752802689,0.892774350237546,0.89204841603279,0.900470884601358,0.893776973058391,0.893643203027675,0.893782285712672,0.894819105888953,0.895517156854638,0.895538568261282,1.16905842029704,1.00392493845733,0.882780526957717,0.881588299055434,0.882468004783049,0.883546424320668,0.884387037467978,0.88525976082709,0.886899615799617,0.886819685445629,0.886933295498698,0.884905858244391,0.882604326374982,0.882172811218076,0.882834132704062,0.885826252743379,0.886086462149584,0.886430902612378,0.885493865254362,0.885802047485555,0.887092648272974,0.887305269022993,0.887439156792065,0.887992157836759,0.887729698711769,0.886375207799197,0.887632355326423,0.888022586640671,0.888490122574204,0.887327999321828,0.887883425863962,0.887069116135393,0.885770549497094,0.886490102670657,0.885802578828399,0.885449019038071,0.887412008567788,0.888320929272853,0.972859957547652,0.897392443291112,1.07920648105378,1.07775040938937,0.872039522297116,0.871781580939305,0.871787636798722,0.872917961789126,0.873280466587422,0.873519537118254,0.87339814209172,0.873091514611565,0.873107582205936,0.906441384126489,0.906671705788557,0.91044256740873,0.990061585007565,0.983951990290862,0.929975568410981,0.930700100632369,0.930694426169628,0.930146584188871,1.15091219911962,0.882192917236595,0.882186129546771,0.88302242072258,0.883594588555643,0.886434598318451,0.889801111935526,0.89523606326063,0.893291857208233,0.889392815632138,0.888925008739632,0.891234689922477,0.893274744034435,0.895491194329808,0.897817104233759,0.899817257103041,0.903318616152809,0.907864863199878,0.914250223076482,0.916053571532999,0.914189502386423,0.914371109468271,0.91962613946708,0.920849715996262,0.923266940361415,0.924507215000168,0.927067432985814,0.926205825910449,0.926578442686818,0.928161911923921,0.930400434460183,0.935926156734126,0.935981662846824,0.936015682245281,0.939205618240252,0.940137155084635,1.06539332051764,1.07969726440076,1.06723567723932,0.972959436279101,1.10683973309726,1.10737451580915,1.10882554765936,1.11143785454279,1.07363222387454,1.04100639925261,1.09390482941399
0.947162619367136,0.946680197196311,0.946051068823797,0.943922464591454,1.01181430861431,1.0105136227397,0.966593389284913,0.929164040043702,0.927249276810324,0.926650275631332,0.926470706310919,0.92630844911656,0.926685744174257,0.927266902319929,0.929076858269959,0.929568325560832,0.947434792537784,0.957184393389679,0.957150868672131,0.959551093586104,0.953642448400608,0.95583384163793,0.990182305512863,1.00562908671975,0.91910407462036,0.919921689027318,0.919025572816278,0.91885217256424,0.918590432284917,0.93608943243648,0.919636963268672,0.921656922828063,0.923942893279282,0.92519142885327,0.929833048409281,0.933926970236537,0.94170301211298,0.940328716970029,0.941252741345401,0.941611777382005,0.941548660325041,0.939380970554183,0.933516416621235,0.932657781433987,0.931369213252899,0.93495982998844,0.926964699418329,0.992643714189179,0.910535155564603,0.909212605492819,0.903289569020998,0.900745795379679,0.899791009942781,0.895420801614833,0.892913873831978,0.892020437012992,0.892044722799028,0.89366434715724,0.893694774157951,0.893775121882697,0.894113286326546,0.894639355653543,0.895159410258289,0.943492673828244,0.98116018538857,0.981868037597462,0.883017205893497,0.88205313604655,0.881957348249167,0.882558813666978,0.883472766034691,0.885015644619135,0.88702731087029,0.887118736371252,0.886829514446297,0.886359680792355,0.883961406517513,0.881998517596448,0.882267241483963,0.883713357933475,0.885797871657261,0.886271011033983,0.88670032084739,0.887027968044144,0.887603773161789,0.887665948757211,0.887694352239963,0.887917156030214,0.888119190093915,0.887925134604381,0.887392220244529,0.88787875490896,0.887917309694206,0.887852861332236,0.887628793047052,0.887206979842564,0.884872637031053,0.995650756833703,1.21711470846809,1.20322045585926,0.881250187492655,0.880908483603069,0.879069847017422,1.00115839380816,0.876938317816203,0.983334580166892,0.984520151046721,0.870609741155199,0.869703678221756,0.870138578190222,0.871240680131532,0.871885947126448,0.871459701954832,0.870392737690177,0.868828798069805,0.869186600308616,0.904824563179953,0.911697472098841,0.912544978383221,0.922359793352482,0.928656556697223,0.930540590084145,0.930810929804291,0.930131145093813,1.07753340639694,1.08450751057895,1.08328052543719,0.885075922851091,0.884129124417242,0.885296257900948,0.885570168010929,0.895926884653763,0.887323681859767,0.898926888548208,0.900711207954904,0.891249615918365,0.892708567152371,0.894911603724763,0.897242173215248,0.89999559863463,0.909938583356853,0.90981773780026,0.918645960625453,0.92002075172574,0.920779078504837,0.920680133691808,0.920816417864386,0.922426750312194,0.924688175612538,0.926088621743074,0.927016075165876,0.926939067093657,0.926287761125968,0.929566418124166,0.930788927073454,0.937916329521412,0.937559765582608,0.936483265817657,0.939072942312313,0.94068746560953,0.946916364777026,1.06618716217835,1.14516273037359,0.966413529070083,0.974997219468633,1.080246511384,1.12733147759053,1.07683782292449,1.04074996750752,1.04037499791402,1.07959511157207
0.948462651352883,0.947963476382697,0.948110591283957,0.949593110919763,1.0979278585521,0.936819771450628,0.935951599360856,0.929631141585615,0.928954487575661,0.927734170536876,0.927482377266352,0.926741511666374,0.927475502108823,0.927806715281228,0.928741013222219,0.929613821623658,0.952494755298671,0.950995772726577,0.950314214799466,0.949701377444885,0.948372681576467,0.948336725700429,0.951038231128493,1.00861159178324,0.921196969873204,0.921232742645418,0.920919084453725,0.920418452269155,0.928661259807999,0.956385324942929,0.921078821974875,0.924504065737684,0.925000582288015,0.926408723903192,0.928461468455158,0.944507824135101,0.98940793696449,0.960240971826303,0.940540891924666,0.940612585765469,0.94022143413599,0.938365010055904,1.12815604354223,1.00408503756174,0.924228977420892,0.924091077302162,0.923679455760416,0.922031084786637,0.923874957163408,0.908926857028461,0.905017827149194,0.900374954982652,0.898767969366484,0.897081941528852,0.89579417302869,0.893662628201818,0.893348712077419,0.893536078269222,0.893715369506538,0.893719931472527,0.894372170894159,0.894365444010869,0.894634648068903,0.89494058215008,0.89493158336937,1.00174700274451,1.00174124053588,0.882396359344999,0.881896477571679,0.882160876345575,0.882502136846001,0.8837767780341,0.885687863132642,0.887313597860257,0.887571329513186,0.887435523959441,0.887046698329702,0.882101494036148,0.881873364635468,0.882538103626765,0.886244955463119,0.886819165933722,0.887187088555349,0.88685164207841,0.887159630698582,0.887067255201033,0.887434332432346,0.888019846612896,0.888259838983551,0.887808676931051,0.88732291275114,0.887341006347795,0.887621454913604,0.887548323952208,0.887457370594349,0.886255329188179,0.884892272898126,0.883384462490567,1.21127401874889,1.04604936550386,0.880771443551162,0.880132727218766,0.879027671087953,0.876256749399258,0.87382234648862,0.873031655554739,0.872861327866965,1.05686006400796,0.868393267165077,0.868042600422846,0.868608951047675,0.870609548917142,0.870858911172481,0.869515642896865,0.867680147762144,0.867443393819433,1.01456518804628,0.909866974199802,0.99857746045413,0.999147848766254,1.00059040825031,0.930659285041736,0.930084531868905,0.930212894213802,0.930348871228795,1.10661509961996,0.889255609520833,0.888455773045094,0.884798575842957,0.885138453347601,0.885326305908782,0.886037492768237,0.895076506483287,0.906654838844308,0.953591130420634,0.891178995780469,0.892679650239413,0.894913070548546,0.898970762135134,0.901429980333733,0.907310251840698,0.908177134483935,1.02028023781333,1.09677568484579,0.920457311421147,0.920770719677139,0.919293682925387,0.923492752128822,0.92663245800042,0.948715628526231,0.949148116004314,0.949629089166663,0.933665832318673,0.934598379302597,0.935552310189072,0.936152127853406,0.945177360423561,0.935989919350302,0.94162539571168,0.942622025979275,1.05261545803734,1.0297145882216,1.04535340302105,0.966064240273064,1.05517342614313,1.07905747694123,1.03921011413696,1.06998473274432,1.02984226963639,1.02968282557266,1.02955868362364
0.950369285162463,0.949633966328045,0.949179157759976,0.949322366973679,1.11215602566094,1.10302916884613,0.935559408493089,0.934414785430351,0.931824514679108,0.930556123540873,0.929717962379562,0.929133100106849,0.93052486659713,0.930356653995927,0.930159447954787,0.930095256515427,0.972993612115443,0.951772368264589,0.95097816654474,0.951108697131599,0.946466993920392,0.945848517735327,0.945371571702974,1.00980973457181,1.1152499537895,0.998840085313532,1.02307951422853,0.924182778937948,0.925094341896411,0.954388516546007,0.941228653121751,0.925491182474804,0.92606686309507,0.926416712133509,0.926784090164023,0.926980528535213,0.962290936157822,0.962368484567061,0.939391217121911,0.939404483303046,0.940211369488108,0.997742686533901,0.933025300375229,0.923966151524302,0.924146783379239,0.923877209909125,0.92386839685627,0.997170034703255,0.922514552738574,0.922679235334812,0.903647465513119,0.902775134029151,0.898445700248276,0.897694684737486,0.897134480921397,0.894745169786132,0.893971716700681,0.893294815187469,0.89298482817521,0.893186297395149,0.893931104182025,0.894447151144034,0.894924519354157,0.895337859935187,0.895714589550047,1.11265158253188,1.16251226716546,0.920519566844628,0.882794989181737,0.882112699201832,0.882305640435552,0.882926449967925,0.911736888963736,0.887263076165909,0.886988299844557,0.887115231864959,0.88655894717119,0.882561682789412,0.882209899257496,0.882398804236967,0.902434967386267,0.886814334974211,0.8877522969273,0.887684255786249,0.887932627281502,0.887897453732283,0.887889176955876,0.888185836205616,0.888089739799084,0.887700258151459,0.887610909684893,0.887714082086381,0.887573863709458,0.887090428923049,0.886599069675372,0.886126416416354,0.88510435960546,0.883007292625987,0.883369071545018,0.897542144159283,1.27271288160878,0.882466387672054,0.881470429747835,0.874628223709252,0.874091456558195,0.872314976788393,0.8721224170793,1.0232559535997,0.87263607703013,0.86586361752622,0.865610389214772,0.86513554240416,0.950430467112977,0.949181583511486,0.86501760471518,0.865283760950183,0.89435208696336,0.894547761725988,1.02006059357851,0.996795140584119,0.956784562719478,0.929883121794398,0.929914006194802,0.929728417147922,0.92977532920261,1.07659319200898,0.948602025608605,1.06996209636954,0.884066792356515,0.884794681224572,0.885004365400759,1.09223481313345,0.896699325258824,0.911778829375071,0.912061099109913,0.896340157433823,0.900319260440845,0.900133906508608,0.899041205972975,0.905507881597051,0.906855804687233,0.908570044232601,0.908722517940001,0.896547805665874,0.895735238139056,0.944564522148291,0.920418278086965,0.921754864652278,0.948093227357291,0.948016322091079,0.948278662359871,0.960161220270817,0.939400131176545,0.939384472209531,0.93863327139524,1.23857001540674,0.976136260435381,0.951714478582894,0.95162465762994,0.944666105108798,0.94653455746094,0.947643497522124,1.0314743953617,1.04873534405903,1.08585064492126,1.03159692390108,1.03169441262608,1.02465713944735,1.0260315295376,1.02805191786218,1.02810484798698
0.951182204192645,0.951747236170089,0.950451564755694,0.949422064025988,0.947906597522554,1.10322284078488,0.93567871660033,0.934828939358491,0.933663529192536,0.932599679510963,0.931940681627827,0.931764971332195,0.930816090364058,0.930595713071501,0.930347031952921,0.930592478463792,0.955394600270496,0.95501436477239,0.950927595839277,0.95070087535833,0.946197338231778,0.944497348556865,0.943877508664767,0.941808824596504,0.941672831553413,1.06752763663023,0.991609291619585,0.989456492899829,0.929836505819719,0.941082286288331,0.929237053385971,0.927453456424785,0.926615019721348,0.925739037153647,0.92621710836106,0.927026472650134,0.928589426093194,1.1230972016726,0.938937143906903,0.939406915582726,0.939668287866442,0.9391369090317,0.931801174972381,0.930832266769755,0.929512676455118,0.924532784157962,0.923374573145993,0.922224694515026,0.99005032990931,0.984512002476503,0.907976333910197,0.906661612905337,1.12994304058491,0.899133273305446,0.89953383226266,0.894420779986988,0.893689287444929,0.89286858063995,0.892590088403088,0.89343374615328,0.893765917106683,0.894370297702173,0.895924311827477,0.896251578023446,0.89542709216159,0.895707109539975,1.17029124059864,1.17050446734885,0.882908668774725,0.882244826558428,0.882511239013052,0.882763970348313,1.15710194249936,0.88662318513542,0.88641313454203,0.884518827859953,0.884031894174897,0.883708173874462,0.882800984866656,0.88260054455263,0.9021959903634,0.90434929392095,0.888497454695507,0.888838542292902,0.889152175358796,0.888571785529154,0.888083085470856,0.887878394916015,0.888064224940139,0.887570646231125,0.88737896289414,0.886777647323229,0.886883592434395,0.886195515430782,0.885876443034737,0.884814640537932,0.884205924305648,0.881673627469475,0.881588387912436,1.16908443116974,0.877390080485025,0.87796276133787,0.878968358382454,0.873649559655126,0.872967315095049,0.871939764496323,0.870616114350645,0.870130886259924,1.03287082760494,1.01862733881187,0.863447695878779,0.863182075883136,0.863788683614677,0.866138729149179,0.864351496945179,0.863909411595534,0.864313928304907,0.865559330570863,0.872809632408979,0.984370957459926,0.983484214661142,0.997216958531998,0.929977345385026,0.929722190178721,0.929531265992849,1.06762671851421,1.01395161432165,0.893663921660266,0.884747021460095,0.884842528391955,0.885056379100127,0.89116286714333,0.891273580416081,1.06867580381225,0.912302339828506,0.901177161743449,0.901169863760623,0.901604203546983,0.905780887048175,0.905314953272582,0.910913784196024,0.89948841281536,0.89510948888901,0.909026739778033,0.89491361400163,0.89313800649542,0.883488773612134,0.905938550004676,0.905545845926183,0.91558633618375,0.906728549915808,0.936402974930237,0.961478982411127,0.961183049608789,0.949675069335326,0.951920529703594,0.952756578528074,0.949766501523585,0.949482173613903,0.945356250560057,0.956443387480226,0.958325860580103,1.0140295682965,1.00313587062774,1.06531256821582,1.06697014519692,1.04942078651324,1.02424345201514,1.05076171348359,1.06987849281386,1.02475918237135
0.953084509986574,0.952797514647196,0.973137936909471,0.950341952655099,0.950270042491167,1.10032185796539,0.935414407673296,0.935245830930393,0.934274707808818,0.933606863753035,0.933144483940652,0.932983857731578,0.925343022866773,0.925942900797046,0.930737077109695,0.93122702785219,0.932443289111247,0.960129115598165,0.950260697391936,0.948594121871812,0.946491671040469,0.944868759222143,0.941963690372922,0.940579969518369,0.938617628757775,0.937547614614142,0.934939507148597,0.933351357787704,0.931891923524728,0.931062957355618,0.929955938361155,0.928766227253042,0.927528664123199,0.922594733580726,0.92164613736707,0.922010120004867,0.923750521100803,0.980969472405671,1.01794413922176,0.93956313072193,0.939627431859741,0.939485634711519,0.933568663557519,0.931228506148146,0.935561280497289,0.926042424055768,0.925720777017327,0.922395815607651,0.920640735540037,0.918176802845631,1.1269561355269,1.12702519821454,0.903491209069076,0.901963144480954,0.901124431127787,0.900487526349367,0.893236312270566,0.89316524251308,0.892526585337915,0.892792566090297,0.892698578283685,0.89320208723885,0.894846728127403,0.896116303063696,0.896075804169491,0.896093235844619,1.0300786189871,1.09513555837918,0.984816076867552,1.03026261111811,0.883216825595234,0.999250537062101,0.921775230315257,0.912278636710295,0.888139134031082,0.888824282670883,0.889726722498727,1.12421958271159,1.2444489766921,0.90275146781239,0.884441334971468,1.15654944099824,0.889057080933518,0.889272113977363,0.889983745777526,0.889854308367794,0.888047517196981,0.887469154267711,0.887888990224976,0.886331078201053,0.886066072035321,0.886272605697526,0.885867390968461,0.88520498898242,0.88434594058019,0.883366355233779,0.881144340864084,0.879458732264715,0.879035921287694,1.3088930970962,0.877199216828433,0.877147607192012,0.87528701544079,0.873480912621413,0.872230828890458,0.871871486068075,0.870137887976788,0.868446242283301,0.867554733688533,0.867774547014325,0.861580359721801,0.861944675347299,0.862333280325661,0.866606611840175,0.866974018809491,0.86386704703934,0.8638778717858,0.868116752107956,0.996012860333837,0.978290753250762,0.979715631839399,0.99886883628027,0.929531997670746,0.929177941059657,0.928708488290532,1.06148455955303,1.04708017959193,1.04680154216048,0.88501301747777,0.884588211549236,0.891721933702744,0.891968056672959,0.891744320697785,0.902271206350692,0.905300223829867,0.907174275078012,0.908409358825737,0.908219655566007,0.910505409222639,0.978505845619885,0.896114259132347,0.896713443818222,0.896728821513744,0.896807432826976,0.895106522034767,0.895212002174218,0.902137416934642,0.924720442581826,0.900084144074222,0.956501353647055,0.938608696197647,0.934861672495088,0.964416138110139,0.943132929779529,0.957570092734262,0.947281618648891,0.947816760598749,0.945016659038218,0.944031378030227,0.958377317718401,0.993885046436623,0.963210656610775,1.01077891043982,0.993590379125682,1.05846270387864,1.00583599926444,1.00717813947169,1.02759474005534,1.02788944284666,1.02770977131091,1.03369301128257
0.953498848815336,0.951708140113808,0.950727989680214,0.950545019564414,0.950578173113876,0.950554324930461,1.09799291471544,0.935495975938174,0.934411292450996,0.934396307548177,0.933348120360303,0.933162256444012,0.925518884386392,0.92667725229146,0.927673193637663,0.932067239932529,0.932756631235425,1.02533033448237,0.957267111364374,0.947124932748859,0.945309014953068,0.944686852601286,0.940195494809315,0.939095898131436,0.936509810684002,0.935491295437243,0.933977715297319,0.931999533750559,0.930848302855133,0.929476793351009,0.927881515486738,1.08669253245034,0.921733767482429,0.920929124577953,0.92064742121872,0.920585198486801,0.921706218154248,0.984131595747254,1.09783752366825,0.940245699926744,0.940342899742109,0.940706944485957,0.941877795839935,0.930365461305894,0.92744088595265,0.926823158008396,0.926459894656006,0.925442292152656,0.92324531317155,0.917550637941096,0.917678183859731,0.909480447003804,0.904375893643213,0.901902088572125,0.900956515042482,0.900267802538401,0.917978505239867,0.89396180687803,0.893636263835874,0.893210286322951,0.89259419579352,0.893384898598008,0.895695218389183,0.896556487630572,0.897015496071792,0.89738845918347,0.897626465371463,0.911871940495117,1.02818383366517,1.02891492391794,0.884532587611983,0.884900536535996,0.919366894298928,0.887446925439511,0.889984108400616,0.890577460011342,0.890891868244666,0.891609286544722,1.14749164511773,1.16372550337024,0.885539123206382,0.885893930802551,0.887614041601741,0.889319530210699,0.890385120063401,0.890199274730772,0.888531442188415,0.887047634861032,0.88693887944804,0.885846533517771,0.885531603525273,0.884710980104895,0.884310309049897,0.883938386778168,0.882436367415275,0.880795443400418,0.879415196002785,0.877930245080597,0.876701603091834,0.875652111961007,1.08019351931136,1.0427068332893,0.87842141346286,0.873069243193162,0.872411635427484,0.872129093141839,0.869752571013161,0.868444884804813,0.867384660450058,0.867095879251576,0.86131493337152,0.862128931003867,0.862662343864393,0.863897282561482,0.869508801562837,0.949554944176142,0.995754238500324,0.873403341096328,0.95313042739816,0.949987041430003,0.987532359289113,0.969689049196411,0.96974027019288,0.927467873263358,0.92727881858353,0.926713902140848,1.04590716438029,1.05806658902401,0.946044876313737,0.946257815662735,0.905238954263826,0.889791120634918,0.898359239365201,0.905566619944791,0.905423576535594,0.91752640004615,0.90838838080913,0.892266187325837,0.911091041943277,0.912004695307095,0.954863687441203,0.894500696168417,0.928071997595041,0.91101090788202,0.913037966745216,0.891918921865838,0.935964298375503,0.945877646449195,0.928201569409703,0.92622440486177,0.925610173320612,0.922833409095851,0.954761364088344,0.937315346504042,0.957917282553975,0.945711652327996,0.942896955612823,0.943101590613541,0.974244255827863,0.97191589652787,0.96802350125629,1.01034338294318,0.973387931433861,0.990697460923734,1.01321067205431,1.01304145377083,1.03457368500632,1.0544136109679,1.02577580046273,1.02571711564235,1.04484323478386
0.953032697583248,0.951893812333183,0.951134467239216,0.95091136478771,0.950804324570497,0.9503311339626,0.949341631251666,0.941154960731402,0.935649569943473,0.934931482974542,0.933846937015202,0.933619373187877,0.934042329445791,0.933701547914828,0.933345248169313,0.93285593470621,0.933070038223315,0.940507577505404,0.95351290467119,0.95079950511849,0.943512395888449,0.942843795304982,0.940367848072493,0.938148170173362,0.935706229825422,0.933585461643641,0.932392684334327,0.930441951460538,0.92804770099383,0.925849931958461,0.925889369343039,0.923578387416194,0.921707875192397,0.921111230205395,0.920840605364296,0.920828171116132,0.921214445489912,0.985540418910314,1.01167145256316,0.940489240404716,0.940837771290341,0.94138983429321,0.942133928354581,0.933564260326322,0.92687372543219,0.926614798705734,0.925990086392222,0.924481221312322,0.922398501427483,0.919533028304967,0.917873521492323,0.91011702598322,0.905636208844507,0.900621272335092,0.899995351931371,0.898996193752719,0.897237348617629,0.894715435243394,0.893916134286881,0.893650680259037,0.893750695584417,0.894375104840889,0.895495695021058,0.896310064582007,0.896748094478851,0.897047147758487,0.897266645829307,0.900513863038816,0.900556203252736,0.901581871634891,0.904140024746461,0.908268295715522,0.914356386626735,0.907960563082638,0.905502994645394,0.892126172444057,0.892250310986386,0.892325470150032,0.892029294336948,0.890928662552117,0.888068559207734,0.886976826643785,0.887268644684725,0.888150960608446,0.889936950927916,0.889849012084372,0.888768904747119,0.887701215555687,0.886924515102242,0.885979718006096,0.884974554296174,0.884050566769118,0.883386603538354,0.882882319333793,0.881402849329279,0.879986194000629,0.877748622035775,0.876556551274179,0.875268059199101,0.874295108268022,0.873153726379306,0.87259693040499,0.871050252366247,0.871274009027645,0.871374367707207,0.870865760725079,0.869308682747672,0.868039474684862,0.866900426451766,0.865908677570025,0.863877093166184,0.863123511311734,0.863478278605016,0.865568033396767,0.868817965593038,0.954315681119916,0.956553619242947,0.955868760215364,0.953670160266278,0.9518653034113,0.964175559172318,0.968201265266535,0.968235034430862,0.927724685193848,0.927727126039133,0.939367596637292,0.946428484583226,0.939356543926412,0.931539931659014,0.919564413820861,0.912099725603365,0.895664423773337,0.898617102484226,0.900571316672875,0.902650607390326,0.913562200708425,0.91025027117561,0.909398791821256,0.908128749359021,0.902897494670676,0.900147538118317,0.89796055072449,0.89856449448165,0.90480074956358,0.916511193912727,0.917851454499665,0.927007873950785,0.945291184768163,0.945384251398413,0.944601756398031,0.942269028670711,0.940119329283166,0.953855419334111,0.952842246083518,0.951673514744344,0.944245185743993,0.943145890688085,0.943262032737039,0.954936144822934,0.957638642369967,0.961413188057187,0.969647527741938,0.975294303385102,0.982139551980452,1.00778677435938,1.01057858599743,1.03370806358495,1.03247770768434,1.03076197692401,1.03494236030887,1.04530540928153
0.952992410746161,0.951599500180012,0.950922858037551,0.951060563575054,0.95106969892097,0.949727631033948,0.947033843277425,0.968615303925352,0.93712334989118,0.935665669801871,0.93350889353707,0.933378095889736,0.933478756613282,0.937551303427567,0.938221966841774,1.03185675846415,0.932966197066748,0.933655068917579,0.963342109468737,0.961085967194638,0.944285548942034,0.942997854758145,0.959568187057959,0.937707390230754,1.09461709189922,0.931719713293702,1.0283627025839,1.02854258735013,1.10363336953231,1.09161014837128,0.919316523914783,0.920012691151641,0.920530439232435,0.920447162156985,0.9204083984509,0.920534341481434,0.921007742443979,0.987028819869025,1.08860902203235,0.940238465627326,0.940876749945582,0.941329335661143,0.941602919270141,0.93627965153373,0.927815132396323,0.927030591466677,0.92625478482472,0.923825376450605,0.922047887695767,0.920892145331922,0.960662696371369,1.12027426431531,1.05962007126029,0.899963780941471,0.899635823371338,0.898480229806789,0.897521236725425,0.894548599001953,0.893794880163809,0.893964811395276,0.894471103120309,0.894881822495672,0.895520294293377,0.896455971224816,0.89678902609032,0.897039597934024,0.897171783417738,0.89758632908087,0.889141949271095,0.888206858639428,1.19629501773508,0.91869709015896,1.16259817446527,1.16224102056273,1.16206639177045,0.893151452229111,0.893165365221447,0.89293532743749,0.89226256570166,0.891986974608642,1.23868224227415,0.886346019151235,0.886314170889118,0.886448156461072,0.891072401513718,0.890486395574063,0.889153179392919,0.888135087472386,0.887140542644168,0.88611685724475,0.884378613034885,0.883109797846326,0.882466704764711,0.882644384401264,0.880560484590849,0.879630630259391,0.875371862611028,0.875341026755462,0.873233139458717,0.872904539376178,0.871670728375506,0.869498648184222,0.869796257329997,0.86980509545016,0.870531420156753,0.870404421692508,0.868566885861827,0.867462181027168,0.866138540522966,0.865517132046275,0.865032763473866,0.862862568513099,0.862833890438065,0.867870009488362,0.869138353069482,0.966918200832858,0.875953233846843,0.972904688431288,0.980078743897137,0.886958346801629,0.887534251830558,0.990872963246188,0.988168004847083,0.917757792375209,0.918260757165564,0.962564170706553,0.961326743241716,0.895480232064619,0.892134454694751,0.877046512221387,0.918253575852954,0.892547846510067,0.899592088393122,0.899037698522939,0.891966148959449,0.923435563804382,0.895140704374581,0.939445317622159,0.937362887710333,0.892557009499614,0.894467587363722,0.895907853179427,0.897765068201679,0.903429471534759,0.959586813071722,0.92417088424552,0.914697258586377,0.943967942848876,0.944669048532814,0.944041143540977,0.951558421664397,0.938603649401507,0.981515041430803,0.981238803149647,0.95055610734971,0.944312137153783,0.942091899500647,0.943121722766624,0.947637493266576,0.95251756743515,0.953658985114888,0.969248811171585,0.977712407965435,0.97862921027529,1.00581068918851,1.00617036347452,1.03347336584015,1.0138140056865,1.02961471978747,1.0410074219461,1.04583343939935
0.954271585481023,0.95199220312358,0.9514067272616,0.951692239776197,0.95149360441898,0.951248696996809,0.951756408863212,1.08227252044138,0.939267133940129,0.936986215195048,0.935446114124852,0.934955436173204,0.933733206324089,0.933137642129732,0.931873063298939,0.931416342587077,0.931915105446331,0.93090998589458,0.930941047480512,0.931806024778538,0.931665575035191,1.21949144794618,0.935486997601188,1.02439821292871,1.13345227579156,1.02452834735278,1.02812208238013,1.02948497125805,0.919801182579984,0.919524999234648,0.918151314680014,0.91821325929406,0.918575320865959,0.919007150164188,0.919148035047527,0.919701193064655,0.921305165657717,0.926612127469291,0.971873367590172,0.96675637863695,0.940726747069248,0.940775234283216,0.940806643319552,0.940887060802511,1.3774464474149,1.09757865095444,0.926108313270052,0.925339159406562,1.17745454404,1.17699478500875,0.913004735584796,0.90918072641392,0.907574614326036,0.900084691019345,0.899658143081738,0.899289015169559,0.898754455105994,0.898112042945581,1.07703392646705,0.894425984363212,0.894886502647044,0.894677949660495,0.894800014415452,0.895574939610286,0.896652792254109,0.897132988751922,0.897655120276949,0.897769422373218,0.897020459434482,1.14876262296682,0.890126982061313,1.24386194384716,0.911673908531175,0.911651030075639,0.895829397992604,0.894623951549516,0.894409815547588,0.893579720538452,0.892655451123969,0.892601243109988,0.89175268684152,0.886477235309598,0.885650065418294,0.885314229595314,0.904642811964573,0.888753690332311,0.889275561457901,0.88965462095772,0.888255039110067,0.885111714459729,0.883441182242682,0.882659085717105,0.881580019570921,0.878068433609053,0.878624442021655,1.17359065917342,0.873858585803536,0.871334542294601,0.870769029789261,0.868903005847269,0.869745256266214,0.86984515192954,0.870255650811042,0.871191909414096,0.87167402040653,0.871343162794791,0.869161674546906,0.866954268791783,0.866415744826836,0.866223342518378,0.866029269535875,0.86472465278048,0.869420550441614,0.871103692707264,0.948929578179316,0.879014109739059,0.878836537001995,0.93924266863682,0.932580774162046,0.928641497304219,0.887874174444845,0.927455703613723,0.928215240630926,0.917845121262807,0.918313529189527,0.919005453134172,1.11877215085914,0.906644965939864,0.873869379692876,0.927056912137985,0.920585688061904,0.890741205814375,0.899840072464693,0.900755963889985,0.908862548733694,0.893198698691976,0.895436115599044,0.944205551411883,0.953581999310833,0.889921417637117,0.926980753038159,0.954019724723796,0.908700624161964,0.908761833869475,0.942847101305909,0.947516168873004,0.948577870981216,0.94410044933412,0.944909154081867,0.946364609650478,0.947754082659615,0.953662975247982,0.95618586749143,0.956523846806769,0.947273521987929,0.945431709580092,0.958332735556772,0.947409335609676,0.980774437234938,1.00915431623231,0.964191912874098,0.965978783103605,1.08123718689669,1.08444765185161,1.02490338600592,0.986437795284132,1.08176770906827,1.02358246214379,1.03821712750575,1.04252538742779,1.04863362955993
0.953655804747457,0.952079252766719,0.951597467705836,0.951799989745067,0.951536456442589,0.951096208224822,0.949552861023427,1.01453940498378,0.941663035636642,0.941625440827851,0.941189010267436,0.93611287099725,0.93361664019191,0.932034627756097,0.931767303886986,0.93192739406664,0.931837411138958,0.931626001085662,0.931281878905371,0.931168276671544,0.93083298490529,1.01346040977372,1.17447120844083,1.0944390584153,1.09352246127225,1.09285742443645,0.920786337202645,0.921014131706708,0.920339012495667,0.919673613399287,0.917992896526482,0.917914084287387,0.917726915592077,0.91840692283212,0.91860015861762,0.920002749510567,0.922001475498475,0.924313647704496,0.92522170851486,0.967525990622722,0.958780492118717,0.940566274278645,0.940174703455326,0.939430037703898,0.938773206674007,0.935719020227186,0.980721777639159,0.982511940310512,1.17703622262134,0.912837478115199,0.91240952359898,0.909803062186339,0.908143392958975,0.902072571452706,0.900836805987816,0.90017548331543,0.899960524066525,0.904703114158437,1.0860547716609,1.07613219228546,0.895994354458709,0.894568734764788,0.894322872609161,0.894830040946244,0.895956752421558,0.896434300761177,0.896947459159708,0.897217383763737,0.897144940605166,0.905980934682609,0.892815126112682,1.14143345760586,0.89796068347107,0.898183130292738,0.897892187604168,0.896830952770531,0.896537804188065,0.894411764506785,0.893757896608983,0.892782532417042,0.891017083733337,0.889408363108781,0.885209605562665,0.884792316014406,0.885141571490617,1.00508633416768,0.888611338493439,0.888815449125357,1.10363878943002,0.882381416326617,0.88219279956563,0.881749109098687,0.879533610454868,0.877051028449686,0.875496484708689,0.873874535763873,0.871822473743483,0.868953212362939,0.867785876928679,0.867799805915775,0.869171125488192,0.869870393685612,0.870428458300924,0.871377224347029,0.872103254735665,0.872075570200602,0.868606961126644,0.867413883555246,0.866282898068837,0.865894344794728,0.867466997187391,0.867999323895868,0.868940701596808,0.872632063947379,0.939653894554822,0.881357789486352,0.881591441225713,0.882038806011846,0.919894152968894,0.90012994661085,0.889303396352678,0.88931346966186,0.918144947753069,0.915651304845173,0.914784378551981,0.914424911266815,0.944925203477977,0.892278493668203,0.872588807773003,0.879374761589515,0.896614626002719,0.882389790209232,0.929618870129882,0.89459164295587,0.894976143388104,0.893665359198654,0.894577578993467,0.895494602667826,0.8967410391884,0.912620491226983,0.9251622042376,0.924138872897403,0.926578546783751,0.924588307339272,0.977733517976422,0.962361975402042,1.00094400596456,1.0003915091292,1.03488642988135,0.957247084308816,0.946630933759407,0.946047478534806,0.954493128869222,0.954864162424348,0.94811264009288,0.983371351152827,0.967191323596463,0.966995422474899,0.979947557339733,0.977721787257184,0.975801470368348,1.07631586363243,0.980290681983569,1.04914829009222,0.984382418571758,0.985194108372826,0.986433398169072,1.07869349008577,1.07875679911875,1.03585959012269,1.04263098352644
0.953339577632991,0.952463451232766,0.95133462394051,0.951184031189643,0.950854409989252,0.949464966893262,0.949122531521803,0.944906901759253,0.943115821898661,0.941293092764624,0.940296592340294,0.938884614580551,0.949516612434645,0.932008850258389,0.932720906628202,0.932610146233459,0.932622534666832,0.932806853723322,0.934699739893162,0.93511581948218,0.961901202908108,0.925070406157918,0.92553390822279,0.92518806022387,0.922765477769162,0.922603574834184,0.921975868489049,0.921399556071859,0.921038234011436,0.920537078598127,0.920247732135521,0.919079427401327,0.918738580809294,0.918810104522466,0.920053184962282,0.920014203864641,0.921985108596237,0.924535197100828,0.926567793761436,0.960681564550421,1.00278491454683,0.957421692542581,0.957502266477073,1.01365004419125,0.944568721200047,1.0740195292684,0.940227751249303,0.990639462386304,0.938898850979474,0.937617214372663,0.935866987609172,1.16746134564536,0.905088365656493,0.903401036973146,0.90190695753407,0.90064834137673,0.910276123537885,0.906668073982015,0.907367969733913,0.907545135936005,1.19966182375753,0.894038496805983,0.894135119123945,0.8943520388466,0.895454679731003,0.8960310102019,0.896670366135336,0.896498610725982,0.897093220238773,0.897527236052138,1.10034967893116,0.906339383117915,0.899590893645137,0.899381205996232,0.898706765237299,0.897566151187908,0.896759532103136,0.894817092206899,0.89404025791992,0.893622771818999,0.888809014138828,0.887566126110563,0.886351646711067,0.885072118602161,0.885126199061984,0.885774544270107,0.887367763844059,0.887735043452815,0.886747166989209,0.882146695481,0.882116817923921,0.881700155279585,0.879058248060718,0.877994996966039,0.8732587332814,0.872822012354044,0.872632140213996,0.868568985801403,0.867729015545992,0.867813690740431,0.869137532950719,0.870151439413099,0.870157053227094,0.87102861226048,0.871757673309919,0.995467100745199,0.995380734304882,0.86772846825757,0.867268378389917,0.869364082792003,0.869370608497489,0.868758179868905,0.869424928023659,0.945963263500681,0.899110002868503,0.881775901812872,0.882343745090622,0.882348155211176,0.882541250778268,0.887334010757854,0.888244250599863,0.888828440140629,1.00352379085983,0.912853570257823,0.912627580681114,0.911411234822177,0.910512954332947,1.03448977343043,0.887230890300321,0.890464863741378,0.881219373222835,0.881482277277231,0.921170171456205,0.89489785286597,0.894996984917328,0.9596290566865,0.975428977260706,0.960851786577715,0.953981478770982,0.943613518082536,0.935584564936528,0.925186485148057,0.926245412636036,0.953211197504148,0.962264284331963,0.969135571495277,1.01692564731908,1.02400578935908,0.973485797100609,0.963061347406837,1.00410493677301,0.953861580783586,0.95549169201289,0.968279993275379,0.968251523047146,0.967868597249591,0.974965784871504,1.05383194963847,1.05345786616842,0.977079004681089,0.977691349015174,0.978760956838846,0.980416989197205,0.982691052261807,0.977600790921084,0.977963825337815,1.04113858081581,1.05002057143826,1.00098278863218,1.00137124886311,1.00918591725723
0.953385554362388,0.95327174460524,0.951670904793654,0.951010606121657,0.950538870704678,0.949151504121565,0.948144986412934,0.945470558301151,0.944016919769424,0.941937204937766,0.939938232816058,0.937756253810809,0.934239363283933,0.933372949677266,0.933951930473898,0.934377565949447,0.934125870956124,0.934271209273249,0.934668547409853,0.934536467046932,0.962401896511167,0.925537381313099,0.926196869170475,0.925796183397634,0.923700647995865,0.923463197346406,0.923405423946771,0.92338318746825,0.923225953980774,0.921437342038036,0.921205024994871,0.920867946782773,0.920263203940376,0.920633442322759,0.919528009298587,0.919624135610227,0.920631100929746,0.956441489090067,1.00630378876702,1.08464705553024,1.06432788853082,1.07296991668178,1.07344759646851,1.01567147934483,0.96436097144264,0.934556834924411,0.934601439991409,0.9792351362068,0.980766354646282,1.02173171982361,1.02204249939357,0.915527988141671,0.953731666701275,0.904156183831211,0.948342124569494,1.11163429051276,1.11157098304909,0.885428134696574,0.885601147009237,0.907355857757304,0.913177209573646,0.893993953566811,0.89399927338164,0.894550060829081,0.895200172866728,0.895592183565078,0.896722349575951,0.896991110313423,0.897320145636941,0.898617923896833,0.899350298693733,0.899875191334744,0.899903422797003,0.899850788418403,0.899559372041509,0.898980037718912,0.897128788241022,0.895177372749256,0.894267602905658,0.905138599238949,0.886696996951182,0.887299268175299,0.88728184732105,0.885713707076842,0.885280631203986,0.88590836693406,0.887161353453527,0.887623779063332,0.887191549497394,0.886957501513806,0.884257977448852,0.883527924070026,0.880166523301646,1.08286531147559,0.87068546616808,0.871775592422979,0.871824302391118,0.871098884709758,0.870240720715524,0.869017925904699,0.869155571154307,0.869961571932832,0.870212702726738,0.870433652498498,0.87169935499495,0.978319222039344,1.12199501228336,0.887022466342263,0.887396592343126,0.877092453237435,0.87741188893841,0.943132962925906,0.966471521466266,0.937831086510672,0.884679555626108,0.884247044180623,0.8839243961608,0.883346235248681,0.883487291508789,0.886398701067264,0.887951113106967,0.995106775803699,0.912287306241206,0.91240828968563,0.911730878670947,0.909470135428296,0.9062071353651,0.945517118391971,0.901253988672783,0.889279782877232,0.889122030300709,0.931499324972507,0.903329979855572,0.981825113796959,0.952966367541375,0.95343330896591,1.01670836834985,1.01547309704737,0.996280255900877,0.958557602754474,0.961328365077846,0.950386330680232,0.948409911539807,0.949300057456828,0.978452808831264,0.981734858914885,0.996975053410131,0.999238976840197,1.00178924999551,0.997882872073823,0.962964417343323,0.991423643324911,0.999350338146047,0.968543303251575,0.968527296698441,0.989783014343833,0.98560680316137,0.996068910861959,1.02276916330921,1.00457881401664,1.01346136553645,0.983493030949801,1.06726865155158,0.972460962706652,0.977169063065369,0.977983689517354,0.98698282554488,0.987063276074694,0.9996850399212,0.999987129761709,1.06211496603351
0.953730015101565,0.954028007091757,0.9562719797402,0.949393940304779,0.9490364082785,0.947347296399377,0.947175296363887,0.942935006111379,0.943445144764673,0.94183478129443,0.939316424844139,0.938359748078562,0.936673725469044,0.935349836656631,0.93568336862251,0.93540472757269,0.935437722229876,0.9353810795326,0.935162869639146,0.934431621739498,0.930956994209325,0.927181947360867,0.926464828884351,0.924891285777044,0.924278272122166,0.923746283859729,0.923605117805058,0.923579240229518,0.923401184622958,0.922483686393809,0.921193624173635,0.920634914962806,0.919874399438486,0.920194194156597,0.919446246324229,0.918780228352505,0.919244971774552,1.0076060505651,1.08541252584182,1.0902893589568,1.08779613905668,1.05907982682997,1.01962619121954,0.967945070007885,0.982059452233676,0.982254344953746,0.950383985528996,0.948916343498236,0.981680349428525,0.92367818451921,0.912788747945464,0.98992139469291,0.990790436531831,0.955597028228917,0.94320326162907,0.944889767365227,0.923917377070508,0.887151853711717,0.886494497132332,0.907660351455935,1.26142113217963,0.894693843417491,0.894331165382189,0.894391882793405,0.894669278532321,0.895328564578061,0.896722508825974,0.897167810532338,0.898169094278022,0.898275708778155,0.899034940869142,0.899719735241529,0.899876443011874,0.899657015846708,0.899616959575873,0.898728818249316,0.898027656805235,0.895207292295314,0.894357532199952,0.901607017524276,0.88886290242364,0.888017695716575,0.887561559542282,0.887373426572661,0.886085968078802,0.885931868642706,0.886855577755088,0.887629581783764,0.886740744718418,0.88566137733661,0.884548159917835,0.883979503725014,1.03830967077254,1.07471079775459,0.870054775804507,0.870620305269856,0.871954779702329,0.872692912429127,0.872183050981736,0.871545835875619,0.871374171560291,0.869772285458499,0.870116261009494,0.869655379419207,0.869918688758824,0.995228084649586,1.1113363606969,1.15946766907268,0.968578295643647,0.875007205916897,0.94596126214231,0.943765738811088,0.889413145785655,0.890580319789386,0.890820815317604,0.923556159172378,0.923270798828145,0.922482388098836,0.911029379618235,0.89479272430246,0.89686312542032,0.932515020662823,0.914299777138673,0.912629514216549,0.91252468027162,0.912263857122955,0.905769766251491,0.934062242997772,0.909466892958686,0.942833705553774,0.944565960853599,0.932502508001992,0.990086817398088,1.02340972460544,0.922551318095111,1.02458013896095,1.01252833560559,1.01254424395896,1.0121440023804,1.02848585806853,0.95850928431328,1.00611656499473,0.966024508067443,0.966061771868726,0.993866689277437,1.00264089921645,1.00250371404613,0.989794982548624,1.02395988215764,0.978876953798052,0.992191340409365,0.99097618863268,0.985338664280014,0.984005435922187,0.998418141079793,1.01734339720178,1.01371313313433,1.02010295906577,1.03142992046143,1.03343751482931,1.01905728248404,1.01929899943717,0.991214361482926,0.978543978229494,0.981886131864975,1.08780739108442,1.04178013904085,1.00791164826236,1.01810936953934,1.02568530015655,1.02429712354238
0.953402224400143,0.952218163723408,0.949765293950131,0.949014317564351,0.947326596037054,0.944883522091901,0.944166881855322,0.943166685915923,0.942599037197469,0.940238658293627,0.938890177029446,0.938808391885707,0.938735231165738,0.938830685972808,0.93748722127358,0.93685833289455,0.935947302218104,0.936378057695292,0.935838034500413,0.934768945552956,0.932397900458264,0.927449538171913,0.926255326772498,0.92523323867876,0.924956640585509,0.924212473852668,0.923618411958579,0.923010804635124,0.923562303418397,0.922739539553046,0.921968385010335,0.920765518906447,0.919483105514555,0.918795060658661,0.918761078949192,0.917245375017471,0.918147040909745,1.05082485826213,1.05065795977688,1.0057074528181,0.918315607073489,0.917375752592135,1.01038813047271,0.960557049147705,0.971800422305367,1.00389150121418,1.05594823573843,1.05593673054848,0.996871000564937,1.09077586385706,0.912245230722989,0.907503986934179,0.907239275467972,0.906642373480914,0.89952230298021,0.898720498755508,0.887803545056168,0.887337950754755,0.887266086381886,0.907109903590802,0.905803600366435,0.896172435337057,0.895423486732746,0.89533910622931,0.895488513030562,0.895415843410867,0.896217884991721,0.896882543448619,0.897750985576833,0.897858443819358,0.898078372023325,0.899485953470166,0.899702771588742,0.898996406838509,0.898963162058513,0.899002432328725,0.898452009766516,0.897609140066629,1.2271847997705,1.22795024455851,0.889420865862763,0.889053483923866,0.888019150883416,0.889054480739078,0.888754290024452,0.886600255401797,0.886538738795087,0.887788928912012,0.887599787436087,0.885699794374875,0.885116502676483,0.885168735077145,1.07337809710964,1.07386080489613,0.870003089108835,1.07087351017692,1.08030928523392,0.875069696779663,0.875246227008019,0.873489810119793,0.873355374818858,0.875380173547397,1.11151832695623,0.983823996305024,1.10424308794687,0.984559246657573,0.8818587494109,0.88181270761914,1.11568159558725,0.968811958599869,0.934383905575578,0.933648582475822,0.945324101224698,0.890441791869475,0.890214412055138,0.894472140392409,0.895099222587209,1.07352745761896,0.999186411263083,0.894100760687353,0.894505002963244,0.943357896424347,0.94193053277167,0.913888035210501,0.917087157261395,0.918181765166844,1.04214075159079,1.03540765773456,0.952754419702934,1.02136564917277,0.960854655368929,0.961107973316464,0.943438385544136,1.04300908788399,0.948726102677751,1.02088906415413,1.02021945910152,1.02257034776419,0.982272231816097,1.02903531491952,1.02822778548196,1.02214446260203,0.981951408624511,0.965334487406952,0.99852878999658,1.00441377966849,1.00477419626143,1.03622628543194,1.00152353707856,0.989553043505162,1.01913185375596,1.0016289952759,1.002503636815,0.992298326122742,1.00745932533376,1.01890259923896,0.989273544873953,1.00426259041806,1.01070812102927,0.998054780283958,1.04300478250799,1.0691325436066,1.00580694319554,1.00607222559723,1.01914958934828,1.00002141127748,1.03054273472917,1.03342771874541,1.01449893556354,1.02592642561771,1.06212552463175
0.953341087392195,0.951278064093488,0.949703855584336,0.949381759541326,0.945240819707491,0.942789886253084,0.942056138467011,0.941925775042172,0.940946622187966,0.942857520028877,0.939911281459564,0.939010845507358,0.939134899166309,0.939368929813651,0.939219961633987,0.937787170247746,0.937081294858538,0.936608039781152,0.936073596412032,0.935679241635281,0.93318004555904,0.928448487597678,0.927120227660855,0.926650381791173,0.926417697122168,0.925205776536569,0.924023009110843,0.923598678916813,0.923295704084069,0.922657979261251,0.922227640918131,0.920621629543215,0.919139272767347,0.918423262660413,0.91747705397281,0.915710288316946,0.914860660326867,0.91281198511292,1.008530230535,1.02576358321397,0.915096116045973,0.915396416651246,0.914796263955265,1.0579298003191,1.02008261115724,0.967090955392992,0.993434053225971,1.15664491877776,0.921235060360541,0.954440281038141,0.906813065049158,0.906007114130029,0.905310036526837,0.990825782074623,0.921358029404811,0.988756536967245,0.887962615921195,0.88786378095622,0.888158043846284,0.906534507755096,0.904555419445829,0.90051180673821,0.896437076419983,0.896332675308822,0.896368613126079,0.896078463288744,0.896367009118233,0.896874380204004,0.897719772961644,0.898005714711447,0.8976332606639,0.898324607416112,0.899118485694588,0.899008150037125,0.899278251191555,0.89912021647819,0.89891259244345,0.897720910242848,0.896416588260017,0.894242011930329,0.893704247900237,0.893003674619623,0.890194299622275,0.889901024088541,0.889316801026189,0.888210433650329,0.901706167034062,0.907701575246239,0.888828016923447,0.888235552412836,0.887519537065003,0.886413266709263,0.886307617792481,1.07313634902493,1.03134367425531,1.07027434736352,0.877710997659802,0.876654900904085,0.876249580465187,0.875487650071388,0.875488356878131,0.875625549205119,1.11781915400131,1.11790608576084,0.974267559267673,1.08173683706762,0.986258343679497,0.927213860129485,0.929982128289879,1.10684157156932,0.94253837724986,0.954699598986182,1.11174502239177,0.977889002014536,0.895987810216214,0.896217169851003,0.897095511867953,0.939766236329063,0.999986959101297,0.999757011602541,0.985829053247744,0.9874939217,1.03150286877604,1.03135627822504,1.05330503060534,1.01717334985284,1.03453074028256,0.9489560842476,1.03060649337488,0.967627437469219,1.01776693214225,1.01940726477712,0.96122866333205,1.04301490901989,1.01290589321827,1.02254492396121,1.03106263753446,1.03541277925914,0.993634662587099,0.994375853167294,0.993104996337876,1.03269469133722,1.01355326078229,1.04003847958207,1.04479182190825,1.01142494871784,1.07457530442203,1.03024914068121,1.04301091834795,1.04382300366561,1.02851118324061,1.0176359765696,1.00807768486078,0.996105186540701,1.00820181774213,1.04961682471812,1.05023839019479,1.02746446372512,1.02667558214939,1.03806634140019,1.05231212620974,1.0533573721818,1.05454083977575,1.02084482455731,0.998876055830833,1.0650089321005,1.02118038764733,1.0322731174672,1.01395242304656,1.03224052653502,1.03128158134185
0.953548662538666,0.952044049184748,0.969415792718577,0.946395272391308,0.944072360921995,0.943183931552381,0.939526761373145,0.93837011545707,0.93559826334749,0.935485445569038,0.928408828708041,1.25820971720437,0.952382675986372,0.978892507918856,0.938733059378477,0.938464476870823,0.937959135446837,0.937637962531047,0.937336677798449,0.935623508618153,0.931104381813719,0.929272607716324,0.927960858870654,0.92779886432918,0.927273433411498,0.926346194628942,0.92518930865566,0.923895774152647,0.92348360631011,0.922605021539354,0.921653047395207,0.920520091044894,0.918939778789677,0.917347076756433,0.916137789015518,0.915785772113838,0.912978794152885,0.912164065030024,0.907505955883842,0.908100350039831,1.0553121737539,0.914179312729701,0.91406211042987,0.914628471781131,0.915083318415115,1.00449334938049,0.932946610678139,1.17271833852279,0.926409126636373,0.913320278572433,0.905939793792253,0.904236241509159,0.904070044322328,0.924108340163117,0.988922287417582,0.986767530416745,0.888279506153046,0.888096766039947,0.888467268390137,1.10243019239632,0.901174766002402,0.899878879363619,0.899009949076074,0.897118594676585,0.896604781076201,0.896185324856958,0.896375600025481,0.89692896227489,0.897257087834145,0.897472363045226,0.897902160265159,0.898155474998055,0.898810157630994,0.898692122354767,0.89851004684275,0.898263561265013,0.897767585692732,0.897273738242152,0.896475969888789,0.894280963809113,0.893891364190148,0.894055051363545,0.892357987882301,0.890807384015571,0.889709831411714,0.889631704120915,1.10657544864313,1.10613229639744,0.889924134787386,0.889251853753816,0.887996392557449,0.887168942223502,0.886138309611714,0.88590181364691,0.884685215021676,0.883159138436212,0.880833447243862,0.880258633793488,0.878381323967427,0.879370283818271,0.880291699688211,0.881355549969516,0.992914147835966,0.885066740423034,1.08349793560244,1.08245420240683,1.08002655170216,1.08551221745348,0.901042138694655,0.943219856357516,1.0905256239792,1.14907340506121,1.00548366935129,0.943092214067406,0.929363026981355,0.897672060869816,0.926535682235904,0.939832003866486,0.906044345589088,0.906481749701773,0.999268164516141,0.99598839665981,0.959771131176626,1.03099148475452,1.03955643652493,1.03086520653121,1.02930700045322,1.03158308680292,1.03172718810452,0.967696419858057,0.981417377010226,1.00397592500494,0.983729097199107,1.01914179775797,1.01954717957474,1.04256026805146,1.00751783105086,1.0372014314012,1.0106470851973,1.01100391676225,1.04980060162112,1.04136355903395,1.02822662580774,1.02665776330836,1.05856639141983,1.05810595267981,1.03667286317443,1.03577212924411,1.03130405457071,1.03180235059865,1.03338868908068,1.02196566625012,1.05212964678062,1.04059267940355,1.06121964693588,1.08247955006638,1.07311677699391,1.03174299771031,1.09975504811125,1.04518236293312,1.05972338163568,1.06079071295436,1.06031230253696,1.04602901606307,1.02077472572303,1.10361787449288,1.04521604971753,1.04152349423485,1.0573583947738,1.01742774597289,1.01888742809244
