1.00429355925886,1.00368056217284,1.02815602553485,0.997923719973718,0.996511161471156,0.996306829109149,0.995978120526792,0.997417331076573,0.997977024068154,0.999096410051317,0.998527833043996,0.997470635171009,0.991891473286675,0.992993091238359,0.994050289111346,0.985477213922838,0.992664382656001,0.998669977295826,1.00385824248763,1.00457784776252,1.0062213906743,1.00672777957145,1.00731412461025,1.02603274577313,1.00369833020432,0.98848889525849,0.985681546284844,0.985299533608051,0.986800932268007,1.16870115453193,1.00537740917906,1.00320970933865,1.12941603693237,1.12962925331011,0.978174552985063,1.05836167904876,1.07119019777643,0.970791935905634,0.971493773149045,0.970747515826937,0.982003563768738,0.982429996524229,1.07413080698617,0.994059173127085,0.990683247146118,1.11098170427314,1.00062446075849,1.00248122004802,1.00692322791772,1.01845468034744,1.0184902164104,1.01538081090161,1.02206159073763,0.983744830853658,0.973084011966395,1.01050348626069,1.00977499697006,0.998856541626353,1.03735098182511,1.0899265869708,1.08727915028046,1.0857777516205,1.10572236695542,1.16912758728742,1.09809099743529,1.09500824397372,1.12940715291663,1.13234776212636,1.14994699730609,1.12485853685806,1.12571140236904,1.12682190433646,1.16661341083317,1.22242279770799,1.15541955100155,1.16919865941333,1.16938522374386,1.15968387855645,1.11935933111538,1.1196347356033,1.20302010733318,1.2237998201476,1.18807719285953,1.25498271539284,1.24675611681817,1.1971833089924,1.20837716882403,1.20886578968969,1.17087773838808,1.20509008300045,1.160483439973,1.17522202208464,1.12865201157878,1.13314732354291,1.1613629575312,1.16617809406194,1.16729748004511,1.15103084722629,1.15688541359855,1.16345958524569,1.20891909378413,1.20677804599094,1.16941187579108,1.18781067238735,1.15126183163551,1.15726742627534,1.17647466830389,1.15233679753998,1.12999349795543,1.12952264512124,1.148347874473,1.17325865460623,1.18179619373178,1.24909261295763,1.18539422010624,1.18348415672227,1.20863480528047,1.22966327053559,1.18292446373069,1.18361741695836,1.21165537063186,1.16752846445433,1.14995588132183,1.17505322578559,1.1994842690689,1.22800195959233,1.1708599703566,1.16990049665675,1.25508932358172,1.25486722318823,1.22960108242542,1.21271256850485,1.15824466800667,1.15940847406853,1.15959503839906,1.15399810848325,1.14396805471348,1.17464456106158,1.13888639771055,1.19456252434928,1.13981033534745,1.18501220742944,1.1858828409719,1.16791936114686,1.15509084241919,1.19171963931268,1.22633176463332,1.17168618382036,1.17272561366187,1.17471563318749,1.17802048704255,1.18198275806231,1.15673438533098,1.16957178807439,1.17706101334269,1.22545224707513,1.22423513691883,1.22372874802168,1.23058720817249,1.16035017973691,1.15050669029767,1.15249670982329,1.14218236754986,1.17597716342249,1.23520689635697,1.21713680834306,1.21386749055097,1.21280140866224,1.1822048584558,1.15837792824276,1.1578004672197
1.00808703397957,1.02120872522665,1.02094220475447,1.06755663533902,1.19713000489796,0.998501180996778,0.998856541626353,0.997479519186748,0.99673326186464,0.999034221941141,0.999753827216031,0.994938690685284,0.994787662417715,0.993801536670643,0.98935952880095,0.988506663289969,0.988568851400144,0.988995284155635,1.00938410027753,1.00313863721274,1.00292542083499,1.00401815477094,1.0039648506765,1.09187218641772,1.00653233122518,1.00453342768382,0.98762714573177,0.988400055101096,0.988897559982502,0.993650508403073,0.993455060056807,0.993757116591946,0.99152722864136,0.98964381730461,0.987733753920642,0.987724869904903,1.06773431565381,1.11278515946824,0.973466024643189,0.972675347242383,0.972684231258123,0.970489879370495,1.08921586571165,1.08936689397921,1.07269159643639,1.08745683059525,1.01290217051032,1.13350268417248,1.01586054775154,1.01631363255425,1.01715761404949,1.0164380087746,1.01677560137269,0.991802633129281,1.03691566505388,0.964653081029718,0.99847452894956,0.997790459737627,1.02418487049934,1.07441509548983,1.08825639201179,1.08951792224678,1.08492488610952,1.09333804901472,1.101475807432,1.17896219271092,1.17865125216004,1.20110115993347,1.14280424865162,1.14203133928229,1.14852555478778,1.13756267936538,1.13771370763295,1.16310422461612,1.12906067630279,1.16011031131194,1.12866089559452,1.12860759150008,1.14851667077205,1.18012599877278,1.18088114011063,1.18851250963076,1.18463019475265,1.21431169133794,1.20231827008976,1.23365219360258,1.21311234921312,1.21583085802937,1.15798703155023,1.15821801595945,1.16008365926473,1.15329627123983,1.15431793304986,1.15676103737819,1.1621980550107,1.16234019926253,1.15508195840345,1.15075544273837,1.15019574974679,1.20652929355023,1.21586639409233,1.21546661338406,1.20879471756378,1.17005152492432,1.16715533579328,1.16837244594957,1.15842234832146,1.16624916618786,1.17644801625667,1.20107450788625,1.1564678648588,1.18533203199606,1.21830061440492,1.19081346970726,1.20385520481268,1.18389282144628,1.20104785583903,1.2249725102252,1.23283486415455,1.29465872968494,1.24838189169848,1.26135255467798,1.19736987332293,1.1627399799708,1.14422569116992,1.2153422371637,1.19391399120031,1.18535868404328,1.18990730010184,1.22143667196092,1.22045054621385,1.21071366496348,1.27708614655244,1.21871816314467,1.21493357243969,1.16895879098837,1.16775944886355,1.17153515555279,1.17226364484342,1.22947670620507,1.15900869336026,1.16055451209891,1.16262448776619,1.17769177846019,1.22194306085807,1.17362289925155,1.17168618382036,1.17242355712673,1.22762883093127,1.20081687142981,1.21376976637783,1.19363858671238,1.16640019445543,1.20941659866553,1.20859038520177,1.17505322578559,1.17484000940784,1.20601402063735,1.22506135038259,1.18136087696055,1.14793920974898,1.14116070573983,1.13479086645469,1.13355598826692,1.19027154474716,1.13937501857622,1.14048552054364,1.18086337207915,1.18218709042432,1.1810321683782,1.1182577131637
1.01114313539392,1.00949959248214,1.00869114704985,1.00878887122299,1.00942852035622,1.01575393956266,1.1031904224697,1.10137808325886,1.01475004578411,1.01508763838221,1.09578115334305,1.00010030382987,0.998163588398681,0.997035318399779,1.13165480889869,0.988186838723351,0.987502769511418,0.988675459589017,0.989626049273131,0.992868715018007,0.997355142966397,0.994432301788139,0.991447272499706,0.991260708169178,0.990212394311931,0.990008061949925,0.992015849507026,0.989572745178695,0.98965270132035,0.990487798799852,0.990505566831331,0.990905347539603,0.990558870925767,1.22141890392944,0.98805357848726,0.987538305574376,0.985912530694068,0.985077433214566,0.984837564789602,1.06729011486684,1.06721904274093,0.970187822835356,0.969823578190041,1.04551539228961,1.04635048976911,1.0372354896205,1.01345297948616,1.01436803310732,1.0157628235784,1.00410699492833,1.00203701926105,1.03463247300886,1.02610381789905,0.984917520931257,0.968251107404169,1.03178070395652,1.01568286743675,1.01604711208206,1.04982413992321,1.05052597716662,1.07692038792834,1.15428239698691,1.08339683540235,1.08263281004876,1.11454419458463,1.24863064413918,1.21796302180682,1.20571196410221,1.20509896701619,1.20512561906341,1.18860134978815,1.14530954109013,1.14471431203559,1.16360172949752,1.1384244288921,1.13822898054584,1.13342272803083,1.13228557401619,1.12842991118529,1.15685876155133,1.18602498522373,1.18725986341151,1.17811821121568,1.20572084811795,1.19903118426619,1.20094124765016,1.1716950678361,1.16887883484672,1.16512089618896,1.16276663201802,1.18512769963405,1.17189051618237,1.16530746051948,1.23833406989723,1.2596645916875,1.23962225217945,1.19699674466187,1.15875105690382,1.20041709072154,1.19457140836502,1.20523222725228,1.18445251443786,1.18118319664577,1.20261144260916,1.16774168083208,1.16719975587197,1.16239350335697,1.16956290405865,1.1688521827995,1.20640491732988,1.17578171507622,1.17557738271421,1.17798495097959,1.19012051647959,1.23254169163515,1.21727006857915,1.21570648180902,1.30136616156818,1.24234964501144,1.19525547757695,1.24350456705756,1.22055715440272,1.20051481489467,1.17929978530902,1.17560403476143,1.17714985350009,1.18277343546312,1.18469238286282,1.31685988501766,1.18571404467285,1.18478122302022,1.18605163727095,1.18703776301802,1.18805942482805,1.1898984160861,1.20883025362673,1.21510236873874,1.17300990216553,1.22407522463552,1.22182756865346,1.19641928363881,1.17783392271202,1.19020047262124,1.23956006406927,1.23929354359709,1.17185498011941,1.17876674436465,1.16722640791919,1.16624028217212,1.18095221223654,1.18192056995214,1.22601194006671,1.22451054140675,1.16952736799569,1.17109983878156,1.1969345565517,1.19437596001875,1.16040348383134,1.17567510688735,1.15252336187051,1.16608036988881,1.20890132575265,1.12876750378339,1.12796794236685,1.13069533519884,1.13516399511575,1.13611458479986,1.14779706549715,1.14692643195469,1.19216384009965,1.14674875163991
1.00926860807291,1.00884217531742,1.00903762366369,1.00995267728485,1.00977499697006,1.01118755547262,1.02266570380791,1.01986723885,1.01164064027533,1.00925972405717,1.16933191964943,1.00060669272701,0.997932603989457,0.996280177061931,0.996857638084991,0.994876502575109,0.992157993758856,0.989954757855489,0.987582725653073,0.988080230534478,0.990407842658197,0.993606088324376,0.994068057142824,0.992948671159662,0.990718783209076,0.9903634225795,0.988853139903805,0.981212886367933,0.98863992352606,0.989021936202853,0.988888675966762,0.988391171085357,0.988933096045459,0.981861419516908,0.979738139755195,0.97908960660622,0.981221770383673,0.981443870777157,1.18197387404657,1.18071234381158,1.1630775725689,1.05461262440674,1.19031596482585,1.17631475602058,1.03989181032658,1.04726554339027,1.0143858011388,1.01525643468126,1.16045678792578,1.15965722650923,1.13513734306853,0.999007569893923,0.979951356132941,1.01641135672738,0.965950147327669,0.987449465416982,1.05181415944883,1.05201849181084,1.04760313598836,1.09814430152973,1.10120040294408,1.12318834189906,1.1234459783555,1.2549738313771,1.26699390467249,1.225763187626,1.2245904975484,1.21235720787527,1.21153987842725,1.21317453732329,1.21541330928962,1.16672001902205,1.14769045730828,1.14496306447629,1.14622459471128,1.14853443880352,1.14323956542285,1.14783260156011,1.14152495038515,1.14067208487417,1.14058324471677,1.14033449227607,1.1581380598178,1.17339191484232,1.18077453192175,1.15987044288698,1.16931415161795,1.16635577437673,1.16462339130755,1.17887335255353,1.15963945847776,1.16022580351656,1.18903666655938,1.18553636435807,1.18733093553742,1.16687104728962,1.14801916589064,1.19976855757256,1.1977696540312,1.24787550280133,1.24718254957366,1.19291009742176,1.19238594049313,1.23073823644006,1.18170735357439,1.16159394194042,1.18248026294372,1.18404384971385,1.169687280279,1.18323540428156,1.18238253877058,1.18110324050411,1.18307549199826,1.16238461934123,1.16144291367285,1.16645349854986,1.16603594981011,1.18388393743054,1.19325657403559,1.19359416663369,1.19177294340711,1.20713340662051,1.20200732953889,1.28873309118677,1.28426443126986,1.18492336727205,1.19935989284855,1.19623271930829,1.31532295029475,1.17699882523252,1.17761182231853,1.17589720728083,1.18041028727644,1.18073011184306,1.18376844522593,1.18345750467505,1.21456044377864,1.1709043904353,1.20900793394152,1.2053032993782,1.20779970780097,1.21765208125594,1.17263677350448,1.16594710965272,1.18258687113259,1.22013072164723,1.22858830463113,1.22863272470983,1.17317869846458,1.20038155465858,1.22279592636905,1.15940847406853,1.21803409393274,1.21775868944482,1.19371854285404,1.17015813311319,1.16938522374386,1.22505246636685,1.17465344507732,1.16874557461063,1.21734114070507,1.16716421980902,1.16745739232842,1.12436991599239,1.12933608079071,1.12903402425557,1.1312727962219,1.11856865371458,1.12891853205096,1.12868754764174,1.13753602731816
1.00975722893858,1.01104541122079,1.01194269681047,1.01307985082511,1.01299989468346,1.0132131110612,1.01348851554912,1.01419035279253,1.01506098633499,1.01244020169187,1.05817511471823,1.00933968019883,1.02223038703668,1.00004699973543,0.997550591312663,0.997497287218227,0.996768797927598,0.993943680922473,0.992664382656001,0.990265698406367,0.990852043445167,0.994663286197363,0.996422321313762,0.994787662417715,0.992673266671741,0.993499480135504,0.994974226748242,0.99109191187013,0.9912429401377,0.99268215068748,0.992371210136602,0.991322896279354,0.988568851400144,0.98863992352606,1.21235720787527,0.984491088175767,0.981035206053146,0.981248422430891,0.981239538415151,1.06426066549971,1.1167918505667,1.1752131380689,1.00653233122518,1.0077760934287,1.00774055736574,1.01398602043053,1.01498991420908,1.01597603995615,1.00122857382877,1.00094428532511,0.999789363278989,0.972453246848899,0.958825166704681,0.962805205755926,1.00965950476545,0.999647219027159,1.03902117678412,1.13006457008134,1.07806642595872,1.1061221476637,1.1057401349869,1.13971261117431,1.23522466438845,1.23492260785331,1.23302142848508,1.2278153952618,1.21788306566517,1.20918561425631,1.21429392330646,1.20449485394591,1.20969200315345,1.21153987842725,1.16583161744811,1.2273178903804,1.22733565841188,1.17882893247483,1.15978160272959,1.15849342044738,1.15782711926692,1.13458653409269,1.14235116384891,1.1317703011033,1.13075752330901,1.14172928274715,1.13798022810513,1.18918769482695,1.17783392271202,1.17872232428596,1.1660092977629,1.16463227532329,1.22804637967103,1.1483034543943,1.1480547019536,1.18463907876839,1.14551387345213,1.14465212392541,1.1619048824913,1.24967895799643,1.22292918660514,1.22366655991151,1.17618149578449,1.1983115789913,1.14667767951399,1.14789478967029,1.14895198754327,1.1879794686864,1.15231014549276,1.21615956661173,1.17499992169115,1.22860607266261,1.22936121400046,1.19300782159489,1.24918145311502,1.15995928304437,1.19710335285075,1.18829040923727,1.23076488848728,1.23024073155865,1.23094256880207,1.19211053600521,1.19206611592651,1.26854860742689,1.23059609218823,1.25842082948399,1.25196215004145,1.24236741304292,1.23704588761502,1.2654836219968,1.19703228072483,1.20296680323874,1.16915423933464,1.20879471756378,1.16652457067578,1.20020387434379,1.21201961527717,1.24556565870909,1.18947198333061,1.20717782669921,1.16633800634525,1.18415934191846,1.16568058918054,1.16403704626875,1.16404593028449,1.16135407351546,1.16122081327937,1.17499992169115,1.17400491192834,1.17295659807109,1.25459181870031,1.25358792492176,1.17114425886026,1.15116410746238,1.22369321195873,1.22467045369006,1.15932851792688,1.15925744580096,1.27486514261759,1.38941564156123,1.195219941514,1.16927861555499,1.17658127649276,1.17657239247703,1.16927861555499,1.13809572030975,1.11917276678485,1.11892401434415,1.1187552180451,1.12836772307512,1.13367148047153,1.13161038881999,1.13326281574752
1.01351516759634,1.01566509940527,1.01272449019553,1.01181832059012,1.01180943657438,1.01198711688917,1.01280444633719,1.04671473441442,1.01475004578411,1.01416370074531,1.01184497263734,1.0118360886216,1.01247573775483,1.05400851133646,1.00045566445944,1.00026021611318,1.20622723701509,0.99369492848177,0.992086921632942,0.992735454781916,1.00037570831779,0.999949275562298,0.999647219027159,0.998856541626353,0.996724377848901,0.99615580084158,0.994876502575109,0.996786565959076,0.994432301788139,0.996369017219325,0.995382891472253,0.996191336904537,0.993019743285577,0.993623856355855,0.991864821239457,0.991509460609881,1.19918221253376,1.19230598435148,1.13758044739686,1.13331611984196,1.00694987996493,1.00671889555571,1.00663005539832,1.00779386146018,1.00780274547591,1.01757516278924,1.01761958286794,1.00880663925447,1.20004396206048,1.01213814515674,1.00947294043492,0.983958047231403,0.983513846444434,1.00878887122299,1.00773167335,1.05203625984232,1.04563976850996,1.08299705469408,1.09169450610293,1.15955061832036,1.1596039224148,1.12709730882439,1.17017590114467,1.14236004786465,1.17319646649606,1.18335089648618,1.18369737310001,1.20336658394701,1.20381966874972,1.22439504920214,1.2009501316659,1.17206819649716,1.16938522374386,1.1636639176077,1.21407182291297,1.19623271930829,1.13661208968127,1.13549270369811,1.15414025273508,1.142484424085,1.14665991148251,1.16898544303559,1.16907428319298,1.14150718235367,1.14091195329913,1.17341856688954,1.17862460011282,1.16260671973471,1.16148733375155,1.16598264571568,1.16555621296019,1.16568058918054,1.16608925390455,1.16887883484672,1.17326753862197,1.14582481400301,1.14414573502827,1.14441225550045,1.14520293290125,1.1714907354741,1.14809912203229,1.14098302542505,1.16938522374386,1.15323408312966,1.15098642714759,1.15291425856304,1.14910301581084,1.15007137352644,1.1596039224148,1.15996816706011,1.22704248589248,1.22725570227022,1.18087225609489,1.17356959515711,1.17486666145506,1.23948899194335,1.18170735357439,1.27434098568896,1.26965910939431,1.40495378508941,1.40475833674315,1.40498932115237,1.39608753738151,1.24520141406378,1.24495266162308,1.2166037673987,1.26019763263186,1.22445723731231,1.21561764165163,1.2517933537424,1.18713548719115,1.17028250933354,1.22288476652644,1.22276927432183,1.23391871407476,1.26128148255207,1.19649035576473,1.20812841638332,1.21288136480389,1.23571328525412,1.18988953207036,1.1624468074514,1.15758725084196,1.14761938518237,1.15795149548727,1.15716081808647,1.15665442918932,1.19652589182769,1.17874009231744,1.1745823729514,1.17361401523581,1.25407654578743,1.1502668218727,1.19835599907,1.19862251954218,1.22444835329657,1.2281974079386,1.23372326572849,1.24003091690346,1.159221909738,1.18784620845031,1.20307341142761,1.17376504350338,1.17211261657585,1.15359832777497,1.23148449376217,1.14755719707219,1.11695176285001,1.1572585422596,1.19450033623911,1.16581384941663
1.01228028940857,1.01591385184597,1.01506098633499,1.03428599639502,1.01210260909378,1.01236024555022,1.01280444633719,1.01275114224275,1.03567190285037,1.01511429042943,1.01535415885439,1.01406597657218,1.01299989468346,1.01109871531523,1.01114313539392,1.00909092775813,1.00607036240673,0.995356239425035,0.996386785250804,1.0051819608328,1.00175273075739,1.01062786248104,1.36878695701437,1.36774752717287,1.00225911965454,1.00023356406596,1.00002034768821,1.00096205335659,1.00410699492833,1.0027921605989,0.9973107228877,0.996795449974816,0.997186346667349,1.11323824427094,1.0039204305978,1.14468765998837,1.06392307290161,1.00079325705754,1.00102424146676,1.00209032335549,1.00515530878558,1.00806038193236,1.00829136634158,1.01565621538953,1.02217708294224,1.02057796010915,1.01820592790674,1.128678663626,1.01587831578302,1.01583389570432,0.959589192058269,0.959731336310099,1.00630134681596,0.981745927312296,1.00917976791552,1.0215818538877,1.07942568036684,1.08317473500886,1.08946461815235,1.11936821513112,1.16624028217212,1.16143402965711,1.14268875644701,1.17382723161355,1.15443342525448,1.15478878588405,1.14291974085623,1.18769518018274,1.16266002382915,1.18473680294152,1.16026133957951,1.178686788223,1.17834031160916,1.15238121761868,1.15361609580645,1.16976723642066,1.14013015991406,1.1395971189697,1.14246665605352,1.13830005267175,1.14065431684269,1.14202245526655,1.14231562778595,1.14572708982988,1.13759821542834,1.16999822082988,1.2179363697596,1.16984719256231,1.16355730941882,1.17132193917505,1.18208936625118,1.18382174932036,1.17014924909745,1.16986496059379,1.1529053745473,1.14990257722739,1.14445667557915,1.14638450699459,1.20846600898142,1.14231562778595,1.14216459951838,1.14090306928339,1.14857885888222,1.15517079856084,1.15888431713991,1.147086344238,1.15310970690931,1.15477990186831,1.15423797690821,1.16849682216992,1.2336788456498,1.23318134076839,1.20117223205938,1.15659224107915,1.16618697807768,1.16405481430023,1.18034809916626,1.23645065856048,1.23676159911136,1.50727099435992,1.4980405020067,1.39949011540969,1.3852579221952,1.24864841217066,1.2472802737468,1.24857734004475,1.25017646287784,1.26161019113443,1.2483197035883,1.19374519490126,1.18302218790382,1.18338643254913,1.21381418645653,1.21010066787747,1.20889244173691,1.23709030769372,1.31890320863772,1.21325449346495,1.20248706638881,1.20038155465858,1.16662229484891,1.16499651996861,1.13288080307073,1.1321523137801,1.14804581793786,1.14760161715089,1.16965174421604,1.16998933681414,1.15302086675191,1.16100759690162,1.16223359107366,1.15649451690601,1.15804033564467,1.1734541029525,1.17571952696604,1.18769518018274,1.18222262648727,1.1752575581476,1.21810516605865,1.22688257360917,1.16272221193932,1.1633263250096,1.18434590624899,1.16245569146714,1.16967839626326,1.20148317261026,1.20126107221678,1.11617885348068,1.20387297284416,1.20226496599533,1.20231827008976
1.04137544095505,1.02104881294334,1.02109323302204,1.02201717065893,1.02260351569773,1.0358140471022,1.03358415915161,1.03370853537196,1.01640247271164,1.03701338922701,1.01910321349641,1.01944080609451,1.01711319397079,1.01654461696347,1.0149277260989,1.01525643468126,1.2154310773211,1.05057039724532,1.01556737523214,0.999727175168813,1.00646125909927,1.0042580231959,1.03499671765417,1.34836260482953,1.01065451452826,1.0097838809858,1.00741184878338,1.00629246280022,1.00410699492833,1.00115750170285,1.00081990910476,0.999958159578037,1.00026021611318,1.00109531359268,1.00306756508682,1.00405369083389,1.00463115185695,1.00667447547701,1.0071897483899,1.00747403689356,1.00796265775922,1.01160510421237,1.01906767743346,1.02317209270505,1.02709882766186,1.02743642025996,1.03163855970469,1.02453134711318,1.01933419790564,1.01069005059122,0.975500464247508,0.97606015723909,0.979160678732135,0.985415025812663,1.02038251176288,1.01984058680278,1.03512997789027,1.05557209810659,1.09738027617614,1.11058192356487,1.15080874683281,1.10923155317248,1.1199723282014,1.16670225099057,1.16553844492871,1.14672209959269,1.1456649017197,1.16022580351656,1.15404252856194,1.15302975076765,1.15155500415491,1.14439448746897,1.1512351795883,1.16069665635074,1.23596203769482,1.19913779245506,1.19898676418749,1.22468822172154,1.17545300649386,1.14216459951838,1.1414005741648,1.20033713457988,1.23116466919555,1.13811348834122,1.13824674857732,1.16842575004401,1.17583501917066,1.18213378632988,1.16916312335038,1.16634689036099,1.1884325534891,1.15993263099716,1.15952396627314,1.1474683569148,1.14615352258537,1.14605579841224,1.16361061351326,1.14547833738917,1.14417238707549,1.15881324501399,1.14562936565674,1.1569209496615,1.14627789880572,1.16187823044408,1.16505870807878,1.15996816706011,1.16536076461392,1.14637562297885,1.14567378573544,1.17460902499862,1.17580836712344,1.22589644786209,1.22714909408135,1.24044846564321,1.2599133441282,1.25317037618201,1.2009501316659,1.22678484943603,1.22782427927754,1.21727895259489,1.21564429369884,1.20907900606744,1.23341232517761,1.23236401132037,1.24228745690126,1.24184325611429,1.25319702822923,1.2622143042047,1.17846468782951,1.17734530184635,1.1758439031864,1.22878375297739,1.25366788106341,1.21761654519299,1.21762542920873,1.20322443969518,1.22334673534489,1.25145576114431,1.25432529822813,1.175755063029,1.17523979011612,1.14404801085513,1.14346166581633,1.13400907306963,1.13450657795103,1.15823578399093,1.1575072947003,1.16093652477571,1.15957727036758,1.15248782580755,1.21448048763698,1.15782711926692,1.15253224588625,1.15494869816736,1.15061329848654,1.15045338620323,1.16258895170323,1.18980957592871,1.18045470735514,1.19736987332293,1.19765416182659,1.1737916955506,1.14912966785806,1.15313635895653,1.17476893728193,1.1628288201282,1.10718822955242,1.10748140207182,1.14139169014906,1.21035830433391,1.13049988685257
1.10941811750301,1.10582009112856,1.03729767773068,1.10013432105535,1.02545528475007,1.02549970482877,1.02645917852862,1.03178958797226,1.01719315011245,1.01795717546603,1.01818815987526,1.0183569561743,1.01824146396969,1.01646466082182,1.0164380087746,1.01661568908939,1.03385956363953,1.04042485127094,1.04283241953631,1.02892893490417,1.3275828920151,1.0348456893866,1.02631703427679,1.01609153216076,1.01527420271274,1.01220033326691,1.00930414413587,1.00909092775813,1.00553732146237,1.00153063036391,1.00012695587709,0.999958159578037,1.00000257965673,1.00244568398507,1.00332520154326,1.00358283799971,1.00754510901947,1.00799819382218,1.00933968019883,1.01182720460586,1.00719863240564,1.08653289295835,1.18773960026143,1.02880455868382,1.03313995836464,1.03340647883682,1.03407278001728,1.03157637159451,1.01802824759195,1.02971072828924,0.97562484046786,0.999549494854025,0.977552671883306,0.984686536522033,0.988240142817787,1.01216479720395,1.02227480711537,1.04094012418382,1.07922134800484,1.10598888742761,1.13110399992285,1.17870455625448,1.16402816225301,1.12564033024313,1.16857677831158,1.17054014578998,1.1457093217984,1.1610697850118,1.16121192926363,1.1529942147047,1.15834239217981,1.2069734943372,1.20027494646971,1.18741977569482,1.14546945337344,1.23576658934855,1.15350948761758,1.21687028787088,1.23039175982622,1.21375199834635,1.11689845875557,1.14603803038076,1.13875313747446,1.13922399030865,1.22020179377315,1.18061461963845,1.1791842931044,1.17695440515382,1.219695404876,1.27903174599936,1.2154310773211,1.22901473738662,1.15764055493639,1.1572585422596,1.15087093494298,1.15023128580975,1.15509972643493,1.14089418526765,1.14054770865382,1.14315072526546,1.17373839145616,1.19070686151839,1.17283222185074,1.16714645177754,1.18846808955206,1.18829040923727,1.16828360579218,1.18184949782622,1.1722814128749,1.1663024702823,1.21797190582256,1.26673626821605,1.26642532766517,1.23003639919665,1.2382363457241,1.20969200315345,1.20709787055755,1.26125483050485,1.25678617058794,1.25540914814833,1.21436499543237,1.24443738871019,1.214889152361,1.2643109319192,1.25687501074533,1.29203794504182,1.28323388544409,1.239364615723,1.18776625230865,1.20441489780426,1.21569759779328,1.19737875733867,1.19433153994006,1.19715665694518,1.20351761221458,1.21842499062527,1.18769518018274,1.17842026775082,1.19293674946897,1.17753186617688,1.20851042906012,1.27767249159123,1.27444759387784,1.22458161353267,1.22496362620946,1.17254793334708,1.17799383499533,1.17749633011392,1.20236269016846,1.17527532617907,1.20268251473508,1.16232243123105,1.16942964382256,1.18180507774752,1.14793920974898,1.14583369801875,1.15058664643932,1.15079986281707,1.15045338620323,1.15515303052937,1.20039932269006,1.1723702530323,1.18569627664137,1.18471903491004,1.17643024822519,1.12841214315381,1.10800555900045,1.10669072467102,1.12529385362929,1.11924383891077,1.11923495489503
1.02818267758207,1.02486893971127,1.0250110839631,1.02721431986647,1.02671681498507,1.02578399333243,1.02467349136501,1.02521541632511,1.01882780900849,1.01874785286684,1.01860570861501,1.01841026026874,1.01800159554473,1.015265318697,1.01744190255315,1.01800159554473,1.01778837916698,1.01169394436977,1.01014812563111,1.00993490925337,1.01305319877789,1.01343521145469,1.01485665397299,1.01554072318492,1.01542523098031,1.01626921247555,1.01493661011464,1.01214702917247,1.00471110799861,1.00332520154326,1.00338738965344,1.00182380288331,1.00243679996933,1.0039648506765,1.00519084484854,1.0056794657142,1.00575942185586,1.00675443161867,1.0982953297973,1.03165632773617,1.01708654192357,1.01913874955937,1.02720543585073,1.02944420781706,1.02883121073104,1.03844371576106,1.03787513875374,1.13346714810953,1.05785529015161,1.12669752811611,1.10701943325337,0.978014640701754,0.978529913614639,0.970454343307537,1.03701338922701,1.00908204374239,1.03408166403302,1.06223510991113,1.05213398401545,1.07193645509854,1.15138620785587,1.15145727998178,1.16251787957732,1.16450789910294,1.16585826949533,1.13903742597812,1.1202655007208,1.20464588221348,1.24589436729145,1.20028383048545,1.20042597473728,1.20094124765016,1.20103897182329,1.20535660347263,1.1564234447801,1.15544620304877,1.16901209508281,1.14697973604913,1.14690866392322,1.1505599943921,1.13949939479657,1.13262316661428,1.17231694893786,1.24626749595251,1.23987988863589,1.24010198902937,1.23868943052681,1.24394876784453,1.21803409393274,1.20282465898691,1.20162531686209,1.23060497620397,1.16094540879145,1.16207367879035,1.15049780628193,1.15133290376143,1.15868886879364,1.14690866392322,1.15054222636062,1.14228897573874,1.1459580742391,1.14416350305975,1.14459881983098,1.21064259283757,1.18340420058061,1.1581380598178,1.16330855697812,1.16484549170104,1.17777173460184,1.19960864528925,1.31148505549534,1.23319910879987,1.21464039992029,1.21394744669262,1.24075940619409,1.24009310501363,1.22158770022849,1.21589304613955,1.18579400081451,1.18198275806231,1.21116674976619,1.27953813489651,1.22178314857476,1.26070402152901,1.2611304542845,1.26459522042286,1.21557322157293,1.16913647130316,1.17571952696604,1.18781955640309,1.19080458569152,1.18017041885148,1.20573861614943,1.18512769963405,1.16559174902314,1.1566277771421,1.15791595942432,1.16369945367066,1.18016153483574,1.17846468782951,1.2235066476282,1.17098434657695,1.19299893757915,1.18964077962966,1.16739520421824,1.26942812498508,1.15643232879584,1.15534847887563,1.21120228582915,1.16289100823837,1.15973718265089,1.16448124705572,1.39022408699351,1.38959332187602,1.38729236179951,1.18246249491224,1.19458029238076,1.1578004672197,1.15657447304767,1.16301538445872,1.1599415150129,1.15445119328595,1.15384708021568,1.16611590595177,1.12784356614649,1.13450657795103,1.09698937948361,1.16959844012161,1.10128924310147,1.12082519371238,1.12013224048471
1.02750749238587,1.02745418829144,1.02494001183719,1.0236340615235,1.02415821845212,1.02242583538294,1.02466460734927,1.02245248743016,1.02222150302094,1.02072898837672,1.02072010436098,1.02126202932108,1.02191056247006,1.01925424176398,1.01688220956157,1.01729087428558,1.0179038713716,1.01067228255974,1.01165840830681,1.01188939271603,1.01251127381779,1.2946054255905,1.01658015302643,1.01725533822262,1.01661568908939,1.0169799337347,1.01792163940308,1.01872120081962,1.01012147358389,1.00954401256083,1.00907315972665,1.00909981177387,1.07906143572153,1.01220033326691,1.00880663925447,1.00745626886208,1.00678108366589,1.00700318405937,1.00795377374348,1.02524206837233,1.05910793637087,1.03068797002057,1.0317540519093,1.03321103049056,1.0274453042757,1.02725873994517,1.13844219692358,0.999753827216031,1.00001146367247,0.978627637787772,0.975349435979939,0.970978500236161,0.971182832598167,0.990967535649779,0.977232847316689,1.03101667860293,1.03261580143602,1.04987744401765,1.06036946660586,1.0643495056571,1.12264641693895,1.08308589485147,1.13265870267724,1.16756400051729,1.0951148521626,1.12718614898178,1.12806566653998,1.1928745613588,1.19624160332402,1.19818720277095,1.21026058016078,1.20455704205609,1.20493905473288,1.18742865971055,1.15987044288698,1.16272221193932,1.16242015540418,1.1598082547768,1.14520293290125,1.13672758188588,1.15453114942761,1.1595150822574,1.19631267544994,1.23311026864248,1.23619302210404,1.19878243182549,1.25345466468567,1.20363310441919,1.18369737310001,1.187686296167,1.18168958554291,1.1625356476088,1.14387921455609,1.1505599943921,1.15573937556817,1.1965525438749,1.15703644186612,1.15712528202351,1.16795489720982,1.14077869306304,1.14076092503156,1.17062010193164,1.16302426847446,1.18115654459855,1.18375067719445,1.15770274304657,1.16591157358976,1.16229577918383,1.19235040443017,1.21542219330536,1.19623271930829,1.19756532166919,1.243762203514,1.21989973723801,1.26754471364833,1.1783491956249,1.17754075019262,1.16847017012271,1.18173400562161,1.17474228523471,1.17389830373947,1.18116542861429,1.18460354270543,1.20013280221788,1.20079021938259,1.18765076010404,1.16871003854767,1.21030500023947,1.13505738692688,1.15322519911392,1.1508531669115,1.19346979041334,1.17479558932915,1.15405141257768,1.14735286471019,1.14539838124752,1.20575638418091,1.21213510748179,1.13505738692688,1.19130209057293,1.17856241200265,1.18100551633098,1.18104105239394,1.18238253877058,1.23203530273801,1.16371722170213,1.13515511110001,1.15792484344005,1.15195478486319,1.15163496029657,1.15296756265748,1.15180375659562,1.18105882042541,1.21076696905792,1.2122505996864,1.1975209015905,1.20340212000997,1.1749643856282,1.21468481999899,1.21368981023618,1.17754963420836,1.15816471186502,1.15904422942322,1.17734530184635,1.18526095987014,1.12580912654218,1.12694628055682,1.09974342436282,1.11259859513771,1.11338038852277,1.11073295183244
1.02957746805315,1.03027930529656,1.02997724876142,1.02784508498397,1.02783620096823,1.02188391042284,1.02206159073763,1.02661020679619,1.02621042608792,1.02412268238917,1.02459353522335,1.02414933443638,1.02354522136611,1.02327870089392,1.02297664435879,1.02188391042284,1.02925764348653,1.03005720490308,1.01225363736135,1.01178278452716,1.01209372507804,1.01243131767613,1.01493661011464,1.01465232161098,1.01356847169078,1.01763735089941,1.01804601562343,1.01674006530974,1.01502545027204,1.01427030893419,1.01371061594261,1.0137550360213,1.01357735570652,1.01209372507804,1.01236912956596,1.01180943657438,1.01038799405608,1.01055679035512,1.00966838878119,1.08362781981157,1.05794413030901,1.03645369623543,1.03648034828265,1.03036814545395,1.03015492907621,1.05211621598397,1.00605259437526,1.00462226784121,1.00058892469553,1.00105977752972,0.970667559685283,0.97085412401581,0.995693832023132,0.993232959663322,0.992344558089384,0.990567754941506,1.01880115696127,1.04654593811538,1.05228501228302,1.08902041736538,1.07725798052643,1.07342008572702,1.10756135821348,1.11271408734232,1.09794885318346,1.19522882552973,1.19472243663259,1.18129868885038,1.17677672483903,1.18605163727095,1.18471903491004,1.18566962459416,1.18553636435807,1.21519120889613,1.159221909738,1.19924440064394,1.19896011214028,1.15581933170982,1.13146824456816,1.14674875163991,1.12503621717285,1.14272429250997,1.14325733345433,1.19022712466846,1.18899224648069,1.18662021427827,1.17125086704913,1.206093976779,1.2058452243383,1.1624468074514,1.16202037469591,1.13434666566772,1.13329835181048,1.14427899526436,1.14404801085513,1.15676992139393,1.15395368840455,1.15183040864284,1.15176822053266,1.14812577407951,1.14276871258866,1.15446007730169,1.18125426877168,1.17558626672995,1.17183721208793,1.17125975106487,1.16691546736831,1.19304335765785,1.28056868072227,1.29254433393897,1.23632628234013,1.18749084782073,1.19393175923178,1.19299005356341,1.20357980032476,1.17242355712673,1.17184609610367,1.16859454634306,1.21640831905243,1.1725745853943,1.17308097429145,1.17517760200594,1.19402948340492,1.16585826949533,1.16715533579328,1.16727082799789,1.17699882523252,1.14445667557915,1.16966951224752,1.13691414621641,1.13751825928669,1.13872648542724,1.13885974566333,1.11545924820579,1.12837660709086,1.12861647551582,1.1295581811842,1.13919733826143,1.16339739713552,1.17245909318969,1.14148053030645,1.14090306928339,1.16237573532549,1.16329967296238,1.1384244288921,1.13782919983756,1.13776701172739,1.13802464818383,1.13854880511245,1.14262656833683,1.14653553526216,1.15030235793566,1.1720770805129,1.15104861525777,1.20662701772337,1.16279328406524,1.24155896761063,1.22412852872996,1.22376428408464,1.15648563289027,1.15659224107915,1.15478878588405,1.14010350786685,1.16055451209891,1.13422228944737,1.13479975047043,1.10480731333427,1.10636201608866,1.10385672365015,1.1069128250645,1.10757024222922
1.04094012418382,1.04401399362965,1.03681794088075,1.02874237057365,1.02953304797445,1.02888451482548,1.02898223899861,1.02776512884231,1.02721431986647,1.02749860837013,1.02860022632182,1.02847585010147,1.02809383742467,1.02119095719517,1.02120872522665,1.01809043570212,1.01806378365491,1.01853463648909,1.01235136153448,1.01222698531413,1.0149277260989,1.0151764785396,1.01514982649239,1.0141370486981,1.01488330602021,1.01570063546823,1.01850798444187,1.01933419790564,1.01240466562892,1.01260011397518,1.01281333035293,1.01276891027423,1.01282221436867,1.0119960009049,1.01393271633609,1.01515871050813,1.01539857893309,1.08086489091662,1.053137877794,1.05227612826728,1.04944212724642,1.03477461726069,1.03526323812636,1.03700450521128,1.02482451963258,1.01924535774824,1.01870343278814,1.01348851554912,1.05253376472372,0.996422321313762,0.974532106531915,0.967282749688576,0.96650984031925,0.966483188272032,0.995071950921375,1.01052125429217,1.0982953297973,1.09845524208061,1.07453947171018,1.10901833679474,1.07783544154949,1.12254869276582,1.09381778586465,1.09609209389393,1.09567454515418,1.10111156278668,1.10110267877094,1.17380057956634,1.12548041795982,1.15618357635513,1.14138280613332,1.14174705077863,1.13517287913149,1.20084352347703,1.20159866481487,1.21543996133684,1.13814014038844,1.14452774770506,1.14439448746897,1.13869094936428,1.12266418497043,1.12245985260843,1.17213926862307,1.19363858671238,1.21655934732,1.26128148255207,1.24818644335221,1.32418031398692,1.32585050894592,1.16584938547959,1.16124746532658,1.13605239668969,1.13686084212197,1.13605239668969,1.15264773809086,1.15149281604474,1.16300650044298,1.18093444420506,1.17905103286831,1.15023128580975,1.15181264061136,1.17570175893457,1.15902646139174,1.18670905443566,1.18115654459855,1.16780386894225,1.16783940500521,1.24385992768713,1.19072462954987,1.23415858249972,1.20531218339394,1.20477914244957,1.19585070663149,1.22178314857476,1.18639811388479,1.20656482961319,1.20667143780206,1.18533203199606,1.19731656922849,1.20560535591334,1.19415385962527,1.16836356193383,1.18305772396678,1.16838132996531,1.16005700721751,1.16138960957841,1.16201149068017,1.19433153994006,1.13619454094152,1.13510180700557,1.13143270850521,1.12642212362819,1.1852520758544,1.11785793245542,1.1986935916681,1.15157277218639,1.13849550101802,1.09422645058866,1.15489539407292,1.13211677771714,1.12354370252863,1.12363254268603,1.14778818148142,1.13698521834232,1.141018561488,1.14103632951948,1.18685119868749,1.13726950684598,1.13795357605792,1.14148053030645,1.16402816225301,1.17226364484342,1.17356071114137,1.12621779126619,1.1260401109514,1.22432397707622,1.18076564790602,1.19336318222446,1.16616032603047,1.19043145703047,1.18725986341151,1.18690450278193,1.16932303563369,1.15688541359855,1.11455307860037,1.11280292749971,1.16859454634306,1.107543590182,1.11152362923324,1.11984795198105,1.14241335195909
1.04823390110586,1.04929109897885,1.04867810189283,1.12068304946055,1.0309189544298,1.03086565033536,1.03298893009707,1.03032372537526,1.03027042128082,1.03052805773726,1.03030595734378,1.02923099143931,1.03110551876032,1.02160850593492,1.01935196593712,1.01562956334231,1.01559402727936,1.01478558184707,1.0160559960978,1.01666010916808,1.01546076704326,1.01220921728265,1.012129261141,1.01276891027423,1.1882282211271,1.01602934405059,1.01546076704326,1.18168958554291,1.01098322311061,1.01188939271603,1.01202265295212,1.01244020169187,1.0127156061798,1.00966838878119,1.00798930980644,1.0085223507508,1.01011258956815,1.00972169287562,1.01083219484305,1.03107886671311,1.02972849632072,1.02961300411611,1.03011939301325,1.03998065048397,1.02234587924129,1.11681850261392,1.01403044050922,1.01701546979766,0.988870907935284,0.989110776360247,0.973386068501535,0.973137316060832,0.968135615199558,0.980591005266176,0.988142418644654,1.04890020228631,1.26453303231268,1.06729899888258,1.05783752212013,1.10077397018859,1.07040840439137,1.08166445233317,1.09008649925411,1.10556245467212,1.13055319094701,1.13559931188698,1.12642212362819,1.17746079405096,1.11383347332548,1.146882011876,1.14274206054144,1.16389490201692,1.13898412188368,1.16632023831377,1.14636673896311,1.16350400532439,1.17534639830499,1.14520293290125,1.13581252826472,1.1347020262973,1.14472319605133,1.14185365896751,1.19271464907549,1.19310554576802,1.22863272470983,1.22780651124606,1.23515359226253,1.16665783091187,1.1656272850861,1.16961620815309,1.30227233117359,1.15074655872263,1.14521181691699,1.16631135429803,1.12820781079181,1.15615692430792,1.17212150059159,1.16503205603156,1.16484549170104,1.16350400532439,1.17382723161355,1.1962593713555,1.20257590654621,1.26428427987198,1.21338775370104,1.21440941551107,1.21339663771678,1.2494923936659,1.20985191543676,1.21111344567176,1.26419543971459,1.20548097969299,1.21849606275119,1.23937349973874,1.24123914304401,1.23778326092139,1.20680469803815,1.20577415221239,1.2292812578588,1.22735342644335,1.21782976157073,1.23323464486283,1.23054278809379,1.16080326453962,1.16263337178193,1.1630775725689,1.16609813792029,1.152949794626,1.14587811809745,1.16972281634196,1.13360040834562,1.15084428289576,1.17298325011831,1.14255549621092,1.14707746022226,1.17170395185184,1.171153142876,1.16112308910623,1.1363722212563,1.13580364424898,1.18574958073581,1.13661208968127,1.20816395244628,1.17225476082768,1.17315204641736,1.17568399090309,1.1804458233394,1.17411152011722,1.17259235342578,1.1725745853943,1.17249462925265,1.1257025183533,1.11902173851728,1.11996344418566,1.17495550161246,1.17165953177314,1.14726402455279,1.13804241621531,1.17101099862417,1.15009802557366,1.15017798171531,1.15018686573105,1.11895955040711,1.1168362706454,1.14383479447739,1.1231972259148,1.09275170397592,1.09275170397592,1.10803221104766,1.10056075381084,1.10743698199313
1.04706121102826,1.04920225882145,1.04766532409854,1.04720335528009,1.04764755606706,1.04770974417724,1.15223018935111,1.14129396597592,1.03451698080425,1.03420604025337,1.03241146907401,1.03095449049275,1.02899112301435,1.07967443280755,1.01528308672848,1.01490107405168,1.01564733137379,1.01549630310622,1.01587831578302,1.01628698050703,1.01676671735696,1.0161004161765,1.01308873484085,1.00964173673397,1.00871779909707,1.00892213145908,1.01063674649678,1.01160510421237,1.01088549893748,1.01130304767723,1.01163175625959,1.0114540759448,1.00907315972665,1.00873556712855,1.00755399303521,1.00783828153887,1.00623915870578,1.00783828153887,1.04985079197043,1.02385616191698,1.03192284820835,1.02658355474898,1.02708105963038,1.04293902772519,1.1162499256066,1.01498991420908,1.05049044110366,1.00642572303631,1.00921530397848,1.04190848189942,0.999567262885504,1.00344069374788,0.973341648422837,0.98198579573726,0.990576638957246,1.02087113262855,1.04079797993199,1.07377544635659,1.1074547500246,1.09827756176582,1.09308929657402,1.09485721570616,1.07733793666809,1.14510520872812,1.15370493596385,1.15356279171202,1.11854200166736,1.11434874623837,1.12815450669737,1.17448464877827,1.14109851762966,1.13873536944298,1.15982602280828,1.13996136361502,1.1407698090473,1.14152495038515,1.1479658617962,1.14703304014357,1.14554940951509,1.14363934613112,1.14267098841553,1.19712112088222,1.19723661308684,1.22641172077498,1.18102328436246,1.21465816795177,1.17627921995763,1.16924307949203,1.209025701973,1.17620814783171,1.15343841549166,1.1425288441637,1.14176481881011,1.1367542339331,1.12428995985074,1.12479634874788,1.15377600808976,1.1682658377607,1.16632023831377,1.20180299717688,1.20248706638881,1.18857469774094,1.1884325534891,1.20297568725448,1.24897712075302,1.24378885556122,1.25946914334123,1.22505246636685,1.20337546796275,1.17011371303449,1.16904763114577,1.22161435227571,1.1693941077596,1.17777173460184,1.17230806492212,1.32320307225559,1.32624140563846,1.32523751185991,1.20413949331634,1.21464928393603,1.1942960038771,1.19327434206707,1.19163968317102,1.17010482901875,1.1691897753976,1.16854124224862,1.19256362080792,1.21830061440492,1.17272561366187,1.16919865941333,1.17040688555389,1.17046018964833,1.14122289385001,1.17619037980023,1.14064543282695,1.1526122020279,1.15191924880023,1.15434458509708,1.15553504320616,1.18574958073581,1.14732621266297,1.14797474581194,1.14091195329913,1.19762750977937,1.17184609610367,1.16305980453742,1.15175933651692,1.18685119868749,1.19411832356231,1.1300112659869,1.14372818628852,1.11251863899605,1.11188787387856,1.11187010584708,1.11975911182365,1.11967027166626,1.15639679273288,1.12781691409928,1.11809780088039,1.13230334204767,1.12370361481194,1.12307284969444,1.11403780568749,1.09697161145213,1.09674951105864,1.09622535413002,1.09472395547006,1.09582557342175,1.09450185507658,1.09947690389064,1.12708842480865
1.03961640583865,1.04069137174312,1.04123329670322,1.04436935425923,1.04763867205132,1.04649263402094,1.04578191276179,1.04647486598946,1.03407278001728,1.03298893009707,1.03127431505937,1.0313720392325,1.03079457820944,1.03104333065015,1.14822349825265,1.02407826231047,1.02423817459378,1.02294110829583,1.01995607900739,1.0192364737325,1.01962737042504,1.01953853026764,1.01803713160769,1.01046795019773,1.00917976791552,1.00381382240893,1.00426690721164,1.00869114704985,1.01045906618199,1.01167617633829,1.01185385665307,1.01131193169297,1.01117867145688,1.01192492877899,1.01562956334231,1.01519424657108,1.01248462177057,1.01339079137599,1.01506098633499,1.02273677593382,1.02202605467467,1.0805894864287,1.01678448538843,1.01783279924568,1.01986723885,1.00604371035952,1.00610589846969,1.00582160996603,0.997124158557173,1.00042901241222,0.971147296535209,0.972089002203584,0.971307208818518,1.02860911033756,1.07366883816772,1.03487234143382,1.06486477856999,1.04371193709451,1.06315904754803,1.07612971052753,1.07932795619371,1.07798646981706,1.08493377012526,1.10418543223251,1.08928693783756,1.11809780088039,1.11985683599679,1.12840325913808,1.12640435559671,1.17051349374276,1.16862119839027,1.16756400051729,1.13902854196238,1.16021691950082,1.20017722229657,1.17078001421495,1.16716421980902,1.17221922476473,1.16632023831377,1.17632364003632,1.18114766058281,1.1826579432585,1.19986628174569,1.19803617450338,1.19513998537234,1.23404309029511,1.18721544333281,1.18747307978925,1.18222262648727,1.20386408882842,1.17567510688735,1.17014924909745,1.13804241621531,1.14643781108903,1.13338719196787,1.12207783993163,1.14630455085294,1.12537380977095,1.14002355172519,1.12927389268054,1.16974058437344,1.16920754342907,1.23791652115748,1.17472451720323,1.18104105239394,1.18059685160697,1.23976439643128,1.17274338169335,1.18414157388698,1.1758439031864,1.24451734485185,1.20482356252827,1.19300782159489,1.22423513691883,1.15087981895872,1.16591157358976,1.18702887900228,1.20087017552425,1.20563200796056,1.18735758758464,1.18598944916077,1.19339871828742,1.17701659326399,1.1763858281465,1.18565185656268,1.18448805050082,1.18232035066041,1.18361741695836,1.1723258329536,1.17190828421385,1.16157617390894,1.16031464367395,1.15047115423471,1.15081763084855,1.14711299628522,1.16125634934232,1.15517968257658,1.15017798171531,1.21368981023618,1.21260596031597,1.20899016591004,1.15345618352314,1.14979596903852,1.19267022899679,1.16172720217651,1.16294431233281,1.17790499483793,1.15397145643603,1.29781255527242,1.32520197579695,1.16857677831158,1.16711979973032,1.14151606636941,1.13531502338332,1.15637014068566,1.13755379534964,1.13757156338112,1.16869227051619,1.12576470646348,1.16887883484672,1.1089206126216,1.13041993071092,1.14163155857402,1.16361061351326,1.09710487168822,1.09730032003449,1.1451673968383,1.08215307319883,1.07951452052424,1.11190564191004,1.07416634304913
1.03833710757218,1.03903006079986,1.0389945247369,1.04073579182182,1.04117999260879,1.04324996827606,1.04455591858975,1.04408506575557,1.04400510961391,1.04552427630535,1.03692454906962,1.03639150812526,1.03696896914832,1.03672021670762,1.035138861906,1.03449921277277,1.26506607325705,1.26727819317615,1.02979956844663,1.02486893971127,1.02119984121091,1.01811708774934,1.01816150782804,1.19620606726107,1.01045018216625,1.00867337901837,1.00617697059561,1.00740296476764,1.00824694626288,1.00834467043602,1.00829136634158,1.00849569870359,1.0089487835063,1.01014812563111,1.01794829145029,1.01806378365491,1.01483000192577,1.01239578161318,1.01252015783353,1.01289328649458,1.01893441719736,1.01942303806303,1.0184457963317,1.05642496361757,1.00591933413916,1.12375691890638,1.00241903193785,0.998154704382942,1.06405633313771,0.996973130289603,1.01083219484305,1.01904990940198,0.994290157536309,0.967762486538503,0.98950167305278,1.03337094277387,1.0317096318306,1.02795169317284,1.05264925692833,1.07610305848031,1.07794204973836,1.07634292690528,1.08197539288405,1.08872724484598,1.08773223508317,1.10308381428083,1.12190904363258,1.17822481940455,1.16228689516809,1.16018138343786,1.18447916648508,1.14883649533866,1.14856109085074,1.14724625652131,1.14912966785806,1.15330515525557,1.15417578879803,1.18638922986905,1.18541198813771,1.18445251443786,1.16681774319518,1.17104653468713,1.20007949812344,1.17807379113698,1.18049912743383,1.17993943444225,1.18248914695946,1.20987856748398,1.17560403476143,1.1812365007402,1.14782371754437,1.16336186107256,1.1439058666033,1.12994019386099,1.13431112960477,1.15341176344445,1.15380266013698,1.22398638447813,1.23816527359819,1.23717026383537,1.17953965373398,1.14618017463259,1.22065487857586,1.16388601800118,1.17914875704145,1.17980617420616,1.17961072585989,1.17906880089979,1.19362970269665,1.20165196890931,1.1702736253178,1.18130757286612,1.18430148617029,1.17942416152937,1.16337962910404,1.15971053060367,1.15924856178522,1.15974606666663,1.19244812860331,1.17775396657036,1.19994623788735,1.18464796278413,1.1940028313577,1.19343425435038,1.19327434206707,1.19613499513515,1.18087225609489,1.18839701742615,1.17186386413515,1.18078341593749,1.18092556018932,1.16967839626326,1.16894102295689,1.23750785643347,1.17362289925155,1.1636639176077,1.18587395695616,1.18950751939357,1.38161547574205,1.39693151887675,1.4265152912889,1.23000086313369,1.20318001961649,1.15732073036978,1.13787361991626,1.13845996495506,1.13795357605792,1.19071574553413,1.15348283557036,1.15268327415382,1.19459806041224,1.16834579390235,1.15683210950411,1.169687280279,1.17737195389357,1.17145519941114,1.11729823946384,1.11770690418786,1.12454759630718,1.12166917520762,1.13659432164979,1.13761598345982,1.12846544724825,1.12043429701985,1.11977687985513,1.13646994542944,1.08776777114613,1.08501372626692,1.07417522706487,1.07397089470286,1.07947010044554
1.0380261670213,1.03830157150923,1.03998065048397,1.0447691349675,1.04554204433683,1.04720335528009,1.04962869157694,1.05127223448873,1.05075696157584,1.10416766420103,1.05936557282731,1.30541727274534,1.0429656797724,1.04294791174092,1.04326773630754,1.04076244386904,1.32714757524387,1.32715645925961,1.21483584826656,1.26267627302315,1.10654858041919,1.20483244654401,1.02159962191918,1.01985835483426,1.01975174664539,1.0245579991604,1.08544015902241,1.06106241983353,1.12165140717614,1.00898431956925,1.00870891508133,1.00870003106559,1.00895766752203,1.00955289657657,1.01312427090381,1.01476781381559,1.01909432948067,1.01558514326362,1.01912986554363,1.01913874955937,1.12978028157768,1.0713856461227,1.02170623010805,1.01857017255205,1.00491544036061,1.00577718988733,1.06170206896677,1.01837472420578,1.01760181483646,1.01765511893089,1.01166729232255,0.953734625686013,0.969912418347435,0.962636409456878,0.963107262291065,1.01552295515344,1.01583389570432,1.04905123055388,1.07580988596091,1.10740144593017,1.09950355593785,1.08455175744847,1.08408090461428,1.07790651367541,1.14506967266516,1.07983434509085,1.07641399903119,1.11116826860367,1.17047795767981,1.17021143720762,1.18501220742944,1.18472791892578,1.18461242672117,1.19068020947117,1.13890416574203,1.18209825026692,1.14817907817395,1.14870323510257,1.13506627094261,1.13179695315052,1.20374859662381,1.22000634542688,1.19593066277315,1.23120020525851,1.15360721179071,1.15761390288918,1.19793845033025,1.20292238316004,1.18926765096861,1.17018478516041,1.16990938067249,1.15742733855865,1.19084900577022,1.16358396146604,1.15623688044957,1.15396257242029,1.15396257242029,1.20226496599533,1.20202509757037,1.19548646198618,1.17448464877827,1.21755435708281,1.13468425826582,1.13478198243895,1.16369945367066,1.1702736253178,1.19292786545323,1.18821933711136,1.18498555538222,1.19823162284965,1.17290329397666,1.17276114972483,1.16144291367285,1.160687772335,1.15931963391114,1.15836904422702,1.15959503839906,1.15918637367505,1.21461374787307,1.19095561395909,1.18590949301912,1.1865136060894,1.29466761370068,1.18264905924276,1.22405745660404,1.18932983907878,1.18396389357219,1.18689561876619,1.18150302121238,1.20046151080023,1.18578511679877,1.18526095987014,1.18203606215675,1.16559174902314,1.17853575995543,1.20537437150411,1.1763414080678,1.42757248916189,1.4083119430389,1.39413305391884,1.45101740669813,1.38189976424571,1.20671585788076,1.20632496118823,1.21146880630133,1.19590401072593,1.16878111067358,1.15644121281158,1.15679657344115,1.15369605194811,1.17881116444335,1.20353538024606,1.17895330869518,1.21947330448252,1.22189864077937,1.11991902410696,1.12071858552351,1.18224039451875,1.12305508166297,1.12318834189906,1.15422909289247,1.14748612494628,1.13390246488076,1.16608036988881,1.17655462444555,1.14883649533866,1.08858510059415,1.08547569508536,1.06999973966735,1.08620418437599,1.08615088028156
1.04054034347555,1.04155312126984,1.04428939811757,1.04487574315637,1.05164536314978,1.05160982708683,1.05179639141735,1.05193853566918,1.0612578681798,1.06068929117248,1.06093804361318,1.06101799975484,1.04998405220652,1.05134330661464,1.0513788426776,1.0517164352757,1.08726138224898,1.16837244594957,1.15915083761209,1.1590619974547,1.1529942147047,1.20047927883171,1.18199164207805,1.027400884197,1.02446027498726,1.02382062585403,1.18951640340931,1.16216251894774,1.00381382240893,1.10478954530279,1.26516379743018,1.01021031374129,1.00951736051362,1.00994379326911,1.01148961200776,1.01239578161318,1.01464343759524,1.0149721461776,1.01921870570103,1.14228897573874,1.06361213235074,1.0797988090279,1.21892249550668,1.0109121509847,1.00369833020432,1.00280104461464,1.06188863329729,0.982136824004829,0.981346146604024,0.996395669266543,0.994592214071448,1.05437275598177,0.955440356707975,0.954418694897946,0.954960619858049,0.98155047896603,1.0386125120601,1.03931434930352,1.08229521745066,1.06441169376728,1.07441509548983,1.14100079345652,1.14585146605023,1.10215987664393,1.10751693813478,1.10180451601435,1.10880512041699,1.10971129002241,1.15245228974459,1.12817227472885,1.13217896582731,1.13220561787453,1.17499103767541,1.16637354240821,1.15205250903632,1.15095977510038,1.16289989225411,1.14144499424349,1.18213378632988,1.14196026715638,1.12411227953595,1.13560819590272,1.13179695315052,1.12169582725484,1.14417238707549,1.15106638328925,1.16919865941333,1.18829929325301,1.23720579989833,1.15937293800557,1.15987932690272,1.16869227051619,1.16952736799569,1.16651568666004,1.16504982406304,1.15907088147044,1.15673438533098,1.22051273432403,1.19423381576692,1.19733433725997,1.19796510237747,1.14753054502497,1.13327169976326,1.13360929236136,1.17261012145726,1.15318966305096,1.17620814783171,1.21228613574936,1.21185081897813,1.24309590233355,1.17034469744372,1.17766512641297,1.20457481008757,1.22800195959233,1.19041368899899,1.18737535561612,1.16266002382915,1.17008706098727,1.19091119388039,1.26663854404292,1.26509272530426,1.22166765637015,1.20716005866773,1.20692019024277,1.2544763264957,1.25105598043603,1.21565317771458,1.20148317261026,1.20310006347483,1.24320251052242,1.19157749506085,1.18874349403998,1.23453171116078,1.23433626281451,1.20639603331414,1.1527010421853,1.15329627123983,1.18187614987344,1.41778230381709,1.39367996911613,1.39430185021789,1.38511577794337,1.38532011030537,1.19182624750155,1.23902702312491,1.20865257331195,1.22477706187893,1.22362213983281,1.15682322548837,1.15565053541077,1.18081006798471,1.18073011184306,1.17750521412966,1.14411019896531,1.13690526220067,1.14260880030535,1.11718274725923,1.11643648993712,1.11646314198434,1.1184620455257,1.19353197852351,1.13159262078852,1.14074315700008,1.14543391731048,1.20579192024386,1.09481279562746,1.14121400983427,1.07486818029254,1.07385540249825,1.0733934336798,1.09480391161172
1.04732773150044,1.04547985622665,1.04595070906084,1.40119584643165,1.05867261959964,1.05764207377387,1.05730448117577,1.3865905245561,1.06038723463734,1.05934780479583,1.06013848219664,1.06085808747153,1.06086697148727,1.24591213532293,1.2457255709924,1.1922437962413,1.19163079915528,1.06444722983024,1.06472263431816,1.05801520243492,1.05794413030901,1.13295187519664,1.1873931236476,1.18740200766334,1.0250999241205,1.02499331593163,1.02384727790125,1.02424705860952,1.27282181899753,1.39709143116006,1.0838588042208,1.01531862279144,1.0109121509847,1.0089043634276,1.009401868309,1.01110759933097,1.0153097387757,1.01795717546603,1.01826811601691,1.01534527483865,1.13297852724386,1.21284582874094,1.21617733464321,1.21575978590346,1.11262524718493,1.06345222006743,0.990265698406367,0.989581629194435,0.999780479263249,1.00130852997042,0.993286263757759,0.953015020411123,0.954711867417346,0.977392759599997,0.988657691557538,0.984553276285942,1.04311670803997,1.02471791144371,1.08779442319334,1.08858510059415,1.08369000792175,1.08969560256157,1.08663061713148,1.10859190403925,1.09840193798617,1.09881948672592,1.11359360490052,1.13083747945067,1.13903742597812,1.1433195215645,1.14387921455609,1.1379269240107,1.12019442859488,1.11948370733573,1.14463435589393,1.13995247959928,1.11633876576399,1.11655198214174,1.12334825418237,1.12957594921567,1.13508403897409,1.12664422402168,1.11524603182805,1.15398922446751,1.15127959966699,1.15293202659452,1.19570856237966,1.16346846926143,1.19897788017176,1.16904763114577,1.16004812320177,1.16025245556377,1.18116542861429,1.16304203650594,1.16247345949862,1.16115862516919,1.2185227147984,1.13838889282915,1.13975703125301,1.14320402935989,1.14386144652461,1.14522070093273,1.14440337148471,1.13592802046934,1.13277419488185,1.13179695315052,1.16854124224862,1.23161775399826,1.22100135518969,1.22647390888515,1.16513866422044,1.22307133085697,1.19473132064833,1.27656198962381,1.26072178956049,1.19441149608171,1.26136143869372,1.16540518469262,1.16560063303888,1.16556509697593,1.2269358777036,1.21580420598215,1.23765888470104,1.24082159430426,1.24005756895067,1.20380190071824,1.21747440094116,1.21752770503559,1.19930658875411,1.2669050645151,1.2689572721509,1.19005832836941,1.18381286530462,1.24303371422337,1.19505114521495,1.16435687083537,1.18657579419957,1.20516115512637,1.18524319183867,1.18455023861099,1.21956214463991,1.20977195929511,1.23373214974423,1.19436707600301,1.19574409844262,1.1950866812779,1.19319438592542,1.19750313355902,1.19529989765565,1.19352309450777,1.19449145222337,1.14907636376363,1.14950279651912,1.14554052549935,1.16103424894884,1.16248234351436,1.11885294221824,1.11567246458354,1.11585902891406,1.12529385362929,1.12977139756194,1.12629774740784,1.11174572962673,1.10195554428192,1.09416426247848,1.10782787868566,1.0788304513123,1.0785372787929,1.07794204973836,1.08942908208939,1.1257913585107
1.05005512433243,1.0497086477186,1.04879359409744,1.04983302393895,1.05351100645505,1.05423061172994,1.05516343338258,1.05429279984012,1.05391078716333,1.05500352109927,1.05551879401216,1.05620286322409,1.05511012928814,1.05490579692614,1.05285358929034,1.18089002412637,1.0583261429858,1.05921454455974,1.19876466379401,1.2001150341864,1.05332444212453,1.05182304346457,1.05212509999971,1.05256930078668,1.06709466652057,1.06819628447226,1.09073503240308,1.02409603034195,1.02401607420029,1.02294999231157,1.02171511412379,1.01970732656669,1.01745078656889,1.03590288725959,1.01178278452716,1.01197823287343,1.01538081090161,1.01587831578302,1.0305813618317,1.02789838907841,1.01234247751874,1.01187162468455,1.01005040145798,1.00980164901728,1.27427879757879,1.06222622589539,1.04187294583646,0.995827092259223,0.980262296683819,0.981434986761418,0.994725474307539,1.03762638631303,1.00348511382657,1.00196594713514,0.984819796758124,0.984535508254464,0.983327282113907,1.03083899828814,1.0429656797724,1.05358207858097,1.08254396989137,1.06482924250703,1.10240862908463,1.09515038822556,1.13484417054913,1.15674326934672,1.15300309872043,1.17993055042651,1.1416493266055,1.14132061802314,1.14200468723508,1.14378149038295,1.14720183644262,1.14724625652131,1.20198956150741,1.15395368840455,1.15397145643603,1.14405689487087,1.12126939449935,1.12089626583829,1.12079854166516,1.1213937707197,1.14281313266736,1.19063578939247,1.19075128159708,1.19178182742285,1.2966132131476,1.17483112539211,1.17054014578998,1.37549438889761,1.4049271330422,1.33024809673692,1.3297239398083,1.33134083067286,1.21879811928633,1.16924307949203,1.15168826439101,1.15007137352644,1.12889188000374,1.13037551063222,1.13116618803302,1.13463983818712,1.15127071565125,1.16719975587197,1.15995039902863,1.17273449767761,1.17848245586099,1.19003167632219,1.18911662270104,1.16830137382366,1.16839021398105,1.15629018454401,1.15606808415052,1.19821385481817,1.20121665213808,1.20561423992908,1.20529441536246,1.20389962489138,1.16793712917834,1.16811480949313,1.17233471696934,1.18689561876619,1.20166973694079,1.19813389867651,1.25239746681268,1.23273713998142,1.20239822623142,1.20450373796165,1.20527664733098,1.20249595040455,1.16719975587197,1.19939542891151,1.16904763114577,1.19661473198508,1.19386068710587,1.16271332792358,1.16286435619115,1.15423797690821,1.21409847496019,1.2142583872435,1.17318758248032,1.23837848997593,1.24248290524753,1.23356335344518,1.20021275835953,1.17333861074789,1.1927857212014,1.19184401553303,1.19299005356341,1.19364747072812,1.20993187157842,1.21820289023179,1.21740332881524,1.20201621355463,1.14638450699459,1.17874897633317,1.23106694502242,1.19820497080243,1.18166293349569,1.15059553045506,1.11278515946824,1.11066187970652,1.09582557342175,1.0953191845246,1.08248178178119,1.08107810729437,1.06992866754144,1.06936897454986,1.07042617242284,1.11468633883646,1.11818664103778
1.04902457850666,1.04889131827057,1.04892685433353,1.04814506094847,1.04906011456962,1.38698142124864,1.05312010976252,1.05237385244041,1.05198295574788,1.05183192748031,1.05193853566918,1.05246269259781,1.05195630370066,1.05192965165344,1.04906899858536,1.04801180071237,1.04777193228741,1.20781747583244,1.22478594589467,1.22743338258501,1.20840382087124,1.05236496842467,1.05183192748031,1.05292466141625,1.05412400354107,1.08803429161831,1.07496590446567,1.06834731273983,1.05316452984122,1.06398526101179,1.02716101577204,1.04181075772628,1.0238828139642,1.11212774230352,1.01202265295212,1.01377280405278,1.01323976310842,1.01307096680937,1.01266230208536,1.01204930499934,1.01226252137709,1.01276891027423,1.0071009082325,1.2116198345689,1.08480939390491,1.04014056276728,1.00252564012672,0.981914723611345,0.981532710934551,0.982252316209441,0.983602686601828,0.958149981508488,0.958754094578766,0.975376088027157,0.960957330482134,0.968810800395751,0.984171263609149,1.00490655634488,1.03729767773068,1.04942435921494,1.05304903763661,1.05320006590418,1.08060725446018,1.08550234713258,1.14422569116992,1.14358604203669,1.12472527662197,1.12422777174056,1.19192397167468,1.15093312305316,1.14856109085074,1.13764263550704,1.13869983338002,1.12945157299532,1.13774035968017,1.11420660198654,1.11400226962453,1.11253640702753,1.11453531056889,1.12293070544261,1.13300517929108,1.12577359047922,1.12564033024313,1.13479975047043,1.15255889793347,1.15336734336575,1.17791387885367,1.20166085292505,1.20273581882952,1.16345070122995,1.16254453162454,1.18201829412527,1.15844900036868,1.15664554517358,1.1575072947003,1.20327774378962,1.18866353789833,1.16749292839137,1.12272637308061,1.12613783512453,1.12547153394408,1.13853103708098,1.150018069432,1.18491448325631,1.16819476563478,1.17537305035221,1.26449749624973,1.22056603841846,1.24004868493494,1.17448464877827,1.17365843531451,1.24939466949277,1.19039592096751,1.19094672994335,1.19147088687197,1.19878243182549,1.19650812379621,1.16390378603266,1.16170055012929,1.16012807934342,1.21698578007549,1.2183183824364,1.16499651996861,1.16441905894555,1.1922437962413,1.20020387434379,1.17373839145616,1.17734530184635,1.20022164237527,1.21523562897483,1.20907900606744,1.18474568695726,1.17767401042871,1.22735342644335,1.1850477434924,1.17756740223984,1.19371854285404,1.15754283076326,1.15733849840125,1.16714645177754,1.21250823614284,1.21893137952242,1.18480787506744,1.18054354751253,1.3342370198039,1.17183721208793,1.2434246109159,1.21875369920763,1.17302767019701,1.21841610660953,1.23685043926876,1.18434590624899,1.18503885947666,1.18914327474826,1.16279328406524,1.2179807898383,1.21230390378083,1.14982262108573,1.15882212902973,1.10715269348947,1.11042201128156,1.10787229876436,1.10080950625154,1.09510596814686,1.08558230327424,1.09225419909452,1.06720127470945,1.06749444722885,1.10890284459012,1.08072274666479,1.07716914036904
1.04858926173543,1.04906899858536,1.04363198095286,1.04412948583426,1.04495569929803,1.04831385724751,1.04757648394114,1.04847376953082,1.2761977449785,1.04987744401765,1.04967311165564,1.04886466622336,1.05028610874166,1.0452666398489,1.04755871590967,1.04616392543858,1.04554204433683,1.04293014370945,1.04323220024458,1.0415442372541,1.04131325284488,1.200026194029,1.04738991961062,1.04634160575337,1.04574637669883,1.04599512913953,1.04699013890235,1.06342556802021,1.04257478307987,1.0451067275656,1.20596071654291,1.02492224380571,1.02439808687709,1.01882780900849,1.01503433428777,1.01459901751654,1.01521201460256,1.14919185596824,1.01041464610329,1.01260899799092,1.01209372507804,1.13946385873361,1.03162079167321,0.998225776508857,0.996102496747144,0.994734358323278,1.1254537659126,1.1444922116421,0.981559362981769,0.981052974084624,0.978929694322911,0.977819192355488,0.954392042850728,0.957847924973349,0.958283241744579,0.973092895982135,0.986436687622692,0.986001370851462,1.04294791174092,1.04340099654363,1.09558570499678,1.04988632803338,1.05148545086647,1.08369889193749,1.08399206445689,1.13052653889979,1.130144526223,1.12682190433646,1.12553372205425,1.12509840528302,1.18173400562161,1.16400151020579,1.13368924850301,1.12259311284452,1.12096733796421,1.09228085114173,1.09489275176911,1.09498159192651,1.14819684620543,1.13580364424898,1.13605239668969,1.11405557371897,1.20172304103523,1.20248706638881,1.18455912262673,1.17878451239613,1.14863216297666,1.14960052069225,1.15120852754108,1.17012259705023,1.16988272862527,1.2162661748006,1.18093444420506,1.18099663231524,1.18322652026582,1.21758989314577,1.17121533098618,1.16966951224752,1.16183381036538,1.17479558932915,1.12731940921787,1.15027570588844,1.16062558422483,1.24859510807622,1.24510368989065,1.24278496178267,1.19695232458318,1.19962641332073,1.21460486385734,1.18468349884708,1.18396389357219,1.1841238058555,1.22550555116956,1.22566546345287,1.17041576956963,1.16410811839467,1.15874217288808,1.15779158320396,1.1563346046227,1.1578004672197,1.15850230446311,1.1575961348577,1.2212501076304,1.22064599456012,1.30317850077901,1.3426946027878,1.32300762390932,1.2718445772662,1.27130265230609,1.17314316240162,1.23316357273691,1.17465344507732,1.24561896280353,1.25287720366261,1.22733565841188,1.2264383728222,1.17513318192724,1.196890136473,1.19727214914979,1.19346979041334,1.19360305064943,1.19017382057402,1.20952320685441,1.17407598405426,1.17014036508171,1.17007817697153,1.1997774415883,1.21799855786978,1.19715665694518,1.17677672483903,1.14409243093383,1.14493641242907,1.14962717273947,1.18084560404767,1.13691414621641,1.13684307409049,1.17053126177424,1.17235248500082,1.10204438443932,1.10295943806048,1.10438976459452,1.15722300619664,1.10884065647995,1.14964494077095,1.12666199205316,1.13148601259964,1.08658619705279,1.07032844824971,1.08123801957768,1.08339683540235,1.14111628566114
1.04576414473031,1.04602178118675,1.04579079677753,1.04674138646164,1.04663477827277,1.04523110378595,1.04776304827167,1.04756759992541,1.04744322370505,1.04450261449532,1.04445819441662,1.04137544095505,1.0462349975645,1.04639490984781,1.045604232447,1.04371193709451,1.0413399048921,1.04205062615125,1.03954533371274,1.03880796040637,1.03670244867614,1.20252260245177,1.08365447185879,1.04462699071567,1.04459145465271,1.04412060181852,1.04453815055827,1.03843483174532,1.2547694990151,1.25485833917249,1.06867602132219,1.02144859365161,1.02007157121201,1.01947634215747,1.01493661011464,1.0152208986183,1.00787381760183,1.00893101547482,1.00895766752203,1.00860230689246,1.16261560375045,1.09586999350045,1.02772959277936,0.998092516272766,0.994432301788139,0.991473924546924,0.992051385569984,1.1231528058361,1.12379245496933,1.12474304465345,1.00670112752423,0.972959635746044,0.97171587354253,0.987831478093776,0.981683739202121,0.960939562450655,0.95652420662818,0.967362705830231,1.02305660050044,1.02145747766735,1.05209844795249,1.04370305307877,1.0858665917779,1.07748008091992,1.10145803940052,1.09052181602533,1.12512505733024,1.08872724484598,1.11784904843969,1.10268403357255,1.12155368300301,1.1714907354741,1.18415934191846,1.09625200617724,1.09527476444591,1.09626977420872,1.09236969129913,1.09180999830755,1.09297380436941,1.09244964744078,1.10396333183903,1.12601345890418,1.12532938969225,1.13859322519115,1.11012883876216,1.16270444390784,1.16290877626985,1.14607356644371,1.21194854315126,1.18773071624569,1.18703776301802,1.22397750046239,1.1812809208189,1.20075468331963,1.18465684679987,1.23269271990272,1.17355182712563,1.22843727636356,1.15771162706231,1.14508744069664,1.18466573081561,1.13755379534964,1.16916312335038,1.18252468302241,1.19705004875631,1.18991618411758,1.19482016080572,1.19782295812564,1.19649923978047,1.21519120889613,1.21691470794958,1.24844407980866,1.21813181810587,1.17666123263442,1.17807379113698,1.17571952696604,1.18871684199277,1.18486117916187,1.18309326002973,1.18813049695397,1.20097678371312,1.18555413238954,1.18638034585331,1.19021824065272,1.2148003122036,1.16634689036099,1.18056131554401,1.2645596843599,1.27384348080756,1.15963945847776,1.19218160813113,1.17116202689174,1.19964418135221,1.21835391849936,1.21976647700192,1.22062822652864,1.17786945877498,1.15615692430792,1.15546397108024,1.18844143750484,1.14103632951948,1.16434798681963,1.21266814842615,1.21026058016078,1.20297568725448,1.15916860564357,1.18484341113039,1.18473680294152,1.17128640311209,1.17627033594189,1.17662569657146,1.17713208546861,1.16112308910623,1.20519669118933,1.20551651575594,1.17535528232073,1.17307209027571,1.17396049184965,1.17113537484452,1.11693399481853,1.09969012026838,1.09491051980059,1.09571896523288,1.12182020347519,1.12138488670396,1.08294375059964,1.08450733736977,1.11687180670835,1.0617997931399,1.06809856029913,1.10224871680132
1.04745210772079,1.04572860866735,1.04326773630754,1.04350760473251,1.04482243906193,1.04627941764319,1.04837604535769,1.04888243425483,1.04282353552057,1.0421305822929,1.04298344780388,1.04392515347226,1.04360532890564,1.04375635717321,1.04067360371164,1.04015833079876,1.0406647196959,1.03962528985439,1.03824826741479,1.03537873033097,1.0346413570246,1.03433930048946,1.03654253639283,1.03967859394883,1.03980297016918,1.04044261930242,1.03854143993419,1.03345978293126,1.03309553828595,1.08618641634451,1.02217708294224,1.02170623010805,1.01805489963917,1.01823257995395,1.00763394917687,1.0071453283112,1.00495986043931,1.00883329130168,1.00948182445066,1.01011258956815,1.00612366650117,1.00302314500813,1.00243679996933,1.02604162978887,1.0245135790817,0.990754319272034,0.988524431321448,0.988480011242751,0.996973130289603,0.997550591312663,0.961055054655267,1.00760729712965,0.939635692707608,0.940586282391722,0.954187710488722,0.953823465843407,0.954516419071079,0.982438880539968,1.00665670744553,1.02161738995066,1.03645369623543,1.03653365237709,1.06902249793602,1.07664498344041,1.07357999801033,1.07243395997995,1.07939014430388,1.07955005658719,1.09253848759818,1.09296492035367,1.09377336578595,1.09212982287416,1.08801652358683,1.08716365807585,1.10300385813917,1.11677408253522,1.1103420551399,1.11033317112417,1.10687728900154,1.15762278690492,1.08820308791736,1.08296151863112,1.14259991628961,1.13849550101802,1.11628546166955,1.19688125245726,1.17735418586209,1.17479558932915,1.14468765998837,1.19987516576143,1.19996400591883,1.20537437150411,1.16886106681524,1.20325997575814,1.26003772034855,1.18351080876949,1.19063578939247,1.24027966934416,1.22089474700082,1.23382987391737,1.16172720217651,1.14764603722958,1.14899640762197,1.16021691950082,1.20607620874752,1.20565866000777,1.20028383048545,1.18557190042102,1.19493565301034,1.14499860053925,1.14446555959489,1.15645009682732,1.1563790247014,1.16955402004291,1.16538741666114,1.16515643225191,1.24916368508355,1.18390170546202,1.1847101508943,1.22772655510441,1.22712244203413,1.23151114580939,1.17738083790931,1.16590268957402,1.16584050146385,1.1781004431842,1.15834239217981,1.16978500445213,1.17165953177314,1.26523486955609,1.26695836860954,1.26684287640492,1.15450449738039,1.19144423482476,1.16599152973142,1.20945213472849,1.27980465536869,1.17419147625887,1.1668443952424,1.16870115453193,1.13935725054474,1.13906407802534,1.1372961588932,1.15979048674533,1.15070213864393,1.20869699339064,1.16204702674313,1.14800139785916,1.15993263099716,1.12527608559781,1.12240654851399,1.11734265954254,1.1138601253727,1.10940923348727,1.10685063695433,1.1124386828544,1.1123942627757,1.12237989646677,1.09963681617394,1.10069401404693,1.11041312726582,1.11206555419335,1.13090855157658,1.15281653438991,1.15509972643493,1.07048836053302,1.07047947651728,1.06399414502753,1.07780878950227,1.07699146005425,1.10191112420323
1.05176973937013,1.05186746354327,1.05187634755901,1.04958427149825,1.18073011184306,1.08560007130572,1.0794167963511,1.05453266826508,1.05472811661135,1.05564317023251,1.27406558120104,1.04466252677863,1.04337434449641,1.04324996827606,1.0418374097735,1.04073579182182,1.0404159672552,1.03894122064246,1.03746647402972,1.03666691261318,1.036604724503,1.0369867371798,1.03649811631413,1.03651588434561,1.0366491445817,1.03667579662892,1.03463247300886,1.03432153245798,1.02842254600703,1.02639699041845,1.0268589592369,1.06471375030242,1.06384311675996,1.17176613996202,1.00589268209195,1.00750068894078,1.00794488972774,1.00821141019993,1.0086556109869,1.00722528445285,1.00324524540161,1.1419424991249,0.998385688792166,0.996724377848901,0.992264601947729,0.990327886516543,0.990549986910028,1.00194817910366,0.981657087154903,1.10017874113405,0.967300517720055,0.999718291153074,1.018197043891,1.01834807215857,0.947773451124885,0.99311746745871,0.981310610541066,0.966127827642456,0.981950259674302,1.05046378905644,1.03564525080315,1.07678712769224,1.07374879430938,1.0678675758899,1.08012751761025,1.08325469115052,1.0748148761981,1.07901701564283,1.07729351658939,1.09603878979949,1.08120248351472,1.12257534481304,1.09383555389613,1.1072504176626,1.13150378063112,1.13173476504035,1.10011655302387,1.13593690448507,1.13195686543383,1.13117507204876,1.1005962898738,1.10075620215711,1.15325185116114,1.13527948732036,1.11453531056889,1.1161610854492,1.11456196261611,1.11338927253851,1.15162607628083,1.16041236784708,1.33127864256269,1.33119868642103,1.16844351807549,1.16458785524459,1.16544960477131,1.17118867893896,1.17098434657695,1.17182832807219,1.21014508795616,1.27633988923033,1.27667748182842,1.14801916589064,1.14788590565455,1.17549742657256,1.15837792824276,1.16453455115016,1.16838132996531,1.16056339611465,1.16070554036648,1.15867110076216,1.15169714840674,1.19124878647849,1.18799723671787,1.15614804029218,1.19113329427388,1.20290461512856,1.17452906885697,1.22132117975631,1.18874349403998,1.17846468782951,1.17830477554621,1.17798495097959,1.14754831305645,1.14787702163881,1.14929846415711,1.12665310803742,1.12618225520323,1.15053334234489,1.25636862184819,1.25683059066664,1.13487082259635,1.13920622227717,1.13736723101912,1.14220013558134,1.15731184635404,1.15723189021238,1.14443890754767,1.17381834759782,1.1726634255517,1.13897523786794,1.13914403416699,1.14222678762856,1.12405897544152,1.12440545205535,1.12370361481194,1.13581252826472,1.14213794747117,1.14166709463698,1.1431596092812,1.14626013077424,1.12957594921567,1.1298069336249,1.14745058888332,1.10277287372995,1.10407882404364,1.08906483744408,1.08906483744408,1.15630795257549,1.11056415553339,1.08062502249166,1.09835751790747,1.12930942874349,1.07243395997995,1.11012883876216,1.07730240060513,1.08302370674129,1.0751524687962,1.09152570980389,1.05195630370066,1.08584882374642,1.10228425286428
1.05670036810549,1.05268479299129,1.05210733196823,1.06106241983353,1.31295980210807,1.06235948613148,1.06455383801911,1.33090551390163,1.33456572838626,1.16733301610806,1.03542315040966,1.2700411220711,1.04390738544078,1.04311670803997,1.04309005599275,1.0427613474104,1.0394920296183,1.03954533371274,1.03952756568126,1.03970524599605,1.03952756568126,1.0397852021377,1.04017609883024,1.03834599158792,1.03708446135293,1.03630266796786,1.03337982678961,1.02918657136062,1.02948862789576,1.25537361208538,1.25449409452718,1.25548022027425,1.00933968019883,1.00598152224934,1.00648791114649,1.00735854468895,1.00738519673616,1.0068965758705,1.00670112752423,1.00535964114758,1.00494209240783,1.01487442200447,1.01493661011464,1.01410151263514,0.988320098959442,0.988000274392824,0.98646333966991,0.984615464396118,1.0311232867918,0.975207291728109,0.974878583145751,0.970285547008489,0.970774167874155,0.978982998417347,0.973892457398679,1.0360627995429,0.955964513636599,0.96072634607291,0.966110059610978,0.966900737011783,1.00018025997152,1.04457368662123,1.01661568908939,1.0646870982552,1.04299233181962,1.06174648904546,1.08552011516406,1.13438220173068,1.0947328394858,1.09650964263368,1.09702491554657,1.09622535413002,1.09459957924971,1.1034391749104,1.12532938969225,1.12395236725264,1.13830005267175,1.13861099322263,1.1323566461421,1.08756343878412,1.08061613847592,1.10900056876326,1.10889396057438,1.1141088778134,1.15015132966809,1.09618981806706,1.15253224588625,1.21169979071056,1.21416066307037,1.14486534030316,1.14332840558024,1.14275094455718,1.19983074568274,1.19070686151839,1.19210165198947,1.19964418135221,1.1959661988361,1.19732545324423,1.17460902499862,1.32022692698289,1.3320248998848,1.16761730461172,1.1711087227973,1.16648015059708,1.18115654459855,1.17057568185294,1.1691897753976,1.17759405428705,1.17880228042761,1.18620266553852,1.18591837703486,1.21041160842835,1.1706112179159,1.16656899075448,1.18967631569262,1.19025377671568,1.23154668187234,1.1471751843954,1.13911738211977,1.16827472177644,1.13899300589942,1.1927857212014,1.22074371873325,1.15501088627754,1.15544620304877,1.1518215246271,1.12132269859379,1.1697317003577,1.16757288453303,1.1653341125667,1.08076716674349,1.12100287402717,1.08825639201179,1.1104308952973,1.11315828812929,1.11924383891077,1.12337490622958,1.12560479418017,1.18438144231194,1.18522542380719,1.15828020406963,1.15054222636062,1.16799931728852,1.13518176314723,1.12374803489064,1.1361234688156,1.13561707991846,1.14806358596934,1.12118943835769,1.11987460402827,1.12010558843749,1.11078625592687,1.10845864380315,1.10082727428302,1.09847301011209,1.08005644548434,1.07819968619481,1.07851062674569,1.08345013949678,1.07245172801142,1.08562672335293,1.07662721540894,1.07986099713807,1.08576886760476,1.0884607243738,1.13668316180718,1.10371457939832,1.06789422793712,1.06446499786172,1.06415405731084,1.07412192297043
1.05673590416845,1.05405293141516,1.10086281034598,1.06412740526362,1.0712968059653,1.07026626013954,1.03023488521786,1.0302881893123,1.03059024584744,1.06371874053961,1.05922342857548,1.23130681344738,1.22430620904474,1.04475136693602,1.04559534843126,1.04720335528009,1.04715005118565,1.04266362323726,1.04256589906413,1.04245929087526,1.04263697119005,1.04165084544297,1.04182852575776,1.03962528985439,1.04023828694041,1.03215383261757,1.02486893971127,1.01938750200007,1.01214702917247,1.01127639563001,1.01243131767613,1.01096545507914,1.00841574256193,1.00756287705095,1.00778497744444,1.00737631272042,1.00729635657877,1.0068521557918,1.00645237508353,1.13466649023434,1.00288988477203,1.19621495127681,1.1624468074514,1.14427899526436,1.08970448657731,0.985201809434917,0.984411132034112,0.983842555026791,0.983353934161125,1.02713436372482,0.975784752751169,0.975269479838284,1.02399830616881,0.96693627307474,0.959393743712002,0.966323275988723,0.979391663141359,0.96361365118821,1.02219485097372,1.0120848410623,1.0147233937369,1.06244832628888,1.02214154687928,1.04006949064136,1.05307568968382,1.05523450550849,1.08802540760257,1.08623083642321,1.09269839988148,1.10099607058207,1.13312067149569,1.10453190884635,1.09799327326216,1.09804657735659,1.09807322940381,1.13154820070982,1.14677540368713,1.13568815204437,1.08775888713039,1.09267174783427,1.11379793726253,1.11465968678925,1.18564297254694,1.12663534000594,1.11423325403376,1.1444922116421,1.12710619284013,1.12934496480645,1.19945761702168,1.2004082067058,1.12882080787783,1.16334409304108,1.15424686092395,1.17574617901326,1.19254585277644,1.18444363042212,1.20891020976839,1.219491072514,1.18082783601619,1.1732053505118,1.17479558932915,1.17515983397446,1.1745823729514,1.24390434776583,1.18073011184306,1.18089002412637,1.18761522404108,1.22146332400814,1.17576394704474,1.14130284999166,1.20700014638442,1.13541274755645,1.13514622708427,1.16318418075777,1.14657107132512,1.18805942482805,1.14171151471568,1.14142722621202,1.14687312786026,1.14863216297666,1.17937974145067,1.23178655029731,1.16659564280169,1.20970088716919,1.21058928874313,1.17825147145177,1.17743414200375,1.13050877086831,1.12057644127168,1.08451622138551,1.08500484225118,1.12117167032622,1.1233571381981,1.12276190914357,1.15053334234489,1.10826319545689,1.10802332703192,1.16699542350997,1.15196366887893,1.13767817156999,1.13760709944408,1.16679109114796,1.10899168474752,1.10327037861135,1.10337698680023,1.10831649955132,1.12132269859379,1.17478670531341,1.17465344507732,1.12677748425777,1.12327718205645,1.11271408734232,1.10104049066077,1.0792124639891,1.08027854587782,1.08099815115271,1.08042069012965,1.08814978382292,1.07063938880059,1.07080818509964,1.06776985171677,1.06630398911977,1.06262600660366,1.07966554879181,1.09553240090235,1.08811424775996,1.07907031973727,1.06883593360549,1.0684539209287,1.07089702525703,1.11675631450374
1.06111572392797,1.04891797031779,1.05707349676655,1.04348095268529,1.06425178148397,1.06413628927936,1.03068797002057,1.03031484135952,1.03037702946969,1.03075904214649,1.27881852962162,1.03385956363953,1.26591005475229,1.28575694591408,1.04571972465161,1.04581744882475,1.04646598197372,1.04538213205352,1.0438896174093,1.04405841370835,1.042672507253,1.04332104040198,1.11742261568419,1.1170850230861,1.22985871888186,1.0395808697757,1.03118547490198,1.02040027979436,1.0153097387757,1.01538969491735,1.0166867612153,1.13321839566882,1.01176501649568,1.01180943657438,1.0076872532713,1.00877998720725,1.00949959248214,1.00820252618419,1.00623915870578,1.00471999201435,1.03729767773068,1.02260351569773,1.08922474972738,1.09013980334854,0.986783164236528,0.986765396205049,0.983833671011052,0.982110171957611,0.982119055973351,0.982323388335357,0.978556565661857,0.976797530545459,0.976708690388065,0.941359191761049,0.93324808539099,0.925643367918076,0.926487349413317,0.926247480988354,1.01008593752094,1.01024584980425,1.01337302334451,0.985432793844142,1.01082331082731,1.02253244357182,1.05346658637636,1.05332444212453,1.09602102176801,1.09742469625484,1.08922474972738,1.09235192326765,1.12972697748324,1.13075752330901,1.13551935574532,1.13472867834452,1.13490635865931,1.11000446254181,1.11340704056999,1.14394140266626,1.09086829263917,1.09097490082804,1.0950260120052,1.107543590182,1.08169998839613,1.07963001272885,1.10927597325118,1.09509708413112,1.09876618263149,1.09831309782878,1.15383819619994,1.15666331320506,1.16020803548508,1.11711167513332,1.16732413209232,1.2116642546476,1.17681226090199,1.1566721972208,1.15203474100484,1.17860683208134,1.1708599703566,1.16871003854767,1.17535528232073,1.17696328916956,1.17836696365638,1.1809433282208,1.18046359137088,1.17527532617907,1.17926424924606,1.17026474130206,1.17405821602278,1.14165821062124,1.1419869192036,1.16030575965821,1.14778818148142,1.13768705558573,1.1265820359115,1.13858434117541,1.13782919983756,1.12868754764174,1.15745399060587,1.14940507234598,1.15928409784818,1.20071914725668,1.1633263250096,1.16486325973251,1.16807038941443,1.16945629586978,1.17003375689284,1.15786265532988,1.21531558511649,1.10690394104876,1.13473756236026,1.13380474070762,1.11344257663295,1.13267647070872,1.14504302061795,1.13523506724166,1.13483528653339,1.29600910007733,1.40762787382697,1.39918805887455,1.15164384431231,1.15354502368054,1.11665859033061,1.11774244025081,1.11859530576179,1.10989785435294,1.11170130954803,1.18146748514943,1.1297180934675,1.16299761642724,1.10409659207512,1.08705704988697,1.09660736680681,1.08525359469188,1.07997648934268,1.08031408194078,1.0795056365085,1.09915707932402,1.09194325854364,1.06434062164137,1.06632175715125,1.06135559235293,1.06192416936025,1.07161663053192,1.06759217140198,1.14231562778595,1.06036946660586,1.05918789251252,1.07846620666699,1.07028402817101,1.12243320056121
1.40580665060039,1.06413628927936,1.3698974589818,1.06714797061501,1.06994643557292,1.07350004186867,1.03019934915491,1.03009274096603,1.0302437692336,1.06494473471164,1.03319326245908,1.03361081119883,1.05829060692284,1.05293354543199,1.04275246339466,1.04317001213441,1.04333880843346,1.04228161056047,1.04197067000959,1.04027382300337,1.04110003646713,1.04089570410513,1.04102008032548,1.04034489512928,1.13893970180499,1.09900605105645,1.08784772728778,1.08316585099312,1.04220165441882,1.04490239520359,1.04362309693712,1.01883669302423,1.01811708774934,1.01829476806413,1.24071498611539,1.02389169797994,1.02894670293565,1.00869114704985,1.00749180492504,1.05853935936355,1.04137544095505,1.0416330774115,1.08040292209817,1.1581824798965,0.987653797778988,0.984846448805342,0.981808115422472,0.980519933140261,0.979320591015444,0.98242111250849,0.983318398098168,0.982305620303878,0.97908960660622,0.969512637639162,0.953619133481401,0.930822749094137,0.929827739331326,1.015265318697,1.01543411499605,0.991660488877451,0.98212793998909,0.978645405819251,0.984064655420276,1.01554960720066,1.03654253639283,1.04908676661684,1.05023280464722,1.05048155708792,1.08664838516296,1.13927729440308,1.08432077303924,1.08639963272226,1.12257534481304,1.09593218161062,1.14092083731487,1.11060857561209,1.11076848789539,1.16666671492761,1.09020199145872,1.08966895051435,1.08887827311355,1.08717254209159,1.08671945728888,1.08834523216919,1.08930470586904,1.154415657223,1.09001542712819,1.09063730822995,1.09089494468639,1.11580572481963,1.15347395155462,1.14695308400191,1.1468375917973,1.18732205152168,1.1387176014115,1.15347395155462,1.14203133928229,1.14379037439869,1.14777929746568,1.1659204576055,1.17767401042871,1.17871344027022,1.1674307402812,1.16711091571458,1.16551179288149,1.20832386472959,1.18017041885148,1.18042805530792,1.18330647640748,1.1717394879148,1.15020463376253,1.14847225069335,1.1450785566809,1.15487762604145,1.16663117886465,1.15426462895543,1.16927861555499,1.15398034045177,1.13392023291223,1.19677464426839,1.18465684679987,1.15232791352424,1.21520009291187,1.21185081897813,1.18465684679987,1.42495170451877,1.36842271236906,1.16612478996751,1.16902097909855,1.16407258233171,1.12507175323581,1.1210561781216,1.13654101755535,1.13611458479986,1.13586583235916,1.13545716763515,1.13594578850081,1.19385180309013,1.17078001421495,1.17559515074569,1.27622439702571,1.11924383891077,1.11813333694335,1.12311726977314,1.1133626204913,1.11316717214503,1.18571404467285,1.18251579900667,1.13101515976546,1.15644121281158,1.08981997878192,1.16437463886685,1.10108491073946,1.08021635776765,1.06076036329839,1.06190640132877,1.06764547549642,1.07819968619481,1.05264037291259,1.0569491205462,1.06869378935366,1.06495361872738,1.06171095298251,1.08573333154181,1.0415442372541,1.04079797993199,1.05111232220542,1.05977423755132,1.05623839928705,1.05707349676655,1.05894802408756
1.0656110358921,1.06551331171896,1.32354066485368,1.32387825745178,1.0710480535246,1.07052389659598,1.07058608470615,1.07066604084781,1.3125600213998,1.29809684377608,1.06490031463295,1.06572652809671,1.03770634245469,1.03954533371274,1.04083351599495,1.04277911544188,1.04068248772738,1.04062918363294,1.04099342827826,1.03969636198031,1.0397852021377,1.04088682008939,1.04090458812087,1.04134878890784,1.03747535804546,1.03743093796677,1.03650700032987,1.03536984631523,1.0343481845052,1.03335317474239,1.11919053481633,1.02243471939868,1.02116430514795,1.02013375932218,1.22804637967103,1.01202265295212,1.01207595704656,1.01284886641589,1.00615920256413,1.0048887883134,1.00519084484854,1.09868622648983,1.09901493507219,0.991180752027524,0.988400055101096,0.98589476266259,0.981612667076206,0.979640415582062,0.978307813221154,0.976699806372325,0.977170659206513,0.981310610541066,1.01562956334231,0.963356014731768,0.963293826621592,1.00898431956925,1.00902873964795,0.953556945371225,0.969210581104023,1.00649679516223,0.969317189292896,0.986063558961638,1.06587755636428,1.04123329670322,1.01905879341772,1.03560971474019,1.06514018305791,1.05943664495322,1.10707273734781,1.08623083642321,1.14466100794115,1.08579551965198,1.1416937466842,1.1020621524708,1.17193493626107,1.16552956091297,1.13513734306853,1.09578115334305,1.11149697718602,1.08602650406121,1.08554676721128,1.08546681106962,1.09846412609635,1.09504378003668,1.09531030050886,1.13331611984196,1.08707481791845,1.08575998358902,1.07169658667358,1.07821745422629,1.10041860955901,1.10065847798397,1.10100495459781,1.11074183584818,1.1039810998705,1.10252412128925,1.11031540309269,1.13335165590491,1.13362706039283,1.12697293260403,1.13155708472556,1.17590609129657,1.16276663201802,1.16377052579657,1.16770614476912,1.18197387404657,1.18109435648837,1.220956935111,1.22069041463881,1.146882011876,1.14707746022226,1.1474683569148,1.18819268506414,1.21996192534818,1.17689221704364,1.2405373058006,1.15477990186831,1.15449561336465,1.15532182682841,1.15464664163222,1.16189599847556,1.16397485815858,1.14104521353522,1.15939959005279,1.14740616880462,1.19084900577022,1.1847101508943,1.20582745630682,1.2038818568599,1.19667692009525,1.12803901449276,1.10841422372446,1.19880908387271,1.11962585158756,1.13344938007805,1.1361678888943,1.15648563289027,1.13320062763734,1.15043561817175,1.13346714810953,1.12214002804181,1.12537380977095,1.12620890725045,1.12442322008683,1.11382458930974,1.1127762754525,1.14479426817724,1.12815450669737,1.12561367819591,1.11425990608097,1.08860286862563,1.12756816165857,1.07332236155388,1.07408638690747,1.05683362834158,1.05713568487672,1.05761542172665,1.04205062615125,1.04332104040198,1.05106790212672,1.05094352590637,1.05264925692833,1.08853179649971,1.07743566084122,1.07637846296823,1.0887538968932,1.02573957325373,1.02566850112782,1.024469159003,1.09953020798507,1.04090458812087
1.07264717635769,1.39104141644154,1.07421964714356,1.07424629919078,1.07326905745945,1.0714300662014,1.07014188391918,1.28866201906085,1.29433002110258,1.26784677018347,1.27361249639834,1.06227064597409,1.06108907188075,1.0415886573328,1.04436047024349,1.04367640103155,1.04298344780388,1.04239710276508,1.04177522166333,1.04004283859415,1.03955421772848,1.04193513394663,1.04327662032328,1.04248594292248,1.04029159103485,1.03979408615344,1.03571632292906,1.03451698080425,1.03250919324715,1.02997724876142,1.02987064057255,1.08278383831633,1.11106166041479,1.01588719979876,1.01128527964575,1.01074335468565,1.05471923259561,1.09671397499569,1.00962396870249,1.00156616642687,1.03124766301215,1.08948238618383,1.06700582636318,0.990683247146118,0.987955854314127,0.986685440063395,0.982119055973351,0.980697613455049,0.979516039361711,0.976735342435283,0.976415517868665,0.973199504171007,0.976708690388065,0.979205098810832,0.979933588101462,0.980333368809734,0.998438992886602,0.999265206350365,1.00381382240893,0.963631419219689,0.964537588825106,0.957528100406731,0.971706989526791,0.973510444721886,0.993819304702122,1.01139188783463,1.02778289687379,1.03169186379912,1.05356431054949,1.09120588523727,1.07589872611831,1.08424081689759,1.08400983248837,1.13158373677278,1.13429336157329,1.12023884867358,1.14569155376692,1.12163363914466,1.12556037410147,1.08144235193968,1.08232186949788,1.08403648453558,1.07957670863441,1.07709806824312,1.088078711697,1.08907372145982,1.07411303895469,1.06763659148068,1.0675744033705,1.06922683029803,1.08263281004876,1.09049516397812,1.09241411137782,1.09815318554547,1.11178126568969,1.10860078805498,1.1081299352208,1.11429544214393,1.11129264482402,1.13205458960696,1.17196158830828,1.18356411286392,1.17251239728413,1.17277003374057,1.17826923948325,1.1719882403555,1.17989501436356,1.27314164356415,1.20349096016736,1.18319986821861,1.14402135880792,1.15091535502168,1.16320194878925,1.16248234351436,1.15971941461941,1.15028458990418,1.14912078384232,1.15665442918932,1.15564165139503,1.15446007730169,1.15744510659013,1.15955061832036,1.1933720662402,1.14296416093493,1.14209352739247,1.14097414140931,1.13938390259196,1.13800688015235,1.1329874112596,1.11510388757622,1.10934704537709,1.13797134408939,1.12410339552021,1.13534167543054,1.14522958494847,1.14362157809964,1.16261560375045,1.134950778738,1.14255549621092,1.12259311284452,1.11682738662966,1.11777797631377,1.18913439073252,1.12682190433646,1.14689089589174,1.16757288453303,1.12940715291663,1.18104993640968,1.11367356104217,1.10898280073178,1.1084231077402,1.07222962761794,1.09374671373873,1.07437067541113,1.05390190314759,1.05523450550849,1.05524338952423,1.04579968079327,1.06197747345469,1.05048155708792,1.03287343789246,1.03277571371933,1.02624596215088,1.03361969521457,1.06754775132328,1.05182304346457,1.02766740466918,1.05737555330169,1.04236156670213,1.06574429612819,1.0082735983101
