0.791798, 0.797129, 0.80856, 0.809499, 0.809184, 0.808307, 0.794348, 0.7942, 0.794207, 0.792366, 0.791405, 0.792046, 0.793785, 0.797811, 0.783646, 0.785425, 0.785546, 0.789482, 0.790092, 0.79041, 0.782716, 0.778045, 0.772916, 0.772589, 0.773489, 0.772668, 0.770885, 0.772283, 0.771775, 0.773567, 0.775961, 0.78016, 0.779399, 0.780842, 0.781548, 0.780643, 0.798459, 0.799611, 0.80029, 0.79303, 0.794193, 0.795831, 0.794513, 0.795612, 0.796116, 0.800987, 0.00364619, 0.811305, 0.819003, 0.821752, 0.823708, 0.824774, 0.927474, 0.926334, 0.926702, 0.861927, 0.863706, 0.866383, 0.866, 0.867089, 0.867654, 0.868631, 0.868531, 0.889249, 0.900152, 0.00404401, 0.869448, 0.866784, 0.854512, 0.856956, 0.858501, 0.861596, 0.862965, 0.864935, 0.866374, 0.866136, 0.865133, 0.867389, 0.869419, 0.859967, 0.860872, 0.869181, 0.868469, 0.868081, 0.869086, 0.869641, 0.864971, 0.866515, 0.866661, 0.867472, 0.86966, 1.54256, 0.881239, 0.883766, 0.882933, 0.883388, 0.884484, 0.885382, 0.890393, 0.892556, 0.893488, 0.89365, 0.892485, 0.892982, 0.916342, 0.00416347, 0.857884, 0.853281, 0.8558, 0.853766, 0.857795, 0.85934, 0.86048, 1.06477, 1.06654, 1.06835, 0.908741, 0.00353671, 0.918604, 0.00400555, 0.00417562, 1.00597, 0.932709, 0.934583, 0.93624, 0.93627, 0.936716, 0.938, 1.06115, 0.9241, 0.922455, 0.915812, 0.918612, 0.90852, 0.901069, 0.901784, 0.901358, 0.900682, 0.901212, 1.03695, 0.907546, 0.911367, 0.913267, 0.914466, 0.909709, 0.91594, 0.916679, 0.927885, 0.928007, 0.927119, 0.91596, 0.917509, 0.919441, 0.9212, 0.920568, 0.922858, 0.920392, 0.92547, 0.9275, 1.01535, 1.01684, 0.98158, 0.986276, 0.988093, 0.989795, 0.993681, 0.996852, 1.0001, 1.56697, 1.56717, 1.01116, 1.01451, 1.01464, 1.01584, 1.01954, 1.01614, 1.01994, 1.02059, 1.02459, 1.02788, 1.02932, 1.02994, 1.03343, 1.24004, 1.14006, 0.00377443, 1.09245, 1.09604, 1.09201, 1.09316, 1.09515, 1.09542, 0.00424173, 0.00390902, 1.05729, 1.0545, 1.05715, 1.05723, 1.17426, 1.0642, 1.06616, 1.06897, 1.06988, 1.36055, 1.3641, 1.23886, 1.14958, 1.05768, 1.06019, 1.06386, 1.06185, 1.06193, 1.05822, 0.00388059, 1.12187, 1.05349, 1.04832, 1.0465, 1.0453, 1.03942, 1.03653, 1.03685, 1.19099, 1.0468, 1.05879, 1.06115, 1.06222, 1.06487, 1.06556, 1.06546, 1.06884, 1.07295, 1.07454, 1.07769, 1.08145, 1.08209, 1.08426, 1.08814, 1.09021, 1.09002, 1.09072, 1.09419, 1.09147, 1.09112, 1.0925, 1.09982, 1.09806, 1.09946, 1.10404, 1.1168, 1.11891, 1.12047, 1.10655, 1.11022, 1.11138, 1.11184, 1.11266, 1.11647, 1.12011, 1.12527, 1.1279, 1.13123, 1.13378, 1.12467, 1.12138, 1.12531, 1.12865, 1.18553, 1.14122, 1.14308, 1.14548, 1.14623, 1.14395, 1.1498, 1.15046, 1.15583, 1.15657, 1.1592, 1.16, 1.16545, 1.16785, 1.17144, 1.17453, 1.18162, 1.18429, 1.18777, 1.19007, 1.19367, 1.19965, 1.19936, 1.20354, 1.1998, 1.20054, 1.20214, 1.20403, 1.21064, 1.21419, 1.21696, 1.29373, 1.22991
0.806731, 0.807198, 0.808124, 0.80874, 0.79831, 0.798557, 0.797105, 0.794587, 0.793929, 0.791847, 0.79177, 0.792617, 0.793246, 0.782413, 0.782264, 0.783817, 0.784576, 0.784859, 0.891431, 0.764147, 0.774242, 0.771896, 0.772573, 0.773109, 0.772119, 0.772341, 0.769242, 0.768881, 0.770093, 0.772686, 0.774573, 0.774393, 0.774662, 0.77644, 0.788117, 0.790192, 0.785973, 0.78717, 0.7891, 0.788865, 0.791683, 0.794552, 0.80629, 0.810317, 0.811332, 0.811973, 0.812106, 0.0033609, 0.821443, 0.877344, 0.846468, 0.847899, 0.849465, 0.858203, 0.86126, 0.862481, 0.862637, 0.864494, 0.884656, 0.86973, 0.869102, 0.846629, 0.943442, 0.85594, 0.859294, 0.86217, 0.862732, 0.864101, 0.864018, 0.859876, 0.858208, 0.858804, 0.856307, 0.856065, 0.856098, 0.85976, 0.858864, 0.859776, 0.860939, 0.859703, 0.866451, 0.868981, 0.86768, 0.867126, 0.868654, 0.867224, 0.868897, 0.869568, 0.869832, 0.871145, 0.873753, 0.874125, 0.878384, 0.878862, 0.881638, 0.881862, 0.890248, 0.892069, 0.893758, 0.894964, 0.89173, 0.891118, 0.891914, 0.892277, 0.894242, 1.00933, 1.0573, 1.06018, 1.01559, 0.854788, 0.856517, 0.857429, 1.05989, 0.0035481, 0.904261, 0.00400766, 0.903057, 1.80449, 0.00412758, 1.53253, 0.923516, 1.53991, 0.976588, 0.977366, 0.917364, 0.916107, 0.915886, 0.913846, 0.914831, 0.909006, 0.88878, 0.890876, 0.894387, 0.891555, 0.910232, 0.91329, 0.91418, 0.891691, 0.894755, 0.876996, 0.89866, 0.897159, 0.832213, 0.918509, 0.833469, 0.833491, 0.929043, 0.868, 0.867671, 0.876861, 0.913439, 0.915311, 0.920169, 0.922773, 0.922645, 0.925375, 0.924874, 0.92818, 0.930652, 1.14038, 0.00409062, 0.00405804, 0.982612, 0.987195, 0.989226, 0.990863, 0.992243, 1.16204, 1.07422, 1.18489, 0.00362942, 1.02419, 1.02371, 1.02855, 1.02848, 1.0288, 1.0302, 1.03167, 1.03341, 1.03526, 1.03723, 1.03929, 0.00387237, 1.11982, 1.05062, 0.0035754, 1.59281, 1.18518, 0.00390511, 0.00390552, 1.16127, 1.06274, 0.00407995, 1.35061, 1.0582, 1.05381, 1.05505, 1.05621, 0.00397021, 0.00371919, 0.00411251, 1.05269, 0.00366968, 0.00386946, 0.0035942, 0.00346223, 1.23227, 1.23406, 1.23718, 1.11316, 0.00341613, 1.03994, 1.03921, 1.03868, 1.03942, 1.04106, 1.04218, 1.041, 1.0417, 1.03967, 1.03782, 1.03817, 1.03914, 1.03982, 1.04224, 1.06248, 1.06358, 1.06563, 1.06691, 1.0689, 1.07419, 1.07499, 1.07752, 1.07912, 1.07902, 1.08041, 1.08302, 1.08614, 1.08862, 1.08806, 1.09062, 1.08949, 1.09302, 1.09626, 1.10111, 1.09934, 1.09915, 1.10172, 1.10309, 1.113, 1.1077, 1.11116, 1.10851, 1.10977, 1.10897, 1.11165, 1.11511, 1.25108, 1.21508, 1.13493, 1.13626, 1.13536, 1.13854, 1.14182, 1.14233, 1.14123, 1.14312, 1.14312, 1.14409, 1.14706, 1.14318, 1.14448, 1.14682, 1.14863, 1.15152, 1.15534, 1.15752, 1.16041, 1.17102, 1.17024, 1.17877, 1.1817, 1.18451, 1.19049, 1.193, 1.19504, 1.19913, 1.20184, 1.19707, 1.19614, 1.19899, 1.20009, 1.20462, 1.20486, 1.20887, 1.28012, 1.30329, 1.38109, 1.24466, 1.25183
0.795524, 0.796526, 0.798907, 0.802678, 0.803724, 0.79944, 0.799864, 0.797867, 0.785372, 0.784075, 0.782014, 0.779073, 0.780893, 0.780116, 0.782006, 0.782537, 0.783554, 0.762189, 0.761832, 0.762224, 0.762265, 0.770348, 0.77955, 0.781042, 0.783211, 0.783142, 0.77661, 0.772311, 0.77303, 0.768544, 0.770116, 0.769456, 0.768191, 0.768393, 0.777614, 0.782704, 0.785106, 0.785141, 0.797383, 0.799237, 0.800995, 0.803266, 0.893053, 0.813558, 0.814347, 0.81572, 0.835202, 0.836546, 0.842603, 0.843586, 0.843774, 0.848521, 0.849986, 0.853699, 0.856486, 0.87191, 0.873801, 0.959557, 0.89158, 0.842624, 0.842574, 0.845508, 0.852512, 0.854413, 0.858736, 0.859255, 0.859908, 0.857325, 0.858565, 0.859138, 0.854552, 0.85491, 0.855209, 0.856234, 0.855056, 0.858114, 0.858933, 0.859526, 0.863571, 0.865123, 0.864572, 0.868445, 0.869225, 0.86822, 0.867298, 0.869174, 0.870653, 0.878541, 0.880863, 0.870156, 0.87421, 0.874497, 0.875283, 0.881515, 0.883511, 0.870526, 0.872602, 0.873132, 0.876428, 0.893232, 0.893527, 0.893118, 0.895553, 0.897947, 0.897477, 0.897704, 0.897145, 0.898991, 0.900281, 0.900013, 0.904259, 0.907656, 0.907457, 0.90983, 0.911974, 0.912108, 0.912482, 0.91508, 0.91648, 1.13025, 0.910608, 0.909368, 0.909069, 0.911103, 0.91142, 0.905313, 0.905403, 0.905476, 0.899073, 0.890659, 0.892611, 0.892346, 0.877904, 0.878979, 0.88073, 0.877587, 0.879458, 0.883626, 0.875021, 0.891771, 0.894156, 0.904064, 0.848699, 0.852125, 0.850742, 0.849537, 0.850633, 0.854767, 0.856027, 0.915846, 0.917576, 0.926486, 0.920987, 0.920361, 0.922549, 0.924377, 0.925139, 1.10941, 1.1662, 1.02475, 1.02491, 0.970617, 0.972574, 0.975327, 0.995742, 0.995703, 0.997863, 1.00043, 1.00127, 1.00313, 1.02384, 1.02399, 1.02968, 1.03168, 1.03115, 1.03177, 1.03195, 1.03567, 1.03738, 1.03965, 1.04231, 0.00360718, 1.58552, 1.05169, 1.05508, 1.05647, 1.05955, 0.00339307, 1.04182, 1.04016, 1.34084, 0.00369271, 1.04216, 1.03339, 1.03139, 1.03403, 1.07087, 0.0037298, 1.08489, 0.00361925, 1.09492, 0.00415434, 1.08705, 0.00381607, 1.09132, 0.00352146, 1.14661, 1.14992, 1.14712, 1.03258, 1.0352, 1.03867, 1.0386, 1.03812, 1.04034, 1.04292, 1.04539, 1.04432, 1.04542, 1.03303, 1.03377, 1.03876, 1.03955, 1.04168, 1.04719, 1.06274, 1.06627, 1.06623, 1.06404, 1.06567, 1.07019, 1.06979, 1.07112, 1.08079, 1.08069, 1.08034, 1.08224, 1.08788, 1.08855, 1.09444, 1.09491, 1.09901, 1.099, 1.10059, 1.08995, 1.09205, 1.09434, 1.09956, 1.10493, 1.10669, 1.10922, 1.10814, 1.11145, 1.10931, 1.11045, 1.11304, 1.80243, 1.12937, 1.13312, 1.13506, 1.13297, 1.1372, 1.13762, 1.13988, 1.14164, 1.14454, 1.14507, 1.14749, 1.14884, 1.14433, 1.15281, 1.15036, 1.15996, 1.16489, 1.16508, 1.16655, 1.16691, 1.17081, 1.1694, 1.17405, 1.18353, 1.1875, 1.19128, 1.18877, 1.18928, 1.19121, 1.19347, 1.19448, 1.19769, 1.20116, 1.20814, 1.20913, 1.28578, 1.29269, 1.28846, 1.23978, 1.30794, 1.24826, 1.24847, 1.24681
0.790056, 0.790225, 0.796329, 0.800626, 0.857869, 0.787319, 0.786997, 0.787361, 0.78695, 0.779721, 0.78079, 0.780296, 0.778911, 0.779924, 0.781073, 0.78062, 0.76291, 0.763173, 0.764916, 0.764674, 0.773838, 0.776972, 0.779481, 0.774248, 0.774482, 0.774729, 0.77632, 0.775778, 0.770527, 0.770636, 0.772093, 0.775149, 0.775126, 0.779881, 0.78058, 0.780556, 0.79418, 0.795174, 0.79715, 0.797846, 0.818737, 0.820987, 0.8219, 0.83147, 0.832846, 0.835192, 0.836979, 0.841003, 0.842941, 0.844104, 0.845745, 0.845875, 0.00418966, 0.886827, 0.823447, 0.824813, 0.825811, 0.826128, 0.0038551, 0.843172, 0.847364, 0.848679, 0.846862, 0.848456, 0.848298, 0.849582, 0.849922, 0.852538, 0.853458, 0.850835, 0.85286, 0.855897, 0.855399, 0.856881, 0.858176, 0.859496, 0.85944, 0.856205, 0.850639, 0.86687, 0.869875, 0.870594, 0.870694, 0.870252, 0.875902, 0.873972, 0.938965, 0.893899, 0.894811, 0.889562, 0.890105, 0.873779, 0.871695, 0.872806, 0.87456, 0.867428, 1.01564, 1.0176, 1.01732, 0.892172, 0.89382, 0.894483, 0.896512, 0.895158, 0.892607, 0.894479, 0.896284, 0.900871, 0.902947, 0.904215, 0.90212, 1.52275, 0.905778, 0.91074, 0.91179, 0.911236, 0.905208, 0.901117, 0.895629, 0.892552, 0.896906, 0.902581, 0.904998, 0.822897, 0.828906, 0.890432, 0.917973, 0.868703, 0.868751, 0.900408, 0.882952, 0.878822, 0.852169, 0.842722, 0.842155, 0.84136, 0.849726, 0.851645, 0.935146, 0.863501, 0.850098, 0.850224, 0.850704, 0.846347, 0.848156, 0.870306, 0.934453, 0.937213, 0.938223, 0.936818, 0.939547, 0.894914, 0.919903, 0.917143, 0.91801, 0.930788, 0.954734, 0.959962, 1.01516, 0.970939, 0.977307, 0.98015, 0.982495, 0.983663, 0.992452, 0.99192, 0.993042, 0.995753, 0.998742, 1.00129, 1.02224, 1.02303, 1.0283, 1.02918, 1.03056, 1.03829, 1.03666, 1.04147, 1.04092, 1.03047, 1.04011, 0.00370648, 0.00388839, 0.00403756, 0.00353703, 0.00410365, 1.62689, 0.00348582, 0.00362864, 1.0334, 1.03276, 1.02522, 1.02333, 0.00396978, 0.00401668, 1.07706, 0.00384634, 1.07368, 1.00885, 1.00938, 1.36892, 1.01188, 1.00444, 1.00842, 1.0093, 1.0141, 1.01394, 1.0213, 1.02429, 1.02934, 1.03379, 1.04087, 1.0445, 1.04736, 1.04949, 1.05044, 1.04956, 1.04802, 1.04247, 1.04149, 1.04285, 1.04352, 1.042, 1.0464, 1.05002, 1.06339, 1.0649, 1.06674, 1.06762, 1.07006, 1.07315, 1.07324, 1.07294, 1.07366, 1.07597, 1.07858, 1.08579, 1.08945, 1.09044, 1.09407, 1.09404, 1.09685, 1.0995, 1.10215, 1.10088, 1.10149, 1.11223, 0.0042666, 1.11533, 1.11828, 1.11852, 1.12636, 1.1133, 1.11585, 1.12048, 1.19383, 1.26024, 1.13731, 1.14215, 1.14273, 1.1425, 1.14057, 1.14325, 1.1456, 1.14942, 1.14961, 1.14604, 1.14782, 1.14736, 1.15187, 1.15401, 1.15747, 1.16102, 1.1602, 1.16573, 1.1661, 1.17451, 1.18246, 1.18316, 1.1859, 1.18314, 1.18222, 1.18684, 1.18733, 1.19213, 1.20122, 1.27267, 1.27814, 1.23181, 1.23005, 1.22994, 1.23099, 1.23158, 1.23687, 1.23735, 1.24218, 1.24334, 1.24463, 1.24828, 1.25324
0.791083, 0.790002, 0.781611, 0.78112, 0.783184, 0.783917, 0.786039, 0.786972, 0.00353064, 0.769936, 0.77011, 0.757904, 0.758304, 0.759183, 0.759394, 0.760675, 0.754737, 0.758223, 0.757948, 0.771552, 0.772398, 0.77503, 0.775348, 0.778931, 0.77743, 0.777063, 0.769682, 0.771407, 0.771699, 0.772277, 0.772466, 0.798941, 0.798361, 0.800341, 0.799189, 0.799397, 0.924252, 0.820672, 0.822974, 0.823594, 0.827806, 0.828589, 0.82939, 0.831954, 0.834633, 0.835388, 0.905069, 0.815672, 0.814947, 0.817958, 0.816797, 0.818574, 0.821083, 0.821423, 0.824385, 0.825715, 0.830174, 0.832205, 0.832097, 0.833545, 0.833901, 0.840972, 0.843417, 0.845368, 0.847526, 0.848673, 0.850979, 0.854856, 0.858609, 0.859905, 0.860646, 0.85133, 0.852614, 0.850379, 0.850189, 0.848999, 0.85294, 0.847884, 0.848863, 0.849847, 0.936923, 0.864219, 0.868079, 0.874385, 0.888383, 0.889173, 0.89187, 0.89458, 0.887498, 0.888745, 0.889007, 0.890147, 0.88869, 0.889109, 0.887517, 0.888298, 0.887103, 0.88677, 0.886599, 0.888232, 0.890978, 0.895053, 0.895545, 0.897481, 0.897941, 0.899426, 0.898828, 0.901333, 0.902466, 0.899842, 0.900582, 0.901583, 0.901086, 0.904261, 0.904507, 0.900341, 0.895287, 0.897013, 0.897659, 0.897767, 0.816523, 0.817786, 0.81987, 0.817937, 0.818859, 0.821634, 0.821721, 0.85322, 0.873864, 0.863932, 0.839346, 0.844051, 0.856317, 0.830114, 0.830054, 0.833035, 0.825969, 0.820074, 0.820192, 0.839572, 0.835173, 0.834888, 0.843233, 0.863361, 0.841355, 0.912598, 0.923944, 0.911251, 0.90802, 0.926731, 0.916675, 0.918134, 0.904345, 0.897612, 0.898179, 0.904543, 0.904056, 0.903751, 0.92398, 0.925379, 0.939817, 1.00006, 1.00297, 1.00661, 1.00853, 1.01039, 1.01112, 1.01234, 1.01444, 1.01682, 1.00871, 1.01248, 1.02209, 1.02586, 1.02706, 1.02561, 0.00369287, 0.00378068, 1.0323, 1.02306, 1.00558, 1.30116, 1.11838, 0.00351226, 0.00367949, 0.00414337, 1.12892, 1.07811, 1.14296, 1.01099, 1.07415, 1.00833, 1.00262, 0.990898, 0.991796, 0.993068, 0.995966, 1.36298, 0.992967, 0.996254, 0.998721, 1.00034, 1.00318, 1.00268, 1.00887, 1.01843, 1.18589, 1.02972, 1.03229, 1.03427, 1.03654, 1.0379, 1.04064, 1.0456, 1.04809, 1.05093, 1.05326, 1.04254, 1.04146, 1.04399, 1.04367, 1.04344, 1.04348, 1.04496, 1.0487, 1.05824, 1.0623, 1.06344, 1.06837, 1.06834, 1.0712, 1.07216, 1.07362, 1.07553, 1.08228, 1.08467, 1.09003, 1.09519, 1.09552, 1.09109, 1.09191, 1.09519, 1.09707, 1.09873, 1.10272, 1.1116, 1.11344, 1.11485, 1.11384, 1.11531, 1.11873, 1.12219, 1.12389, 1.12475, 1.12685, 1.13014, 1.13406, 1.13635, 1.14759, 1.15136, 1.15482, 1.13917, 1.13974, 1.14493, 1.1464, 1.14734, 1.15016, 1.15631, 1.15754, 1.16052, 1.16153, 1.16432, 1.1661, 1.16947, 1.17384, 1.17448, 1.17891, 1.18175, 1.18432, 1.18139, 1.18323, 1.44016, 1.2298, 1.2103, 1.21045, 1.22621, 1.22612, 1.32485, 1.23654, 1.2366, 1.23946, 1.23711, 1.23516, 1.24037, 1.24092, 1.24072, 1.23993, 1.24476, 1.24698, 1.2501
0.787033, 0.768671, 0.770439, 0.768728, 0.769483, 0.769132, 0.768001, 0.76683, 0.766974, 0.766229, 0.759238, 0.758187, 0.758899, 0.759137, 0.760315, 0.760757, 0.76174, 0.764421, 0.767386, 0.7678, 0.76888, 0.773342, 0.782936, 0.784283, 0.785528, 0.769655, 0.766885, 0.779649, 0.797588, 0.798125, 0.800332, 0.800507, 0.800972, 0.798856, 0.80268, 0.823869, 0.825767, 0.826668, 0.824025, 0.814648, 0.827019, 0.829057, 0.00390624, 0.802208, 0.804738, 0.804204, 0.808391, 0.81282, 0.819138, 0.821192, 0.822167, 0.821837, 0.809429, 0.810062, 0.815841, 0.815285, 0.818046, 0.825471, 0.829683, 0.832919, 0.834604, 0.834671, 0.932165, 0.84279, 0.845791, 0.848599, 0.849684, 0.852163, 0.852072, 0.849876, 0.852755, 0.853325, 0.845243, 0.844283, 0.845146, 0.845621, 0.845005, 0.840792, 0.845627, 0.850041, 0.853749, 0.862201, 1.54157, 0.915329, 0.885753, 0.885694, 0.886381, 0.882547, 0.8825, 0.883583, 0.886778, 0.888351, 0.885777, 0.887192, 0.88609, 0.885688, 0.886551, 0.89062, 0.888349, 0.892649, 0.892983, 0.894059, 0.894753, 0.89589, 0.896279, 0.899019, 0.899189, 0.900586, 0.902101, 0.899635, 0.899693, 0.898376, 0.892163, 0.894175, 0.89523, 0.894911, 0.89744, 0.900779, 0.868986, 0.872804, 0.835667, 0.838496, 0.828838, 0.821509, 0.821252, 0.821621, 0.818783, 0.859701, 0.821968, 0.82188, 0.829944, 0.833152, 0.833242, 0.803765, 0.803715, 0.809598, 0.85728, 0.832692, 0.85653, 0.855375, 0.835988, 0.860324, 0.836225, 0.843018, 0.847, 0.86373, 0.901574, 0.897644, 0.88517, 0.894041, 0.894039, 0.89797, 0.924402, 0.887848, 0.876965, 0.880429, 0.874601, 0.897253, 0.921422, 0.919761, 0.921718, 0.919261, 0.93966, 0.939612, 0.937296, 0.936905, 0.978053, 0.919706, 0.920656, 0.908876, 0.912182, 0.915782, 0.915944, 0.946808, 0.912887, 0.934667, 0.930258, 0.99132, 1.07851, 1.29938, 1.00381, 1.0048, 1.00794, 1.00762, 1.00939, 1.174, 1.11006, 1.16944, 0.003734, 1.09889, 0.992908, 0.996823, 0.992483, 0.994097, 0.993267, 0.992141, 0.992799, 0.991076, 0.999146, 1.00045, 0.999281, 1.00129, 1.00758, 1.01118, 1.012, 1.03839, 1.02246, 1.02797, 1.03139, 1.0334, 1.03999, 1.04149, 1.04657, 1.05104, 1.05298, 1.05546, 1.05595, 1.05299, 1.05196, 1.04436, 1.04427, 1.04555, 1.04117, 1.0431, 1.04592, 1.1335, 1.06105, 1.0634, 1.06559, 1.06791, 1.06837, 1.07242, 1.07403, 1.08213, 1.08823, 1.09092, 1.0865, 1.08709, 1.08777, 1.09033, 1.09545, 1.10646, 1.10598, 1.10961, 1.11435, 1.11654, 1.11825, 1.11586, 1.12031, 1.12226, 1.12264, 1.12452, 1.12487, 1.12651, 1.12852, 1.13028, 1.13878, 1.13991, 1.1506, 1.15169, 1.15556, 1.15649, 1.15318, 1.15159, 1.15306, 1.15303, 1.15601, 1.15216, 1.15659, 1.15941, 1.16104, 1.16262, 1.22036, 1.42012, 1.18864, 1.18964, 1.19088, 1.18325, 1.18779, 1.1912, 1.1921, 1.19902, 1.36895, 1.28776, 1.22397, 1.22761, 1.22983, 1.23328, 1.22953, 1.23262, 1.23389, 1.23562, 1.42703, 1.28752, 1.24211, 1.24006, 1.23404, 1.23615, 1.21816, 1.24215
0.764302, 0.765889, 0.763541, 0.764125, 0.764233, 0.761409, 0.759621, 0.757287, 0.756366, 0.757392, 0.758655, 0.759025, 0.758319, 0.760464, 0.766751, 0.769769, 0.768483, 0.768062, 0.766748, 0.766988, 0.768398, 0.782102, 0.783708, 0.783476, 0.784478, 0.790882, 0.793059, 0.793204, 0.792301, 0.792706, 0.794774, 0.79489, 0.796206, 0.80135, 0.797267, 0.796185, 0.825052, 0.807967, 0.808702, 0.812714, 0.810038, 0.809994, 0.800649, 0.800474, 0.800735, 0.799033, 0.94189, 0.815404, 0.816286, 0.818413, 0.819758, 0.807468, 0.810481, 0.810987, 0.810792, 0.811691, 0.818766, 0.824051, 0.829808, 0.82539, 0.825721, 0.834826, 0.835012, 0.834079, 0.834739, 0.836849, 0.837746, 0.843199, 0.844398, 0.844543, 0.849444, 0.850109, 0.851055, 0.851468, 0.848439, 0.842303, 0.843966, 0.847167, 0.84827, 0.851181, 0.865385, 0.867021, 0.867044, 0.869124, 0.871249, 0.875293, 0.876247, 0.876133, 0.876624, 0.876732, 0.87324, 0.872418, 0.878498, 0.882603, 0.885107, 0.885234, 0.888081, 0.889698, 0.890458, 0.898147, 0.900105, 0.900997, 0.902752, 0.904203, 0.899113, 0.899412, 0.900353, 0.895455, 0.894034, 0.892189, 0.892132, 0.893915, 0.896867, 0.897875, 0.908073, 0.908067, 0.880603, 0.851135, 0.83871, 0.833404, 0.835326, 0.877755, 0.822163, 0.822375, 0.861499, 0.797721, 0.842493, 0.814163, 0.826147, 0.825447, 0.82625, 0.826899, 0.825761, 0.842784, 0.836508, 0.828914, 0.828825, 0.827186, 0.852267, 0.854411, 0.886228, 0.877591, 0.888413, 0.881977, 0.880645, 0.899585, 0.915917, 0.915493, 0.914572, 0.915291, 0.907877, 0.883261, 0.898334, 0.876375, 0.872049, 0.89499, 0.875627, 0.877963, 0.885612, 0.889413, 0.896222, 0.897005, 0.894877, 0.90966, 0.890909, 0.916399, 0.897062, 0.914754, 0.887987, 0.89537, 0.893019, 0.894826, 0.904034, 0.909139, 0.906014, 0.905354, 0.908736, 0.909582, 0.910011, 0.966762, 0.968361, 0.973605, 0.975284, 0.977005, 0.978759, 0.987743, 0.988569, 0.989184, 0.991496, 0.993796, 0.995179, 0.996586, 1.00214, 1.00762, 1.00851, 1.00983, 1.05472, 1.01403, 1.0154, 1.01394, 1.01399, 1.01576, 1.01907, 1.02082, 1.02161, 1.02374, 1.02517, 1.03047, 1.03302, 1.03601, 1.03976, 1.04211, 1.04752, 1.04868, 1.05062, 1.05233, 1.05269, 1.04742, 1.04767, 1.04838, 1.0477, 1.04896, 1.04471, 1.04283, 1.04896, 1.04957, 1.05353, 1.05615, 1.05642, 1.41254, 1.07216, 0.00341156, 1.08292, 1.08281, 1.08654, 1.08909, 1.09331, 1.09666, 1.10004, 1.10124, 1.10933, 1.11222, 1.11534, 1.11542, 1.11943, 1.12249, 1.12328, 1.12012, 1.12137, 1.12105, 1.12255, 1.12505, 1.12668, 1.12934, 1.13214, 1.13271, 1.13826, 1.14459, 1.14573, 1.14769, 1.14939, 1.15093, 1.153, 1.15466, 1.15688, 1.1638, 1.20563, 1.19284, 1.16515, 1.16696, 1.17395, 1.17576, 1.17951, 1.18231, 1.18655, 1.19213, 1.19308, 1.18924, 1.18951, 1.19226, 1.19959, 1.20166, 1.21032, 1.21689, 1.22176, 1.22264, 1.22539, 1.3301, 1.24928, 1.24591, 1.24734, 1.24832, 1.25236, 1.2526, 1.25183, 1.25641, 1.25471, 1.24035, 1.2598, 1.26138
0.759636, 0.761019, 0.762724, 0.762304, 0.77327, 0.773399, 0.762095, 0.755608, 0.76054, 0.76306, 0.764602, 0.764704, 0.764996, 0.765291, 0.764905, 0.765157, 0.754485, 0.75561, 0.760518, 0.750059, 0.752518, 0.781565, 0.783087, 0.782654, 0.785031, 0.788485, 0.787167, 0.790075, 0.79325, 0.794768, 0.796963, 0.79699, 0.799326, 0.801194, 0.802544, 0.806276, 0.80876, 0.808237, 0.810739, 0.809625, 0.810685, 0.932342, 0.00365239, 0.776959, 0.775604, 0.77481, 0.783346, 0.785515, 0.789244, 0.795335, 0.804782, 0.806932, 0.808001, 0.80924, 0.810192, 0.812526, 0.813335, 0.815171, 0.817378, 0.817912, 0.819578, 0.823574, 0.828599, 0.830478, 0.834244, 0.835765, 0.839268, 0.842276, 0.845249, 0.848849, 0.851005, 0.845491, 0.84652, 0.84953, 0.848432, 0.848423, 0.847058, 0.854739, 0.861669, 0.861749, 0.870661, 0.871886, 0.872367, 0.87129, 0.873002, 0.87365, 0.873847, 0.87415, 0.874883, 0.87441, 0.861871, 0.876663, 0.875578, 0.883018, 0.885951, 1.5241, 1.52551, 1.52186, 0.905162, 0.904743, 0.904088, 0.904027, 0.899383, 0.897852, 0.897715, 0.897406, 0.895876, 0.90075, 0.899184, 0.899113, 0.901718, 0.863455, 0.865254, 0.867104, 0.836196, 0.83617, 0.823681, 0.822009, 0.808487, 0.809246, 0.829065, 0.822406, 0.828901, 0.816819, 0.798003, 0.774803, 0.77551, 0.853093, 0.875295, 0.838756, 0.823514, 0.824975, 0.822576, 0.848753, 0.84888, 0.888049, 0.890853, 0.863262, 0.869282, 0.870415, 0.955418, 0.955612, 0.965878, 0.90466, 0.908444, 0.938891, 0.938913, 0.902897, 0.923144, 0.938436, 0.908127, 0.913358, 0.882985, 0.891842, 0.911032, 0.909917, 0.909305, 0.909971, 0.921732, 0.895638, 0.89748, 0.911242, 0.905632, 0.893265, 0.894428, 0.900838, 0.922725, 0.917757, 0.909191, 0.888702, 0.886824, 0.883319, 0.884154, 0.897539, 0.911183, 0.92154, 0.922913, 0.92858, 0.927816, 0.977754, 0.981638, 0.98513, 0.974767, 0.977377, 0.978818, 0.989626, 0.990948, 0.994098, 0.992728, 0.993339, 0.99495, 0.99718, 0.999641, 1.01079, 1.06132, 1.22617, 1.01918, 1.02342, 1.0246, 1.01585, 1.01502, 1.01479, 1.01265, 1.01414, 1.01366, 1.01724, 1.01914, 1.02338, 1.12612, 1.03311, 1.03233, 1.03607, 1.03815, 1.0365, 1.04307, 1.04341, 1.04396, 1.04453, 1.0484, 1.05033, 1.04254, 1.04441, 1.04737, 1.05207, 1.05371, 1.05633, 1.05805, 1.0602, 1.06849, 1.07134, 1.07427, 1.07711, 1.08297, 1.08377, 1.0881, 1.09199, 1.09466, 1.09645, 1.09797, 1.10216, 1.1109, 1.10925, 1.113, 1.1167, 1.12342, 1.1229, 1.12522, 1.11944, 1.12338, 1.12348, 1.1247, 1.13208, 1.1323, 1.13405, 1.13376, 1.13341, 1.13916, 1.14214, 1.14359, 1.15063, 1.19583, 1.15482, 1.15851, 1.16508, 1.17159, 1.1723, 1.17043, 1.17506, 1.17219, 1.17077, 1.1711, 1.17186, 1.17211, 1.17061, 1.17566, 1.18257, 1.18264, 1.18437, 1.18922, 1.19198, 1.19567, 1.2002, 1.20753, 1.21137, 1.2135, 1.38976, 1.24826, 1.25177, 1.25033, 1.23959, 1.24115, 1.24646, 1.24337, 1.2463, 1.2495, 1.25651, 1.2546, 1.26191, 1.25863, 1.25894
0.759401, 0.75917, 0.766235, 0.767567, 0.772307, 0.773571, 0.761222, 0.759446, 0.757763, 0.760031, 0.759112, 0.736511, 0.869575, 0.866627, 0.745575, 0.862959, 0.756177, 0.757707, 0.748835, 0.749553, 0.754271, 0.754874, 0.755605, 0.780349, 0.778565, 0.780974, 0.787875, 0.794128, 0.794783, 0.804325, 0.80327, 0.804867, 0.807661, 0.807523, 0.805969, 0.806451, 0.80818, 0.810045, 0.791356, 0.79217, 0.793843, 0.791753, 0.792097, 0.774079, 0.77118, 0.772921, 0.782772, 0.785361, 0.78704, 0.788971, 0.803155, 0.805381, 0.806373, 0.807539, 0.809439, 0.81107, 0.814676, 0.816883, 0.819046, 0.817726, 0.819749, 0.821368, 0.822082, 0.823522, 0.824348, 0.831038, 0.829502, 0.833157, 0.834286, 0.837384, 0.844256, 0.846627, 0.849205, 0.848935, 0.849731, 0.852713, 0.858156, 0.860502, 0.86271, 0.865061, 0.864153, 0.865982, 0.857706, 0.859204, 0.862505, 0.864692, 0.865446, 0.865682, 0.871862, 0.873101, 0.875315, 0.875411, 0.883585, 0.891573, 0.902972, 0.905005, 0.907064, 0.907588, 0.89841, 0.898253, 0.90052, 0.900172, 0.904072, 0.904064, 0.903862, 0.899224, 0.865353, 0.866946, 0.868495, 0.868319, 0.869972, 0.847912, 0.850213, 0.805255, 0.798887, 0.800486, 0.800818, 0.801909, 0.814929, 0.817815, 0.788842, 0.846186, 0.792828, 0.793089, 0.822071, 0.852869, 0.842215, 0.828114, 0.828451, 0.897766, 0.876351, 0.870216, 0.87019, 0.869644, 0.88121, 0.905262, 0.903134, 0.904239, 0.883649, 0.927221, 0.92961, 0.909793, 0.953698, 0.933631, 0.90776, 0.908932, 0.917302, 0.9436, 0.943255, 0.957928, 0.960488, 0.953522, 1.04713, 0.97579, 0.96765, 0.971855, 0.952745, 0.934084, 0.93064, 0.94691, 0.946748, 0.940883, 0.908828, 0.921887, 0.92209, 1.04823, 0.91104, 0.891504, 0.893862, 0.905955, 0.90787, 0.88391, 0.869431, 0.90103, 0.891679, 0.89594, 0.894745, 0.896719, 0.899938, 0.900853, 0.96065, 0.00394759, 1.14786, 1.15079, 1.29631, 0.977326, 0.982357, 0.985896, 0.986266, 0.990516, 0.991726, 0.992134, 1.00001, 1.00557, 1.18929, 1.01797, 1.01822, 1.01566, 1.01337, 1.01478, 1.01265, 1.0121, 1.014, 1.01411, 1.01742, 1.01801, 1.01949, 1.02319, 1.02485, 1.02546, 1.02633, 1.03015, 1.03232, 1.03762, 1.03977, 1.04318, 1.04293, 1.04736, 1.04914, 1.04974, 1.05131, 1.05226, 1.05127, 1.05271, 1.05502, 1.06184, 1.06269, 1.06768, 1.13341, 1.07434, 1.08056, 1.08035, 1.09166, 1.09312, 1.09508, 1.11028, 1.10644, 0.00340561, 1.15165, 0.00356815, 1.13529, 1.14319, 1.14147, 0.00370636, 1.13886, 1.13856, 1.13079, 1.13119, 1.13279, 1.12981, 1.12932, 1.12945, 1.13218, 1.13478, 1.13623, 1.14127, 1.21338, 1.17893, 1.18099, 1.22469, 1.16802, 1.17024, 1.17085, 1.16551, 1.16602, 1.16296, 1.16756, 1.16915, 1.1715, 1.17269, 1.179, 0.00345271, 1.2745, 1.17491, 1.18093, 1.18062, 1.18389, 1.18654, 1.19415, 1.19508, 1.19748, 1.19426, 1.19541, 1.32236, 1.21146, 1.38752, 1.3022, 1.23433, 1.23444, 1.23652, 1.34117, 0.00364118, 1.39586, 0.00352055, 1.39216, 1.32987, 1.39548, 1.27695, 1.38169, 1.28638
0.761219, 0.763241, 0.765132, 0.767038, 0.769312, 0.759797, 0.754042, 0.756665, 0.725497, 0.726782, 0.73511, 0.735086, 0.736584, 0.744846, 0.746389, 0.747771, 0.749234, 0.759277, 0.745118, 0.746106, 0.74674, 0.746606, 0.00347284, 0.778593, 0.779552, 0.780502, 0.774674, 0.774381, 0.774396, 0.865091, 0.80234, 0.804042, 0.803885, 0.804157, 0.788413, 0.789727, 0.79, 0.791905, 0.791022, 0.790779, 0.797867, 0.799588, 0.797048, 0.795602, 0.783842, 0.785555, 0.784064, 0.784479, 0.783809, 0.787924, 0.799519, 0.898279, 0.00384353, 0.818304, 0.821925, 0.825965, 0.827058, 0.827075, 0.828315, 0.820177, 0.821727, 0.821381, 0.822638, 0.823698, 0.82458, 0.824906, 0.828067, 0.827224, 0.834931, 0.838396, 0.838803, 0.844664, 0.855143, 0.857782, 0.858019, 0.858602, 0.859234, 0.860344, 0.868124, 0.867845, 0.861775, 0.859759, 0.85879, 0.860319, 0.861421, 0.865843, 0.866906, 0.867721, 0.00359598, 0.00368217, 0.891218, 0.891907, 0.898109, 0.954079, 0.901638, 0.895727, 0.89661, 0.898186, 0.898223, 0.898551, 0.901274, 0.901739, 1.05804, 0.928608, 0.872491, 0.869752, 0.870422, 0.869911, 0.874562, 0.87607, 0.825571, 0.826573, 0.827378, 0.815653, 0.804666, 0.765541, 0.80974, 0.773163, 0.833118, 0.846089, 0.836473, 0.833191, 0.835128, 0.836009, 0.846879, 0.835331, 0.835783, 0.95058, 0.865008, 0.870719, 0.87391, 0.874918, 0.904889, 0.89083, 0.890405, 0.89784, 0.91221, 0.932416, 0.950849, 0.941855, 0.925006, 0.956644, 0.959901, 0.961111, 0.933849, 0.953597, 0.940086, 0.938405, 0.936844, 0.941675, 0.9613, 0.963731, 0.964437, 0.94245, 0.967598, 0.960244, 0.922477, 0.92667, 0.925549, 0.925591, 0.958492, 0.96437, 0.935905, 0.938568, 0.931478, 0.917437, 0.918404, 0.928842, 0.932664, 0.916918, 0.917677, 0.885118, 0.886984, 0.894993, 0.870031, 0.895658, 0.87071, 0.871969, 0.895263, 0.926223, 0.927223, 0.937511, 0.959103, 0.954285, 0.95536, 0.976992, 0.979028, 0.979885, 0.982031, 0.986236, 0.990748, 0.991583, 1.6488, 1.65048, 1.65167, 1.00807, 1.00995, 1.01161, 1.01314, 1.01597, 1.01909, 1.02055, 1.0218, 1.02226, 1.02142, 1.02185, 1.02074, 1.0202, 1.02204, 1.02564, 1.03184, 1.03287, 1.03789, 1.03888, 1.04148, 1.04428, 1.04387, 1.04558, 1.04845, 1.04937, 1.05045, 1.05182, 1.0536, 1.05706, 1.73132, 1.73052, 1.07241, 1.07559, 1.18983, 1.08348, 1.08719, 1.16754, 1.09932, 1.10267, 1.10523, 1.28689, 1.25144, 1.23767, 1.14739, 1.14664, 1.15058, 1.15239, 1.15466, 1.16236, 1.18858, 1.12855, 1.12625, 1.12908, 1.13064, 1.13148, 1.13074, 1.21804, 1.22213, 1.16172, 1.15205, 1.15445, 1.1581, 1.16343, 1.15254, 1.15676, 1.15651, 1.15921, 1.16177, 1.16078, 1.16486, 1.16528, 1.16782, 1.17018, 1.2415, 1.1957, 1.19812, 1.19909, 1.19445, 1.19251, 1.19351, 1.19642, 1.19847, 1.19369, 1.19423, 1.1912, 1.19171, 1.19449, 1.2042, 1.20598, 1.20984, 1.37547, 1.30992, 1.31994, 1.29622, 1.38465, 1.26448, 1.26509, 1.26794, 1.26895, 1.27427, 1.27441, 1.27529, 1.278, 1.41186, 0.00358733
0.761974, 0.761735, 0.76292, 0.763502, 0.725246, 0.725687, 0.727269, 0.728287, 0.729318, 0.740851, 0.742349, 0.742031, 0.74027, 0.740278, 0.74124, 0.752656, 0.752685, 0.743192, 0.746188, 0.746775, 0.749005, 0.747752, 0.750579, 0.754769, 0.757796, 0.761675, 0.763946, 0.769534, 0.771346, 0.774942, 0.799689, 0.800596, 0.799864, 0.789481, 0.790434, 0.790581, 0.792067, 0.792427, 0.787537, 0.786905, 0.787389, 0.786348, 0.785861, 0.785944, 0.785833, 0.786134, 0.786581, 0.784905, 0.783496, 0.784404, 0.79219, 0.798014, 0.803439, 0.803311, 0.80901, 0.825522, 0.825919, 0.830263, 0.831698, 0.831564, 0.828853, 0.831275, 0.831503, 0.831999, 0.822957, 0.823462, 0.842364, 0.841093, 0.842996, 0.843441, 0.844336, 0.850858, 0.856644, 0.86087, 0.865038, 0.863969, 0.864558, 0.865376, 0.866702, 0.862061, 0.850983, 0.853166, 0.853571, 0.851793, 0.87192, 0.873828, 0.8766, 0.871787, 0.872744, 0.873433, 0.884453, 0.886982, 0.89547, 0.896768, 0.897619, 0.897277, 0.897277, 0.900489, 0.902614, 0.895386, 0.891235, 0.88445, 0.883843, 0.875451, 0.876007, 0.883093, 0.883616, 0.87366, 0.874497, 0.818312, 0.842989, 0.79742, 0.789662, 0.781816, 0.790982, 0.792199, 0.763276, 0.815125, 0.881178, 0.883427, 0.88493, 0.828819, 0.850139, 0.851832, 0.854413, 0.860069, 0.87119, 0.867272, 0.894224, 0.904709, 0.938642, 0.89892, 0.926677, 0.907454, 0.920179, 0.960384, 0.964073, 0.967627, 0.977417, 0.979759, 0.973536, 0.981579, 1.09414, 1.09533, 0.936607, 0.970989, 0.974534, 0.969517, 0.970192, 0.991093, 0.97875, 0.98035, 0.989469, 0.957051, 0.958969, 0.939526, 0.946501, 0.945684, 0.941653, 0.913937, 0.910568, 0.936693, 0.938413, 0.940687, 0.941245, 0.956432, 0.92274, 0.926835, 0.918474, 0.91722, 0.946221, 0.923103, 0.921929, 0.920938, 0.903048, 0.915364, 0.944633, 0.929608, 0.923982, 0.912595, 0.878138, 0.911198, 0.948121, 0.934051, 0.955893, 0.951311, 0.937089, 0.974246, 0.978679, 0.987353, 0.984541, 0.987586, 0.989683, 1.22048, 1.30362, 1.00806, 1.01284, 1.0168, 1.01672, 1.02269, 1.02252, 1.02274, 1.01886, 1.01999, 1.02193, 1.02351, 1.02836, 1.02981, 1.03253, 1.02389, 1.02661, 1.0307, 1.03447, 1.03707, 1.04334, 1.04503, 1.04996, 1.04793, 1.04702, 1.05, 1.05284, 0.00361551, 1.06592, 0.00386281, 1.08464, 1.08428, 1.08381, 1.08285, 1.08488, 1.08749, 1.09086, 1.09285, 1.09603, 1.10202, 1.25794, 0.00360667, 1.14544, 0.00365668, 1.14992, 1.16719, 1.31359, 0.00347751, 1.12351, 1.12682, 1.12755, 1.12812, 1.12919, 1.13049, 1.13493, 1.13994, 1.13922, 1.14052, 1.18263, 1.14368, 1.1467, 1.14498, 1.14928, 1.14864, 1.15202, 1.15388, 1.15639, 1.15777, 1.1627, 1.16757, 1.16586, 1.37137, 1.19014, 1.18806, 1.35451, 1.19688, 1.189, 1.19166, 1.18907, 1.19118, 1.19512, 1.20002, 1.20493, 1.20231, 1.19989, 1.20141, 1.20166, 1.20049, 1.20612, 1.20861, 1.37531, 0.00373033, 1.38175, 1.25326, 1.25535, 1.25716, 1.39919, 1.36858, 1.36394, 1.36755, 1.36775, 1.36753, 1.40558, 0.00355917, 1.32578, 1.32675
0.72673, 0.725297, 0.724904, 0.726316, 0.727282, 0.72728, 0.727385, 0.742475, 0.742679, 0.740855, 0.741703, 0.742629, 0.744721, 0.740982, 0.741508, 0.740571, 0.741007, 0.741574, 0.741112, 0.735193, 0.734246, 0.744883, 0.748804, 0.751277, 0.755495, 0.761641, 0.765723, 0.770787, 0.776654, 0.777873, 0.79001, 0.7911, 0.791531, 0.79168, 0.792331, 0.792077, 0.7919, 0.793336, 0.79385, 0.79055, 0.789321, 0.78779, 0.784761, 0.787781, 0.789654, 0.792398, 0.793194, 0.792236, 0.787268, 0.788899, 0.797354, 0.800062, 0.801466, 0.805991, 0.807315, 0.807874, 0.00380377, 0.83959, 0.00352872, 0.842584, 0.84605, 0.831197, 0.834346, 0.835025, 0.83784, 0.838795, 0.8402, 0.841924, 0.843263, 0.843628, 0.851119, 0.851419, 0.852508, 0.853577, 0.853561, 0.855618, 0.856758, 0.860074, 0.861187, 0.862656, 0.86271, 0.870044, 0.869312, 0.869571, 0.871757, 0.872796, 0.872288, 0.872553, 0.882499, 0.884279, 0.885866, 0.890127, 0.892375, 0.893019, 0.895866, 0.897036, 0.891409, 0.890251, 0.890642, 0.889429, 0.889831, 0.890011, 0.878632, 0.879912, 0.799289, 0.8155, 0.797783, 0.801423, 0.803426, 0.825381, 0.78074, 0.780487, 0.748808, 0.750627, 0.777184, 0.777698, 0.858356, 0.833305, 0.830882, 0.82886, 0.849574, 0.859565, 0.841938, 0.842447, 0.873745, 0.907332, 0.895639, 0.895002, 0.917837, 0.919011, 0.941435, 0.933188, 0.952098, 0.952887, 0.949829, 0.984262, 0.999505, 1.00425, 1.00371, 1.18309, 1.02927, 0.998158, 0.990287, 0.997519, 1.00532, 0.999458, 1.00366, 0.996411, 1.00761, 1.00676, 1.02312, 1.00625, 1.06663, 1.06665, 1.13964, 1.14001, 1.14372, 1.14821, 0.953743, 0.957153, 0.960777, 0.955813, 0.952978, 0.963488, 0.971324, 0.987535, 0.936696, 0.919243, 0.916238, 0.916352, 0.918121, 0.916554, 0.912523, 0.912387, 0.935307, 0.947855, 0.949419, 0.948665, 0.948231, 0.95984, 0.911671, 0.921242, 0.942989, 0.926628, 0.949914, 0.93231, 0.935038, 0.915942, 0.920117, 0.919228, 0.9846, 0.988152, 0.990409, 0.992175, 1.00475, 1.00497, 1.0164, 1.01957, 1.02238, 1.02382, 1.02497, 1.02886, 1.01651, 1.01961, 1.01975, 1.02637, 1.02936, 1.03088, 1.03467, 1.03586, 1.03647, 1.03458, 1.03682, 1.03719, 1.04118, 1.04238, 1.04373, 1.04729, 0.00353897, 1.06484, 1.1602, 1.16189, 1.08241, 1.08375, 1.08669, 1.08532, 1.08067, 1.08271, 1.19117, 1.09463, 1.09438, 1.10043, 1.10081, 1.10407, 1.10651, 1.11976, 0.00340583, 1.11291, 1.11612, 1.11734, 1.12052, 1.1225, 1.12401, 1.12853, 1.13065, 1.14022, 1.13912, 1.13934, 1.13663, 1.13591, 1.13362, 1.13374, 1.13966, 1.1396, 1.14378, 1.14764, 1.15186, 1.15165, 1.15369, 1.15719, 0.00380701, 1.27082, 1.18085, 1.16935, 1.17292, 1.17461, 1.17743, 1.17914, 1.18552, 1.18715, 1.18991, 1.18872, 1.18762, 1.18949, 1.19313, 1.19349, 1.20147, 1.20209, 1.20546, 1.20427, 1.20552, 1.20703, 1.39605, 1.39462, 0.00383523, 1.34975, 1.25404, 1.39958, 1.35732, 1.27235, 1.27273, 1.27857, 1.2876, 0.00358485, 0.00352948, 1.35067, 1.34878, 1.32473, 1.32441, 1.33211
0.722658, 0.723462, 0.723816, 0.734957, 0.741234, 0.742886, 0.745369, 0.746988, 0.734913, 0.734415, 0.733991, 0.734142, 0.73516, 0.734805, 0.735398, 0.737802, 0.74234, 0.742644, 0.743286, 0.741178, 0.741902, 0.742851, 0.744828, 0.745151, 0.743708, 0.744328, 0.770754, 0.774772, 0.777724, 0.778568, 0.787504, 0.788016, 0.791038, 0.77821, 0.783582, 0.786202, 0.788183, 0.789088, 0.790329, 0.791845, 0.7949, 0.798675, 0.798919, 0.795151, 0.796194, 0.796668, 0.794856, 0.800134, 0.801125, 0.801954, 0.802964, 0.803036, 0.803676, 0.807285, 0.809237, 0.810077, 0.813406, 0.8149, 0.83146, 0.844459, 0.845972, 0.840226, 0.837345, 0.837752, 0.838518, 0.839176, 0.839575, 0.845163, 0.846251, 0.846039, 0.847366, 0.849766, 0.850113, 0.852066, 0.852746, 0.854138, 0.856332, 0.860057, 0.860971, 0.860952, 0.862835, 0.865197, 0.868281, 0.870712, 0.870614, 0.874496, 0.877608, 0.881899, 0.883516, 0.885628, 0.88524, 0.888208, 0.888952, 0.890725, 0.890328, 0.887932, 0.892558, 0.894099, 0.893671, 0.884027, 0.884418, 0.879526, 0.882553, 0.814789, 0.811734, 0.808176, 0.809035, 0.80906, 0.787338, 0.787914, 0.755839, 0.757799, 0.781967, 0.850966, 0.850628, 0.857002, 0.827816, 0.843193, 0.842641, 0.839297, 0.883566, 0.884272, 0.929193, 0.926384, 0.925258, 0.944468, 0.92147, 0.926768, 0.926254, 0.970531, 0.977412, 0.976708, 1.04954, 1.05508, 1.05624, 1.009, 1.00304, 1.00486, 1.05367, 1.04289, 1.03011, 1.03295, 1.06142, 1.03433, 1.02718, 1.02918, 1.03665, 1.03779, 1.08082, 1.09829, 1.05456, 1.05862, 1.05794, 1.04359, 1.14103, 1.12098, 1.13775, 1.13915, 1.14, 1.13795, 1.14076, 0.970058, 0.968274, 0.976681, 0.976137, 0.954644, 0.918394, 0.928674, 0.932627, 0.929326, 0.945412, 0.946005, 0.928558, 0.960345, 0.961162, 1.00157, 1.00087, 1.00247, 0.922551, 0.947245, 0.937955, 0.929269, 0.916588, 0.907847, 0.898126, 0.909577, 0.913962, 0.898474, 0.913667, 0.915797, 0.936406, 0.971344, 0.949578, 0.954073, 0.95478, 0.980269, 1.20711, 1.01235, 1.01509, 1.01914, 1.0225, 1.02565, 1.029, 1.02889, 1.02769, 1.02871, 1.02906, 1.03285, 1.03369, 1.03402, 1.03527, 1.03562, 1.03592, 1.03824, 1.22942, 1.16792, 1.06308, 1.06514, 1.06576, 1.06831, 1.06994, 1.07173, 1.07595, 1.07738, 1.0857, 1.08487, 1.0982, 1.09564, 1.09779, 1.09955, 1.2152, 1.10193, 1.09833, 1.09909, 1.09883, 1.10292, 1.10562, 1.11185, 1.11357, 1.11603, 1.11873, 1.12063, 1.12905, 1.13317, 1.13783, 1.13504, 1.13029, 1.13296, 1.13642, 1.13717, 1.14558, 1.1477, 1.14726, 1.1501, 1.15286, 1.15973, 1.16025, 1.15968, 1.16692, 1.17191, 1.17055, 1.17382, 1.179, 1.17728, 1.17826, 1.17726, 1.24373, 1.24302, 1.19266, 1.19304, 1.18841, 1.19542, 1.19455, 1.35492, 1.20222, 1.20455, 1.20586, 1.20816, 1.20579, 1.20288, 1.20663, 1.21064, 1.35507, 1.35524, 1.35633, 1.35469, 1.27564, 1.33547, 1.33798, 1.33778, 1.28933, 1.31028, 1.31227, 1.3144, 1.31621, 1.32069, 1.32371, 1.33049, 1.32998, 1.33193
0.722342, 0.720922, 0.719618, 0.713507, 0.740606, 0.742154, 0.734763, 0.734235, 0.73461, 0.737726, 0.73699, 0.737509, 0.738975, 0.738181, 0.736492, 0.745158, 0.745512, 0.755816, 0.758862, 0.735661, 0.73718, 0.746703, 0.746784, 0.746092, 0.747253, 0.753265, 0.767718, 0.767388, 0.769559, 0.769094, 0.775729, 0.779341, 0.778402, 0.779689, 0.781012, 0.784372, 0.786753, 0.789152, 0.790149, 0.79042, 0.791714, 0.792951, 0.807369, 0.808162, 0.805407, 0.804574, 0.802305, 0.801755, 0.802171, 0.801769, 0.804936, 0.805048, 0.818668, 0.818927, 0.821179, 0.822479, 0.824126, 0.822937, 0.822087, 0.838309, 0.840263, 0.842299, 0.842013, 0.84412, 0.844756, 0.838713, 0.837395, 0.839367, 0.840417, 0.840462, 0.842048, 0.84727, 0.85016, 0.852688, 0.853486, 0.858288, 0.856848, 0.854531, 0.852949, 0.85381, 0.862587, 0.867562, 0.86935, 0.871119, 0.872853, 0.874556, 0.875249, 1.05147, 0.88129, 0.885025, 0.885553, 0.888807, 0.888501, 0.895875, 0.895748, 0.886052, 0.904048, 0.904372, 0.883963, 0.888332, 0.889365, 0.799883, 0.802098, 0.815198, 0.829027, 0.811651, 0.79217, 0.792161, 0.77678, 0.784611, 0.783756, 0.851514, 0.854433, 0.842655, 0.844446, 0.857637, 0.881905, 0.879097, 0.880833, 0.885192, 0.90249, 0.903023, 0.905095, 0.923199, 0.937197, 0.983955, 0.967223, 0.967896, 0.972747, 0.992278, 1.04781, 1.0393, 1.0395, 1.04755, 1.0701, 1.08141, 1.07575, 1.08229, 1.09955, 1.08649, 1.09334, 1.08983, 1.08861, 1.12004, 1.12041, 1.13443, 1.13405, 1.14004, 1.13515, 1.11555, 1.1025, 1.10457, 1.10889, 1.105, 1.08943, 1.04286, 1.04442, 1.04636, 1.04691, 1.02587, 1.04034, 1.00591, 0.977921, 0.977601, 0.987601, 0.958173, 0.947946, 0.974204, 0.972791, 0.970914, 0.97104, 0.9802, 0.957114, 0.996306, 0.9841, 0.98409, 0.993907, 0.994579, 0.994655, 0.939144, 0.941321, 0.927117, 0.927139, 0.981181, 0.986703, 0.890728, 0.893336, 0.901637, 0.927494, 0.929185, 0.973289, 0.934538, 0.946291, 1.01192, 1.01549, 1.01765, 0.995224, 1.01276, 1.01544, 1.02293, 1.02589, 1.02859, 1.02995, 1.03156, 1.03274, 1.03045, 1.0332, 1.03748, 1.03941, 1.03653, 1.03947, 1.18991, 1.33774, 1.20258, 1.06473, 1.06563, 1.06813, 1.06996, 1.07484, 1.07525, 1.07489, 1.07657, 1.07725, 1.07571, 1.07381, 1.27454, 1.08745, 1.08919, 1.09004, 1.09334, 1.0915, 1.09476, 1.09592, 1.09612, 1.09694, 1.09815, 1.29165, 1.11364, 1.11557, 1.11947, 1.12097, 1.12066, 1.11961, 1.12271, 1.1268, 1.12933, 1.25521, 1.13554, 1.14176, 1.14248, 1.14505, 1.15282, 1.15408, 1.15565, 1.15666, 1.15788, 1.15958, 1.16212, 1.15901, 1.16416, 1.16602, 1.17909, 1.18763, 1.18909, 1.19319, 1.19432, 1.19684, 1.20373, 1.20469, 1.20372, 1.28921, 1.29241, 1.21506, 1.41027, 0.0033604, 1.32356, 1.41716, 0.00383325, 0.00372821, 1.34794, 1.34976, 1.25399, 1.25449, 1.41605, 1.37406, 0.00364519, 1.29856, 1.30183, 1.30183, 1.304, 1.30709, 1.30963, 1.31201, 1.31022, 1.31624, 1.32575, 1.32784, 1.32974, 1.32732, 1.32746
0.709281, 0.704587, 0.703635, 0.715204, 0.716546, 0.724967, 0.727007, 0.727012, 0.721402, 0.724245, 0.723463, 0.729188, 0.738683, 0.74057, 0.7435, 0.745836, 0.752211, 0.754948, 0.756067, 0.757426, 0.749238, 0.74608, 0.748765, 0.746662, 0.768236, 0.770104, 0.76833, 0.769982, 0.769738, 0.769963, 0.772669, 0.775555, 0.778933, 0.780205, 0.78391, 0.784573, 0.786986, 0.787065, 0.791649, 0.79787, 0.802778, 0.805771, 0.808605, 0.810066, 0.810615, 0.807617, 0.809474, 0.808091, 0.815024, 0.817509, 0.818543, 0.819039, 0.818706, 0.820781, 0.821435, 0.82265, 0.821956, 0.838662, 0.826954, 0.843064, 0.846301, 0.846738, 0.850536, 0.0034864, 0.831842, 0.832108, 0.833271, 0.838922, 0.84095, 0.839116, 0.846066, 0.845788, 0.849143, 0.853055, 0.848791, 0.85052, 0.853185, 0.853757, 0.849719, 0.850673, 0.853449, 0.00397172, 0.870291, 0.867902, 0.869944, 0.871158, 0.873807, 0.885507, 0.885194, 0.887707, 0.890088, 0.892331, 0.89122, 0.866944, 0.8735, 0.871058, 0.851264, 0.894877, 0.89497, 0.884641, 0.887852, 0.831188, 0.830477, 0.832504, 0.810144, 0.813756, 0.784871, 0.793216, 0.788415, 0.785181, 0.843256, 0.843991, 0.853324, 0.855929, 0.874301, 0.880668, 0.877135, 1.02544, 0.921418, 0.916614, 0.936498, 0.982677, 0.989173, 0.989847, 0.988314, 0.970217, 1.05509, 1.05647, 1.07808, 1.09577, 1.0925, 1.09432, 1.11241, 1.13354, 1.12455, 1.11935, 1.13229, 1.13116, 1.13162, 1.13837, 1.13717, 1.12964, 1.13294, 1.13434, 1.14637, 1.17828, 1.19866, 1.18951, 1.1713, 1.13855, 1.14161, 1.15119, 1.18976, 1.22711, 1.1117, 1.11656, 1.11024, 1.0792, 1.05577, 1.07987, 1.03185, 1.03245, 1.03751, 1.0295, 1.05663, 0.998208, 1.04482, 1.03681, 1.06132, 0.971802, 0.972504, 0.985365, 0.983909, 0.974249, 0.994678, 0.957194, 0.959457, 0.960356, 0.960197, 0.969422, 0.922208, 0.923366, 0.925622, 0.921954, 0.958705, 0.961318, 0.871079, 0.899626, 0.873831, 0.908758, 0.922758, 0.928301, 0.935131, 0.933604, 0.931564, 0.00337797, 1.13438, 1.09981, 1.1086, 1.27116, 1.67352, 1.02991, 1.68194, 1.0378, 1.03992, 1.03922, 1.03968, 1.04317, 1.04537, 1.04696, 1.04404, 1.0683, 1.05374, 0.00367748, 0.00353589, 1.05752, 1.05752, 1.05958, 1.22016, 1.07292, 1.0728, 1.07267, 1.07569, 1.07687, 1.07679, 1.07857, 1.08973, 1.08886, 1.09246, 1.09117, 1.09566, 1.09701, 1.09645, 1.10308, 1.10234, 1.10573, 1.10663, 1.10989, 1.11285, 1.11493, 1.12094, 1.12337, 1.11993, 1.12072, 1.12202, 1.30027, 1.14051, 1.14322, 1.14472, 1.14561, 1.14707, 1.14765, 1.14737, 1.15102, 1.15617, 1.15984, 1.15841, 1.26177, 1.16508, 1.17531, 1.18283, 1.18471, 1.29479, 1.19414, 1.20134, 1.20543, 1.2053, 1.20518, 1.20727, 1.21039, 1.29008, 1.28931, 1.22645, 1.28961, 1.24598, 1.44526, 1.25349, 1.27467, 1.44415, 1.44408, 1.50901, 0.00406802, 1.28724, 1.28933, 1.29216, 1.29539, 1.29484, 1.29575, 1.29885, 1.29912, 1.30262, 1.30523, 1.3084, 1.31066, 1.31159, 1.31031, 1.30786, 1.3161, 1.31582, 1.3189
0.714089, 0.708879, 0.710374, 0.710364, 0.709463, 0.724701, 0.72598, 0.724955, 0.719085, 0.72108, 0.720009, 0.73645, 0.742158, 0.74315, 0.754536, 0.753824, 0.754925, 0.755251, 0.76663, 0.767511, 0.772665, 0.777132, 0.78076, 0.773518, 0.77418, 0.783684, 0.781393, 0.78108, 0.770238, 0.769672, 0.783197, 0.783258, 0.786693, 0.787763, 0.786562, 0.787743, 0.787849, 0.78806, 0.794347, 0.795989, 0.796968, 0.806015, 0.809669, 0.811852, 0.813832, 0.81417, 0.81619, 0.819528, 0.818057, 0.839818, 0.840933, 0.841794, 0.838745, 0.838434, 0.83866, 0.838819, 0.838277, 0.838293, 0.839167, 0.850572, 0.852415, 0.851898, 0.82562, 0.828556, 0.828264, 0.828721, 0.834853, 0.839022, 0.839782, 0.842909, 0.841317, 0.842762, 0.843699, 0.848797, 0.845783, 0.844258, 0.842009, 0.841271, 0.840001, 0.840697, 0.840502, 0.93262, 0.932933, 1.00411, 0.00358039, 1.51494, 1.51658, 1.51116, 0.88821, 0.888922, 0.892072, 0.890758, 0.878596, 0.88534, 0.894209, 0.892952, 0.867589, 0.884667, 0.881536, 0.835643, 0.829132, 0.825151, 0.812384, 0.811633, 0.811819, 0.754597, 0.75679, 0.756511, 0.808612, 0.981308, 0.850785, 0.853054, 0.969576, 0.987107, 0.987717, 0.885608, 0.939405, 0.950256, 0.933621, 0.941679, 0.959204, 0.978521, 1.09211, 1.05324, 1.08197, 1.11262, 1.09883, 1.1009, 1.12246, 1.12199, 1.11882, 1.22483, 1.13794, 1.15092, 1.1748, 1.15187, 1.15426, 1.14616, 1.23168, 1.23305, 1.1656, 1.15431, 1.17125, 1.25316, 1.25169, 1.19839, 1.18203, 1.18215, 1.17985, 1.17859, 1.18485, 1.17131, 1.15513, 1.1565, 1.17734, 1.14341, 1.13054, 1.1145, 1.09875, 1.09842, 1.10334, 1.09387, 1.07886, 1.07165, 1.05261, 1.05369, 1.06508, 1.05013, 1.02602, 1.02651, 1.01418, 1.02374, 1.01784, 1.00059, 0.993377, 1.03397, 1.03548, 0.965932, 0.960027, 0.98809, 0.98837, 0.946407, 0.945597, 0.945961, 0.972753, 0.968322, 0.902339, 0.896182, 0.883762, 0.911718, 0.912763, 0.911947, 0.911153, 0.976919, 0.965393, 0.965972, 0.00372982, 1.16802, 1.21276, 1.11072, 1.25352, 1.254, 1.04447, 1.04661, 1.04822, 1.04541, 1.04432, 1.04597, 1.03794, 1.04132, 1.04292, 1.04442, 1.0472, 1.04956, 1.05109, 1.05446, 1.05638, 1.06076, 1.06418, 1.06715, 1.06915, 1.07482, 1.07637, 1.07909, 1.08187, 1.08727, 1.08913, 1.09169, 1.09474, 1.09581, 1.09698, 1.09786, 1.10033, 1.10248, 1.10355, 1.10635, 1.10702, 1.11048, 1.11533, 1.11675, 1.12103, 1.13306, 0.00357333, 1.13059, 1.13388, 1.13586, 1.3221, 1.3197, 1.14871, 1.15394, 1.15706, 0.00413754, 1.24838, 1.29172, 0.00372007, 1.28882, 1.17827, 1.1755, 1.18044, 1.18265, 1.18747, 1.1882, 0.00378914, 1.27486, 1.20769, 1.20339, 1.2062, 1.20891, 1.29074, 1.28436, 1.23384, 1.23574, 1.23803, 1.27917, 1.27778, 1.27037, 1.27023, 1.2704, 1.27065, 1.2779, 1.27797, 1.2811, 1.2835, 1.28701, 1.28751, 1.28852, 1.29029, 1.2954, 1.29516, 1.29809, 1.29684, 1.29777, 1.29962, 1.30049, 1.3058, 1.30522, 1.30522, 1.31097, 1.31616, 1.31374
0.709259, 0.709155, 0.707658, 0.00371003, 0.718723, 0.719868, 0.720309, 0.714624, 0.715226, 0.0035671, 0.733654, 0.739251, 0.742061, 0.759308, 0.752747, 0.764167, 0.767916, 0.783327, 0.784747, 0.786276, 0.784869, 0.786936, 0.784924, 0.787099, 0.786398, 0.783633, 0.783495, 0.784789, 0.785438, 0.786719, 0.788138, 0.788755, 0.787435, 0.791486, 0.788789, 0.789835, 0.787362, 0.798569, 0.800578, 0.801401, 0.803962, 0.805914, 0.807366, 0.809832, 0.810655, 0.814952, 0.964139, 0.838845, 0.840101, 0.840963, 0.841083, 0.834723, 0.833986, 0.833992, 0.837025, 0.838589, 0.839518, 0.841582, 0.844162, 0.846377, 0.847756, 0.818806, 0.820275, 0.821635, 0.823081, 0.827365, 0.83235, 0.832089, 0.82977, 0.834109, 0.845485, 0.839953, 0.843723, 0.844859, 0.84692, 0.855673, 0.857882, 0.84805, 0.850071, 0.953299, 0.00359656, 1.52453, 1.5258, 1.51733, 1.51667, 0.973625, 1.51439, 0.897438, 0.899019, 0.892598, 0.874547, 0.875303, 0.888281, 0.890916, 0.891104, 0.859759, 0.837567, 0.826437, 0.812579, 0.812582, 0.828387, 0.805193, 0.794945, 0.753377, 0.766456, 0.774328, 0.803873, 0.833983, 0.835377, 0.956801, 0.957403, 0.960944, 0.958805, 0.928954, 0.925912, 0.954273, 0.954354, 0.986374, 0.992619, 1.04823, 1.05732, 1.07329, 1.09047, 1.08956, 1.14172, 1.11999, 1.1155, 1.14601, 1.14342, 1.17095, 1.17453, 1.16853, 1.17952, 1.16919, 1.16961, 1.21287, 1.20645, 1.22633, 1.19988, 1.20122, 1.20069, 1.22729, 1.23608, 1.23249, 1.22403, 1.21574, 1.23518, 1.23554, 1.21153, 1.21239, 1.21004, 1.18457, 1.16766, 1.16865, 1.13835, 1.14952, 1.13381, 1.13648, 1.14642, 1.12372, 1.12205, 1.12499, 1.12322, 1.1027, 1.08144, 1.0852, 1.07438, 1.06952, 1.06026, 1.06781, 1.05764, 1.09924, 1.09988, 1.03599, 1.05649, 1.00596, 0.992271, 1.01221, 0.990531, 0.970229, 0.956125, 0.963634, 0.966576, 0.947245, 0.954766, 0.941811, 0.918376, 0.947633, 0.964041, 0.966384, 0.904954, 0.909058, 0.922649, 0.930844, 0.963222, 0.957965, 1.01932, 1.02134, 1.03252, 1.03394, 1.03632, 1.03836, 1.04148, 1.04389, 1.04286, 1.04224, 1.04233, 1.04262, 1.0422, 1.04307, 1.04503, 1.04507, 1.05245, 1.08922, 1.05855, 1.06427, 1.06461, 1.06691, 1.07132, 1.07241, 1.07438, 1.07618, 1.07751, 1.07508, 1.08067, 1.08114, 1.08416, 1.08502, 1.09061, 1.09279, 1.09573, 1.1003, 1.1023, 1.10712, 1.10805, 1.10911, 1.11593, 1.11339, 1.11798, 1.12203, 1.12508, 1.1272, 1.12772, 1.13196, 1.13703, 1.13976, 1.14699, 1.2661, 1.27034, 1.26809, 1.17862, 1.18318, 1.2678, 1.18423, 1.27476, 1.18508, 0.00329061, 1.19441, 1.26649, 1.38664, 1.19337, 1.26842, 1.21314, 1.21595, 1.21835, 1.21299, 1.29063, 1.28261, 1.31211, 1.24201, 1.24152, 1.24519, 1.25553, 1.25947, 1.26638, 1.26741, 1.26881, 1.27188, 1.2722, 1.27502, 1.27556, 1.27749, 1.28216, 1.28284, 1.28441, 1.2839, 1.28401, 1.28699, 1.28834, 1.28923, 1.29148, 1.29408, 1.29461, 1.2972, 1.30019, 1.30314, 1.30507, 1.30766, 1.30827, 1.31522
0.747533, 0.74268, 0.750071, 0.755951, 0.753156, 0.756671, 0.756236, 0.756845, 0.75891, 0.759685, 0.760055, 0.762251, 0.762177, 0.762812, 0.762635, 0.763491, 0.00364123, 0.00349214, 0.787574, 0.789938, 0.791828, 0.789553, 0.781205, 0.773896, 0.778055, 0.779357, 0.780997, 0.781549, 0.785775, 0.787005, 0.787606, 0.788599, 0.78941, 0.792932, 0.806734, 0.806062, 0.810547, 0.797732, 0.810163, 0.809242, 0.809096, 0.805147, 0.898218, 0.823047, 0.826602, 0.834419, 0.836316, 0.838675, 0.842412, 0.84334, 0.84355, 0.844294, 0.841656, 0.838972, 0.837725, 0.839398, 0.842022, 0.842728, 0.844263, 0.819397, 0.819394, 0.821227, 0.820837, 0.821623, 0.823491, 0.836609, 0.843213, 0.845987, 0.83313, 0.836772, 0.837148, 0.850438, 0.852777, 0.85432, 0.855997, 0.856436, 0.00350038, 0.860607, 1.52719, 1.5233, 1.06151, 1.00893, 0.974315, 1.00492, 0.00366134, 1.12783, 0.899521, 0.901463, 0.902304, 0.902762, 0.871927, 0.873499, 0.87245, 0.881362, 0.883473, 0.795989, 0.795299, 0.798383, 0.811274, 0.797196, 0.79109, 0.782412, 0.792249, 0.751905, 0.784852, 0.808204, 0.804091, 0.83801, 0.842954, 1.02961, 1.02968, 0.960514, 0.950641, 0.951381, 0.952631, 0.954923, 0.956208, 1.03702, 1.04495, 1.06801, 1.08215, 1.08382, 1.15831, 1.15244, 1.16033, 1.24609, 1.1528, 1.17147, 1.17087, 1.20173, 1.19047, 1.36996, 1.36708, 1.37147, 1.37176, 1.37073, 1.36886, 1.22227, 1.24477, 1.24861, 1.28004, 1.24986, 1.25081, 1.25397, 1.27438, 1.2948, 1.30184, 1.3009, 1.30199, 1.27376, 1.21003, 1.21865, 1.21785, 1.20088, 1.2032, 1.20851, 1.18772, 1.15406, 1.15645, 1.14731, 1.1397, 1.14863, 1.1276, 1.16807, 1.16708, 1.14981, 1.18626, 1.21171, 1.0934, 1.1017, 1.07789, 1.05133, 1.04601, 1.07718, 1.03973, 1.04147, 1.01698, 1.01601, 1.00555, 1.00806, 0.999577, 0.97885, 0.979124, 0.948195, 0.953652, 0.946227, 0.964728, 0.954666, 0.957996, 0.933176, 0.916889, 0.909928, 0.935797, 0.944335, 0.994262, 0.947073, 0.992501, 0.993542, 1.01151, 1.03266, 1.03245, 1.03226, 1.03423, 1.03997, 1.03985, 1.04113, 1.04277, 1.0457, 1.04748, 1.04815, 1.05074, 1.05191, 1.05534, 1.05718, 1.05819, 1.06241, 1.06429, 1.06719, 1.71101, 1.07165, 1.07254, 1.07377, 1.07756, 1.07751, 1.08449, 1.08626, 1.08892, 1.09058, 1.09262, 1.09537, 1.09707, 1.09864, 1.10336, 1.10449, 1.10522, 1.11213, 1.1181, 1.11752, 1.11881, 1.11803, 1.12217, 1.12583, 0.00346009, 1.25698, 1.25807, 1.19156, 1.28297, 1.17453, 0.00352604, 1.18505, 0.00348825, 1.1901, 1.19249, 1.19312, 1.19516, 1.19634, 1.19896, 1.20387, 1.25424, 1.25513, 1.26014, 1.41125, 1.27396, 1.2238, 1.22621, 1.22255, 1.22255, 1.22783, 1.22865, 1.26767, 1.266, 1.25287, 1.25567, 1.25699, 1.26001, 1.26772, 1.27154, 1.26901, 1.27015, 1.27367, 1.27152, 1.27398, 1.27496, 1.27548, 1.27155, 1.27818, 1.27875, 1.28391, 1.28422, 1.28835, 1.28871, 1.29074, 1.29092, 1.29368, 1.29722, 1.30346, 1.3062, 1.30914, 1.31418, 1.31413
0.75329, 0.755549, 0.756053, 0.756362, 0.754258, 0.754903, 0.755181, 0.755567, 0.756784, 0.761653, 0.761385, 0.76318, 0.763748, 0.770208, 0.772164, 0.773447, 0.77927, 0.779335, 0.780032, 0.783682, 0.783495, 0.778822, 0.778242, 0.774966, 0.774596, 0.776428, 0.780082, 0.781317, 0.804521, 0.805708, 0.811141, 0.810673, 0.811363, 0.811027, 0.795301, 0.808412, 0.808732, 0.807072, 0.807219, 0.808978, 0.810748, 0.81251, 0.811553, 0.811789, 0.82095, 0.821394, 0.821091, 0.833928, 0.834589, 0.836493, 0.836242, 0.837802, 0.843494, 0.842884, 0.841316, 0.828433, 0.829609, 0.832844, 0.834545, 0.817858, 0.824553, 0.821552, 0.82713, 0.840359, 0.841954, 0.84246, 0.843302, 0.84421, 0.843175, 0.843275, 0.8456, 0.853699, 0.855459, 0.854059, 0.855105, 0.856382, 0.00353512, 0.0036268, 0.00344691, 0.00356191, 0.00326184, 0.00398612, 0.00364986, 0.00349479, 0.987843, 0.904287, 0.901496, 0.904793, 0.904132, 0.903891, 0.902856, 0.882544, 0.800332, 0.803971, 0.805323, 0.794417, 0.801407, 0.752704, 0.768245, 0.788635, 0.777658, 0.775019, 0.740306, 0.799159, 0.80205, 0.805488, 0.806947, 0.828439, 0.848596, 0.928488, 0.938981, 0.961381, 0.965453, 0.955694, 1.01509, 1.02345, 1.03355, 1.07216, 1.08252, 1.09456, 1.11927, 1.16499, 1.20603, 1.18626, 1.19505, 1.21637, 1.2333, 1.22658, 1.227, 1.25857, 1.25836, 1.31272, 1.29092, 1.29246, 1.29505, 1.2719, 1.27038, 1.28471, 1.31271, 1.3466, 1.31898, 1.32359, 1.30521, 1.30468, 1.3265, 1.3321, 1.38026, 1.32028, 1.27175, 1.2644, 1.2478, 1.24127, 1.23948, 1.21905, 1.23548, 1.21301, 1.19117, 1.21672, 1.22684, 1.22588, 1.19118, 1.17274, 1.1589, 1.17173, 1.16155, 1.17689, 1.17423, 1.21806, 1.19064, 1.08657, 1.08045, 1.08105, 1.07219, 1.08779, 1.07463, 1.04, 1.04243, 1.02954, 1.03342, 1.0357, 1.00532, 1.00503, 1.00592, 1.03809, 0.949116, 0.95097, 0.993331, 0.997068, 0.971768, 0.96066, 0.949042, 0.92495, 0.905011, 0.905546, 0.943373, 1.03599, 1.03882, 1.03978, 1.04207, 0.976621, 0.977604, 0.00362761, 0.00355342, 1.0363, 1.04171, 1.04438, 1.04742, 1.04978, 1.05046, 1.049, 1.05015, 1.05212, 1.05344, 1.05618, 1.05619, 1.06796, 1.06927, 1.07203, 1.07155, 1.07168, 1.07072, 1.07328, 1.07723, 1.08016, 1.08114, 1.08632, 1.08864, 1.09078, 1.09407, 1.09522, 1.09793, 1.2481, 1.10595, 1.10957, 1.11348, 1.11612, 1.12104, 1.12283, 0.00328336, 0.00376776, 1.24782, 0.00381969, 0.00355814, 1.15885, 1.16104, 1.17103, 1.17719, 1.17848, 1.18008, 1.18461, 1.1844, 1.18598, 1.19023, 1.26359, 1.36205, 0.00349564, 0.00350095, 1.24701, 1.2484, 1.24932, 1.23654, 1.23846, 1.24298, 1.24337, 1.23372, 1.23606, 1.23039, 1.2205, 1.22509, 1.22624, 1.23133, 1.24058, 1.24707, 1.24894, 1.25457, 1.25941, 1.26453, 1.26695, 1.26787, 1.26817, 1.25638, 1.25615, 1.27134, 1.27105, 1.27377, 1.27542, 1.27642, 1.28154, 1.28096, 1.27809, 1.28532, 1.28749, 1.28861, 1.29466, 1.29795, 1.30427, 1.30712, 1.31216, 1.30932, 1.31089
0.751541, 0.753353, 0.753566, 0.753635, 0.754008, 0.755468, 0.755558, 0.755431, 0.756813, 0.75857, 0.760309, 0.762338, 0.775089, 0.779114, 0.779603, 0.781166, 0.791015, 0.784399, 0.790912, 0.793612, 0.789934, 0.791424, 0.791224, 0.793584, 0.797616, 0.808671, 0.808564, 0.801406, 0.802034, 0.788716, 0.7911, 0.792073, 0.793854, 0.795489, 0.795709, 0.797386, 0.854153, 0.805668, 0.823741, 0.826104, 0.827329, 0.827397, 0.826925, 0.827407, 0.828084, 0.817465, 0.81975, 0.840148, 0.843041, 0.842085, 0.841659, 0.834302, 0.834248, 0.83461, 0.83376, 0.833494, 0.843247, 0.843553, 0.841873, 0.839404, 0.839919, 0.836539, 0.83528, 0.839597, 0.840189, 0.840422, 0.857134, 0.858241, 0.862443, 0.958656, 0.00365276, 0.00398044, 0.876652, 0.880034, 0.88106, 0.00358695, 0.00374109, 0.00335892, 0.00368901, 0.907496, 0.910623, 0.911855, 0.913529, 0.914443, 0.915063, 0.91138, 0.898407, 0.895209, 0.00358774, 0.0038129, 0.822917, 0.798438, 0.801719, 0.800277, 0.773365, 0.79946, 0.780834, 0.755426, 0.789967, 0.786502, 0.758965, 0.759017, 0.780156, 0.752979, 0.817579, 0.808295, 0.828473, 0.829226, 0.829757, 0.883765, 0.89222, 0.911321, 0.942341, 0.963301, 1.02896, 1.03296, 1.08435, 1.09838, 1.16597, 1.18649, 1.18606, 1.21334, 1.20106, 1.25478, 1.27739, 1.27853, 1.36677, 1.35729, 1.37933, 1.37884, 1.38123, 1.37516, 1.37322, 1.41263, 1.41472, 1.39663, 1.38005, 1.36972, 1.3543, 1.34426, 1.34534, 1.36721, 1.35878, 1.35317, 1.35418, 1.33371, 1.3308, 1.32692, 1.33667, 1.31329, 1.29479, 1.34055, 1.26187, 1.24249, 1.25127, 1.23434, 1.23623, 1.2439, 1.22025, 1.2482, 1.22702, 1.18905, 1.1929, 1.17091, 1.17076, 1.15964, 1.15899, 1.13754, 1.10504, 1.12637, 1.12036, 1.12257, 1.08493, 1.09851, 1.07369, 1.0626, 1.06373, 1.08593, 1.02836, 1.03051, 1.03127, 1.00874, 0.993935, 0.994218, 1.0165, 0.995035, 1.04602, 0.969639, 0.970099, 0.963618, 0.966866, 0.962375, 0.962897, 0.915399, 0.917739, 0.928506, 0.996376, 0.996637, 1.04502, 0.97912, 0.980585, 1.04084, 0.00389602, 0.00393722, 1.04802, 1.05119, 1.0525, 1.05326, 1.04686, 1.04918, 1.05314, 1.05829, 1.06325, 1.06193, 1.06353, 1.06297, 1.06809, 1.0691, 1.07171, 1.07173, 1.07541, 1.0785, 1.08047, 1.08187, 1.08431, 1.08753, 1.08922, 1.09752, 1.49548, 1.22984, 1.23014, 1.11531, 1.1194, 1.12567, 1.1323, 1.13695, 1.13942, 1.14393, 1.14701, 1.14918, 1.15004, 1.15359, 1.1606, 1.15461, 1.15774, 1.16062, 1.24904, 1.2512, 1.18218, 1.18176, 1.18364, 1.19151, 1.2528, 1.31993, 0.00377259, 1.22043, 1.22438, 1.23131, 1.23044, 1.23586, 1.2314, 1.23277, 1.23685, 1.22884, 1.23406, 1.238, 1.23171, 1.23271, 1.23265, 1.23911, 1.24443, 1.2456, 1.24996, 1.24921, 1.25023, 1.25807, 1.26289, 1.26708, 1.26426, 1.27059, 1.26926, 1.26703, 1.27427, 1.26336, 1.26641, 1.27021, 1.27245, 1.27389, 1.27645, 1.27825, 1.28494, 1.28953, 1.29306, 1.2953, 1.2984, 1.30586, 1.30571, 1.30587, 1.30865, 1.30705
0.747736, 0.748189, 0.752424, 0.753805, 0.755575, 0.754278, 0.7556, 0.769176, 0.770882, 0.772822, 0.773457, 0.779174, 0.778812, 0.779906, 0.786797, 0.788249, 0.788846, 0.791185, 0.790374, 0.787899, 0.793538, 0.794633, 0.794843, 0.795487, 0.79782, 0.783994, 0.785241, 0.786602, 0.78843, 0.790001, 0.79013, 0.792514, 0.806486, 0.806591, 0.809549, 0.00349855, 0.00367158, 0.823191, 0.824936, 0.825834, 0.826511, 0.826938, 0.827127, 0.826675, 0.827339, 0.835042, 0.837412, 0.837712, 0.845518, 0.84631, 0.844824, 0.842408, 0.846372, 0.848574, 0.84619, 0.845481, 0.844145, 0.845904, 0.845848, 0.837403, 0.835963, 0.833239, 0.833713, 0.837366, 0.839128, 0.859488, 0.863368, 0.864688, 0.870493, 0.871061, 0.885287, 0.885906, 0.881683, 0.883078, 0.883567, 0.884229, 1.50362, 1.50199, 0.898289, 0.904016, 0.903031, 0.00354359, 0.00395997, 0.00336428, 0.00401676, 1.09299, 1.0944, 0.877049, 0.863567, 0.864468, 0.84325, 0.845303, 0.797181, 0.78025, 0.783126, 0.788273, 0.784991, 0.783705, 0.773377, 0.761174, 0.76158, 0.734455, 0.753665, 0.754294, 0.815044, 0.82105, 0.82301, 0.815717, 0.844492, 0.884989, 0.965238, 0.932367, 0.949031, 1.04205, 1.06043, 1.11655, 1.13264, 1.18125, 1.18488, 1.21298, 1.25168, 1.31573, 1.34726, 1.37036, 1.37749, 1.40277, 1.3713, 1.37132, 1.39149, 1.40017, 1.4134, 1.39896, 1.43838, 1.39997, 1.42408, 1.39822, 1.42768, 1.3871, 1.38628, 1.37266, 1.36935, 1.3683, 1.38089, 1.37842, 1.37122, 1.38534, 1.35043, 1.3423, 1.34341, 1.35906, 1.33276, 1.32748, 1.29982, 1.28034, 1.26743, 1.26676, 1.25249, 1.33644, 1.22518, 1.23819, 1.23451, 1.23648, 1.19753, 1.16326, 1.13557, 1.13812, 1.14203, 1.2665, 1.13964, 1.12039, 1.12283, 1.15355, 1.15327, 1.10491, 1.17562, 1.08484, 1.08524, 1.082, 1.06163, 1.06211, 1.02831, 1.03726, 0.998552, 1.01359, 1.01871, 1.00341, 0.979105, 0.977618, 0.968013, 0.93713, 0.953265, 0.953891, 0.95791, 0.94217, 0.921146, 0.922619, 0.926449, 0.95836, 1.00882, 1.00885, 0.980916, 0.983526, 1.00573, 1.05089, 1.05061, 1.0545, 1.04972, 1.05051, 1.05032, 1.05055, 1.05195, 1.05484, 1.05707, 1.06086, 1.06423, 1.06868, 1.07063, 1.07667, 1.07838, 1.0812, 1.21542, 1.2162, 1.08861, 1.09498, 1.09879, 0.00368381, 1.10825, 1.11371, 1.11602, 1.11695, 1.11833, 1.12245, 1.22072, 1.13432, 1.13905, 1.14114, 1.14056, 1.14226, 1.15168, 1.15444, 1.15588, 1.15596, 1.15744, 1.15958, 1.15966, 1.16092, 1.16422, 1.17061, 1.2482, 1.25206, 1.25414, 0.00340969, 1.2164, 1.21875, 1.22199, 1.22325, 1.22258, 1.22321, 1.22642, 1.22471, 1.22833, 1.22713, 1.22971, 1.22995, 1.22845, 1.23251, 1.23254, 1.23229, 1.23628, 1.23783, 1.24398, 1.2437, 1.25025, 1.25177, 1.25063, 1.25842, 1.25704, 1.25658, 1.25799, 1.83429, 1.25665, 1.26333, 1.26452, 1.26522, 1.26742, 1.27016, 1.27154, 1.27534, 1.27975, 1.28189, 1.29117, 1.28926, 1.28916, 1.29213, 1.29601, 1.29623, 1.30302, 1.30485, 1.30882, 1.30976
0.746237, 0.749285, 0.751686, 0.754481, 0.75548, 0.769958, 0.771705, 0.771749, 0.773783, 0.779277, 0.780235, 0.780695, 0.7816, 0.790752, 0.791614, 0.79175, 0.792171, 0.793377, 0.793549, 0.792, 0.777463, 0.778205, 0.780113, 0.780605, 0.780943, 0.780576, 0.794886, 0.795884, 0.797299, 0.802671, 0.804018, 0.803375, 0.805108, 0.805279, 0.807268, 0.809892, 0.812858, 0.813313, 0.817639, 0.817773, 0.818042, 0.828727, 0.829674, 0.835972, 0.838078, 0.835602, 0.835027, 0.83403, 0.834494, 0.835462, 0.836095, 0.839706, 0.838997, 0.840319, 0.840672, 0.840345, 0.843417, 0.845294, 0.845967, 0.836002, 0.854278, 0.855836, 0.857852, 0.859174, 0.860519, 0.860688, 0.861793, 0.867912, 0.868145, 0.883544, 0.885489, 0.887658, 0.881205, 0.883303, 0.884122, 0.889214, 0.8906, 0.892819, 0.894243, 1.53246, 1.53329, 0.927878, 0.985278, 0.983518, 0.0038015, 1.09465, 1.09201, 0.952523, 0.00357171, 0.834775, 0.838846, 0.840705, 0.791402, 0.777339, 0.76574, 0.788245, 0.745596, 0.757139, 0.761419, 0.750683, 0.750266, 0.739297, 0.773312, 0.769574, 0.844555, 0.846735, 0.846536, 0.943303, 0.94493, 0.965914, 0.997976, 1.0012, 1.0505, 1.06024, 1.08458, 1.11353, 1.19597, 1.20699, 1.21274, 1.21356, 1.39282, 1.39195, 1.39085, 1.40106, 1.40616, 1.40203, 1.43345, 1.44641, 1.44574, 1.44043, 1.43388, 1.44858, 1.45035, 1.47148, 1.45498, 1.42985, 1.42707, 1.43037, 1.42738, 1.45805, 1.40047, 1.40946, 1.41329, 1.41661, 1.43608, 1.43445, 1.4407, 1.4398, 1.37664, 1.38752, 1.38337, 1.3868, 1.33197, 1.36435, 1.3072, 1.30359, 1.31608, 1.29804, 1.27177, 1.33171, 1.24117, 1.2262, 1.20486, 1.15642, 1.15502, 1.16138, 1.15875, 1.27369, 1.15317, 1.15461, 1.14754, 1.13711, 1.13022, 1.13025, 1.17901, 1.1803, 1.07756, 1.08638, 1.08381, 1.06121, 1.06404, 1.02882, 1.10245, 1.00215, 1.00091, 0.995994, 1.00182, 0.970346, 0.975067, 0.960494, 0.957271, 0.958224, 0.942991, 0.919013, 0.919303, 0.925785, 0.936848, 0.937927, 0.961831, 0.976909, 0.977196, 0.980729, 0.983934, 1.05363, 1.05411, 1.05746, 1.05822, 1.0583, 1.05622, 1.05692, 1.19577, 1.06734, 1.06646, 1.697, 1.69896, 1.07622, 1.07979, 1.08197, 1.08537, 1.08728, 1.09201, 1.09155, 1.0944, 1.09553, 1.09852, 1.21332, 1.1147, 1.11771, 1.11898, 1.1219, 1.12471, 1.20595, 1.14211, 1.14236, 1.1448, 1.14622, 1.14643, 1.14688, 1.14729, 1.15256, 1.23177, 1.15332, 1.24111, 1.24188, 1.16766, 1.1684, 1.17467, 1.17815, 1.73691, 1.73722, 1.27009, 1.21264, 1.21317, 1.21536, 1.22155, 1.21588, 1.21394, 1.21574, 1.21847, 1.22106, 1.22273, 1.2252, 1.22656, 1.22891, 1.22713, 1.22664, 1.2283, 1.22912, 1.22971, 1.23689, 1.24313, 1.2398, 1.24228, 1.24268, 1.24935, 1.25011, 1.24883, 1.2532, 1.25501, 1.25689, 1.26139, 1.26171, 1.26458, 1.26538, 1.268, 1.27183, 1.27558, 1.2807, 1.28061, 1.28081, 1.28504, 1.28506, 1.28721, 1.29851, 1.30577, 1.30898, 1.30666, 1.31351, 1.31324, 1.31625
0.751455, 0.891565, 0.759284, 0.761304, 0.762871, 0.773819, 0.775387, 0.777199, 0.778013, 0.778702, 0.829543, 0.792565, 0.793207, 0.793462, 0.79326, 0.790841, 0.776912, 0.779379, 0.779405, 0.779739, 0.777555, 0.77855, 0.77963, 0.794573, 0.796948, 0.796858, 0.795063, 0.79574, 0.798324, 0.799362, 0.801585, 0.803311, 0.805838, 0.803127, 0.802639, 0.813751, 0.814618, 0.817694, 0.818563, 0.817891, 0.815136, 0.820066, 0.823562, 0.82771, 0.829805, 0.831026, 0.834112, 0.834485, 0.83377, 0.834653, 0.834508, 0.836497, 0.838138, 0.857441, 0.859065, 0.859199, 0.857882, 0.857728, 0.858533, 0.85904, 0.856886, 0.857157, 0.857987, 0.875773, 0.869603, 0.870427, 0.873293, 0.873546, 0.872994, 0.850753, 0.852915, 0.853808, 0.00345643, 0.879379, 0.00341749, 0.00370969, 1.08361, 0.00350426, 1.08456, 0.00364533, 0.932796, 0.00395679, 0.00393151, 1.09509, 1.14764, 1.05674, 1.09464, 1.30289, 1.30364, 1.30357, 0.778194, 0.769102, 0.773349, 0.775833, 0.776586, 0.794545, 0.747916, 0.746761, 0.759929, 0.749981, 0.735314, 0.72159, 0.762264, 0.783247, 0.914898, 0.913527, 0.916642, 0.967599, 0.942836, 0.945507, 1.01991, 1.03114, 1.08197, 1.14911, 1.19858, 1.19568, 1.22258, 1.38436, 1.39767, 1.40871, 1.42375, 1.46091, 1.47108, 1.46908, 1.44579, 1.43996, 1.4766, 1.49247, 1.48028, 1.45811, 1.46812, 1.47009, 1.49331, 1.45825, 1.47315, 1.4608, 1.46334, 1.46039, 1.46407, 1.46257, 1.47207, 1.45187, 1.45415, 1.42854, 1.42786, 1.40648, 1.41981, 1.41663, 1.40429, 1.40573, 1.3922, 1.39478, 1.37847, 1.37725, 1.36367, 1.38138, 1.33571, 1.33633, 1.30655, 1.30373, 1.30375, 1.28065, 1.25679, 1.23835, 1.18877, 1.19434, 1.17507, 1.16471, 1.16305, 1.16245, 1.14533, 1.23988, 1.18641, 1.13263, 1.13352, 1.14355, 1.14537, 1.08929, 1.08742, 1.0793, 1.07828, 1.06372, 1.07853, 1.04307, 1.04335, 1.0128, 1.01403, 0.995458, 1.00223, 0.974447, 0.998393, 0.940402, 0.953653, 0.939417, 0.920391, 0.920789, 0.921447, 0.956271, 0.959157, 0.968821, 0.984386, 1.00517, 1.04793, 1.04907, 1.04971, 1.18196, 1.18686, 0.00397344, 1.07227, 1.0733, 1.07073, 1.07365, 1.07341, 1.0744, 1.07563, 1.07864, 1.08037, 1.08368, 1.08455, 1.08539, 1.08954, 1.09054, 1.23795, 1.20807, 0.00359327, 0.00377027, 1.12708, 1.12931, 1.13072, 1.13269, 1.2008, 1.14346, 1.14425, 1.14523, 1.14826, 1.14906, 1.15307, 1.15159, 1.15005, 1.15391, 1.23586, 1.23739, 1.23283, 0.00375275, 1.17919, 0.00374983, 0.00367923, 1.73197, 1.20701, 1.20709, 1.20705, 1.20641, 1.20702, 1.21141, 1.21135, 1.21605, 1.21191, 1.21719, 1.21555, 1.21959, 1.22167, 1.22267, 1.22448, 1.22736, 1.23175, 1.22457, 1.22569, 1.22412, 1.22132, 1.22201, 1.23022, 1.23563, 1.23754, 1.23998, 1.24359, 1.24824, 1.25097, 1.2548, 1.25322, 1.25379, 1.2557, 1.25989, 1.26317, 1.26545, 1.26687, 0.00364706, 1.27875, 1.28435, 1.28632, 1.28834, 1.44071, 1.2951, 1.2964, 1.30297, 1.30436, 1.30693, 1.31257, 1.3215, 1.31886, 1.32358
0.751182, 1.42064, 0.756933, 1.4201, 0.769709, 0.771445, 0.774247, 0.779015, 0.783277, 0.783391, 0.00374207, 0.768048, 0.769657, 0.771429, 0.772953, 0.774387, 0.777168, 0.778419, 0.77935, 0.778972, 0.788369, 0.791782, 0.795001, 0.794843, 0.792358, 0.79135, 0.7919, 0.793334, 0.00380242, 0.811156, 0.810932, 0.810885, 0.810734, 0.80381, 0.802853, 0.807987, 0.80308, 0.805441, 0.808121, 0.809579, 0.814195, 0.816481, 0.822718, 0.827288, 0.832191, 0.833653, 0.835238, 0.835303, 0.8386, 0.00405498, 0.00369807, 0.858282, 0.860217, 0.85972, 0.859353, 0.855294, 0.854471, 0.856638, 0.870441, 0.872814, 0.873788, 0.875643, 0.878369, 0.876683, 0.873511, 0.873391, 0.872263, 0.872383, 0.870613, 0.850016, 0.851404, 0.85187, 0.00367844, 0.00356579, 0.00340535, 0.869363, 0.00339699, 0.00403205, 0.00338518, 1.08455, 0.00401966, 1.08916, 1.09217, 1.0962, 1.09857, 0.828792, 0.826822, 0.826153, 0.824376, 0.820348, 0.808035, 0.77112, 0.773166, 0.774526, 0.772566, 0.759347, 0.760767, 0.743251, 0.767589, 0.739114, 0.717756, 0.757255, 0.825406, 0.825759, 0.922453, 0.924096, 0.96012, 0.963562, 0.946271, 1.01817, 1.02827, 1.15076, 1.15088, 1.17585, 1.37857, 1.35715, 1.38684, 1.40413, 1.39283, 1.41631, 1.41227, 1.4311, 1.41434, 1.41511, 1.43474, 1.46995, 1.47143, 1.53067, 1.51286, 1.5088, 1.55731, 1.48141, 1.47884, 1.47673, 1.50638, 1.4922, 1.47255, 1.46989, 1.47895, 1.47819, 1.50778, 1.48049, 1.4783, 1.51431, 1.48372, 1.49338, 1.43735, 1.43706, 1.43285, 1.41627, 1.41595, 1.38336, 1.38251, 1.40277, 1.39055, 1.38262, 1.38667, 1.40918, 1.37075, 1.33051, 1.29813, 1.29804, 1.28051, 1.25983, 1.26063, 1.22283, 1.22603, 1.18798, 1.20204, 1.19573, 1.21182, 1.16191, 1.14293, 1.12934, 1.12994, 1.13305, 1.14322, 1.08848, 1.10192, 1.07055, 1.07662, 1.05318, 1.06665, 1.02549, 1.02531, 1.02492, 1.0223, 1.00118, 0.988253, 1.02601, 1.02288, 1.02358, 1.03745, 0.960238, 0.941781, 0.919073, 0.920215, 0.930242, 0.975652, 0.977213, 0.986858, 0.983669, 0.983082, 1.00774, 0.00349658, 1.07793, 1.08156, 1.08208, 1.08549, 1.08585, 1.07488, 1.07591, 1.07434, 1.07771, 1.07992, 1.27914, 1.08621, 1.18638, 1.19014, 1.18836, 0.00377299, 1.19789, 0.00309083, 1.18395, 0.00355008, 1.69319, 1.1943, 1.13725, 1.13863, 1.19805, 1.145, 1.14989, 1.14947, 1.14811, 1.14786, 1.15069, 1.15053, 1.21927, 0.00381893, 1.21737, 0.00361439, 0.00345662, 1.2007, 1.19422, 1.19803, 1.19951, 1.19967, 1.20051, 1.20479, 1.20804, 1.20892, 1.20981, 1.21226, 1.2135, 1.21057, 1.21507, 1.2137, 1.2158, 1.21775, 1.21937, 1.22121, 1.21966, 1.22317, 1.22666, 1.22641, 1.22335, 1.22672, 1.22949, 1.22992, 1.2275, 1.23009, 1.23259, 1.23558, 1.23827, 1.24001, 1.24384, 1.24641, 1.25139, 1.25375, 1.26054, 1.26016, 1.26193, 1.26462, 1.26522, 1.2694, 1.27591, 1.28144, 1.28646, 1.28718, 1.28823, 1.28944, 1.29485, 1.29654, 1.36696, 1.3161, 1.32038, 1.3192, 1.3197, 1.32072, 1.32543
0.749558, 0.75021, 0.75899, 0.766711, 0.769008, 0.00344181, 0.778252, 0.771174, 0.769705, 0.768121, 0.76893, 0.769597, 0.770867, 0.771154, 0.7806, 0.781864, 0.781414, 0.777848, 0.782391, 0.779952, 0.781137, 0.783943, 0.787559, 0.788742, 0.788427, 0.00349492, 0.799531, 0.799655, 0.803067, 0.813577, 0.810841, 0.811455, 0.814116, 0.814216, 0.814925, 0.815966, 0.812976, 0.812512, 0.814375, 0.81466, 0.814019, 0.813317, 0.815794, 0.822745, 0.823718, 0.829707, 0.831255, 0.98783, 0.00332967, 0.00368237, 0.86633, 0.863046, 0.864156, 0.864923, 0.860553, 0.861054, 0.861253, 0.00336543, 0.872129, 0.872977, 0.873285, 0.873171, 0.868839, 0.870229, 0.870872, 0.872662, 0.871499, 0.86328, 0.863297, 0.00363472, 0.839037, 0.839204, 0.828578, 0.00367263, 0.00366064, 0.00362402, 1.25037, 0.00368546, 0.00352442, 0.00392481, 1.03682, 0.83482, 0.829244, 0.828635, 0.82932, 0.826557, 0.825492, 0.814286, 0.811559, 0.809233, 0.801285, 0.802562, 0.811057, 0.810913, 0.811751, 0.768522, 0.804752, 0.728697, 0.738195, 0.717733, 0.717592, 0.729271, 0.829932, 0.867695, 0.84182, 0.984899, 1.01249, 1.01539, 1.02649, 1.05354, 1.06992, 1.25247, 1.30233, 1.35051, 1.36763, 1.41039, 1.4124, 1.40767, 1.42297, 1.43124, 1.43008, 1.44989, 1.44275, 1.47462, 1.46173, 1.47728, 1.49313, 1.51754, 1.53647, 1.51868, 1.51629, 1.50881, 1.50817, 1.51629, 1.51592, 1.50644, 1.50466, 1.4994, 1.4909, 1.50313, 1.49944, 1.48827, 1.50543, 1.50371, 1.48756, 1.47671, 1.47957, 1.45684, 1.45143, 1.45326, 1.46211, 1.45991, 1.44109, 1.39862, 1.39898, 1.38224, 1.3951, 1.38183, 1.38385, 1.3452, 1.41039, 1.4118, 1.29587, 1.29761, 1.29021, 1.25535, 1.25727, 1.24141, 1.25352, 1.20901, 1.19338, 1.1731, 1.17764, 1.18131, 1.18076, 1.19267, 1.19902, 1.1531, 1.16149, 1.09218, 1.08574, 1.11141, 1.05174, 1.053, 1.07301, 1.02124, 1.02518, 1.0918, 1.09636, 1.00657, 1.02308, 1.02603, 1.02843, 1.08221, 1.0822, 0.954284, 0.937125, 0.924093, 0.957645, 0.977996, 0.994119, 0.995131, 0.994736, 1.05058, 1.04943, 1.07891, 1.08203, 1.08528, 1.08492, 1.08866, 1.08499, 1.09465, 1.09556, 1.09568, 1.09701, 1.09774, 1.09935, 1.10034, 1.10419, 1.10496, 1.10905, 1.11179, 1.11563, 1.11714, 1.12094, 1.19454, 1.19658, 1.2651, 1.23289, 0.00339002, 1.15803, 1.15775, 1.20894, 1.19324, 1.19244, 1.18574, 1.18839, 1.19018, 1.19268, 1.19339, 1.1983, 1.1968, 1.19662, 1.19672, 1.19478, 1.19425, 1.19577, 1.19709, 1.19993, 1.20833, 1.21284, 1.21496, 1.2126, 1.21209, 1.21353, 1.21358, 1.21282, 1.21508, 1.21508, 1.21839, 1.21909, 1.22076, 1.22417, 1.22422, 1.22316, 1.22584, 1.22526, 1.22702, 1.22717, 1.22958, 1.22855, 1.23013, 1.23374, 1.238, 1.24135, 1.24978, 1.25218, 1.25053, 1.25808, 1.25861, 1.26924, 1.27142, 1.27195, 1.27453, 1.27793, 1.28492, 1.28683, 1.28986, 1.29136, 1.29729, 1.29557, 1.2994, 1.30728, 1.30657, 1.31723, 1.31553, 1.32213, 1.31809, 1.32402, 1.32325
0.774858, 0.777251, 0.777053, 0.769122, 0.763652, 0.762446, 0.769823, 0.771221, 0.770873, 0.769273, 0.77688, 0.778117, 0.780769, 0.781069, 0.780166, 0.778609, 0.778617, 0.778651, 0.77907, 0.780079, 0.787807, 0.786626, 0.788757, 0.789938, 0.0034427, 0.00366038, 0.00384977, 0.00344734, 0.00365665, 0.80122, 0.803783, 0.805914, 0.806927, 0.810785, 0.811463, 0.81146, 0.812458, 0.812111, 0.814501, 0.81412, 0.947037, 0.833064, 0.00355876, 0.00361104, 0.848369, 0.849248, 0.00376188, 0.86004, 0.862813, 0.865635, 0.866587, 0.863237, 0.865082, 0.862548, 0.863035, 0.86021, 0.00384827, 0.00378332, 0.00382672, 1.25091, 0.00354112, 0.00357025, 0.00344699, 0.00356594, 0.00340312, 0.00366618, 0.00351174, 0.00367719, 0.00379263, 0.00339741, 0.00329195, 0.00312816, 0.00361709, 0.0037343, 0.00368634, 0.00352878, 0.827766, 0.832138, 1.55759, 0.826774, 0.830828, 0.831369, 0.832429, 0.831892, 0.82868, 0.823632, 0.818209, 0.812646, 0.802544, 0.802382, 0.77208, 0.807559, 0.805577, 0.752316, 0.777896, 0.771985, 0.746723, 0.728531, 0.726068, 0.726025, 0.746284, 0.833402, 0.836061, 0.851259, 0.963265, 0.985086, 0.99587, 1.05403, 1.09652, 1.09572, 1.17412, 1.22642, 1.36319, 1.39653, 1.39198, 1.41551, 1.4006, 1.45336, 1.45318, 1.44478, 1.47226, 1.45802, 1.4657, 1.48826, 1.49604, 1.56068, 1.55441, 1.55142, 1.54141, 1.53795, 1.5472, 1.56766, 1.55857, 1.55683, 1.56052, 1.52108, 1.54874, 1.50522, 1.5073, 1.51513, 1.55049, 1.51912, 1.52316, 1.52322, 1.52225, 1.50945, 1.51669, 1.47561, 1.47812, 1.4522, 1.466, 1.45832, 1.4628, 1.43362, 1.42574, 1.42813, 1.42902, 1.45152, 1.39171, 1.38949, 1.38522, 1.36822, 1.33612, 1.34352, 1.30998, 1.27061, 1.27352, 1.2459, 1.2439, 1.24384, 1.24659, 1.2464, 1.18341, 1.22199, 1.22463, 1.18126, 1.17081, 1.14018, 1.11733, 1.09745, 1.08588, 1.07239, 1.07896, 1.08111, 1.03514, 1.03534, 1.04577, 1.02955, 1.03915, 1.02948, 1.01473, 1.01882, 1.08003, 0.958143, 0.963438, 0.971176, 0.970143, 0.968804, 0.966438, 0.984375, 1.07236, 1.07224, 1.07376, 1.05193, 1.05463, 1.05704, 1.08934, 1.09219, 1.09417, 1.09601, 1.09194, 1.09503, 1.09581, 1.09614, 1.09761, 1.09725, 1.09874, 1.09833, 1.10343, 1.10567, 1.11117, 1.11285, 0.00325276, 1.12268, 1.26032, 1.22195, 1.15787, 1.16042, 1.16664, 1.16871, 1.17084, 1.17583, 1.17613, 1.17448, 1.17596, 1.1806, 1.18765, 1.18959, 0.00334295, 1.19179, 1.19309, 1.19605, 1.19273, 1.19194, 1.19446, 1.19577, 1.19708, 1.19911, 1.2013, 1.20294, 1.20476, 1.20553, 1.20567, 1.20816, 1.20865, 1.21002, 1.20704, 1.2082, 1.21116, 1.21193, 1.21415, 1.21688, 1.21745, 1.21836, 1.21863, 1.22124, 1.22192, 1.22324, 1.22882, 1.22929, 1.23028, 1.23072, 1.28841, 1.28759, 1.29899, 0.00379822, 1.2676, 1.27093, 1.27307, 1.27808, 0.00336876, 1.27616, 1.27819, 1.278, 1.27989, 1.28298, 1.28913, 1.29103, 1.29457, 1.29815, 1.29784, 1.30746, 1.30521, 1.3118, 1.44647, 1.44332, 1.32207, 1.32895, 1.35634, 1.3576
0.775083, 0.776814, 0.762832, 0.763669, 0.765246, 0.766072, 0.764309, 0.769117, 0.792845, 0.775856, 0.776701, 0.775114, 0.775038, 0.773576, 0.786193, 0.786544, 0.786049, 0.785546, 0.778978, 0.781595, 0.787094, 0.787234, 0.789846, 0.789415, 0.789212, 0.791772, 0.792941, 0.794527, 0.00410518, 0.800968, 0.815079, 0.81656, 0.819523, 0.821237, 0.823317, 0.825491, 0.825545, 0.826056, 0.828811, 0.8319, 0.832976, 0.834406, 0.837137, 0.846535, 0.849101, 0.850264, 0.852339, 0.00360136, 0.858674, 0.00391641, 0.837155, 0.00303508, 0.00347135, 0.00358256, 0.00368723, 0.00330177, 0.838575, 0.00349885, 0.832091, 0.833151, 1.14527, 1.08155, 0.00377753, 0.00348576, 0.00401725, 0.00333855, 0.00387698, 0.00394228, 0.82252, 0.00343172, 0.796055, 0.798128, 0.798487, 0.819004, 0.820519, 0.820557, 0.82167, 0.823378, 0.826863, 0.828357, 0.829472, 0.830525, 0.831042, 0.829861, 0.944724, 0.949502, 0.807564, 0.806993, 0.807818, 0.787855, 0.771688, 0.792709, 0.805988, 0.807301, 0.74838, 0.727609, 0.72025, 0.721212, 0.748387, 0.742415, 0.741644, 0.795582, 0.813336, 0.814548, 0.999818, 0.986764, 1.01363, 1.07987, 1.07882, 1.17068, 1.27751, 1.41086, 1.41045, 1.43884, 1.43573, 1.4522, 1.45025, 1.4509, 1.46099, 1.47538, 1.48191, 1.48707, 1.55695, 1.55191, 1.56277, 1.56082, 1.56186, 1.56447, 1.57107, 1.63237, 1.63066, 1.56553, 1.62978, 1.57071, 1.56401, 1.62374, 1.62448, 1.55503, 1.53071, 1.57122, 1.56969, 1.56406, 1.56141, 1.54225, 1.54261, 1.54031, 1.54173, 1.50248, 1.47213, 1.49021, 1.51614, 1.51508, 1.44423, 1.43291, 1.42082, 1.43013, 1.41666, 1.42612, 1.41568, 1.4063, 1.40315, 1.39356, 1.37433, 1.33997, 1.3107, 1.31033, 1.30466, 1.3199, 1.32025, 1.24266, 1.24577, 1.23143, 1.19101, 1.18599, 1.16062, 1.15257, 1.15312, 1.13931, 1.14333, 1.19368, 1.10922, 1.10253, 1.10316, 1.12244, 1.05626, 1.04782, 1.03656, 1.03204, 1.0435, 1.04413, 1.08241, 1.08441, 0.976058, 0.973628, 0.969711, 0.96988, 0.957095, 0.988454, 0.989351, 1.0092, 1.07519, 0.985999, 0.975726, 1.06928, 1.04951, 1.08542, 1.08779, 1.08979, 1.08909, 1.09475, 1.09457, 1.09307, 1.09273, 1.0941, 1.09535, 1.09756, 1.09761, 1.16157, 1.25642, 0.00386185, 0.00350185, 0.00320037, 1.14363, 1.14988, 1.15025, 1.15326, 1.15781, 1.16039, 1.16317, 1.16596, 1.16811, 1.16996, 1.17099, 1.17226, 1.17373, 1.17476, 1.17678, 1.18493, 1.18382, 1.18389, 1.18475, 1.18599, 1.18195, 1.18214, 1.18418, 1.1913, 1.19374, 1.1934, 1.1972, 1.19753, 1.1994, 1.19864, 1.20206, 1.20449, 1.20935, 1.21078, 1.21071, 1.21259, 1.21104, 1.21263, 1.21471, 1.21582, 1.21702, 1.21774, 1.21876, 1.21982, 1.21874, 1.21977, 1.22344, 1.23315, 1.23962, 1.25519, 1.26027, 1.26272, 1.26548, 1.26482, 1.26746, 1.27442, 1.27542, 1.28009, 1.2819, 1.28604, 1.28458, 1.27446, 1.27836, 1.28026, 1.28164, 1.28715, 1.29379, 1.29468, 1.29902, 1.43736, 0.0038458, 1.31428, 1.32337, 1.32249, 1.32542, 1.32694, 1.32713, 1.33082
1.4053, 0.753446, 0.763022, 0.764838, 0.765829, 0.766381, 0.00370613, 0.793161, 0.793805, 0.794202, 0.777451, 0.777423, 0.777462, 0.778273, 0.786811, 0.778521, 0.777505, 0.777494, 0.781058, 0.782622, 0.783481, 0.784514, 0.785267, 0.786734, 0.788469, 0.00342264, 0.00348465, 0.812744, 0.815107, 0.816511, 0.81567, 0.816778, 0.814359, 0.815652, 0.815924, 0.817805, 0.818488, 0.822731, 0.822939, 0.825719, 0.838826, 0.841149, 0.841972, 0.842256, 0.843143, 0.845898, 0.0037097, 0.0036399, 0.00358693, 0.00361291, 0.00376426, 0.00323381, 0.0036403, 0.834785, 0.00352036, 0.00363042, 0.82694, 0.003575, 0.00360231, 0.00389486, 0.00340505, 0.00370988, 0.8127, 0.811519, 0.00386626, 0.00372263, 0.816114, 0.817465, 0.81689, 0.816405, 0.795686, 0.798445, 0.798845, 0.798326, 0.798107, 0.819134, 0.821913, 0.826076, 0.827292, 0.828325, 0.82907, 0.831042, 0.82443, 0.942932, 0.81088, 0.810747, 0.811866, 0.815001, 0.815158, 0.780564, 0.782156, 0.802681, 0.803538, 0.752897, 0.76704, 0.764898, 0.763314, 0.763384, 0.762242, 0.761376, 0.760201, 0.80802, 0.835802, 0.86137, 0.969072, 0.998852, 1.03928, 1.04783, 1.17774, 1.30583, 1.3033, 1.41414, 1.43739, 1.45424, 1.46214, 1.46298, 1.47144, 1.49181, 1.49811, 1.49454, 1.49778, 1.52515, 1.52387, 1.55372, 1.55547, 1.61824, 1.5757, 1.57793, 1.5573, 1.56855, 1.558, 1.57387, 1.56245, 1.5618, 1.56333, 1.56222, 1.56188, 1.53285, 1.56478, 1.58611, 1.58496, 1.57926, 1.57917, 1.53338, 1.53518, 1.5534, 1.55176, 1.53727, 1.49784, 1.50782, 1.4824, 1.48474, 1.52497, 1.46556, 1.45212, 1.45198, 1.44445, 1.43655, 1.43629, 1.41545, 1.42254, 1.41039, 1.40724, 1.41278, 1.35713, 1.31334, 1.31224, 1.28916, 1.27567, 1.24744, 1.23563, 1.20926, 1.21036, 1.21, 1.21215, 1.20523, 1.20696, 1.23499, 1.1355, 1.12186, 1.09739, 1.0982, 1.09987, 1.1132, 1.1152, 1.0713, 1.05375, 1.02565, 1.02846, 1.09181, 1.09193, 1.07851, 0.991694, 0.996328, 0.949588, 0.957356, 0.943417, 0.943779, 0.959705, 0.959784, 0.972322, 0.992869, 0.980772, 0.985532, 1.07437, 1.14551, 1.08501, 1.08772, 1.08885, 1.0921, 1.16029, 1.16048, 1.18155, 0.00392512, 0.00338914, 1.1264, 1.12547, 1.12774, 1.12977, 1.13731, 1.13877, 1.14325, 1.14374, 1.14495, 1.14754, 1.15043, 1.15346, 1.1535, 1.15815, 1.1618, 1.16023, 1.24345, 1.16634, 1.2408, 1.21257, 1.58833, 1.27151, 1.20831, 1.28726, 1.17028, 1.17252, 1.17413, 1.17744, 1.17928, 1.18378, 1.18424, 1.18956, 1.19156, 1.1954, 1.19469, 1.19778, 1.19854, 1.2011, 1.20281, 1.20868, 1.20825, 1.2086, 1.20954, 1.21081, 1.2115, 1.21728, 1.21425, 1.21797, 1.2172, 1.22003, 1.21972, 1.21924, 1.21882, 1.21848, 1.21968, 1.31502, 1.31848, 1.26152, 1.2596, 1.26494, 1.26452, 1.26506, 1.26894, 1.27121, 1.27878, 1.28589, 1.28549, 1.28736, 1.28255, 1.27903, 1.28007, 1.41208, 1.2995, 1.29656, 1.30686, 1.3065, 1.30982, 1.31012, 1.31349, 1.31691, 1.32424, 1.32574, 1.32976, 1.33266, 1.33288
1.39547, 0.00333772, 0.811711, 0.00348823, 0.00327078, 0.766008, 0.767743, 0.768891, 0.769051, 0.768347, 0.768824, 0.00367661, 0.777706, 0.780961, 0.772124, 0.777302, 0.778439, 0.779392, 0.778819, 0.778749, 0.782462, 0.785718, 0.801909, 0.803845, 0.804171, 0.807749, 0.806717, 0.806432, 0.805643, 0.806322, 0.808373, 0.809067, 0.818419, 0.814866, 0.815312, 0.82478, 0.827671, 0.828859, 0.831397, 0.00399908, 0.00322908, 0.967383, 0.00373036, 0.974228, 0.00345494, 0.00322343, 0.00345799, 0.807444, 0.811119, 0.813341, 0.813892, 0.818896, 0.817607, 0.00361044, 0.00341508, 0.00337707, 0.800873, 0.805001, 0.803983, 0.802612, 0.80406, 0.804644, 0.805117, 0.80221, 0.802928, 0.813091, 0.815691, 0.818157, 0.819383, 0.00368506, 0.795503, 0.797919, 0.797032, 0.791978, 0.793234, 0.79221, 0.984182, 0.00348231, 0.824795, 0.825439, 0.824137, 0.824693, 0.826175, 0.813319, 0.815545, 0.812557, 1.01594, 0.908272, 0.789077, 0.789559, 0.785398, 0.79531, 0.755278, 0.755288, 0.755741, 0.75581, 0.74291, 0.743525, 0.748587, 0.782642, 0.811952, 0.840932, 0.855865, 0.87095, 0.981421, 1.05733, 1.1233, 1.13923, 1.19818, 1.35523, 1.4328, 1.42231, 1.44557, 1.4459, 1.44767, 1.48243, 1.48034, 1.50788, 1.50903, 1.54365, 1.57574, 1.54149, 1.53982, 1.54926, 1.55365, 1.57546, 1.57399, 1.70282, 1.69806, 1.5589, 1.571, 1.56902, 1.56399, 1.56138, 1.56742, 1.54542, 1.56278, 1.55617, 1.5537, 1.54924, 1.53176, 1.5481, 1.54698, 1.51683, 1.5297, 1.50125, 1.52173, 1.52034, 1.5103, 1.51298, 1.48268, 1.4961, 1.46531, 1.48277, 1.45356, 1.45965, 1.46099, 1.4554, 1.45168, 1.43134, 1.42503, 1.40247, 1.39433, 1.38558, 1.38699, 1.3481, 1.34644, 1.29768, 1.2663, 1.27188, 1.29708, 1.29644, 1.2981, 1.19791, 1.17247, 1.15014, 1.15056, 1.13693, 1.13294, 1.11092, 1.10103, 1.10176, 1.16567, 1.17915, 1.05699, 1.05778, 1.06086, 1.0334, 1.01451, 1.01967, 0.998754, 1.00076, 0.977664, 0.979196, 0.988144, 1.01348, 0.969328, 0.96476, 0.956897, 0.972509, 1.00752, 1.00956, 1.02723, 1.07467, 1.07519, 1.06785, 1.08583, 0.00370575, 1.11167, 0.00332373, 0.00365638, 1.12451, 1.12519, 1.125, 1.12924, 1.13067, 1.13192, 1.13208, 1.12825, 1.12914, 1.13148, 1.14256, 1.14219, 1.14609, 1.14649, 1.14889, 1.15244, 1.15288, 1.15193, 1.15396, 1.15512, 1.15116, 1.1532, 1.32475, 1.1567, 1.15505, 1.15735, 1.16147, 1.16243, 1.16159, 1.16707, 1.17059, 1.17406, 1.17955, 1.17983, 1.18428, 1.18613, 1.18837, 1.19207, 1.19316, 1.19718, 1.19718, 1.20004, 1.20201, 1.20581, 1.20726, 1.21519, 1.30642, 1.36499, 1.81266, 1.23279, 1.23333, 1.23583, 1.23267, 1.21575, 1.22877, 1.22985, 1.23284, 1.21559, 1.21347, 1.21906, 1.2254, 1.27467, 0.00351123, 1.26732, 1.26836, 1.26801, 1.2732, 1.27422, 1.27738, 1.3682, 1.28556, 1.29131, 1.29168, 1.28994, 1.29157, 1.29432, 1.29502, 1.29579, 1.29967, 1.30222, 1.3063, 1.31583, 1.31674, 1.3173, 1.32321, 1.32639, 1.32983, 1.3327, 1.3335
0.749107, 0.750487, 0.75424, 0.754422, 0.760586, 0.76093, 0.767708, 0.769117, 0.763174, 0.764411, 0.765338, 0.766667, 0.767206, 0.768275, 0.768735, 0.771165, 0.773204, 0.791327, 0.797607, 0.79817, 0.800076, 0.798256, 0.798916, 0.799407, 0.800437, 0.801458, 0.803557, 0.804064, 0.806325, 0.812291, 0.81464, 0.817556, 0.818996, 0.821551, 0.822757, 0.825327, 0.00318257, 0.00351995, 0.0035522, 0.00363724, 0.00358774, 0.00335229, 0.00365071, 0.00384288, 0.00360683, 0.00382597, 0.00343015, 0.804902, 0.804993, 0.00371442, 0.00322417, 0.0038977, 0.79732, 0.792403, 0.800541, 0.798363, 0.799477, 0.790621, 0.791776, 0.79313, 0.782081, 0.78444, 0.797153, 0.792187, 0.795664, 0.796923, 0.797128, 0.00398485, 0.00333219, 0.00428432, 0.00365749, 0.785238, 0.786229, 0.786728, 0.783919, 0.794442, 0.00333655, 0.893221, 0.00350974, 0.818757, 0.00356264, 0.818211, 0.817279, 0.813438, 0.814209, 1.08836, 0.903949, 0.78596, 0.788627, 0.787262, 0.777419, 0.777468, 0.777285, 0.778642, 0.773896, 0.7773, 0.738828, 0.742659, 0.74875, 0.773989, 0.784864, 0.832759, 0.850619, 0.844344, 0.946814, 1.03037, 1.13291, 1.13271, 1.29333, 1.40498, 1.39279, 1.46506, 1.46405, 1.46074, 1.49608, 1.50632, 1.50607, 1.51384, 1.53031, 1.52995, 1.54416, 1.54707, 1.54816, 1.55501, 1.57103, 1.56247, 1.56122, 1.57933, 1.5663, 1.56379, 1.596, 1.57192, 1.57337, 1.58166, 1.57931, 1.56475, 1.55107, 1.54932, 1.53613, 1.52344, 1.52156, 1.52622, 1.50633, 1.51237, 1.52019, 1.49403, 1.49534, 1.49636, 1.49286, 1.5019, 1.49516, 1.49959, 1.47452, 1.52717, 1.46215, 1.46428, 1.46842, 1.49227, 1.43184, 1.4421, 1.44726, 1.40672, 1.41206, 1.37097, 1.37525, 1.34599, 1.34506, 1.32648, 1.30274, 1.27394, 1.30274, 1.29409, 1.20866, 1.19902, 1.1659, 1.17368, 1.12821, 1.12915, 1.10633, 1.11574, 1.09922, 1.09169, 1.08948, 1.08974, 1.07162, 1.06929, 1.05505, 1.02534, 1.04513, 0.998561, 1.00569, 0.987603, 0.976833, 0.977153, 0.976533, 1.00331, 0.970902, 1.02532, 1.0118, 1.02697, 1.03992, 1.03798, 1.07341, 1.07419, 1.28845, 1.17045, 0.00360992, 1.11042, 1.10989, 1.28121, 1.12332, 1.12666, 1.12776, 1.1283, 1.13006, 1.13204, 1.1315, 1.13375, 1.13542, 1.1304, 1.13149, 1.13567, 1.14152, 1.141, 1.14263, 1.14259, 1.14636, 1.14624, 1.14484, 1.14502, 1.14853, 1.14734, 1.14995, 1.15274, 1.15245, 1.15357, 1.15806, 1.15816, 1.16113, 1.16175, 1.1658, 1.17091, 1.17189, 1.17648, 1.17808, 1.18116, 1.18294, 1.18566, 1.1893, 1.18913, 1.19501, 1.1963, 0.00369855, 0.0037949, 1.2225, 1.22092, 1.22261, 1.22577, 1.22677, 1.23007, 1.23276, 1.23496, 1.23585, 1.23644, 1.23757, 1.23368, 1.23537, 1.23025, 1.22575, 1.22062, 1.22294, 1.41112, 0.00353049, 1.29557, 0.00382655, 1.30191, 1.27137, 1.27823, 1.28449, 1.28959, 1.29067, 1.29227, 1.29277, 1.29275, 1.29159, 1.29147, 1.2921, 1.29753, 1.29991, 1.315, 1.31443, 1.3111, 1.391, 1.47768, 1.33024, 1.32969, 1.33107, 1.33548, 1.33461, 1.33839
0.748516, 0.749466, 0.749089, 0.753878, 0.75672, 0.759086, 0.760328, 0.763697, 0.766389, 0.764394, 0.764922, 0.768237, 0.767081, 0.785006, 0.769642, 0.790132, 0.791793, 0.792413, 0.792684, 0.793715, 0.794622, 0.794882, 0.799549, 0.805459, 0.807076, 0.808396, 0.810018, 0.812303, 0.812558, 0.813442, 0.814545, 0.815291, 0.814543, 0.807872, 0.807781, 0.808181, 0.00393398, 0.00349489, 0.0035446, 0.00333142, 0.00393571, 0.00348941, 0.00345125, 0.00350931, 0.00358618, 0.785087, 0.787549, 0.787589, 0.78703, 0.776715, 0.778007, 0.779819, 0.786986, 0.786215, 0.780116, 0.779055, 0.780673, 0.787963, 0.790761, 0.787019, 0.784027, 0.784829, 0.788214, 0.779703, 0.780657, 0.779621, 0.782851, 0.780224, 0.767856, 0.769741, 0.767432, 0.772677, 0.775028, 0.77615, 0.776664, 0.795074, 0.795973, 0.789185, 0.9367, 1.02854, 1.02898, 0.809259, 0.811269, 0.7972, 0.798623, 0.800697, 0.802335, 0.87695, 0.877197, 0.780128, 0.780587, 0.78312, 0.783185, 0.782283, 0.766101, 0.767107, 0.777401, 0.749903, 0.742084, 0.742813, 0.787398, 0.801321, 0.798903, 0.839265, 0.890804, 1.05366, 1.14296, 1.21271, 1.21163, 1.39271, 1.41331, 1.432, 1.45076, 1.4727, 1.49125, 1.51565, 1.50742, 1.50792, 1.51275, 1.52565, 1.56283, 1.54839, 1.54026, 1.56002, 1.56093, 1.56838, 1.57532, 1.57475, 1.5718, 1.55863, 1.56435, 1.61386, 1.72986, 1.72212, 1.76056, 1.56511, 1.54042, 1.54077, 1.52366, 1.51985, 1.50897, 1.50835, 1.50537, 1.50567, 1.50579, 1.49644, 1.49002, 1.48806, 1.51925, 1.50149, 1.49958, 1.51022, 1.50637, 1.49515, 1.49245, 1.49185, 1.46362, 1.45269, 1.4535, 1.47521, 1.44193, 1.42333, 1.40028, 1.39934, 1.38239, 1.37326, 1.33441, 1.33651, 1.28743, 1.28855, 1.22638, 1.2717, 1.22556, 1.22725, 1.2292, 1.22945, 1.26721, 1.13563, 1.13545, 1.10245, 1.09822, 1.09218, 1.09379, 1.09715, 1.06639, 1.06638, 1.04602, 1.03605, 1.05299, 1.02975, 1.01039, 1.00105, 0.98186, 1.00524, 0.976088, 0.976567, 1.01519, 1.08912, 1.00849, 0.00331891, 1.07292, 1.06749, 1.07023, 1.06974, 1.07215, 1.16454, 1.16455, 0.00379208, 1.11566, 1.11975, 1.12282, 1.12194, 1.12385, 1.12514, 1.12677, 1.12487, 0.00366826, 1.1228, 1.125, 1.12698, 1.12943, 1.13024, 1.12989, 1.13175, 1.13394, 1.13607, 1.13719, 1.14189, 1.14128, 1.14535, 1.14701, 1.15221, 1.15185, 1.15418, 1.15725, 1.15783, 1.16038, 1.16002, 1.15994, 1.16489, 1.16646, 1.16464, 1.16729, 1.17085, 1.1749, 1.17833, 1.31566, 1.18839, 0.00353784, 1.20543, 1.2095, 1.21199, 1.21225, 1.2174, 1.21881, 1.22336, 1.22414, 1.22769, 1.22716, 1.23017, 1.23216, 1.22966, 1.2304, 1.23464, 1.23646, 1.24035, 1.23685, 1.2335, 1.22805, 1.24013, 1.2316, 1.38048, 1.29561, 1.28132, 1.26385, 1.26886, 1.26774, 1.27342, 1.28029, 1.28402, 1.28617, 1.29264, 1.2939, 1.29175, 1.29336, 1.29222, 1.29228, 1.29908, 1.30079, 1.30417, 1.31157, 1.31948, 1.32193, 1.32699, 1.32871, 1.33341, 1.33424, 1.33658, 1.33738, 1.33885
0.746825, 0.747182, 0.753168, 0.755444, 0.75551, 1.40205, 0.764455, 0.766162, 0.766287, 0.779937, 0.781163, 0.783902, 0.785642, 0.786174, 0.788048, 0.78732, 0.788513, 0.789618, 0.792477, 0.792203, 0.801468, 0.803416, 0.804073, 0.806327, 0.807462, 0.807839, 0.808258, 0.808183, 0.00388912, 0.00376763, 0.00370946, 0.00355873, 0.00353359, 0.00345281, 0.00326794, 0.00358091, 0.00365098, 0.777547, 0.779915, 0.778574, 1.49573, 0.00380567, 0.00350336, 0.778304, 0.777586, 0.769916, 0.770974, 0.773121, 0.772569, 0.776392, 0.778655, 0.779979, 0.780087, 0.777573, 0.761642, 0.763524, 0.763779, 0.880602, 0.780753, 0.782059, 0.782997, 0.777549, 0.779387, 0.779194, 0.779003, 0.770612, 0.7739, 0.773278, 0.77322, 0.770537, 0.771305, 0.775438, 0.775931, 0.776107, 0.775496, 0.782292, 0.783048, 0.788368, 0.788796, 0.794746, 0.79718, 0.799289, 0.801015, 0.801703, 0.800996, 0.795084, 0.794075, 0.790501, 0.787466, 0.786639, 0.784179, 0.799051, 0.79515, 0.795914, 0.797162, 0.791652, 0.793077, 0.787419, 0.776417, 0.777608, 0.788904, 0.790532, 0.789477, 0.88948, 0.89905, 1.00158, 1.11527, 1.19368, 1.33534, 1.41866, 1.41865, 1.45964, 1.45712, 1.48117, 1.51035, 1.50668, 1.51609, 1.52691, 1.51987, 1.5155, 1.54179, 1.53041, 1.56829, 1.54495, 1.5487, 1.56052, 1.5577, 1.56577, 1.59208, 1.57154, 1.57145, 1.60157, 1.60207, 1.60307, 1.80593, 1.61425, 1.55144, 1.55073, 1.54575, 1.54024, 1.52736, 1.52703, 1.535, 1.51229, 1.50223, 1.50142, 1.498, 1.52995, 1.52027, 1.53125, 1.49925, 1.53464, 1.52342, 1.4979, 1.5168, 1.51889, 1.46778, 1.46779, 1.46755, 1.46043, 1.45648, 1.4522, 1.44143, 1.42015, 1.37658, 1.38137, 1.34666, 1.31251, 1.28636, 1.29507, 1.22926, 1.23668, 1.23301, 1.23367, 1.20145, 1.20178, 1.24194, 1.12481, 1.12444, 1.13281, 1.18083, 1.16565, 1.16877, 1.16205, 1.16293, 1.05499, 1.06051, 1.04067, 1.04999, 1.02122, 1.0214, 1.02398, 1.00214, 1.03307, 1.02758, 1.03047, 1.03246, 1.04435, 1.03749, 1.10885, 1.11683, 1.07314, 1.08712, 1.0881, 1.08929, 1.10698, 1.10691, 1.11171, 1.11377, 1.11584, 1.11775, 1.1184, 1.11503, 1.11867, 1.11767, 1.11944, 1.11605, 1.11901, 1.11976, 1.12468, 1.12594, 1.12694, 1.12776, 1.13181, 1.1338, 1.14613, 1.14228, 1.1412, 1.14299, 1.14648, 1.1468, 1.15287, 1.15274, 1.15492, 1.15707, 1.15946, 1.1623, 1.16231, 1.15968, 1.16019, 1.16357, 1.16359, 0.00368135, 1.28056, 1.2833, 0.00343661, 1.19702, 1.19875, 1.20301, 1.20566, 1.20877, 1.21111, 1.21528, 1.218, 1.21997, 1.2206, 1.22578, 1.22556, 1.22342, 1.2257, 1.22835, 1.23178, 1.2336, 1.23545, 1.23576, 1.24065, 1.2435, 1.25303, 1.25683, 1.25495, 1.25366, 1.25636, 1.25745, 1.2615, 1.37, 1.2769, 1.27635, 1.27804, 1.28114, 1.28267, 1.28612, 1.28696, 1.28628, 1.29543, 1.29546, 1.30108, 1.28839, 1.28858, 1.30814, 1.31022, 1.31196, 1.32293, 1.321, 1.32426, 1.33593, 1.33468, 1.33752, 1.33856, 1.34127, 1.34688
