1.83896068941104,1.86397701079998,1.81339981715182,1.94747929132571,1.98280074894564,1.97524961995928,1.94430953856234,1.86830175638009,1.87950542441636,1.82402032436333,1.82632834314402,2.02098000000027,2.16219494795905,2.14504693573724,2.16393999323421,2.05534050956537,2.09895533600889,1.89921974275002,1.89818503408433,1.89385734010543,1.98674833333347,2.07420403624175,2.06434607810766,2.02095905014561,2.09291996571889,1.96495873447159,1.96595201497353,1.7375374153104,1.79444514624912,1.8049217856564,1.80967776068734,1.72321987593802,1.709379897819,1.68660671987277,1.66785001135382,1.64174689069104,1.6359781424322,1.60334522455498,1.57435416921773,1.56783656230565,1.46375917514114,1.46789791561706,1.45077034358561,1.44857587514428,1.40295329470093,1.44308188928101,1.43557772961056,1.35439352241671,1.35647025039759,1.35914285787232,1.35861270786725,1.41169995935421,1.41988987189351,1.67928800723716,1.78991985858164,1.74692014141863,1.49726623448175,1.4023975416294,1.39613934758233,1.38520514678885,1.35677264643769,1.35698937232938,1.33951634734515,1.34272074985695,1.33752059304101,1.3271586890949,1.34047299524123,1.35098847764939,1.36925676808601,1.39305939240614,1.65797005126262,1.6741003048351,1.69227372940303,1.50959516902544,1.38677448859638,1.38564353984348,1.37209998326554,1.39209044061302,1.40052924430541,1.39860393442354,1.39607751221251,1.73473600522835,1.695260439435,1.48447914383978,1.47864839325351,1.36902227814047,1.36300430656373,1.53065022917709,1.44107830472759,1.34950999999959,1.73465390411263,1.29572040733767,1.33142105764731,1.32657473737781,1.22518595841316,1.21577698455268,1.20186514209619,1.23359431691225,1.25550727158734,1.27808977820067,1.30583981452935,1.50420000000027,1.29985986811669,1.28403765188483,1.27126913899755,1.27124037692649,1.33585999999973,1.60091965091576,1.66094276149326,1.71408573570037,1.69536013037107,1.4382,1.31497284717601,1.31324796987659,1.28300867382687,1.31003128530748,1.41441741993783,1.58824001824797,1.62352974022909,1.61287342220045,1.3261383198884,1.31237430360249,1.31350391044701,1.32298955842581,1.33993851116825,1.45222342003348,1.44619477111747,1.65735994358639,1.61011324033114,1.60081393276653,1.45470327955341,1.40116368244815,1.33860661386286,1.37811938108728,1.39010068661036,1.54093000000027,1.61657753049358,1.6055736852289,1.6034907011844,1.35032684275054,1.32712501709748,1.31169921887718,1.33420013837252,1.45292447499949,1.47373310817979,1.68000945244438,1.65176366124748,1.62284008271537,1.44907965325718,1.38168574070405,1.41044275982865,1.48156999079126,1.5155303475849,1.66777855427839,1.67264474504992,1.28113499999959,1.52099975039253,1.48650126757979,1.46004818888867,1.44164700032972,1.44074320722003,1.77117986514292,1.71266174295458,1.71532501915354,1.71775626781927,1.70224013382203,1.25832999970824,1.20242581398775,1.20274341012301,1.20245216488689,1.25205026527073,1.31555008059149,1.57557000000054,1.39074881939136,1.53032000000054
1.86846882931702,1.86968232154994,1.83975001150783,1.94774196628452,2.06574939928492,2.07338171860774,1.92166980878888,1.89994946903514,1.89943575738859,1.82072330282615,1.86208072869569,1.91389999996577,2.16472488170684,2.14087172167873,2.07554256720407,2.13851410246066,2.08805415442601,1.9176684506178,1.90000227854901,1.89673377724661,1.9841416666668,2.08610444585674,2.08382562570944,2.0193455697046,0.00443918001899447,2.03533024209181,2.03197976341588,1.7479342397629,1.78841960078708,1.78729327370531,1.91735962434382,1.98206986298703,1.9253387199908,1.91944191984961,1.92709715455601,1.64799069680454,1.66175494429132,1.60951443058253,1.57879563408133,1.52349520278549,1.51373996828943,1.44460983418178,1.4573580734635,1.472479163222,1.48893420211654,1.45223372491118,1.43689848574396,1.36192351548099,1.36169719330637,1.36156903020092,1.36447176847928,1.42984583238431,1.64055046389245,1.68546845339258,1.84109182958669,1.85586817041412,1.45264051830616,1.42292209576176,1.40043590265394,1.38594645944998,1.34866993197969,1.35420150692322,1.34951540648184,1.34478206759684,1.33672156846465,1.32479690480183,1.35574189847093,1.36780389701262,1.36713022689799,1.36557591876126,1.3919695025977,1.67240632238436,1.71774948458623,1.47781954493999,1.41041976338049,1.3712755788981,1.40015034105109,1.42852681419624,1.40105405391463,1.40230043899525,1.40338642504845,1.40369412435663,1.672690028368,1.46341879490669,1.43713718993675,1.39289077562666,1.36728364992208,1.35290045727567,1.40468324796534,1.68349000000027,1.73646986020335,1.73756581063723,1.33001571041908,1.31645426239486,1.2433363478154,1.21659974664422,1.2170793183642,1.22698847052643,1.23666013818103,1.23896446760343,1.26023747877177,1.25664215780972,1.29493694286093,1.2793120892017,1.2639244919909,1.34922692214232,1.40479961590342,1.57260034994423,1.65968377655488,1.82303996933693,1.70905323326877,1.37497335811521,1.32034636633492,1.31019030256894,1.30964484663999,1.31015799107974,1.3747803559548,1.77849000000054,1.6315654073235,1.64910702195397,1.35112940511079,1.3233425981588,1.36223927556234,1.32421312941258,1.30148070483627,1.41465014079837,1.55527026575785,1.62725190358933,1.61765450695467,1.65240935837694,1.45770643138294,1.38957740344467,1.47610000000054,1.37205088154464,1.36360070379904,1.42616765006658,1.60701748526521,1.60866889024659,1.60188137294976,1.34013296314565,1.30592458403031,1.33407619375192,1.37760955012697,1.43099530509676,1.46823674030604,1.6928000652448,1.72709930816633,1.6801004908652,1.4645227196797,1.4069913582301,1.40902189486067,1.44756002265352,1.66832607616246,1.66545686662107,1.69288525643344,1.27799499999959,1.57801000000027,1.46690077620842,1.4692787317267,1.49893961210849,1.54206979103912,1.59151999999973,1.67631056753608,1.69745282509643,1.67767087032545,1.57017999999973,1.39136000000027,1.21197510428094,1.21950752814849,1.22995916374259,1.35447998217312,1.25564033908467,1.27895977957115,1.34074564494646,1.272850739485
1.81604066793662,1.83776562574878,1.84051646266681,1.95014428321029,2.06077888210842,1.9510746124399,1.87850061484008,1.91087300798845,1.90667193527008,1.82014191291684,1.85832291878415,1.85873653506272,2.1461101703352,2.13155988910722,2.14480663706769,2.14725869656546,2.00358425225807,1.90580131501622,1.90307505688531,1.89654781467732,1.9272698888717,2.10047480950679,2.18240000000054,2.05244332937564,2.08203285555694,2.08330257007401,1.77231959912901,1.89427378617511,1.89631665081967,1.89754279039415,1.88754456726388,1.88694232960214,1.93289181755212,1.92628498515678,1.93054118742527,1.99384999972014,1.9913299902885,1.622670036604,1.5855887951195,1.52355520951576,1.48900005692625,1.45272624325934,1.47570705013588,1.48240015141449,1.50742979597188,1.44138908046153,1.46071165766266,1.38021812383922,1.38042608575645,1.38215105254424,1.3908382314679,1.41723612111672,1.8518299372123,1.71558493970613,1.67116591320305,1.66942488546051,1.48261971313853,1.42169647502284,1.40162717709566,1.33905312907789,1.34870643841988,1.40900927071148,1.34709617510086,1.3468808001836,1.33692546157035,1.33600895468432,1.3541727089451,1.36536828907747,1.36642036282145,1.36775613551685,1.37691490480291,1.36556525563181,1.36779618252915,1.46495835628194,1.47466590736953,1.38167923147265,1.37088462405685,1.40393408546344,1.39919660148415,1.37989654834473,1.72245001864509,1.39226535191675,1.40336077880951,1.43131821266788,1.42166822296172,1.38195245231163,1.31633032131548,1.34504834217342,1.33644802505821,1.32879444517559,1.31178520975149,1.33084372784246,1.28823024739096,1.29345187273249,1.25269276345061,1.22935859055511,1.19894383598818,1.22781043718535,1.23658317664897,1.2295247574478,1.23776899751584,1.22953832548441,1.22899768946997,1.27036815492181,1.26243494809809,1.34895309889358,1.36008028223821,1.65834511439002,1.65915156234586,1.77221003066389,1.64849990710239,1.39142664188453,1.33010740072224,1.30725564412582,1.26372215935103,1.37682999997261,1.56021189005735,1.55829833254417,1.59012129399535,1.55546924595661,1.55288096717387,1.35778032686465,1.42693972975083,1.32598529238165,1.32130025008018,1.36094022814565,1.57171016236225,1.60127402763197,1.60123215164947,1.57220918736013,1.43048028911083,1.39421878762686,1.32829707558604,1.36525886789869,1.43820891089951,1.42547317423307,1.654519581391,1.62837998368749,1.60087764846231,1.37810987011605,1.31845257707047,1.28658358961271,1.28903747875208,1.41820816849311,1.42592492181667,1.6264211702801,1.67996048690461,1.72490943348936,1.48391679337377,1.42006773910631,1.34889763528645,1.37598952422263,1.44741979939825,1.39404598638515,1.27964445414331,1.65837996177032,1.62514068624233,1.47455468834872,1.47142136361674,1.4791467844226,1.52030000018017,1.66401028510951,1.70893833235992,1.70569931809699,1.70127441605362,1.7369795869015,1.32695759484495,1.27565266016213,1.26741833652409,1.259009685025,1.33676948556771,1.57775827501522,1.57755220601612,1.6047794535234,1.64805044770307
1.86244433468548,1.85615384410489,1.95270600128363,1.94783974238405,2.00299979891961,1.97264077017006,1.92771150038254,1.91771633674042,1.91875278590985,1.91901957235924,1.89460292734261,1.89303423450826,2.08255970853272,2.07589030753552,2.08792897837612,2.11479977434879,2.01938444218916,1.95228600580481,1.94324292368964,1.89329273453276,1.89370963065835,2.10984081517072,2.1077741894077,2.05107925184432,2.084174568863,1.79514491268119,1.75090199365986,1.93890989380285,1.89173775957458,1.89628917810483,1.88609451141559,1.93209621790067,2.01822000000054,1.96103863388307,1.96147149654637,1.93533992598985,1.91848024408707,1.64014671696593,1.59632291663223,1.5454896995751,1.50194033273546,1.53080962645234,1.92708000000054,1.54905485253233,1.51971005559819,1.46326696467433,1.42947875526475,1.45594840994576,1.42780092135671,1.41218599453046,1.41232395664557,1.42697780221265,1.82819953122531,1.82148342878686,1.82106380811547,1.75959485025949,1.57588536313326,1.44039969650103,1.40327320896039,1.38868979503634,1.3506931136343,1.33533264318716,1.39831152064594,1.38224728130008,1.37340274568928,1.38388120495551,1.35415434075015,1.36579621434423,1.36672367321881,1.331407517411,1.33420671694818,1.38823419623336,1.71236000000054,1.45800083048716,1.4496650241347,1.40979443711395,1.40049074213572,1.41868913109169,1.39866716971989,1.365353371868,1.7711697301678,1.73615025118819,1.44578230473992,1.44751482086246,1.44552390797774,1.39549910425941,1.33786999562581,1.32468085347537,1.33753065294519,1.33690442546071,1.72447111435938,1.73217888564143,1.3407501761089,1.29469604683723,1.28392444274556,1.24326004403235,1.20099089415584,1.23736531703477,1.23570239185435,1.24201607716985,1.23045669488817,1.23533957210194,1.2899535348945,1.27530619192802,1.22870096707722,1.33381980521895,1.48178000000027,1.66009908768952,1.65944212455387,1.70815000000027,1.64097009289761,1.53825035479164,1.399799697269,1.305434787738,1.25516602454651,1.28041111968865,1.40534629417003,1.65758314501698,1.65210994769717,1.65524589812357,1.64994617338995,1.38017989912811,1.33317509226341,1.33089758373523,1.52327000000054,1.38315116132693,1.59300377933859,1.60172123397682,1.60145250268223,1.56951118566339,1.49154875024637,1.37864358737696,1.33365331080564,1.36099878342883,1.37474881671539,1.59319214544153,1.62868693524475,1.67673942971267,1.60291043360339,1.59691523674308,1.33146870894419,1.31964408967361,1.32956503954897,1.39756961000761,1.43726938923942,1.6273114654268,1.61418789799638,1.62444164236902,1.50550170338823,1.48155884868915,1.34130928299161,1.35879527074908,1.42627020060229,1.35995899318872,1.2634158841649,1.67976970457803,1.65063071174639,1.49931947377373,1.46348436766263,1.41591030749706,1.49103994968652,1.68838971491697,1.74096887202098,1.71893426503125,1.72865300557789,1.64637132934555,1.3287952615082,1.32363493689008,1.31589799150156,1.30741677544027,1.34754055093526,1.36918998144002,1.65049451940927,1.64656403313606,1.64865197073858
1.86380459628248,1.86109726672419,1.92614571700894,1.94687875462151,1.99918127379462,1.9694150957731,1.9427310236535,1.93673752260457,1.934309805241,1.90946944233782,1.88741939591691,1.88670405000539,1.9198396651433,1.94329409952596,2.1061838918128,2.11247199415137,2.04886599381297,1.99038317350131,1.94126047503475,1.95212093327922,1.9521777934136,1.9660490882889,2.05065676822505,2.05130859815552,2.05582063949118,1.82711033800499,1.84368796272755,1.88611094644753,1.88887457299,1.89273771030355,1.89491159205113,1.95144639345747,1.97550902215838,1.97065413913681,1.96807321468292,1.87235991281039,1.87281139227085,1.6285953574802,1.60614347441467,1.58459319916067,1.58268119591602,1.61001834147209,1.62772951424088,1.58109684303143,1.54901248228351,1.46597034061724,1.46565691238706,1.46165547464869,1.43782917918931,1.42643292172603,1.4264601156203,1.43435259779864,1.81842153389521,1.81390594808345,1.81287275523314,1.80028679964389,1.56562407535657,1.47259037573278,1.40841004898451,1.39596511469214,1.39458795386588,1.39399257255965,1.3950460190192,1.38867687097194,1.38584184626532,1.38260072626049,1.36920745612034,1.3669953970171,1.36827857657441,1.33261788287538,1.33389385134618,1.38987044700826,1.40415607745154,1.41744622027543,1.4331952076723,1.41787238749628,1.4049414977262,1.40753250262421,1.39990650912536,1.37667510790245,1.44938911170884,1.52007712254503,1.4859488429032,1.44768156207338,1.42705257136436,1.39185844878287,1.33852885566868,1.32991206584691,1.33470728703755,1.39850236269826,1.6214310424531,1.6243476686915,1.34074614318644,1.29812616750809,1.29288366725176,1.2578957868668,1.23176469235497,1.23544656159218,1.23765450284773,1.23667702682288,1.23870426352671,1.25010533231975,1.27230836660204,1.28021602254223,1.28548217554337,1.30914326183154,1.33515939418639,1.36322573540623,1.39437483570765,1.63021276854333,1.61221826024922,1.56101053619251,1.36465037459154,1.30392302996353,1.26222234752718,1.27646053821781,1.39546537190833,1.46031850521881,1.64691118799232,1.64703951460813,1.64498350564798,1.40593142531808,1.3319992627366,1.33108906739091,1.35386141763769,1.36584927797182,1.59750082237937,1.60127789572784,1.60192268514496,1.55516868211287,1.47760893433769,1.37318457175028,1.34847392154739,1.35247912570508,1.38756468879842,1.59577311360946,1.63147981117685,1.63478616260518,1.60842245631933,1.50405909257992,1.33685947501259,1.33638289233675,1.33552497544409,1.37558834460069,1.42928245147797,1.53372880577211,1.61656645151589,1.62079670765723,1.52522062433724,1.4881512385761,1.35498283170925,1.34853886000502,1.33345666547715,1.318060682462,1.30354034969459,1.67110323458176,1.66739810607899,1.47195953747804,1.45303801884253,1.44091841096651,1.46739515628173,1.58398493871071,1.71245725755705,1.71458600225111,1.71884092955693,1.63949520648609,1.39878595304317,1.36284667652756,1.35892129630914,1.35068447140981,1.38872106035533,1.43059479183711,1.64508809151609,1.64372224955188,1.64416921567097
1.86466330210585,1.83413082863418,1.87952873681445,1.94664201399714,1.99929297237717,1.96610574394496,1.94715591445813,1.94931977435018,1.9457752994979,1.90613367291704,1.80604784493327,1.80654741568351,1.83454108293391,1.94040008721356,2.13196984362665,2.09245334930211,2.08681945214642,1.99216460161705,1.94398949713473,1.95466705347158,1.93252325797403,1.91127108663725,2.10534000000054,2.03030633919778,2.11151981060021,1.7861502882179,1.92718075708338,1.89657752279637,1.89264827886275,1.90255013731902,1.90465061060692,1.95365986960409,1.97546799078197,1.97923195673077,1.97761738198023,0.00428285001904534,1.96177000000054,1.62062444698546,1.617427454245,1.59379346383824,1.57933053378814,1.64876009506169,1.92468238661369,1.91725164515034,1.94240347263182,0.00438261001901287,1.48381949558584,1.46400986102214,1.44658227467275,1.42751455215058,1.42895314699012,1.46344719060509,1.95529000000054,1.89143970724398,1.89686856072595,1.83358461574398,1.55757448597596,1.49476987241727,1.41524100141262,1.39687393005818,1.42186877539125,1.39863655287682,1.39050372066535,1.39032843873742,1.39170011317316,1.37854521633914,1.40576007293721,1.36625557854295,1.36990978397648,1.33176283050147,1.33241968397996,1.39238658007438,1.34392822215748,1.4029638250295,1.47824052036314,1.48580891235941,1.38964205215944,1.40940578578863,1.40185048194424,1.36402162153008,1.38396992568093,1.79350956318311,1.73488007176943,1.44720884350135,1.41260622727434,1.38864967591849,1.33711350495298,1.30537289080341,1.31297658371332,1.47366,1.61822115577794,1.62885078674552,1.34059822612228,1.30363370756088,1.30017192902048,1.28262983873803,1.22745572815155,1.2358632050143,1.23756845105976,1.23998157025382,1.23810087115324,1.32974685238708,1.26317882857498,1.28615695097813,1.28856339520076,1.28421700293774,1.23356569754771,1.23636455868981,1.32521853712826,1.65104965662539,1.59145991511257,1.57870015533914,1.34090077644481,1.30169166072201,1.2533518864246,1.27428987127021,1.38266008836623,1.39738987721047,1.69195769845423,1.74888949347984,1.71701023354497,1.44187970265941,1.33109920428312,1.33078752252032,1.30457713497365,1.33295735887292,1.60930620232808,1.60724824210992,1.60442848001078,1.53507531833113,1.4640446106464,1.36684903237106,1.32322430787677,1.34499154752615,1.40540581772006,1.59825614569738,1.63083823878449,1.64011368865873,1.61334359977294,1.46009699569551,1.3365416275905,1.34857334356261,1.33230701152233,1.35669571818065,1.42303689583163,1.48513989340031,1.68330952000615,1.68644792417548,1.5457574621195,1.49331127477408,1.37514630163501,1.34113322021597,1.27798172240865,1.281549925109,1.24622054029094,1.68477342953802,1.67288680290647,1.42270960733586,1.39797429434353,1.37881756205785,1.36080590753442,1.52637006599101,1.71113383796938,1.71128302585015,1.75562471235839,1.63315123971254,1.58834000000027,1.36862317005312,1.36299771161503,1.34076883912969,1.42720031142743,1.49012854262232,1.66924811341823,1.66559932372785,1.68268594209798
1.82787502521759,1.93574349869204,1.93250805788936,1.94455939914556,2.0044473673296,1.98460684903109,1.98999961544694,1.97919164152446,1.95042371334545,1.93843102043501,1.88334993626292,1.803865245104,1.85437991140967,1.94321740020991,2.1319698026815,2.08654915247473,2.08393271074387,1.98809898783774,1.94084450884556,1.9473905155968,1.88101704531644,1.88282437366655,1.99993029707574,2.01652913111116,2.0894001894006,1.97924030421385,1.91005532683463,1.9119532090876,1.91695799316938,1.91568078387056,1.91374432759658,1.95056629180354,2.01608654512794,2.01679022019426,2.0143768246985,1.98696051761825,1.72792539233953,1.64025980704448,1.62458049437901,1.59327477905195,1.59236957302536,1.6787100185501,1.91359084446214,1.91445364936816,1.91507145345231,1.90595002475685,1.56511003703738,1.50152960855706,1.48107245843029,1.45467970101079,1.42339798800864,1.46097138055398,1.88123731669691,1.88930512958148,1.89587895661925,1.83722582535271,1.54440538086832,1.54187995582605,1.43434851980573,1.43178074102466,1.42153421579271,1.4225453046777,1.40882139024039,1.47133485565525,1.71392957709803,1.55458228621942,1.40999256280196,1.37674102241725,1.37464009113353,1.33028201530619,1.33347592054558,1.33402125143891,1.33549658502577,1.38765820333899,1.34619991049752,1.31725064976187,1.34812990123157,1.34806784764004,1.40222514290064,1.50192014162626,1.78329306048109,1.76038726732723,1.7538300372405,1.44723214799257,1.3823700803027,1.31185914990444,1.31181909078501,1.29884847623416,1.3071341499,1.63395210097475,1.68633000000014,1.68917000000014,1.35824985768051,1.30965564922441,1.30965017064765,1.26021473504929,1.23128491647676,1.26343707043541,1.26409163808991,1.30664939812518,1.32668287010974,1.32765918628174,1.31925952933407,1.29048258927513,1.29287457270949,1.39859000000027,1.48372000000054,1.25362015488508,1.26582433491621,1.23504945439672,1.21925069351399,1.57040985337786,1.33805952677467,1.2984419935572,1.29483850182631,1.29083765066055,1.40314916278311,1.72434136416774,1.7162394267092,1.72349191507701,1.39181637727696,1.38170071599567,1.36904897596962,1.33010291166588,1.30349402011342,1.34408228254102,1.55098410922879,1.6879900333792,1.62190854537214,1.52717492934873,1.39985011038157,1.34901866271066,1.32541775550919,1.33976846190188,1.36160017472276,1.53803,1.65099909479828,1.66593231070985,1.61794901864848,1.47532320425136,1.41869002484206,1.32281989842106,1.30602999957679,1.32934478392906,1.33372807152403,1.45322983377862,1.67490500700049,1.67868694446719,1.56692914620733,1.4720112803211,1.3468030691007,1.32743671474013,1.24872454341256,1.28480132934098,1.28777290868958,1.72276953317275,1.68030157807428,1.38175387548133,1.36920864799664,1.36246775796138,1.3611508063614,1.5514599335954,1.68589232517408,1.70868105610144,1.75684499151178,1.66033978166112,1.40603995835569,1.39061026795206,1.36873349134052,1.37040603400459,1.45440950627881,1.49921948868439,1.70299903022324,1.66343174025458,1.64644977915143
1.83059618947933,1.87572077619506,1.92476166095499,1.94467127058906,2.05925787524757,2.02493965583832,1.97929120227332,1.94433143420394,1.95219175910874,2.00450987626311,1.81384249094292,1.80690113531818,1.82157144335675,1.9452057980846,2.24274003611105,2.26123996388976,2.01998023850188,1.98739445139521,1.93904592828056,1.94172461224556,1.92324019171696,1.92098941440786,1.82109135158116,1.9539971801471,1.97075063458125,2.01490663814516,1.94881998711875,1.9294601608535,1.9260416266216,1.93886733210086,1.9613849628352,1.94872953266207,2.01642973209238,2.01533162642191,2.01174187286057,2.01459788101182,1.74132115036001,1.71847015332698,1.67327943908883,1.63114495696062,1.62912505556807,1.70712988638821,1.95662973729534,1.91703003054411,1.92380633266781,1.90458922695273,1.6100995071386,1.55462812727568,1.48895204268325,1.47643002038736,1.43969596105657,1.45121356666409,1.51630000013894,1.78448468152006,1.76986788027587,1.8856396058159,1.59916986436156,1.45453936412171,1.43158593808929,1.41307701338466,1.40166790044046,1.46474948896888,1.89517404067094,1.71297199203682,1.67098054718611,1.54352814744666,1.41532663958372,1.3740779312033,1.37558157286309,1.37734664101988,1.33811027399747,1.33712134475692,1.3496555658025,1.42742323293474,1.56894000000054,1.42703001568793,1.34983437488765,1.34987792936873,1.40051868791782,1.54154957360872,1.66375058355076,1.69844768137014,1.65086019852993,1.44727603601519,1.36579598965125,1.31404616691818,1.27965575933443,1.29923348540631,1.30464691306181,1.62139789902552,1.74415926243128,1.74127176996135,1.3988094039316,1.31515068984417,1.28511018023169,1.27343823587429,1.25807562334452,1.26772166335661,1.26503116892883,1.26285590293946,1.58225000000027,1.28579744092349,1.28377602753896,1.28823364721304,1.27811077667424,1.29245012669055,1.27503668765363,1.29188481290392,1.28655158820482,1.28391574886338,1.2909794099593,1.43232,1.20767018225367,1.23554960375461,1.23466241055561,1.21340999363633,1.39042346683442,1.65643096749828,1.68356190205986,1.6817525803296,1.70313643531585,1.39774818513486,1.32799451129268,1.32991221491044,1.32882081094482,1.41990000000027,1.56235954378087,1.72884142309245,1.72478624297288,1.76099982196021,1.46270988961537,1.34864078270019,1.32361133682889,1.3325541792963,1.41255969915531,1.45494194592879,1.66167984467352,1.68284813932091,1.62214652714128,1.49051987086919,1.46990997490522,1.34889064301367,1.31943706562747,1.32569351677918,1.30532045759429,1.42908039519296,1.651252776075,1.65314695061245,1.59564934977731,1.59527241104784,1.33217130983942,1.34649694910276,1.26508600761581,1.32332657244864,1.46836498540133,1.46720367831317,1.47063353684311,1.36186714854764,1.359662139938,1.34636584439607,1.38772576395165,1.46009981949434,1.68312733874808,1.69957298430574,1.72654500802583,1.72520528804652,1.49262970600622,1.36560462167469,1.36653611345252,1.36675113462292,1.40436041796664,1.49755764261375,1.66204735934054,1.66279435554449,1.66329877405002
1.84565976577478,1.91166777074055,1.91005233397717,1.93780320120908,2.0558913248873,2.00712760883,1.99949046626698,1.99838900283093,1.95747724861465,1.95964395763098,1.8640208425736,1.84556033303633,1.88013959723187,1.9424170451032,2.13536000000014,2.13640000000014,2.03502947021652,1.95260402816918,1.9446294352552,1.94365314885792,1.82435940999044,1.82467436273745,1.90470260498403,1.92961067816134,2.01719993756015,1.99365280985321,1.96910015264859,1.93960739292177,1.92463712503495,1.9219622728779,1.88979763673245,1.94838946364129,2.00880456231668,2.01073483835886,2.01156579981262,2.01064944475795,1.74383506425854,1.76911534250214,1.71956430726316,1.68844070174732,1.71961977872242,1.86289009635948,1.7006006248638,1.87836367815942,1.84355652274221,1.86602820310554,1.58163977186612,1.56790153299928,1.50404666354471,1.47751823022401,1.4486318185288,1.49963999921011,1.93056164887057,1.79610619698479,1.44782448370297,1.4315958882357,1.47051962781822,1.42772624523934,1.4282748437295,1.40983892231759,1.38625463170295,1.42728052288301,1.90305595932987,1.76553104978483,1.90218000000054,1.55943399182312,1.54668569222794,1.37319346510523,1.37575878967153,1.34950577836616,1.37268968994318,1.83113532481402,1.81715377765282,1.52910033294067,1.47814165760127,1.47938854076888,1.39480641050623,1.39429639932683,1.39760001752253,1.4969406457221,1.70950094019038,1.69418107744947,1.67307475736212,1.44699746678545,1.36792012457362,1.36879587463129,1.29702597274696,1.29654063548491,1.29464014314466,1.29355087226409,1.7478121857929,1.74950655706869,1.36930122292749,1.32002336171108,1.32269776432601,1.25518551271031,1.25864544326238,1.29636965974721,1.36651083211151,1.68292177212098,1.6601602626513,1.40623018745517,1.39942008460775,1.31850018717714,1.32811660739654,1.33838990738298,1.55527000000027,1.60087170912086,1.60419147159342,1.67415105162314,1.6723011950418,1.62271974768517,1.27763961973841,1.23632442488559,1.17925226095023,1.18140942314241,1.21137954721469,1.69060654035454,1.68473083383418,1.69765439733757,1.70624156452642,1.39269489112713,1.43063967226209,1.33356849919041,1.33700020711949,1.33925268006616,1.56980640470494,1.72016125834666,1.72162780389753,1.71883093056477,1.33411967528098,1.3017069479494,1.292113241998,1.29599449185142,1.30886999001146,1.46775044687099,1.44818738489505,1.56397010720127,1.62481357618586,1.70437000000054,1.36657994453153,1.33624160972519,1.36378439982636,1.34450946222569,1.35387619548635,1.45088844341759,1.64909102032526,1.70562964952659,1.59589593798112,1.53550053877513,1.34317968930537,1.35426768921038,1.32897501365491,1.33919942574771,1.38696989344412,1.76106000000054,1.46208779944239,1.3662927105944,1.36030399126837,1.33017088834453,1.37207405482957,1.43092654928286,1.5638098063435,1.63019786170271,1.64666040858528,1.65506947571708,1.440537635509,1.44081980052896,1.3790812596958,1.37789327101563,1.4351196357959,1.50385434422125,1.68933779470294,1.68427369556446,1.67639850476228
1.90258950273964,1.84716099406038,1.92783975038245,1.9310237106598,2.03394995369928,2.00640308629632,1.96509495444742,1.96475200914273,1.96230344972251,1.8773363356379,1.87691334715511,1.81869052961317,1.87754415492027,1.93641209944103,1.95397016161452,2.03160982194583,2.00844054232603,2.02809362594106,1.94302180356606,1.94255025234978,1.88887976678568,1.82536634690829,1.81360167063222,1.91905959724072,2.05608913635242,2.01858320443804,1.99289537594151,1.92143846339216,1.92267554371189,1.9343068885992,1.89221659186277,1.96295193314218,2.00545759748364,2.00663096390042,2.0056971231426,2.00373241910879,1.85471980265255,1.73919889586047,1.74218250980941,1.74397963981884,1.90614976100405,1.8838447512746,1.88214114351515,1.88174389730716,1.88563950723688,1.88084371973258,1.55462021443342,1.52807017562299,1.51503390187484,1.48444776880033,1.48228293083145,1.56015556091099,1.92191835113024,1.80261087399424,1.92294091839621,1.91020320642786,1.60318,1.37463024914625,1.42524883925085,1.42218325911681,1.46631493682699,1.46268564200935,1.73818462669554,1.75623575315233,1.37801166666724,1.37809833333384,1.57221988228368,1.30869027703614,1.37816918664022,1.37896723331574,1.35988147559199,1.79387069528775,1.82827020224595,1.56311248156664,1.51647978606431,1.39508016295046,1.37793578683977,1.33705747260269,1.36874951003144,1.53872963904319,1.73219104326327,1.71624799319232,1.68276496212769,1.44678410628378,1.37135838136017,1.33604074855372,1.25832013559171,1.28173486428948,1.28149362441087,1.25807761502906,1.28658954108625,1.72817022474712,1.3634790036287,1.31108845760542,1.30580931786695,1.26128923600825,1.33154499578648,1.51393426447671,1.51637919854306,1.69591782353738,1.64127014169142,1.44071959071939,1.303454504939,1.31158420430287,1.30593814595919,1.38767740046101,1.47963010942032,1.59133223080016,1.61429187438843,1.78446000000054,1.67931133656351,1.5875602523151,1.25054986913107,1.23511754318349,1.22948059624568,1.17566792745143,1.18438555609456,1.18942365069138,1.19793571609277,1.16375495861103,1.65251000000027,1.46290000000027,1.30491621050599,1.31086768105441,1.31708306354861,1.39541973776159,1.44008,1.54980000023836,1.60358856357878,1.67136000000027,1.31374012861794,1.26664055097564,1.28249596511038,1.28723860553975,1.38972000000266,1.44389014134593,1.70514025432294,1.73550959246934,1.63180799358696,1.58612486448594,1.61738525758372,1.38309094775763,1.33202494878981,1.34010321202049,1.32884934496694,1.46010169141663,1.628659517417,1.59460721509637,1.59587794660136,1.5392671775865,1.33280425849109,1.34099787843917,1.37075000736718,1.35092067316724,1.34523028968398,1.3691998916642,1.65596402994998,1.34402126394964,1.36021705253452,1.35812171285569,1.36703547172605,1.42258746785267,1.54046047618043,1.61807831218933,1.63646928316798,1.66202607041961,1.6293778997196,1.42914222831789,1.37822675140512,1.37606651779586,1.38504566689732,1.52273993472699,1.70782058651211,1.70657131929896,1.70913339947519
1.84815059235359,1.88660946344983,1.9259726806845,1.92748265753422,1.98929399161271,1.99686607258965,1.88112161438882,1.87847919192212,1.96410475285134,1.97290841144857,1.93813047945102,1.87248337899524,1.88314167144004,1.93170555207688,2.01900894883353,2.01464079368,1.98491271084225,2.04252549427384,1.93959589265141,1.9123960872528,1.83519976823782,1.80035549283796,1.88499252643166,1.91510879869718,2.02115114983173,2.0207054213941,1.98083469985027,1.90499853974689,1.90516619347563,1.87148540850722,1.88488220682067,1.92162158680296,2.05746987957034,2.00361566882237,1.97006440607064,1.83956082363553,1.7980971362922,1.79388147077416,1.79751014307264,1.82866207609266,1.85421457716576,1.85201658467682,1.9492431210725,1.94177940530346,1.97705961357447,1.66498046089362,1.63370957188051,1.60170459760644,1.55162059409103,1.54414005395564,1.52126039413094,1.54243422219531,1.56876995990182,1.65229029759215,1.60039041023942,1.90386587517702,1.75143000000027,1.55001205432592,1.50147222702528,1.47812031404495,1.46219844009492,1.48847940425892,1.88005000000054,1.77181154525971,1.88608000000054,1.71688000000027,1.48667,1.39573237406956,1.38557955589234,1.37423578854401,1.39691309504871,1.88155002749197,1.89648997250885,1.61987407834028,1.6059199937634,1.42921983020557,1.39674465982153,1.35497759543999,1.35985782157315,1.36740631879527,1.689050745916,1.79378999998884,1.65219036965087,1.4469759259206,1.36235015384532,1.37836824736601,1.22105721414411,1.21541327963043,1.28022590491139,1.27858706023255,1.29582237506648,1.32752940923136,1.26302044004535,1.30865290855153,1.3061123217476,1.28951205899818,1.3286450035014,1.43613012950607,1.51840626865108,1.58696919090722,1.57913080909251,1.38851043012313,1.33166303522327,1.32865349222621,1.33962884759872,1.37774281072775,1.52885022648097,1.58990617548611,1.626588809387,1.66790031071051,1.69193155035638,1.42493999999973,1.34706000000027,1.21833420528393,1.19671358924261,1.1676990693915,1.19965474295464,1.20962075021437,1.20274944466763,1.18281641780475,1.17339905493,1.35406000000027,1.27594999999517,1.24001545875891,1.17180966035793,1.25070946028603,1.24609741611637,1.2445144793775,1.24506328280844,1.24653056038973,1.28173941033058,1.25491543591976,1.27171986545517,1.28002708729487,1.31720957364858,1.3922600809587,1.43611999999973,1.71325015313107,1.65104260656451,1.67993975517615,1.44026999999973,1.3796789413578,1.3657962698578,1.37275125120903,1.50991975880872,1.47948995557372,1.57985053041079,1.61326200140837,1.6049325943094,1.55057237413589,1.26827486991939,1.2768950183257,1.33450316454094,1.35078541564158,1.3478899200961,1.65815329181039,1.63690159741114,1.35925870027875,1.36068558330752,1.31532441171817,1.31470043283277,1.44436612706307,1.59070983675887,1.59948297946794,1.64029820060394,1.65065577112776,1.61784186918409,1.40100054761459,1.36731848423252,1.36306238697484,1.3780477684655,1.47986004713157,1.72437773885266,1.71933221247908,1.72322390571658
1.84879061761978,1.88862761675335,1.89193196462656,1.92100027695152,1.88409045808402,1.9022198265723,1.98116650578357,1.96826380711005,1.96620039751497,1.97011123124571,1.96242096079241,1.85591093168644,1.92511625416424,1.9289992718009,1.87112681634561,1.87676375559555,1.98666026554457,1.95498021348179,1.91301597250725,1.85908405193137,1.81990115756813,1.82303198039638,1.80956369130076,1.90855876257724,1.90430939090586,1.99994015117144,2.06933999971961,1.94399954251849,1.90641991902698,1.91044328145528,1.84358424847924,1.91910845419381,1.83067104435185,1.88826920364729,1.86851809281024,1.84060429134285,1.84294489007294,1.81137571091415,1.79872306346165,1.79346701166839,1.82162073247613,1.8654293121047,1.93989747029486,1.93822485390117,1.93869273553384,1.70305953910638,1.60925007571458,1.59869493956196,1.56230384836773,1.53711016987989,1.60613,1.92323964626691,1.98583666666707,1.91879017334911,1.92577701616926,1.66164999999973,1.61361042096483,1.56159787147786,1.50536456764854,1.50412320369273,1.45648757856808,1.46062538008871,1.45923212202373,1.5522208140335,1.74263000000027,1.41219462214154,1.41339558943794,1.40411162887569,1.39511679173681,1.35342084604301,1.41088762465857,1.3786203049344,1.84758998667749,1.63324860599436,1.50560000022659,1.4757898539824,1.36228960608138,1.3375168732356,1.33603286798237,1.32076592006011,1.73812917376708,1.72773486395503,1.72673560968744,1.44745231785142,1.32565530678224,1.32603531161621,1.27290185298267,1.26976615934833,1.28448655213998,1.2908092275772,1.29071271358248,1.28292562270212,1.2834490362061,1.31045358412011,1.3122475584033,1.27822841896942,1.38418997225075,1.48598993362284,1.51987584544099,1.66424019249426,1.70693008765042,1.41636175228347,1.33535073242552,1.32774656724655,1.31843429160615,1.42412978862914,1.55938966409871,1.63646530176664,1.63946056178136,1.68481390254275,1.66622055393914,1.63715005872865,1.19267019535849,1.21602812135027,1.21151012036583,1.20800753553922,1.17599409280937,1.19098638316129,1.20466118583116,1.24611894134143,1.15395021475059,1.27554999999829,1.14304020407442,1.20251021438855,1.14454049240683,1.21312039686878,1.22214136919952,1.22964595442374,1.24008108411163,1.24926833994014,1.25315144944683,1.2549421097833,1.27218989740794,1.2737497838481,1.27357920828161,1.62929000000027,1.69333810237913,1.43571668225646,1.63975123732157,1.72046973624257,1.5640966666668,1.41516960608191,1.36548169981861,1.37887092706305,1.46404022564325,1.50343747796967,1.66862603261395,1.65831677645504,1.60871364499347,1.62373232298305,1.25303678558898,1.30101262439989,1.29562761649422,1.3550044483709,1.49976,1.63142921014078,1.63543083377363,1.37829827109635,1.36884960755323,1.35981553591961,1.31199647084481,1.41982009989106,1.49599985595469,1.58823987004852,1.63763066103685,1.67319135735767,1.58551058682173,1.43646952225969,1.35493344520295,1.32994762357792,1.33169967821047,1.41215993536688,1.67504024541676,1.69613261406587,1.84759000000054
1.87671031211913,1.92034804448204,1.91565972921638,1.95006636434032,2.0425693707487,2.04393275218478,2.08014952610524,1.97077398719973,1.96464083096566,1.93857899871521,1.88886470039764,1.97298972327747,1.94517134448458,1.97591748427698,2.03141016624495,2.06929958102446,1.98410222301672,1.86898564203623,1.8882871128433,1.84855862384699,1.79621007806987,1.73334032797078,1.85151983704959,1.90873425553168,1.92765142782565,1.94534008331289,1.92334048225212,1.89704232086304,1.89121955278838,1.86163007723936,1.8350367865041,1.87837970067594,1.8508810014837,1.9027955730892,1.96472956028265,1.93204038557129,1.99063990218905,1.86853408451904,1.85887997695531,1.92720000000054,1.80869949396037,1.90043015721583,2.09756000000054,1.97325480719805,1.961497730363,1.61705999999973,1.5554715603147,1.55585198595687,1.57295324256573,1.59172995658226,1.78664,1.88969797946175,1.98338333333374,1.91054741791007,1.91671473146506,1.85140333333347,1.64378827131332,1.61708985675167,1.51191684103637,1.5015772176112,1.51443129223356,1.45530937661587,1.44602755551892,1.50542106406199,1.53479948377103,1.45263156187926,1.47541994367872,1.42543975446234,1.40387764731516,1.40525778441343,1.40533883687567,1.42981677699397,1.81320001332305,1.64194985453411,1.69544000000041,1.38513030850183,1.33291704415391,1.32272592754138,1.33356776309019,1.33853380604167,1.32226211877411,1.32218101554449,1.35543990826524,1.44790694465061,1.44819853677112,1.36427998198928,1.28289155495741,1.27095092478095,1.30191961868328,1.33526699468984,1.33885418947596,1.29090995016614,1.32256931008795,1.32272701250732,1.32441104143376,1.31746402744882,1.35989002680528,1.5037097818917,1.52088257639955,1.74518962746471,1.7195598638542,1.41349795481363,1.32695038839075,1.32513195517415,1.32177241052454,1.33949991692462,1.46783029745557,1.64115103490261,1.64929248931679,1.74223944987718,1.68998392746619,1.68369827441915,1.31893994810015,1.26615835109657,1.23882946334089,1.2358818252685,1.18768510045016,1.23695476731861,1.21561715842921,1.19888938465399,1.20120335211086,1.20224700319241,1.23485598344432,1.22141004197322,1.2106022888098,1.19841868205351,1.25488916932975,1.20024811988989,1.22618318456371,1.22912850927611,1.29972000335528,1.28959459281567,1.25954708985231,1.26330522997528,1.25974530332149,1.46599040322917,1.69457166346944,1.42198331813602,1.63714661459364,1.62823341209002,1.56736333333347,1.39617998043461,1.35666053451536,1.38460563425876,1.40851342685599,1.50653984230708,1.65074214361724,1.67477483373743,1.60108388245589,1.59201130155322,1.24963409236799,1.32266958387401,1.36365114224394,1.35880705914129,1.56042031597021,1.69333855774582,1.61772105809931,1.38720339692752,1.37948475728431,1.38306518426309,1.34670971084007,1.44496994029562,1.45534033276071,1.57486818433199,1.6604011456968,1.67031321882709,1.63760980651508,1.3383301772727,1.33012978606236,1.31895858061562,1.33294815944483,1.38148006397111,1.45844027395444,1.54329243841112,1.66838149985767
1.95855950759642,1.92293893719926,2.02108432219311,2.04176154639874,2.05027185602393,2.05357247209048,2.01783339838086,1.96434147503314,1.96353103958007,1.98673475959966,1.87665622883827,1.91482833325614,1.9955802347954,2.00338058345951,2.01423787018899,2.0210505068424,1.99270257096362,1.9658100232322,1.89518587594474,1.84092277553022,1.77577310506451,1.75243119035999,1.81307524351519,1.90564209163391,1.9315241573625,1.9852491695144,1.95657173149883,1.90781227131279,1.88368582149804,1.79629854177056,1.80254251457193,1.83426191736659,1.89345299162561,1.89845404073299,1.91416013534525,1.90151684976081,1.86506288388166,1.84692433447284,1.84177461841593,1.8154609196584,1.88040060009085,1.93328968854277,1.97215255719046,1.98796186057623,2.00510511678522,1.70440992437179,1.55791491845316,1.57071197798923,1.62848774306798,1.75638093515134,1.87583589099109,1.89298090510816,1.88814476726808,1.90756197865788,1.99433000000054,1.8543366666668,1.65066885940637,1.55501658614735,1.5218444746119,1.50951668089155,1.47712989147472,1.49136301343823,1.48972305654813,1.49128401301249,1.46430503685867,1.46239602757511,1.53405979383023,1.44631130855448,1.40223518855305,1.40337313477644,1.40559247215271,1.42290857556443,1.42124060765575,1.48347010545827,1.69416000000041,1.42858964027974,1.38609866274795,1.32873099840498,1.3314253079583,1.30609649038435,1.34620131117716,1.36162951159144,1.71301000000054,1.61407595418831,1.63184000000054,1.40333079105169,1.3262732574169,1.31355946824506,1.32192031410421,1.32629548658456,1.28714120793073,1.35927966444397,1.3790094197124,1.32834162662446,1.33244037741116,1.30003438901843,1.41902493260492,1.46370059993684,1.52176585251692,1.7131705917571,1.74507963678065,1.33343750889295,1.2911693184431,1.3014512965298,1.30088601810592,1.42617985294167,1.51012853787078,1.64859909407098,1.6603915690403,1.70002798287513,1.68755046724287,1.71839959282311,1.2971797199843,1.28153239471608,1.26765011641535,1.21559665736934,1.1973034311767,1.18328676795529,1.22473043285866,1.25213560024868,1.25865251055086,1.34287960858862,1.27271002478213,1.23339968207149,1.22487629414419,1.23807355762705,1.20211702954002,1.20385914689138,1.22651686104955,1.22925552894917,1.29052035501832,1.28984577497551,1.26879550669104,1.2778830181556,1.35851886577592,1.49898946369927,1.64771726311832,1.75667000000054,1.64100447477967,1.42459046242616,1.47752067957517,1.41813625604721,1.39590353542247,1.39569963483425,1.42711094383214,1.49787534311771,1.7065197665655,1.64116551497328,1.40663680069311,1.2462105170356,1.29389981948816,1.27504845207884,1.30379764520479,1.33416456204747,1.58538989905987,1.67084167124535,1.69991974982551,1.42239972197958,1.37650351734294,1.37164840262895,1.31666046504436,1.36465303445233,1.50080797203611,1.56514242895787,1.62593036158545,1.67406345084716,1.52725999962231,1.36561562407178,1.32522669790683,1.32277532385658,1.32234847109866,1.29936773445799,1.48814979742318,1.50971004712776,1.67232666321946
1.91580820720732,1.92395730655578,2.01649124511624,2.04144563004604,2.04872914002421,2.05299328867671,2.03730657720128,1.96215983933257,1.9572424437327,1.95334528724653,1.9105582470307,1.91244323493672,1.95303891656085,2.00817409658252,2.01525678780371,2.01658713978642,1.98865860661386,1.96176393793674,1.89589973310071,1.88992516912447,1.77949928279042,1.77371465502052,1.83796014035032,1.90145894738609,1.92904908234739,1.95936733238763,1.95779960369885,1.95007554046588,1.86991595914457,1.79947451843703,1.80244214292993,1.86378833947729,1.89606107406226,1.89999922690693,1.90705066546713,1.89794127889465,1.87062631156785,1.84356945427164,1.83679190005846,1.82987356725628,1.87096702084326,1.90495927837943,1.99973178618814,2.00095507601405,1.99849853742826,1.70559700109239,1.63856283680847,1.63569645814339,1.66284793240692,1.81479436260772,1.8734681236514,1.90822284746824,1.91969446705307,1.91464600723046,1.91534590461168,1.74709242847765,1.65705784418282,1.55484148021281,1.53479369003431,1.51873402327712,1.49492465506198,1.49300790667613,1.49123398436624,1.49248637982568,1.47101566983735,1.46591968878176,1.46920154244844,1.44390311071313,1.40182324672948,1.40069037609308,1.40104264764453,1.41308153041032,1.42204905414461,1.42176932501056,1.42061713974103,1.40669232794037,1.37843787345138,1.33139032573661,1.33102198821395,1.3297131874281,1.35355102900859,1.41307816317323,1.61401443867992,1.61372781549076,1.50159739197729,1.39474195414196,1.33226943485179,1.31943969014846,1.32061777134976,1.32414325451841,1.324350869469,1.32488860216074,1.32620677517204,1.3269241295763,1.32619001740145,1.32306300636388,1.41229443110657,1.48922076573614,1.52309359449588,1.62491634343551,1.61036196586159,1.34219059431512,1.30228522900381,1.30245548637929,1.30207259105399,1.38168938068331,1.49399068825506,1.65221668805313,1.67126768765787,1.68238493094508,1.68274887036942,1.67889062906063,1.34921289103378,1.31521070466446,1.28405937940401,1.2230759260788,1.20491745065451,1.21076928886672,1.23300760567317,1.25591966237264,1.25927104794289,1.30876876931224,1.29367866263175,1.23615693060123,1.2328712910491,1.22113429064334,1.21148804537306,1.21876497012952,1.24286912340833,1.24622155266394,1.28088046498325,1.28652248481324,1.28331721699977,1.28598819917059,1.35503008949584,1.48346729221795,1.64908655576895,1.69157057863359,1.6429713875479,1.44218693159777,1.45615644129606,1.42663383685865,1.39600807164488,1.39594156052435,1.42705891011912,1.51329323297534,1.62980110582463,1.63261143026676,1.37576322844413,1.3003720953126,1.29010975217824,1.28169147618872,1.30599202907041,1.32471260451307,1.61434415063552,1.62971767191036,1.49084169973241,1.45714427595089,1.37453408716201,1.37507895186435,1.3656950840819,1.37676204483584,1.49915171472346,1.55376938289187,1.57967627484492,1.59737743261829,1.57631737682386,1.34568335433789,1.32157653218821,1.31824613237033,1.313246511998,1.30781108942202,1.35930290657835,1.40066328235051,1.53197177228675
1.89498515521041,1.92680783400003,2.02307064631572,2.04470370378407,2.09117927982831,2.0601528543892,2.04180030318749,1.93351897822875,1.93687038145995,1.93234444177623,1.91348098114874,1.9132176514012,1.89833120274289,2.0104259209171,2.03957009295455,2.07675947808636,1.9656767361481,1.92345301405215,1.89533121182216,1.89343487844505,1.77898108562935,1.7683833070295,1.84279011717754,1.89728223072316,1.89365303745306,1.96190199513091,1.96359765844892,1.97867664852786,1.84206579601624,1.77589410402638,1.78690908383413,1.87369363928643,1.92485712507442,1.92833785611106,1.92492287279716,1.89317724722693,1.87938737007359,1.84534405620574,1.83352609026448,1.80712121507329,1.86493897185722,1.8502567208817,2.02080225753152,2.01983600638395,2.01874059908607,1.70657290618185,1.64721122475681,1.63208422472188,1.68242002042873,1.82119360207326,1.84249823705126,1.91253454089462,1.96689965400135,1.92052669637059,1.90108152804943,1.70229076900863,1.66530352838849,1.55641336693834,1.54667214383131,1.53489062520392,1.49345490336201,1.46368454348146,1.48964137001922,1.49395599465875,1.55348961092228,1.43308442454463,1.47221120588142,1.44130250205704,1.39405641536008,1.37192129229575,1.39473931696532,1.39025639485058,1.42065851164321,1.42053319850963,1.41835373395238,1.39630453119333,1.371936330072,1.3058638743885,1.32943940498654,1.32691731496505,1.36071392986453,1.73904007485362,1.76907992514692,1.61266211769409,1.47235807785273,1.38610294542634,1.34865965689035,1.31878511472102,1.33191161561992,1.33835914924899,1.36155197349096,1.32430414080511,1.30326164368234,1.307062369557,1.30996215415977,1.32087951528894,1.40539756806924,1.51252961886821,1.52548540094439,1.72962000000054,1.57711064391257,1.34999642449067,1.30464637710438,1.3042014588665,1.27532094936941,1.33719014158521,1.47843670656638,1.65405430805674,1.67427419954932,1.67981141403328,1.70823726031349,1.66722873996294,1.38873190016293,1.33771855517779,1.29915985869109,1.2293099032781,1.19878094576105,1.21909162215088,1.24190475178213,1.55407000000054,1.26062730457098,1.33975906805023,1.31284988286566,1.24323411795488,1.24565132546561,1.20973779927694,1.20223631356762,1.2288157567558,1.25010883575704,1.26036614291822,1.26386904988403,1.30451305493287,1.27933680718853,1.29648390504481,1.35167098906535,1.47061743374153,1.64766131502364,1.76166026771698,1.64360862759402,1.43214324809446,1.59500000000054,1.43390651638783,1.36787021565964,1.38519635779193,1.42832471204812,1.5254452649591,1.61724519453157,1.6684195853378,1.34350875675626,1.32124963472709,1.28604764693174,1.26950600095482,1.30850171561204,1.31591972233071,1.64367029192125,1.67602970807956,1.32555982051506,1.57904000000027,1.37497354449703,1.37604862428177,1.36082439312986,1.40075971850462,1.49764748350287,1.53738347807837,1.54008645943434,1.62389997866688,1.65739932222526,1.33697393534045,1.31926601801177,1.30914870907396,1.26421021689823,1.29832402175097,1.30332549720017,1.36704670824044,1.53482795932597
2.02446972500871,1.92684663095797,2.04254029519868,2.04310715764954,2.04428433781049,2.05502505502357,2.0345113678027,1.94453860714382,1.92603539055728,1.90004696894155,1.86283479899486,1.87565659089742,1.95982090917794,2.01083795774299,2.01829191207939,2.02014460040457,1.95964573329789,1.93252064765556,1.89566438573092,1.84704819548429,1.84840018746287,1.78604029522606,1.85378873255148,1.91006289415749,1.96443955412005,1.9513648505128,1.89390000000689,1.81775125780054,1.81378450573441,1.76258946664465,1.8268201326143,1.83415033494651,1.9457802678089,1.96617629576842,2.05724000000054,1.88913818301713,1.85778653422418,1.831294452157,1.83362068538256,1.85502637310182,1.89805086905409,1.90087179777937,2.02948754338681,2.01796649719031,2.01706755518889,1.7057143116834,1.691540090815,1.66489060161982,1.70680848130062,1.8018223634473,1.83451214211252,1.8856503030428,1.93599608750007,1.9258440251006,1.92995836166294,1.85549029696563,1.69461661590532,1.57955953014895,1.55685292457662,1.5466496498539,1.50272306061518,1.47305351887467,1.47097708184375,1.47530907241168,1.44594956311814,1.45283523427503,1.44410266331552,1.4331372494901,1.38974440641824,1.3888038395955,1.39855042767486,1.3591520519311,1.36604900044587,1.39186139398897,1.36578070894066,1.42284965346845,1.3663096710882,1.30353895699317,1.32891567331282,1.32634396330447,1.35308383157724,1.38250999909871,1.8197086463671,1.61088123566703,1.46156223328584,1.42695013247418,1.3775997761298,1.3496140661181,1.35064871185231,1.35059429897307,1.36715102021371,1.30903797694756,1.26087082286522,1.30610791293858,1.32600476868478,1.31245825292583,1.36571675726892,1.45516012043767,1.52911981428649,1.55705008615456,1.64052943620869,1.32064508600036,1.32899472259905,1.31323218851011,1.30548503775187,1.41282952227427,1.50974978275691,1.69705660029576,1.69555848758265,1.69716143156035,1.69605312778637,1.70088202461683,1.38569831444543,1.35653167563963,1.34849965763946,1.26024985958827,1.23234921828733,1.24620456734664,1.25000535190379,1.26398097267329,1.26430820071166,1.29902422519246,1.26072490057124,1.240063493579,1.22289868976815,1.21284225362419,1.20490799757099,1.22753946249401,1.26140661520933,1.28044958883099,1.36307972628505,1.33154451595914,1.29525049241816,1.30768576020758,1.31672302380107,1.42362015897053,1.76009005250188,1.78557185228282,1.77092205859763,1.75525250300327,1.43255027594461,1.35920244131385,1.35147459519208,1.37548231883203,1.40401008036768,1.5336340804842,1.65469954761717,1.2523436789165,1.2899357493493,1.30575030145218,1.26992052641693,1.25302478613074,1.26763680160052,1.27916716244601,1.30182336907449,1.30797004301479,1.30852264132554,1.64669005903511,1.36482054865524,1.36212335077993,1.34526882913198,1.34554300197348,1.50553925357299,1.53490380832566,1.55002023691982,1.62520990961961,1.6050346710433,1.33613092799118,1.31710771702867,1.28367428454325,1.24995691756424,1.27388473618184,1.27108569253574,1.32737801086779,1.33411236842409
1.98050322637135,1.96714692258113,2.0403494827425,2.04062072307565,2.04108341384743,2.05650171427168,2.03893135584347,1.93221762721902,1.90255558690147,1.86838048119178,1.9507296055705,1.95110748445772,1.98283130603808,2.005713991681,2.01920045908339,2.09671993991542,2.0479700600854,1.94131219109205,1.89765015850263,1.88334229018648,1.84120270955245,1.81547912032969,1.83155112576508,1.91441466749183,1.93922270919938,1.96604660294575,1.79984125327951,1.7987346495577,1.78904431154092,1.7635411048879,1.91248804912888,1.91128158682197,1.94661559941452,1.96565947754532,1.97545359603608,1.89396747686236,1.86849400797445,1.8134188656731,1.82163851743928,1.81763402421667,1.85352048943613,1.91310779146138,1.99539727002032,1.99190569144104,1.99591746219471,1.71615514147229,1.71759305027225,1.69344039204372,1.73199552930685,1.82460440754096,1.82381322977528,1.86464047229118,1.88287018746562,1.919607277705,1.90073051929457,1.88687965097888,1.68983020204533,1.62811953802949,1.56662060830693,1.56403260731054,1.55416006880517,1.49820971015071,1.51264996089602,1.48986272993944,1.48125256361089,1.44067271342752,1.4451810719796,1.38458183683806,1.38782456924504,1.37434578423146,1.37390164041201,1.36071122735443,1.41393316098006,1.42084776492108,1.43108944563648,1.46834911516589,1.35096955627043,1.34938247797113,1.33423595009851,1.32283858589716,1.33718462333753,1.7924802278997,1.81100112573429,1.60862160918327,1.5269189847219,1.45060001768236,1.40042950409467,1.3648064903968,1.36710744576913,1.36846129179916,1.36535729349009,1.30880050008316,1.33208313940143,1.30481072637434,1.2848662497682,1.3375693106737,1.37591312360847,1.52616980926351,1.53329887694999,1.57625024694212,1.59502000873714,1.31212344083328,1.3122994929135,1.31761132520573,1.32524820469884,1.37594047772578,1.64422921620414,1.64392119153789,1.70411446250844,1.71267494278042,1.70255308266435,1.69238942072701,1.41002823648079,1.37607541793777,1.31272052372222,1.28302241970659,1.25745098118703,1.25697288803608,1.25909405493129,1.26136522686263,1.28637344144949,1.29284780176318,1.25999566007547,1.23772203183993,1.22454873214881,1.22500719286683,1.25773367711251,1.27822319840326,1.29958408257238,1.31798966862493,1.65767000000054,1.32256188138525,1.32194294104491,1.32466283461211,1.34437949388799,1.48793901312811,1.72036023570749,1.77276552529407,1.77911582785943,1.78994246053756,1.47009987399423,1.36243328359468,1.30875062838651,1.3183184950951,1.32485082769642,1.44464,1.63652012214715,1.24907689900125,1.28233407204288,1.269344320008,1.2537221143451,1.21475841408545,1.21240479240703,1.26078480183405,1.26493854282456,1.29630356657629,1.72325990421942,1.66112960883709,1.36150179893114,1.35559678001548,1.33489522909847,1.35744385480394,1.5200618706923,1.53355308768585,1.64484281405263,1.65501726089678,1.58786577852613,1.30651897688793,1.30749818041705,1.28204131192971,1.24725429828811,1.24947763785985,1.31759951080473,1.3219304178884,1.30988303266879
1.86596117779799,2.03705309886747,2.10436000000054,2.0866950704315,2.07692019890642,2.05441184058904,2.03632819864385,1.87635509584305,1.87059651613994,1.8361905410632,1.87492029280565,1.93866668911108,1.99007702698751,2.00210823558513,2.00722674470822,2.02453209092702,1.9686701867693,1.91893227848616,1.90055686736064,1.90331327044989,1.80857057555043,1.8097365626171,1.9128525191683,1.93746444212188,1.94009110518712,1.94175621750762,1.78578341182519,1.75925544339625,1.78636216278441,1.84436621780665,1.84847616392332,1.88387874580059,1.97125839992306,1.96687939571303,1.9768648765449,1.88499266405039,1.85206967583761,1.8252371123123,1.82159380448257,1.82055300463376,1.90437471627587,1.91072218903595,1.98872394837086,1.9864570281789,2.01153961134372,1.90755005283142,1.71289687918078,1.73256010604958,1.75499251747455,1.80318018623922,1.82431064513298,1.95271441303838,1.96250836321334,1.96482600984961,1.967268056923,1.85593030443416,1.69881290269106,1.55071034531641,1.58028912862535,1.60604605649769,1.55439768856758,1.54970737959912,1.53423956644465,1.50799794731973,1.46910064577589,1.47056002170745,1.45682556874033,1.46246443157944,1.41539910261748,1.40158909509212,1.40164562013271,1.41936607131975,1.40873097611589,1.42516454052338,1.43356753305293,1.41614564148038,1.40905022224919,1.32693498451677,1.33811603962529,1.35467476652377,1.37690971043861,1.40380975374774,1.74472451336706,1.60722808918359,1.51265105828876,1.48941976207101,1.36940805279915,1.38497022290255,1.38320009997821,1.38299524588301,1.37620207497329,1.34331974771576,1.30383490228524,1.30481050918351,1.30639819210424,1.30240112902411,1.35371015688888,1.47573032360595,1.5370402407814,1.76817981040507,1.71092018959547,1.37161990748303,1.33160567081311,1.3442353288326,1.37948551869951,1.44587,1.6206502784447,1.66665024151288,1.70483562362217,1.70697506005718,1.78616974409384,1.68274487020324,1.40982128365857,1.39373968647252,1.37074184949923,1.27111290349154,1.2571135686632,1.27631003156133,1.29472725835031,1.34445917662589,1.24471939774982,1.24696085622736,1.23902145453286,1.2369087889607,1.23054864856938,1.23214983697099,1.26737658713894,1.28969654403688,1.3594402618132,1.69566009855001,1.36724749940381,1.31596487045067,1.29957311371394,1.32850094476456,1.40925999988585,1.47606104542568,1.63494020132213,1.78711017004967,1.78458280775962,1.81110118795739,1.48431985006089,1.34624970484462,1.32366037172228,1.31071566291777,1.29908036161828,1.28723373848271,1.24282980801082,1.59998000000054,1.30466058617515,1.30840810221255,1.27212111845935,1.2040757102747,1.20561783873508,1.25528238364745,1.27864962325966,1.67381014651999,1.66380995529314,1.63568027820718,1.35758961106963,1.35649074320821,1.32415960780274,1.45350999941653,1.48530397908444,1.52984921991691,1.70033971203382,1.66867899448708,1.66977240774837,1.31941759275941,1.30968337498103,1.29215639231806,1.25295551597436,1.24895710953537,1.30666275683231,1.33065993466093,1.34701114555885
1.80271968769476,2.02943091651919,2.0259101829137,2.08299596546798,2.08250653546588,2.07055556151503,2.05211100233812,1.90420959384457,1.86840168516499,1.84962556219051,1.92688068250731,1.9282456153338,2.00684942834133,1.99336662979816,2.06607953237772,1.9983600385971,1.9622096231781,1.93675635459154,1.89596801847941,1.85163011664064,1.81882588281979,1.84156998616761,1.93840643367234,1.94513371916151,1.95399785048101,1.95258179267268,1.78965608303773,1.76057938649167,1.78310318353593,1.85789617369471,1.85191097726805,1.87230152115094,1.93348650760258,1.96563793044828,2.03176059433265,1.90469007660191,1.86216951667929,1.82478764653427,1.82848526917638,1.8322789097948,1.90389240973743,1.95239106075243,1.967270624615,1.97346186078648,1.98377504476155,1.94098010279138,1.68747032370741,1.76690877023181,1.76679507127197,1.78950450205554,1.85291952008498,1.94210730715239,1.95957253423911,1.96462287059897,1.9623860068315,1.56130804449513,1.55288661515689,1.63884967694253,1.61036276424612,1.59059408924659,1.81537318068457,1.86487020762159,1.88434017007841,1.88386605820013,1.87824552129587,1.51038982928568,1.49112442271231,1.44529049675576,1.43324449915598,1.4222620867783,1.4255846507165,1.45794981144905,1.85075971714383,1.81694563909014,1.80218646621871,1.48182031073936,1.44021992748589,1.37832014449516,1.36285495113834,1.34124183526285,1.39891599042777,1.38472557757682,1.75607548663348,1.60737478207255,1.63670964066288,1.40986502995818,1.42357414271664,1.3828346509061,1.38273754652487,1.38704386482423,1.42410501979005,1.39500048133825,1.33667509900311,1.31839285845061,1.2963866638047,1.32719943953809,1.33415011496194,1.54435600020595,1.5404389140974,1.67864013780363,1.77302982679817,1.42332637724182,1.35421660253266,1.35455443387086,1.35617783103997,1.51040491641615,1.52532497646121,1.70930544683781,1.70720850447245,1.70906343276879,1.72902004717034,1.65237050864906,1.44693003711356,1.41424916985126,1.368228468211,1.31308564216393,1.31076446991233,1.33513958991235,1.30448376729704,1.2913611069614,1.28764089160562,1.3103669987217,1.28239112186619,1.26398302658273,1.26076743440315,1.25334518070118,1.29718818093159,1.68311020041351,1.70794396043016,1.72637007246689,1.37518642223218,1.36533356397405,1.30910160636464,1.3302667605278,1.33406492087855,1.50032958793341,1.68576268493971,1.78470339355086,1.78539789455262,1.80853959862494,1.62788013660935,1.32687834894667,1.26939759073087,1.27150814676926,1.27440234728719,1.26450930832395,1.22706126970385,1.30034870476008,1.30308217865475,1.30574659564704,1.26440099692814,1.20132618843672,1.2088376907983,1.24595241132526,1.24245142006865,1.70882962408395,1.62119168102661,1.62040194563552,1.35492957377958,1.30581961175202,1.30390363116124,1.30836744420471,1.47847603329642,1.52396457055659,1.56434989317277,1.69959729953877,1.66037040408747,1.32001851231891,1.31302023361416,1.27429934366769,1.32212899147447,1.28714242066971,1.29865312800394,1.33683308696066,1.34305507895804
1.76360621343737,1.87873,2.07342944224532,2.07809226297511,2.08329810915939,2.07804339888262,2.03262998691467,1.86735663141888,1.86607689622549,1.8640235956459,1.75761999999946,1.99542978696167,0.00424927001905626,1.99173246870719,2.02381067211826,1.97511624796984,1.92570500340499,1.84437350407362,1.83408115184449,1.82611224839583,1.85247248848583,1.85878589140364,1.93883374610134,1.94899066272721,1.95629267241463,1.82387,1.7704809947804,1.76051347880812,1.77674095895515,1.84676488265255,1.86560005723437,1.91902428554135,1.96467410912873,1.96269230080912,2.01673908024028,1.94324972214061,1.8322300838673,2.03448000000054,1.82879148791902,1.83088033826904,1.92153422482013,1.9417460619405,1.95406627795372,1.95733979670293,1.95190424988209,2.01348980841692,1.72798028695909,1.83083990846909,1.76714905593043,1.77063634140525,1.83507994948344,1.86949035828163,2.02709833333374,2.00935785330518,2.02701000000054,1.56195534034689,1.70323682502206,1.65408969123591,1.63049107916133,1.59931073679288,1.7949267561269,1.91577951904799,1.91710358717352,1.89121973535575,1.86769087673267,1.67798,1.48737806359834,1.45475926901778,1.44905767933426,1.44295650931891,1.47783979866119,1.87119381646379,1.8554258420227,1.8232171457544,1.50442025496527,1.50658942811834,1.4230295262139,1.39568167366822,1.38757490130539,1.37626606593009,1.38772795731155,1.35079732147093,1.36195358344949,1.380793565912,1.37481971593853,1.37178645580391,1.37862074584349,1.38224890289321,1.37986217896375,1.39663342101619,1.41338575363973,1.42935967756437,1.32614384171989,1.32407886896817,1.2880676631052,1.30457843812336,1.36110334182996,1.45396022195292,1.52642482670135,1.74271329770421,1.74370686767086,1.42511332684923,1.33776133062816,1.36379890375235,1.3705410361126,1.49592513829416,1.53013496882875,1.66467999747346,1.72345747413763,1.77873165373936,1.77806432658455,1.69376993787062,1.46743970110694,1.43871048355005,1.39311952630701,1.36269028770278,1.49822963512219,1.68094000000054,1.658922327089,1.75694000000054,1.27814783129869,1.28080526494674,1.2686009670919,1.27190844312856,1.27237930958511,1.27274891611598,1.28584133843078,1.70121011697706,1.71593399772433,1.75820712593076,1.38237166308208,1.37661375274724,1.31715025903224,1.34570984538732,1.36181985500133,1.46368064834427,1.66875711373816,1.74592929758228,1.75214179686355,1.74412668936945,1.67121986339092,1.31874195680007,1.25319429673857,1.24942006839227,1.23260384611685,1.22995087060701,1.27791515044399,1.27357125329965,1.26333103537877,1.26113700004218,1.24814170976821,1.25230728493412,1.25118769499336,1.24791892335583,1.27966522306582,1.27541354017106,1.63448973656568,1.61202706057849,1.35455322708155,1.32800000389043,1.27931051462119,1.31977523881909,1.448053697032,1.52041526156806,1.54418010682696,1.6892316010385,1.66362596226762,1.30271900384051,1.31627324758271,1.31604715300559,1.27150116079692,1.3092111769864,1.44980004261632,1.48246336408592,1.58171000000027
1.78563965356522,1.79464996632159,1.83680158123049,1.9031093638746,2.06880313894076,2.07752606295169,1.99900495672107,1.98698976624687,1.86194338128662,1.81647109652204,1.85412980814457,1.96838027274855,2.02026982944934,1.98345260570101,2.0216294203374,1.99230511453696,1.92944513170644,1.8390124264076,1.83051719248952,1.82461357967243,1.84864990556419,1.88153969632899,1.95490778994817,1.95369692834557,1.95383789954161,1.75755830850463,1.75522219929197,1.76255084832577,1.77180211711317,1.95015999993197,1.862556086026,1.92216130031198,1.93411797391427,1.95912172593598,1.98889428814244,1.84434499567833,1.80893460160051,1.80806700035509,1.82911667774026,1.85446674741054,1.93887252249131,1.94268873974453,1.93824900131346,1.93998798324714,1.93697936450546,1.95682035314224,1.76595922658549,1.7241344851383,1.76366752817318,1.80056000441941,1.82097979719981,1.90147964171837,2.02397166666707,1.95309856328898,1.5761099993996,1.71776958609861,1.6826022070479,1.70558637590493,1.66565076773846,1.60598851628218,1.80383670195224,1.91534677659522,1.92119512456373,1.90035096874877,1.85614795518906,1.79736033353476,1.4865001333481,1.48513525558445,1.48935080522067,1.49379474491142,1.52205269218281,1.87537852738741,1.87499727093765,1.82459817262743,1.65041025887019,1.48191004194759,1.41278032973334,1.39483774489489,1.40991328920512,1.42676871712922,1.76619000000054,1.61649,1.41362995122833,1.39268272037824,1.35241382920111,1.35433766335096,1.36776365312483,1.39993967086744,1.37853750668787,1.38052366927946,1.41732872973745,1.41362910087449,1.34461983229375,1.33514970240117,1.30496053526407,1.29391526370575,1.35337346463295,1.51283284570442,1.5197364800406,1.69950019201975,1.78165999096869,1.39143968116368,1.36457628613658,1.37518867091804,1.3889108533049,1.30945224927836,1.29339775072083,1.63084060186597,1.73177279975861,1.76084823816511,1.77427415656741,1.72877009235451,1.62148000000027,1.46611032859662,1.46120668243319,1.41494023059295,1.47103036458053,1.61349981186605,1.64376611621251,1.68799000000027,1.37116968819415,1.29925488001659,1.30412618742906,1.28044419085083,1.25678979266016,1.27903576031003,1.61747000000027,1.67590039458885,1.73083797893616,1.74852474078574,1.39767975908362,1.38511544808365,1.35148037417883,1.37056146974913,1.39074466737321,1.49171971195122,1.55533999999973,1.75017500809954,1.76033432121944,1.25744822513938,1.25765191338433,1.2304407261393,1.26757752543076,1.24806689015168,1.23729311930162,1.20297300996059,1.20423278621241,1.22342010855368,1.2577898678142,1.25098588843922,1.27856953523455,1.25751347295857,1.22067995420351,1.23986086571423,1.22952809128958,1.25691997253698,1.29882283860464,1.31143935823598,1.33444917511109,1.33555118874646,1.30262183238183,1.30940719498415,1.43684656081967,1.51823378091904,1.63067000000027,1.70284001346117,1.65391981722571,1.31964552491185,1.32081516538924,1.32138574040269,1.29821087884331,1.31024835228252,1.53802653334007,1.54969893143235,1.61321333420217
1.72747826135164,1.74057920241071,1.83960004226919,1.88824086245537,1.94425,2.06088353272488,1.98857487335026,1.95201715368651,1.80597977519007,1.76257034550909,1.72780044966662,1.77158020845673,1.801876731302,1.86652056076719,2.04750937392272,1.99729001763864,1.87213,1.78774760137579,1.7954450270008,1.80768602453467,1.84992111274925,1.96746017637121,1.97045059061976,1.97332691693995,1.96795485021715,1.8280499373178,1.74862721610304,1.70017242295606,1.71293338966701,1.71377901703335,1.88361022459597,1.90782433952091,1.92207203888778,1.96326121868171,2.00009603728599,1.84292484148359,1.92508000000054,1.83739450039633,1.83230351372783,1.82362127941742,1.89878084594201,1.92489991730577,1.94738426327777,1.94302309659038,1.96347701476599,1.94908647668817,1.69498776063485,1.73517741395951,1.76049133235819,1.78086035665188,1.81000983896,1.59018785358036,1.58618309165237,1.95295300856629,1.99241996755908,1.81892,1.76001982235416,1.70970330222214,1.7068925940143,1.75376999976433,1.80120645431486,1.87732133037041,1.91109592590959,1.90536341636976,1.91121243209104,1.82351955174469,1.58231000003953,1.49869999238054,1.50654450360371,1.51319787227061,1.52364660090214,1.8835259612792,1.91213913827348,1.86341410674876,1.83609206125418,1.53566979327802,1.43688954055845,1.41099370668708,1.41759828156989,1.42160855484414,1.62027999999973,1.87748538300446,1.87055961699608,1.46052970427022,1.39915245887355,1.38731899118266,1.3884096095756,1.37721921194257,1.37793341391726,1.37849486342043,1.39993501654448,1.32386804676984,1.37037749317176,1.34241930224439,1.30068900928908,1.35838510020809,1.34342490836651,1.36782989844448,1.47897021841851,1.40289000008757,1.77813968703604,1.37830382809634,1.39323807555406,1.38289292427042,1.37472271154621,1.40213970422836,1.59687970635818,1.65932985508591,1.7375307726555,1.75802240166214,1.7859384600059,1.77414700305688,1.51044299865294,1.46997146278767,1.41680926504452,1.41242645284669,1.40902011866108,1.61086039901912,1.45252489975996,1.39211620908765,1.32278042008717,1.31340830641239,1.30014112200474,1.28763186588517,1.27488025303067,1.29889944433665,1.32897999965633,1.74861255209464,1.74743260894036,1.74998430516119,1.75107226132369,1.37182305824747,1.38434490535202,1.38592449313941,1.38677165406007,1.53384032044763,1.65289274091111,1.80906974581209,1.77336578732078,1.29555943546785,1.27487135294494,1.26904840730268,1.21330871798963,1.24357861597528,1.24036034294206,1.21463575791613,1.25059991711596,1.26949971777341,1.30206103058144,1.34078957968706,1.318384350165,1.27257673742259,1.26188982378818,1.2504265301707,1.2270157475068,1.23745396122073,1.30088802946368,1.32861862360655,1.33213645899324,1.34069927246075,1.30501518308408,1.30275106327998,1.51183829688047,1.51510471598489,1.51740999614373,1.59793009228153,1.67725698133205,1.58567000000027,1.34861595036419,1.34661233979857,1.28690296479502,1.37490306007779,1.44032020077352,1.55762965216935,1.63841003917322
1.6490907034419,1.75075059447146,1.80837103034511,1.86086295270943,1.86810696024903,2.05541663565836,1.96394906307631,1.9414233591591,1.8034189768925,1.73092335080137,1.69957680817902,1.71810259992872,1.77337120339857,1.85369955578512,2.01398217404391,2.01695752582935,1.80431337026367,1.79390134913468,1.78085689370977,1.77170022617387,1.77201197843984,1.94650912494686,1.95391048977547,1.97323726999612,1.98978547868018,1.75065400738897,1.72418105094434,1.6762812275054,1.71164869989877,1.71055336717816,1.90953992323957,1.73786131240383,1.94244124348168,1.94606927279415,1.74225210089439,1.77147500641177,1.76204322785804,1.85680056496219,1.85702262967451,1.86219139416177,1.9240489129357,1.92825767466774,1.94667272663806,1.94519759001393,1.98168012012089,1.79264,1.68259283214529,1.74825423379835,1.76219909556626,1.78600002672166,1.60357020177653,1.58747919709196,2.01506000000054,1.9556651976694,1.94628479648968,1.91419270272628,1.70698371525751,1.70865166131121,1.70631128144912,1.60303000043066,1.79966758008621,1.87730875452976,1.87836329436051,1.87909864534032,1.88501981808196,1.79398075643015,1.62712668802264,1.51315697409178,1.5153009320608,1.51829606545883,1.72676995418158,1.87477535784592,1.87902436864791,1.87591404497609,1.87908986240105,1.5079601711091,1.43279990658246,1.45405349078567,1.45806361997493,1.4616771278598,1.69113999255536,1.8763670833336,1.87377791666694,1.53905844574146,1.53561567429103,1.40205134774086,1.42254384387055,1.38526111131538,1.44131331830197,1.59192000000054,1.40711484892771,1.34046008695501,1.34670178956504,1.35580667585044,1.36667262623909,1.35286856799621,1.37794961990882,1.64719559118794,1.66697356582232,1.72811000000054,1.40627867192178,1.42238227452295,1.37340240806999,1.38716264195621,1.38935145839269,1.45311885632015,1.55474093472962,1.71353217270345,1.7416419450461,1.77586976877989,1.7832175396685,1.73633029985236,1.50339141894086,1.47179772333327,1.46284251661009,1.38798089765781,1.40123249343078,1.40848967205278,1.4081078093536,1.40882694357477,1.34537951472604,1.36824543016506,1.29860893950155,1.31293889525759,1.32437119431988,1.33907453707031,1.59834000000027,1.71476398223798,1.74620602160849,1.74938812550211,1.70770039844805,1.3985127064082,1.39645750336161,1.40667475404398,1.44075969433134,1.5610894520627,1.66401366841494,1.78085555975285,1.80625368889035,1.85533000000054,1.38626987636296,1.31260548490227,1.2164518677896,1.24589723193539,1.24667735756019,1.24865171691378,1.29329999966493,1.71306000000054,1.61413087765115,1.58285307142703,1.324115818955,1.27257962653962,1.27448096318028,1.27889677841126,1.28541583620465,1.29715636377219,1.3118415084251,1.30623026724978,1.31095126416361,1.30097879891255,1.32723136819956,1.31774691709648,1.33687987811294,1.50780685083483,1.6790095755509,1.65037646283258,1.67116037186716,1.44521024050548,1.3498942653473,1.29397799290975,1.29552904811547,1.37287863087214,1.49165937553513,1.56333539902441,1.69933298171308
1.68859346832219,1.70759644139013,1.77996936370494,1.80449853625657,1.8617897997202,1.96448089560477,1.96382964333218,1.88235557355183,1.79448540115372,1.73223733815113,1.70009149477988,1.70487721661961,1.80802551182007,1.83767803982703,2.00378512935889,2.00230822217717,1.82187011799222,1.78128890031462,1.7735264232699,1.76959314775824,1.82342301360558,1.87967606040863,1.97806752620544,1.97528587152352,1.98149840647279,1.74817295669316,1.71768568065166,1.71151688373284,1.71111503988231,1.7484581076402,1.78934289016085,1.81078642243227,1.94687593763464,1.94646009599899,1.81373740264928,1.76728876777233,1.76431943378956,1.85988192383759,1.86138528570588,1.86265073176349,1.91169656767886,1.93884178694768,1.94485375980535,1.95112450329637,1.96538744497611,1.73074032705413,1.71811987863215,1.73635828002436,1.73732973848662,1.66711788518284,1.64625165120013,1.67221002631833,1.96508751246849,1.96571778460372,1.96187047353349,1.90450116769044,1.72124164474639,1.70633518101964,1.7083233773955,1.74357432279612,1.85500761420778,1.87676242582318,1.87474971704258,1.86949973896341,1.86166750206329,1.85288435473019,1.62743936749743,1.56106898422667,1.55965803984603,1.5582057086073,1.72133941163712,1.86177631407119,1.85728790320636,1.84286964411697,1.83333793628004,1.55401057297813,1.46213277842171,1.46173141224041,1.47298574677786,1.53424059616798,1.65161826302037,1.81643146367681,1.80166067146549,1.53869808504353,1.53719164576718,1.42489194145146,1.42386362486916,1.42629422587514,1.46846177095561,1.50203175912388,1.47090732584067,1.44216876220785,1.42361083315276,1.4193643058401,1.40771668391787,1.40276360363912,1.40316752829661,1.63460012628618,1.68067602631427,1.69417848721842,1.48777455225006,1.42626306626118,1.42087439814863,1.42105022954703,1.42052782260025,1.44374139337422,1.56457031069443,1.7240330916428,1.7424145167851,1.77993041896951,1.78252783691099,1.68722169926615,1.51074142974562,1.47169631605351,1.43447495108658,1.38755813790848,1.39005317795901,1.39210905810464,1.383627664388,1.38115569823407,1.37795085246097,1.37466500115197,1.35894651510121,1.34930353532045,1.33367804998155,1.34610969495808,1.41363980762256,1.71859820944752,1.74514595517211,1.7468183928846,1.53081447830568,1.42388522345891,1.42172975866738,1.42523842785302,1.43420329105072,1.52372206299048,1.66188757209537,1.80417400969547,1.80827522514537,1.82679767134562,1.33960711096562,1.32031381690752,1.27361571893529,1.2759208695531,1.27741310327287,1.30451007003942,1.34224221657247,1.64062390190063,1.6266038136389,1.61413059995003,1.3337353111797,1.3048435208125,1.30197261114648,1.29760747461697,1.28977058746607,1.29580042334186,1.31227334111272,1.31416430108726,1.31676235868616,1.31866253551493,1.32421112841013,1.32348889122465,1.39908931861175,1.50434134079325,1.65344747733703,1.64990912490189,1.64894409678912,1.47449055430165,1.35331218181652,1.33247894959127,1.33176670754646,1.36358217264713,1.46448908552084,1.56713149788621,1.70926987074996
1.64243102847629,1.66540526391188,1.74195019688408,1.7733375603374,1.82519025582912,1.96815569280889,1.98060235098467,1.84101111259153,1.78351311283824,1.73289250387493,1.69650675435449,1.68181275740611,1.81059188954768,1.81961198710081,1.98531177745751,1.984219067354,1.83004544382222,1.73358112125815,1.76366988356282,1.76725803717376,1.83063839434522,1.84398492470077,2.00665098937568,1.9832101616989,1.98466001884934,1.74520598148204,1.66941108002373,1.71056887951375,1.71014789075742,1.75609130596059,1.74404925795671,1.97789235775382,1.97311406026916,1.99403703564968,1.99364264215505,1.741550563083,1.71348109302073,1.86183215692875,1.86492131646637,1.86503342893146,1.91043860880299,1.94678481160705,1.94088702737571,1.94867900500871,1.97390686366188,1.6826129116563,1.63984007837162,1.73503102214745,1.73633546766905,1.60567709660552,1.60518343962218,1.98588957646143,1.96626911552201,1.97187135850716,1.97927000000054,1.90495328591754,1.72938356695904,1.63107998630791,1.71022192679599,1.77699527163398,1.86263969440819,1.87186781468328,1.91364949466682,1.86437162539166,1.8565247574247,1.85554746291465,1.62777476502544,1.56036079813564,1.55839221251146,1.55502325496463,1.68634051397286,1.85523812474384,1.5517699993679,1.83327397469112,1.82236248142781,1.63585202728043,1.46242866963746,1.46118024158864,1.48611158951131,1.58456989653127,1.6112304401127,1.89622000000054,1.77145603027084,1.537020656174,1.53492589600844,1.42400504198253,1.39621734174259,1.44633546197726,1.48958582760443,1.53337731083225,1.65869974966547,1.6234002503348,1.43068121164154,1.4209684678117,1.4116327079781,1.40290050677275,1.40470077011989,1.6317428536254,1.68541677990228,1.73086012068924,1.80483555460784,1.43041965678207,1.42049291578591,1.4207283835492,1.42002072809975,1.43454401555385,1.57637550816836,1.72975410215771,1.74228899266829,1.78013284716015,1.80367993005623,1.65388065165744,1.51750244712682,1.47424762129,1.41059030688092,1.37166989281925,1.39195765518185,1.39213852478049,1.3809608414162,1.36005904751985,1.38564482565656,1.39754957076583,1.36757080243556,1.35709637561616,1.30475054180718,1.34989521164874,1.35059466104308,1.72521386253081,1.76556547174198,1.76775618185498,1.47558999997884,1.42659867417294,1.41537062088834,1.42623998630228,1.42652837912394,1.48629050531911,1.65960435607232,1.80625890253711,1.81617327082562,1.83334991629275,1.28178094696043,1.32779265390128,1.27204440595974,1.27793533701122,1.27994578885894,1.32304967205084,1.72210861065007,1.73645013162765,1.70034463147224,1.67496110917853,1.35127985322986,1.31196536225344,1.3058899834679,1.30096792679543,1.27871484765154,1.29232304768771,1.31199301619322,1.33949827653691,1.33496821740103,1.33251379908872,1.33077985797982,1.32443653171869,1.49211916085983,1.49966170599724,1.65861527748604,1.7098962535942,1.64994865160226,1.49591963164422,1.35965125496318,1.33280314769936,1.33068925932547,1.35329077675312,1.43666039781289,1.57014160628758,1.71725306359454
1.69698931493902,1.65564511662956,1.69605017320618,1.7152361807792,1.73838999999973,1.88859974342903,1.86066659538256,1.86711391497553,1.77950643626924,1.73001929402543,1.68043702064787,1.65878064414512,1.79420314586799,1.81245811999389,1.99430142425596,1.9654407023345,1.69441975042011,1.71479228852687,1.70014701232949,1.68713028559534,1.747506458114,1.72463450958154,1.99097203047222,1.98884155391987,1.99309134623697,1.83550011317295,1.73864982564515,1.68625019531901,1.69919277561769,1.92644958139916,1.88538041860138,1.71992999999946,1.98898196784649,2.00172918513849,2.00743735784576,1.68203942229566,1.64959038622299,1.90966279752221,1.9077907128721,1.92384989706204,1.93819008152809,1.93710007489086,1.93975140366628,1.9479942243909,1.95525112696482,1.69674745571942,1.61916456350886,1.62102286202823,1.74597376813065,1.79696589873181,1.84844953226451,1.93623540247098,1.92077919764812,1.90866536748093,1.90382683585147,1.75477998369802,1.69667008220589,1.6082802744342,1.71101827710035,1.77877500744426,1.82677068080532,1.87155400628169,1.87305708382126,1.86503569975602,1.84899894079875,1.65054999999973,1.59534064972365,1.54983284278678,1.55858825119925,1.55754299083518,1.54986349274116,1.54124036361764,1.95693000000079,1.87866240760566,1.88304978327209,1.62530797271957,1.49594985947014,1.47824022249687,1.50059634915947,1.52117560056656,1.6759700857734,1.68617989300602,1.7715797930437,1.51208003479891,1.50791017047147,1.44486435399038,1.41878749111249,1.44674417199883,1.5078917469476,1.52225235555529,1.84177,1.91870690340092,1.60014000000027,1.46090578928872,1.46678125417571,1.40498413003521,1.42146453317386,1.65929036403143,1.68648377324838,1.76265749837822,1.80453501466766,1.83851062955119,1.46440966364173,1.43949742307881,1.4246471567129,1.43694796311719,1.56431742318083,1.74779024912662,1.74275292086645,1.77910260602042,1.8261204848064,1.82693329611094,1.50482477697671,1.47842000472542,1.43419155677923,1.40622932359906,1.38554270527974,1.36495733788929,1.37272490632597,1.36341976418684,1.40249986152682,1.79314000000054,1.37831876844206,1.37180725077684,1.36513431058105,1.37413484672803,1.55419218412177,1.73981050628617,1.76908613146024,1.77288861842854,1.7496101469159,1.40744342748159,1.42908266761565,1.43427807531301,1.44713425430141,1.51429969138726,1.66039625308286,1.82747296730545,1.81872031808308,1.8218995507112,1.30434929797841,1.27315096104294,1.32936806624053,1.31831597782142,1.30622421629005,1.60035000000027,1.71058165780328,1.74826959991953,1.70978459265298,1.68135322664049,1.47969527074252,1.3506896991069,1.3293993491203,1.33623696659847,1.34347933373545,1.69520976507488,1.7316633402413,1.6577700001331,1.38320710184357,1.35156290446543,1.35620134490618,1.33796133278915,1.43934015151879,1.46875717451709,1.50715999999973,1.69088918669126,1.69432469523217,1.63502000000027,1.38266750449709,1.38274128827399,1.35129039437521,1.38709993162708,1.53352000013123,1.59111459493023,1.72146575865299
1.66217000456633,1.61996313207406,1.67364028424057,1.69580472668164,1.83026000000027,1.95899994420947,1.89362962710838,1.80295858152696,1.7768081788657,1.7171871294345,1.69651790967825,1.68636531976207,1.68596240530369,1.71585105307069,1.71185372953388,1.69834704103754,1.6988838746337,1.66897117667478,1.66702040780747,1.66604365597605,1.71705026854552,1.74562317971945,1.99567570000779,1.99215096802602,2.00363678566893,1.84847025979017,1.6668962523734,1.64316423195907,1.68514203228881,1.75082999990375,1.96481196432733,1.97302785786676,1.70212043342173,1.73617984429569,1.71618994677914,1.64682932240017,1.74501989208756,1.65918002899949,1.71750551528178,1.88059071339817,1.97072594647027,1.9421125233046,2.09660000000054,1.97095309199355,1.97910993444029,1.58230592875608,1.57931446192495,1.6203725884866,1.75019070407664,1.8081938863767,1.81688861345304,1.95067937531099,1.92427096461494,1.90718146484126,1.89493321521104,1.71576978243601,1.66576111371851,1.71838551416398,1.7131640346378,1.8095463380949,1.87843954011366,1.91421665307117,1.91066880670162,1.90970942842387,1.90987771346379,1.81366964005859,1.62734970061763,1.53467468655547,1.56056635616167,1.64314997208437,1.69973,1.88932006513329,1.87602133681378,1.87356786138447,1.80490994326985,1.80476987633284,1.50930603236939,1.49787416150601,1.51553919204676,1.54163573844665,1.49171630519365,1.49314786206298,1.49245249126368,1.50353009202931,1.48495052793542,1.44612163866814,1.42637295266222,1.50575009321622,1.53545890431767,1.56087978639066,1.92193298031678,1.92399105262709,1.44017257459982,1.45674373328805,1.45006222923395,1.41402127325836,1.44092945478681,1.67709989805352,1.71569558597601,1.77195258620863,1.83881416511666,1.82794491244841,1.51856973250079,1.49192126733385,1.4827765930112,1.51899944263528,1.52596042145583,1.70934035392235,1.73937672723902,1.83372226344646,1.8340831112204,1.85050146566842,1.52364514488307,1.48157827250542,1.41925390999789,1.36251350686624,1.36226803045074,1.36895206737406,1.38374133270278,1.42905673300299,1.42892530348989,1.40494352718006,1.40533358747197,1.38918252124482,1.3720807742923,1.3818825128851,1.54639738436078,1.73888245441267,1.78004945871337,1.79593987478297,1.51150999999973,1.46901953116171,1.41247450536449,1.44613556663953,1.45855897513127,1.56016551250307,1.60592010346515,1.78983674360638,1.80638750111973,1.80874647211361,1.35386236995267,1.3456898778562,1.28410065278405,1.3336491043996,1.35415966963062,1.52056035589312,1.80469007726766,1.81827992273288,1.72842240392744,1.68189649417208,1.47775500719826,1.42739018925002,1.34021020359877,1.37959303446859,1.39826972794897,1.68220059119297,1.72887646712326,1.70375046499375,1.4123732509923,1.33460139380648,1.31306855551239,1.31930528584537,1.34661836787676,1.44725844757084,1.7393993052325,1.72289080291562,1.7522096617323,1.35483003934418,1.3790253871272,1.37277790188228,1.37195072883663,1.39118039396139,1.69954795167895,1.71713315313714,1.75769630342446
1.62130409971233,1.62104141042506,1.63901990245186,1.65555889509454,1.67348318045696,1.67193732207577,1.6710192809093,1.82799141847331,1.7700053814037,1.75674948304254,1.66002027022109,1.73325363699532,1.72352843056431,1.72369279632304,1.77223579740345,1.89017000000055,1.71062148926456,1.65627567243047,1.6492951491027,1.63410617097105,1.63634337844053,1.74838558386181,1.79435126150706,1.96248303346843,1.97821028330908,1.87955962703715,1.66350557738843,1.6530349665898,1.66882682832659,1.70528981190077,1.81354996981352,1.9391906272733,1.97870967870803,1.75677118402895,1.70801043810762,1.64544679092333,1.60961100063781,1.6529697362771,1.6853199943176,1.91350984376415,1.92370995446972,2.05611000000054,1.96786,1.71744514936965,1.61297161525853,1.64721770722615,1.59668533573009,1.778629608498,1.75309268257041,1.77569049866665,1.81732188874656,1.8943375705522,1.90120669563213,1.8982651870809,1.89373776663059,1.68993831508496,1.71298723560882,1.64364798154809,1.69562343498344,1.80873305282694,1.84579018356969,1.90676875467679,1.909892461622,1.90875940361938,1.90789985493731,1.78051297854889,1.56810328020961,1.58217473683219,1.57436028932359,1.56415148667191,1.86961227088997,1.89945690345285,1.88737457950809,1.86947308969453,1.82762625799758,1.80118181248497,1.52991509672758,1.52943827566434,1.52750999992172,1.52772288876011,1.62909000000027,1.49533468932903,1.88749000000054,1.53130709049842,1.52814279450964,1.44832391845806,1.44541967572182,1.55415161334958,1.56442943732628,1.59603989550635,1.9290118432655,1.9366988035268,1.54001459708605,1.50152244934777,1.48895004000008,1.44555321538564,1.55069009910364,1.76176038641776,1.79379149919565,1.79776931378786,1.86860185774851,1.86885784177114,1.52082976581392,1.49939911200667,1.48104191863076,1.47777512152524,1.55095971492058,1.67565054787543,1.73847308645958,1.82213862881956,1.79704070492102,1.64036999999973,1.48820882788183,1.48359525602473,1.42075656865172,1.41661787953249,1.36437318256194,1.37865021565679,1.39214582360207,1.40031729815375,1.42829675047613,1.40564006964832,1.42190291262675,1.40210764550065,1.38292346411055,1.4148196617147,1.51722048296364,1.79927801108876,1.81593323026161,1.82754768116251,1.73389000000027,1.46081979943565,1.41483467656513,1.45142811639034,1.49844006538751,1.54694446745382,1.79104520476021,1.79177353372708,1.80641577162322,1.81218472075144,1.35358613934588,1.34419899838651,1.35846837098356,1.38791707306606,1.44406,1.55068162657491,1.68927999999973,1.8984033337171,1.83133063135444,1.80772494095067,1.51019745722504,1.40286286361458,1.42847778141068,1.42829662176046,1.42869516209993,1.70578058558497,1.75641363362369,1.72648990979086,1.43329695283132,1.40687031885369,1.31212827091456,1.34703809360724,1.35863011993003,1.42754620208845,1.53060000000027,1.3587609141195,1.55804640368813,1.55725334211688,1.43318814387305,1.37858688072429,1.38001009572537,1.38150635866639,1.74427619031973,1.72987174437253,1.79647989106702
1.62587165485884,1.61374700145149,1.60132482648818,1.63849485425949,1.70288957067518,1.91226980347938,1.64144342596883,1.63372435537078,1.66078757178437,1.65438999786602,1.6647695542175,1.63072029198456,1.7236844432993,1.72336080786266,1.78027440052808,1.78693413978819,1.80391627294882,1.65996997863341,1.64338925759826,1.62056890088857,1.62484092987704,1.62705212773343,1.97122000000054,1.95122846163467,1.92779501900321,1.70347619012014,1.65522882191925,1.63049920378608,1.62640148265848,1.61993069613093,1.77073173177227,1.99599361837444,1.99287098099569,1.77801982974385,1.68648018883142,1.64825209850226,1.64817681394345,1.63348603675992,1.6412531770108,1.64552927609666,1.65487574518126,1.66208403151503,1.66320273625532,1.69549205341131,1.66840883758499,1.6011002758959,1.60570483716222,1.61974967124177,1.72051970537652,1.83452569003841,1.84434997489014,1.8786130284981,1.87665471493544,1.87943462061368,1.87729943635288,1.71490165214374,1.65929036518274,1.63764201339395,1.68038047400658,1.7729905725208,1.87046918559569,1.8208207137901,1.90215756790538,1.90632460340466,1.87354054901893,1.77486738139279,1.50490425176774,1.54752050356516,1.57587338651953,1.62815980043136,1.86580169600104,1.87866832147076,1.87837694940645,1.87016407201808,1.82740530780122,1.5732800634809,1.53335656396659,1.54195047785538,1.55047763231328,1.5994214455028,1.67329428548663,1.4829990325585,1.57923976493561,1.53375028331282,1.53343980912977,1.46114085850319,1.46898929947346,1.53631552856393,1.57676149443373,1.71778000000027,1.92243814067437,1.92234006147755,1.52434847643853,1.51795589659429,1.52009653351063,1.43710673520786,1.59053952987849,1.80901058779631,1.80352301907911,1.88965012892647,1.90989998300146,1.84211005125177,1.54047637427681,1.50798801036025,1.4979657738901,1.50632962416735,1.66168006292318,1.73735127556371,1.74055811051588,1.88933980810927,1.82977021956442,1.79188125001064,1.51633961791257,1.49599183250585,1.46354996638308,1.42782635541933,1.43011393175191,1.42642264692613,1.42569040005674,1.42493673624384,1.47722788899754,1.4292712234238,1.4396206231671,1.41228819427291,1.38951343273498,1.48095986492077,1.57028166522381,1.83066250891632,1.8246576993088,1.83516573871757,1.50707898800169,1.41748101852563,1.46938793158944,1.47090444020023,1.52693935652942,1.64844308300679,1.73976001373523,1.77110057328826,1.80537213588369,1.840899465355,1.81778017554425,1.34429549865202,1.36365872825619,1.41588189189115,1.49930885104727,1.53544821639719,1.96179000000054,1.89421666628345,1.83372596710023,1.84185178624785,1.50280202261711,1.4209622734617,1.42347024941496,1.45402842249784,1.47289984532028,1.6897732914645,1.75640448183788,1.66985029682475,1.45102149309167,1.3923245331646,1.36433649367565,1.35762099090926,1.35892556068978,1.40881452161615,1.36883521472003,1.3795142515335,1.82409420382134,1.526910254195,1.46647878042919,1.43353905012021,1.36272307276713,1.39839675291995,1.59984999961495,1.66334414914688,1.60811767809772
1.58369527104824,1.58265557829061,1.61793868995716,1.59398298776167,1.58554857986402,1.88608501725322,1.88251378107458,1.77398000000014,1.66505350771628,1.61788523439597,1.58877043779504,1.61825665726052,1.617563107205,1.6815550339881,1.6176502138671,1.82542419889365,1.82530396533047,1.72647999801891,1.63712359271457,1.62019039561217,1.61480106348066,1.60298251148555,1.64896999843686,1.70061522111687,1.91397013952185,1.71683192317492,1.71822470965549,1.60336166252711,1.60299022378518,1.60326151157529,1.78956800937501,1.9774435847363,1.98251673320969,1.98712970027981,1.99299968304299,1.66221184569406,1.69532942299824,1.57231981192746,1.62073382670323,1.89341000000054,1.57803064135046,1.58578935864873,1.98552520899241,1.71791180748792,1.64899062530555,1.67904786576045,1.55608051731665,1.59794737426801,1.7039529094432,1.82088442258464,1.86053339411671,1.87391964601943,1.87672670278177,1.88084097245988,1.88073995990794,1.70277171697187,1.69096092126435,1.61515102348275,1.66744660068525,1.82004953936066,1.86686345000581,1.87563731616713,1.96180996723963,1.94797425084925,1.95830000000054,1.54378269978737,1.50390244411432,1.58496554548441,1.59448355931519,1.67713021708689,1.86441088416786,1.89497953462482,1.89622229213305,1.87189014336843,1.86044523963963,1.63162875145472,1.54378400894446,1.55463156692896,1.55332130621881,1.60731662442964,1.6696314290285,1.86435399284027,1.87911153695012,1.53550885270144,1.53278143809984,1.47915432701492,1.48127828189171,1.54368328064332,1.58478506346424,1.6480233589694,1.78280666884587,1.92408021471289,1.51446684951269,1.51680589483808,1.51867414038343,1.49864012668957,1.55786037099879,1.73373048480612,1.80011179958905,1.93769566178028,1.94109711768462,1.86048997285928,1.52812213511971,1.51636772918247,1.47536502438142,1.53717980339453,1.70976988143579,1.73290194182738,1.74433101023019,1.81079036998775,1.8591095678154,1.80198855485443,1.56058942849721,1.50063667770327,1.4830971177985,1.45351593791662,1.42680825507624,1.44350647281042,1.49796243367522,1.82876345183206,1.45067123543051,1.43111013305349,1.43609375111008,1.421102995955,1.40522044038082,1.42118020958953,1.57356828333027,1.75904059671222,1.80560113645538,1.80612351963329,1.48951115824747,1.44869410386839,1.45069296890672,1.47110262915444,1.46824215537764,1.63242712242479,1.71621997230041,1.79919989564564,1.8017279203917,1.80046421098871,1.44428989205337,1.43606398461671,1.3922101806921,1.44206039236217,1.50142077825111,1.55597980113451,1.73699981379918,1.70648076872759,1.75365494447641,1.7125404738278,1.46511976334202,1.4314654994729,1.46159987055305,1.4724762512521,1.4952594892687,1.68646327767844,1.74164086745858,1.72005014843599,1.47237518094589,1.4053988249598,1.39222675164611,1.38013180504065,1.40962501960043,1.44316906759379,1.74213000000027,1.86436966379814,1.8296161323816,1.73241968138532,1.50043072376039,1.44359099725302,1.39951029961201,1.4336533968552,1.74217960672847,1.69595219990434,1.85158679030439
1.56973894431579,1.59714266435627,1.58364380178916,1.58185644127711,1.58120678126032,1.88820891575971,1.89206248243446,1.77074000000014,1.66646245510993,1.60429477010138,1.56834833922523,1.56886185735862,1.80353000000054,1.71028502694889,1.79024000027395,1.84178019348112,1.82116808239823,1.62330549989162,1.63142317403951,1.62071210882077,1.58242452094768,1.58061585417552,1.59979049635969,1.60173299171725,1.63193699938455,1.63418223180528,1.71923716131582,1.60204160756728,1.60241441864557,1.66122932552706,1.7650502890392,1.96605043367484,1.96788089459088,1.97489157323125,1.96550596217695,1.66530778528916,1.59515966884002,1.53948028201709,1.58410014103638,1.56039032309916,1.95102977367577,1.99100380226187,1.97999729815955,1.97832282609647,1.9807244224198,1.65045242048109,1.63873012296346,1.59333291632813,1.68760075865408,1.74879,1.89956068449087,1.87827929063138,1.88512409115363,1.88366411288043,1.86918153612551,1.67642315400919,1.68610654087873,1.61961465461494,1.65510049903844,1.78533021811873,1.84771017076838,1.87374979551199,1.88988548004223,1.89522130359012,1.57582997806075,1.55164719504053,1.51952354005761,1.60627047525461,1.59736237213195,1.69709978272631,1.86797576190385,1.88557711870076,1.89738219967628,1.86868796430735,1.80631168178428,1.62642118412473,1.51293988769775,1.49250638026646,1.52614551623319,1.58622182172429,1.66733428548542,1.85687453131937,1.78270999999973,1.53917844537722,1.53116012217814,1.45515706399152,1.52726929844585,1.58136964325347,1.58640388458835,1.65034051142407,1.78047333339609,1.84214999775804,1.53522548429615,1.52333367586797,1.51378015770276,1.54112643045781,1.60986246993578,1.71474058452233,1.80007929410541,1.95541940308597,1.94702141240482,1.94696629309662,1.52895281337147,1.52271472020742,1.47723543415981,1.5925899615148,1.66849017851577,1.74863117318835,1.74729985644373,1.88004012928951,1.90207966125665,1.78118019524132,1.51200060163903,1.5054918570811,1.47203226459352,1.44015399225057,1.51055999928727,1.75567736313261,1.75210904827156,1.82813666957666,1.8933998785921,1.83043966953181,1.45987598696058,1.4422024804738,1.42698362830573,1.44397860076573,1.51119012705757,1.70740036953622,1.7987692708816,1.79401706472244,1.52641985294757,1.46733615764007,1.47511359839953,1.49860671692366,1.52349964227011,1.6676802540138,1.68599416874964,1.76632086450435,1.78674620700309,1.76865001276099,1.7858497376324,1.43057618215013,1.45448098303651,1.46422126929505,1.47122613528239,1.60986,1.81594027876617,1.84995218342526,1.83756767910883,1.83374368309845,1.48191054412791,1.4194629044918,1.46163967478292,1.49437714702014,1.55359007193294,1.69571065163274,1.69299245644616,1.7418897866407,1.50067105455142,1.41247537438301,1.39815456285272,1.39928830382749,1.42093464848961,1.47603893251144,1.54326999999973,1.72959988917535,1.70821995035296,1.70836047908638,1.53473756159523,1.47777990613377,1.43614902860258,1.4389872206307,1.5888497281156,1.6945229791956,1.85778772286914
