2.22788397287942,2.2277638826468,2.23005560458583,2.22957524365538,2.23030579257045,2.23106636404366,2.23212716109841,2.23242738667994,2.23342813861838,2.23398855970391,2.23428878528545,2.23464905598328,2.23588998838695,2.23722098846508,2.2368206876897,2.23792151482199,2.23961278559796,2.23960277807857,2.24006312397026,2.24021323676102,2.24173437970746,2.24179442482376,2.24224476319606,2.24355574823542,2.24494679342985,2.24377591366188,2.24498682350739,2.24584747017445,2.24683821459351,2.24785898157072,2.2479990868421,2.25039088397498,2.25056101180452,2.25042090653313,2.25006063583529,2.25183196676634,2.25273264351094,2.25284272622416,2.25427380149614,2.25488426017859,2.25597507979149,2.25722601971454,2.25888726793236,2.25951774165357,2.26203963653845,2.2631004335932,2.31335819594176,2.31315804555408,2.32022335423948,2.31462915090359,2.31658061718355,2.31656060214478,2.31649054950909,2.31637045927648,2.31754133904445,2.31579002315218,2.31531966974111,2.31533968477988,2.31340823353869,2.31424886516698,2.31492937648512,2.31517956446973,2.31292787260823,2.31313803051531,2.31444901555467,2.31880228648689,2.31524961710542,2.3160302036174,2.31658061718355,2.31632042167955,2.3172511209823,2.31744126385061,2.31845202330843,2.31968294819272,2.32018332416194,2.32111402346469,2.3241262867994,2.32257512129482,2.32313554238034,2.3256073996683,2.32391612889233,2.32436646726463,2.32549731695507,2.32680830199443,2.28010320902733,2.27945272026734,2.28026332933748,2.28056355491901,2.2787722089492,2.27891231422058,2.28061359251594,2.27932262251534,2.27931261499596,2.27943270522857,2.27952277290303,2.27969290073257,2.28037341205071,2.27974293832949,2.28091381809747,2.28514699879708,2.28064361507409,2.2808938030587,2.28419628445556,2.28094384065562,2.28218477305929,2.28161434445438,2.28162435197376,2.28178447228391,2.28237491592759,2.28318552499773,2.28291532197435,2.2826251039122,2.28349575809865,2.28470666794416,2.28528710406846,2.2860977131386,2.2847466980217,2.28560734468876,2.28573744244076,2.28727860042596,2.2862878560069,2.28816926965117,2.28825933732563,2.2917519615908,2.29223232252125,2.29319304438215,2.29422381887875,2.35477931867389,2.35496946154219,2.35571001797664,2.35603025859694,2.356890905264,2.35845207828797,2.35789165720244,2.36362596580972,2.35963296557533,2.35923266479995,2.360613702475,2.35999323627317,2.35892243169904,2.36249511611928,2.36083386790146,2.36075380774639,2.36080384534331,2.36189466495621,2.36004327387009,2.35842205572982,2.36537728170199,2.36422641697278,2.36359594325156,2.36182461232052,2.36247510108051,2.36244507852235,2.36792919914502,2.36090392053715,2.36384613123617,2.36313559735988,2.29982802973403,2.29834691686513,2.29815677399683,2.29934766880357,2.29722607469408,2.29787656345406,2.29690583407377,2.29749627771746,2.29569492422826,2.29713600701962,2.297146014539,2.29649552577901,2.29616527763933,2.29741621756238,2.29675572128301,2.29632539794948,2.2968257739187,2.29697588670946,2.29626535283317
2.22842437892617,2.22922498047693,2.22978540156246,2.22966531132984,2.23125650691197,2.23175688288119,2.23338810854085,2.23255748443194,2.23404860482022,2.23526952218512,2.2348291913322,2.23558976280542,2.23667057489894,2.23592001094511,2.23710089823247,2.23848193590752,2.23924250738073,2.23969284575303,2.24068359017209,2.24060353001702,2.24111391350562,2.24378592118126,2.24348569559973,2.24300533466928,2.24380593622003,2.24470661296463,2.24541714684092,2.24579743257753,2.24651797397321,2.24706838753935,2.24801910188087,2.24923001172639,2.25075115467282,2.25071112459528,2.25055100428513,2.25130156823896,2.2530128540537,2.25284272622416,2.25355326010046,2.25448395940321,2.25591503467518,2.25836687692436,2.25891729049051,2.26203963653845,2.26330058398089,2.26579245630761,2.26752375716111,2.31675074501308,2.31676075253247,2.31759137664137,2.31734118865676,2.31677076005185,2.31804171501367,2.31795164733921,2.31823185788198,2.31662064726109,2.3160302036174,2.317060978114,2.31549980509003,2.31420883508944,2.31433893284144,2.31704096307523,2.3192426173398,2.31488934640758,2.31472922609743,2.31431891780267,2.3156499178808,2.31654058710601,2.31547979005126,2.31671071493555,2.31819182780444,2.31957286547949,2.32020333920071,2.32192463253483,2.32161439943391,2.32236496338774,2.32386609129541,2.32343576796188,2.32411627928002,2.32541725679999,2.32709852005658,2.325287159048,2.32445653493909,2.32583757261414,2.28151426926053,2.28221479561744,2.28017326166302,2.28330561523034,2.27868214127474,2.27799162243722,2.27875219391043,2.27920253228273,2.27911246460827,2.27887228414305,2.27904241197258,2.27912247212766,2.28047348724455,2.28014323910487,2.27990305863964,2.28045347220578,2.28083375794239,2.28071366770978,2.2818545249196,2.28125407375654,2.28197461515222,2.28205467530729,2.28287529189681,2.28373593856387,2.28314549492019,2.28281524678051,2.28296535957127,2.28371592352511,2.28479673561862,2.28454654763401,2.28563736724692,2.285066938642,2.28747875081365,2.28601765298352,2.28605768306106,2.28712848763519,2.28672818685982,2.28830937492256,2.28846949523271,2.28911998399269,2.29045098407082,2.29282276616493,2.29454405949905,2.35656065712431,2.35711107069046,2.35624041650401,2.35680083758954,2.35707104061292,2.36025343177717,2.35917261968365,2.36107404836669,2.36036351449039,2.36142431154514,2.36162446193283,2.36107404836669,2.36080384534331,2.36139428898699,2.36062370999439,2.36049361224239,2.3611941385993,2.36094395061469,2.36405628914325,2.36460670270939,2.36231498077036,2.36449661999616,2.36402626658509,2.3617745747236,2.36165448449098,2.36757893596656,2.3677490637961,2.36746885325333,2.36507705612046,2.36439654480232,2.35894244673781,2.3002283305094,2.29858709733036,2.29853705973343,2.29917754097404,2.2981067363999,2.29841696950082,2.29793660857037,2.29814676647744,2.29720605965531,2.29736617996546,2.297406210043,2.29708596942269,2.29738619500423,2.29655557089532,2.29751629275622,2.29728611981038,2.29792660105098,2.29646550322086
2.22766380745296,2.22902483008924,2.23071610086521,2.22996553691138,2.2306560557489,2.2332279882307,2.23222723629225,2.23284770249409,2.23338810854085,2.23593001846449,2.23470910109959,2.23661052978263,2.23692076288355,2.23654047714694,2.23790149978322,2.23845191334936,2.23902234195428,2.23985296606318,2.24059352249763,2.24043340218748,2.24089374807916,2.2419645526533,2.2436958535068,2.24301534218866,2.24403610916587,2.24563731226738,2.24531707164708,2.24715845521381,2.24687824467105,2.24808915451656,2.24797907180333,2.24883971847039,2.24949020723038,2.2499305380833,2.25037086893621,2.25193204196018,2.25313294428631,2.2535232375423,2.25521450831827,2.25632534296994,2.25710592948193,2.25787650847453,2.26400111033779,2.26137914025908,2.26233986211998,2.26690329095928,2.31739122625369,2.31933268501426,2.31978302338656,2.32347579803941,2.3178315571066,2.31829190299828,2.31673072997431,2.31784156462599,2.3175113164863,2.31750130896691,2.31713103074969,2.31523960958604,2.31675074501308,2.31613027881125,2.31565992540018,2.31599017353987,2.31470921105866,2.31435894788021,2.31532967726049,2.31608024121433,2.31606022617556,2.31741124129245,2.3177014593546,2.31875224888997,2.32190461749606,2.321043970829,2.31957286547949,2.32098392571269,2.3222648881939,2.3227152265662,2.32312553486096,2.32395615896987,2.32544727935815,2.32580755005598,2.32630792602521,2.32609776811813,2.32625788842828,2.32831943742147,2.28248499864082,2.28293533701312,2.28457657019217,2.28139417902792,2.2790324044532,2.27957281049996,2.28016325414364,2.2794827428255,2.27899237437566,2.27998311879472,2.28006317894979,2.2796728856938,2.27942269770919,2.28037341205071,2.28079372786485,2.28312547988142,2.28130411135346,2.28120403615962,2.28125407375654,2.28205467530729,2.28196460763283,2.28200463771037,2.28303541220697,2.28279523174174,2.28294534453251,2.28387604383526,2.28382600623833,2.28394609647095,2.28419628445556,2.28499688600631,2.28449651003709,2.28520704391338,2.2858375176346,2.28606769058044,2.28614775073552,2.28658808158844,2.28824932980625,2.28813924709302,2.28818928468994,2.29024082616375,2.29037092391575,2.29324308197908,2.29346324740553,2.29601516484856,2.35672077743446,2.35739128123322,2.35704101805477,2.35836201061351,2.35923266479995,2.36013334154455,2.36349586805772,2.36155440929714,2.36215486046021,2.36154440177776,2.36271528154573,2.36096396565346,2.36092393557592,2.36134425139007,2.36038352952916,2.36108405588607,2.36417637937586,2.3635058755771,2.36255516123558,2.36343582294141,2.36385613875556,2.36339579286387,2.36674831185766,2.36326569511188,2.36762897356348,2.36678834193519,2.36577758247737,2.36682837201273,2.36133424387068,2.35705102557415,2.30013826283494,2.29896738306697,2.29906745826081,2.29826685671006,2.29828687174882,2.30028837562571,2.29961787182695,2.29835692438452,2.29756633035315,2.29790658601222,2.2977864957796,2.29672569872485,2.29795662360914,2.29883728531497,2.29751629275622,2.29805669880298,2.29663563105039,2.29955782671065
2.22848442404248,2.22929503311262,2.22952520605846,2.22987546923692,2.23171685280365,2.23255748443194,2.2324574092381,2.23357825140915,2.2339985672233,2.23486922140974,2.23602008613895,2.23656049218571,2.23712091327124,2.23726101854262,2.23818171032599,2.23821173288414,2.24142414660654,2.24108389094747,2.24046342474563,2.24066357513332,2.24112392102501,2.24713844017504,2.24378592118126,2.24375589862311,2.24425627459233,2.24522700397262,2.24577741753876,2.24719848529135,2.24693828978735,2.24759878606673,2.24836936505933,2.24985047792822,2.24957026738546,2.25072113211467,2.25248245552632,2.25285273374355,2.25267259839463,2.25398358343399,2.25601510986903,2.25714595955947,2.25725604227269,2.25886725289359,2.26036838080125,2.26425129832241,2.26427131336117,2.31694088788139,2.31839197819213,2.31791161726168,2.31682079764877,2.31887233912258,2.31951282036318,2.3192426173398,2.32199468517052,2.31777151199029,2.31760138416076,2.31686082772631,2.31970296323149,2.31881229400627,2.31611026377248,2.31569995547772,2.31531966974111,2.31532967726049,2.31565992540018,2.31601018857864,2.31630040664078,2.31647053447032,2.3173812187343,2.31723110594354,2.31790160974229,2.3187322338512,2.32268520400805,2.32078377532501,2.32079378284439,2.32195465509298,2.32433644470647,2.32310551982219,2.32479679059816,2.32527715152861,2.32754885842887,2.32589761773044,2.32907000137531,2.32609776811813,2.33329317455553,2.33017082850759,2.28244496856328,2.2818545249196,2.28142420158607,2.28409620926171,2.27962284809688,2.27938266763165,2.28059357747717,2.27985302104272,2.28180448732268,2.28106393088823,2.28000313383349,2.27988304360087,2.28064361507409,2.28034338949256,2.28274519414482,2.28039342708948,2.28130411135346,2.28110396096577,2.28196460763283,2.28207469034606,2.28188454747776,2.28237491592759,2.28342570546296,2.28408620174233,2.28328560019158,2.2826251039122,2.28363586337003,2.28452653259524,2.28555730709184,2.28610772065798,2.28645798383644,2.28610772065798,2.28561735220815,2.28578748003768,2.28740869817796,2.28764887864318,2.28791908166656,2.28886979600808,2.28921005166715,2.29066114197789,2.29124157810219,2.29315301430462,2.29386354818091,2.3561203262714,2.35730121355876,2.35754139402399,2.35835200309413,2.36189466495621,2.36135425890945,2.36317562743742,2.36225493565405,2.36269526650696,2.36199474015005,2.3613242363513,2.36138428146761,2.36160444689406,2.36136426642884,2.36255516123558,2.36122416115745,2.36442656736047,2.36270527402635,2.36321565751495,2.36281535673958,2.36437652976355,2.36437652976355,2.36516712379492,2.36677833441581,2.36536727418261,2.36598774038444,2.36520715387245,2.36435651472478,2.36031347689347,2.3615143792196,2.36232498828974,2.30105895461831,2.30084879671124,2.30211975167306,2.29892735298943,2.30091884934693,2.29911749585773,2.30257009004536,2.29785654841529,2.29777648826022,2.29822682663252,2.29734616492669,2.29857708981097,2.30087881926939,2.29829687926821,2.29997814252479,2.29869718004359,2.29831689430698,2.29813675895806
2.2289848000117,2.22875462706586,2.22990549179507,2.23108637908243,2.23166681520673,2.23249743931563,2.2340586123396,2.23391850706822,2.2340586123396,2.23505936427805,2.23520947706881,2.23723099598447,2.23793152234138,2.23834183063614,2.23886222164413,2.23854198102382,2.23983295102442,2.24075364280778,2.24070360521086,2.24130405637393,2.24204461280837,2.2435057106385,2.24469660544524,2.24489675583293,2.2464579288569,2.24592753032953,2.24489675583293,2.24786898909011,2.24746868831473,2.24890977110609,2.24926003428454,2.25056101180452,2.25097132009928,2.25155175622357,2.25241240289063,2.25550472638042,2.25478418498474,2.25454400451952,2.25527455343458,2.25646544824132,2.25723602723393,2.26091879436739,2.26031834320433,2.26177944103445,2.26616273452483,2.31829190299828,2.31824186540136,2.31851206842474,2.31877226392874,2.32052357982101,2.32053358734039,2.32022335423948,2.32084382044131,2.32031342191394,2.31729115105984,2.31870221129305,2.3180216999749,2.31812177516875,2.31682079764877,2.31649054950909,2.31775149695153,2.317321173618,2.31615029385002,2.31647053447032,2.3179616548586,2.31761139168014,2.3189223767195,2.31836195563397,2.31883230904504,2.31914254214596,2.31994314369671,2.32154434679822,2.32170446710837,2.32199468517052,2.32446654245847,2.32575751245906,2.32629791850582,2.32558738462953,2.325026963544,2.3268283170332,2.32787910656856,2.32820935470825,2.33120160300419,2.33108151277158,2.28369590848634,2.28112397600454,2.28052352484148,2.27955279546119,2.27984301352333,2.27950275786426,2.28058356995778,2.28055354739963,2.28026332933748,2.28001314135287,2.28027333685686,2.2801232240661,2.28026332933748,2.28131411887284,2.28160433693499,2.2819846226716,2.28145422414423,2.28338567538542,2.28156430685746,2.28300538964881,2.28195460011345,2.28357581825372,2.2837859761608,2.28390606639341,2.2838460212771,2.28451652507586,2.2841662618974,2.28480674313801,2.2857774725183,2.28632788608444,2.28715851019335,2.28523706647154,2.2866080966272,2.2867381943792,2.28691832972812,2.28813924709302,2.28849951779086,2.29019078856683,2.28989056298529,2.28983051786899,2.29174195407141,2.2923924428314,2.29368341283199,2.29487430763874,2.35772152937291,2.36365598836787,2.36237502588666,2.36091392805654,2.36266524394881,2.36276531914266,2.36211483038267,2.36217487549897,2.36296546953034,2.36255516123558,2.3616444769716,2.36753890588902,2.36730873294318,2.36507705612046,2.36362596580972,2.36410632674017,2.36447660495739,2.3702509436422,2.36925019170376,2.36796922922255,2.36956042480468,2.36740880813703,2.3676189660441,2.36655816898935,2.36495696588784,2.36339579286387,2.36308555976296,2.36680835697396,2.36679834945458,2.36451663503493,2.30273021035551,2.30116903733154,2.29935767632296,2.30051854857155,2.29866715748543,2.2983669319039,2.29848702213651,2.30037844330017,2.29951779663311,2.29848702213651,2.30020831547063,2.2992676086485,2.29851704469467,2.29847701461713,2.29713600701962,2.29934766880357,2.29822682663252,2.29884729283435
2.22886470977909,2.22914492032185,2.22984544667876,2.2320070708658,2.23151670241596,2.23274762730024,2.23340812357962,2.23475913869651,2.23365831156423,2.23536959737896,2.2355997703248,2.23629028916233,2.23657049970509,2.23850195094629,2.2384318983106,2.23960277807857,2.24045341722625,2.24056349993948,2.24056349993948,2.24435634978617,2.24291526699482,2.24269510156836,2.24298531963051,2.24391601893326,2.24425627459233,2.24586748521322,2.24610766567845,2.24693828978735,2.2472285078495,2.24760879358611,2.2491599590907,2.2505710193239,2.25062105692082,2.25197207203772,2.25228230513864,2.25309291420877,2.25351323002292,2.25476416994597,2.25541465870596,2.25637538056686,2.25826680173052,2.26086875677047,2.26239990723629,2.26707341878881,2.26557229088115,2.31585006826848,2.31727113602107,2.31703095555585,2.31908249702965,2.31984306850287,2.31818182028506,2.31990311361918,2.32000318881302,2.32176451222468,2.31987309106102,2.31868219625428,2.31877226392874,2.31967294067333,2.32015330160379,2.31778151950968,2.31646052695093,2.31686082772631,2.31775149695153,2.31746127888938,2.317321173618,2.31800168493614,2.31880228648689,2.31914254214596,2.32049355726286,2.32052357982101,2.32161439943391,2.32165442951145,2.32314554989973,2.32387609881479,2.32474675300124,2.32543727183876,2.32648806137413,2.32494690338892,2.32691838470766,2.32812929455317,2.32843952765409,2.328879858507,2.32814930959194,2.33015081346882,2.28422630701371,2.28315550243958,2.28205467530729,2.28009320150794,2.28021329174056,2.28103390833008,2.28015324662425,2.28116400608208,2.28095384817501,2.28199463019099,2.27978296840703,2.28021329174056,2.28218477305929,2.28264511895097,2.28233488585006,2.28120403615962,2.28126408127592,2.28252502871836,2.2823048632919,2.28380599119957,2.28253503623774,2.28345572802111,2.28316550995896,2.28424632205248,2.28338567538542,2.28437641980448,2.28515700631646,2.28477672057985,2.28471667546355,2.28571742740199,2.28593759282845,2.28637792368136,2.28644797631705,2.28707845003827,2.29074120213297,2.28843947267455,2.28794910422472,2.28946023965176,2.28930011934161,2.29122156306342,2.29099139011758,2.29166189391634,2.29454405949905,2.29813675895806,2.35690091278338,2.35974304828856,2.36223492061528,2.36271528154573,2.36289541689465,2.36219489053774,2.36231498077036,2.36283537177835,2.36390617635248,2.36568751480291,2.36642807123735,2.36551738697337,2.36574755991921,2.36648811635366,2.36392619139125,2.36617788325274,2.36747886077272,2.36907005635484,2.36817938712963,2.36852965030808,2.36821941720717,2.36895997364161,2.36841956759485,2.36662822162504,2.36443657487985,2.36413634929832,2.36458668767062,2.36249511611928,2.36420640193401,2.36380610115864,2.36390617635248,2.30171945089768,2.30198965392106,2.30029838314509,2.30198965392106,2.30224984942506,2.3055623383413,2.29928762368727,2.29901742066389,2.29983803725341,2.29856708229159,2.2992676086485,2.30164939826199,2.30056858616847,2.30032840570325,2.29898739810573,2.29880726275681,2.29806670632237
2.22891474737601,2.22983543915938,2.23015567977968,2.23199706334641,2.23285771001347,2.23385846195192,2.23298780776547,2.23438886047929,2.23475913869651,2.23567983047988,2.23581993575126,2.23719096590693,2.23743114637215,2.23703084559678,2.23857200358198,2.23921248482258,2.24027328187733,2.24059352249763,2.2427951767622,2.24245492110313,2.24436635730556,2.24303535722743,2.24317546249881,2.24527704156954,2.24506688366247,2.2464579288569,2.24738862815965,2.2467181243609,2.24700834242305,2.24829931242364,2.24937011699777,2.2507011170759,2.25079118475036,2.25185198180511,2.25281270366601,2.25351323002292,2.25631533545056,2.25615521514041,2.25747620769915,2.2568057039004,2.25857703483144,2.26101886956124,2.2614892229723,2.26441141863256,2.31665066981924,2.31653057958663,2.31771146687399,2.32242500850405,2.32052357982101,2.32087384299947,2.3196929557121,2.32077376780562,2.32144427160438,2.31946278276626,2.31803170749429,2.31830191051767,2.31945277524688,2.31893238423889,2.31862215113797,2.31974299330903,2.31925262485919,2.31829190299828,2.31823185788198,2.3180216999749,2.31831191803705,2.31952282788257,2.32063366253424,2.32039348206901,2.32202470772867,2.32057361741793,2.32167444455022,2.32216481300006,2.32307549726404,2.32365593338833,2.32536721920307,2.32670822680058,2.32808926447563,2.32770897873902,2.32815931711132,2.32769897121964,2.32856962540609,2.32748881331257,2.32834945997963,2.32922011416607,2.28419628445556,2.28508695368077,2.28267514150913,2.28245497608267,2.28171441964822,2.28229485577252,2.27965287065503,2.27990305863964,2.28072367522916,2.2808938030587,2.2801232240661,2.28120403615962,2.28078372034547,2.28144421662484,2.28117401360146,2.28142420158607,2.2819846226716,2.28213473546237,2.28391607391279,2.28220478809806,2.28287529189681,2.28353578817619,2.28337566786604,2.28363586337003,2.28398612654849,2.28425632957186,2.28477672057985,2.28555730709184,2.28472668298293,2.28613774321614,2.28560734468876,2.28581750259583,2.28663811918536,2.28865963810101,2.28820929972871,2.28879974337239,2.28986054042714,2.28888981104685,2.28973044267514,2.28951027724869,2.2898205103496,2.29082126228805,2.29270267593232,2.29477423244489,2.29667566112793,2.36053364231993,2.36139428898699,2.36156441681652,2.36244507852235,2.36252513867743,2.36082386038208,2.36167449952975,2.36420640193401,2.36618789077213,2.36482686813585,2.3658176125549,2.36598774038444,2.36635801860166,2.36721866526872,2.36802927433886,2.36776907883487,2.3683895450367,2.36740880813703,2.36783913147056,2.36796922922255,2.36728871790441,2.37020090604528,2.3657575674386,2.36481686061646,2.36429646960847,2.36446659743801,2.3660778080589,2.36356592069341,2.36693845472596,2.36399624402694,2.36435651472478,2.3017094433783,2.30098890198262,2.30205970655675,2.30109898469585,2.30111899973462,2.29966790942387,2.30085880423062,2.29954781919126,2.30006821019925,2.29981802221464,2.29917754097404,2.30023833802879,2.30040846585832,2.29984804477279,2.29920756353219,2.29943773647803
2.22899480753109,2.23050594295813,2.23077614598151,2.23233731900548,2.23276764233901,2.23299781528486,2.23325801078885,2.23383844691315,2.23505936427805,2.23597004854203,2.2368206876897,2.23619021396849,2.23786146970568,2.23803159753522,2.23974288334996,2.23946267280719,2.24025326683856,2.24114393606377,2.24099382327301,2.24234483838991,2.24391601893326,2.24418622195664,2.24500683854616,2.24477666560032,2.24512692877877,2.24544716939908,2.24750871839227,2.2474887033535,2.24856951544702,2.24849946281132,2.25000059071899,2.25023076366483,2.25186198932449,2.25260254575894,2.25327304955769,2.25341315482908,2.25565483917119,2.25746620017977,2.25870713258344,2.25805664382345,2.261168982352,2.26169938087938,2.26286025312797,2.26465159909778,2.31726112850169,2.31613027881125,2.3182818954789,2.32102395579023,2.3201432940844,2.32326564013234,2.32017331664256,2.32033343695271,2.32262515889174,2.32100394075146,2.31909250454904,2.31883230904504,2.31899242935519,2.31968294819272,2.32023336175886,2.32050356478224,2.3193126699755,2.3189223767195,2.31867218873489,2.31877226392874,2.32075375276685,2.31927263989796,2.32152433175945,2.32147429416253,2.32052357982101,2.32191462501544,2.32344577548126,2.32464667780739,2.32716857269227,2.32781906145225,2.3259876854049,2.32807925695625,2.32779904641348,2.32820935470825,2.32821936222763,2.3280492343981,2.32779904641348,2.33022086610451,2.33000070067806,2.33090137742266,2.2845565551534,2.28271517158666,2.28399613406787,2.28094384065562,2.28136415646977,2.28222480313683,2.28411622430048,2.28015324662425,2.28131411887284,2.2805735624384,2.28015324662425,2.28171441964822,2.28095384817501,2.28212472794298,2.28115399856269,2.281344141431,2.28195460011345,2.2834657355405,2.28229485577252,2.28280523926112,2.28338567538542,2.28413623933925,2.28425632957186,2.28406618670356,2.28409620926171,2.28495685592877,2.28465663034724,2.28579748755707,2.28586754019276,2.28543721685923,2.28646799135582,2.28624782592936,2.28703841996073,2.2871885327515,2.28781900647272,2.2888597884887,2.28952028476807,2.29003066825668,2.2889898862407,2.29032088631882,2.28989056298529,2.29083126980743,2.29225233756002,2.29364338275445,2.29567490918949,2.29595511973225,2.36133424387068,2.36136426642884,2.36154440177776,2.36173454464606,2.36520715387245,2.36258518379374,2.36296546953034,2.37078134216958,2.3708313797665,2.36655816898935,2.37040105643297,2.36999074813821,2.36878984581208,2.36839955255609,2.36818939464901,2.36767901116041,2.36856968038562,2.36720865774934,2.36758894348595,2.36805929689702,2.36571753736106,2.37217238736401,2.36512709371738,2.37127171061941,2.37145184596833,2.3666582441832,2.3638961688331,2.36599774790382,2.3631856349568,2.36497698092661,2.36579759751614,2.30168942833953,2.29962787934634,2.30135918019984,2.30509198493023,2.30066866136232,2.29968792446264,2.30197964640168,2.30019830795125,2.3017694884946,2.30052855609093,2.30102893206016,2.30011824779617,2.30073871399801,2.30072870647862,2.30143924035492
2.22894476993416,2.23036583768675,2.23162678512919,2.23120646931504,2.23248743179625,2.23236734156364,2.23350819877346,2.23588998838695,2.23690074784478,2.2350893868362,2.2367606425734,2.23690074784478,2.24329555273143,2.23930255249704,2.23988298862134,2.2400331014121,2.2402932969161,2.24190450753699,2.24240488350621,2.2428652293979,2.24413618435972,2.24632783110491,2.24413618435972,2.24642790629875,2.24533708668585,2.24622775591106,2.24711842513627,2.24758877854734,2.24840939513686,2.24926003428454,2.25015070350975,2.25010066591283,2.25142165847158,2.25260254575894,2.25313294428631,2.25443392180629,2.25527455343458,2.25651548583825,2.25811668893975,2.26139915529784,2.26109892971631,2.26328056894212,2.26582247886576,2.31604021113679,2.31948279780503,2.32229491075205,2.32100394075146,2.32121409865854,2.32120409113915,2.32086383548008,2.32276526416312,2.3207237302087,2.32081379788316,2.31942275268872,2.32167444455022,2.31975300082841,2.32049355726286,2.32240499346528,2.32143426408499,2.32026338431701,2.31934269253365,2.3204034895884,2.31998317377425,2.31989310609979,2.32275525664374,2.32024336927825,2.32047354222409,2.3212341136973,2.32191462501544,2.32292538447327,2.32363591834957,2.32544727935815,2.32505698610215,2.32608776059875,2.32652809145166,2.32725864036673,2.32779904641348,2.32886985098762,2.32999069315867,2.32937022695684,2.33360340765645,2.32789912160733,2.33723613719299,2.3316419338571,2.28360584081188,2.28330561523034,2.28329560771096,2.2838460212771,2.28344572050173,2.28191457003591,2.28081374290362,2.28015324662425,2.28184451740022,2.28176445724514,2.2856473747663,2.28171441964822,2.28283526181928,2.28327559267219,2.28278522422235,2.28245497608267,2.28154429181869,2.28300538964881,2.28393608895156,2.28345572802111,2.28383601375772,2.28375595360264,2.28490681833185,2.28590757027029,2.28556731461122,2.28547724693676,2.28646799135582,2.28584752515399,2.28637792368136,2.2864179537589,2.28645798383644,2.28658808158844,2.28711848011581,2.28817927717056,2.28905993887639,2.28814925461241,2.28991057802406,2.28961035244253,2.29025083368313,2.29099139011758,2.29086129236558,2.29161185631941,2.29195211197849,2.29229236763756,2.2940636985686,2.29546475128242,2.36140429650637,2.36160444689406,2.36156441681652,2.36290542441404,2.37050113162681,2.37082137224712,2.37473431232642,2.37236253023232,2.37099150007665,2.37072129705327,2.37109157527049,2.37093145496034,2.36868977061823,2.36886990596715,2.36872980069577,2.36880986085085,2.37101151511542,2.36698849232288,2.37579510938117,2.37469428224889,2.37474431984581,2.36619789829151,2.36937028193637,2.36992069550252,2.37121166550311,2.36488691325215,2.36288540937527,2.36262521387127,2.37144183844895,2.37183213170494,2.30219981182813,2.3004885260134,2.30239996221582,2.30388107508472,2.3013191501223,2.30203969151798,2.30046851097463,2.30006821019925,2.3034407442318,2.30117904485092,2.30071869895924,2.301129007254,2.30078875159493,2.30201967647921,2.30199966144044,2.30058860120724
2.23056598807444,2.23062603319075,2.23124649939258,2.23364830404484,2.23352821381223,2.2339985672233,2.23532956730143,2.23612016133279,2.23600007110018,2.23594002598387,2.23662053730202,2.23840187575244,2.23898231187674,2.23936259761335,2.24030330443548,2.24079367288532,2.24133407893208,2.24175439474622,2.2426050338939,2.24351571815788,2.24327553769266,2.24521699645323,2.24565732730615,2.24569735738369,2.24630781606614,2.24700834242305,2.24749871087288,2.24863956808271,2.24936010947838,2.24958027490484,2.25094129754112,2.25017071854852,2.2526926134334,2.25388350824014,2.25415371126352,2.25517447824073,2.2568657490167,2.25852699723452,2.25891729049051,2.26122902746831,2.26137914025908,2.26591254654022,2.26561232095869,2.32172448214714,2.32337572284557,2.32257512129482,2.32080379036377,2.32494690338892,2.32238497842651,2.32293539199266,2.32170446710837,2.3236159033108,2.3204034895884,2.32074374524747,2.3219446475736,2.32148430168191,2.32222485811636,2.32330567020988,2.32217482051944,2.32081379788316,2.32094389563516,2.32279528672127,2.32109400842592,2.32090386555762,2.32129415881361,2.32281530176004,2.32270521904681,2.32233494082959,2.3244465274197,2.32346579052003,2.324896865792,2.32513704625723,2.32597767788552,2.3261177831569,2.32666819672305,2.32795916672364,2.32772899377779,2.32898994122023,2.32989061796483,2.32989061796483,2.33095141501958,2.33106149773281,2.33174200905095,2.33268271587308,2.33387361067983,2.28342570546296,2.28340569042419,2.28237491592759,2.28156430685746,2.28330561523034,2.2817944798033,2.2838460212771,2.28093383313624,2.28208469786545,2.28114399104331,2.28199463019099,2.28337566786604,2.28337566786604,2.2824349610439,2.28335565282727,2.28335565282727,2.28285527685805,2.2842963596494,2.28391607391279,2.28471667546355,2.2841662618974,2.28516701383585,2.28454654763401,2.28550726949492,2.28677822445674,2.28587754771214,2.28620779585183,2.28648800639459,2.28694835228627,2.28860960050409,2.28833939748071,2.28726859290658,2.28789906662779,2.28851953282963,2.2904009464739,2.28913999903146,2.29020079608621,2.29003066825668,2.29079123972989,2.29160184880003,2.29290282632001,2.29566490167011,2.29278273608739,2.29539469864673,2.29615527011994,2.29583502949964,2.30163939074261,2.36227495069282,2.36488691325215,2.36934025937822,2.37052114666558,2.37114161286742,2.37080135720835,2.37015086844836,2.37037103387482,2.37008081581267,2.37015086844836,2.36992069550252,2.36900000371915,2.36892995108346,2.36829947736224,2.37053115418497,2.36614786069459,2.37261271821693,2.37479435744273,2.37483438752027,2.37012084589021,2.36981061278929,2.36926019922315,2.3650470335623,2.36621791333028,2.36559744712845,2.364856890694,2.37547486876087,2.3658176125549,2.37124168806126,2.30330063896042,2.30309048105335,2.30304044345642,2.30204969903737,2.30430139089886,2.30314051865027,2.30289033066566,2.30536218795361,2.30071869895924,2.30174947345583,2.30181952609153,2.3017094433783,2.30210974415367,2.30167942082014,2.30071869895924
2.23079616102028,2.23173686784242,2.23196704078826,2.23175688288119,2.23287772505224,2.23352821381223,2.23562979288296,2.23545966505342,2.23574988311557,2.23651045458879,2.23782143962815,2.23808163513214,2.23915243970627,2.24006312397026,2.23973287583057,2.24100383079239,2.24144416164531,2.24177440978499,2.24381594373942,2.24490676335232,2.24411616932095,2.24441639490248,2.24487674079416,2.24773889133811,2.24662805668644,2.24698832738428,2.24723851536889,2.24931007188146,2.25014069599037,2.25039088397498,2.2508312148279,2.25170186901434,2.25304287661185,2.25337312475154,2.25398358343399,2.25544468126411,2.25711593700131,2.25741616258285,2.26096883196431,2.26210968917414,2.26160931320492,2.26370088475626,2.2663128473156,2.32036345951086,2.32150431672068,2.32350582059757,2.32328565517111,2.32595766284675,2.32384607625664,2.32352583563634,2.3223949859459,2.32211477540313,2.32003321137117,2.32078377532501,2.3220046926899,2.32270521904681,2.32163441447268,2.32287534687635,2.3205936324567,2.32125412873607,2.32089385803823,2.32101394827085,2.32069370765055,2.32120409113915,2.32216481300006,2.32389611385356,2.32356586571387,2.32286533935696,2.3241262867994,2.32405623416371,2.32488685827262,2.32550732447445,2.32606774555998,2.32696842230458,2.32708851253719,2.32931018184053,2.33027090370144,2.3299106330036,2.33008076083313,2.33014080594944,2.33079129470943,2.33262267075678,2.3342138663389,2.33373350540845,2.33581506944041,2.28695835980566,2.28629786352629,2.2834657355405,2.28238492344698,2.28229485577252,2.2819846226716,2.28727860042596,2.28281524678051,2.28353578817619,2.28250501367959,2.28264511895097,2.28189455499714,2.28309545732327,2.2826251039122,2.28371592352511,2.28481675065739,2.28435640476571,2.28383601375772,2.28409620926171,2.28415625437802,2.28485678073493,2.28514699879708,2.28789906662779,2.28518702887462,2.28613774321614,2.28578748003768,2.28773894631764,2.28697837484443,2.28720854779027,2.28761885608503,2.28849951779086,2.29062111190036,2.28979048779145,2.28875971329485,2.28929011182223,2.2898205103496,2.28958032988438,2.29046099159021,2.2936133601963,2.29358333763815,2.29191208190095,2.29473420236735,2.29289281880062,2.29384353314214,2.29549477384057,2.29663563105039,2.30328062392165,2.36539729674076,2.36803928185825,2.36830948488163,2.36981061278929,2.37040105643297,2.37091143992158,2.37004078573513,2.36968051503729,2.36977058271175,2.37005079325451,2.36944033457206,2.37026095116159,2.36981061278929,2.37453416193874,2.37655568085439,2.37521467325688,2.3743640341092,2.37461422209381,2.3745541769775,2.37452415441935,2.3712817181388,2.36955041728529,2.37154191364279,2.37308307162799,2.37457419201627,2.37478434992335,2.3746242296132,2.37387366565936,2.37403378596951,2.37457419201627,2.30374096981333,2.30354081942565,2.30296038330135,2.30295037578196,2.30366090965826,2.30490184206193,2.30283028554935,2.30427136834071,2.30164939826199,2.3017694884946,2.30220981934752,2.30173946593645,2.30275022539428,2.30231990206075
2.23018570233783,2.2311063941212,2.23170684528426,2.23256749195132,2.23306786792055,2.2337383717193,2.23488923644851,2.23622023652664,2.23666056737955,2.23685071024786,2.23836184567491,2.23863204869828,2.23936259761335,2.23964280815611,2.24006312397026,2.2407436352884,2.24163430451361,2.24280518428159,2.24357576327419,2.24329555273143,2.24456650769325,2.24604762056214,2.24661804916705,2.2464579288569,2.24701834994243,2.2470383649812,2.24805913195841,2.24841940265625,2.24868960567963,2.25306289165062,2.25351323002292,2.25222226002233,2.25236236529371,2.2536533352943,2.25484423010105,2.25603512490779,2.25690577909424,2.25720600467577,2.25906740328127,2.26199960646091,2.26333060653904,2.32562741470707,2.31965292563457,2.32532718912553,2.32597767788552,2.32567745230399,2.32424637703201,2.32632794106398,2.32523712145107,2.32544727935815,2.32684833207196,2.33072124207374,2.3238060461791,2.32193464005421,2.32222485811636,2.32157436935637,2.32255510625605,2.32217482051944,2.32306548974465,2.32128415129423,2.3202733918364,2.32100394075146,2.32098392571269,2.32121409865854,2.32246503858159,2.32417632439632,2.32539724176122,2.32388610633418,2.32538723424184,2.32748881331257,2.32572748990091,2.32647805385474,2.3259876854049,2.32723862532796,2.32852959532855,2.33070122703497,2.33197218199679,2.3311915954848,2.33459415207551,2.33642552812286,2.33255261812109,2.33263267827616,2.33431394153274,2.33458414455612,2.33394366331552,2.33626540781271,2.2862878560069,2.28411622430048,2.28388605135464,2.28317551747835,2.28391607391279,2.28308544980389,2.2817944798033,2.28313548740081,2.28316550995896,2.28304541972635,2.28345572802111,2.28374594608326,2.2855172770143,2.2841062167811,2.2834657355405,2.28624782592936,2.2857774725183,2.2841062167811,2.28493684089001,2.28490681833185,2.28458657771155,2.28562735972753,2.28531712662661,2.28635790864259,2.28620779585183,2.28701840492197,2.28690832220874,2.2867381943792,2.28748875833303,2.28895986368254,2.28906994639577,2.28784902903087,2.28964037500068,2.28997062314037,2.29003066825668,2.28913999903146,2.29056106678405,2.2910414277145,2.29129161569911,2.29199214205602,2.29305293911077,2.293293119576,2.29366339779322,2.29480425500305,2.29539469864673,2.29856708229159,2.30037844330017,2.36920015410684,2.36937028193637,2.3705111391462,2.37058119178189,2.37058119178189,2.36977058271175,2.36962046992098,2.36930022930068,2.36978059023114,2.36970053007606,2.37838705690174,2.37813686891713,2.37721617713376,2.37447411682243,2.37440406418674,2.37514462062119,2.37574507178425,2.37478434992335,2.37388367317875,2.37370353782983,2.37008081581267,2.36840956007547,2.36832949992039,2.37485440255904,2.37421392131843,2.37402377845013,2.37919766597188,2.37800677116513,2.38163950070168,2.30368092469703,2.30374096981333,2.30390109012348,2.30317054120842,2.30544224810869,2.30263013516166,2.30276023291366,2.30184954864968,2.30327061640227,2.30207972159552,2.30292035322381,2.30289033066566,2.30294036826258,2.30249002989028
2.2304659128806,2.23151670241596,2.23234732652487,2.23278765737778,2.23339811606023,2.23543965001465,2.23520947706881,2.2357298680768,2.23692076288355,2.23745116141092,2.23833182311675,2.23869209381459,2.23899231939612,2.23967283071426,2.2421546955216,2.24108389094747,2.24150420676161,2.24289525195605,2.24368584598742,2.24797907180333,2.24445642498002,2.24456650769325,2.24965032754053,2.2465880266089,2.2490298613387,2.25028080126175,2.24821925226856,2.24987049296699,2.25079118475036,2.25099133513805,2.25276266606909,2.25108140281251,2.25286274126293,2.25387350072076,2.25637538056686,2.25665559110963,2.25784648591637,2.25774641072253,2.2597579221188,2.26189953126707,2.26275017041474,2.31917256470411,2.32293539199266,2.32445653493909,2.32531718160615,2.325287159048,2.32500694850523,2.32510702369908,2.32410627176063,2.32463667028801,2.32496691842769,2.32608776059875,2.32517707633477,2.32837948253778,2.32301545214773,2.32424637703201,2.32897993370085,2.32310551982219,2.32256511377543,2.32366594090772,2.32259513633359,2.32692839222704,2.32087384299947,2.3228453243182,2.32278527920189,2.3231655649385,2.3248368206757,2.32507700114092,2.32679829447504,2.3285596178867,2.3304210164922,2.32890988106516,2.32973049765468,2.33170197897341,2.33223237750078,2.33000070067806,2.33114155788788,2.33250258052416,2.33279279858631,2.3339536708349,2.33393365579614,2.33330318207492,2.33415382122259,2.33586510703733,2.33627541533209,2.33794667106929,2.34345080673072,2.28480674313801,2.28369590848634,2.28250501367959,2.28325557763342,2.28202465274914,2.28315550243958,2.28427634461063,2.28257506631528,2.28305542724573,2.28374594608326,2.28611772817737,2.28529711158784,2.28341569794357,2.28348575057926,2.28486678825431,2.28394609647095,2.28528710406846,2.28470666794416,2.28687829965058,2.28561735220815,2.28638793120075,2.28544722437861,2.28600764546414,2.28692833724751,2.28747875081365,2.28722856282904,2.28720854779027,2.28863962306224,2.28805918693794,2.28955030732622,2.28873969825609,2.29041095399328,2.2901407509699,2.29076121717174,2.29034090135759,2.29002066073729,2.29091132996251,2.2913616683348,2.29155181120311,2.29445399182459,2.29295286391693,2.2934832624443,2.29371343539014,2.29621531523625,2.29845699957836,2.29856708229159,2.37126170310003,2.37079134968896,2.37018089100651,2.37047110906866,2.37024093612282,2.37066125193696,2.37050113162681,2.36937028193637,2.37013085340959,2.37615538007901,2.37754642527345,2.37642558310239,2.37715613201745,2.37739631248268,2.37429398147351,2.37495447775288,2.37498450031103,2.37570504170671,2.37820692155282,2.37181211666617,2.37751640271529,2.3694803646496,2.36898999619977,2.3696104624016,2.37284289116277,2.37471429728766,2.37607531992394,2.37861722984758,2.37942783891772,2.3797580870574,2.30454157136409,2.30461162399978,2.30432140593763,2.30302042841766,2.30317054120842,2.30327061640227,2.3046616615967,2.30360086454195,2.30544224810869,2.30301042089827,2.30377099237149,2.30416128562748,2.30918506035846
2.23225725885041,2.23128652947012,2.23533957482081,2.23323799575008,2.23355823637038,2.23440887551806,2.23654047714694,2.23953272544288,2.2375912666823,2.23730104862016,2.24009314652841,2.23863204869828,2.2407436352884,2.24047343226502,2.24295529707235,2.24144416164531,2.24328554521204,2.24298531963051,2.2448567257554,2.24502685358493,2.24516695885631,2.2461376882366,2.24543716187969,2.2476188011055,2.24732858304335,2.24945017715284,2.24901985381931,2.2502507787036,2.25041089901375,2.25223226754171,2.25244242544879,2.25244242544879,2.2537834330463,2.25547470382227,2.25585498955888,2.25669562118717,2.25775641824192,2.25854701227328,2.26197959142214,2.26281021553105,2.32530717408676,2.32404622664433,2.32473674548185,2.32257512129482,2.32449656501663,2.32507700114092,2.32511703121846,2.3268283170332,2.32629791850582,2.32558738462953,2.32469671540431,2.32461665524924,2.32647805385474,2.32536721920307,2.32511703121846,2.32573749742029,2.32619784331198,2.32447654997786,2.3225851288142,2.32388610633418,2.32458663269109,2.32594765532737,2.32559739214891,2.32717858021165,2.32750882835134,2.32440649734217,2.32510702369908,2.32449656501663,2.3265681215292,2.32827940734394,2.32899994873962,2.32902997129777,2.33086134734512,2.33260265571801,2.33283282866385,2.33218233990386,2.3319621744774,2.33265269331493,2.33262267075678,2.3335733850983,2.33322312191984,2.34008828021756,2.33425389641644,2.33480430998258,2.3380667613019,2.33983809223294,2.34102898703969,2.33951785161264,2.28430636716879,2.28446648747894,2.2845565551534,2.28644797631705,2.28278522422235,2.28371592352511,2.28444647244017,2.28513699127769,2.28589756275091,2.28524707399092,2.285066938642,2.28342570546296,2.28484677321555,2.28452653259524,2.28563736724692,2.28536716422354,2.28544722437861,2.28618778081306,2.28638793120075,2.2873786756198,2.28668815678228,2.28746874329426,2.28800914934102,2.28738868313919,2.28764887864318,2.28716851771273,2.28848951027148,2.28973044267514,2.29539469864673,2.28884978096931,2.29049101414836,2.2910414277145,2.29041095399328,2.29458408957659,2.29274270600985,2.29084127732681,2.2905910893422,2.29156181872249,2.29320305190154,2.29310297670769,2.29230237515694,2.29510448058458,2.29501441291012,2.29734616492669,2.29987806733095,2.30111899973462,2.30306045849519,2.37017088348713,2.3707012820145,2.37117163542557,2.37287291372092,2.3746242296132,2.37566501162918,2.37460421457443,2.37233250767416,2.37620541767593,2.37525470333441,2.3757750943424,2.3760352898464,2.37466425969073,2.37629548535039,2.37778660573867,2.37628547783101,2.37496448527227,2.37281286860462,2.37261271821693,2.37007080829328,2.3697405601536,2.37016087596774,2.37120165798372,2.37572505674548,2.37777659821929,2.3789274629485,2.37862723736696,2.37880737271588,2.38090895178661,2.30496188717823,2.30486181198439,2.30506196237208,2.30395112772041,2.30513201500777,2.30363088710011,2.30591260151975,2.30442148113148,2.30404119539487,2.30422133074379,2.30269018027797,2.30512200748838
2.23118645427627,2.23241737916056,2.2332279882307,2.23312791303685,2.23474913117713,2.23541963497589,2.23688073280601,2.23820172536475,2.2368206876897,2.23858201110136,2.24014318412533,2.24189450001761,2.24009314652841,2.24139412404839,2.24097380823424,2.24246492862252,2.24204461280837,2.24340563544465,2.24539713180215,2.24461654529017,2.24603761304276,2.24567734234492,2.24635785366306,2.2487096207184,2.24894980118362,2.24933008692023,2.25015070350975,2.24893979366424,2.25178192916942,2.25264257583648,2.25136161335527,2.25416371878291,2.25536462110904,2.25601510986903,2.25659554599332,2.25862707242836,2.26088877180924,2.26170938839876,2.26240991475567,2.26489177956301,2.32139423400745,2.3229053694345,2.32571748238152,2.32507700114092,2.32379603865972,2.32443651990032,2.32494690338892,2.32517707633477,2.32512703873784,2.32636797114151,2.32629791850582,2.32507700114092,2.32464667780739,2.32458663269109,2.32414630183817,2.32487685075323,2.3292000991273,2.32574750493968,2.32454660261355,2.32359588827203,2.32725864036673,2.3263779786609,2.32544727935815,2.32612779067629,2.32473674548185,2.32695841478519,2.32644803129659,2.32645803881597,2.32750882835134,2.32840950509593,2.32921010664669,2.33470423478874,2.3304210164922,2.33159189626018,2.33128166315926,2.33199219703556,2.33319309936169,2.33350333246261,2.33333320463307,2.33459415207551,2.33370348285029,2.33777654323975,2.33934772378311,2.33747631765822,2.33850709215482,2.33966796440341,2.34045855843478,2.34637300239097,2.34335073153688,2.28589756275091,2.2841662618974,2.28466663786663,2.28417626941679,2.28452653259524,2.28478672809924,2.28513699127769,2.28456656267278,2.28546723941738,2.28552728453369,2.28557732213061,2.28706844251889,2.28655805903028,2.28486678825431,2.2853871792623,2.28527709654908,2.28587754771214,2.28669816430166,2.28764887864318,2.28709846507704,2.28833939748071,2.28785903655026,2.28759884104626,2.28792908918595,2.28924007422531,2.28986054042714,2.29048100662897,2.28997062314037,2.28893984864377,2.28997062314037,2.29018078104744,2.29276272104862,2.29315301430462,2.2908512848462,2.29256257066094,2.29201215709479,2.29509447306519,2.29445399182459,2.29337317973107,2.29439394670828,2.29464413469289,2.29558484151503,2.29741621756238,2.2981767890356,2.29857708981097,2.300998909502,2.37061121434004,2.37062122185943,2.3717320565111,2.37523468829565,2.37541482364456,2.37657569589316,2.37844710201805,2.37640556806362,2.37792671101005,2.37676583876146,2.37775658318052,2.37728622976945,2.37629548535039,2.37672580868392,2.37733626736637,2.37441407170612,2.37443408674489,2.37796674108759,2.37466425969073,2.37158194372033,2.3745541769775,2.37086140232465,2.38121918488753,2.37928773364634,2.37978810961556,2.37925771108818,2.37972806449925,2.37839706442112,2.38448163620685,2.3850920948893,2.30563239097699,2.30444149617024,2.30457159392224,2.30508197741085,2.3056924360933,2.30555233082191,2.30641297748897,2.30520206764346,2.30420131570502,2.30465165407732,2.30593261655852
2.23311790551747,2.23242738667994,2.23365831156423,2.23487922892913,2.23538961241773,2.23658050722448,2.23770134939553,2.23767132683738,2.23722098846508,2.23827177800045,2.23950270288473,2.24040337962933,2.24026327435795,2.24139412404839,2.24216470304099,2.24236485342867,2.24315544746004,2.24456650769325,2.24390601141388,2.24539713180215,2.2458174476163,2.2474887033535,2.24701834994243,2.24790901916764,2.25050096668821,2.24885973350916,2.24966033505992,2.24974039521499,2.25097132009928,2.25195205699895,2.25315295932508,2.25540465118658,2.25533459855088,2.25570487676811,2.25710592948193,2.25928756870773,2.26043843343694,2.261168982352,2.26340065917473,2.26519200514454,2.32175450470529,2.32256511377543,2.32283531679881,2.32384607625664,2.3240662416831,2.32330567020988,2.32567745230399,2.3229053694345,2.32447654997786,2.32474675300124,2.32619784331198,2.32546729439691,2.32596767036614,2.32423636951263,2.32442651238093,2.32757888098703,2.32573749742029,2.32599769292429,2.32514705377661,2.32600770044367,2.3262478809089,2.32435645974524,2.32972049013529,2.32622786587013,2.3256073996683,2.32628791098644,2.32689836966889,2.32762891858395,2.32831943742147,2.32846955021224,2.32969046757714,2.33341326478815,2.33206224967125,2.33064118191866,2.33242252036909,2.33271273843124,2.336975941689,2.33560491153333,2.33783658835606,2.33470423478874,2.3374262800613,2.33740626502253,2.33701597176654,2.33782658083668,2.33785660339483,2.33947782153511,2.33948782905449,2.3406987389,2.34055863362862,2.34170949835783,2.34510204742915,2.28555730709184,2.2855172770143,2.28674820189859,2.28543721685923,2.28603766802229,2.28448650251771,2.28496686344816,2.28540719430107,2.28494684840939,2.28784902903087,2.28547724693676,2.28655805903028,2.28779899143395,2.28793909670533,2.28720854779027,2.28767890120134,2.28669816430166,2.2871885327515,2.28861960802347,2.28810922453487,2.28752878841057,2.28789906662779,2.28820929972871,2.29155181120311,2.29152178864496,2.29000064569852,2.29089131492374,2.28997062314037,2.29093134500127,2.2913016232185,2.2914917660868,2.29214225484679,2.29293284887816,2.29290282632001,2.29375346546768,2.2939336008166,2.29379349554522,2.29625534531379,2.29411373616552,2.29567490918949,2.29539469864673,2.29745624763992,2.29857708981097,2.30034842074202,2.30190959376599,2.37226245503847,2.37236253023232,2.37441407170612,2.37549488379964,2.37547486876087,2.37675583124208,2.37714612449807,2.37739631248268,2.3774463500796,2.37735628240514,2.37720616961438,2.37656568837377,2.37646561317993,2.37621542519532,2.37546486124149,2.37588517705563,2.37690594403284,2.37759646287037,2.37535477852826,2.37796674108759,2.38052866605,2.38206982403521,2.38221993682597,2.37993822240632,2.38208983907397,2.38111910969369,2.38030850062355,2.38160947814352,2.38333077147764,2.38195974132198,2.38498201217607,2.38206982403521,2.3067832557062,2.30581252632591,2.30883479718001,2.30558235338007,2.30580251880653,2.30514202252715,2.39114664411688,2.30525210524038
2.23307787543993,2.23469909358021,2.23453897327006,2.23931256001643,2.23565981544111,2.23596004102264,2.23825176296168,2.23820172536475,2.23850195094629,2.23866207125644,2.23899231939612,2.24011316156718,2.24071361273024,2.24098381575362,2.24173437970746,2.24483671071663,2.24368584598742,2.24375589862311,2.24433633474741,2.24603761304276,2.24685822963228,2.2469082672292,2.24759878606673,2.24757877102796,2.24897982374178,2.24982045537007,2.24940013955592,2.25140164343281,2.25210216978972,2.25284272622416,2.25360329769738,2.25427380149614,2.25569486924872,2.25570487676811,2.25752624529607,2.25855701979267,2.25980795971572,2.26205965157722,2.26353075692673,2.32147429416253,2.32050356478224,2.32230491827144,2.3234858055588,2.32375600858218,2.32279528672127,2.32352583563634,2.32575751245906,2.32252508369789,2.32673824935874,2.32394615145048,2.33404373850936,2.32888986602639,2.32542726431938,2.33007075331375,2.32973049765468,2.32986059540668,2.32927015176299,2.32679829447504,2.32617782827321,2.3273387005218,2.32576751997845,2.32613779819567,2.32590762524983,2.32667820424243,2.32789912160733,2.32677827943627,2.32722861780857,2.32858964044485,2.32953034726699,2.33194215943864,2.32975051269345,2.3308113097482,2.33071123455435,2.33271273843124,2.33271273843124,2.33352334750137,2.33413380618382,2.33718609959607,2.33666570858808,2.34021837796955,2.33829693424774,2.33790664099175,2.33798670114683,2.33764644548776,2.33824689665082,2.33817684401513,2.33971800200033,2.34099896448154,2.34522213766176,2.34593267153806,2.34747382952326,2.28625783344875,2.34914508526046,2.35192717564933,2.28507694616139,2.28526708902969,2.28647799887521,2.28722856282904,2.28547724693676,2.29133164577665,2.28568740484384,2.2864179537589,2.28751878089119,2.29154180368372,2.28979048779145,2.28771893127887,2.28769891624011,2.28779899143395,2.2876388711238,2.2878290139921,2.28934014941915,2.28891983360501,2.28861960802347,2.28920004414777,2.2887296907367,2.29003066825668,2.29091132996251,2.2904009464739,2.29199214205602,2.29177197662957,2.29157182624188,2.29186204430403,2.29243247290894,2.29330312709538,2.2927126834517,2.29279274360678,2.29352329252184,2.29452404446028,2.2939336008166,2.29653555585655,2.29581501446087,2.29649552577901,2.29674571376362,2.30148927795184,2.29818679655498,2.30168942833953,2.37533476348949,2.37669578612577,2.37731625232761,2.37643559062178,2.37609533496271,2.3769960117073,2.37747637263776,2.37772656062237,2.37865725992512,2.37741632752145,2.37777659821929,2.37797674860698,2.37827697418851,2.37814687643651,2.37704604930423,2.37743634256022,2.37669578612577,2.37665575604823,2.38201978643828,2.37579510938117,2.38448163620685,2.38108908713553,2.38498201217607,2.38621293706036,2.38324070380318,2.38670330551019,2.38243009473304,2.39177711783809,2.38405131287332,2.38636304985112,2.38362098953979,2.38818441837909,2.39253768931131,2.3064630150859,2.38802429806894,2.39334829838145,2.38702354613049,2.38678336566527,2.38778411760371,2.38349089178779
2.23339811606023,2.23416869505283,2.2346390484639,2.23575989063496,2.23656049218571,2.23657049970509,2.2370808831937,2.2384318983106,2.23824175544229,2.23953272544288,2.2402932969161,2.24163430451361,2.24259502637452,2.24198456769207,2.24295529707235,2.24285522187851,2.24556725963169,2.24430631218925,2.24591752281014,2.24561729722861,2.24633783862429,2.24766883870242,2.24797907180333,2.2496703425793,2.25009065839345,2.24985047792822,2.25101135017681,2.2516618389368,2.25343316986784,2.25633535048933,2.25443392180629,2.25552474141919,2.25797658366837,2.25786650095514,2.25860705738959,2.26207966661599,2.26196958390276,2.2631604787095,2.32908000889469,2.33015081346882,2.32133418889115,2.32265518144989,2.32378603114033,2.32411627928002,2.32612779067629,2.32324562509357,2.33170197897341,2.33061115936051,2.33009076835252,2.33095141501958,2.32961040742207,2.32763892610333,2.32919009160792,2.32747880579318,2.32824938478578,2.32808926447563,2.3273387005218,2.32768896370026,2.32943027207315,2.32616782075382,2.32752884339011,2.32730867796365,2.32667820424243,2.32739874563811,2.32902997129777,2.32710852757596,2.32947030215068,2.3285596178867,2.32916006904977,2.3296504374996,2.33151183610511,2.33074125711251,2.33165194137649,2.33535472354872,2.33520461075796,2.33494441525396,2.33541476866503,2.33769648308468,2.33653561083609,2.3387772951782,2.34070874641939,2.33924764858926,2.34043854339601,2.34012831029509,2.34343079169195,2.34736374681003,2.3417295133966,2.34780407766294,2.34569249107283,2.3437210097541,2.34532221285561,2.34702349115096,2.34794418293433,2.35043605526105,2.35185712301364,2.28755881096872,2.28936016445792,2.28681825453428,2.28755881096872,2.28690832220874,2.28697837484443,2.28734865306165,2.28754880344934,2.28956031484561,2.2884094501164,2.28712848763519,2.28752878841057,2.2879591117441,2.28770892375949,2.28778898391457,2.28837942755825,2.2889898862407,2.29087129988497,2.28984052538837,2.28939018701607,2.29069116453605,2.28954029980684,2.28987054794653,2.29105143523389,2.29217227740494,2.29274270600985,2.29168190895511,2.2938035030646,2.29495436779381,2.29636542802701,2.29443397678582,2.29312299174646,2.29427385647567,2.29462411965413,2.29572494678641,2.29606520244548,2.29649552577901,2.29743623260115,2.29787656345406,2.2983669319039,2.29969793198203,2.30053856361032,2.3029303607432,2.37724619969191,2.37555492891595,2.37568502666794,2.37754642527345,2.37772656062237,2.37758645535098,2.37967802690233,2.37804680124267,2.37791670349067,2.37812686139774,2.37877735015773,2.3854123355096,2.37735628240514,2.37690594403284,2.38016839535217,2.37888743287096,2.37580511690056,2.37600526728825,2.38330074891949,2.38357095194287,2.38532226783514,2.38557245581975,2.38588268892067,2.38555244078098,2.38605281675021,2.38293047070227,2.38334077899703,2.38494198209853,2.38649314760312,2.38794423791386,2.38796425295263,2.38398126023763,2.38702354613049,2.39182715543502,2.38864476427077,2.38851466651877,2.38746387698341,2.3861228693859
2.2329677927267,2.23417870257222,2.23561978536357,2.23565981544111,2.23488923644851,2.23546967257281,2.23928253745827,2.23794152986076,2.23911240962874,2.24274513916528,2.2403533420324,2.24194453761453,2.24332557528958,2.24259502637452,2.2427951767622,2.24545717691846,2.24575740249999,2.24529705660831,2.24628780102737,2.24723851536889,2.24727854544643,2.2476788462218,2.24822925978795,2.25017071854852,2.25043091405252,2.25159178630111,2.25169186149496,2.25341315482908,2.25322301196077,2.25372338792999,2.25695581669116,2.25634535800871,2.2575062302573,2.25990803490957,2.26046845599509,2.26272014785659,2.26365084715934,2.3263779786609,2.32748881331257,2.32903997881715,2.32964042998022,2.32764893362272,2.32922011416607,2.32586759517229,2.33259264819862,2.33356337757891,2.33314306176477,2.33110152781034,2.33166194889587,2.32988061044544,2.3285596178867,2.32821936222763,2.32830942990209,2.32820935470825,2.32867970811931,2.32895991866208,2.32664818168428,2.32837948253778,2.32915006153038,2.32639799369967,2.3267582643975,2.32916006904977,2.3266982192812,2.32707850501781,2.32907000137531,2.32958038486391,2.32961040742207,2.33337323471061,2.33050107664728,2.33204223463248,2.33150182858572,2.33213230230694,2.33370348285029,2.33578504688225,2.33635547548717,2.33612530254132,2.33706600936346,2.33672575370439,2.33848707711605,2.33934772378311,2.34001822758186,2.34034847572155,2.34010829525632,2.34111905471415,2.34248007735043,2.34670325053066,2.34416134060701,2.34501197975469,2.34649309262359,2.34379106238979,2.34447157370793,2.3466131828562,2.34776404758541,2.34874478448508,2.34996570184998,2.35410881487513,2.28781900647272,2.28787905158903,2.28714850267396,2.28690832220874,2.28789906662779,2.28857957794594,2.28920004414777,2.28990057050468,2.28838943507763,2.28818928468994,2.28834940500009,2.28856957042655,2.28971042763638,2.28886979600808,2.28890982608562,2.28958032988438,2.29004067577606,2.29131163073788,2.28913999903146,2.28939018701607,2.28988055546591,2.2913016232185,2.29265263833539,2.29176196911018,2.29216226988556,2.2925825856997,2.29411373616552,2.29462411965413,2.29449402190213,2.29417378128183,2.29533465353042,2.29574496182518,2.29585504453841,2.29449402190213,2.29581501446087,2.29793660857037,2.29597513477102,2.29757633787253,2.29879725523743,2.29997814252479,2.30051854857155,2.30220981934752,2.30462163151916,2.30659311283789,2.37630549286978,2.37557494395472,2.37726621473068,2.37795673356821,2.37878735767712,2.37922768853003,2.37934777876264,2.37980812465433,2.38443159860993,2.38079886907338,2.38499201969546,2.3782169290722,2.37876734263835,2.37996824496448,2.37895748550665,2.38292046318288,2.38587268140129,2.38564250845544,2.38666327543265,2.38542234302899,2.38625296713789,2.38684341078157,2.38503204977299,2.38429149333855,2.38394123016009,2.38548238814529,2.38958547109291,2.38705356868865,2.38702354613049,2.3872136889988,2.38964551620921,2.3884346063637,2.38787418527817,2.38622294457974,2.3899757643489,2.38560247837791
2.23298780776547,2.23445891311498,2.2363103042011,2.23657049970509,2.23627027412356,2.23713092079062,2.23859201862075,2.23839186823306,2.23910240210935,2.23948268784596,2.24101383831178,2.24115394358316,2.24126402629639,2.24198456769207,2.24454649265448,2.24371586854557,2.24468659792586,2.24616771079475,2.24692828226797,2.24670811684151,2.24814919963287,2.24796906428395,2.24947019219161,2.25106138777374,2.25195205699895,2.2531429518057,2.25215220738664,2.25416371878291,2.25406364358906,2.2562853128924,2.2551944932795,2.25688576405547,2.25874716266097,2.25998809506464,2.2608487417317,2.26258004258521,2.33540476114565,2.33524464083549,2.32963042246083,2.33041100897282,2.32760890354518,2.33259264819862,2.33106149773281,2.33263267827616,2.33226240005894,2.3311915954848,2.33249257300478,2.33279279858631,2.33040100145343,2.33029091874021,2.33008076083313,2.3297805352516,2.32917007656915,2.33103147517465,2.33128166315926,2.32917007656915,2.32811928703379,2.32813930207256,2.32890988106516,2.32790912912671,2.32884983594885,2.32925013672423,2.329140054011,2.3282393772664,2.33079129470943,2.33095141501958,2.32995066308114,2.33020085106575,2.33600521230871,2.3362053626964,2.3328028061057,2.33300295649338,2.33372349788906,2.33460415959489,2.33590513711487,2.33619535517701,2.33770649060406,2.33586510703733,2.33930769370557,2.34051860355109,2.34032846068278,2.34062868626431,2.3440412503744,2.34365095711841,2.3432106262655,2.34520212262299,2.34387112254487,2.34484185192516,2.34530219781684,2.3462929422359,2.34929519805122,2.3498255965786,2.34780407766294,2.34845456642293,2.35002574696629,2.35462920588312,2.35524967208495,2.3563104691397,2.3631856349568,2.28876972081424,2.36337577782511,2.28832938996132,2.28838943507763,2.28869966817855,2.28832938996132,2.28876972081424,2.28887980352747,2.28862961554286,2.28953029228745,2.28999063817914,2.28913999903146,2.28970042011699,2.29033089383821,2.29022081112498,2.29444398430521,2.2914317209705,2.29056106678405,2.29137167585419,2.29185203678464,2.29240245035078,2.29283277368431,2.29244248042832,2.29368341283199,2.29440395422767,2.29513450314273,2.2939336008166,2.29395361585537,2.29490433019689,2.29557483399565,2.29600515732918,2.29597513477102,2.29725609725223,2.29742622508176,2.29678574384116,2.3000381876411,2.29918754849342,2.29975797709833,2.30089883430816,2.3049218571007,2.30358084950318,2.37637554550547,2.37602528232701,2.37711610193992,2.37741632752145,2.37837704938235,2.37858720728943,2.37922768853003,2.38043859837554,2.38245010977181,2.38281038046965,2.3823300195392,2.38191971124444,2.3802084254297,2.38272031279519,2.37880737271588,2.39564002032048,2.3945391931882,2.38886492969723,2.38575259116867,2.3907463433415,2.38621293706036,2.38551241070345,2.38767403489048,2.39239758403993,2.39194724566763,2.38896500489107,2.39590021582448,2.39219743365224,2.39091647117103,2.38943535830214,2.39214739605532,2.38707358372742,2.39146688473718,2.39219743365224,2.38867478682892,2.39201729830332
2.23523949962697,2.23596004102264,2.23558976280542,2.23674062753463,2.23751120652723,2.23840187575244,2.23884220660536,2.24022324428041,2.24005311645087,2.24034333451302,2.24037335707117,2.2424749361419,2.2431854700182,2.24393603397203,2.2439560490108,2.24512692877877,2.24564731978676,2.24602760552337,2.2472285078495,2.24743866575658,2.24862956056332,2.24963031250176,2.25000059071899,2.253202996922,2.25340314730969,2.25254250064263,2.25263256831709,2.25514445568258,2.2545540120389,2.2556448316518,2.25604513242718,2.25899735064558,2.2593075837465,2.26068862142155,2.2616193207243,2.32988061044544,2.33326315199738,2.33238249029155,2.3306812119962,2.3280492343981,2.3305511142442,2.33028091122082,2.33121161052357,2.3316419338571,2.33146179850818,2.33079129470943,2.33103147517465,2.33221236246202,2.33225239253955,2.33022086610451,2.33143177595003,2.32958038486391,2.32988061044544,2.33014080594944,2.32897993370085,2.32913004649161,2.33060115184112,2.32792914416548,2.32829942238271,2.32847955773163,2.32961040742207,2.33019084354636,2.32995066308114,2.33001070819744,2.32949031718945,2.32961040742207,2.33022086610451,2.33188211432233,2.33253260308232,2.33252259556293,2.33490438517642,2.33332319711369,2.33460415959489,2.33539475362626,2.33614531758009,2.33655562587485,2.33701597176654,2.34059866370616,2.33907752075973,2.34002823510125,2.34064870130308,2.34098895696215,2.34213982169136,2.34377104735102,2.3440412503744,2.34500197223531,2.34529219029745,2.34511205494853,2.34476179177008,2.34637300239097,2.34801423557002,2.35150685983518,2.34859467169431,2.35373853665791,2.35605027363571,2.35254764185116,2.35592017588371,2.36125418371561,2.35872228131135,2.36191467999498,2.36081385286269,2.36215486046021,2.36572754488044,2.36628796596597,2.36800925930009,2.28948025469053,2.36741881565641,2.36854966534685,2.36695846976473,2.37080135720835,2.37163198131725,2.37103153015419,2.37207231217017,2.36572754488044,2.36667825922196,2.36823943224593,2.29248251050586,2.29215226236617,2.29291283383939,2.29259259321909,2.29260260073847,2.29367340531261,2.29415376624306,2.29493435275504,2.29426384895629,2.29507445802643,2.2948342775612,2.2948342775612,2.29591508965472,2.29542472120488,2.29671569120547,2.29708596942269,2.29763638298884,2.29762637546945,2.2993977064005,2.2988172702762,2.29949778159434,2.2995878492688,2.30105895461831,2.30220981934752,2.30400116531733,2.30406121043364,2.37803679372328,2.37786666589375,2.37823694411097,2.3789875080648,2.38010835023586,2.38171956085675,2.38232001201982,2.38182964356998,2.38175959093429,2.38223995186474,2.38340082411333,2.38394123016009,2.38147938039152,2.39262775698577,2.39233753892362,2.3899757643489,2.39140683962087,2.38905507256553,2.39024596737228,2.38902505000738,2.38665326791327,2.39015589969782,2.39154694489225,2.39342835853652,2.39570006543679,2.39240759155931,2.3897155688449,2.39226748628793,2.3902960049692,2.39128674938826,2.39313814047438,2.39229750884608,2.39294799760607,2.38829450109232
2.23473912365774,2.23543965001465,2.23626026660418,2.2368907403254,2.24020322924164,2.2387521389309,2.23845191334936,2.23854198102382,2.2395227179235,2.24143415412592,2.24059352249763,2.24212467296345,2.24373588358434,2.24501684606555,2.24516695885631,2.24659803412828,2.24563731226738,2.24697831986489,2.24865958312148,2.24819923722979,2.24867959816024,2.2495402448273,2.25000059071899,2.25133159079712,2.25231232769679,2.25234235025494,2.25326304203831,2.25544468126411,2.25701586180747,2.25638538808625,2.25806665134283,2.25896732808743,2.32808926447563,2.32740875315749,2.33193215191925,2.32932018935992,2.33130167819803,2.33287285874139,2.33289287378016,2.33160190377956,2.33044103153097,2.33028091122082,2.33076127215127,2.33172199401218,2.3319021293611,2.33327315951676,2.33040100145343,2.3319621744774,2.33245254292724,2.33032094129836,2.3311315503685,2.33089136990327,2.33143177595003,2.33030092625959,2.33057112928297,2.33258264067924,2.33452409943982,2.32821936222763,2.32816932463071,2.32866970059993,2.32929016680176,2.32986059540668,2.32957037734453,2.33031093377897,2.3310014526165,2.33415382122259,2.3333131895943,2.33673576122377,2.33247255796601,2.332862851222,2.33565494913026,2.33584509199856,2.33808677634067,2.33624539277394,2.33641552060347,2.33685585145639,2.33853711471297,2.33927767114742,2.33976803959725,2.34154937804768,2.34270024277689,2.34125915998553,2.34290039316458,2.34350084432764,2.34644305502666,2.34610279936759,2.3481543408414,2.34891491231462,2.34724365657742,2.34973552890414,2.34928519053184,2.35720113836492,2.35349835619268,2.35492943146465,2.35455915324743,2.3572111458843,2.35783161208614,2.35763146169845,2.35852213092366,2.35992318363748,2.36238503340605,2.36140429650637,2.36349586805772,2.36397622898817,2.36815937209086,2.36467675534508,2.36539729674076,2.36657818402812,2.36711859007488,2.36815937209086,2.36860971046316,2.37135177077449,2.37204228961201,2.37330323705445,2.37474431984581,2.37068126697573,2.37768653054483,2.37470428976827,2.37581512441994,2.37682588387777,2.29443397678582,2.37722618465315,2.29476422492551,2.29598514229041,2.29490433019689,2.29413375120429,2.29378348802583,2.29574496182518,2.29507445802643,2.29577498438333,2.29615527011994,2.29660560849224,2.29777648826022,2.2983669319039,2.29828687174882,2.29918754849342,2.29872720260174,2.30057859368786,2.30503193981392,2.30213976671183,2.30198965392106,2.30431139841825,2.37606531240455,2.37759646287037,2.37865725992512,2.3802084254297,2.3794378464371,2.38041858333678,2.38071880891831,2.38170955333737,2.38111910969369,2.38292046318288,2.38158946310475,2.38268028271766,2.38455168884254,2.39242760659808,2.39150691481472,2.39188720055132,2.39466929094019,2.39017591473659,2.38928524551137,2.38850465899939,2.38930526055014,2.38834453868924,2.39122670427195,2.39311812543561,2.39190721559009,2.39415890745159,2.39471932853712,2.39259773442762,2.39277786977654,2.39259773442762,2.39126673434949,2.39130676442703,2.39152692985348,2.39128674938826
2.23581993575126,2.23746116893031,2.23691075536416,2.23841188327183,2.23791150730261,2.23837185319429,2.23932256753581,2.24140413156777,2.24025326683856,2.24283520683974,2.24428629715048,2.24424626707295,2.24441639490248,2.24589750777137,2.24640789125998,2.24794904924518,2.24806913947779,2.24781895149318,2.24946018467223,2.25101135017681,2.24926003428454,2.25023076366483,2.25143166599096,2.25388350824014,2.25338313227092,2.25351323002292,2.25408365862783,2.25482421506228,2.25709592196254,2.25786650095514,2.33942778393818,2.33416382874198,2.33966796440341,2.33734621990622,2.33561491905272,2.33231243765586,2.33283282866385,2.33057112928297,2.33084133230635,2.33079129470943,2.33306300160969,2.33572500176595,2.33248256548539,2.3319021293611,2.33134170827557,2.33174200905095,2.33213230230694,2.33115156540727,2.33112154284911,2.33107150525219,2.33118158796542,2.33242252036909,2.33048106160851,2.32953034726699,2.33219234742325,2.33110152781034,2.33322312191984,2.32671823431997,2.32794915920425,2.32998068563929,2.33430393401336,2.33123162556234,2.33146179850818,2.33111153532973,2.33307300912908,2.33255261812109,2.3326727083537,2.33351333998199,2.3343439640909,2.33446405432351,2.33559490401395,2.33682582889823,2.33727616727053,2.33720611463484,2.3367857988207,2.33991815238802,2.34260016758304,2.34341077665318,2.34137925021815,2.34169949083845,2.34333071649811,2.34366096463779,2.34371100223472,2.34416134060701,2.34541228053007,2.34551235572391,2.34682334076327,2.34888488975646,2.34831446115155,2.34876479952385,2.3533582509213,2.35183710797487,2.35663070976,2.35763146169845,2.35563996534095,2.35768149929537,2.35810181510951,2.35976306332733,2.3602334167384,2.35926268735811,2.36066374007193,2.36090392053715,2.36220489805713,2.36336577030572,2.36386614627494,2.36290542441404,2.36442656736047,2.36631798852413,2.37068126697573,2.36771904123794,2.37100150759603,2.3698706579056,2.37099150007665,2.37149187604587,2.37211234224771,2.37442407922551,2.37231249263539,2.37188216930186,2.37376358294614,2.37277283852708,2.37318314682184,2.29647551074024,2.29725609725223,2.2957949994221,2.2949643753132,2.29554481143749,2.29744624012053,2.29572494678641,2.29709597694208,2.29632539794948,2.29654556337593,2.29640545810455,2.29735617244607,2.29811674391929,2.29957784174941,2.29847701461713,2.29928762368727,2.29940771391988,2.30187957120783,2.30021832299002,2.3047917593487,2.30385105252656,2.30442148113148,2.30686331586127,2.37926771860757,2.380918959306,2.38007832767771,2.37973807201863,2.38041858333678,2.38032851566232,2.38083889915092,2.38143935031399,2.38148938791091,2.38258020752381,2.39256771186946,2.39492948644419,2.39219743365224,2.392867937451,2.39200729078394,2.39203731334209,2.39387869690882,2.39481940373096,2.39463926838204,2.39009585458151,2.39140683962087,2.39211737349717,2.39311812543561,2.39387869690882,2.39285792993161,2.39246763667562,2.39336831342022,2.39142685465964,2.39216741109409,2.39122670427195,2.39163701256671,2.39293799008669
2.23660052226325,2.23706086815493,2.23834183063614,2.23742113885277,2.23889224420228,2.2379815599383,2.24218471807975,2.23988298862134,2.24107388342808,2.24161428947484,2.2436358083905,2.24309540234374,2.24592753032953,2.24561729722861,2.24589750777137,2.24806913947779,2.24712843265566,2.24936010947838,2.24778892893503,2.24926003428454,2.253202996922,2.25037086893621,2.25216221490602,2.25361330521676,2.25295280893739,2.25396356839522,2.25488426017859,2.33822688161205,2.33829693424774,2.33706600936346,2.33412379866444,2.33970799448095,2.33470423478874,2.33996818998494,2.3315818887408,2.33337323471061,2.32970047509653,2.33093139998081,2.33217233238448,2.33439400168782,2.3344040092072,2.33452409943982,2.33426390393582,2.33413380618382,2.33268271587308,2.33163192633772,2.33290288129954,2.33186209928356,2.33192214439987,2.33288286626077,2.33143177595003,2.33355337005953,2.32742876819626,2.32769897121964,2.32957037734453,2.33025088866267,2.33366345277276,2.33378354300537,2.32816932463071,2.33018083602698,2.3314517909888,2.33171198649279,2.33212229478756,2.33161191129895,2.33225239253955,2.33292289633831,2.33294291137708,2.33316307680353,2.3349844453315,2.33592515215364,2.33624539277394,2.33663568602993,2.33696593416962,2.33759640789083,2.33739625750315,2.33805675378252,2.33911755083727,2.3407687915357,2.34156939308645,2.34183959610983,2.34419136316517,2.34368097967656,2.34536224293315,2.34733372425188,2.34589264146052,2.34695343851527,2.34772401750787,2.34909504766354,2.35092642371088,2.35154688991272,2.35202725084317,2.3538085892936,2.35340828851822,2.35711107069046,2.35603025859694,2.35879233394704,2.35796170983813,2.35784161960552,2.35867224371443,2.36058367991685,2.35951287534272,2.36071377766885,2.36245508604174,2.36365598836787,2.36813935705209,2.37129172565818,2.36571753736106,2.3678091089124,2.36797923674194,2.37152189860402,2.37228247007724,2.37169202643356,2.37808683132021,2.37844710201805,2.37351339496152,2.37630549286978,2.37664574852885,2.37240256030985,2.37345334984522,2.3717320565111,2.37145184596833,2.37188216930186,2.37369353031044,2.29487430763874,2.29567490918949,2.29526460089473,2.29622532275563,2.29645549570147,2.29728611981038,2.29627536035256,2.29788657097345,2.29874721764051,2.29688581903501,2.29731614236854,2.29828687174882,2.29924759360973,2.30119905988969,2.30283028554935,2.30142923283553,2.30077874407554,2.30378099989087,2.30348077430934,2.30306045849519,2.30594262407791,2.30913502276154,2.30642298500836,2.38073882395708,2.3782169290722,2.380788861554,2.3800182825614,2.38000827504201,2.38049864349185,2.38096899690292,2.38137930519768,2.39141684714026,2.39207734341963,2.39186718551256,2.39142685465964,2.3930580803193,2.39107659148119,2.39127674186887,2.39152692985348,2.39360849388544,2.39390871946698,2.39038607264366,2.39166703512487,2.39190721559009,2.39154694489225,2.39165702760548,2.39204732086147,2.39230751636547,2.39220744117163,2.39304807279992,2.39194724566763,2.39312813295499,2.39425898264543
2.23596004102264,2.23685071024786,2.23829179303921,2.24306537978558,2.24028328939671,2.23973287583057,2.23957275552042,2.24295529707235,2.2435657557548,2.24332557528958,2.24420623699541,2.24289525195605,2.24462655280955,2.24605762808153,2.24602760552337,2.24807914699718,2.24819923722979,2.24969035761807,2.25350322250354,2.25082120730851,2.2516618389368,2.25140164343281,2.25259253823955,2.34115908479169,2.25400359847276,2.34445155866916,2.33629543037086,2.33546480626195,2.33593515967302,2.33566495664964,2.33444403928474,2.3363955055647,2.33348331742384,2.33452409943982,2.33277278354754,2.33211228726817,2.33451409192043,2.33249257300478,2.33251258804355,2.33309302416784,2.33388361819921,2.33369347533091,2.33506450548658,2.33483433254073,2.33310303168723,2.33168196393464,2.33128166315926,2.33205224215186,2.33174200905095,2.33401371595121,2.33736623494499,2.32785909152979,2.33589512959548,2.33464418967243,2.33020085106575,2.33227240757832,2.33310303168723,2.33281281362508,2.33382357308291,2.33015081346882,2.33135171579495,2.3314517909888,2.33166194889587,2.33277278354754,2.33285284370262,2.33350333246261,2.33339324974938,2.33359340013707,2.33516458068042,2.33611529502194,2.33617534013825,2.33712605447977,2.3401883554114,2.3387072425425,2.33901747564342,2.33959791176772,2.34089888928769,2.3415994156446,2.34243003975351,2.34334072401749,2.34422138572332,2.34480182184762,2.34569249107283,2.34670325053066,2.34788413781802,2.34719361898049,2.34878481456262,2.35038601766413,2.35138676960257,2.35246758169608,2.35294794262654,2.35328819828561,2.35427894270467,2.35516961192988,2.35705102557415,2.35812183014828,2.3611941385993,2.36084387542085,2.36045358216485,2.36033349193224,2.36123416867684,2.36756892844718,2.36450662751554,2.37086140232465,2.36767901116041,2.36842957511424,2.3710215226348,2.36926019922315,2.37826696666913,2.37000075565759,2.37594522217194,2.37839706442112,2.37617539511778,2.37617539511778,2.37469428224889,2.37399375589198,2.37472430480704,2.37184213922433,2.37074131209204,2.3720522971314,2.37053115418497,2.37227246255786,2.37418389876028,2.29513450314273,2.29459409709597,2.29652554833717,2.2961852926781,2.29680575887993,2.29708596942269,2.29753630779499,2.29844699205898,2.29842697702021,2.29831689430698,2.29841696950082,2.29921757105158,2.30043848841648,2.30128912756415,2.300998909502,2.30019830795125,2.30145925539369,2.30043848841648,2.30193961632414,2.30214977423121,2.30425135330194,2.30636293989205,2.30610274438806,2.30654307524097,2.30918506035846,2.30960537617261,2.37899751558419,2.3793077486851,2.38086892170907,2.3803385231817,2.38135929015891,2.39131677194641,2.39161699752794,2.39102655388426,2.39131677194641,2.39011586962028,2.39052617791504,2.39201729830332,2.39105657644242,2.39058622303135,2.39300804272238,2.3925476968307,2.39079638093842,2.39127674186887,2.39144686969841,2.39137681706272,2.39195725318701,2.39316816303253,2.39291797504792,2.39265777954392,2.39296801264484,2.39267779458269,2.39347839613345
2.23702083807739,2.23777140203122,2.23959277055919,2.23938261265212,2.23966282319488,2.24097380823424,2.24245492110313,2.24112392102501,2.24298531963051,2.24246492862252,2.24506688366247,2.24571737242246,2.24503686110431,2.24649795893444,2.24697831986489,2.24841940265625,2.24884972598978,2.25061104940144,2.25075115467282,2.2507011170759,2.25112143289004,2.25294280141801,2.33855712975174,2.33823688913144,2.33902748316281,2.34032846068278,2.34151935548953,2.33455412199797,2.33346330238507,2.34039851331847,2.3355648814558,2.33386360316044,2.34014832533386,2.33375352044722,2.33669573114624,2.33208226471002,2.33385359564106,2.33736623494499,2.33422387385828,2.33282282114446,2.33346330238507,2.33323312943923,2.33319309936169,2.3347943024632,2.33380355804414,2.33388361819921,2.33338324222999,2.3339536708349,2.33291288881892,2.33410378362567,2.33346330238507,2.33374351292783,2.33433395657151,2.33597518975056,2.33195216695802,2.33294291137708,2.3314517909888,2.33247255796601,2.3326727083537,2.33320310688107,2.33343327982691,2.33464418967243,2.33677579130131,2.33277278354754,2.33269272339247,2.33438399416843,2.33627541533209,2.33462417463366,2.33654561835547,2.33598519726994,2.33743628758068,2.33760641541022,2.3399982125431,2.34041852835724,2.3397380170391,2.34077879905508,2.34652311518174,2.34211980665259,2.3427602878932,2.34345080673072,2.34474177673131,2.34576254370852,2.34598270913498,2.34631295727467,2.34711355882542,2.34787413029864,2.35011581464075,2.35087638611396,2.35266773208377,2.35256765688993,2.35321814564992,2.36016336410271,2.36113409348299,2.35778157448921,2.36251513115804,2.3604235596067,2.35967299565287,2.36117412356053,2.36262521387127,2.36333574774757,2.36770903371856,2.36773905627671,2.36705854495857,2.36771904123794,2.36758894348595,2.37039104891358,2.37001076317698,2.37181211666617,2.37252265054247,2.36939029697514,2.3745541769775,2.37467426721012,2.38198976388013,2.37407381604705,2.37416388372151,2.37392370325629,2.37411384612459,2.37402377845013,2.37510459054365,2.37633551542793,2.37242257534862,2.37318314682184,2.37781662829683,2.30218980430875,2.29862712740789,2.29541471368549,2.2959250971741,2.29814676647744,2.29726610477161,2.29667566112793,2.2984970296559,2.30004819516048,2.2980466912836,2.29995812748602,2.29936768384234,2.29970793950141,2.30059860872663,2.30014827035433,2.29994811996664,2.30119905988969,2.30084879671124,2.30147927043246,2.30290033818504,2.30326060888288,2.30288032314627,2.30400116531733,2.30598265415544,2.30712351136527,2.30772396252833,2.3092851355523,2.30953532353691,2.3107662484212,2.38082889163154,2.39017591473659,2.38844461388308,2.39030601248859,2.38855469659631,2.38916515527876,2.39026598241105,2.3892652304726,2.38992572675198,2.39110661403934,2.39173708776056,2.39217741861347,2.39169705768302,2.39152692985348,2.39053618543443,2.39031602000797,2.39089645613227,2.39111662155872,2.39176711031871,2.39181714791563,2.3929279825673,2.39321820062945,2.39269780962146,2.39277786977654
2.2395827630398,2.23821173288414,2.23851195846567,2.24277516172344,2.24107388342808,2.24208464288591,2.24221474063791,2.24302534970805,2.24544716939908,2.24664807172521,2.2449167708717,2.24526703405016,2.24597756792645,2.2467781694772,2.24701834994243,2.24896981622239,2.33415382122259,2.34046856595416,2.34311055107165,2.34505200983223,2.34466171657624,2.33887737037204,2.33604524238625,2.33631544540963,2.33625540029332,2.33764644548776,2.33952785913203,2.34264019766058,2.34188963370675,2.33621537021578,2.33667571610747,2.33337323471061,2.3363955055647,2.33372349788906,2.33531469347119,2.33572500176595,2.33396367835429,2.33381356556352,2.33345329486568,2.33285284370262,2.33236247525278,2.33263267827616,2.33437398664905,2.33364343773399,2.33300295649338,2.33438399416843,2.33492440021519,2.33616533261886,2.33365344525337,2.33433395657151,2.3347242498275,2.3362053626964,2.33804674626313,2.33437398664905,2.33210227974879,2.33255261812109,2.3317720316091,2.3331830918423,2.33108151277158,2.332992948974,2.33266270083431,2.33317308432292,2.33356337757891,2.332862851222,2.33442402424597,2.33490438517642,2.33443403176536,2.33496443029273,2.33735622742561,2.33690588905331,2.33822688161205,2.33946781401572,2.33950784409326,2.34126916750492,2.34092891184585,2.34466171657624,2.34309053603288,2.34379106238979,2.3432706713818,2.34632296479405,2.34506201735161,2.34601273169313,2.34647307758482,2.34741378440695,2.3493752582063,2.34943530332261,2.35086637859458,2.3509164161915,2.35205727340132,2.35443906301482,2.352647717045,2.35783161208614,2.35959293549779,2.35960294301718,2.36092393557592,2.3627352965845,2.36265523642943,2.36666825170258,2.36314560487926,2.36573755239983,2.36540730426014,2.36647810883428,2.36688841712904,2.36764898860225,2.36767901116041,2.36866975557946,2.3698006052699,2.37088141736342,2.37121166550311,2.37324319193815,2.37284289116277,2.37690594403284,2.37438404914797,2.37473431232642,2.37506456046611,2.37234251519355,2.37247261294555,2.37289292875969,2.37380361302367,2.37369353031044,2.37509458302426,2.37419390627967,2.37457419201627,2.29901742066389,2.29734616492669,2.29677573632178,2.29601516484856,2.29652554833717,2.29820681159375,2.29841696950082,2.29845699957836,2.29937769136173,2.2997779921371,2.29908747329958,2.29880726275681,2.30072870647862,2.30037844330017,2.29960786430757,2.30041847337771,2.30096888694385,2.30257009004536,2.30192960880475,2.30275022539428,2.30423133826317,2.3028002629912,2.30425135330194,2.30526211275977,2.30589258648099,2.30612275942683,2.30867467686985,2.30907497764523,2.30834442873017,2.30875473702493,2.31176700035964,2.31260763198793,2.31319807563161,2.3881744108597,2.38844461388308,2.38897501241046,2.38873483194523,2.3892652304726,2.38948539589906,2.39057621551196,2.39079638093842,2.39102655388426,2.39102655388426,2.39020593729474,2.39019592977536,2.3898456665969,2.39103656140365,2.39234754644301,2.39251767427254,2.392737839699,2.39257771938885,2.39306808783869,2.39319818559068
2.23863204869828,2.23950270288473,2.24040337962933,2.23981293598565,2.24109389846685,2.24413618435972,2.24280518428159,2.24302534970805,2.24570736490307,2.24475665056155,2.24618772583352,2.24622775591106,2.24755875598919,2.25028080126175,2.34101897952031,2.34301047587781,2.33830694176713,2.33949783657387,2.34070874641939,2.34173952091599,2.33914757339542,2.33592515215364,2.33747631765822,2.33577503936287,2.34383109246733,2.33605524990563,2.33621537021578,2.33507451300596,2.34328067890119,2.33609527998317,2.33506450548658,2.33616533261886,2.33589512959548,2.33627541533209,2.33576503184349,2.33680581385946,2.33618534765763,2.33721612215423,2.3342138663389,2.33290288129954,2.34008828021756,2.33317308432292,2.33217233238448,2.33310303168723,2.33384358812168,2.33494441525396,2.33677579130131,2.33866721246497,2.33635547548717,2.3351145430835,2.33583508447918,2.3348543475795,2.33491439269581,2.33470423478874,2.33323312943923,2.33185209176418,2.33291288881892,2.33285284370262,2.33382357308291,2.33356337757891,2.33372349788906,2.33347330990445,2.33380355804414,2.33417383626136,2.33414381370321,2.33492440021519,2.33548482130072,2.33668572362685,2.33704599432469,2.34043854339601,2.34424140076209,2.33955788169018,2.33981807719418,2.34144930285384,2.34421137820394,2.34451160378547,2.34434147595593,2.34381107742856,2.34426141580086,2.34679331820512,2.34698346107342,2.34669324301127,2.34658316029804,2.34786412277925,2.35378857425483,2.35039602518351,2.35198722076563,2.35120663425365,2.35296795766531,2.3547693111545,2.35616035634894,2.35732122859753,2.35861219859812,2.36015335658332,2.36004327387009,2.36120414611869,2.36194470255313,2.36285538681711,2.36379609363925,2.36407630418201,2.36491693581031,2.3659477103069,2.36689842464842,2.36706855247796,2.36769902619918,2.36769902619918,2.3694203195333,2.37042107147174,2.37152189860402,2.37599525976886,2.37582513193933,2.37582513193933,2.37740632000206,2.37874732759958,2.37517464317934,2.37345334984522,2.37178209410802,2.3721823948834,2.37202227457325,2.37201226705386,2.37297298891477,2.37260271069754,2.297276112291,2.29707596190331,2.29815677399683,2.29826685671006,2.29762637546945,2.29709597694208,2.29822682663252,2.29997814252479,2.29850703717528,2.29955782671065,2.29997814252479,2.29995812748602,2.29996813500541,2.30108897717646,2.30119905988969,2.30061862376539,2.3020897291149,2.30209973663429,2.30350078934811,2.3040211803561,2.30321057128596,2.30285030058812,2.30309048105335,2.3046616615967,2.30489183454254,2.3078740753191,2.30582253384529,2.30566241353514,2.30791410539664,2.30780402268341,2.30788408283849,2.30990560175414,2.3098655716766,2.31119657175473,2.31011575966121,2.31182704547595,2.31252757183286,2.31400868470175,2.38915514775938,2.38936530566645,2.39023595985289,2.39030601248859,2.39192723062886,2.3893953282246,2.39217741861347,2.31499942912081,2.39155695241164,2.39148689977595,2.39060623807012,2.38918517031753,2.38902505000738,2.39311812543561,2.31434894036082,2.31259762446855
2.23784145466692,2.23871210885336,2.24020322924164,2.24089374807916,2.24236485342867,2.24289525195605,2.24357576327419,2.24447644001879,2.33752635525514,2.34249008486982,2.34259016006366,2.34338075409503,2.34001822758186,2.34275028037381,2.34126916750492,2.34884485967892,2.33689588153392,2.33802673122436,2.33899746060465,2.34099896448154,2.34057864866739,2.33783658835606,2.34392116014179,2.34118910734984,2.34325065634303,2.34325065634303,2.34400122029686,2.3359451671924,2.34041852835724,2.34073876897754,2.33808677634067,2.34034847572155,2.33571499424656,2.3367857988207,2.33559490401395,2.33616533261886,2.33597518975056,2.3366557010687,2.33717609207669,2.33647556571978,2.33752635525514,2.33959791176772,2.34006826517879,2.34107902463661,2.33508452052534,2.3355648814558,2.33573500928533,2.33554486641703,2.33570498672718,2.3355648814558,2.33624539277394,2.3346642047112,2.33365344525337,2.33328316703615,2.33380355804414,2.33326315199738,2.33461416711428,2.33399370091244,2.33409377610629,2.3344040092072,2.33383358060229,2.3351145430835,2.33457413703674,2.33500446037027,2.33708602440223,2.33518459571919,2.33598519726994,2.33680581385946,2.33764644548776,2.34059866370616,2.34024840052771,2.34099896448154,2.34222988936582,2.34128918254369,2.34350084432764,2.34589264146052,2.34509203990977,2.34723364905803,2.34679331820512,2.34665321293374,2.3470635212285,2.34671325805004,2.34849459650047,2.34890490479523,2.35113658161796,2.35218737115332,2.3523274764247,2.35285787495208,2.35414884495267,2.35471927355758,2.35588014580617,2.35697096541907,2.35772152937291,2.35871227379196,2.35999323627317,2.36057367239747,2.36180459728175,2.36189466495621,2.36313559735988,2.36441655984108,2.36545734185707,2.36799925178071,2.36579759751614,2.36862972550193,2.36603777798136,2.36785914650933,2.36815937209086,2.36937028193637,2.37167201139479,2.37433401155105,2.37600526728825,2.3761653875984,2.37617539511778,2.37672580868392,2.36940030449453,2.37714612449807,2.37211234224771,2.37243258286801,2.37183213170494,2.37236253023232,2.37360346263598,2.29756633035315,2.29770643562453,2.2954747588018,2.29696587919008,2.29771644314391,2.2973361574073,2.29880726275681,2.29851704469467,2.29946775903619,2.29892735298943,2.30081877415308,2.30000816508295,2.300998909502,2.29976798461772,2.3000381876411,2.30500191725577,2.30059860872663,2.30192960880475,2.3018995862466,2.30232990958013,2.30235993213828,2.30322057880534,2.30298039834012,2.30324059384411,2.30419130818563,2.30590259400037,2.30609273686867,2.3066531579542,2.30579251128714,2.30637294741144,2.30595263159729,2.3062028195819,2.30659311283789,2.30759386477634,2.30839446632709,2.30853457159847,2.30857460167601,2.30923509795538,2.31052606795597,2.31207723346056,2.31252757183286,2.31206722594117,2.3121172635381,2.31440898547713,2.31205721842179,2.31202719586364,2.31227738384825,2.31263765454609,2.31408874485683,2.31388859446914,2.31369845160083,2.313208083151,2.31182704547595,2.31179702291779,2.31287783501131
2.23781143210876,2.24059352249763,2.24211466544406,2.24370586102619,2.24238486846744,2.24394604149141,2.24584747017445,2.3460327467319,2.34485185944454,2.34131920510184,2.34625291215836,2.3423099495209,2.34467172409562,2.34331070145934,2.34381107742856,2.34631295727467,2.34637300239097,2.34149934045076,2.33871725006189,2.34006826517879,2.34210979913321,2.34214982921075,2.34164945324153,2.34088888176831,2.33916758843419,2.34106901711723,2.34177955099352,2.33730618982869,2.33782658083668,2.33769648308468,2.34064870130308,2.34222988936582,2.33664569354931,2.3396079192871,2.33871725006189,2.34016834037263,2.33949783657387,2.3411490772723,2.33803673874375,2.33865720494558,2.33875728013943,2.33782658083668,2.33701597176654,2.3399982125431,2.33738624998376,2.33648557323916,2.33638549804532,2.33425389641644,2.33423388137767,2.33495442277335,2.33606525742502,2.33465419719181,2.33412379866444,2.3380667613019,2.33323312943923,2.33468421974997,2.33429392649397,2.33359340013707,2.33475427238566,2.33467421223058,2.33396367835429,2.33469422726935,2.33540476114565,2.33526465587426,2.33708602440223,2.33880731773635,2.33857714479051,2.33794667106929,2.33837699440282,2.34122913742738,2.33974802455848,2.33968797944218,2.34034847572155,2.34094892688462,2.34145931037322,2.34325065634303,2.3431405736298,2.34498195719654,2.34529219029745,2.34540227301068,2.3466131828562,2.34758391223649,2.3481543408414,2.34869474688816,2.34965546874906,2.34997570936936,2.35171701774225,2.35165697262595,2.35319813061115,2.35524967208495,2.35661069472124,2.35598022100002,2.35682085262831,2.35770151433414,2.36019338666086,2.35993319115686,2.3615143792196,2.36060369495562,2.36232498828974,2.36765899612164,2.36186464239806,2.36426644705032,2.3628653943365,2.36342581542203,2.29910748833835,2.36881986837023,2.36796922922255,2.36967050751791,2.29903743570266,2.30148927795184,2.30118905237031,2.30291034570443,2.29906745826081,2.30139921027738,2.30064864632355,2.30020831547063,2.30196963888229,2.30029838314509,2.30134917268046,2.37281286860462,2.29734616492669,2.2985570747722,2.29660560849224,2.29744624012053,2.29683578143808,2.29697588670946,2.29748627019807,2.29802667624483,2.29878724771805,2.29999815756356,2.29902742818327,2.29967791694326,2.3000982327574,2.30071869895924,2.30058860120724,2.30031839818386,2.30159936066507,2.30192960880475,2.30314051865027,2.30304044345642,2.30405120291425,2.3033806991155,2.30395112772041,2.30340071415426,2.30291034570443,2.30476173679055,2.30496188717823,2.3073636918305,2.30821433097817,2.30579251128714,2.30629288725636,2.30878475958308,2.30579251128714,2.30808423322617,2.30743374446619,2.30794412795479,2.30786406779972,2.30778400764464,2.30843449640463,2.30809424074556,2.31024585741321,2.30897490245139,2.3097354739246,2.31252757183286,2.31116654919658,2.31074623338243,2.31181703795656,2.31074623338243,2.31022584237444,2.31223735377071,2.31194713570856,2.31151681237503,2.31381854183345,2.30990560175414,2.31128663942919,2.31227738384825
2.23922249234197,2.24009314652841,2.24248494366129,2.24352572567727,2.24246492862252,2.33005073827498,2.34259016006366,2.34378105487041,2.34370099471533,2.33826691168959,2.34727367913557,2.34486186696392,2.34375103231225,2.34297044580027,2.34187962618737,2.34283034052889,2.34442153611101,2.34331070145934,2.3443614909947,2.33997819750433,2.34120912238861,2.34015833285325,2.34021837796955,2.34213982169136,2.34227992696274,2.34008828021756,2.34053861858985,2.33783658835606,2.33866721246497,2.33943779145757,2.34046856595416,2.33817684401513,2.33984809975233,2.33747631765822,2.3378766184336,2.33867721998435,2.34100897200092,2.33916758843419,2.33855712975174,2.33925765610865,2.34286036308704,2.33836698688343,2.33847706959666,2.33932770874434,2.3397380170391,2.34015833285325,2.33516458068042,2.33720611463484,2.33730618982869,2.33410378362567,2.33606525742502,2.3360152198281,2.33626540781271,2.33616533261886,2.3336334302146,2.33524464083549,2.33452409943982,2.33468421974997,2.33458414455612,2.33483433254073,2.33578504688225,2.33548482130072,2.33640551308409,2.33619535517701,2.33619535517701,2.33636548300655,2.33789663347237,2.33688587401454,2.33820686657328,2.33867721998435,2.33976803959725,2.34048858099293,2.34019836293078,2.34239000967597,2.34178955851291,2.34165946076091,2.34307052099411,2.34337074657565,2.34411130301009,2.34532221285561,2.34636299487159,2.34653312270112,2.34870475440754,2.34853462657801,2.35012582216013,2.35084636355581,2.35130670944749,2.35260768696747,2.35361844642529,2.34797420549248,2.35541979991449,2.35664071727939,2.35730121355876,2.2961152400424,2.29559484903442,2.29915752593527,2.29796663112852,2.29462411965413,2.29360335267691,2.29404368352983,2.29706595438392,2.29662562353101,2.29581501446087,2.29691584159316,2.2954747588018,2.29506445050704,2.29754631531438,2.29955782671065,2.29800666120606,2.29783653337653,2.29933766128419,2.29707596190331,2.29752630027561,2.30041847337771,2.29831689430698,2.29915752593527,2.29934766880357,2.29850703717528,2.29931764624542,2.29878724771805,2.29888732291189,2.29679575136055,2.29753630779499,2.29649552577901,2.29700590926762,2.29780651081837,2.29860711236913,2.29830688678759,2.29941772143926,2.29915752593527,2.30097889446323,2.29979800717587,2.30051854857155,2.30187957120783,2.30197964640168,2.30100891702139,2.30276023291366,2.30161937570384,2.30346075927057,2.30219981182813,2.30197964640168,2.30476173679055,2.30327061640227,2.30371094725518,2.30491184958131,2.30487181950377,2.30546226314745,2.30581252632591,2.30527212027915,2.30590259400037,2.30562238345761,2.30602268423298,2.30795413547418,2.30769393997018,2.30727362415604,2.30716354144281,2.30674322562866,2.30923509795538,2.30844450392401,2.30847452648217,2.30830439865263,2.30903494756769,2.30981553407968,2.30895488741262,2.31125661687104,2.30892486485446,2.31057610555289,2.30987557919598,2.31133667702611,2.31054608299474,2.31094638377012,2.31008573710306,2.3100557145449,2.31032591756828,2.31245751919717,2.31319807563161
2.23846192086875,2.24218471807975,2.24145416916469,2.24373588358434,2.32917007656915,2.33108151277158,2.34437149851409,2.34071875393877,2.34367097215718,2.34654313022051,2.34453161882424,2.34592266401867,2.3435308668858,2.34893492735338,2.34491190456085,2.34187962618737,2.34323064130426,2.34707352874788,2.3406987389,2.34183959610983,2.34194967882306,2.34302048339719,2.34178955851291,2.34107902463661,2.34405125789379,2.34278030293196,2.3419897089006,2.3432706713818,2.33820686657328,2.3398681147911,2.33945780649634,2.33955788169018,2.33873726510066,2.34163944572214,2.33994817494617,2.3399281599074,2.33984809975233,2.33873726510066,2.33939776138003,2.33797669362744,2.33852710719359,2.33902748316281,2.33791664851114,2.33717609207669,2.33773651316222,2.33840701696097,2.33602522734748,2.3363354604484,2.33668572362685,2.33289287378016,2.33380355804414,2.33335321967184,2.33406375354813,2.33442402424597,2.33427391145521,2.33491439269581,2.33464418967243,2.33452409943982,2.3342138663389,2.33391364075737,2.33463418215304,2.33561491905272,2.33615532509948,2.33703598680531,2.33688587401454,2.33645555068101,2.33494441525396,2.33540476114565,2.33795667858867,2.33801672370498,2.33990814486864,2.3405085960317,2.29206219469171,2.29198213453664,2.29287280376185,2.29163187135818,2.34286036308704,2.2919421044591,2.29209221724987,2.29238243531202,2.29215226236617,2.29237242779263,2.29211223228864,2.29182201422649,2.29268266089355,2.29416377376244,2.29232239019571,2.29440395422767,2.29301290903323,2.29183202174587,2.293032924072,2.29479424748366,2.29343322484738,2.29356332259938,2.29358333763815,2.29550478135996,2.29517453322027,2.29504443546827,2.29491433771627,2.29559484903442,2.29333314965354,2.29460410461536,2.29725609725223,2.29353330004122,2.29602517236794,2.29585504453841,2.29704593934516,2.29609522500364,2.29529462345288,2.29711599198085,2.2969558716707,2.29661561601163,2.2973361574073,2.29809672888052,2.29851704469467,2.29711599198085,2.29684578895747,2.29793660857037,2.29826685671006,2.29846700709774,2.29747626267869,2.29808672136114,2.29852705221405,2.29933766128419,2.29712599950023,2.29826685671006,2.29908747329958,2.29936768384234,2.29954781919126,2.29996813500541,2.30031839818386,2.30051854857155,2.300998909502,2.30101892454077,2.30367091717764,2.30481177438747,2.30319055624719,2.30274021787489,2.30468167663547,2.3029904058595,2.30384104500718,2.30391109764287,2.30463163903855,2.30523209020161,2.30529213531792,2.30608272934929,2.30518205260469,2.30775398508649,2.30521207516284,2.30550229322499,2.30596263911668,2.30632290981452,2.30701342865204,2.30785406028033,2.30807422570679,2.30818430842002,2.30686331586127,2.30971545888583,2.30848453400155,2.30955533857568,2.30868468438924,2.30834442873017,2.30751380462126,2.30969544384707,2.3097354739246,2.31392862454668,2.3106361506692,2.30980552656029,2.31030590252952,2.31015578973875,2.31152681989441,2.31190710563102,2.31455909826789,2.31202719586364,2.31223735377071,2.31171696276272
