2.30596412422027,2.30504865832469,2.30486602590742,2.30442010311033,2.3045481065636,2.30442095417201,2.30457541112884,2.3047431703423,2.30499382589214,2.30529121894101,2.30572950833414,2.30616579384075,2.30722100566036,2.30718507574504,2.30793649139231,2.30845360031808,2.30957297954408,2.31016680059982,2.31109310352421,2.31204469201725,2.31300618009023,2.31376881589088,2.31435425457219,2.31510103864017,2.31606417403328,2.31581856888676,2.31616577920042,2.31646167372818,2.3174236342047,2.31045946921496,2.27819776405514,2.27742690961199,2.27663660914217,2.27601666236341,2.27554154949199,2.2750996932975,2.27499846963031,2.27494301734976,2.27512847451681,2.27507033430558,2.27525054496657,2.27532908599679,2.27546981937855,2.2757454476286,2.27584987918809,2.2763584314794,2.27662280117083,2.2769954304236,2.27733193690247,2.27782919378641,2.27877343832578,2.27879700486305,2.2792918597831,2.27983522540127,2.28062625855662,2.28150599126016,2.28264307002599,2.28255447036356,2.32715276859172,2.3275259547364,2.32843077056393,2.32902660881397,2.32967836566463,2.32967629953259,2.32997786396515,2.32951660922796,2.32950098352605,2.32865496780658,2.32811263993318,2.32728888314098,2.32671253673097,2.32554319821492,2.32452902270314,2.32397307681006,2.32330105537163,2.32294962338083,2.32255431680602,2.32246719056584,2.32241068400308,2.32254885564557,2.32272889533109,2.32288050544208,2.32310864536133,2.32348667529579,2.3240276144458,2.32467900852504,2.32554274512535,2.32625376355192,2.32731504381906,2.32786160169636,2.32880732032387,2.3292523229292,2.33000919069689,2.33016135784925,2.33048352767054,2.33039974735948,2.33086754457508,2.32993718560147,2.29175596974911,2.28986377544003,2.28898527583067,2.28827726812811,2.28745261141526,2.28711243093338,2.28652052622801,2.28628929917295,2.28583693328931,2.28573701553297,2.28563246039936,2.28531199937967,2.28536376913077,2.28511799551434,2.28551112575226,2.28506537988042,2.28506801985767,2.28478526558981,2.28442260893296,2.28446271956833,2.28406432838183,2.28418279058375,2.28387170694796,2.28396016594979,2.28371085313449,2.28386404947505,2.28387944720818,2.28387547445479,2.28385556284906,2.28387711542772,2.28385693629316,2.28383121238125,2.28388916961842,2.28377798732699,2.28395226086728,2.28373053890385,2.28385453289635,2.28391006796375,2.28405290822669,2.28436337314501,2.28430788295841,2.2846602086319,2.28451409697746,2.28487521189107,2.2851736075647,2.28519584342364,2.28556080535951,2.28557946357385,2.28577415751754,2.2860582802042,2.286387259302,2.28647693979734,2.28699048738989,2.28717587685666,2.28814820645209,2.28810289139072,2.28911280543815,2.28850945061221,2.28892243008905,2.28967356323001,2.29078341184987,2.29227965059743,2.29362288208398,2.3033479988979,2.34686743947735,2.3462131419986,2.34556252357839,2.34783262927495,2.35046320031794,2.35091656565889,2.35213504771289,2.35185776834343,2.35266431247042,2.35178823910876,2.35180064107619,2.351124372643,2.35100176882809,2.35052722339961
2.30530490067923,2.30502005079014,2.30420282064157,2.30440924812349,2.30431738046748,2.30433387612056,2.30441593773287,2.30463856660567,2.30506839783984,2.30528366346818,2.30559990388226,2.30614832841625,2.30662674377007,2.30725057491376,2.30768750107297,2.30858935924134,2.3092473681905,2.31027992141102,2.3112706347818,2.31205525363542,2.31313725087261,2.31377403907655,2.31499752384632,2.31494916911556,2.31539051676052,2.31528425357788,2.31555085690443,2.31579034983972,2.31618141874596,2.30626827946111,2.27802111872817,2.27734589509242,2.27680300590119,2.27607139730611,2.27551713639698,2.27517851198396,2.27484561775041,2.27494690199915,2.27492923095769,2.27506979882358,2.27506626933709,2.27537442615318,2.27557979785177,2.27576953453691,2.2760458102328,2.27630241504003,2.27679398472737,2.27696526719064,2.27731969263189,2.27778863833142,2.27817660828525,2.27881413001285,2.2793762108972,2.280049103415,2.28070041666402,2.28177966762614,2.28274226347008,2.28387358790076,2.32602507175047,2.3267047761377,2.3280718398691,2.32834205083751,2.32915324036955,2.32913905217962,2.3295533448814,2.32897854297983,2.32890665510437,2.32823287552976,2.32815441785834,2.3269062870807,2.32615838905767,2.32507575376641,2.32444475363104,2.32351874059811,2.32314831501473,2.32251310318874,2.32231752907584,2.32214055200337,2.32236318394856,2.32227940742982,2.32268278985008,2.32271089897378,2.32334558230625,2.32336443135753,2.32391455835905,2.32452847385491,2.32561846732707,2.32614185727155,2.32717381944332,2.32770103479227,2.3286602677963,2.32897070266388,2.32959814660284,2.32996050974863,2.33060754448521,2.33031067310994,2.33031120363896,2.32957584163379,2.32744958247712,2.28902047218361,2.28893007983461,2.2882128636806,2.28799809641583,2.28702382489168,2.28682887868483,2.28614216093564,2.28605879007904,2.28568210824846,2.28567220113457,2.28536780787111,2.28483580635143,2.28527926833,2.28511279581684,2.28516862299777,2.28492911952155,2.28474844954451,2.28486061815403,2.28439390105892,2.28452909371801,2.2840776811313,2.28423742361439,2.28387130849295,2.28405535025002,2.28377194743644,2.28373182638917,2.283818764236,2.28397483824361,2.28393971749513,2.28412784149099,2.28384187000985,2.28371922990278,2.28376649275484,2.28362939037356,2.2837644726306,2.28347878468803,2.28387930556937,2.28418263093827,2.28416122634378,2.28463177840238,2.28432852107667,2.28466418793789,2.28467780864014,2.28491090096075,2.28513380496234,2.28510072172083,2.28544655629487,2.28562383268114,2.28593971167834,2.28628341845124,2.28646533474881,2.28629516939449,2.28731985189292,2.28753277722808,2.28833193727219,2.28809877330743,2.28857558933807,2.28755682176817,2.28964596777624,2.29034159848075,2.29244597769415,2.29400020378551,2.30892065218009,2.34681749784691,2.34578361674338,2.34482780142847,2.34804267426866,2.35147955614036,2.35157430745883,2.35196499866151,2.35181807432617,2.3516838895956,2.35150363312811,2.35138077758725,2.35073119221005,2.35017623682703,2.35023900836861
2.30597953771365,2.30483359728515,2.30463115880972,2.30418668997917,2.30442198739584,2.30414985748897,2.30424184635348,2.30455263274982,2.30512218665128,2.30526875987739,2.30584282088165,2.30598001058585,2.3066249380751,2.30702938164616,2.30808232025374,2.30844376339165,2.30959595526055,2.31014500587133,2.31123891917904,2.31201050758331,2.31282604931119,2.31383380115189,2.3149079290265,2.31483961439428,2.3149588306159,2.31474009264356,2.31436441340489,2.31517816433879,2.31617429276727,2.30151242528205,2.27730785628076,2.27678966786957,2.27621613262548,2.27566181133566,2.27525474020206,2.27499382695699,2.27495962488673,2.27485575083291,2.27483996558706,2.275033149399,2.27529852293573,2.2754308240618,2.2756822144483,2.27587543387689,2.27599398570504,2.27638181045445,2.27657024923114,2.27692553791815,2.27713632827496,2.27764852873364,2.27824359079588,2.27868040532964,2.27934106588466,2.28010670631952,2.28122978534008,2.28200812855588,2.28326915893388,2.28663412386134,2.32555556779916,2.32602412707535,2.32695294004315,2.32749284822984,2.32811097307149,2.32840636492816,2.32863914944658,2.32841000602701,2.32818862507251,2.32790726179632,2.32763225572233,2.32676752961104,2.32589431090754,2.32492426000015,2.3239643909193,2.3233079705231,2.32267027949378,2.32234598246098,2.32213217261429,2.32195585647747,2.32204309233966,2.32197010195005,2.32214409768943,2.32235525858002,2.32279857888867,2.3231346622384,2.3236366703885,2.32433326507093,2.32517041241881,2.32588072320679,2.32681001362987,2.32742579236106,2.32838510098046,2.32867038139257,2.32930760994909,2.32962855895741,2.33013807292873,2.33006170510714,2.33033061644776,2.3299404592999,2.29062528132585,2.28936182019422,2.28873890652929,2.28816825027476,2.2874818031017,2.28684787225202,2.28608777964361,2.28600437832099,2.2856396417952,2.28555775106594,2.28534462141796,2.2852645328515,2.28555788825834,2.2851655688897,2.28559576755835,2.28497772849974,2.28490625635652,2.28457960160366,2.28404937637385,2.28441229694706,2.28433540311882,2.28422516424125,2.28369176430493,2.28397853928231,2.28386594464656,2.28378845947325,2.28357262957521,2.28371198059184,2.28391124553005,2.28376935984817,2.28369342408363,2.28364851526071,2.28362352090791,2.28364389680215,2.28382068934296,2.28380705248419,2.28412387709409,2.28399382650564,2.28400775232073,2.28432200007701,2.28426844991995,2.28444181344077,2.28385047276493,2.28468147111187,2.28508561703397,2.2851156029617,2.28530466160987,2.28535131481781,2.28542771507318,2.28582924713328,2.28613033626628,2.28643211652108,2.28703989823055,2.28724819342276,2.28825687020162,2.28815937563417,2.28919726789639,2.28878554554408,2.28983935218625,2.29005370606743,2.29129246030716,2.29263740371694,2.29464498875141,2.31530960108642,2.34626044579327,2.34531756293725,2.34363192799621,2.34812434240225,2.3524699407019,2.35166773189063,2.35224521285037,2.35157062295845,2.35166042446838,2.35122855332386,2.35132128598725,2.35061077213309,2.35008220009571,2.35010968670981
2.30495582017839,2.3046611776756,2.30400999389191,2.30405406063787,2.30382483702997,2.30394025283133,2.30407677567822,2.30433524483221,2.30478487548445,2.30510786125831,2.30548060327256,2.3059116768687,2.30611971859871,2.30706082916372,2.30764597320477,2.30855623168081,2.30912305240769,2.31033348790566,2.31131813389649,2.31220602204437,2.31336724868587,2.31362113051065,2.31439782867951,2.31430718590553,2.3144408199216,2.31423383905462,2.31397138451124,2.31442553670801,2.3142348176357,2.29653460019131,2.27715358397619,2.27652432940231,2.27574983835883,2.27553080602247,2.27521238000778,2.27493334863086,2.27465809371269,2.27480052382287,2.2749290535686,2.27500622297718,2.27511004072664,2.27539680375298,2.27577072151183,2.2758429832187,2.27620074427756,2.27627989163283,2.27660412479127,2.27688761283683,2.27718118664838,2.27765986728841,2.2779255951113,2.27871653465315,2.27929229143535,2.28008866782534,2.28056991467212,2.28196431905128,2.28303211172003,2.2911499439055,2.32457455765434,2.32523133062493,2.32586835120216,2.32675658251754,2.327488213114,2.32785129030947,2.32796818985427,2.32787472553861,2.32795539829713,2.32744149154228,2.32747579494649,2.32648567955344,2.32618661287907,2.32464137406857,2.32364860222667,2.32295646513626,2.32265276305719,2.32200384732359,2.32178319475293,2.32155878634328,2.32164798413646,2.32154686054395,2.32170829169724,2.32194570994632,2.32248046584137,2.32292164211483,2.3236268038551,2.32419217248274,2.32501878788227,2.32569170685906,2.326587966122,2.32718250771621,2.3278980668378,2.32834398746468,2.32878061080129,2.32931229048571,2.32981655455145,2.3296877342833,2.3293698628464,2.32921235304151,2.29004760200036,2.28943402259053,2.28909880372561,2.28805938224824,2.28748286104917,2.28667518834259,2.28621490560102,2.28582273989153,2.28563753238644,2.28543402027625,2.28525449998546,2.28531764422531,2.28512299643617,2.28528917696342,2.2848652176979,2.28502319244692,2.28467179765769,2.28461183532187,2.28461649424365,2.284255759547,2.28429782031845,2.28393502601713,2.2841364020789,2.28372995311938,2.28395212565154,2.28361434012847,2.28357815533501,2.28361021494916,2.2835853163419,2.28363213163726,2.28363948757986,2.28353450856043,2.2834044397279,2.28368386722888,2.28392556258272,2.28393910065366,2.28400788534184,2.28393102609498,2.28411497623282,2.28402208093693,2.28458014601735,2.28426026134033,2.28480311974038,2.28466559823718,2.28513886027569,2.28509950556138,2.28522069852684,2.28534424635835,2.28557415796749,2.28578971927336,2.2861386159942,2.28646499168205,2.28652021738354,2.28742205780699,2.28773056964222,2.28841593542472,2.28838212344777,2.28924624055488,2.28937992535684,2.29048403667563,2.2907203761607,2.29256501874216,2.29320537985904,2.32168537957178,2.34483771376587,2.34567842023566,2.34453085721822,2.34830636638349,2.35104122059384,2.3516003290245,2.35200394829265,2.35155051719261,2.35138090650385,2.35114558729472,2.35107502917469,2.35070669409326,2.35092253964638,2.35022212956801
2.30498727521459,2.30438907294387,2.3044389161661,2.30392400001581,2.30395377780369,2.30378744027692,2.30385735248107,2.3041486390512,2.30456322207552,2.30494959224129,2.30562006709777,2.30578777692642,2.30654668149831,2.30687122566088,2.30789362332259,2.30827838166753,2.30935526269297,2.3101938969649,2.31172680363045,2.31219191626644,2.3129983835236,2.31345498958328,2.31382835529988,2.31406175200461,2.31407145982172,2.31412665695232,2.31379663637847,2.31447387530766,2.31493030951102,2.29121447546246,2.27644019402119,2.27620283796436,2.27599225493537,2.27538143251698,2.27498227512176,2.27483958077051,2.27470793639497,2.27480070353585,2.27474556841325,2.27501322175342,2.27511510445475,2.27537367595727,2.27532278833934,2.27581379856306,2.27585726086699,2.27630290105406,2.2764982622143,2.27695214273085,2.27749258744051,2.27768231393731,2.278181506392,2.27875598702013,2.27971372709575,2.28019219361392,2.28088378574054,2.28199505439013,2.283111597041,2.296922965492,2.32425846695079,2.32475980198616,2.32532525796123,2.32640481580292,2.32758426916394,2.32772567564048,2.32820974279637,2.32767679231037,2.32718309575671,2.32719271723825,2.32719813916306,2.32625436497203,2.32564322327805,2.32443874808749,2.32347725413977,2.32280130146831,2.32220089619606,2.321774873763,2.32140524661617,2.32133247974034,2.32137673521528,2.32128693817519,2.32135159071039,2.32163752602,2.32208946928111,2.32283080688063,2.32392327849896,2.32413469221337,2.3246839460672,2.32551947813537,2.32663191689053,2.32699350932794,2.32764739649466,2.32815394100414,2.32888818863533,2.32910327654107,2.32952213395671,2.32947366045019,2.32957257745674,2.32681686576196,2.28963058219703,2.28922106820301,2.28865767072084,2.28803739621169,2.28738778296281,2.28671599659903,2.28601970349892,2.2858532863334,2.28563497538909,2.28548107977119,2.28538662092167,2.28518009764255,2.28542142571107,2.28497685792614,2.28538798738115,2.28478096033931,2.28492212627042,2.28457894069333,2.28444519709717,2.28437825971735,2.28399984624989,2.28408254765619,2.2835554453857,2.28378183762407,2.2833940597087,2.28361279479984,2.28356122922243,2.28360480359698,2.28372560250794,2.28354721078656,2.283286806305,2.28351588082112,2.28361231312995,2.28365881162561,2.28377395710051,2.2838051824364,2.28400732338572,2.28381651513716,2.28350126022146,2.28404387670329,2.28375807928041,2.28441795621444,2.28417335899153,2.28468632538995,2.28475196043162,2.2850116479841,2.28514424769361,2.2853512641196,2.28543743941764,2.28587137972272,2.28614430718844,2.28664323785987,2.28733350066588,2.28740894645623,2.28800425053099,2.28809425145155,2.28900934772639,2.289057104882,2.29048731763354,2.29071425541513,2.29204961362874,2.29306712525177,2.29424388608028,2.32791788256668,2.34964925057328,2.34767417662627,2.34842681145834,2.34956266582507,2.35268303320064,2.35143542089207,2.35151075332469,2.35115209620062,2.35149196728508,2.35112009997131,2.35120221047943,2.35073115915063,2.3504523026088,2.35013828478687
2.30426878116557,2.30410935589405,2.30373542093818,2.30372148031783,2.30368653870926,2.30358737587383,2.30360795092654,2.30394591743959,2.30434944939106,2.30480520945026,2.3052245909324,2.30570035501236,2.3059831579461,2.30693909036814,2.3076365060977,2.30850317704771,2.30906720173393,2.31042000444542,2.3114880157383,2.31224600488684,2.31311994832749,2.31323455881194,2.31359700518289,2.31380505593456,2.31392053453434,2.31422685514442,2.31447804705125,2.31476482083614,2.31496667475385,2.28550606713356,2.27634972224413,2.27588664704635,2.27526633736002,2.27511272840003,2.27498432642811,2.27477229276821,2.2747677343962,2.27479030131928,2.27502522878786,2.2750097833236,2.27518333765887,2.27546262916355,2.27604484930187,2.27589362562829,2.27607313890627,2.27623419822351,2.27644086003523,2.27688515920979,2.2770738946123,2.27769673257972,2.27784607621113,2.27885392157654,2.27955238109349,2.28039157227578,2.28100746216602,2.28213570028989,2.28274115899148,2.30279956576598,2.32308558016776,2.32439787371265,2.32512338603512,2.32615100369989,2.32678881573179,2.32749506922171,2.32789930703847,2.32752716448111,2.32742726154537,2.32679336914246,2.32666271679471,2.32555567744451,2.32490352674199,2.32397383355124,2.32372409677618,2.32259617864737,2.32220319263162,2.32152010971134,2.32127460570615,2.32102490561739,2.32109325433846,2.32094925757647,2.32096372464985,2.32131565323509,2.32168401669958,2.32259564580124,2.32374324886643,2.3240034845763,2.32457311046076,2.32546001676112,2.32648789084518,2.32700340635584,2.3276564018468,2.32817442861675,2.32879539877322,2.32900781555431,2.32937940382653,2.3292782892822,2.32923312620013,2.3229938143121,2.28969054442621,2.28912398246337,2.2886926692955,2.28796167089733,2.28781668010434,2.28667708816957,2.28600653922391,2.2857057129649,2.28556682076952,2.28539413914133,2.285288810285,2.28516006689699,2.28458562393716,2.28500729243711,2.28459959364075,2.28482507908859,2.28435392726483,2.28456117819132,2.28454840130671,2.28428444984295,2.28433505441514,2.28393133199029,2.28412099884118,2.28357391905304,2.28369842725422,2.28346034732339,2.28358410859743,2.28354510787031,2.28351816265757,2.28358364664138,2.28361082004452,2.28352891360494,2.28352875494146,2.28356462878408,2.28373605859731,2.28362784656782,2.28344983352089,2.28358845113261,2.28383031154945,2.28397117261873,2.28512060990727,2.28437037290084,2.28473026695169,2.2845712678326,2.28471854878137,2.2849742907715,2.28524804034764,2.28536653501845,2.28558880802397,2.28589155222824,2.28639976862189,2.28677065468544,2.28721631468122,2.28764143524513,2.2878412421562,2.28829275689257,2.28809800277105,2.28912645875808,2.289271584501,2.29091923588928,2.29239003569113,2.29380626799593,2.29542821771972,2.33400931416568,2.34687126790871,2.34789678914445,2.34854156026216,2.34972763042806,2.35106366237237,2.35091294055647,2.35046215340721,2.35092718659156,2.35084237873461,2.35116168171576,2.35157951176785,2.35077830642115,2.35069521959804,2.35012087933679
2.30445117624513,2.30392554192822,2.30366078198421,2.30356055683681,2.30354276290288,2.30351326608622,2.3034318491282,2.30394845020459,2.30454586434593,2.30477549354887,2.3052762185785,2.3055980341156,2.30626976954696,2.30674491075083,2.30770835224444,2.30827790573883,2.3095204975988,2.3103076009574,2.3120984838798,2.31217500525769,2.31300394571902,2.31326081413128,2.31351572488804,2.31411950150218,2.31464231316215,2.31469420193796,2.31479729669442,2.31535025696272,2.31605040076472,2.28024124913093,2.27620998578625,2.27576174333668,2.27507300609035,2.274962180346,2.27465140312376,2.27472442242055,2.27469546714541,2.27484135225525,2.27482264788278,2.27509804608272,2.27518994735283,2.27554127195087,2.27571269079249,2.276009222133,2.27608456283774,2.27641857814828,2.2765053050867,2.27706989966037,2.27757236170613,2.27790197951091,2.27843711809016,2.27902060056932,2.27999823637558,2.28058703181261,2.28149668761954,2.28256165645894,2.28386904654623,2.30828472046767,2.32393486553604,2.3248485217945,2.3252068206712,2.32635153834675,2.32736843518681,2.32765044370538,2.32799714052264,2.32754364506852,2.32715149810382,2.32661046046331,2.32607314503108,2.32508270499058,2.32409679558742,2.32335991834178,2.32255989564552,2.32216043007957,2.32172601390781,2.32134267748158,2.32100698942954,2.32088790766723,2.32082018222115,2.32091588003548,2.32113133196176,2.3213962520721,2.32188607561655,2.32246538851698,2.32322988109084,2.32381208315858,2.32461121739662,2.32538033801885,2.3265408768553,2.32692541171948,2.32781616842574,2.32811843336836,2.32879281987243,2.32882476293876,2.32902423353103,2.32909076023565,2.32918633022787,2.31875629265509,2.28996380149691,2.28913221469324,2.2882161844348,2.2878072826108,2.28738378008993,2.28662065642563,2.28588308911029,2.28575036106726,2.28538678089894,2.28544996060817,2.28536798879118,2.28515149874423,2.28534417839676,2.28473672105633,2.28501534799789,2.28451642992556,2.2848706164637,2.28450846433213,2.28453821254733,2.28442311110081,2.28411347224139,2.28417585725148,2.28370674297099,2.28368975948163,2.28290778575826,2.28349940889909,2.28360789842168,2.28356758076158,2.28359475332119,2.28373326323638,2.28425478448613,2.28376167092248,2.28346007286251,2.28361903003665,2.2835891427226,2.28367503521771,2.28364384797945,2.28371982011445,2.28340098647206,2.28392965852993,2.28356625982579,2.28433787211331,2.28437972916608,2.28476277920692,2.28494156151395,2.28510058197251,2.28525224843545,2.28552062469296,2.28571817745982,2.28607821006177,2.2863288650267,2.28689676255325,2.28772250436584,2.28760853820813,2.28802355971544,2.28812712974802,2.28911141552076,2.28892570776671,2.28989068164309,2.29038617155957,2.2911767317922,2.29347793238085,2.29783021033769,2.33938436706225,2.34797710025624,2.34836592128906,2.34917934476025,2.34950183772192,2.35001109737438,2.35040711823346,2.35116486431437,2.35123205601727,2.35267432241023,2.35147944571298,2.35144641767643,2.35080968768425,2.35053145514338,2.35019353579039
2.30391644847863,2.30377891687863,2.30380959241744,2.30352445393277,2.30360390235167,2.30355034865613,2.30378768702152,2.30394474324124,2.304314051489,2.30472700503999,2.30523417316178,2.30563585006489,2.30605961282257,2.30686071983975,2.30749827815254,2.30844587055626,2.30904727052427,2.31016999654898,2.31087297857949,2.31178865975942,2.31273737949997,2.31327725479479,2.31446800869378,2.31431874844588,2.31467040182837,2.31481314761024,2.31538500631722,2.31554624864744,2.31659280329299,2.27690345356845,2.27655063305047,2.27573661403305,2.27535471080826,2.27490229988933,2.27464088982416,2.27460598032596,2.27470023951693,2.27473783816208,2.27503346292215,2.2750480917568,2.27542597455055,2.27549718118036,2.2758609689477,2.27600459553283,2.27637473488001,2.27662075169719,2.27716690642921,2.27741812713365,2.2779018937793,2.27827972203017,2.2787556560037,2.27924220401665,2.27988856155693,2.28079636985715,2.28170654709622,2.28282890299411,2.28377764002435,2.31351760174474,2.32691208421708,2.32610079254724,2.32555610031032,2.32709981693065,2.328048444422,2.32818912720388,2.32817618326281,2.32773361951072,2.32740025590625,2.32638144290036,2.32585689683905,2.32456064831468,2.32379900515819,2.32287241100695,2.32225758514394,2.3218145847866,2.32170683016604,2.32111601791833,2.32095923541555,2.32072167000325,2.32091340023201,2.32085421614708,2.32108780416998,2.32143285176594,2.32197866032931,2.3224442281211,2.32306859749934,2.32380462460508,2.32476462700669,2.3254211769302,2.32626160077194,2.32691745803624,2.32766891112696,2.32816545544186,2.32876271410234,2.32880310917353,2.3290806919134,2.32909088714462,2.32958808341567,2.31477400011598,2.29015359648194,2.28904947270213,2.28834074453065,2.28756888840859,2.28696557728861,2.28646595657227,2.28594932206796,2.28581137349027,2.28590459034081,2.2855008901937,2.28544514037284,2.28522898134839,2.28481561507742,2.2848313113551,2.28396388378881,2.28460340102993,2.28433706394665,2.28453204188996,2.28434700087144,2.28437857241562,2.28468169016873,2.28408870638939,2.28423407730559,2.28368460654789,2.28387329878896,2.28357515192324,2.28374812654596,2.28353216441325,2.28342889663772,2.28350141591624,2.2835299256827,2.28351282692162,2.28368626240397,2.28351623853996,2.28376339927685,2.28360877886492,2.28381576033199,2.28377425904158,2.28423415805418,2.28385239561723,2.28410810177053,2.28413376955824,2.28469017613126,2.28476103169398,2.28516178772729,2.2852065368261,2.28527379257384,2.28566053804607,2.28617297198822,2.28614777432424,2.28657868083137,2.28676243413624,2.28707844281683,2.28753733221671,2.28782292930288,2.28811109607527,2.28798922342546,2.28894619435532,2.28934433583797,2.29045974147894,2.29088709482794,2.29290863801753,2.29408311054749,2.34285251022944,2.34772574409077,2.34900438570017,2.35018229343433,2.35005167067334,2.35036965012933,2.35053339238293,2.35068354556529,2.35098616599563,2.35109997300514,2.35104416124231,2.35128158977416,2.35055030092009,2.35066638906497,2.35014740485842
2.30423983147282,2.30370664050622,2.3032876679839,2.30339647277624,2.30356104756681,2.30359083878717,2.30388078693116,2.30396812800968,2.30433654819036,2.30470160594353,2.30533976693184,2.30561387916518,2.30623841967571,2.30683603928141,2.30804574389787,2.30837904068511,2.30949024133466,2.30992959989674,2.3109726888164,2.31132120770454,2.31155206293218,2.31295943918983,2.31411329460571,2.31428406882791,2.31446005876951,2.31473322209904,2.31510982950028,2.31552310003943,2.316042445807,2.27616017797623,2.27647843644632,2.27576960031853,2.27526633741356,2.27490170322243,2.2747371196391,2.27464244123235,2.2745167995461,2.27470981287771,2.2747056434787,2.27496987295111,2.27509655121453,2.27544969387516,2.2756967871998,2.27604147817114,2.27640176223003,2.27663158757482,2.27699895667404,2.27733969773184,2.27794049425879,2.27822271720709,2.27892608860351,2.27913047919778,2.27965949292253,2.28085558713446,2.28221249225342,2.28305133450431,2.28385471067025,2.31858029074865,2.32620575399496,2.32714858769871,2.32845570448158,2.3283596094702,2.32958025953682,2.32878617276221,2.32912582139994,2.32809222315143,2.32763752518689,2.3262478295787,2.32486862665066,2.32408456043126,2.32346045923862,2.32258431289162,2.32199234528467,2.32170525117394,2.32167682451098,2.32105899687632,2.32065612309017,2.32061880348356,2.32076280955768,2.32087108313317,2.32151182400787,2.32155949738368,2.32233308887579,2.32245006986309,2.3230866545092,2.32366045122122,2.32464197773495,2.32528201644581,2.32643543444483,2.32679654552574,2.32763348303961,2.32810278518714,2.32882552211371,2.32861932025383,2.32833596037689,2.32869454043723,2.32904135919379,2.3108834621078,2.28933037195991,2.28872988420745,2.28788951523652,2.28744050592212,2.28712428055011,2.28663124204854,2.2863554328521,2.28600662440323,2.28554901042253,2.28553876474178,2.28530921534235,2.28518141194102,2.28528106975793,2.28466782620713,2.28476036155648,2.28439687927801,2.28480462278142,2.28449488668734,2.2846048201646,2.28448539799816,2.28420272316376,2.28419447123449,2.28363544645495,2.283903650453,2.28372333530593,2.2837170443039,2.28349764916958,2.28346387489421,2.2833631714072,2.28341029255302,2.28348284629709,2.2834966761716,2.28335795140299,2.28353590050934,2.2833882223624,2.28363728478244,2.2836190655455,2.28396568357352,2.28406885455676,2.284103332184,2.28362994097828,2.28422878211918,2.28432892963193,2.28476085441657,2.28513436801896,2.28529302395377,2.28583138956915,2.28574877450347,2.28610934265412,2.28602388265242,2.28595652000568,2.28663221684381,2.28731782570872,2.28739207028432,2.28768872112117,2.28784751789968,2.28828827096855,2.28877304173361,2.28984253888206,2.29055783795441,2.29191053056156,2.29246262224672,2.29315026468375,2.34436890232311,2.35045110794575,2.34958234153667,2.34987476365157,2.34985961160541,2.35060192176404,2.35034544752009,2.35091074071106,2.35090126903165,2.35194146178925,2.35073138710835,2.34985062574587,2.35021976867277,2.35024734720943,2.3500635739121
2.30405553572129,2.30347971309439,2.30332570882318,2.30321422045112,2.30338395755691,2.30343563541973,2.30375624689175,2.30383595260732,2.30409459285402,2.30458516075344,2.30520393096959,2.30552666393937,2.30602563243163,2.30678298781495,2.30757561038986,2.30846926093909,2.30916639187778,2.31001903832097,2.31045489956136,2.31149947931626,2.31249380063955,2.31308099096773,2.31389200819226,2.31419597386773,2.31459512218269,2.31450253055258,2.31444373862196,2.31508585228083,2.27766815646952,2.27608039066946,2.27591753578411,2.27537882363585,2.27494805469126,2.27471932827103,2.27458307596074,2.2746361976229,2.27474730803235,2.27461667124121,2.27464962610815,2.27476521479113,2.27494958213434,2.27532502155955,2.27573802825029,2.27592497957014,2.2760999432771,2.27651569284614,2.27679360625765,2.27724488293234,2.27750458423381,2.27809599276115,2.27851094320099,2.27905759875439,2.27955810091684,2.28098729139912,2.28245445927259,2.28326892730176,2.28423562543404,2.32306786631791,2.32807808690076,2.32820342396266,2.32892292797356,2.32894289101465,2.32916833300915,2.32889553919674,2.32864813019665,2.32826070653309,2.32823246166716,2.32618208164416,2.32473619887976,2.32346778000805,2.32269807756387,2.32204065298685,2.3218113469021,2.32129301847239,2.32122443635614,2.32072543973759,2.32065468932941,2.3204033623222,2.32050766868414,2.32061322904339,2.32081020096402,2.32135114604342,2.32195860942707,2.32243260184962,2.32301703851331,2.32369453116545,2.32435460702934,2.3252800037719,2.32608696973804,2.32682629484578,2.32761177285297,2.32824807681006,2.32909303733527,2.32877052000764,2.32846175422962,2.32843027265512,2.32860201908638,2.30660307531086,2.28936061427514,2.28860791906204,2.2877131674605,2.28727052052351,2.28684497645245,2.28662562898502,2.28679115234973,2.28605512478682,2.28588067197774,2.28550854254697,2.28554379876983,2.28528967746414,2.28495482431343,2.28504325298347,2.2845421120736,2.28475757637955,2.28434343104826,2.28462504968582,2.28475851970371,2.28446137016641,2.28457994337339,2.28404157794572,2.28410894015435,2.28372876348327,2.28391057364092,2.28363270617937,2.28370168942134,2.28345672543214,2.28323835425097,2.2832604090488,2.28320033888737,2.28324833549723,2.28353441526337,2.28334145232945,2.28361556235604,2.28346982787444,2.28372647510862,2.28380983882022,2.2843750819476,2.28404170025148,2.28434060937235,2.28421527548009,2.28458311216774,2.28472789605868,2.28496559685962,2.28523656830113,2.28527872372479,2.28556630451396,2.28561572810895,2.28584110852206,2.28594173976905,2.28649910055475,2.28688480319721,2.28731661728749,2.287585552016,2.28800444395073,2.28831899050928,2.28901054817465,2.28950489123067,2.29059463421575,2.29135836030392,2.29210620657949,2.29323635328116,2.34503655163088,2.34986070753924,2.34954460652047,2.34938039327001,2.34982704711772,2.34988505946008,2.35036449891735,2.35064461446831,2.35062567362601,2.35041652940432,2.35051786572644,2.35086571580786,2.35031020826709,2.35064893313844,2.35000690432298
2.30349389031752,2.30330994577937,2.30305330584369,2.30310228397342,2.30323571626597,2.3032704450628,2.3033458338354,2.30374469130114,2.30423656317138,2.30459121029885,2.30500898999853,2.30549358981866,2.30597354828131,2.30662621165326,2.30749489116254,2.30827401055754,2.30960150056387,2.30998220568115,2.31102095599231,2.31153684530553,2.31245029839804,2.31301057758561,2.31383263552421,2.31396203568633,2.31429987535877,2.3143648439216,2.31444421645473,2.31517530825325,2.31542109225003,2.27584855519383,2.27571040117888,2.27515191507974,2.27457837479077,2.27449747527572,2.27471158193916,2.27455418468489,2.27458286276816,2.27449730998891,2.27411963502696,2.27466710160444,2.27494020302749,2.27523286830859,2.27552529615804,2.27579575884065,2.27607827202377,2.27638935753461,2.27681306303896,2.27709124650685,2.27754503630196,2.27794649067629,2.27849922243054,2.27905203931276,2.27965448260502,2.28102963864811,2.282264771767,2.28338808219372,2.28479226362716,2.3262324232818,2.32847928384718,2.32864421349006,2.32922117629693,2.32906719388093,2.32968076292857,2.32874460346916,2.3284893250609,2.32822013564238,2.32880467122018,2.32598044433883,2.32345292980669,2.32285648002264,2.32197745373545,2.32158580426639,2.32118627239968,2.32103973766689,2.32085540288487,2.32054082858089,2.32021479471281,2.32018865867619,2.32037447652939,2.32039307019302,2.32085673941857,2.32111057243965,2.3218764819324,2.32227624716979,2.32319701012961,2.32365422226944,2.3246476957621,2.32527708644965,2.32649302759543,2.32676075866665,2.32742157984194,2.32822702047588,2.3292148317285,2.32904454458947,2.32848690197836,2.32806392249593,2.32799080408124,2.3016766089459,2.28971634158486,2.28853631457264,2.28761065256901,2.28707681145498,2.28662531126217,2.2863939100718,2.28629916598232,2.28595035145585,2.28544386149933,2.28551288015632,2.28524800752162,2.2852181052649,2.28543541994012,2.28487067452263,2.28519660341134,2.28451789045501,2.2846975694196,2.28441821651477,2.28443154644342,2.28441657368339,2.28416591533922,2.28418906256242,2.28375135918297,2.2839360725292,2.28373157474979,2.28378451857739,2.28363305247094,2.28359830811263,2.28358059389356,2.28337480020927,2.28313412060412,2.28330048922748,2.28304929652226,2.28339567954119,2.28317979546745,2.28352946432605,2.28345628762825,2.28389289466022,2.28404116209792,2.2842136991224,2.28408270130046,2.28427949630633,2.28425556712647,2.28462756547849,2.28506773229538,2.28510463641317,2.2854401112684,2.28538588773026,2.28559492559612,2.28579498202671,2.28613843889861,2.28658458808413,2.2871798677988,2.28726696794155,2.28753516650204,2.28791220377745,2.28855160842634,2.28908262089364,2.28998457945021,2.2906542600953,2.29126347517178,2.29191349122452,2.34745530187991,2.34758880478692,2.34863320410309,2.34916440173116,2.35017698539348,2.34991938822263,2.35061600876335,2.35027392863997,2.35078141982877,2.3505000335878,2.3508346336515,2.35044580447967,2.35048014125939,2.35022992694961,2.35006548765844,2.34999756853049
2.30360281909602,2.30309809271828,2.3028885531072,2.30297070021474,2.30321863340284,2.30319405568299,2.30332611360442,2.30368186058473,2.3042376125681,2.30456206336058,2.30529212303484,2.30548243392781,2.30616277249199,2.30660325079477,2.3070865042549,2.30835292389962,2.30925339007853,2.31023527487048,2.31091455861212,2.31185222950076,2.31269854465116,2.31316325493245,2.31348301473464,2.31387555900084,2.31399290754912,2.31428041617344,2.31461052373994,2.31472690092999,2.27710703295461,2.27629917951696,2.27593978290444,2.27514444453062,2.2744092567856,2.27444192316449,2.27430763507582,2.27459779976519,2.27466298818547,2.27468482687659,2.27476344474599,2.27480436334327,2.27488669748475,2.27522362907718,2.2753785614485,2.27582986164735,2.27603763728922,2.27640255625011,2.27645258810098,2.27702388714891,2.27731633521349,2.27785615950072,2.27833393846694,2.27917846453436,2.28040113783277,2.28118888482679,2.28241487840342,2.28355645200486,2.28448210948894,2.32788954168179,2.32932499606821,2.32901268864699,2.32872801609832,2.3291698025652,2.3292781615435,2.32866340575599,2.32793576577196,2.3278005921589,2.32793508498919,2.32564791392893,2.32394899408801,2.32260353510335,2.32146705540654,2.32120616966732,2.32095717674401,2.32082514672559,2.32114985993105,2.32041628596546,2.3201865579638,2.320041033012,2.31997481290984,2.32023373202078,2.32028671743576,2.32096874210029,2.32152310345655,2.3222950613496,2.32304819552673,2.32383142059439,2.32456423494758,2.32542322280354,2.3263102454563,2.3269244212743,2.32779937780463,2.32837562245497,2.32939845576062,2.32980720044993,2.33258736885278,2.32669539671236,2.32426829547688,2.29649024756957,2.28869340557196,2.28837948026397,2.28762113289867,2.28718401821492,2.28665072885017,2.28625102875627,2.28577533684714,2.28575073124346,2.2856895557375,2.28551852666643,2.28555420561282,2.28526990701175,2.28484665945698,2.28504029968944,2.28446183945963,2.2847276665734,2.28421132574852,2.28445312650945,2.28446152062343,2.28424368712833,2.28438320710517,2.28395550646561,2.284082490384,2.28367965990158,2.2837605468806,2.28359716156761,2.28383940805688,2.28351602112742,2.28351374372641,2.28331023323901,2.28342825238858,2.2832176513255,2.28348594242054,2.28329669823304,2.28362690638125,2.28340615339043,2.28351319950303,2.28359403267154,2.28394733309932,2.28392128886169,2.28429217173065,2.28415297116145,2.28413882632153,2.28462253360322,2.28498728902986,2.28519276770396,2.28523643985225,2.28544753303083,2.28533996513413,2.28586461823535,2.28616080418857,2.28669388862227,2.28697717653852,2.28736239018667,2.28729422620765,2.28811427825276,2.28870861008674,2.28939017382129,2.28987655224544,2.29111623641622,2.29248137161863,2.29271746005588,2.29334440742939,2.34776942941364,2.34871291510607,2.34901629513695,2.34965760040223,2.34985348986853,2.34999328904626,2.35030122070209,2.35040340324462,2.35062503256385,2.35082150698791,2.35046378471467,2.35046221714884,2.3502719604523,2.35082225177641,2.35005986636201
2.30329736077135,2.30301945664979,2.30281293755601,2.30286003518536,2.30312305194292,2.30308652231248,2.30321426770745,2.30362294477028,2.30406751874642,2.30451649216365,2.30485534141506,2.30544066881859,2.30582466074428,2.30666971951221,2.30777088208485,2.30840628166395,2.30978122776971,2.31021481428061,2.31136918669762,2.311915926278,2.31309609319562,2.31318049180172,2.31384177190828,2.31365660601611,2.31380647441515,2.31414068899985,2.31443795896558,2.31344340717568,2.27768800639992,2.27654269234083,2.27550437558636,2.27481031097998,2.27450856079231,2.27418715694907,2.27445993281332,2.27439740311927,2.2747488624702,2.27466145113292,2.27482744696938,2.27484190352528,2.27499790768079,2.27519218511604,2.27556806122288,2.27581257623504,2.27636373899435,2.27641501591739,2.27676575051038,2.27699457608661,2.27729025524249,2.27780899230599,2.27817292202271,2.27914661224463,2.27999898132211,2.28113806719929,2.28225772802348,2.28376955108605,2.28558245502517,2.32852829317805,2.32909822751036,2.32920498130916,2.32961693978577,2.32927426252913,2.32958852657899,2.32845206094833,2.32773221601127,2.32726577147487,2.32667292466828,2.32519784227401,2.32328259715921,2.32264042636036,2.32173704726726,2.32128263857063,2.32088652627729,2.32068583565684,2.32057113550502,2.32025935509601,2.3200195868669,2.31999197873529,2.32018572412385,2.32022570495381,2.32054825360191,2.320843961709,2.32122634490123,2.32217707899975,2.32339271608072,2.32388776091324,2.32489010950198,2.32543967077295,2.32633430560758,2.32685583092181,2.32767454344972,2.328217483676,2.32892355180391,2.32898651741733,2.32870711935039,2.32690683849909,2.32324205832216,2.29213089648056,2.28926793285703,2.28836297743749,2.28785721255787,2.28707597798578,2.28671999770831,2.28615346986509,2.28570680501598,2.28596218788276,2.28590455751971,2.28573879053612,2.28526370216442,2.2851641542785,2.28523112211487,2.28486222082207,2.2852101215371,2.28458012213571,2.2847300700136,2.28439422069121,2.28429330526462,2.28426749960867,2.28383479284121,2.28412874901064,2.28377882294548,2.28388119789191,2.2832452639379,2.28369950017717,2.28353559720172,2.28356854156547,2.28316013377283,2.28340314876095,2.28315979206561,2.28341483361701,2.28304443471507,2.28356258687372,2.28350934492145,2.28370990267748,2.28344683986035,2.28381802257704,2.28343584281679,2.28409590302787,2.28397833971921,2.28438430894746,2.28457281643962,2.2846371041838,2.28477009420172,2.28496507521309,2.28534287306063,2.28531066193693,2.28564278458272,2.28587496373956,2.28641762323699,2.2868716661113,2.28788412434954,2.28761959696927,2.28804545011843,2.28823428349334,2.28900914615677,2.28975381106507,2.29124665146898,2.29134672421177,2.2916688861115,2.30136931478127,2.34782575335669,2.34777681412175,2.34826426538864,2.34880202397507,2.34963240634041,2.34975794654584,2.35008903645042,2.35037092457972,2.35121345893557,2.35077147020355,2.35102638368958,2.35045385617243,2.35026667875147,2.35017717399197,2.35041288875213,2.35001840080829
2.30320810026932,2.30287909533971,2.30263952302825,2.30283247913097,2.30289238404412,2.30314574013663,2.30340162282361,2.30368331653188,2.30415391114647,2.3044656545557,2.30516699653211,2.30539612820987,2.30613851328501,2.30666485255221,2.3074374402034,2.30850062062758,2.30935887566014,2.31046424191015,2.31125913603481,2.31212235594154,2.31289325223466,2.31327021191952,2.31335241514438,2.31372399433445,2.31352232949342,2.31419535420294,2.31462009662966,2.30926282496439,2.27814745647027,2.27659306763196,2.2751900229548,2.2747860235841,2.2740111390661,2.27430847176746,2.27409996410166,2.27447628743021,2.27436280317999,2.27464226301383,2.27467850265248,2.27488853424997,2.27498841414043,2.27527845088252,2.27532669056489,2.27586076356522,2.276052537844,2.27646786769478,2.27660134220558,2.27712137254655,2.27764657462725,2.27798363109279,2.27855780402102,2.27917552221721,2.2798786471635,2.28093318310185,2.28188920270124,2.28495247763464,2.32714164250469,2.32880778233987,2.32998023344476,2.32961886302415,2.32966349675638,2.32942909286809,2.32881268637237,2.32851997442688,2.32789118608844,2.32722723665766,2.32697352587581,2.32523924194383,2.3243885016155,2.32295926090701,2.32229213841193,2.32139163538802,2.32087013563017,2.32053002176912,2.32041749551881,2.32017360921561,2.32012359636769,2.32013185129546,2.32029689805481,2.32054738047649,2.32102368011999,2.32130072410646,2.32185962849781,2.3225002625323,2.32315829695772,2.32414017626885,2.32510627730507,2.32573513728638,2.32655167275194,2.32694832052814,2.32755809444064,2.32801878843572,2.32863296115275,2.32845988163945,2.32798943876287,2.32803193697207,2.32795391411657,2.28941662531438,2.28905334523831,2.28843450429934,2.28760039700827,2.28718122361339,2.28657505191612,2.28626578209942,2.2860379868039,2.28626267122219,2.28732633849298,2.28599560204344,2.28548497659741,2.28532124205055,2.2850637076184,2.28517179655595,2.28475811295547,2.28481977711776,2.28427431179248,2.28440638438915,2.28440932121194,2.28414314180036,2.28431350946161,2.28407256852175,2.28463813658694,2.28401637611274,2.28428739811807,2.28377527727099,2.28404467915906,2.28350998573833,2.28365744532767,2.28333977316025,2.28371454832163,2.28335528807345,2.28386436002723,2.28346639887231,2.28386140438709,2.28372516104159,2.28420584904348,2.28403913235913,2.28467096684715,2.2842377123321,2.28461982001898,2.28440579359119,2.28459401965541,2.28475709828678,2.28504276593364,2.28516420850584,2.28512248441494,2.2855246817019,2.28552839339284,2.28609900308737,2.28654422635148,2.28693946058178,2.28723365326853,2.28777562643079,2.28795440371843,2.28841361686191,2.28839154726105,2.28974386598502,2.29078103706062,2.2915602870474,2.29261537498504,2.30346535373567,2.34605043832239,2.34722679106254,2.34804218677195,2.34879881460243,2.3498143698772,2.35003682472301,2.35032063301119,2.35068734681995,2.35108976744136,2.35102652489293,2.3513452208129,2.35060685903611,2.35030940363913,2.35007665481593,2.35036800102474,2.34988457404072
2.30302265935208,2.30285915588936,2.30298137185345,2.30279749248266,2.30315108982238,2.30308612069799,2.30341754600591,2.30373510973384,2.30429623084116,2.30458220789031,2.30488618672608,2.30554062606214,2.30602969257213,2.30669140585457,2.30726173797911,2.30842319736377,2.30998772241486,2.31043669615129,2.3116205389285,2.31204965737188,2.31298050416634,2.31332255853158,2.31428058852546,2.31391401327924,2.31418025826481,2.31417618494137,2.31413931377783,2.30220092694004,2.27754078621647,2.2763313703129,2.27549837840813,2.27468402882067,2.27452269588058,2.27411419875279,2.27438438229739,2.2742851125932,2.27462095694972,2.2745698351249,2.27461748232929,2.274871289058,2.27517876098613,2.2752750432014,2.27556079791714,2.27584456771499,2.27631240882825,2.27646161230205,2.27678167373555,2.27709979268498,2.27747178579785,2.27807851925657,2.27874695515307,2.27943097859565,2.28014893759516,2.28104720410262,2.28184908053205,2.28600193028737,2.32960558301906,2.32921165690103,2.32974321665695,2.32963386070052,2.3299399103611,2.32969132001785,2.33030376204569,2.32884189121323,2.32830607947153,2.32712230051631,2.32628607970149,2.32502674375251,2.32382426488802,2.32309747049051,2.32265095021699,2.32156796684992,2.3209281612775,2.32056732598969,2.32052781601218,2.32024088040768,2.32032898266282,2.3202106120419,2.32061067925345,2.32057346481074,2.32108861662178,2.32143085732092,2.32222570764404,2.32278157248153,2.32396222978875,2.3243960503627,2.32544776307403,2.32590999705928,2.3267126596393,2.32703948317382,2.32754279681688,2.32798761779292,2.32823039321861,2.32852010080035,2.3284594670354,2.32917813683812,2.32888780388494,2.28841629735491,2.28897097967189,2.28836701390602,2.2882301923649,2.28709298727584,2.28653838116898,2.28625953048533,2.28622566234843,2.28609005145403,2.2858812696386,2.28575767583737,2.28555316355486,2.28517894090367,2.28519320082935,2.28490585780915,2.28537650737531,2.28468927777079,2.28474978818302,2.28444524342209,2.2843196993586,2.28427829055239,2.28398262603509,2.28413235056134,2.28388384586006,2.28408289109905,2.28404008363598,2.28383476923351,2.28333060203489,2.28359241969332,2.28325070045367,2.283576350588,2.28307803402885,2.28362238749711,2.283222850652,2.2837398507168,2.28344248139136,2.28404024262555,2.28416698514722,2.28434436814484,2.28414142385046,2.28449005722435,2.28440324964681,2.28456981379531,2.28451911226465,2.28468408424697,2.28479425535589,2.28500176975818,2.28544401015213,2.28549476600382,2.28611502571609,2.28596286816923,2.28625845643208,2.28662965017792,2.28732693717011,2.28765838239801,2.28846413574154,2.28855932405844,2.28925626398,2.28983082355587,2.2905289886055,2.29163479208963,2.29260093232027,2.30973020579001,2.34733987655141,2.34756894071058,2.34827632930306,2.3489709745127,2.34982647577085,2.3503978777586,2.35169582140523,2.3510345962142,2.35134150096605,2.35101671032771,2.35123995207629,2.35065960520523,2.3506416775008,2.34998170952081,2.34948918613229,2.34994603612667
2.30301754503065,2.30284565403622,2.302611989781,2.30292208367569,2.3029135872827,2.30322345862387,2.30340076782829,2.303731983381,2.30429686218072,2.30441539412537,2.30498878954023,2.30541841084893,2.30640278094363,2.30684425448389,2.30767951694324,2.30866625764407,2.30953738733501,2.31060469884262,2.31134613329706,2.31218083704185,2.31287247489528,2.31333263039748,2.31362189887508,2.31406546044731,2.31428363238633,2.31460690608336,2.31475131597917,2.29368603401287,2.27639271651234,2.27602728576165,2.27504634904388,2.27477772049351,2.27420412419617,2.27426550494473,2.27388364262398,2.27435774733399,2.2743940897063,2.27464353288997,2.27475344719205,2.27494638638441,2.27513413796973,2.2753612739353,2.27556328818411,2.27600004589363,2.27653232959329,2.27661482506018,2.27665941230126,2.27717735548904,2.27749134592434,2.27806044870834,2.27862630847801,2.27940413753832,2.28033655621398,2.28122762499709,2.28233109552998,2.2882927482422,2.32814199029062,2.32903951534124,2.32977494870394,2.32965425416512,2.32987794563324,2.32962330402073,2.32945562971019,2.32872205952751,2.32789201323569,2.32682423883694,2.32571094384063,2.32463623295031,2.32405682174901,2.32287446258788,2.32237462473461,2.32140283836254,2.32079329109207,2.32044637670154,2.32032286443803,2.3201482561111,2.32032960815228,2.32017150086573,2.32024154968748,2.3205695141369,2.32113585185938,2.32157877961386,2.32244480585603,2.32288764513191,2.32367187068747,2.32448257202189,2.32560380048314,2.32611236555775,2.32707248636968,2.32715111449513,2.32765819357703,2.32812821287334,2.32856195308868,2.32896203695031,2.32837623364045,2.33025717423629,2.28924646183618,2.28861461496837,2.28857472894423,2.28823084314538,2.28755411737375,2.2870770909009,2.28663707495278,2.28621991169867,2.28601570831715,2.2857478719761,2.28561065545926,2.28544069010527,2.28529487299488,2.28518886954829,2.28479516706944,2.28505550002716,2.28463687402234,2.2848244670118,2.28444839664096,2.28448369351348,2.28453373359375,2.28412476635155,2.28405553044328,2.2838926614873,2.28402329939973,2.28381029382676,2.28371662627782,2.28354126609053,2.28351817714799,2.28338667714678,2.28389784944264,2.28348412994715,2.28405158182221,2.28348510808463,2.28375734657296,2.28359009384578,2.2842801214718,2.28391462180174,2.28438769965348,2.28419066168986,2.28466912868943,2.28431369063976,2.28457981578414,2.28449109579349,2.2847689161224,2.28484463475154,2.28498290347254,2.28524825848756,2.28528261166113,2.28567266666238,2.28566479599082,2.28605002394734,2.28606449526479,2.28674603308302,2.28693147426935,2.28809214434365,2.2884977158219,2.28910930017117,2.28923105340761,2.290206735272,2.29103524814002,2.29178511964571,2.29236137191273,2.32010003959458,2.34683065962407,2.34781189110869,2.34888920681768,2.34924057177755,2.35023493406289,2.35034390458938,2.35087221513255,2.3510370267484,2.35153405778362,2.35113271606043,2.35106269419829,2.3506625091474,2.35061469007366,2.35007829089007,2.35016860218428,2.35007915696272
2.30289469852928,2.30280723806151,2.30322115231727,2.30283117037277,2.30332983392385,2.30310267018023,2.30363783533905,2.30359818835265,2.30384943721746,2.30443964635269,2.30480926178985,2.30559755294975,2.30613786232519,2.30700514834259,2.30801491007655,2.3087576686176,2.30998866590167,2.31067219025314,2.31194894735873,2.31227222708123,2.31301358420406,2.31331227157054,2.31366075243455,2.31404763973529,2.31477034425595,2.31504170404769,2.3161801892141,2.28564713433232,2.27771439551666,2.27602504373015,2.27527921285291,2.27461647222352,2.27443425850935,2.27412278206803,2.27409313936817,2.27432661556749,2.27471301361678,2.27472820552309,2.27486004593539,2.27496663315335,2.27510204652334,2.27527793328758,2.27545340292206,2.27578350332867,2.27604624621725,2.27650174557123,2.27719332245344,2.2773279081131,2.27783192184782,2.27826295901353,2.27880518245078,2.27954445854106,2.27999393688423,2.28126360657076,2.2822446149434,2.29253123055624,2.32894077596521,2.32909890768006,2.32941143613136,2.32950747556927,2.32978459272369,2.32939075171174,2.32898679810306,2.32891309791351,2.32935279684223,2.32718467282219,2.32564735393728,2.32460280999564,2.3235052760394,2.32272016889615,2.32180839016777,2.32136322909752,2.32113870218952,2.32047553904128,2.32010107003721,2.32003117431861,2.32000773479301,2.32008009728615,2.320314877693,2.32045134721619,2.32063707019044,2.32154201497231,2.32250992425684,2.32291648620785,2.32354432072186,2.32452912343312,2.32563367900296,2.32623208531604,2.32701750130366,2.32730546033104,2.327795004443,2.32868347661998,2.33026277287066,2.32960226894091,2.32978672426145,2.33057080528704,2.28985439431631,2.28890539676565,2.28875479267536,2.28801547703962,2.2877574772707,2.28687176552443,2.28638097810527,2.28609432075768,2.28572790966672,2.28567293946535,2.28534124455103,2.28530674954653,2.2851928812846,2.28498138461239,2.28521704543714,2.28481897045585,2.28525647008255,2.28465962627339,2.28483132930601,2.28440928190349,2.2842799069269,2.28412543922134,2.28393078153923,2.28389967405547,2.28369452146882,2.28385087441249,2.28381658856355,2.28375860933254,2.28346827041275,2.283628909411,2.28311703518193,2.28384898156738,2.283709569379,2.28412768375733,2.28376661410509,2.28403013317923,2.28348129049932,2.28400095964289,2.28384903341424,2.28430074754772,2.28425770795002,2.2844694959444,2.28418148751933,2.28457874061945,2.28473229588656,2.28483204264929,2.28508683500943,2.28517408578154,2.28577617785811,2.28557805466955,2.28593649429782,2.2859193964749,2.28614767225683,2.28662020798702,2.28756488238432,2.28823583459605,2.29056980661852,2.28928181851055,2.28959762487467,2.29025870870117,2.29129935982318,2.29208433771189,2.29330403372561,2.33013553358409,2.34793662565719,2.34845081237643,2.34876454456292,2.34940652833686,2.35003176527747,2.35024504697288,2.35077008235587,2.35095921540554,2.35176905456392,2.35115652748087,2.35122369714443,2.3506803630465,2.35060353634323,2.3500545299839,2.34973169006213,2.34999742397821
2.30283596835837,2.30276093706125,2.30266886802915,2.3028606615934,2.30271128978396,2.30311214878107,2.30318145746934,2.30351304899529,2.30376760088087,2.30438997893764,2.30540932175177,2.3055110363054,2.30613273973927,2.30699735547295,2.30809533684143,2.30899667303202,2.30996790893514,2.31090919305799,2.31181290658003,2.31240654401846,2.31306244065853,2.31352991357987,2.31396814402892,2.31408304252545,2.31408228689623,2.31492668152799,2.31589331318942,2.27962988119809,2.2758203892729,2.27539925435606,2.27470810407779,2.27463146668117,2.27438981783195,2.27438289251543,2.27434933256347,2.27445534558196,2.27467467548488,2.27464533353046,2.27480604797045,2.27488293990053,2.27506129619194,2.27525901396736,2.27549683285844,2.27578896785826,2.27609106797883,2.27640525870827,2.27659268237821,2.27730380248398,2.27792833576487,2.27832045038483,2.27903635765458,2.2796224802623,2.28059876791917,2.28138594893666,2.28209822321435,2.29861086456458,2.32911568524403,2.32926569189238,2.32936665447481,2.3293921110154,2.32965727065597,2.32942521952837,2.32962287254519,2.32880669726616,2.3288305011297,2.32682341616213,2.32563621494902,2.32428070829772,2.32350511222184,2.32243849660071,2.32186080735638,2.32113388136046,2.32072972899566,2.3203541504521,2.3203288140773,2.32002621511483,2.32014087620042,2.32010859775908,2.32033784034333,2.32059557759287,2.32114930372993,2.32162889476697,2.32241490918755,2.32288114498629,2.32358604168203,2.32460323650417,2.32605087022781,2.32621812348355,2.32690919437364,2.3272271618832,2.32793958135377,2.32846678403424,2.32915725278421,2.32905287782183,2.32839647000666,2.33016789751186,2.28968129062261,2.28875055310583,2.28856041418126,2.2878457651433,2.28725027577533,2.28671146841518,2.28638310615409,2.28598811084042,2.28581100417133,2.28555838637673,2.28550438566242,2.28520882478401,2.28481406816855,2.28499301769347,2.28453891330343,2.28491973935575,2.28444656237696,2.28469625842131,2.28420716765288,2.28433580566365,2.28405232500656,2.28400071056065,2.28381544733918,2.28395489073338,2.28405815475796,2.2840158363797,2.28405711369606,2.28376156846043,2.28389164727999,2.28349910938826,2.28398563672446,2.28360262517263,2.28446393233021,2.2838856524673,2.2848390542461,2.28383085506799,2.28410899346997,2.28375685068589,2.28400261713238,2.28404766300714,2.28461918510129,2.28427447829752,2.28459634913916,2.28450510593826,2.28462444932455,2.28491384091659,2.28500711322762,2.28525876715263,2.28505628803266,2.28571434356703,2.2857659409358,2.28628692466911,2.28639624471367,2.28697500787269,2.28708695169963,2.28809455045973,2.2881260119269,2.28922453597351,2.28955922060229,2.29046225705957,2.29116200135444,2.29207835355214,2.29341895806783,2.33638885249615,2.34928959789212,2.34936261807286,2.35023614962873,2.34962086094494,2.34973397148744,2.35004816233164,2.35065434616527,2.3507529530892,2.35113053188306,2.3510596296467,2.35123444239757,2.35068047601923,2.35049532527967,2.35013509509477,2.35029009024978,2.35010422376332
2.30259583418345,2.30255590500959,2.30272575289982,2.30246938365386,2.30289451199991,2.30278223887772,2.30326959491785,2.30343942364519,2.30391438131472,2.30458206436669,2.3051973640993,2.30579891786612,2.30616856999873,2.30718003578475,2.3082303661498,2.30896857639209,2.31013117065368,2.3109232576683,2.31209916641858,2.31251763348861,2.31302099903693,2.31378360599114,2.31489260267864,2.31414988337981,2.31372260559514,2.3147501422135,2.31587616528739,2.27620803053314,2.27498086597461,2.27483560274684,2.27471646975576,2.27443137422919,2.27445180840665,2.27433035412208,2.27462135631012,2.27438931605962,2.27427559802334,2.27459833441497,2.27470768840535,2.27491564753249,2.27491381906842,2.2752699688657,2.27551668237062,2.27575502993213,2.27594675280412,2.27627402522293,2.27645022736666,2.27722273788807,2.277876764773,2.27825951372483,2.27854064350457,2.27969331577924,2.28046747235928,2.281710103359,2.2827803958226,2.30542513306143,2.33070815079901,2.32978465399694,2.32934565542792,2.32941651762099,2.32956088288096,2.3293061234476,2.32943545109968,2.32830481077665,2.3271991396395,2.32641680096989,2.32538971361156,2.32438153164218,2.32336253744553,2.3225395489365,2.32169618692971,2.3211353759843,2.32069396261512,2.32029391300405,2.32002403126522,2.319994368714,2.32000797999942,2.3201642532386,2.32046098917711,2.3207605400499,2.32123248688572,2.32189188332816,2.32270938570605,2.32313623490441,2.32369381769466,2.32477726935282,2.32591553433988,2.3262763480546,2.32660306755966,2.32734963520064,2.32810558920974,2.32849558953843,2.32873339509414,2.32891466381792,2.3281110524279,2.32990374301497,2.28918738596792,2.28829219872318,2.28873107999673,2.28770419512053,2.28713292802935,2.28667099769195,2.28612330847634,2.28612233201989,2.28594834311167,2.28572578844454,2.28540309590947,2.28529148407737,2.28528644432282,2.28500072056027,2.28528682703184,2.28479137197348,2.28503819924457,2.28459044196106,2.28471113331497,2.28434853672361,2.28435648181693,2.28398953500535,2.28379468416417,2.28393710666962,2.28435084291361,2.28402305141218,2.28394952472955,2.28378290768973,2.28329385497344,2.28363567125766,2.28311945580836,2.28374436231981,2.28320617762088,2.28392542499672,2.28333667012226,2.28392165578183,2.28344272771559,2.28399848093071,2.2838456558912,2.28417834279534,2.28387552727387,2.28430834078059,2.28405621201574,2.28465333701698,2.28495192565064,2.28495231678818,2.2852859765448,2.28515724914724,2.28558583352363,2.28574437691365,2.28633362793295,2.28640808811748,2.28702037219581,2.28691672201869,2.2875909259222,2.2876797865524,2.28852861396871,2.288836269832,2.28991609471969,2.29027640539356,2.29083301841892,2.29186217492263,2.29246962192379,2.33913609838757,2.35052636506273,2.34984685927192,2.34968947828798,2.34972585591864,2.34986656255844,2.35007436530024,2.35011978765247,2.35062332300763,2.351222627565,2.35101391893735,2.35117863769586,2.35072001813938,2.35051052514606,2.35023873806394,2.35026917574806,2.35009755695505
2.30320026662864,2.30261037818622,2.30193704464354,2.30252842441766,2.30238407425184,2.30294374027872,2.30290485906156,2.30353906615102,2.30415089418913,2.30456826398455,2.30560542585205,2.30579971851237,2.30683621434607,2.30730062011756,2.30825385987683,2.30911120334517,2.3098745532677,2.31118692775351,2.3124831806971,2.31283142533704,2.31333155766895,2.31376759022166,2.31403709573976,2.31404768710552,2.31393995502495,2.31464196204715,2.31516870913999,2.27455224021845,2.27442524531873,2.27458546410754,2.27446509816744,2.27425509034568,2.27395280031399,2.27404703931203,2.27389182166702,2.27403937850871,2.27428332856114,2.27436345099563,2.27490413936413,2.27480016466726,2.2749566489593,2.27516433316373,2.27551464937786,2.27565126310377,2.27585456679453,2.27637938608661,2.27700148346241,2.27744558165101,2.27804419421142,2.27829174935323,2.27876420695784,2.27972855156999,2.280962384838,2.28187214166653,2.28282890200811,2.31206790742793,2.3303189531766,2.32981842688271,2.32982259350467,2.32927373126518,2.32908111999932,2.32882509208171,2.32857972933064,2.32785363409207,2.3273386416103,2.32611656195401,2.32536425486927,2.32416070361443,2.32353986983668,2.32240137510922,2.32181039497602,2.321016377031,2.32055840150901,2.32020567203309,2.32015430385552,2.3200085664301,2.32030181713541,2.32025715291169,2.320709877497,2.32093893763088,2.3216761169169,2.32203868547896,2.32296606186924,2.32325431596379,2.32410251649573,2.32487840568655,2.32618469830693,2.32629318892166,2.32686636072923,2.32738271319711,2.32833305898711,2.32848285527755,2.32893496248946,2.3287638101316,2.32879375326718,2.32890655178591,2.32747126955615,2.28752186060544,2.28817006822173,2.28752092850151,2.28758279255125,2.28663493598759,2.28642671266784,2.28595766034274,2.28606428419877,2.28560719507147,2.28552932979427,2.28539078670787,2.28527942435302,2.28526948595068,2.28489499164008,2.28512625440024,2.28476704778094,2.28493462571892,2.28464193867128,2.2845868280616,2.28420857116033,2.28421439389156,2.28391041262428,2.284125301836,2.28399733917122,2.28410868945035,2.28401405629211,2.28385789568607,2.28395367703284,2.28362836275029,2.28402474387546,2.2835397358512,2.28400524798849,2.28356223227662,2.28417557150539,2.28360223781073,2.2840400025561,2.28397777799929,2.28481926155853,2.28415763908595,2.28406193242114,2.28427426342837,2.2849058915321,2.28484472352104,2.28517539751487,2.28510097973378,2.28471398399792,2.28532293450954,2.28525197386464,2.28621873958052,2.28683867458763,2.28682446096623,2.28637768276685,2.2871534081552,2.28713672375305,2.28802693253707,2.28803899827521,2.28915431100022,2.28928740056211,2.29059880382537,2.29139374526689,2.29224239377154,2.29283279023413,2.34387168757535,2.35065459111868,2.3498036347898,2.34957640390182,2.349761577062,2.35043371947196,2.35046018450285,2.35102315088451,2.35085330464796,2.35112087792301,2.35112868609466,2.35180909299915,2.35091616317084,2.35078631927562,2.35031697310447,2.35037779957986,2.35022985283374
2.3030698777831,2.30267716628098,2.30287034520758,2.30253126595241,2.30326374161941,2.30290484399267,2.30353258056903,2.30348179623993,2.30387557108923,2.30451816714721,2.30497301374354,2.30582792485481,2.30631376165962,2.30732609765012,2.30836414558595,2.30916574693268,2.31036565310215,2.31130100050385,2.31273202047376,2.31310437380213,2.31385084134186,2.31401353081785,2.31432010261525,2.31417630465966,2.31436517848168,2.31430221325324,2.27481200965393,2.27488482394087,2.27443839061772,2.27443004750548,2.27432846144583,2.274116878525,2.2739749591911,2.27410584342937,2.27416553374799,2.27392733360168,2.27308630913631,2.27418291528121,2.27457145546742,2.27486783682119,2.27480802923689,2.27525054219916,2.27542694876474,2.27572450327245,2.27579391846539,2.2763914049008,2.27685748107809,2.27738591587119,2.27789066792934,2.27832482173649,2.27862198207585,2.28001894757026,2.28098410162533,2.28223797458829,2.28311599261631,2.31791484283845,2.32990558859209,2.32985206353697,2.32973360291242,2.32947661718809,2.32903994718427,2.32886144486179,2.32834575943482,2.32772580405748,2.3269223929521,2.32605903215776,2.32517990082931,2.32421954575008,2.32316217028849,2.32251455136057,2.32174007705049,2.32112103021471,2.320494698109,2.32024744600923,2.32006290149208,2.32003081897004,2.3200768427306,2.32023217589732,2.32047228954737,2.3210084384643,2.32165654807932,2.32217208890393,2.32274147266389,2.32341194698999,2.32412852826479,2.3250435347734,2.32603690550627,2.32647191037319,2.32704064387023,2.32753420677699,2.32804672471404,2.32847978116231,2.32868440406213,2.32860653028307,2.32835305450311,2.32848340834806,2.32758296148197,2.28735555237394,2.287763151654,2.28754540786805,2.28738203054956,2.28680190474752,2.28592586133728,2.28602053230628,2.28547456053202,2.28560757910875,2.28534769302899,2.28534794828905,2.28551210477666,2.28509421405951,2.28536359163157,2.28495831200707,2.28540401709352,2.28484006546238,2.28495756143559,2.2845394567734,2.28463990846393,2.28421854063304,2.28426962015077,2.28409078572728,2.28433197631464,2.28407726919501,2.28407655505565,2.28402183794166,2.28378936950895,2.28393717962736,2.28346630983024,2.28389156454022,2.28342375127942,2.28387004288583,2.28322134121203,2.28377552761554,2.28327715615764,2.28404715187133,2.28410832773823,2.28437727290925,2.28418362399401,2.28459753911593,2.28465518173791,2.28490580267821,2.28515226167859,2.28510589764869,2.28562966439074,2.28535522434384,2.28580063814631,2.2862059024177,2.28746260910146,2.28689284359471,2.2871711182843,2.28721451989444,2.28801789194633,2.28799674538055,2.28899639998594,2.28932495118333,2.29042710012097,2.29076321499117,2.29115923894559,2.2996923884046,2.34836214367367,2.34838630268582,2.34938120449698,2.34944223908046,2.34935292503101,2.34995989684861,2.35059654986289,2.35086575447729,2.35132618827617,2.35099366091485,2.35103731179496,2.350852912644,2.35105721387012,2.35077041451034,2.35076641536406,2.35044744737369,2.35043661798675,2.35048790093512
2.30274168140414,2.30243160828811,2.30228740549596,2.30248614875066,2.3023405647995,2.3030008594102,2.30328581404524,2.30351694371453,2.30371028099788,2.30442511855041,2.30554712980437,2.30575470960321,2.30650084852229,2.30738058395402,2.30837488434392,2.30944684765921,2.31034111426205,2.31150459851041,2.3125196053264,2.31326013948759,2.3141004591672,2.31420583457785,2.31478174892382,2.31432741100853,2.31428112607431,2.31295091727659,2.27654415026102,2.27528237538592,2.27451395740505,2.27439163563479,2.27437867996178,2.2740673195867,2.27392423361641,2.27411629571167,2.27454498644138,2.27397690641773,2.27365970509167,2.27412202578645,2.27484329142398,2.27478927225284,2.27508150663063,2.27518736069201,2.27553115619169,2.27568917981938,2.27605194771741,2.27647087782353,2.27710857832581,2.27749540346988,2.27803867085302,2.27846600477008,2.27933457404772,2.28024546796621,2.28184784841654,2.28244429302918,2.28333618581026,2.32235417154111,2.3298194023447,2.32974184863707,2.33011859714942,2.32960423995853,2.32971382251092,2.3291201728459,2.32889422275435,2.32781968356593,2.3269617916664,2.32597379168903,2.32529620616179,2.32421138576184,2.32358485640311,2.32260870408378,2.32220243006523,2.32128223222609,2.32085577350391,2.32035722616287,2.3202271956345,2.32004899507705,2.320275034477,2.32025089623893,2.32054951602141,2.321126466073,2.32206264020221,2.32232440176658,2.32306144045482,2.3235888208842,2.32459662616998,2.32517576703999,2.32631676496556,2.32651304459218,2.32718878872378,2.32768020834651,2.32864547671044,2.32858054100796,2.32901653610133,2.32843532814682,2.32828965492853,2.3283562483532,2.28881733608244,2.28770911783334,2.28829574401142,2.28747416410167,2.28762322497198,2.28670384456866,2.28664778991035,2.28601205175529,2.28590328023916,2.28567065326426,2.28569162442167,2.28549733919639,2.28515924568399,2.285239765852,2.28460766671457,2.28511286211691,2.28484334538459,2.28501029743323,2.28473229616164,2.28471891733123,2.28434500480178,2.28447981753038,2.28429487005089,2.28435115820385,2.28416778419704,2.28417875950773,2.2840798517336,2.28409138951403,2.28447405278531,2.2839923410199,2.28423871460645,2.28384646687537,2.28432645990568,2.2837376292553,2.28419328530501,2.28366150077784,2.28394352053732,2.28398319149704,2.28417889251342,2.28440322057149,2.28497749143499,2.28465624698575,2.28491561483982,2.28488086378259,2.28468686403397,2.28518270152248,2.28504067001387,2.2856729451076,2.28574031144432,2.28638030463785,2.2862099594603,2.28710506138429,2.28728178355796,2.28765349201618,2.28760580751115,2.28838219342877,2.2885901494668,2.28998179924534,2.29052528982765,2.29150833856271,2.29195999222347,2.30434549051136,2.34575292912747,2.34784607485202,2.34847602043301,2.34937847268755,2.34987742713562,2.35014190343488,2.35105625082497,2.35130400455304,2.35243208159954,2.35126360296041,2.35064949489139,2.35072998977057,2.35099770900514,2.35071703931078,2.35087814452408,2.35047920826031,2.3505286959656,2.35057697117808
2.30214565493959,2.30222362997452,2.30227170004654,2.30223667718399,2.30265821970564,2.30278643726059,2.30359771856771,2.30346956925506,2.30374248668822,2.30455144726468,2.30526105405725,2.30595837813049,2.30649398067162,2.30758550524874,2.3089672310714,2.30963518279083,2.31102882867166,2.31163524590343,2.31278787952685,2.31331891904904,2.31441776157764,2.31393712781865,2.31406178579891,2.31400508627779,2.3143421114346,2.30996159578448,2.27708943739876,2.27562280723502,2.27483966355161,2.27438790769485,2.27411552091899,2.27395363469365,2.2739127188344,2.27414072756324,2.27431760255924,2.27426675259075,2.27406327598001,2.27441198504148,2.27442799016014,2.27485075177116,2.27494813121251,2.27528561763243,2.27552390826366,2.27582427665745,2.27607790012384,2.27649224304429,2.27675140344224,2.27745638975607,2.27801184807158,2.27855107880885,2.27903652582555,2.28040646268524,2.2815847651158,2.28273251935755,2.28361132624552,2.32522008901071,2.32955723640427,2.32977114008092,2.32985833129959,2.32989053791462,2.32969839792605,2.32964121351121,2.32982055638342,2.32820640374462,2.32697875109015,2.32610472860167,2.32528924267576,2.32435806476668,2.32344175658126,2.32273272022218,2.32212690864008,2.32140726946815,2.32112078101768,2.32049876211907,2.32027073197946,2.32010773267093,2.32002886952147,2.32033818721625,2.32081616517708,2.32125951260384,2.32211330187634,2.32246759799821,2.32318299488575,2.32375950712631,2.32458903800785,2.32520586477853,2.32584282401216,2.32656645830713,2.32727382144308,2.3277389460564,2.32836996510844,2.3283074999543,2.32831267916274,2.32796352866934,2.32733419539564,2.32795147705671,2.32828372208237,2.28794692651264,2.28830699956461,2.28768660110629,2.2871770113535,2.28698977588522,2.28647719888683,2.2863720832916,2.28593687693355,2.28582235933887,2.28561187166439,2.28541973785773,2.28560788241068,2.28515038177167,2.28544905515419,2.28503863795706,2.28535017414335,2.28489757116543,2.28489323056516,2.28467822633651,2.28483043010724,2.28445760970993,2.28452535538251,2.28432538517888,2.2844949890845,2.28426169260885,2.28405779157353,2.28425826448471,2.28415705835173,2.28423411717407,2.28390139760667,2.28416801679786,2.28378871872504,2.28405219813886,2.28341795181743,2.28407275097698,2.28398895799301,2.28462040475033,2.28536182452583,2.28475544298619,2.28432573828082,2.2847905752743,2.2850022831847,2.28514761242989,2.28551843446238,2.28528814573865,2.28562650083152,2.28556831864396,2.28619737898476,2.28633653776613,2.28750977237406,2.28707296303824,2.28764192537517,2.28754186352135,2.28820795043407,2.28831257383644,2.28920781765132,2.29054024802989,2.29348595653793,2.29236642960526,2.29270712520642,2.30986189450883,2.34660995748644,2.34902087280624,2.35195154478566,2.35015499110779,2.34941790292019,2.35028016348418,2.35108164521001,2.35138027851858,2.3520306002045,2.35130878511625,2.35096017940971,2.35074131923817,2.35081183334733,2.3507254857207,2.3510054766165,2.35074748823022,2.3507560323563,2.35084983396394
2.30221799449047,2.30203108541645,2.3020902807178,2.30224332765763,2.30229992296992,2.30275012269681,2.30295916071067,2.30335325284444,2.30380915434282,2.30444122348852,2.30559442764457,2.30591159987037,2.30675598280258,2.30769551254983,2.30879318283942,2.30982358250787,2.31067498951033,2.31190591911116,2.31311616716349,2.31325254565042,2.3137854499646,2.31340176282055,2.31371680489694,2.31343426381055,2.31359119969802,2.30450284853956,2.27600979378859,2.2754033217308,2.27464233745288,2.27427312512683,2.27380890825854,2.27381846133657,2.27379800500659,2.27397135268298,2.27427850005912,2.2742163653855,2.27452421169329,2.27445847177147,2.27481149311245,2.27481680139573,2.27502643104642,2.27516938973394,2.27538206509562,2.2756819055414,2.27608756417168,2.27648662499396,2.27707252353843,2.27753569649242,2.27821050978114,2.2784863656847,2.27922192478109,2.28009916732689,2.28153762610861,2.282406770521,2.28397815083936,2.32705923444379,2.32946508059297,2.3296114537505,2.33001083884393,2.33002743127222,2.33042681768512,2.3297565520931,2.32955782434313,2.32830298020915,2.32757631192679,2.32630060407083,2.32529837498835,2.3245625776687,2.32373780593974,2.32283244795109,2.32200578055161,2.32128921845007,2.32074078272137,2.32043567264352,2.32038356428805,2.32018709092872,2.32039060835377,2.3204121349867,2.32068688006837,2.32121109473985,2.32178349870489,2.32244029337481,2.32326049036762,2.32387595097394,2.32466116149962,2.32542082455662,2.32636181470136,2.32681837519237,2.32772495562377,2.32784143211836,2.32817915295281,2.32805264234836,2.32769555142703,2.32770291628512,2.32744061488783,2.32691860396433,2.29006482409355,2.2884951051774,2.28816283089785,2.28751830467261,2.2874997898678,2.28681884267933,2.28687014404157,2.28639710997089,2.28648666233961,2.28600908549847,2.28577451583677,2.28561333847299,2.2850942595801,2.28542591070918,2.28512300244582,2.28527634311376,2.28495126724424,2.28502185451888,2.28477837573557,2.28483037039577,2.28479917640831,2.28459379488074,2.2842359587336,2.28438245126154,2.28429133622876,2.28432910410906,2.28452710483598,2.28425291188897,2.28452361274383,2.28410894539396,2.2842482615072,2.28409787110894,2.28458611169139,2.28396325403352,2.2841325131787,2.28404421438813,2.28473290615076,2.28443953798874,2.28451732650598,2.28439647053585,2.28435855134222,2.28466123045404,2.28534356212576,2.28519986646329,2.28523308359556,2.2855790647619,2.28553717004189,2.28592828876554,2.28562427062662,2.28649637608926,2.28646543174486,2.28721157410993,2.28719181199763,2.28778410748534,2.28789374858769,2.2886101006546,2.28887915906527,2.29032573164325,2.29072865065203,2.29212368288576,2.2924624702983,2.318978744297,2.35014984592506,2.34964107145289,2.34962470147909,2.35003062770922,2.35009929875255,2.35053921153859,2.35150072052571,2.35137209256113,2.35161749510237,2.35149528066508,2.35172252477713,2.35097974936689,2.35056044404792,2.35068023672829,2.35109798621621,2.3508622295004,2.35137915570404,2.35106704030726
2.30207295440956,2.30203112442057,2.30198034534395,2.30210995520433,2.3025485874364,2.30262120974926,2.30303304531213,2.30336143544873,2.30366814264657,2.30458784051534,2.3051877466764,2.30610745557037,2.30682328989051,2.3077638015149,2.30898889606195,2.3097974998154,2.31125815191272,2.31186332377931,2.31315228243013,2.31256741459742,2.31268059036536,2.3118841838208,2.31155067580818,2.31221766023922,2.31338219602626,2.29689320059726,2.27599679213234,2.27530341639237,2.27449735310771,2.27424596488663,2.27414094391771,2.27391063953851,2.27381422243219,2.27396200538707,2.27393808060585,2.27425381487685,2.27426214748332,2.27456428957859,2.27463193638788,2.27481798439783,2.27496514360923,2.27508511982943,2.27520766996886,2.27562501456643,2.27594908276943,2.27647965075034,2.27697765721666,2.27758681826417,2.27823980918675,2.27857673052015,2.27872526763471,2.28003649349544,2.28040339837761,2.28190341376249,2.32871115150899,2.32833903477685,2.32925601116309,2.32987393121407,2.33057664023779,2.33056278740235,2.33056045637071,2.33005602166044,2.32945996273373,2.3283924556106,2.32716667458904,2.32665301767604,2.32655142620105,2.32525501541703,2.32519350217647,2.32323356991941,2.32200383885532,2.32130836772675,2.32077851679536,2.32042206557156,2.32024157851016,2.32025145391864,2.32034874879463,2.32058030583415,2.32099953858719,2.32140108002371,2.32208956366004,2.32256979348536,2.32328584279405,2.32414078323471,2.32530522521862,2.32574930455102,2.32656387873251,2.3269308948844,2.32752234188535,2.32793315801245,2.32851432556204,2.32809247970419,2.32732767538193,2.32785342498247,2.32791079899861,2.32447761649557,2.28954310928984,2.28879631685947,2.28802134878386,2.28783190502329,2.28734652591885,2.28717382793811,2.28676619715873,2.2865492460008,2.28629945149895,2.28591958101486,2.28581581427709,2.28545264399321,2.28581324667189,2.28526973342396,2.28555678388372,2.28512362369627,2.28526752589848,2.28499327540952,2.28505571430397,2.28473651701815,2.28457027071018,2.28455423615493,2.28474398379109,2.2845626952816,2.28460576810732,2.28455279036955,2.28439759370361,2.28437676911665,2.28388946106774,2.28424717325915,2.28415255984041,2.28439422123884,2.28434113428569,2.28436622803643,2.28392213226066,2.28443849786866,2.2844482460182,2.28463770177627,2.28449271137238,2.28454160979566,2.28419215557597,2.28473456375313,2.28484062188199,2.28514866758607,2.28538536078324,2.28560342808248,2.286502621278,2.28593265446751,2.28628803990046,2.28639074124892,2.28737262761115,2.28701743384365,2.28743934079761,2.28762256181339,2.28823418969724,2.2887099708428,2.28981248991086,2.29053600021448,2.29199768805477,2.29257394973101,2.29410477540645,2.3285903296463,2.3477490816826,2.34993712428354,2.35162163723726,2.35068691676795,2.35040233589753,2.35080938054178,2.3512446219805,2.35147781640342,2.35209458017421,2.35167970486661,2.35207437219039,2.35128397295282,2.35125289316548,2.35094550613329,2.35106236133204,2.35102196260672,2.35112139968638,2.35122338402398
2.30231250999382,2.301854970517,2.30191384166014,2.30207601531233,2.30236245974555,2.30262574032379,2.3029152655,2.30335745841399,2.3040715815221,2.30453043177036,2.30549814211274,2.30613857162233,2.30723468822815,2.30791982156727,2.30860904450002,2.31001151199489,2.31100972157236,2.31193026251793,2.31251850414085,2.31176841636632,2.30926702232873,2.31039255354622,2.30931844896451,2.31086062499485,2.31203378316281,2.2888745269632,2.27613500775491,2.27529908090741,2.27453140930427,2.27424563132292,2.27405276686327,2.27387241856355,2.27368014357639,2.27388150516011,2.27405076380291,2.27421173392443,2.27462504211293,2.27455645093305,2.274693549327,2.27479346620057,2.2747227983679,2.27509946210959,2.27518632693763,2.27566333290365,2.27597141720363,2.27642873303909,2.27671640249442,2.27746411608709,2.27824196757522,2.27842154742776,2.27912377460165,2.27990855139471,2.28139000462539,2.28188055676981,2.28263850807903,2.32871890171263,2.32954929702428,2.32999780230964,2.33113918662412,2.33072733738694,2.33116880093506,2.33022849442932,2.32979716767446,2.32865472030416,2.32788012480434,2.32671440932232,2.32580969303979,2.32490696829159,2.3238926786404,2.32312674303625,2.32242026109188,2.3214765322325,2.32077944906812,2.32055928307245,2.32046131481136,2.32045753568624,2.32062572432375,2.32080754459841,2.3210714387101,2.32162239514603,2.32219028584407,2.32276357613796,2.32348717991945,2.32440853396073,2.3256546418002,2.32603876571808,2.32680646570476,2.32714929247855,2.32781071215512,2.3281641170318,2.32873407871687,2.32865559469239,2.32908150160135,2.32828344504573,2.32782514938454,2.31948188260522,2.2893204448636,2.28886195502051,2.28850166768497,2.28798277306691,2.28822331683527,2.28706627485385,2.28661269982471,2.28636308596777,2.2863226479765,2.28588024450212,2.28528541657932,2.28555296401247,2.28526494169844,2.28552723164745,2.28514887215339,2.28531770052775,2.28500592909782,2.28510282302634,2.28502665547844,2.28481271070682,2.28448035820583,2.28454824669863,2.28451187331977,2.28447877881822,2.28458013684115,2.2844673655153,2.2847989339469,2.28434187682121,2.28449600063206,2.28418211319614,2.28436741650257,2.28416661053854,2.28430611483593,2.28411650525423,2.28448120384436,2.2842877942136,2.28486904290369,2.28455337670165,2.2846876215881,2.28461775516209,2.28487905938092,2.28477347095341,2.28496192287363,2.28518649151998,2.28543867223661,2.28567689438419,2.28552656339651,2.28615734932358,2.28617096939677,2.28672182400178,2.2865249215652,2.28729448407714,2.28729850041178,2.28802743462131,2.28842298016169,2.28895851456856,2.28934429957424,2.29033657021077,2.29066303000591,2.29229908583872,2.29394572616972,2.33509791919073,2.35154070866119,2.35090163385489,2.35155670938229,2.35095427508903,2.35106845719907,2.35119887169969,2.35180153058172,2.35153262047096,2.35148549482917,2.35156666327878,2.35187430282884,2.35128591147015,2.35110053924571,2.3510126386028,2.35127392154989,2.35106939225182,2.35121582304105,2.35140550238584
2.30166807087867,2.30176324448264,2.30164007860681,2.30203535123531,2.30246361913704,2.30272095511718,2.30301706351973,2.30370530003378,2.30411594044106,2.30499124669572,2.30540872613121,2.3064401760771,2.30736097612149,2.30798006111832,2.30914336284411,2.3100416127683,2.31191295109825,2.31185549643338,2.31253208233359,2.3123042430561,2.3128659129047,2.31058590685521,2.30881337952593,2.30959610023872,2.31021591752659,2.28237748327218,2.27596161093652,2.27529681388432,2.2747142990759,2.2742631296733,2.2740087254193,2.27396123019683,2.27389776411771,2.27399001669926,2.27401503160598,2.27420175655634,2.27429961807954,2.27454065932183,2.27476005803761,2.27479214770889,2.27505269686564,2.27505281157151,2.27541815201096,2.27562777103015,2.276074621053,2.27650252041034,2.27700345062474,2.27754478869185,2.27800092427017,2.27859683514717,2.27882567123488,2.28014763361764,2.28068832682821,2.28221358294546,2.28312733808544,2.3290703682645,2.32950567635076,2.33002269932173,2.33049069545117,2.33076594891885,2.33087295521416,2.33059655585727,2.33058725593673,2.32916963535206,2.32858899885824,2.32699116016561,2.32588674226897,2.32503133677136,2.3242555986756,2.32326101972717,2.32248279125491,2.32161216345811,2.32095796806781,2.32074728065619,2.3209013333916,2.32072690418965,2.32096810325074,2.32116155482845,2.32182185865552,2.32199775532509,2.32276788526316,2.32304114809299,2.32359977570855,2.32461017614646,2.32583927825448,2.32620881005749,2.32694197240944,2.32732500879706,2.32795325332287,2.32834915970148,2.32885657991303,2.32875537132244,2.32861125913104,2.32841313498258,2.32831325355616,2.31232348651585,2.28985193143999,2.28935719871757,2.2888248921392,2.28830869492193,2.28761905195614,2.28721806105003,2.2863207959136,2.28631722921013,2.28611850918667,2.28559724726291,2.28556120471348,2.28518504430864,2.28580271229357,2.28521615030457,2.28570353278631,2.28517820933873,2.28530211722708,2.28504623024096,2.28504438574082,2.28485947263925,2.28485155164688,2.28468967138734,2.28454065253972,2.28464822770123,2.28448343514292,2.28463354341008,2.28432859429316,2.28445989158263,2.28417191819165,2.28428807860423,2.28404188622682,2.28439968791188,2.28434778017628,2.28443046329341,2.28390413756624,2.28444379743234,2.28439115806817,2.28470078162748,2.28483946592898,2.28490078078078,2.28483461106843,2.28508267046343,2.28505115414987,2.28534068430519,2.28558649495329,2.28560445669227,2.28583705122311,2.28600887200634,2.28678774768084,2.2865879711699,2.28733386449876,2.28721924435267,2.28808072772129,2.28810663376983,2.28890011680549,2.28917301807015,2.28979660302831,2.2906564272017,2.29184280285803,2.29223894623891,2.29244461508704,2.34020278137359,2.35143142923612,2.35087908749419,2.35056137120221,2.35089298905441,2.3514806708967,2.35159402151135,2.35226120078323,2.3517777865869,2.35161301908887,2.35156731640863,2.35174866711098,2.35134381722348,2.35115156157322,2.35142725787421,2.35188984782231,2.35164538833899,2.35153393247748,2.35183304347095
2.30176272031788,2.30155003693775,2.30183429135894,2.30201234279713,2.30255906725404,2.30276325240596,2.30343780359103,2.30382272876622,2.30509022188651,2.30514250176841,2.30623010665142,2.3065746053673,2.30758777562305,2.30813366937899,2.30870717348857,2.31023883388001,2.31145735571377,2.31204703567388,2.31228790619489,2.31275161012904,2.31305123596399,2.31087048011013,2.30832846796347,2.3090087878031,2.30882239039559,2.27826272422108,2.27664634850166,2.27533719492289,2.27438255862548,2.27416837952816,2.27409986929484,2.27410521698514,2.27428350985542,2.27409628353677,2.27388760201887,2.2741175453303,2.27422479884029,2.27449615207627,2.274687440019,2.27488465476803,2.27477572140389,2.27521324238492,2.27512709598076,2.27586429992125,2.27623030134972,2.27676088467811,2.27723104149834,2.27758484624374,2.278078730801,2.27850227114349,2.27962712726977,2.28006849567198,2.28141476351692,2.2820968702115,2.28317611312027,2.32955197721767,2.32904734642432,2.32988761073505,2.33064845370003,2.33068378712186,2.33108865846608,2.33046041212422,2.33039748445085,2.32880784806472,2.32764687199072,2.3268828580699,2.32661130067833,2.32528913653371,2.3245111560289,2.32345148191849,2.32267933073537,2.32191394957619,2.32128850770044,2.32101354496109,2.32087094428118,2.32098872888972,2.32141210700835,2.32147531983463,2.32182952054809,2.32222927922329,2.32280299705118,2.323393465693,2.3241799619695,2.32488759457183,2.32564818746192,2.32627810019378,2.32707978802793,2.32751785366552,2.32833796971518,2.3286646748589,2.32923346507151,2.32905753269868,2.32899881499652,2.32851463738208,2.32820602617662,2.3049950117002,2.29117542622319,2.28972366808256,2.28914603820659,2.28835846103985,2.28833368623744,2.28731140082966,2.28702776026281,2.28634139937978,2.28575109302268,2.28546084525258,2.28515792969891,2.2850671874531,2.28486104474825,2.28521139770235,2.2848982427454,2.28533600991883,2.28523326206049,2.28519425732358,2.28488915883378,2.2849597520739,2.28488655310687,2.28476851890456,2.28474962914398,2.28463520032054,2.2849331992654,2.28455260495668,2.2847893782624,2.28436051809127,2.28443275667139,2.28427351620766,2.28443156563725,2.28442079528998,2.28493550117171,2.28442011136677,2.28464972274211,2.28428810677183,2.28444298702927,2.28448181838825,2.28478183456903,2.28489491078853,2.28537143801011,2.28520172904618,2.28552203802146,2.28544080836712,2.28556019341239,2.28585958224659,2.28597579795284,2.28630682512068,2.28603215959023,2.28687156693828,2.28688978137716,2.28744374758544,2.28729459491047,2.28820681701501,2.28878128475892,2.2893377284981,2.2899849173491,2.2906495864193,2.29123874812612,2.29232530029273,2.29300519067869,2.34605979754555,2.3508785735026,2.35074126136938,2.35045674356537,2.35087517992333,2.35173513123167,2.35175569224797,2.35245748712113,2.35217428789467,2.35260790962721,2.35187081359742,2.35184660193429,2.35157518233971,2.35174295138973,2.35179325571459,2.35262428282754,2.35204804927933,2.35282381799214,2.35212033675957
2.301183288369,2.30157373891239,2.3016227749347,2.30205471042196,2.30232948380167,2.30293408425747,2.30318314150687,2.30413962076346,2.30450379914236,2.30547933341441,2.30598328133938,2.30663219928967,2.30743759471471,2.30786998045682,2.30932910577208,2.30987645243231,2.31174530926747,2.31183801892152,2.31288656026969,2.31269809678853,2.31310878083507,2.31094291147963,2.3090232264924,2.30903163203076,2.30860953332282,2.27644640314463,2.27544654943256,2.2750621481234,2.27417368506216,2.27407840283349,2.27394896300681,2.27409939585499,2.2742179155293,2.27418408778686,2.27417662425926,2.27417357511355,2.27413469121571,2.27444542990581,2.27478299964655,2.27478880879951,2.27509821290168,2.27509904326399,2.27554910499307,2.27574508992668,2.27648231197858,2.2766657132767,2.27732419369282,2.2776038259915,2.27809200580366,2.2786465284898,2.27902576506182,2.28030497430891,2.28080123838556,2.28222484486214,2.2827856568397,2.33018413205505,2.32900990235643,2.33026634990076,2.33112859491523,2.33092150299847,2.33065655882804,2.33046492170764,2.33004425017317,2.32864104831986,2.32694556712445,2.32675078910028,2.32674082160664,2.32534268721921,2.32450010551891,2.32362039192898,2.32324801462492,2.32224565906476,2.32173268523395,2.32124027261241,2.32105360144794,2.32105218119424,2.32126604029976,2.32158122683726,2.32210074015822,2.32235314161546,2.32283057931269,2.32373976169969,2.32507019549299,2.32544064189955,2.32632164740966,2.32660072759134,2.32708604392556,2.32780303960203,2.32855019386917,2.32903580081001,2.32962810378153,2.32942724021995,2.32958557608693,2.32881508689133,2.32874422413713,2.29932365682268,2.29007925448684,2.28958048550976,2.28903058235818,2.28851372905528,2.28764058139565,2.28754691570603,2.28698771971502,2.28650225670721,2.28615664123326,2.28473252052548,2.28415165117553,2.28385331388975,2.28472138791334,2.2845400117134,2.28543105959401,2.28511128428535,2.28549728135347,2.28514727986303,2.28530172278884,2.28501557978446,2.28513339874232,2.28492783534137,2.28465991406569,2.28486123753871,2.28456240247007,2.2847190076674,2.28431811613679,2.28446712892747,2.28421812749768,2.28444727704837,2.28444540828796,2.28455880991783,2.28429386160464,2.28460831391323,2.28440688947667,2.28453896815636,2.28417139423931,2.28459462726187,2.28466497239092,2.28502652541647,2.28515837177569,2.28540738019269,2.28521384139843,2.28558019218369,2.28563425393306,2.28595086601818,2.28664696389684,2.28633761273949,2.28676845081689,2.28672813730206,2.28745720709717,2.28724214169879,2.28776088719962,2.28819503480691,2.28900025208685,2.28953685967542,2.29005667026454,2.29078751503771,2.29139040589815,2.29953762678812,2.353070017038,2.35226395259966,2.35201583120402,2.35100025010901,2.35064144121633,2.35074155470526,2.35111998444765,2.35157684832071,2.35243030608941,2.35213399517169,2.35264310423041,2.35174453655165,2.3514260339405,2.35183414617609,2.35251503452234,2.35210584424183,2.35184813317573,2.35201411246396,2.3521047722031,2.35214649674268
2.30190687582473,2.30146180786646,2.30173655952281,2.30201034826446,2.30291014607548,2.30298516372995,2.30405364222042,2.3041258991895,2.30551724229825,2.30538238771902,2.3063860364731,2.30642601683845,2.30675864868119,2.30755905133262,2.30778275315842,2.3096861567599,2.31068152046004,2.31194973105614,2.31241741801624,2.31292447320041,2.31274722431982,2.31150048731032,2.30899296973121,2.30931759483108,2.27720527089685,2.27633560747903,2.27556089584762,2.275090706267,2.27434723904399,2.27410700249598,2.27418556881124,2.2741479627942,2.27426515433924,2.27430308733643,2.27441362271299,2.27433500355081,2.27432263790941,2.27455396996472,2.2746642529118,2.27497706595806,2.27500586427115,2.27543949095786,2.27549363113139,2.27595228777216,2.27590282646242,2.27669399409619,2.27703847814822,2.27751318630875,2.27779831039043,2.27841807737974,2.27930375940486,2.2802433825292,2.28187559441283,2.28235897906141,2.2833123193683,2.33114299922887,2.33062212104954,2.33099322207134,2.33153723985615,2.33108267450796,2.3306170723835,2.33054335669564,2.33064273391527,2.32879521911001,2.32749568402893,2.32661878128281,2.32601520567863,2.32511319582027,2.32446278441198,2.32356232973345,2.32291108083667,2.32243976921792,2.3222201757699,2.32161612857529,2.32117811789847,2.32138147702559,2.32178493099869,2.32198388321961,2.32269532844383,2.32275694643819,2.32323669390549,2.32402814036416,2.32535643582198,2.32567193028425,2.32671889462191,2.32678387577129,2.3273791669978,2.32803954749921,2.32940980384111,2.32925661142084,2.32978250945651,2.32947072681551,2.32942900529193,2.32869611184688,2.32784807065604,2.29541654216091,2.28946215838032,2.28934819500365,2.28904606625704,2.28848110742666,2.28871366154047,2.28759024756695,2.28773909790127,2.2863801861123,2.28604356956175,2.28386413141487,2.28163219899111,2.28279810789077,2.2826967398615,2.28425109241641,2.28459470994813,2.28527687328515,2.28534700161053,2.28529100561603,2.28472005484134,2.28507852280915,2.28501539914633,2.28508806615039,2.28531674383896,2.28497149215966,2.28526765944976,2.28464985742182,2.28467203858002,2.28441200149165,2.28456994508267,2.28449718219434,2.28477402288117,2.28458132067722,2.28487593078118,2.2845579753087,2.28490103079695,2.28457183551146,2.2849420514496,2.28463315148613,2.28468518284657,2.2850068597928,2.28556528811769,2.28558452674332,2.28625892372427,2.28588211375974,2.28616869296288,2.28607937142592,2.28593765959733,2.28660194311424,2.28667947608077,2.28722388831952,2.2869638079656,2.28760265018029,2.28743215104591,2.28844690820291,2.2893395485081,2.28971991603787,2.29028122219471,2.29091291256795,2.29145750190977,2.3046773904922,2.35284425729474,2.35187801158311,2.35186607283153,2.35092566424923,2.35082759716818,2.35071293097048,2.35107742386287,2.35150417748355,2.35242054378083,2.35190186501508,2.3516999123463,2.35162200469028,2.35156891169506,2.3521820342817,2.35353737543956,2.35235609318801,2.35240480098962,2.35198219119968,2.35264437720622,2.35204812480381
2.30116925966379,2.30151495082202,2.30142199901477,2.30207550462403,2.30241560507844,2.30305311880275,2.30321561896127,2.30420828150219,2.30445190664771,2.3054368182119,2.3059812630909,2.30629981241601,2.30682416902815,2.3070598156962,2.30806549296779,2.30912391114206,2.31102579025741,2.31175605075248,2.31328688013098,2.31300689671731,2.31342955973423,2.31283905146433,2.31304330885736,2.30882884666385,2.27675638195554,2.27676044138586,2.27734959676347,2.27549766832616,2.27429363237732,2.27403636556069,2.27385037353384,2.27407009368085,2.27426386672356,2.2742485853436,2.27430525976785,2.27431802308487,2.27447718692678,2.27454988298826,2.27482345860931,2.27482016805703,2.27512521286855,2.27521675535208,2.27585350228221,2.27573690170792,2.27625832199003,2.27644599944913,2.27704330934887,2.27738588765395,2.27786132870317,2.27857611704229,2.27926477515976,2.28055928482907,2.28149279213936,2.28250828166778,2.28336374702951,2.33222954415527,2.33175309760136,2.3319169375422,2.33245233233738,2.33187291889458,2.33185656825624,2.33100820205093,2.33064112340014,2.32886543951967,2.32746244513474,2.32654736999713,2.32585032452113,2.32491617978188,2.32409904211623,2.32359059295719,2.32302659587748,2.32267087344323,2.32218406588652,2.32199209338281,2.32197922103712,2.32162752239872,2.32162996622404,2.32195519761673,2.32256532678324,2.32281549406509,2.32338916835855,2.32399939981971,2.32462116321406,2.32561011571842,2.32643638825329,2.32707239819691,2.32770981080418,2.32832366394709,2.32895337120226,2.32939610326633,2.32974587822443,2.32975032870619,2.32984818735035,2.32908767571156,2.29129243410414,2.29288490888804,2.28982911943625,2.28964733249987,2.28945330235118,2.28869681495888,2.28760856732214,2.28741599656977,2.28646492900287,2.28560558496633,2.28580642747452,2.28255275199049,2.28092869674422,2.28187637227046,2.28443855880967,2.28386636953943,2.28508288476076,2.28502623274323,2.28576006390025,2.28523425683626,2.28543200174383,2.28512248997623,2.28540295300792,2.28522005011463,2.28533123002135,2.28519588140583,2.28491599887901,2.28484331124417,2.28430063556986,2.28457526982679,2.28451961130495,2.28464788697883,2.28467579169931,2.28469347932838,2.28443878279018,2.28464064126618,2.28443000649037,2.28463498906408,2.28457112599463,2.28476813545946,2.28491535427674,2.28519232292944,2.28541046872633,2.28564870012447,2.28558237632861,2.28578236624426,2.28568007830426,2.28596954534537,2.2863233246503,2.28658028064098,2.28758965086594,2.28721179076562,2.28809208666062,2.28764920180914,2.2882321949601,2.28853816987061,2.28924118204899,2.29000485568577,2.29055487025797,2.29146150071348,2.29212489900838,2.30973423182404,2.35138216403792,2.35099467336768,2.35071481080752,2.35033732552372,2.35017966990663,2.35046333978927,2.35107143828942,2.35117207421032,2.35173290805662,2.35154360434039,2.35166636410459,2.35172413315886,2.35208809884139,2.35227878556832,2.35256669278782,2.35215604474477,2.35174573333829,2.35180822487002,2.3521043768349,2.3519757560342
2.30151260915407,2.30137987505695,2.30182159537473,2.30191048980743,2.30243293302526,2.30275218846603,2.3036579416766,2.30384758974448,2.30486278768636,2.30501484283561,2.305804251934,2.30613011023022,2.30604788962823,2.30716908885314,2.30682637288962,2.30962549328436,2.31072486656673,2.312406751384,2.31280305543703,2.31352449910941,2.31366687864156,2.31393840261894,2.31432011082244,2.30708665929172,2.27701862351968,2.27666786818607,2.27710633979416,2.27536700754937,2.274257592492,2.27396913278007,2.27373387261943,2.27401240265875,2.27423978301391,2.27416993206113,2.27408096366405,2.27423762949004,2.27435470996381,2.27458143570496,2.27471937347264,2.27496898609504,2.27491982531118,2.27535515414223,2.27524021622951,2.27584817583293,2.27571687842711,2.27664006046398,2.27686027982059,2.27758386290529,2.2779424887004,2.27860746121599,2.27943091674715,2.28040967723212,2.28164800851069,2.28218309597407,2.28349417631968,2.33279700140252,2.33309898227538,2.33251725947262,2.33247979183806,2.33216770351646,2.3323507885623,2.33107450601632,2.33005265690225,2.32883059630173,2.32751109321818,2.32663929275918,2.32582110659558,2.32495281672452,2.32426432866571,2.32388789328113,2.32417585303369,2.32321272970436,2.3230149223355,2.32246945326112,2.3223013328243,2.3218937964197,2.32152346533491,2.32208621124556,2.32259948595125,2.32301175028523,2.32343286337882,2.32428086735694,2.32531231057968,2.32581381574478,2.32676331588771,2.3272491286506,2.32843141984106,2.32832728838301,2.32877434679681,2.3293385678077,2.33015475354277,2.32989465111631,2.33009243077446,2.32912636712748,2.32791758259156,2.29331005467851,2.28961150335448,2.2893881183167,2.28933240344986,2.28844645729501,2.28852110334522,2.28708450288351,2.2867184429153,2.28398616981425,2.28040588602468,2.28065315204425,2.27921747605223,2.2804116583519,2.28029085786205,2.28299976240525,2.28433095565397,2.28512813659868,2.28513989307135,2.28538479569633,2.2850357584364,2.28525672640967,2.28509293505578,2.28510728599114,2.28515276181123,2.28492865595979,2.28515588773465,2.28471167568515,2.28484604994743,2.28454449584937,2.28462262465024,2.28453532393506,2.28469271838115,2.28457560266327,2.28484442337092,2.2844742732806,2.28461943900299,2.28443016213245,2.28468025801102,2.28469293077844,2.2848939432412,2.28519351813056,2.28559744542942,2.28566303973583,2.28596041724736,2.28584367550378,2.28572914805405,2.28618970651539,2.28632658072079,2.2868320263272,2.28669365331813,2.28742176135251,2.28708070204595,2.28794894566858,2.28798510015654,2.28872306565597,2.28952598027003,2.29020372076529,2.29149182515151,2.29191033203315,2.29267841498761,2.31863412928778,2.3505214204567,2.35014814923236,2.3498147791944,2.34986668795737,2.34970740379232,2.35030418053462,2.35058332651084,2.35099612348208,2.35122384536657,2.35159200882446,2.35186507340058,2.35212685547086,2.3528594292766,2.35258471232776,2.35300005772,2.35197588453725,2.35159933652222,2.35130650521104,2.35183819306762,2.35150722659086
