2.229135459123,2.22998869320055,2.229773808603,2.23156751418012,2.23114061989074,2.23282840744776,2.23306348616783,2.233737601809,2.23435837440215,2.23469625950113,2.23575759633608,2.23664963621531,2.23809609099999,2.23721072652256,2.23856616848368,2.23984459566124,2.24092739865688,2.24036060925,2.24078957500958,2.24113583594225,2.24166934950251,2.24197951784533,2.24291171631718,2.24311153636173,2.24533043819117,2.24452640712753,2.24611429037995,2.24584137902962,2.24646209867953,2.24697905470382,2.24770470396677,2.24963569377091,2.24834897679402,2.25086496913788,2.2485798646477,2.2523254984393,2.25150101729538,2.25250022338767,2.25303411400006,2.25439082708751,2.25467231709958,2.2564364155198,2.25615651970737,2.25899259136672,2.25981308423687,2.26160847202214,2.26225583181637,2.26428915568019,2.30446654909504,2.32216621161951,2.32306871160119,2.32489018073843,2.32436814363736,2.32425070934063,2.32422871990039,2.32515415448145,2.32494356529994,2.32536744236245,2.32553974772186,2.32611309474638,2.32583908819818,2.32557218478812,2.32478308446318,2.32507047334244,2.32451161728153,2.32567973419664,2.32754038108388,2.32584726864611,2.32513530756278,2.32440415850973,2.32463475917313,2.32596614444578,2.32647822058585,2.3255472994546,2.32646125726916,2.32519007039812,2.32661486829263,2.32622868665781,2.32643671365839,2.32663719097778,2.3274506069191,2.32859362787815,2.32953304964091,2.33279804309848,2.33101074801137,2.331597936896,2.33168206269936,2.33220819557359,2.33294619254557,2.3334653136908,2.33365914591445,2.33402990996151,2.33439186148397,2.3349660772126,2.33715814971287,2.33841019091185,2.33727037027436,2.33839506734948,2.33872444237869,2.33978700591489,2.34079474432282,2.34457036561061,2.34331063317335,2.28541277078875,2.28452909990908,2.28478510433656,2.28441441509878,2.28463968627874,2.28482766054137,2.28470285538689,2.2853608004561,2.28457480781999,2.28580330599921,2.28489320590615,2.28609275565918,2.28599538578899,2.28653509727226,2.28519919887149,2.28606033714984,2.28568838043328,2.28598926153257,2.28596113728345,2.28702015272584,2.28710778864523,2.2874776277638,2.28782697064228,2.28804601267681,2.28757630920619,2.28797679214436,2.28773803542322,2.28943945001898,2.28904107457451,2.29122091314975,2.2894589549063,2.29044194702705,2.28932630939673,2.29115527119407,2.29167152618348,2.29214332485985,2.29272571378433,2.29147805933212,2.29249915824806,2.29203055581049,2.29438548777537,2.29374174362233,2.29392736292769,2.29407577564665,2.29480719989516,2.29523711420796,2.29567775461337,2.29727425049187,2.29802036823099,2.29927105410428,2.3007430345343,2.37066388511471,2.37108629845828,2.37200728194692,2.37429693805522,2.37386827307684,2.37533760125014,2.37591005750577,2.37756742620864,2.37594242446197,2.37775618041592,2.37641027699601,2.3776401294216,2.37673576005523,2.37648858539521,2.37634395832544,2.37641888890206,2.3772947537078,2.37453682356478,2.37576434867592,2.37576250675585,2.37536355502894,2.37233185233669
2.22993107995241,2.22972833701226,2.23120026085236,2.2311534139416,2.23318041363288,2.2324708898742,2.23411750825124,2.23479004186702,2.23525147772229,2.23556699626644,2.23623324582022,2.23763444142344,2.23754717004441,2.2377170477438,2.23836375735606,2.2394999416112,2.24034915919508,2.24042076631417,2.24092651957007,2.24150384633463,2.24181554207798,2.24292477288133,2.24281444584594,2.24462138120518,2.24386561942086,2.24575193769129,2.24568162009039,2.2471478931056,2.24700982945975,2.24690636717548,2.24861467472811,2.24890823452243,2.25014775214856,2.24867071200525,2.25112227971662,2.25023585964615,2.25289864949031,2.25255071966232,2.25395679972684,2.25464426994445,2.25582955235773,2.25537728914223,2.25783317869616,2.25844381495626,2.26080605009405,2.26100549619269,2.26343881951784,2.26461869649172,2.31431670417402,2.32179958671568,2.32268496567651,2.32309300363521,2.32402720272466,2.32375517154241,2.32402557188588,2.32490135240474,2.32401772678858,2.32473581315848,2.32550524937797,2.32505983501263,2.32627926730621,2.32584725183559,2.32607408768463,2.32501869224036,2.32558173447392,2.32702893645769,2.32656660352326,2.32615475170118,2.3257948945639,2.32554902709724,2.3255853207601,2.32642541981753,2.32507731669076,2.32828465746076,2.3260986159602,2.32633192805916,2.32621041217348,2.32699510739061,2.32720365566861,2.32762341555413,2.32842913471094,2.32885377054047,2.33008486263277,2.33232512320438,2.33184030875471,2.33130882044607,2.33232269845168,2.3328593941206,2.3339666762213,2.33568253063674,2.33574041458678,2.33656575995807,2.33593482765584,2.33672460692196,2.33772713396264,2.33716716242346,2.33804895842879,2.33800328168057,2.33907817864976,2.33934447524943,2.3401704124495,2.34124566876532,2.34182346538462,2.34265381879016,2.34496440979014,2.28551693187094,2.28541213539233,2.28603092825878,2.28513775468012,2.2854916260986,2.285325974609,2.28538773593048,2.2848831747502,2.28612450053127,2.28529938831181,2.28755670130852,2.28563334532911,2.28680798822355,2.28715358392617,2.28789726024479,2.28754444450903,2.28747634091605,2.28720763835601,2.28731634802393,2.28716257615777,2.28845299485024,2.28801547137906,2.2880033702716,2.28816877941415,2.28849684603912,2.28817001663402,2.29135007695777,2.29008201457173,2.29122861530274,2.28965611203351,2.29115133936576,2.29037123199737,2.29178939575303,2.29172534854689,2.29178688704134,2.29227466555183,2.29258424285479,2.29317940677169,2.29332911725115,2.29420195609485,2.29377219318712,2.29552280135271,2.29459566977044,2.29533596111365,2.2958089997715,2.29592484954097,2.2977188522549,2.2987682210976,2.30027743490275,2.30145929936794,2.37256467642384,2.37304146819394,2.37433624659523,2.37394720639449,2.37510462700358,2.37601538301989,2.37630877449327,2.37749326015423,2.37691981612612,2.37790642219365,2.37694569789421,2.37752001288719,2.37667995055952,2.37680103941572,2.37700203344232,2.37611330575445,2.37640295539635,2.3753609297748,2.37749748539751,2.37627647489925,2.3763245440885
2.22967263261253,2.23087709683496,2.23095071292469,2.23323700700513,2.23293920192103,2.23447137685758,2.23465356397629,2.23749480459707,2.23615230418304,2.23580574965113,2.23641360963776,2.23768543297562,2.2382023453078,2.23830547376812,2.23878643080166,2.23928069706778,2.24018859821858,2.24075280072015,2.24118710666394,2.24123769210525,2.24225905668611,2.24370354133375,2.24404090948679,2.24370207206104,2.24489407215953,2.24554028655145,2.24680384348632,2.24685763468841,2.24728301118941,2.24780195717709,2.24762599852882,2.24960148629458,2.24904382270836,2.250560878969,2.25042010964595,2.25270232952962,2.25232701188197,2.25391909297214,2.2541122151633,2.25488126582999,2.25538480399983,2.2565775978945,2.25725425085988,2.25929418231465,2.25981479265443,2.26211433496902,2.26307251116872,2.32126208893296,2.3207414591796,2.32101254253608,2.32231148551868,2.32346591890186,2.32366433469085,2.32351032565169,2.3238898387709,2.32553187931187,2.32402246605368,2.32632135818524,2.32603805451133,2.32500020983582,2.33233956106006,2.32879886321125,2.32648556449938,2.32873937033019,2.32874828149835,2.32906296356748,2.32847133925624,2.32699615516161,2.32670366416631,2.32627479652125,2.3270145990339,2.32589764403638,2.32642290940406,2.32614341247658,2.32701705429167,2.32719241559132,2.32716305740347,2.32730642010583,2.32799564344628,2.32859796315283,2.32939408586879,2.33091750704895,2.33013743832869,2.33109977208354,2.33123040755291,2.33248368958584,2.33289242782258,2.33359923239306,2.33437818748448,2.33491739991909,2.33655265192849,2.33715252764766,2.33861002494465,2.3384488654686,2.33780475674171,2.33833859162529,2.33793654855416,2.33884625538549,2.33966209851378,2.33943636207068,2.34011164351586,2.34185947426224,2.34412803702527,2.34536608006269,2.34657922153151,2.28610771449706,2.34933537871921,2.35107970967472,2.31989865278359,2.28509009800029,2.28579318806642,2.28606136471852,2.28711423614551,2.28597433985597,2.28935930719852,2.28622443924607,2.28692028709266,2.2873017781432,2.28851886413746,2.29004234964852,2.28934513823615,2.28774441970477,2.28785700954929,2.28753644653323,2.28784228722621,2.28792429982115,2.28900382075968,2.28874448167552,2.28896661417273,2.28859800611704,2.28954322103975,2.28881975197458,2.29072791650368,2.28998568282957,2.29123724445717,2.29091049265084,2.29202846854039,2.29138291391309,2.29188354849185,2.29199840547555,2.29242603545475,2.2932680357869,2.29284091733418,2.29336225693096,2.29347997623922,2.2945124934918,2.29436853036962,2.2958834639101,2.29570872519574,2.29584874169212,2.29662444012263,2.29724418728633,2.30013151495038,2.29909263527695,2.30101297077869,2.37495887817427,2.37582850821311,2.37591111970798,2.37424577016614,2.37563465972738,2.37572967706724,2.37706364090146,2.37700732954313,2.3779583652313,2.37788277982724,2.3779479976712,2.37751856353356,2.37785300381538,2.37783027965266,2.37784961322604,2.37828441497217,2.37683886837102,2.37768772960587,2.37641686637212,2.37770477772884,2.37943167245382
2.23060460666486,2.23132984338517,2.23208341124278,2.23290921031263,2.23344563418007,2.23421671716078,2.23496196671558,2.23606150329965,2.23612165012417,2.23625974296832,2.23665786566861,2.23750880449777,2.23809483635572,2.23859636438266,2.23922407953318,2.23991881606936,2.24072094519403,2.24136250304513,2.24165620095508,2.24198639469977,2.24258951022261,2.24362216745474,2.24414977153421,2.24461322448475,2.24511594187255,2.24593428540173,2.24651642036863,2.24717985582223,2.24761963095721,2.24800969158838,2.248839661877,2.24933456686139,2.25018507030756,2.25044439938802,2.25181807724556,2.2524986105519,2.25388777024023,2.25413294720914,2.25484664612629,2.25540293712614,2.25659369851916,2.25736563232892,2.25877827843679,2.26007101367341,2.26108143923176,2.26163967755924,2.29517743145823,2.32126884619976,2.32184555250552,2.32158189687804,2.32275397405698,2.32373265030335,2.32422028831185,2.3245980949338,2.32496522973232,2.32723092073365,2.32734749307928,2.32793283263546,2.32803114446496,2.32803971951843,2.32965519306134,2.32859882838763,2.32799676985171,2.32827397127501,2.32841042466414,2.32847917902366,2.32802274043121,2.3276386157871,2.32744779910936,2.32741268485803,2.3269617876073,2.32685194174006,2.32673621145059,2.32686856768929,2.32716186091045,2.32776748037747,2.32774960612653,2.32830635855093,2.32873296942243,2.32908719184596,2.32970024329644,2.33035746037164,2.33080641099903,2.33122558754719,2.33204269271711,2.33327906821552,2.33398910439426,2.33447788837169,2.33508863517347,2.33566194637276,2.33681495151268,2.33730031311228,2.33853505571034,2.33878011474144,2.33904604863776,2.33917059617491,2.33981292009931,2.34068275441475,2.34163783062872,2.34218864621386,2.34245895398956,2.34351384829423,2.34465155474728,2.34494581066351,2.34624405011292,2.34722374474373,2.34857517240068,2.34955939094919,2.34315296339818,2.32014192763302,2.28655214197967,2.28729681221294,2.2872829852524,2.28739346410242,2.28761053765676,2.28726333085757,2.2872936270322,2.28799561971558,2.288745015273,2.28935674703161,2.28878395120921,2.28807428620513,2.28779485839682,2.28787580008093,2.2879070620111,2.28823946737464,2.2887160091881,2.2891450754905,2.28947047887929,2.28973246531977,2.28957737239265,2.28983321343992,2.28995222831118,2.29047151915114,2.29042614928583,2.29138871856165,2.2915463527591,2.29201616638709,2.29210348078267,2.29232232761035,2.2929970071426,2.29366374029772,2.29399801498658,2.29383828603112,2.29394604994577,2.29434944779238,2.29481905786594,2.29546433578568,2.29577676768155,2.29617382924201,2.29680333127469,2.29769485754858,2.29882023025413,2.29910738949838,2.29977874152916,2.32710616305526,2.3524260243791,2.37500955301905,2.37384621249994,2.37442616695672,2.37530300755203,2.37629963464538,2.37722230715641,2.37760033584361,2.37827219542827,2.37794404728548,2.3781372200357,2.37827099780576,2.37859277109311,2.37910380944141,2.37945896861054,2.37838603384651,2.37765139115286,2.37805623636209,2.37789347022402,2.3784220397869
2.23131957549063,2.23131042916065,2.23258777740769,2.23244059879423,2.23373267955075,2.23386514758589,2.23509678600817,2.23557470908022,2.23606325866314,2.23633827108396,2.23659175199725,2.23741450159572,2.23825709544406,2.2385845935586,2.23974333669271,2.24031447406742,2.24151620768945,2.24221146924562,2.24218248012646,2.24212287313812,2.24302467676968,2.2433309837565,2.2451371454131,2.24463943844648,2.2458005834566,2.24590219326862,2.24660393860676,2.24750930421154,2.24790032422973,2.24834088138417,2.24929765386227,2.25028741128477,2.24989961670634,2.25151583149312,2.25153965203159,2.25380809827829,2.25488420473759,2.25504487678788,2.25539208605315,2.2559565402301,2.25746710021809,2.25818751235374,2.25914768976903,2.26151986857806,2.26201111448842,2.26271452412295,2.32889064181957,2.32925266804426,2.3248293122691,2.32225681244398,2.32291341739157,2.32434511766072,2.32497691335849,2.32509414862303,2.32380901800043,2.3309305410445,2.33041030948833,2.32985478930105,2.32962805593092,2.33004927549305,2.32952367815958,2.32807778335587,2.32887799329428,2.32772638397369,2.32855782544647,2.32792776145543,2.32780450747447,2.32764456709519,2.32805757407999,2.32855385517598,2.3268426213377,2.32730242068775,2.32733480195418,2.32698013836326,2.32745832296328,2.32856766635602,2.32788737269639,2.32917664485771,2.32939849677644,2.3293590468738,2.32953751669161,2.33036658338124,2.33113817877146,2.33137411869387,2.3321596128439,2.33475144571707,2.33500973606959,2.33516315236158,2.33556783183232,2.33600019457122,2.33700267763659,2.33752319992656,2.33840976449009,2.34039106923437,2.33916713022177,2.34059420038637,2.34028471147691,2.34284567863276,2.34337208466498,2.345760284678,2.34276241033497,2.3465783769771,2.34488504758723,2.34500745852212,2.34502402145625,2.34744372817257,2.34782241217681,2.35007666909654,2.35064663491491,2.35152097272203,2.28752817844764,2.2884167258155,2.28732368050728,2.287391418236,2.28720840746828,2.28712771645454,2.28758562531971,2.28788510498976,2.28875793179613,2.28926540108223,2.28851743776248,2.28760835159388,2.2877480016092,2.28799008866692,2.28802353798054,2.288089156883,2.28857857177373,2.28910548050778,2.28975140559125,2.29030390512553,2.29014934652785,2.28946413685863,2.29057349492453,2.28957468360221,2.2906535285033,2.2908930951111,2.29225304810742,2.29229945379079,2.29236808961904,2.29215062587896,2.29371244693989,2.29455112960685,2.29543889143077,2.29433471529913,2.29381562631727,2.29439157598344,2.29486794082371,2.2954973302885,2.2957799939871,2.29614673717296,2.29665259806601,2.29745325237199,2.29789787019355,2.29874353371514,2.29964504476944,2.30072904357353,2.30240215023537,2.3763168506678,2.37448461844146,2.37515409504906,2.37571991161164,2.37707686508229,2.37736476899404,2.37792548304824,2.37876958720805,2.37851915117402,2.37808900173332,2.37852000458565,2.37943887674918,2.3797608126669,2.38277679407548,2.37885056070205,2.37796917845197,2.37911318865838,2.37886941700088,2.37698476568033
2.23098237416155,2.23186436546762,2.23146021811617,2.23303624748692,2.23261309850933,2.23478148293029,2.23500471958802,2.23600204273922,2.235923952479,2.23555734693907,2.23627316599425,2.23836917948016,2.23833670289804,2.23924169171438,2.24128149585037,2.24080016134429,2.24166592173251,2.24277760860219,2.24247941396714,2.24271038351885,2.24304745452232,2.24491863834259,2.24526295032623,2.24555854481395,2.24618837778602,2.2469559206303,2.24729166918361,2.24773820801589,2.24831267638836,2.24852696679432,2.25025813700716,2.25032915994471,2.2518989349307,2.25135316602528,2.25366876368166,2.25297737270098,2.25486256884732,2.25586820596545,2.2562972197437,2.25652627337006,2.25782641560824,2.25947185087373,2.26047517882914,2.26228804146842,2.26315265237952,2.32664987075342,2.32799559794069,2.32884991568191,2.32801872472719,2.32891011265599,2.32832437089503,2.32856641859032,2.32701515546386,2.33218897590019,2.33263820869579,2.33282195577724,2.3311011969968,2.33121742529152,2.33026509123045,2.32999141105931,2.32885404953228,2.32876724805993,2.32824202047306,2.32893061016892,2.3284319859551,2.32906324977722,2.32712523782226,2.32834380043588,2.32825701211027,2.32866451324303,2.32706617451504,2.32728228054822,2.32852397762511,2.32727455893248,2.32768503542982,2.32891728976487,2.32949502607164,2.329655272019,2.33047970607262,2.33187656607815,2.33137269174216,2.33185294615013,2.33201738858627,2.33212648875714,2.33370740721417,2.33516036376798,2.3360388816173,2.33595044179251,2.33631633735672,2.33668381446163,2.33734032301491,2.33790765317204,2.33982398785271,2.33945579785108,2.34089151204646,2.34014189078524,2.34188377711675,2.34238780691817,2.34409467531239,2.34535346250828,2.34495616431221,2.34442438479764,2.3466771337333,2.34377912637032,2.34623254011355,2.34633287580031,2.34846404991327,2.34877604372708,2.35046275624434,2.35077841248673,2.35358301535485,2.28791232950557,2.28771129223698,2.2873073949501,2.28726107558071,2.2878035829153,2.28830502820561,2.28878837637844,2.28879588969059,2.28935567466828,2.28851551953698,2.28823580812689,2.28835005680211,2.28856633396208,2.28921532643611,2.28893193008856,2.28897907635221,2.28945182265865,2.28970006850576,2.29021581211365,2.29061496924966,2.29017207016425,2.28964211343987,2.29053315891341,2.29075669015707,2.29247250244324,2.29166331325274,2.29232249787353,2.29188233331813,2.29244129956418,2.29373014460752,2.29464589819302,2.29451162682597,2.29444752949454,2.29480980858544,2.295419776892,2.29548154239466,2.29508641254121,2.29572383274791,2.29603409820362,2.29737440869558,2.29655899848207,2.29784895036588,2.29864054979998,2.29994208408701,2.30046221504342,2.30224298952233,2.30405667175422,2.30436916081466,2.30572701116657,2.37623056467675,2.37598667722308,2.37740177268859,2.37766502658389,2.37893748843051,2.37870735501615,2.37940812351824,2.37969691750788,2.38070034671007,2.38285715823696,2.38168358391807,2.38281115576047,2.37919872995494,2.37935364827889,2.37987911971767,2.37943314227537
2.2323856972567,2.2320932571569,2.23318230104331,2.23193493923409,2.23400686839558,2.23405603662539,2.23637980880954,2.23612964517707,2.2365097507899,2.23650205236669,2.23716324560181,2.2385254141445,2.23860312196329,2.23929846460782,2.24000078754673,2.24078824791644,2.2414891572408,2.24175674923884,2.24257689872884,2.24251746357711,2.2441877013501,2.2440598371265,2.24513149020592,2.24591379661833,2.24681376730102,2.24699266552877,2.24793792299108,2.24823760214496,2.24888022090281,2.24968684984085,2.25082331567311,2.25215656233874,2.25224460304967,2.25297111237694,2.25338202170313,2.25476530605287,2.25524686665515,2.2559512310696,2.25668147388151,2.25724224046206,2.25867716476803,2.25992979993862,2.26091966116476,2.26225169754517,2.33477161068852,2.33405753803465,2.33026151259292,2.32985020990699,2.3291016270505,2.32886916783484,2.33107803293614,2.33068725858508,2.33196008476207,2.33163806259458,2.33192340049214,2.33191907841611,2.3323505796939,2.33085626729141,2.33064911071555,2.33018207998008,2.33018372655253,2.32937436996035,2.32970889370227,2.32993303045317,2.33078359873062,2.32881389101403,2.32872527122168,2.32806463120334,2.32846034870542,2.32864992481282,2.32805552741832,2.32871345851496,2.32903912112027,2.32903446676314,2.32858058842115,2.33024332705188,2.33037655631157,2.33023152041416,2.33081057236797,2.33132037490499,2.33413318907735,2.33482903546157,2.33299028128425,2.33328329289822,2.3337699444139,2.33494710688032,2.33578272102131,2.33630335395456,2.3367213318414,2.33754749718639,2.33675874444394,2.33940971323652,2.33962578063958,2.34092644403084,2.34036412284115,2.34343778053154,2.34282610684331,2.34366203759236,2.34413352533147,2.34539316941054,2.34382426070633,2.34571198050252,2.34462902155315,2.34715695349622,2.3475067077718,2.34991323787543,2.34794206240294,2.34968080868781,2.35101209329771,2.35141809657339,2.35408051472683,2.35556274152377,2.35741271802347,2.36164422172242,2.28847249146828,2.36298082520051,2.28834497069726,2.28842932881171,2.28847031014547,2.28871857294585,2.2884478203879,2.28875560855556,2.2887455090853,2.28875450741774,2.28938423977165,2.2896451769616,2.28924028139842,2.28958441802261,2.28967251174782,2.29021904767221,2.29071390175552,2.29273479092301,2.29146772426955,2.29068366617885,2.29172292441209,2.29169354327691,2.29256566231358,2.29183364267489,2.29056936441907,2.29300057501798,2.29330812802639,2.29422405807295,2.29493552211656,2.29411267341833,2.29445843015125,2.29488385812425,2.29560241249512,2.29573891523821,2.29595595724844,2.29624463363987,2.29704387025803,2.29741490106386,2.29725692778205,2.29953139927492,2.29920951733585,2.30011680946141,2.30111179469167,2.30386820287173,2.30375690886147,2.3038049691686,2.37630723371723,2.37631547920657,2.37702807739012,2.37782568448423,2.37816279049513,2.37892989627103,2.37925877625772,2.38051455890725,2.38107098344419,2.38229332771455,2.38248370171586,2.38211770070328,2.38157302258211,2.38080305359773,2.38200444743649,2.37951994915195
2.23204693616102,2.23320608129606,2.2330253457837,2.23386402465991,2.23429853115489,2.23601404997092,2.23549678485719,2.23682780547126,2.23701130056108,2.23748077389879,2.2382735477301,2.23875359602071,2.23978438531487,2.23990491711688,2.24035072417676,2.24079652500428,2.24210729400509,2.24292468254086,2.24322128862185,2.243836272599,2.24409085991134,2.24512184149485,2.24550618587825,2.2462714834101,2.24708792594249,2.24756802712672,2.24850858792695,2.24926424594702,2.24961713423729,2.25019599404132,2.25246244029752,2.25267449241981,2.25294486652855,2.25267151486457,2.25496052344198,2.25447900511079,2.25597442713828,2.25613210023729,2.25744472283743,2.2585553889286,2.25924140739668,2.26048584655019,2.26130547535377,2.33058758759231,2.33277697024934,2.3324190280551,2.33069362555769,2.32920007714794,2.32991495546173,2.33028970123279,2.33054072755314,2.33116544370517,2.33147216356084,2.33163211617285,2.33102333476549,2.33148769322648,2.3319583623849,2.33188478252906,2.33108134548592,2.3305763588585,2.3307664830919,2.33010005901233,2.3296841942221,2.33034556799042,2.32922566782918,2.32975357922289,2.32971685443258,2.32861280355642,2.32856662298392,2.32847922179066,2.32863691265948,2.32933831713308,2.32993265938325,2.32971142833103,2.32991928347767,2.3297780686109,2.33018318104241,2.33055215409792,2.33156548067261,2.33202332314495,2.33293922622666,2.33312789823577,2.33435746183126,2.3337309586734,2.33469751223933,2.33538467773248,2.33615049593861,2.3366056745069,2.33724172408695,2.33748329712204,2.33967724770591,2.33909596792219,2.34044445093053,2.34036027837427,2.34157325303135,2.34206358080455,2.34384425746313,2.34390195416997,2.34477853142127,2.34486048185592,2.3457171594673,2.34486831683205,2.34602854631878,2.34615141812743,2.34899018066278,2.35021797127024,2.35018581792639,2.35244641556625,2.35330731973517,2.35469360484162,2.35394045086571,2.35618521701996,2.35966157123358,2.35954262406286,2.36131688775975,2.36132575710478,2.3623204909177,2.36448225261103,2.36403928659507,2.36570646884214,2.36713090376305,2.28932047898578,2.36721991138703,2.36797908716717,2.36755360793366,2.37002439975074,2.3709264054637,2.37065948960288,2.37019942914531,2.37073952048956,2.3672340222102,2.36740762917097,2.3684338914986,2.29221358223164,2.29200588356301,2.29274474873319,2.29208147765639,2.29268451504552,2.290154571304,2.29106615060911,2.29435012593419,2.29442229643892,2.29427592785713,2.29493780738633,2.29464463464296,2.29512146509028,2.29558638879468,2.29569187794578,2.29609657338833,2.29659341784276,2.29709119258517,2.29751707327523,2.29785610150645,2.2990110973029,2.29910339598933,2.29957901644479,2.30027029556677,2.30175082646232,2.3030218189016,2.30281963664428,2.30369940593488,2.30389101871112,2.37790638303927,2.37779084178572,2.37844171923427,2.3789646390524,2.3800797943319,2.38096728114534,2.38131982610652,2.38191162990483,2.38190836788342,2.38196375988049,2.38215188628332,2.38270389087086,2.38299988547902,2.38242097861378
2.23283372255051,2.2332063437272,2.23399259942489,2.2339449639439,2.23506954784432,2.23539997804939,2.23628537972345,2.23678871122977,2.23756480467201,2.23823466225255,2.23848180384694,2.23894634394965,2.23937259846287,2.24005317956446,2.24067821719497,2.24130432661174,2.24224083557237,2.24314553825867,2.24377125644842,2.24432695657828,2.24491153306624,2.24554333734646,2.24607692227788,2.24671676734871,2.24760163873109,2.24808259646686,2.24872714935282,2.24942817565786,2.25005785124984,2.2506671265125,2.25172544510506,2.25249274232286,2.25277657837359,2.25359578410005,2.25466393049511,2.25567781042571,2.25627845155419,2.25716535258054,2.25784389720343,2.25824379630858,2.28395628307785,2.29892955959608,2.31426824493678,2.33105756285055,2.33178600422289,2.33183889614889,2.33142567074506,2.33080061090753,2.33082914514019,2.33085737404321,2.33094718180693,2.33126602007378,2.3314820184418,2.33168608082487,2.33166017821851,2.33156588324875,2.33179208370649,2.33182886333039,2.33135612698446,2.33090742007966,2.33093867688057,2.33053263314874,2.33051556708366,2.33021257928751,2.33037910997026,2.33054946007143,2.33075696366222,2.3293053844602,2.32895299980507,2.32877714277691,2.32898047818889,2.32954021174971,2.32979857640899,2.33000714119256,2.33023143077614,2.33081726999658,2.33153350402198,2.33204026819626,2.33265857883747,2.33332212871539,2.33333422824151,2.33362765485182,2.33458441262277,2.3349310567048,2.3357743585442,2.33601610352126,2.3365776010229,2.33712054277113,2.33788748568491,2.33854947636083,2.33944275380949,2.339985321053,2.34065572074097,2.34142304443177,2.34176819545302,2.34282809642222,2.34376152111554,2.34482776755275,2.34531561578235,2.34588902270812,2.34633475843988,2.34693168466474,2.34692117182804,2.34834191200219,2.34961326842617,2.35205180226364,2.35234890166178,2.35376696421633,2.35442225916306,2.35517892927875,2.35579045445815,2.35716715966479,2.35848549368082,2.35941115637719,2.36035623543289,2.36122894124926,2.36171127648525,2.36270286586052,2.36288934991946,2.36409732663534,2.36544190388895,2.36500749065426,2.36606030233653,2.36673094694507,2.36751964784551,2.36852417153788,2.36944093774582,2.36981751734532,2.36973153217876,2.37009710174745,2.36958665132547,2.36959437728661,2.37010297290097,2.35928470934777,2.34590472274981,2.33354941042634,2.32281342001458,2.29167172606903,2.28885651509073,2.29054121021721,2.29254997340727,2.29397673809758,2.29441167779981,2.29449572315895,2.29488230014266,2.29515168046595,2.2956375317173,2.29578495049389,2.29622620139133,2.29650644679893,2.29705685822774,2.29747910241325,2.29815400191836,2.29859183726244,2.29920056721048,2.29965671894989,2.3009259881635,2.3024392550627,2.30309217401318,2.30297411060954,2.30320447953394,2.30353105584223,2.37757932384727,2.3779816372409,2.3785160554049,2.37926307467188,2.37978268424566,2.38056946446159,2.38086972175205,2.38142730640927,2.38162243925501,2.38172016496141,2.38207977979628,2.38250501369429,2.38341458324966,2.38456161397055
2.23335642778759,2.23389530826468,2.23320457245827,2.2347279180486,2.2343099139929,2.23623238842625,2.23598823764302,2.23734114025438,2.23805304640928,2.2391908719162,2.23895984504122,2.23851655657094,2.23939861497956,2.23961832077739,2.24149754471726,2.24117496865895,2.2425834103342,2.24360373117107,2.244363127076,2.24502949331394,2.24532399408779,2.2464892362172,2.24612324699658,2.2472584604569,2.24831779957114,2.24860045148532,2.24889858298106,2.24969641077685,2.25049141985186,2.25055837702126,2.25168415228987,2.25236337165807,2.25276989395191,2.25350528448728,2.25529564701156,2.25648334199924,2.25674247141197,2.25777877461145,2.25826419318763,2.25872678128556,2.32813972262809,2.32839819751978,2.33140058167829,2.33058198871229,2.33136119132069,2.33242856846131,2.33215075004165,2.331599811223,2.33145605635658,2.33092235408384,2.33125299343563,2.33097524194152,2.33201936572551,2.331564361609,2.33279363259183,2.33087930627976,2.33201958496553,2.33191129589858,2.33146282639257,2.33079224488693,2.33099755522533,2.33114046360439,2.33085525332351,2.33057626233072,2.33062061160009,2.3321442698454,2.33266467071042,2.32915421541022,2.328954823213,2.32845827907098,2.32909434531787,2.32965244353109,2.33019065100413,2.32985955781756,2.33067162660216,2.33125991591335,2.33326058326618,2.33307562408362,2.33357345596009,2.33521256208003,2.33308763267791,2.33378788054522,2.33497317834238,2.33626702257773,2.3368700751697,2.33682300542693,2.3364253308456,2.33749302469739,2.33844090280849,2.33908827493441,2.3396979048431,2.34025930195306,2.34135846446485,2.34237170128911,2.34191782658994,2.34304065645594,2.34388282794068,2.34572701571213,2.34584273539108,2.34614026348055,2.34773670827596,2.34813190911422,2.34801096591568,2.34915451409298,2.3498835074441,2.35532401128534,2.35410355246033,2.35483815647396,2.35524095518441,2.35508252746147,2.35707785943455,2.35745654700405,2.35840946729676,2.35860255860992,2.36031846796793,2.36139471391679,2.36177431183361,2.362732732328,2.36270593054941,2.3641572534219,2.36609196925456,2.36529264600335,2.36502014946006,2.36703041873434,2.36706847370898,2.36871813191855,2.36884481458144,2.37071933683837,2.37042724629072,2.37147098001683,2.37255181794291,2.37351085876108,2.37209422648621,2.37573720576334,2.37473835576792,2.37535064091474,2.37601493181756,2.29405171983632,2.34030893567459,2.37723992409887,2.29474548041632,2.29553098036318,2.29461822554431,2.2948183769945,2.29419188469363,2.29590185003506,2.29518882729908,2.29609588292273,2.29620849520683,2.29661260676719,2.2964065664328,2.29811283291289,2.29768895711551,2.29906921178524,2.2985476027098,2.29969262910171,2.30044934411926,2.30372624484943,2.30280755798019,2.30232213422987,2.30262947321445,2.30388474029559,2.37661884129796,2.37765734916655,2.37877579962093,2.37987101315737,2.37976259349345,2.38014467848166,2.38058638466289,2.38071785696509,2.38147013487396,2.38130500072878,2.3823645795953,2.38190254148161,2.38263747275557,2.38415768866256
2.23350791056362,2.23275229299467,2.23412718033733,2.23338848912246,2.23655378321919,2.2361905295523,2.23769051897603,2.23775276332746,2.23837596870164,2.23848509000587,2.23835391711072,2.2399095586398,2.2402833388321,2.24106389983911,2.24200521331126,2.2438084142716,2.24367815265469,2.24453943345259,2.24501546272133,2.24565219093062,2.24641615280717,2.24734504257785,2.2478614337048,2.2478984825585,2.24928413611632,2.25008454960222,2.24986513968885,2.25029662628863,2.25117716443678,2.25161825601949,2.2531615545729,2.25325976656255,2.25347653686893,2.25416291685461,2.25502390063276,2.25680675422259,2.25748394573652,2.33835141582783,2.33694442191254,2.33555185076029,2.3384694620831,2.33674762844292,2.33486114852539,2.33224813555112,2.33239674189231,2.33093668238302,2.33147790126642,2.33139116272355,2.33225922093548,2.33311820575789,2.33396752784755,2.33308905194292,2.33171805724399,2.33226121665997,2.33137536868454,2.33238109941845,2.33111791374844,2.33163644688707,2.33156586989531,2.33129394744714,2.33149431226755,2.33170070651946,2.33071456026056,2.3297293306455,2.33158844960095,2.3311931321714,2.33247887602012,2.32868775896942,2.3292654026532,2.32869082049436,2.32990900321194,2.33265606347814,2.33109039176052,2.33151872597811,2.33112467423876,2.3326811660061,2.33259379010208,2.33292711575293,2.33342424611615,2.33365466027574,2.33450085037643,2.33423984867174,2.33609044740288,2.33609147911913,2.3376884252747,2.3367149596883,2.33758541799576,2.33882502732034,2.33966110608822,2.34130334015021,2.34227751451076,2.34129221887173,2.34201501887015,2.34295192883692,2.34356977494676,2.3437788105744,2.34462285996196,2.34547940665229,2.34597034002135,2.34612538996748,2.34704430386092,2.34880670648768,2.34851047262173,2.34983074469531,2.35212095111713,2.35313860618752,2.35539654550936,2.35679720553362,2.35604878403381,2.35615636288077,2.35722935316518,2.35852105350571,2.35877766851764,2.36019761540004,2.35931463930845,2.36103452924745,2.36095229392064,2.36241932942473,2.36285723581736,2.36344805247824,2.36500339428047,2.36317553265005,2.36578394728671,2.36607066384939,2.3697606535147,2.36818484475099,2.37100519897592,2.37029839755456,2.37135146066629,2.37121061574558,2.37200758838153,2.37292107547966,2.37371176547162,2.37356685774669,2.372633740655,2.37379330059649,2.37311751317217,2.37300668179378,2.36078803646173,2.29647826071643,2.29661722424938,2.29543527746752,2.29554812891353,2.29498237926165,2.29708532659129,2.29545732849433,2.29712143358614,2.29608705739191,2.29676311312853,2.29635960618171,2.29741682002181,2.2966908130509,2.29894201513663,2.29819405429409,2.2996699425569,2.29886070179404,2.30071169908653,2.30153598199467,2.30193815026925,2.3012538124545,2.30374815806225,2.30386177039021,2.30445967334993,2.30628821846765,2.37939222100382,2.38036977281635,2.3801658824172,2.37981085158855,2.38013502794777,2.38050981502815,2.3804973732848,2.38091509211253,2.38132992879403,2.38165750583682,2.38192049136432,2.39316132763905
2.23379289828089,2.23500819905777,2.23330871469962,2.23562842113639,2.23546981644223,2.23778047303422,2.2375111008702,2.23851531552145,2.23886305866466,2.23882033414342,2.23906127544002,2.24063085924382,2.24101414893178,2.24091818176153,2.24247091299673,2.24316529095147,2.2437759698003,2.24515879733632,2.24551025168888,2.24581423685181,2.24612149504224,2.24781915177682,2.24751326513577,2.24910901806015,2.24876239956366,2.24998382319853,2.25181806284579,2.25086150644963,2.25157215604104,2.25221603685771,2.25329773383572,2.25325424182795,2.25388748053689,2.25458638638291,2.33781900089582,2.337703795606,2.33677506674556,2.33541616387585,2.33658576456791,2.33789676542103,2.33575206211929,2.33855339091589,2.33217661835545,2.33300349094123,2.3308214318872,2.33160968482274,2.33202010453142,2.33354708015996,2.33328803682932,2.33384354174162,2.3345746957726,2.33363633696262,2.33421127870074,2.33212316807547,2.33247627936642,2.33193276039344,2.33228586897517,2.33171769361813,2.33227640485026,2.33266467428411,2.33203624614648,2.33244003340994,2.32854838999575,2.32906382808667,2.32990698143665,2.33109949575178,2.33278499944868,2.33259871413336,2.33080469115364,2.3292923600274,2.3304555743468,2.33127644278098,2.33188281284719,2.33168226830826,2.3320537302157,2.33221691788028,2.33303531032598,2.33301515674694,2.33346450286847,2.33373100367333,2.33456563442004,2.33602602402097,2.33573391856779,2.33723501896792,2.33683359939817,2.33812549502363,2.33740725556862,2.33875529600992,2.33957893052921,2.34005644015127,2.34092181553135,2.34185587055483,2.34203945776061,2.34397259113,2.34380392983031,2.34533825543897,2.34637970282423,2.3462594007747,2.34662537333858,2.34693660386193,2.34798475213698,2.34906041678854,2.35069589149275,2.35118908653164,2.35246147353498,2.3534154337499,2.35437426131083,2.35638771054826,2.35660247241535,2.35638037614426,2.35857275889045,2.35801229917484,2.3590309866467,2.35876067984667,2.36075841966236,2.35993842248305,2.36186694671855,2.36269054533042,2.3640240922582,2.36509360723546,2.3670365757098,2.37032839789199,2.36621983022357,2.36840160032485,2.3683078321949,2.37125825422066,2.37183725459994,2.37270503823449,2.37378019079727,2.37710480088849,2.37706801580153,2.37396736994504,2.37560450365314,2.37511763639715,2.37307138845737,2.37287321585492,2.37227392344418,2.37166772863006,2.3719570266141,2.37227804329182,2.37348256640471,2.29530913745151,2.29512887898074,2.29607732115576,2.29563663589553,2.29705813570094,2.29653501391309,2.29694857502456,2.29705763195723,2.29811434689915,2.29755858094967,2.29817231998358,2.29684749905148,2.29947031303177,2.29858352855486,2.30153554838586,2.30131354705651,2.30173547149994,2.30136735005131,2.30128616775499,2.30310620080201,2.30328029634043,2.30361025014905,2.30566467091215,2.30787374472885,2.30658883345068,2.38029697567787,2.37902309391269,2.37987085828981,2.38050461593813,2.38010993132001,2.38010347308861,2.38067928226706,2.3811260903226,2.38144941256696,2.39174156486089
2.23416616790066,2.23419866637044,2.2354075857533,2.23477127827237,2.23667596929211,2.23666960327835,2.23886586999065,2.24094864235466,2.24004902622974,2.24012516755031,2.23963436412761,2.24059224617341,2.24192177362463,2.24328739001842,2.24295383564775,2.2441331594781,2.2434391673287,2.24490244811748,2.24573650668683,2.24607793560716,2.24649682631832,2.24776923026941,2.24845001891589,2.24967384068644,2.25195236902441,2.25096533092498,2.25161648089696,2.25143346823846,2.25173238725953,2.25237178137032,2.34073125229927,2.25385051019139,2.34306176724572,2.33678834271623,2.33622092502196,2.33624963855654,2.33589345955173,2.33512906538131,2.33590529261067,2.33625628780266,2.33455598466338,2.3347512287329,2.33333038926666,2.33249740104984,2.33376509274701,2.33252041809947,2.33284422071956,2.33312086457733,2.33347160649388,2.33394414531432,2.3336957944341,2.33487051427399,2.33398381318964,2.33351475706722,2.33169233591579,2.33218860298798,2.33187607974008,2.33228242487739,2.33289546318497,2.33379534022427,2.33566387367961,2.33005069809404,2.33468805876852,2.33348385953238,2.33120919380032,2.33193342779246,2.33289297421881,2.33262431296664,2.33212441706945,2.33259098994379,2.33078935718578,2.33166397767202,2.33155996821389,2.33220843114029,2.33244697675862,2.33304106249756,2.33331260895787,2.33361121210701,2.33393589350287,2.33391637050603,2.33530005426689,2.33578152810635,2.33666167869489,2.33703657502599,2.33944503027058,2.33851341350249,2.33923973108076,2.33952640626107,2.3405760953744,2.34095538075413,2.34182548941451,2.34223005083426,2.34340609189484,2.34392823199815,2.34495699350795,2.34550457831116,2.34676528957751,2.34735212710425,2.34743650271508,2.3475786143354,2.34875286726672,2.35023303046519,2.35121045747667,2.3523382452443,2.35292393524605,2.35386177037899,2.35470632564955,2.35588673399131,2.35712413186326,2.35762926006226,2.35834024437001,2.36063536841508,2.36014653329124,2.36084674757378,2.36050582120652,2.36231386548021,2.365425144821,2.36499444193524,2.3663594181823,2.36865315875054,2.36844971518258,2.36841665485806,2.3704747390654,2.36892338089732,2.37650218980435,2.37166851409717,2.37517284732096,2.37638138721958,2.37587912160717,2.37623677203116,2.37595581339995,2.37493883981681,2.3741865135101,2.37447491886193,2.37236853884637,2.37175587310714,2.37197728089599,2.371227480695,2.37190959069004,2.37246895541879,2.37401561954137,2.29539841879151,2.29552732649096,2.29588761663615,2.29676434615489,2.2963938744971,2.29745709444166,2.29715214947246,2.29776940555799,2.29795069951777,2.29885177317481,2.29768876417146,2.29914652897296,2.29851220242892,2.30079848983958,2.3004147514516,2.30140245709084,2.30037866617071,2.30111183252671,2.30132713818383,2.30118429401206,2.30217769912617,2.30260552585428,2.30448514962378,2.30597418875381,2.30616829771522,2.30661835476408,2.30827553141922,2.30778338584036,2.30893787372137,2.37927464876945,2.37968376235151,2.38069793471499,2.38102623990031,2.38153227451257,2.39126360457316
2.23404257687555,2.2348537622104,2.23536191822594,2.23625053343648,2.23681768896144,2.23774393246804,2.23882039882789,2.23998447258072,2.24013046466101,2.24018647173853,2.24066513558565,2.24117241099162,2.24213391330731,2.24281050854428,2.24350455805005,2.24419280299626,2.24475475657747,2.24535399121324,2.24613426903672,2.24659722077725,2.24708267433047,2.24804427768157,2.2488216818483,2.25008079902053,2.2511586732295,2.25140170051021,2.25163166261441,2.25177491285098,2.29219046685995,2.30625446900952,2.33911680769898,2.33878080848046,2.33961255551078,2.33820286749016,2.33668904931892,2.33605153142048,2.33658622625096,2.33585971976951,2.33571992360652,2.33561193170175,2.33568464841325,2.33492128555014,2.33422729347439,2.33359595752682,2.3337018243395,2.33404639764986,2.33356650824734,2.33347146946912,2.333597914967,2.33368112610558,2.33385436572585,2.33389161521223,2.3341438496293,2.33334711255031,2.3331963413337,2.3327889113315,2.33313323996848,2.33297765327498,2.33346693394692,2.33387562112675,2.33399359193201,2.33317267413397,2.33377169248867,2.33360237377854,2.33236698653897,2.33241919742776,2.33245239109133,2.33256766502087,2.33248888051759,2.33247678714832,2.33231804183978,2.33244185130888,2.33300417507892,2.33321834578821,2.33318618592865,2.33323852944545,2.33397156168008,2.33442243661288,2.33466669409074,2.3348790237917,2.3357060123693,2.33627194109961,2.33700584689104,2.33782673216287,2.33904249554269,2.33952034768861,2.33992991548404,2.34073212485808,2.34172428632827,2.34262828560635,2.34245305396316,2.34302779768621,2.34344440574082,2.34453717267911,2.34503696310494,2.34605963192584,2.34663690242952,2.34754796438171,2.34798730094971,2.34849198719641,2.34948241906259,2.35064680762993,2.35165594338075,2.35268298506195,2.35377700042496,2.3558968786186,2.35702965212419,2.35755492677264,2.35850984017911,2.35934828392368,2.35992975351383,2.36036175152039,2.36117749130324,2.36155477420846,2.36275421948942,2.36420942125405,2.36605849849244,2.36643480008973,2.3672334285399,2.36836067261985,2.36842091781603,2.36950482724346,2.36989804143464,2.3710737070693,2.37289129109262,2.37269091302165,2.3743222861329,2.3759378895325,2.37654869114205,2.37713733630622,2.37584450717924,2.37483452754682,2.37423687065325,2.37392479664322,2.37331360913613,2.37312100488274,2.37295199453677,2.37220399472831,2.37231102593102,2.37332410061336,2.37475575078159,2.29750213613562,2.2967765102806,2.29667044840519,2.29654493354411,2.2973183183671,2.29722084583758,2.29757090436275,2.297847324396,2.29846289569041,2.29854319265228,2.29889162252828,2.29878824817151,2.29966745436053,2.29975778283256,2.30069468183446,2.30043550136194,2.30068534546726,2.30092747531659,2.30120557871598,2.30148099331712,2.3019569680887,2.30288886828169,2.30365032308216,2.30468134873635,2.30516997510875,2.30618377047486,2.3069265805147,2.30719919472617,2.30790648535623,2.33931473643839,2.35329600549125,2.36902567916873,2.38256111741732,2.38579564435125,2.38811115366614
2.23404488468588,2.23487286958779,2.23490964929033,2.23704231071353,2.2371289215196,2.23815152220026,2.23914165735697,2.23989704745081,2.24024937503929,2.24029484135033,2.24092114218779,2.24223650018875,2.24166512604736,2.24326955069586,2.24322528170054,2.24491011746684,2.2453589322056,2.24545980316932,2.24628015812194,2.24665964107822,2.24717722187585,2.24826950835501,2.24899396011174,2.25031922827746,2.25081215131483,2.25092552367886,2.25139011052496,2.25247545685734,2.31055959103295,2.33829749613876,2.33808514810827,2.33898205953082,2.33945512911566,2.34013266351001,2.33578538336733,2.334868485,2.33821774503808,2.33607151175914,2.33555417928154,2.33478539007631,2.337871479147,2.33455054758208,2.33577378328876,2.33311580746458,2.33432111213428,2.33558274794881,2.33431079326989,2.33315220089224,2.33358403414796,2.33360927747854,2.33317811878853,2.33379897336697,2.33390874134575,2.33415970523081,2.33342289887745,2.33397905347322,2.33368042807971,2.33349391482981,2.33380654352543,2.3340673818023,2.33385269383261,2.33400577283663,2.33459065310035,2.33485748093721,2.33256210076611,2.3326463066145,2.33194587662029,2.33250268766814,2.33254880312152,2.33271814476304,2.33280064135528,2.33355308910419,2.33390025636075,2.33547595228297,2.3329833952165,2.33347542836766,2.33418814936226,2.33561782951048,2.33511615541684,2.33519523091649,2.33606192122345,2.33674324552052,2.33713434189898,2.33844818037627,2.33930108383239,2.34055758471922,2.34005086153582,2.34143510302523,2.34288146250911,2.34455214660916,2.34318186580309,2.34255557511673,2.34443006326726,2.34416083675676,2.3462471998433,2.34555980145086,2.34706523319977,2.34727067621562,2.34844955043544,2.34833586953688,2.35026745721804,2.350665770582,2.35262459918363,2.35256214761078,2.35341249725474,2.35910935962899,2.35989438829575,2.35834242058263,2.35942078613523,2.36142527472481,2.36044902256039,2.36081005642782,2.36136030800821,2.36298316404752,2.36341990904033,2.3667667527331,2.36689986611515,2.36705072771568,2.36718811061565,2.3675278677958,2.36834881562598,2.36934599855,2.37059155506142,2.37090719054981,2.37257566161909,2.37082589388976,2.37439740477162,2.37502504195156,2.3769778928942,2.37895145384888,2.37525699111438,2.37430688581792,2.37402386136593,2.37371286450222,2.3739817162342,2.37437259778078,2.37504171640323,2.37283841258081,2.37291395819223,2.37364106230324,2.37638159410213,2.3003569409668,2.29844848011219,2.29585562251063,2.29675606868361,2.29716069758251,2.29774691794224,2.29701486737525,2.2981511608728,2.29824022777472,2.29994437431328,2.29801944833855,2.30027478920029,2.29869993548693,2.30060646004715,2.29982767182167,2.30069062522523,2.3000228818142,2.30090979793364,2.30130017593949,2.30101217160606,2.30214007430128,2.30234786210631,2.30382560581052,2.30287092969914,2.30479003139913,2.30543944010311,2.30700378002882,2.30689936470483,2.30753790207978,2.30884125846103,2.30949973621499,2.31015315449018,2.38119504486286,2.38919967396381,2.38857965702528
2.23549920715101,2.23497142101372,2.23620482091264,2.23691970928787,2.23910234401112,2.23819652518101,2.23939903572607,2.241294443429,2.24108944759694,2.24097925795898,2.24224151303462,2.24214419169003,2.24328349888125,2.24467690852793,2.24576568706574,2.24509455230393,2.24555524417211,2.24605615862092,2.24676279899571,2.24711651276337,2.2472720457721,2.24857881345536,2.33420829851195,2.34084097740501,2.34271330158136,2.34390917757099,2.34342431647599,2.33887112993894,2.33831874243309,2.33682547856235,2.3372055249071,2.337185822401,2.33847217362266,2.33896410064452,2.3410956573784,2.34092276237372,2.33734294683438,2.33643659401088,2.33573312912533,2.3346590186882,2.33589649190312,2.33487516090735,2.33504170820907,2.33560427358326,2.3341736033339,2.33471534987747,2.333620221216,2.33339830576809,2.33400026609102,2.33286556230637,2.33343303874422,2.3333368118173,2.33408820566468,2.33293256908797,2.33486387623528,2.33449784202076,2.33599046102949,2.33404968331809,2.33448870066466,2.33446010228265,2.33479602632735,2.33566446852979,2.33645533179435,2.33451288868298,2.33264344115026,2.33251589811576,2.33218645121575,2.33286790603981,2.33271797877563,2.33185217933144,2.33321230229236,2.33263939985194,2.33383008551767,2.33334459773942,2.33376516410816,2.33384495603149,2.3350286305733,2.33468215573259,2.3354387327407,2.33525412477235,2.33738607475926,2.33695545681543,2.33920878923586,2.33871707105842,2.34035369400777,2.34053934315894,2.34185611075073,2.34348407610548,2.34351052630832,2.34385196130045,2.34318271404877,2.34448009990493,2.3447374958398,2.34631664933323,2.34516173499906,2.34735396505159,2.34695037433219,2.34958121668052,2.34927870085434,2.34986303746318,2.35038394801687,2.35161242070079,2.3518481075001,2.35440854254038,2.35352235619696,2.35790695458878,2.35894326744123,2.35947041048584,2.35953091323863,2.36065275177316,2.36231419618124,2.36204902569917,2.36516858153117,2.36305866882672,2.36551421033833,2.3651520283676,2.36670231802892,2.3665863913774,2.36652495401581,2.36766801881394,2.36739002147686,2.36928091237792,2.36914151942004,2.37147881680645,2.37101091589293,2.37348043927346,2.37345690513609,2.37629756758523,2.37621755673793,2.37575386799888,2.37508671749488,2.37487162683076,2.37284007044737,2.37299273527347,2.37281843061076,2.37373421373923,2.37363711721098,2.37427887795345,2.37344180993215,2.37390291113759,2.37479292277801,2.29893230827235,2.2972743688587,2.29742182056332,2.29590000186167,2.29749381859244,2.29751723993861,2.29866249121894,2.29837409281127,2.29907011138196,2.29862008827615,2.30046468892667,2.29829983041859,2.30036831852202,2.29943583090928,2.30130004859266,2.29946530060151,2.30093576831652,2.30111634174888,2.30114407272217,2.30263957711396,2.30171304761049,2.30353070216899,2.30293409722177,2.30398347896825,2.30362273973935,2.30584126294607,2.30579483843029,2.30657948980251,2.30645102847292,2.30837387788096,2.30859471581075,2.3087468636566,2.30889578211703,2.31112277490136,2.31197703872036
2.23551099171732,2.23587861190573,2.23628150573613,2.23776079101548,2.23815160190775,2.23959302987603,2.23984871372909,2.24053721469424,2.24120705593357,2.24169278418748,2.24308708356533,2.24314771327755,2.24328743682921,2.24525463531843,2.24504481410591,2.24592742341148,2.24618018801172,2.24716744353101,2.24762625396736,2.24930384010155,2.34144690188815,2.34262073624109,2.33889024948562,2.33990934394603,2.34060122920649,2.34161810009437,2.33982597180982,2.3375728617072,2.33849651477248,2.33821857465787,2.33730288373691,2.34165310143836,2.3373408337275,2.33749207818165,2.33690309216602,2.3412398389016,2.33721999028769,2.33614894983128,2.33661026450958,2.33627424717609,2.3362425316078,2.33582813031527,2.33612605382325,2.33607469851019,2.33631444042182,2.33612318731124,2.33490226089863,2.33388228507722,2.33565436346069,2.33829772640958,2.33401523804438,2.33296063062658,2.33268679530681,2.33462228150459,2.33449496070298,2.33673262517918,2.33696175846309,2.33620899119402,2.33526532418927,2.33517988855576,2.33552874883736,2.33502749578656,2.33499230258413,2.3343874382987,2.33328729905311,2.33244350160505,2.33292646958851,2.33308675318566,2.33329292493874,2.33369318626079,2.33332395380536,2.33399859823224,2.33329769854599,2.33435741076161,2.33380392451893,2.334876159597,2.33474463802061,2.33566189119616,2.33592799858829,2.33682024188064,2.33706666255009,2.34034428136447,2.34142105683279,2.34069826424591,2.33969577098328,2.34202769617795,2.34307116624108,2.34444029775856,2.34407441975636,2.34400195992297,2.34477684046259,2.34401039384523,2.34717406178072,2.34575856598869,2.34756425366656,2.34623217715781,2.34893495804679,2.35135813261926,2.35062046886682,2.35036588646639,2.35199619045584,2.35122210663776,2.3535275711048,2.35408290787227,2.35620544325012,2.35687828784667,2.3587468358651,2.35935927285361,2.35912353524247,2.36025255744759,2.36089138191636,2.36240517819,2.36250978209409,2.36415159571091,2.3638468300169,2.36545914388082,2.36575671330474,2.36652886850043,2.36573909209941,2.36673809853772,2.36789989950569,2.36740927121509,2.36987668934243,2.36980390654337,2.37232678762756,2.37442087878674,2.3756921707788,2.37577806190865,2.37636199494923,2.376846606934,2.37733645307813,2.37461194492595,2.37387868228877,2.37209693388755,2.37254370873886,2.37217003611741,2.37257288908708,2.37307415357529,2.37316181908306,2.37294063953481,2.29736267396704,2.29713326437351,2.29823969066554,2.29734406068973,2.29805179970927,2.296889756064,2.29874001625596,2.29903622896918,2.2991062121266,2.29835554713814,2.3002795756691,2.29897002115906,2.30099461643204,2.29895195167332,2.30182733647188,2.30043100803661,2.30145041788595,2.3013495461154,2.30177103233695,2.30226070308916,2.30264839642996,2.30396862156469,2.30247872842136,2.30385185145841,2.30255441295959,2.30517516774518,2.30469630877548,2.30726240663115,2.30637245608193,2.30629710273424,2.30615038309242,2.30779646551546,2.30758060710148,2.30821509727959,2.30937722025964,2.3100347416529
2.23513604319238,2.23566050436265,2.23701368396188,2.23795523440515,2.23847460133914,2.23885191941576,2.24040958834758,2.24094278762918,2.24193391129401,2.2422755626047,2.2431090382088,2.24345400072455,2.24417793615684,2.3387511143273,2.34190350950325,2.34254574299287,2.34275698705006,2.3408299693673,2.3414093457522,2.34232578854398,2.34230432371887,2.34646928224677,2.33794993879921,2.33861530876111,2.33974906945485,2.34062217875752,2.34038337366507,2.33867873011254,2.34011442589454,2.34202559266137,2.34115061877295,2.34214075277509,2.34245678476566,2.34233919820921,2.33750635835891,2.33980289468967,2.33975231643387,2.33819353039571,2.33828745227123,2.33904554792101,2.33648321333083,2.33684820674365,2.33596478184843,2.33658714966052,2.33622426249422,2.33694322558373,2.3367212022618,2.33649568459372,2.33701282879341,2.33763678363495,2.33886182699072,2.33962380327895,2.34023567514749,2.33552285877308,2.33606838903092,2.33553447221472,2.33610207559558,2.33559401401092,2.33561271589321,2.33555010551135,2.3358031534102,2.33486262055746,2.33407191152884,2.3337944486669,2.33370539364219,2.33345475387884,2.33413277333238,2.33392594414424,2.33400636660353,2.33398561776813,2.33441318668199,2.33382639330413,2.33496177465125,2.33437922250187,2.3353279747044,2.33603225087446,2.33579107586685,2.33596945725346,2.33663215989703,2.33684168011116,2.33822435485683,2.33970955084922,2.34092677354932,2.34041541061234,2.34201049820736,2.34131764531695,2.34357303049895,2.34474539977869,2.34436656576021,2.34512533693749,2.34587728443689,2.34677785365172,2.34597965957803,2.34750803489513,2.3463940177207,2.34865431005177,2.34855793057314,2.3509686542306,2.35063761400923,2.3518140281899,2.3518792930927,2.35300323083015,2.35349579190298,2.35502800944851,2.35552849810021,2.35708076003702,2.35752109436104,2.35854641377771,2.35859018715734,2.35965349345311,2.36079409174594,2.36136364532421,2.36245720090467,2.36289696966113,2.3646151817268,2.36499721869417,2.36676086381179,2.36535980558313,2.36480249925595,2.36718681610071,2.36615555790093,2.36801976668271,2.36795071920044,2.36977012116922,2.3715398218803,2.37439135137469,2.37556962986424,2.37613707520559,2.37623426791909,2.37629654199316,2.37628480094074,2.37177186213873,2.375170410827,2.3727141646068,2.37232095067637,2.37215358492642,2.37242006934227,2.37336755409936,2.35410155659781,2.29754030032556,2.29745729398681,2.29660293620008,2.29688099507594,2.29802235463476,2.2971523464721,2.29877756446192,2.29826273497777,2.29952485018821,2.299135218872,2.29951149399343,2.29975638946953,2.30077209638178,2.29986053273631,2.30087374720632,2.29995007213977,2.30373969163181,2.30083142495735,2.30211824375686,2.30204154534684,2.30197618607884,2.30280422691648,2.30229452688788,2.30366266190245,2.30257811872095,2.30399446072922,2.30384438129226,2.30598487984482,2.30593364272089,2.30641272953163,2.3063808565448,2.30622892490602,2.3063781149282,2.30663360561861,2.30650801669123,2.30737390584711,2.30794249654488
2.23638774121431,2.23703494761204,2.23779947883528,2.23848125633453,2.2388061379805,2.23980518475574,2.24104560806684,2.24204244893921,2.24256412503554,2.24285308374784,2.2433630604234,2.24392053958225,2.29642368992886,2.34028151813993,2.34191147921146,2.34288988256085,2.34252431078204,2.34200969160933,2.34182632329144,2.34242306524158,2.34281017237645,2.34393620644717,2.3417968357376,2.3407700825117,2.34006033904379,2.34062287302423,2.34072611373289,2.34059419369719,2.34087186799378,2.34144808566443,2.34120453419072,2.3412743424754,2.34122653072943,2.34068838922277,2.33894459388103,2.33904938319055,2.33918262686178,2.33920649363893,2.33923047873596,2.33925743209777,2.33793999063251,2.33780551938164,2.33759995842887,2.33783983173842,2.33796036294069,2.33817689279121,2.33785791539569,2.33779902047286,2.33800312361197,2.33836225419667,2.33838895249922,2.33885063447661,2.33860257916883,2.33724199525835,2.33630227038437,2.33617244255121,2.33562232380994,2.33559971974866,2.33553675222134,2.33552009524126,2.33558569715115,2.33501463015874,2.33469308185752,2.33471379198559,2.33419132196084,2.33409157115481,2.33428598343591,2.33421224625854,2.33435679355199,2.33452181782355,2.33447314541856,2.33452847203304,2.33470826245518,2.33515565375332,2.33549489726992,2.33644013810681,2.33675979748595,2.33709576807343,2.33722389319497,2.33771099365975,2.33846285151309,2.33987239442959,2.34009846496323,2.34063480689503,2.34101811907654,2.34175128766487,2.34254901792608,2.34359493370977,2.34390676860816,2.3443426570775,2.3453568941828,2.34568377853532,2.34630099304745,2.34662918570805,2.34744667303325,2.34803293557408,2.34900734238895,2.34983356604281,2.35044293851805,2.35098875505848,2.3518493102087,2.35246813994886,2.35364310332555,2.35463258284045,2.35569737133939,2.35624347811854,2.35699603162423,2.35761706468313,2.35824421371913,2.35929951369992,2.36007702802867,2.36116280557963,2.36178334743362,2.36308513087155,2.36423264042116,2.36412789162581,2.3642167355394,2.3635869260302,2.36326086745099,2.36439134086536,2.36560723286026,2.36703082382538,2.36776518054236,2.36827923272892,2.36573398247337,2.36577771968845,2.36571071019627,2.3648045343627,2.36318810537188,2.36182884040512,2.36166641329516,2.36256534467536,2.36374181482797,2.36401863851807,2.36325319318645,2.36167973029671,2.36595054678573,2.34785477479822,2.33737161430062,2.29754908399654,2.29759679882296,2.29737937306021,2.29761905763671,2.29743265620396,2.2978758502025,2.29810698567676,2.29884955783891,2.29921111318517,2.29947606594819,2.29940397285581,2.30012299481116,2.29999910217869,2.30078764845568,2.30036970490664,2.3012387155703,2.301743120625,2.30203025717127,2.30220683910707,2.30247416673898,2.30268520215208,2.3028663209096,2.30328110626591,2.30320477165382,2.30362255831461,2.30355947383142,2.30468453764584,2.30524915111385,2.30621895772011,2.30637425776917,2.30664570113186,2.3062617852529,2.30662568778616,2.30677822021469,2.30699184826941,2.30733378664504,2.30795004047431
2.23779197586849,2.23784495699017,2.23799971869739,2.23911397744838,2.23827196291539,2.24066166037019,2.24170950984901,2.24321136044206,2.24288484642503,2.24270709419989,2.24387479537218,2.24516544313887,2.34538740255138,2.34451704049281,2.34217229992765,2.34490453733069,2.34308909999033,2.34376071461126,2.34282826418314,2.343006777904,2.34389202946012,2.3447440834208,2.3452122859509,2.34140641300835,2.34046495277708,2.3400351306981,2.34184660922,2.34145026512735,2.34129461264038,2.34142529732011,2.34093546674157,2.34036482837558,2.34072510017009,2.34118341076128,2.33800297248894,2.33847919138427,2.3382491218491,2.34012761587237,2.33980461541611,2.34056535607942,2.33799168752222,2.33876787103052,2.33879683798766,2.33929207238439,2.33960096179742,2.33986167775967,2.33852535729399,2.33848370328178,2.33864903513619,2.33874361396717,2.33833368608288,2.33754630826269,2.33942298558286,2.33739790424438,2.33716134455658,2.33596684851355,2.33523837438873,2.334802328438,2.33518538157232,2.33509813364265,2.33562114103358,2.33505411547067,2.33467894048258,2.3366104884685,2.33388661055274,2.33468827962042,2.33420376928765,2.3340555246325,2.33435931318087,2.33458117329079,2.33472184486454,2.33427888436442,2.33497397697519,2.33528907895575,2.3357353769068,2.33678166471307,2.33800043265262,2.33802053187532,2.33759689578087,2.33780724079283,2.33861550226125,2.3401425451864,2.34001594323731,2.33991796972029,2.34061004339508,2.341144217542,2.3418818475104,2.34297354597768,2.34346905711423,2.34363960170568,2.34463526961042,2.34526882478746,2.34555564166067,2.34666626711671,2.34732017909649,2.34824771864113,2.3487281712598,2.34975154214932,2.35032612928447,2.35050262999285,2.35154126362139,2.35210521276827,2.35322464121097,2.35514940218496,2.35593201724332,2.35624260046881,2.35684148368414,2.35768697343284,2.35854826578024,2.35977602851704,2.36012992189092,2.36116600253279,2.36119736411076,2.36273860838615,2.36583873364754,2.36298209300569,2.36390354026869,2.3629896686919,2.36278136690859,2.36338979744741,2.29937951632893,2.36839244476368,2.36811636672005,2.36912652851614,2.29907145035606,2.30065762426648,2.30074900813176,2.30196413513486,2.29932123339969,2.2992012568438,2.30060090802126,2.30043842813421,2.30006560230981,2.30120382169742,2.30019567318335,2.3008742577382,2.37294364725991,2.29761384111705,2.29780003035247,2.29812368751729,2.29688572988261,2.29767797797216,2.29673235000438,2.29765656385542,2.29731091168056,2.29851313557395,2.29860461618893,2.29983600312934,2.29954460038473,2.29973393837566,2.29934755446209,2.3008123138999,2.30008561713001,2.30147222177264,2.30017421490185,2.302221568505,2.30166962583072,2.30306679467725,2.30282750135983,2.30282908671118,2.30382718804945,2.30312350822367,2.30418140792974,2.30306903169262,2.30397422007908,2.30428535169304,2.30555175809176,2.30650186055141,2.30667665022929,2.30706020206927,2.30642332634741,2.30606797156488,2.30809892068031,2.30619356688348,2.30809521912137,2.30725192755852
2.23692001620261,2.23714677215308,2.23840299300049,2.2379816160484,2.23967380090933,2.24005081469092,2.2424570052762,2.24307933932466,2.24285989916101,2.24257090841241,2.33026697444043,2.34295322558653,2.34366510013259,2.34342713027805,2.33994117125061,2.34630996389412,2.34470532972193,2.3438626579255,2.34348144071215,2.34369073959232,2.34249279531372,2.34376223223097,2.34350972695936,2.34402490527921,2.34236734557312,2.34134404649075,2.34085367194009,2.3411144480211,2.34111424761565,2.34078914631281,2.34188379485433,2.34160786275354,2.34108230087219,2.34013877021042,2.33920611773798,2.3383730906282,2.33961018594602,2.33982716552797,2.33939738183996,2.33895191154566,2.33904627685371,2.33852245354317,2.33813052628648,2.33928521592085,2.33992791096179,2.33953575460415,2.33857323835127,2.33906641592369,2.3389871853681,2.34100795621031,2.33840259980368,2.33876577716748,2.3385377339988,2.33941268843385,2.33847828523301,2.33637596986548,2.3363785127112,2.33660306258821,2.33510583798479,2.33443588114723,2.33555494396489,2.33538996511198,2.33580197400631,2.33545697194855,2.33439068356175,2.33472059214589,2.3347537216376,2.33448301993629,2.3344675847846,2.33460286847293,2.33473061255665,2.33534868906496,2.33544985047987,2.33616479981377,2.33614139040743,2.33646471478093,2.33668552405294,2.33743046546838,2.337190665537,2.33713939261048,2.33810088052303,2.33896763628676,2.3396992848436,2.3403344380295,2.34049027277892,2.34190306855808,2.34184168085102,2.34213823927234,2.34321814622359,2.34316259237749,2.34374513957366,2.34436650522692,2.34540739634625,2.34629578691157,2.34693226696403,2.34835228723275,2.34878299878155,2.34993668183078,2.35058593553114,2.3508469311197,2.3514604037098,2.35238620130128,2.3528957527777,2.34900405565628,2.35570364208011,2.35634974477051,2.35709010385634,2.29543076509051,2.29469812076276,2.29553893157906,2.29775244800902,2.29714153669901,2.29490924498218,2.29412972345284,2.29446840369181,2.29618664091572,2.29617121635959,2.29590965342261,2.2957035676263,2.29616981790017,2.29563574049656,2.29546721836912,2.29732039648961,2.29843804142125,2.29815707928502,2.2979939720791,2.29911094562098,2.29733344006214,2.2983462720715,2.29798900270636,2.29989411936797,2.29850928469271,2.29938377387784,2.29892313963546,2.29915914724792,2.29909281645137,2.2988358473465,2.29848077234653,2.29819686759426,2.29717873023348,2.29788603563333,2.29666158533599,2.29772463867086,2.29727980713639,2.29893036226784,2.29810574529696,2.29960835767812,2.29918411778264,2.30005160952338,2.30010290758469,2.30073544846315,2.2998328137415,2.30243769646295,2.30095704298068,2.30244336704349,2.30175234798811,2.30263118936821,2.30295876008168,2.30301605273882,2.30276790710446,2.30234569147685,2.3046311944417,2.30307745597075,2.30456241999044,2.30408824880341,2.30549617081642,2.30510160203315,2.3062986373735,2.30608379217458,2.30602218072483,2.30550460193844,2.30647074797897,2.30586207393879,2.30807770781775,2.30705592571,2.30797637754183
2.23830212506889,2.23837390456419,2.238212695476,2.23930443802274,2.23867333293908,2.24201671615268,2.24159085452457,2.24340466403281,2.24108702133648,2.32957613731733,2.33096287837134,2.3436456030515,2.34215293885917,2.34400794074006,2.34590134416041,2.34494736900979,2.34527242611902,2.3441615693804,2.34483953983496,2.3467028801721,2.34516951265192,2.34246990369695,2.34412861617515,2.34444948213356,2.34267817386372,2.34138383345952,2.34245985386484,2.34213115150812,2.34176428270127,2.34171673052595,2.34139672554323,2.34328523951012,2.34199754133465,2.34200552739825,2.34104318275539,2.33939156170186,2.33929069766689,2.33962247389939,2.33908408611669,2.33919159033756,2.33918778125322,2.33995425682933,2.33976748665498,2.33922256191483,2.33984738693391,2.33872992037778,2.33925123939033,2.33823603005507,2.33828943190619,2.33851340355095,2.33891025401845,2.33772475081606,2.33797487255149,2.33743400345776,2.33827445001312,2.33614421104555,2.33656737668096,2.33595140550126,2.33463316097163,2.333480741434,2.33384152693679,2.3338618394164,2.33425049508082,2.33492321068224,2.3345051047065,2.33506342682779,2.3347497131286,2.33472100078541,2.33461862278286,2.3343902228397,2.33418484185377,2.33486206429504,2.33543562289124,2.33617295240056,2.33675272880363,2.33672547387184,2.33644099218047,2.3357414830252,2.33648974619564,2.33615134852388,2.3378012344842,2.33834250687902,2.33973009815977,2.3403501501168,2.29161969577277,2.29170811912248,2.29197377128609,2.29122856784425,2.32525914491418,2.34297763670541,2.29179321455183,2.2918608958239,2.29197897303611,2.2919489887633,2.2920616643219,2.29192173492341,2.29178226120134,2.29233195673576,2.29222550428462,2.29328603902031,2.2924983039386,2.2934621805716,2.29280905251762,2.29240224891704,2.29306051271115,2.29426117117118,2.29345379526189,2.29361783402301,2.29371947378476,2.29387619102887,2.29530167591024,2.29512947902535,2.29502059555444,2.2947135901535,2.29518027601623,2.29411760275215,2.29491524835859,2.29617370740233,2.29555718865718,2.29486256481448,2.29582347253946,2.29596612468823,2.29642674331098,2.29645369326398,2.29570858578028,2.29717966783824,2.29681291926201,2.29715765676549,2.29767536910328,2.29768722718957,2.29774917233551,2.29859502527697,2.2971770458164,2.29794487164331,2.29792815815038,2.29873084685651,2.29814506375213,2.29796306636519,2.29826319074958,2.29829823294459,2.29803578306044,2.29911528595099,2.29722967432307,2.29878227956359,2.2984846756104,2.29970270866271,2.29922204813732,2.30010812492171,2.30011435988185,2.30085035159511,2.30018751430897,2.30189145936948,2.30066574971242,2.30394874422912,2.30288020157692,2.30377496053943,2.30239403224772,2.30418486000419,2.30334356075711,2.30291128480547,2.30396612064125,2.30352392498621,2.30500232770417,2.30433562762497,2.30573310470966,2.3052343236846,2.30605403905696,2.30664221004763,2.30635520296424,2.30537508091028,2.30637954870534,2.3056177646951,2.30719173589762,2.30645109278798,2.30839560306455,2.30746516048282
2.23998644674662,2.24076911212611,2.24006945094967,2.23862569478515,2.2405166003685,2.24180750630235,2.24236363959223,2.24302052032162,2.24037799714911,2.34079692406574,2.34284414945695,2.34381408566934,2.34363995599137,2.34552411562931,2.34705502936025,2.34459316353919,2.34501776705387,2.34543801665741,2.34532359940169,2.34648883693689,2.34622126066887,2.34456239633123,2.34319342657767,2.34348656534762,2.34350693753574,2.34343913105159,2.34275330468821,2.34242451775144,2.34202913767781,2.34191538710834,2.34192547613708,2.34203364852026,2.34247564942861,2.3402406071252,2.33952593148421,2.33915099507631,2.33974515012509,2.33906975085617,2.33889888669509,2.33900237074121,2.33866943016422,2.33808650257657,2.33809243774822,2.33828680683448,2.3385164135619,2.33892637052905,2.33883993005472,2.3389812012428,2.3377489942103,2.33799920845852,2.33752367078133,2.33829320675972,2.33737335848647,2.33709436691418,2.33678018218381,2.33672177748987,2.33660769895761,2.33451547358461,2.33445692438685,2.33359146940581,2.33320526203921,2.33339499622887,2.33347494013829,2.33436912658465,2.33449978683564,2.33592222971514,2.33622956668916,2.33542574269749,2.33504420439129,2.33475203824506,2.33432157038235,2.28776208954786,2.33537370320278,2.2874441780101,2.28825982198186,2.28860822966353,2.28916784823169,2.28959244972891,2.28873584491123,2.28899584804079,2.28930231730641,2.28944514171673,2.28903713916475,2.28946459742724,2.2899572628406,2.29040141514447,2.28910537133263,2.28930043212515,2.28900988147786,2.28987653007395,2.29148756467692,2.29039378831171,2.29096040473033,2.29064032331405,2.29146251119546,2.29083961006447,2.29125227024771,2.29151309219328,2.29169573789002,2.29162568479008,2.29162228633693,2.29119235208146,2.29194346555149,2.29342569738098,2.29288245295469,2.2938984765703,2.29282262207759,2.29193739746414,2.29275728782233,2.29262024949322,2.29291698778297,2.29379199919283,2.29416883062593,2.29483218275993,2.29480400701048,2.29406951079382,2.29386327733492,2.29446222987129,2.2956002572665,2.29691999312085,2.29713413600087,2.29546181267571,2.29497151076872,2.29461762350887,2.2954226931417,2.29530647777494,2.29599869083376,2.29651450520617,2.29720276923574,2.29656871320007,2.29673311462302,2.29712816835968,2.29747315080535,2.29755743432345,2.30004713305266,2.29826953458992,2.29794044609848,2.29744814969669,2.29825093909872,2.29794940117912,2.2986153763027,2.2988382523966,2.29917139334963,2.2984860523162,2.29958040421027,2.2995139966116,2.30000368227001,2.29986302141153,2.30059750698404,2.30078402955243,2.302997882884,2.30134179838593,2.30320569262461,2.30204491600535,2.30321849492593,2.30239990177525,2.30334919302239,2.30298882303273,2.30339663027833,2.30333219073831,2.30351423821285,2.30448984754772,2.3041517709766,2.30509025197371,2.30477616411599,2.30563419078878,2.30658640229934,2.30607039351349,2.30631999375873,2.30656393070713,2.30746516269056,2.3075712360587,2.30689724407524,2.30754896838992,2.30752232573853,2.30888880640217
2.23888404929619,2.24013817083182,2.23998967709395,2.24060000561268,2.24121747876501,2.24269731134299,2.24196149078713,2.24127024484179,2.24079106028049,2.34039977233552,2.34182306538681,2.34298960910523,2.34374885153183,2.34490700186171,2.34547811885489,2.34457520235314,2.34451343023128,2.34477327326667,2.34508405520693,2.34542012677239,2.34543417215859,2.34434023932779,2.34397072636512,2.34345671152142,2.34349422776639,2.34300105720821,2.34300022966477,2.34266617112046,2.34253520544336,2.34240679666791,2.34176727100029,2.34178080020047,2.34153259499551,2.34086240642757,2.33991461500947,2.33960076833091,2.33951945450254,2.33960852904756,2.33899893731795,2.33880946715056,2.33868572536218,2.338025829043,2.33801093561527,2.33817601175846,2.3385336276771,2.33852789851653,2.33839127237941,2.337701009283,2.33722453744397,2.33732598548484,2.33740290912612,2.33731564318967,2.33739673055999,2.33897385442637,2.33876592817579,2.33930917602013,2.34040359591082,2.33927890593916,2.33780494571263,2.33641664207325,2.33564655357059,2.33489865417132,2.33595402625477,2.33663752976477,2.33719018129611,2.3381573785614,2.33910264544516,2.32671108214511,2.32162224183113,2.3119611883458,2.30174815239691,2.28696155468751,2.28575349727481,2.28615904126855,2.28662050365488,2.28752439855026,2.28787505771872,2.28816518994889,2.28789560602892,2.28776778448025,2.28811027557592,2.28798504119444,2.2880526569875,2.288001481422,2.28832843844743,2.28848177007142,2.28842944578383,2.28845774247649,2.28860078487722,2.28905435725075,2.28947906156289,2.28966680258528,2.28944719446014,2.28995988396981,2.29020363339665,2.29057583122264,2.29056607276228,2.29109967988515,2.29133712086651,2.29138971492789,2.29094268256958,2.29112460438376,2.29132033995224,2.29192779005026,2.29190354101307,2.29225492141447,2.29211859948871,2.2920916240198,2.29241248861239,2.29243428514001,2.29267136472899,2.29289747889903,2.29347169637427,2.29366859651864,2.29397892022127,2.29354785578531,2.29381441343316,2.2942979817474,2.2952227326868,2.29579038223882,2.29591123073051,2.29552905233856,2.29493277591426,2.29496364367745,2.29517996311288,2.29554695054855,2.2957401712079,2.29645659922395,2.29674376429747,2.29678273418965,2.29684861666201,2.29730518220923,2.29757320593389,2.29801657614119,2.29844767820158,2.298211112639,2.29795398402942,2.29818428993974,2.29830012654528,2.29836511364176,2.29861709030012,2.29907611511358,2.29911426588573,2.29928056884293,2.29959485071416,2.29988421086102,2.30004230693335,2.30042268924832,2.3007950098295,2.30136312061678,2.30197752782837,2.30233250107486,2.30232388931217,2.30299152217027,2.30287527825381,2.3032944186849,2.30327964713933,2.30363974693222,2.3037128240262,2.30385012527616,2.30437837702317,2.30455766871405,2.30483491045148,2.30498339941177,2.30542965159837,2.30565102504253,2.30628472759468,2.30639992063948,2.30697964477323,2.30733684867934,2.30777491219878,2.30718490460462,2.30783748291428,2.30747214292906,2.30823885617049,2.30807083090468
2.23867185624133,2.23879185387888,2.24046055138055,2.23959194833002,2.24223181904752,2.24309141840897,2.24426167204523,2.24336211557436,2.24156469507279,2.33872648185782,2.34046454920613,2.34261614551727,2.34329685673307,2.3446142658723,2.34541739955803,2.34361537295681,2.34355055100093,2.34391421585256,2.3445111576358,2.34484045736827,2.34506936477496,2.34408824357151,2.34399250262043,2.34384264838505,2.34308138968047,2.34290358175189,2.34297321223282,2.34321311032031,2.34313792242159,2.34345591466725,2.34126941927454,2.34135428036498,2.34156958059754,2.34108221028632,2.34042400381935,2.33930545104252,2.33992036640308,2.34105692706449,2.3395031081298,2.33911507591075,2.33936259750201,2.33770968443428,2.3373979255737,2.33837939631596,2.33852294767908,2.33895663374359,2.33860607687575,2.3371985764957,2.33716435720475,2.33757695562798,2.33756768566219,2.27755493238437,2.33832374167803,2.27811760674542,2.27891399945209,2.279505804734,2.27932173878476,2.27991526461706,2.27909743904808,2.27997194972349,2.28097684552732,2.33308485727775,2.28345076831779,2.28175870089515,2.2817936511214,2.28220603600423,2.33790413824501,2.28293297368946,2.28238573525275,2.28307246840761,2.28482896100614,2.28463824886131,2.2857720327688,2.28458789251379,2.28568223781853,2.2861039485561,2.28668130224449,2.28677686510917,2.28662994132132,2.28609468210107,2.28658205648016,2.28691247850105,2.2865058484643,2.28697584935853,2.28644476149188,2.28724589641439,2.28692926064266,2.28764027531393,2.28784783119396,2.28748797127888,2.28859885060266,2.28799378105928,2.28877456397912,2.28814892455424,2.29030413369841,2.28933684467757,2.29002792390302,2.2899273429646,2.29085696869814,2.2908798672167,2.28980305246687,2.29037600300495,2.29101561440643,2.29036346992652,2.29142069620192,2.29038408270745,2.29174811757791,2.2912094206387,2.29176910180153,2.29202748913181,2.29162017128309,2.29256507982078,2.29215410588819,2.29352450164826,2.29298098514277,2.29309992679554,2.29288317890721,2.29367478292239,2.29459861920598,2.29474576831268,2.29522881066756,2.29550002374966,2.29476270109796,2.29454262912528,2.29554137040753,2.29533271609342,2.29572385963716,2.29642673270884,2.29654117843293,2.296655177586,2.29718340590238,2.29717941668015,2.29819574848386,2.29775525550563,2.29829300974247,2.29753714121339,2.29812552763167,2.29884962787049,2.29856948708527,2.29861126138484,2.29866297608678,2.29960228958207,2.2991675887849,2.2996873564739,2.29989002162006,2.30009439183212,2.30010788087005,2.30071981766986,2.30102383017686,2.30104901857743,2.30257062132594,2.30185160103561,2.30287787481222,2.30249019158931,2.30414008335283,2.30273607581395,2.30421646753736,2.30373427608338,2.30411121051113,2.30397757281731,2.30537023855546,2.30485463536891,2.30520120043884,2.30507312220717,2.30578832359142,2.30571736231403,2.30605433869987,2.30659190989245,2.30744527299505,2.3090366560113,2.30737431179773,2.30779962215392,2.30718779835016,2.30897031557469,2.30730097855966,2.30872654358661
2.23751425944547,2.2392303456817,2.23793795660563,2.24048786437727,2.24078975540765,2.24366957778285,2.24460822746686,2.24469061321009,2.24045519163835,2.33787547615073,2.33958934551594,2.34093860480164,2.34277426469748,2.34338946520946,2.34391877166215,2.34383907010154,2.34317197871643,2.34355420676009,2.34398546918706,2.34434920180663,2.34425688504769,2.34363732646138,2.34465849540342,2.34526326361513,2.34564667900528,2.34341300247676,2.34268161604332,2.34301185389099,2.34326102711278,2.34316547212613,2.34081359107757,2.34193011807394,2.34205380161664,2.34152649759093,2.34009275330845,2.34009937556337,2.26771968198727,2.33944712765705,2.33890053876653,2.33746039247629,2.27009448775938,2.33693574213193,2.33728570900237,2.33846613234385,2.33909885019035,2.27076710514353,2.3370195364334,2.27101525609206,2.27135327632453,2.27301368408184,2.27352088923343,2.27377674265235,2.27401914118324,2.27508466407436,2.27578761602364,2.27667318721898,2.27734582534308,2.27814420239089,2.27798953275321,2.27823400494669,2.27919883176087,2.2785724896752,2.27857307107228,2.27999111434825,2.27972650181717,2.28044394030348,2.28037571787528,2.28117576709902,2.2814365977426,2.28195570352325,2.28148556801753,2.28422469680926,2.28215903015314,2.28371560798007,2.28343803090279,2.28436834067255,2.28384099619997,2.28583185327713,2.28545615445548,2.2844529052952,2.28514239512216,2.28422622627106,2.28548137788151,2.28475797442235,2.2857899750982,2.28522058598034,2.28646459379478,2.28701291949248,2.28703564395309,2.2867294612914,2.28618944918969,2.28825560086998,2.28663064296934,2.28922937137374,2.28705353601345,2.28909312343574,2.28863956878325,2.28972038765908,2.29007717056092,2.29038620645337,2.28959929823256,2.28978170612748,2.28930182233235,2.29052404092541,2.28968116427451,2.29055785643454,2.29008842188786,2.2908735794652,2.29117045672209,2.29063594137319,2.29165881570605,2.29140243605029,2.29236212439502,2.29173767821305,2.2927920514105,2.29269588649288,2.29348022216664,2.29360619804048,2.29473543907605,2.29469633419452,2.29471004445252,2.29506839162877,2.29456451480065,2.29512698485641,2.29484759385468,2.29597004883182,2.29541626388729,2.2958008048459,2.29625646667984,2.2963306809198,2.29677719876242,2.29737696834006,2.29811553390413,2.29782694769853,2.29753853672109,2.29831135615211,2.29854331699781,2.2984703505213,2.29877072634241,2.2986286530256,2.29927959604903,2.29945341079754,2.29968509508747,2.29907773582791,2.30009925137127,2.29989910781801,2.30091904669049,2.30107079661906,2.30127402745241,2.30138205169098,2.30163669451655,2.30259084870646,2.30285331982394,2.30412770803627,2.30330070982924,2.30413477705417,2.30383105299132,2.30459600868924,2.30440479938598,2.30462557786301,2.30479058232537,2.30608595504436,2.3051442804986,2.30616697162437,2.30614186116084,2.30648930930886,2.30692305621885,2.30801446872293,2.30777329927928,2.30679411475785,2.30749136257843,2.30620407075608,2.30955797376836,2.30769871069372,2.30990922951284,2.30770237467167
2.23838763992959,2.23774600441812,2.2400948446293,2.23940809122226,2.24259037311951,2.24261848273064,2.24653859313502,2.24715056732578,2.2414394034384,2.33755739193518,2.3385798572337,2.34184324343212,2.34258261155013,2.34300732908931,2.34338609761705,2.34345321842506,2.34191274769325,2.34199313411819,2.34322116957586,2.34357615796912,2.34608221200807,2.34401232705437,2.3443353178108,2.25795210534192,2.25987329719,2.26024674871924,2.34299315609769,2.34365760206737,2.31144573375331,2.26381656994138,2.26142330261186,2.26173705135767,2.26327587982934,2.26425947987468,2.26483160925328,2.26533791508932,2.26435809706816,2.2664118460788,2.26617400136117,2.26732985529994,2.26744203034854,2.26608982812312,2.26784986168547,2.26924746454287,2.26932218772661,2.26921472701976,2.26874791140788,2.26991783120546,2.27062323188922,2.27109227328874,2.27209355076839,2.27197595289817,2.27267858955046,2.27290142657404,2.27400495861913,2.2745929169755,2.27544774515718,2.27591117272261,2.27679458160454,2.27617138014459,2.27710121033752,2.27703806131503,2.27768236320793,2.27769567393982,2.27850832749544,2.27824871166498,2.27917741148873,2.27969278401939,2.28082831772442,2.28032395866633,2.28121768952516,2.28063387682,2.28244335974427,2.28159435246327,2.2832079351194,2.28207115541261,2.28340493777362,2.28334666992259,2.28436013139976,2.2848740400518,2.28430991479249,2.28467758540234,2.28311907880913,2.2851891378071,2.28416938464811,2.28581666354639,2.28563752349591,2.28709908055183,2.28679951372672,2.28602751263426,2.28699650398287,2.2860371960477,2.28876304769737,2.28707359837453,2.28862870030074,2.28724348736455,2.28908962008001,2.2892748576049,2.29018098776981,2.29020350478376,2.28959169224764,2.28917694791996,2.28983801665209,2.2892133982296,2.29100780968228,2.29016266039378,2.2906806844578,2.29048830474407,2.29128631386654,2.29177778378706,2.29099504411396,2.29299802092963,2.29152054201537,2.29265132397568,2.29204452105465,2.29356078710378,2.29368306656233,2.29568992573245,2.29562874201034,2.29682082541369,2.29496616155454,2.29678359254215,2.29487143473733,2.29496080807905,2.29575944996333,2.29504691064685,2.29723214807252,2.29718541332812,2.29675389831472,2.29648043805588,2.29688323960395,2.2980383414368,2.29807435694136,2.29800090803195,2.29869630769078,2.3003222321263,2.29869136678815,2.29862597106178,2.29931308090816,2.299942359501,2.29934310089772,2.30017895483221,2.29967881988044,2.30077383089338,2.30065577781754,2.30128674502852,2.30158114111147,2.30158421803771,2.3017886046229,2.30180641719381,2.30260454007075,2.30219925911402,2.304647884857,2.30356620442667,2.30509260690915,2.3040366943148,2.30460076001107,2.3046335723467,2.30508782990207,2.30502244566449,2.30623442317536,2.3061762923452,2.30686376219512,2.30637117191429,2.30951321216529,2.30681356698513,2.30750766291671,2.30819643248015,2.30797431463149,2.30848183825304,2.30751951999058,2.30919122233545,2.30693099547988,2.3100309694303,2.30809824548358,2.31002837214255
2.23884730152994,2.23978282543057,2.23924104035024,2.2418178413612,2.24115454976316,2.2443762682157,2.24524734376872,2.24837541730869,2.24740423632014,2.2490317600729,2.25066234581819,2.25099947336664,2.25135925161358,2.25267637008721,2.25352612909979,2.25486885492467,2.25381100889724,2.25457040105478,2.25477099051551,2.25443810076201,2.25440982806774,2.2564972601941,2.25577503005824,2.25670584551449,2.25897892938478,2.25890471240098,2.25834161587595,2.25823936105051,2.25852080510302,2.25868559121519,2.26073321159991,2.26092189481057,2.26225413401673,2.26182844216882,2.26388193011109,2.26394833026112,2.26417599308748,2.26437946315936,2.26509036748034,2.26512613073764,2.26539532418209,2.26579356397557,2.26651096990893,2.26730151773036,2.26811168158481,2.26973161217875,2.26866037142856,2.26906999431537,2.27016644729315,2.2703996007757,2.27129251853056,2.27172228631519,2.27244299054063,2.27240413424455,2.27326956790097,2.27472841109435,2.27435344121528,2.27567565502492,2.27584729267375,2.27517379215894,2.27586140708159,2.27708823272795,2.27591916798087,2.27745206531608,2.27680521499574,2.27741721136578,2.27850038520075,2.27942225433026,2.28021629209612,2.28042809092442,2.28020467630547,2.28087190394613,2.28320836864951,2.28281172588465,2.28184497841434,2.28293362495862,2.28204381925355,2.2832308158309,2.28385930739272,2.28349732283281,2.28347912841733,2.28372806392304,2.28534602785153,2.28492509468758,2.2851140915747,2.28535187429549,2.2863846384571,2.28619691360434,2.28655793212819,2.28696551488211,2.28783542266022,2.28763421198635,2.28688400518966,2.28845382447672,2.28723076242838,2.28920844192245,2.2887471599733,2.29088783195635,2.2900321543277,2.29018639670591,2.29001083850722,2.29105696949158,2.29134837306387,2.29083819991973,2.29040355289016,2.29316475646257,2.29096980180922,2.29194609966238,2.29185137595602,2.29159337381119,2.29233360781686,2.29231607411506,2.29268165786086,2.29247217204202,2.29463220721691,2.29438724409379,2.29449122073806,2.29687854734783,2.29574693859414,2.29490375877405,2.29556087801518,2.29549601831495,2.29523145347107,2.29525276345544,2.29522515096186,2.29561580829997,2.296112449419,2.29669333159512,2.29697265412125,2.29735466155617,2.29779714413603,2.29785235276925,2.29883830519937,2.29905234354828,2.29998102380207,2.30080563444227,2.29949419526258,2.29972138532892,2.30017738747829,2.30073955848143,2.30093728814094,2.30044845860126,2.30113057970943,2.30098166437108,2.30195741534887,2.30137981308663,2.30174115198508,2.3019758619247,2.30232964834537,2.3025377320591,2.30235725299525,2.303067704008,2.30276300338285,2.30418088228079,2.30483254812886,2.30568565043996,2.30495098596652,2.3053071800329,2.30543394804217,2.3059557378131,2.30624911408856,2.30682576712639,2.30835071377091,2.30842239762768,2.30868552056234,2.30818225045424,2.30820091834712,2.30815282125702,2.30825672472455,2.30749240682912,2.30900223533645,2.30775403697558,2.3096464152297,2.30846930586239,2.31182309215079,2.3093941791732
2.23960467198587,2.24001001186663,2.2409000197515,2.24149734552372,2.24270968668362,2.24420607424815,2.24558128783294,2.24710021260799,2.24779160807992,2.24844393759782,2.24943590943247,2.25032647769839,2.2507632101274,2.25184698699325,2.2523409206756,2.25339532725341,2.25363170675594,2.25426577666147,2.25453933834218,2.25443528674289,2.25446817449113,2.25541133178977,2.25594055501685,2.25643169774593,2.25756454759322,2.2577424404593,2.25814461865968,2.2584602542806,2.25914386877607,2.25974245070771,2.26095003359816,2.2610323442488,2.26126143943751,2.2619280985745,2.26264631379106,2.26323027504245,2.26361807539474,2.26419467149923,2.2647062291413,2.26483827546262,2.26535247013088,2.26536589719973,2.26622367074976,2.26695979556371,2.26857102463023,2.26890991691969,2.26933659369917,2.26969156574274,2.27034817263365,2.27084237257243,2.2715153526319,2.27170089275647,2.27200438227316,2.27248880972534,2.2728425273657,2.27378716052534,2.27420821155379,2.27502437561963,2.27540042293164,2.27542063693939,2.27576877490714,2.27596768653386,2.27647463582248,2.27678559307759,2.27729579498707,2.27770179097998,2.27855890582634,2.27933647453175,2.27998983974598,2.28024038557777,2.28042357937015,2.280478757962,2.28178648118465,2.28176907184728,2.28197502681123,2.28223443482061,2.28276412444757,2.28390233910696,2.28410464824411,2.28435735791844,2.28429033008315,2.28440894636452,2.28431707585401,2.28510317790938,2.28504093800582,2.28561641206717,2.28586275965421,2.28642116154372,2.28668246359691,2.28695732091519,2.28784283485761,2.28743754884639,2.28813635892411,2.28800751939477,2.28881886726374,2.28876985090859,2.28949107252231,2.28954632529024,2.2896705716928,2.28967404721746,2.2899952226309,2.29071072014982,2.29153549556349,2.29128922000975,2.29140971865101,2.29201385319694,2.29213542076672,2.29235168317794,2.2924638766407,2.29276053378902,2.29282276292692,2.29356545125855,2.29298111605505,2.29384444147034,2.29392709803468,2.29478294740103,2.29445739412902,2.29533719728122,2.2952039229566,2.29508750247863,2.29508323024719,2.295326096052,2.29558530635262,2.29593793957809,2.29611160663271,2.29631058037026,2.29639415581432,2.29681949651759,2.29715863936176,2.29742556009795,2.29770005560835,2.2980616693281,2.29867550814241,2.29904006298123,2.29964866486024,2.30018558017109,2.30023571815378,2.30036826295755,2.30068345702518,2.30111219029815,2.30108215811477,2.3014022218793,2.30135684866296,2.30213654349751,2.3018959860504,2.30221532905157,2.30238521423793,2.30294445103387,2.30303294749624,2.30306648802526,2.3032708644802,2.30335518984779,2.30396367122157,2.3043914149833,2.30517841509506,2.30523434823122,2.3055749670469,2.30553814163902,2.30590708896937,2.30626600087937,2.30685826039334,2.30729773800969,2.30837932878668,2.30919233651107,2.30922969707501,2.30910320695453,2.30893028459362,2.30889376039847,2.30871680117716,2.30859310956432,2.30850975416042,2.30911183115594,2.30897521363366,2.30997665182624,2.3103942857599,2.3116378632943
2.23927357402554,2.24011064989551,2.24118810906159,2.24120636816583,2.24299497334044,2.24487332907903,2.2454271431344,2.24679219546219,2.2472008488932,2.24717910031671,2.24916493569751,2.24913549357265,2.25084973587936,2.250284127191,2.25176848148966,2.25141867829294,2.25350533098006,2.25331647988044,2.25390523294782,2.25396968103826,2.2528310595298,2.25514276007031,2.25532105174415,2.25635526775354,2.25625381681167,2.25692569557988,2.25715054245847,2.25825707614937,2.25916437566232,2.2602801404282,2.26206799648997,2.26021218065303,2.2605985579012,2.2611504388447,2.26231627952454,2.26196062600056,2.26306629527295,2.26344648907317,2.26412837888661,2.26433628706068,2.26452891923907,2.26536547451386,2.26446365845624,2.26743516808602,2.26879767960696,2.26932128673164,2.26896787965208,2.27020692903232,2.27010658446293,2.27043168551637,2.27267742748181,2.27078015970324,2.27228476561667,2.27190850083264,2.27253832684728,2.2729665644574,2.27407827094169,2.27472279615408,2.27509879867347,2.27577110219877,2.27523613692642,2.27561683707719,2.27599606588279,2.27727342290237,2.27665523702381,2.27867160764946,2.27799904730435,2.27996003403154,2.27980939406693,2.28069612430443,2.28017820502613,2.27975119749759,2.28089898783149,2.28115748988371,2.28164400259777,2.28143232395236,2.28294280946224,2.28539478739554,2.28467424889522,2.28466949437355,2.28644110090017,2.28339400757064,2.28453010107988,2.28403223833717,2.28622204347925,2.28467087146265,2.28609164781865,2.28647611818846,2.28674004413169,2.28733120394369,2.28743569485063,2.28845298880974,2.28753391185188,2.28941853543189,2.28859292406823,2.28985262670255,2.28918435590799,2.28916827599776,2.28915955179886,2.28901631439084,2.28947464707577,2.29040422963894,2.29256571204784,2.29168399690655,2.2915512970494,2.29170324207358,2.29293676473002,2.29292116158265,2.29311103805006,2.29320191087852,2.29426983283176,2.29396456589609,2.29429817734347,2.29345638602885,2.29482466132597,2.29432656864023,2.29472110527163,2.29387336316236,2.29498929058997,2.2946769206788,2.294963773638,2.29443379299685,2.29653561018235,2.2961791234445,2.29746887086022,2.29673488394419,2.29656176147629,2.29686448024983,2.29743882682584,2.2973290764959,2.29769251106149,2.29778330240614,2.29897920524146,2.2985880163184,2.2995361180213,2.29990662165343,2.30098877549985,2.30067908355513,2.30120381541258,2.30131904589557,2.30187347778556,2.30135881740921,2.30230755336975,2.3026795338168,2.30282019688455,2.30185877749556,2.30359558165604,2.30381650780697,2.30380431049742,2.30369202958853,2.30365484973961,2.30404267234583,2.30414753992231,2.30558992062962,2.30486979887973,2.30573422802781,2.30557260291099,2.30592045547302,2.30616689784678,2.30634077206767,2.30766397344467,2.3069636191928,2.30888428492555,2.31046993190687,2.31022945296608,2.30973702136416,2.30981453356706,2.30943033566317,2.30945565603523,2.30842742284462,2.3092885318518,2.3085926417243,2.31015196834664,2.30894858787816,2.31110703204385,2.31310844022761
2.23966225368437,2.24021472400188,2.24028880363518,2.24116170857637,2.24152746466948,2.24364280091652,2.24459642905194,2.24578701068467,2.24650019873876,2.24764821614946,2.24729928895335,2.24891451823039,2.24793614557634,2.25076569085261,2.25074724338757,2.2551742476125,2.25244757626677,2.25335991679473,2.25301941524885,2.25217381606563,2.25402923261062,2.25474518299645,2.25687757720837,2.25652078568077,2.25894137727789,2.25591438751564,2.25745185020318,2.25753944328685,2.25862434281338,2.25876676267513,2.25950972540108,2.26109574020631,2.25940423612652,2.26112473767894,2.260417701859,2.26156917134642,2.26200542107082,2.26331534191664,2.26385290870179,2.2635445041073,2.26451548202274,2.26363026577213,2.26672085829603,2.26542603187916,2.26853945929733,2.26680164169819,2.26881721892684,2.26828265892763,2.26930368083327,2.26933321640219,2.26993517683373,2.27129679578487,2.27072349111812,2.27270030138244,2.27166392917677,2.27403483948683,2.27376755452588,2.27478555975138,2.27457486450038,2.27451721424342,2.27542256564333,2.27522983414062,2.27881840594996,2.27589152537199,2.27796475394615,2.27818007065088,2.27871482545177,2.2784231981894,2.27928243870877,2.27960098551101,2.27984489740802,2.27987889251201,2.27988614732913,2.28045770677694,2.28158806228696,2.2823305126074,2.28230802404468,2.28368667655272,2.28375833841567,2.28443425255307,2.28344991570465,2.28538645332916,2.28358093682924,2.28575724520467,2.28452150668637,2.28625507068907,2.28504289193266,2.28660412034175,2.28661054381372,2.28625378596739,2.2874316586246,2.28807439882447,2.28913521164526,2.28726991451526,2.29032371786021,2.28873346898328,2.28906870090315,2.28807591837966,2.28913063971024,2.28904998145095,2.28932036769792,2.29093457882063,2.28982287299832,2.29108428453009,2.29154838351529,2.29241741389459,2.29239933163076,2.29252454148222,2.29312981253755,2.29375631221381,2.29310151306287,2.29585391096473,2.29339256496139,2.29484723538589,2.29299264276884,2.29494876127441,2.2937156515286,2.2956688287034,2.29523399342032,2.2953707179714,2.2954151160882,2.29633297930821,2.29640813911166,2.29804488667873,2.29751563286821,2.29845569011561,2.29692842881626,2.297891811391,2.29803656062823,2.29821543833692,2.29783853953441,2.29905022496953,2.29874470491167,2.29946672556374,2.29977620764583,2.30093596847262,2.30083307741112,2.30065143792486,2.3016318780141,2.30284478560213,2.30285700616127,2.30291519034952,2.30272081780736,2.30474984333887,2.30365049509818,2.30361873565654,2.30436447350864,2.30489477824931,2.30435578236994,2.30375699642356,2.30425683817123,2.3043542796271,2.30540905628792,2.3067154495515,2.30625320418962,2.30591869284215,2.30677248699147,2.30589645959821,2.306516814761,2.30677717737028,2.30721579965675,2.30841834615475,2.30751988047,2.30990368738128,2.3091541899985,2.30979808539521,2.30971282160442,2.3117788941319,2.31041430699472,2.31042638928879,2.30923204302628,2.31125496838689,2.31015638386885,2.31136197362359,2.31000361216609,2.31175788735675
2.24008539118923,2.24083013184852,2.24252238011985,2.24181729127668,2.24295427278284,2.24269569068599,2.24424906298816,2.24552850601387,2.24643364343607,2.24621690676577,2.24909499638536,2.24666877983007,2.24875244449508,2.24813830846629,2.25187882445335,2.24977453579277,2.25307514775647,2.25154430292868,2.25262200229845,2.25266347841483,2.25309957106711,2.25471674341308,2.25449432449758,2.25671773653526,2.25640294751561,2.25685906996571,2.25609025530913,2.25792372406694,2.2585949786514,2.25949546580787,2.26048974025693,2.2595965522754,2.26109449041871,2.26060495803209,2.26193979914125,2.26077533703329,2.26254480110953,2.26278035412939,2.26378499056235,2.26507156218226,2.26367616927716,2.26565020254133,2.26380868831415,2.26693845938679,2.26588601158101,2.26855561853406,2.26763197868884,2.26936996143481,2.26919070991593,2.26892510927849,2.27074270456524,2.27039970792255,2.27241938330612,2.27089350591667,2.27255286108158,2.27220172568328,2.27419487950328,2.27339533097056,2.2741746138994,2.27431378718076,2.27477424066283,2.27734148491688,2.27605852341336,2.27733042139252,2.2768134856563,2.27813704506496,2.27738267348612,2.27870131240534,2.27875199508424,2.27880080069139,2.27935475109241,2.28002337947456,2.28092923927158,2.28126294843844,2.28212232769966,2.28181116220003,2.28242018285312,2.28255951259815,2.28340873257625,2.28286580128135,2.28474687868857,2.28532225406434,2.28541187071812,2.28383913171341,2.28556528177758,2.28454079701113,2.28617168927008,2.28627367941275,2.28671031604629,2.28744978233416,2.28700480445775,2.28892060924371,2.28772356853921,2.28898472547363,2.28852348231822,2.2896980156293,2.28885087488502,2.28937836801147,2.28987951537989,2.28948878101336,2.28919112361012,2.28995764095565,2.29053173843533,2.29104133627297,2.29303972040854,2.29256342248344,2.29395429431688,2.29405119247826,2.29415906086657,2.29422652327177,2.29571932571854,2.29236479691019,2.29553377165831,2.2926635615414,2.29546689886704,2.29361717347915,2.29622297472822,2.29621023500722,2.29623290004845,2.29559354914757,2.29648841232726,2.29639160184439,2.29789281731538,2.29708018412971,2.29867697344121,2.29776615659439,2.29892845013246,2.29899765529915,2.29909532020354,2.29938579935362,2.29949904545482,2.29925311472391,2.2995542505325,2.29955794348011,2.30001447581633,2.30033833850192,2.3007476488479,2.30072594927504,2.30248213834196,2.30428788749683,2.30498921464987,2.3024105352142,2.30373150047871,2.3025347563863,2.30418107389209,2.303004382402,2.30594247175724,2.30497127430809,2.30537960734575,2.30557340834756,2.30620615610668,2.30681927981407,2.30651698981114,2.30709435028682,2.30730158132622,2.30803975548465,2.30679329586122,2.30721202660085,2.30722588721966,2.30742452502833,2.3079948884052,2.30847083466329,2.30855358235953,2.30912142985734,2.3096644617777,2.31011753944638,2.31146329064421,2.31036203616177,2.31101750682385,2.31064956332298,2.31181355725992,2.31020811877803,2.31142194700814,2.30959007970407,2.31158597883618,2.31118475234775
