0.537458121524437,0.536834325618145,0.537371199144052,0,0.536493453538204,0.53790381176896,0.538750026707414,0.537259563537871,0.690648590790597,0.54618870767193,0.544706766304386,0.703254892487021,0.75158288380088,0,0.553819129181413,0.553806346478415,0.552569833008429,0.5504214867246,0.550020109850469,0.550819454877931,0.559661676631605,0.739624239056344,0.742092152915118,0,0.556145581127012,0.552925192151767,0.551214014310463,0.550729123776747,0.73397002343032,0.720506428452844,0.819030390078639,0.555139156310985,0.55470880531006,0,0.554459968691703,0.747811986416531,0.680703647858314,0.645474518396394,0.691878286818985,0.605553284754084,0.644381171199983,1.03795548342085,0.682988342974119,0,1.03873096740272,0.694346200677759,0.578237500627999,0.716208031524786,0.584769461859871,0.583470739235295,0.659116219035639,0.68402800281794,0.689352424706621,0,0.615913239443696,0.620286628229341,0.773700368707863,0.906268077137582,0.808100326835325,0.613218645651761,0.612968104673004,0.613122349289178,0.613076331558386,0,0.606688388780288,0.608508645687174,0.608831621982918,0.679489291073523,0.689172614684452,0.775074083190026,0.774498009374925,0.892351974473984,0.893033718633866,0,0.707941883586212,0.718910294938519,0.71687614080147,0.659153714964433,0.952149459097663,0.821850254359952,0.666824188943309,0.732978937857891,0.739561177721555,0,0.883233646335558,0.679041044288401,0.675066475836286,0.680117347880815,0.722480929975903,0.701221590530172,0.702826245846495,0.702618313877731,0.74810513640528,0,0.698812477105188,0.674858543867522,0.738417551893352,0.71247718660983,0.711241525320043,0.74121355512907,0.73860673589772,0.952260242523644,0.952464765771609,0,1.02350250723135,0.895999305729354,0.896553222859259,0.890017000726387,0.887434894720833,0.874856714971004,0.870621379377735,0.871499124983583,0.919758089701254,0,0.981123585892662,0.981055411476674,0.983322210808283,1.03689877997304,0.986961020261655,0.986824671429678,1.05743632278949,1.13920301296538,1.13989327892726,0,1.05106201489459,1.05683979664959,1.05649040276765,1.06476507250823,1.08901812099604,1.07101155337315,1.06989519731134,1.10076968595201,1.08567757461262,0,1.0938755481352,1.10509023956527,1.12247471564227,1.15681757769634,1.15666418526036,1.10940227137652,1.11806894400903,1.11676510830325,1.10682016537097,0,1.11016923355639,1.09804270931248,1.14728168125998,1.13174643621667,1.32457777183938,1.32381080965952,1.32179114258586,1.30437257930087,1.30791764893226,0,1.34356434669211,1.34219233657034,1.31585996839489,1.27252660523237,1.31007366483789,1.30704842512841,1.28618705383601,1.29389076284268,1.33171052011215,0,1.22184744874711,1.29717165661211,1.19943510949098,1.1837038630017,1.19652917500948,1.18531448357942,1.22509425530855,1.20823813095546,1.18300507523782,0,1.1866097974832,1.21690480358797,1.21005327478115,1.18686545154315,1.21373469324451,1.17690346500687,1.20879204808537,1.25633518143516,1.17405718313936,0,1.19778187990327,1.1176172885031,1.15128692819929,1.1518152799232,1.15900768080996,1.15844524187806,1.08050484079951,1.10247404635172,1.07974640042164,0,1.05093418786461,1.05112166750858,1.05269820087831,1.0527578534923,1.07887717661779,1.06561725270808,1.00250478710697,1.00287122459291
0.534133766564811,0.533924130235647,0.538519085873254,0,0.538231901145903,0.537861202758968,0.544309650331255,0.544779201621373,0.544704209763786,0.545447310898058,0.546031906515157,0.739296149679401,0.71392418858918,0,0.552936270494366,0.552801626022789,0.551617947725193,0.551471372730818,0.562185834383569,0.561343028165915,0.560491700146262,0.559325065452663,0.558539355308398,0,0.557347155208804,0.709249128012787,0.549082711630631,0.550830533220529,0.772569525582658,0.55036012975021,0.824684605704663,0.818767918577084,0.556176259614206,0,0.555702447423088,0.712678301136995,0.703463676635985,0.706279280016299,0.683323249792661,0.682643209993179,0.686097096343183,0.690761930757178,0.589150520267315,0,0.589094276374125,0.589859534193593,0.589595358331638,0.588977527686745,0.587002173983486,0.586638293038149,0.669146379987908,0.673499316448757,0.60911028490827,0,0.615619237274747,0.65668068802446,0.640006078053938,0.905901639651645,0.62186060505847,0.611423101970671,0.611463154440064,0.611731591203018,0.607134931205011,0,0.607364167678772,0.606631292706898,0.782844262252285,1.00183156474909,1.0011583423912,0.673721735480919,0.835451902529805,0.736101326110152,0.739511751269963,0,0.664927235818436,0.659314777022205,0.656888619993224,0.692066618643152,0.70187095184246,0.873535835661232,0.747387600677004,0.720070112190519,0.759398228413731,0,0.860071388503555,0.744216638153351,0.679438160261532,0.6900537690111,0.689158127621054,0.69422604326958,0.684020333196141,0.720923144570572,0.691016732636934,0,0.688566714562356,0.674596072365968,0.675483191954015,0.69787507888535,0.732565630460962,0.755284754589041,0.756027003543113,0.956410360096928,0.88542374944918,0,0.863480109302967,0.835981106433913,0.847435260500136,0.840391991148352,0.879526662466197,0.872087129321482,0.883114341107578,0.97644511659547,1.00318653126685,0,0.969031148856749,0.992730280214659,0.991545749736864,0.979564096126932,0.974425449521818,1.05633701033168,0.999198327931543,1.14026823821519,1.14014893298722,0,1.0625834911966,1.06297549408854,1.05995025437906,1.07788012578396,1.07515314914443,1.07376409541867,1.07151433969106,1.0724687815149,1.08214102678323,0,1.1860303149473,1.15637444399241,1.15611026813046,1.15638296579441,1.15568417803053,1.33580098507145,1.33453123657367,1.13366384166633,1.36538868161034,0,1.12374446414005,1.1228581967322,1.36066760330315,1.36333492732869,1.32168888096188,1.40636150561927,1.31643945093079,1.32347845938157,1.30026507073758,0,1.33465054180164,1.27878160789929,1.32520838518727,1.28957873103142,1.3122893333575,1.31071279998778,1.25924963771866,1.31063610376979,1.3181097241225,0,1.2995748047757,1.30154334103736,1.23334335964313,1.19827614441918,1.18620927278927,1.19970780715494,1.19551508057166,1.20694281705169,1.20076451060275,0,1.19713422295138,1.19854032028114,1.20141216755464,1.23899331436816,1.22456590358465,1.16003881885178,1.15976612118783,1.20074746699876,1.16937871384217,0,1.13345079661637,1.13312696814043,1.18934529592472,1.15072448926739,1.10355631520553,1.08201319975325,1.12529543210378,1.11604075513338,1.10746782232286,0,1.0509853186766,1.05084896984463,1.0510279276866,1.07813577984392,1.05549335193383,1.07498271310446,1.02778045183461,1.00424323471467
0.533843173116661,0.533738354952079,0.537398468910447,0,0.538363136896681,0.712412420914641,0.544253406438064,0.545696147516415,0.545068942889324,0.544239771554867,0.721302364759506,0.714738020680039,0.551427059360426,0,0.551385302530633,0.551792644666163,0.552260491595882,0.615118155317233,0.561517725106884,0.560861546352998,0.56004004464034,0.559434996698444,0.558750695997962,0,0.556059510926827,0.708045849570594,0.818066574272605,0.703851418626918,0.774448582923333,0.8233125955829,0.651436371074565,0.669759097551602,0.553174880950324,0,0.670538842434468,0.72394667991965,0.958097676892637,0.727086111775908,0.676984733466155,0.684825643485002,0.679444977703131,0.589852716751994,0.590825906540226,0,0.590640983436858,0.590162058164541,0.589497357608655,0.588863335539965,0.587988998654916,0.586940817009097,0.586020462393255,0.662854733572394,0.662437165274466,0,0.642979334771225,0.615586854427152,0.63680614140349,0.90343883887407,0.601550594355375,0.610339128756458,0.909404100273041,0.607396550526366,0.607640274063524,0,0.606616805643501,0.606406317134137,0.604793140015815,0.754452174533785,0.679493551974522,0.626298759539303,0.732658518102746,0.887008804620906,0.987293370539597,0,0.985963969427827,0.653063183076084,0.73952964705416,0.862329666033166,0.972721089122113,0.851261549597476,0.977007555527373,0.665032906163218,0.663879054172617,0,0.664796852247859,0.66792179704072,0.950803014381896,0.668628254426398,0.67023461410312,0.657884818646852,0.706282688737099,0.672036975225809,0.670456180955082,0,0.70725843506593,0.685198046232338,0.677525015712862,0.688328956286597,0.721157494125531,0.734221416589277,0.765167488366735,0.867775097510226,0.895547650223432,0,0.841161509868819,0.859679385611623,0.868934062582026,0.876859338440658,0.877259863134589,0.891005529758216,0.904350671687913,0.97621502794151,0.977263209587329,0,0.997783708799787,0.970428724384508,0.980680452188739,0.970735509256455,0.970471333394501,0.971059337732399,0.993275675542565,1.05868902768327,1.0701593731733,0,1.06585586316404,1.12297750196018,1.0585612006533,1.08848124747013,1.06578768874805,1.06808857528765,1.06878736305153,1.08322329563704,1.14317417269669,0,1.18860389915085,1.15373268537287,1.158786113958,1.25105166419607,1.29815166384194,1.32731327028091,1.34285703712623,1.38760501942051,1.36602781676023,0,1.36590851153225,1.36018186058924,1.32994650709846,1.32754335893487,1.35258041320655,1.33387505781978,1.34727133056147,1.41326416523808,1.30860791489414,0,1.30142403580938,1.33298879041193,1.2770005512816,1.29513494593447,1.26864066352104,1.25716179622902,1.25963311880859,1.25947972637262,1.28288059466058,0,1.29470033403254,1.27688976785561,1.2874141933238,1.28717558286784,1.22526469134852,1.26350201691593,1.21595036176413,1.22188153595511,1.1981568391912,0,1.21675141115199,1.23315587999916,1.17416796656534,1.1738270944854,1.2236966797808,1.1593741182959,1.16585920961678,1.17246360616564,1.14222825267486,0,1.14213451285287,1.12101748750052,1.11655206325329,1.10406762332544,1.10711842844092,1.09480442455304,1.0967644390127,1.10961531642649,1.04739764003522,0,1.0504484451507,1.05182897707446,1.05123245093456,1.05702727629356,1.06500368296418,1.0527748970963,1.08656384202046,1.01825307720025
0,0,0,0,0,0,0,0,0,0,0,0,0,0,0,0,0,0,0,0,0,0,0,0,0,0,0,0,0,0,0,0,0,0,0,0,0,0,0,0,0,0,0,0,0,0,0,0,0,0,0,0,0,0,0,0,0,0,0,0,0,0,0,0,0,0,0,0,0,0,0,0,0,0,0,0,0,0,0,0,0,0,0,0,0,0,0,0,0,0,0,0,0,0,0,0,0,0,0,0,0,0,0,0,0,0,0,0,0,0,0,0,0,0,0,0,0,0,0,0,0,0,0,0,0,0,0,0,0,0,0,0,0,0,0,0,0,0,0,0,0,0,0,0,0,0,0,0,0,0,0,0,0,0,0,0,0,0,0,0,0,0,0,0,0,0,0,0,0,0,0,0,0,0,0,0,0,0,0,0,0,0,0,0,0,0,0,0,0,0,0,0,0,0,0,0,0,0,0,0,0,0
0.538842062168998,0.537727410467591,0.536993683315517,0,0.659852502728312,0.543416565481809,0.544207388707272,0.543837542500536,0.544463894947428,0.544555078228812,0.537464086785836,0.598405197237718,0.549985170462275,0,0.550374616813608,0.550109588771454,0.662019596976538,0.660028051849482,0.573218159250865,0.559744338110991,0.559383865886453,0.669903116005378,0.65569215899263,0,0.609544044629995,0.653300089171643,0.54473914915198,0.546109454913344,0.645246134102833,0.695918473146488,0.700445254368106,0.54688664325561,0.548359210640956,0,0.546677006926446,0.65129235262079,0.686262419301954,0.618705833958614,0.618982792523566,0.686011878323197,0.733991327935316,0.591000603481196,0.591194900566762,0,0.591269892424349,0.590147571101143,0.589308173604288,0.588235278732673,0.58616618520743,0.586492570223974,0.587207549411651,0.652804120295329,0.649449939028708,0,0.650746105112684,0.644619781655941,0.606592944597905,0.60250929708021,0.603468851985244,0.600905493944086,0.607155383529808,0.606719067267483,0.607358202417373,0,0.608517167489173,0.608265774330216,0.60575184274065,0.742811393003794,0.752965972265241,0.74764155037656,0.747592123924969,0.745793171523079,0.980586712366755,0,0.980015751632853,0.871482081379586,0.647391071665863,0.983535255858246,0.92881676522569,0.853603340786672,0.848161318030411,0.855980923544261,0.664123629889975,0,0.663758896764438,0.666389577041384,0.666860832691903,0.666478203782169,0.687081364474013,0.657860105421056,0.698374456482464,0.67156912829609,0.685250881404729,0,0.697621129185794,0.689566321936784,0.726616560485789,0.686029774107394,0.727238652031682,0.771448908619851,0.759050538892191,0.846045354594176,0.834905655021699,0,0.835755278680952,0.873706271701202,0.873450617641246,0.8783506537904,0.939545713941838,0.909242186035069,0.980399232722787,0.953461816605436,0.951740412601734,0,1.02461886329316,0.970121939512561,0.970207157532546,0.965128163541423,0.966542782673179,0.985759446179862,0.985699793565872,1.05155627941051,1.05049105416069,0,1.05055070677468,1.12359959350607,1.12371889873405,1.08178311109929,1.08912038262002,1.08608662110855,1.09515381843498,1.11789850796906,1.13478871953014,0,1.13439671663821,1.15497686846466,1.16883331851426,1.20499984619602,1.28292320367057,1.29571442847037,1.33073903468432,1.39061321552599,1.38986329695012,0,1.35358598584238,1.3534496370104,1.30736373180235,1.35278493645452,1.49009673205682,1.33699403735124,1.33616742255738,1.38354864166921,1.38060861997971,0,1.31085767062175,1.30800286695224,1.27674489722164,1.27684715884562,1.2670982173593,1.25794580201288,1.26889631758099,1.26158461146626,1.31600483902886,0,1.3070995559404,1.27238173459839,1.29510938052847,1.26615229733747,1.26561542381156,1.30043550677755,1.31633718930681,1.36923201431168,1.21030892884111,0,1.2184728151557,1.19634169536552,1.2057241993659,1.20451410348211,1.22454885998065,1.22512834251655,1.1558546140705,1.20650820514976,1.14738394288397,0,1.14626758682216,1.10439997360339,1.10444258261338,1.1031302251056,1.1043062337814,1.10444258261338,1.09558843033691,1.06275392723657,1.11810303121702,0,1.05018426928874,1.05182045527246,1.09044978373179,1.05829702479134,1.05885094192125,1.08859203089611,1.08358973312298,1.02512164961107
0.538291553759893,0.537587652914815,0.537068675173104,0,0.994835165308296,0.707118677513154,0.728020953455147,0.546901982499207,0.633025870036942,0.886693497946961,0.537259563537871,0.612494292481886,0.698403430609259,0,0.593958520954885,0.592872843380273,0.573240315936061,0.571659521665334,0.688512175029566,0.682854550682742,0.665817764127283,0.681318921962607,0.833460357402748,0,0.924581429632421,0.648602871910054,0.97013046131456,0.93982693340779,0.539329509243314,0.538824166384801,0.54259932467015,0.54218942599402,0.547736266914863,0,0.664762765039865,0.659368464374796,0.658686720214914,0.657613825343299,0.624915671074942,0.626361820874093,0.589611549755436,0.590908568019612,0.591072186617983,0,0.59028136339252,0.589674611090225,0.589447078976864,0.585962514139665,0.586042619078452,1.0266811393768,0.650979602487444,0.823727607340228,0.794852333448412,0,0.616252407163238,0.921147143427014,0.600808345401303,0.602547645189203,0.602802447068959,0.603006118136724,0.604321032185097,0.607217592684397,0.608524837110971,0,0.608525689291171,0.608490749902977,0.753203730541,0.633132392561924,0.752768266458876,0.622059163045035,0.771782111077994,0.739108670035433,0.877114992500614,0,0.894891471469546,0.890622048668282,0.886923586600921,0.859952083275576,0.984234043622125,0.871533212191577,0.84897685448167,0.84810763067782,0.662842803049596,0,0.661690655419395,0.661990622849743,0.673517212232954,0.694324043992563,0.66739855839801,0.668694724481986,0.69439988803035,0.730279230984757,0.735454521338464,0,0.774918134213453,0.788853837021647,0.727202860463288,0.72464291114293,0.786728499603214,0.733768908903155,0.781228528593363,0.766772995863258,0.904231366459934,0,0.850554240031598,0.860889481495414,0.862977322985054,0.874839671367006,0.89509599471751,0.900558469798567,0.954399214825275,1.02050283292787,0.938616837523999,0,0.950504751311947,1.03517737596933,1.03516033236534,0.965963300137279,0.966346781227213,1.00797578399003,1.01204920534532,1.08883064135207,1.05315837818623,0,1.04842025627505,1.04314526083796,1.12463073154789,1.06819935871363,1.08688767049641,1.08185128551528,1.15089492530736,1.13916892575738,1.17287265266157,0,1.17254030238362,1.1709722908159,1.16812600894839,1.22062883106132,1.27624211090373,1.30142403580938,1.33096912333828,1.34107598050854,1.38294359372731,0,1.35621070085792,1.35507730119212,1.3581025409016,1.46462506588321,1.46420749758528,1.39031495245604,1.39352767180948,1.34837064301928,1.36347979796267,0,1.33528967695153,1.33188095615212,1.30021393992559,1.31277507607142,1.27158920701253,1.26155052425826,1.26051938621644,1.26259870590408,1.26230896463613,0,1.37819695001413,1.31414708619318,1.25198054061391,1.25316507109171,1.40707733698714,1.31968625749223,1.31972034470022,1.22938924351581,1.22166849090515,0,1.21830237911573,1.27511723303992,1.18563831205536,1.17818173530665,1.18995886566862,1.22556295441847,1.20382383752023,1.14691524377405,1.1344563692522,0,1.13722595490172,1.12079592064856,1.11039932221035,1.10872904901864,1.12254289005825,1.09821314535245,1.11222298783804,1.1118565503521,1.06386176149638,0,1.06850614358558,1.1129814282159,1.0608365217869,1.06031669186499,1.06093878341089,1.07465888462852,1.05028653091272,1.03333666673765
0.537673723115,0.537320068332061,0.709368433240766,0,0.707001928825775,0.706770987991614,0.705981016946351,0.700735847816256,0.533131602649784,0.534973164061666,0.695853707451299,0.700639551453673,0.693710474248669,0,0.692652918620651,0.613520317442509,0.609015692906086,0.62145241074274,0.582895517600395,0.698016540798525,0.884128435545403,0.666345263670992,0.531056543863142,0,0.530881846922172,0.832687429961482,0.835735678536356,0.538646060723032,0.540198733047164,0.538814792402603,0.540845537818852,0.541212827484989,0.668047919710298,0,0.667580924960778,0.668801247006968,0.607748500948905,0.624132517471277,0.58147578538744,0.581957267200357,0.589364417497478,0.589349930434081,0.589255338431897,0,0.589833968787597,0.589076380589928,0.58512396882301,0.585672772871715,0.585394962126563,0.909421143877038,1.00328027108884,0.793896187264177,0.794048727519951,0,0.90622546812759,0.905884596047648,0.631586537679391,0.601312836079616,0.602362722085835,0.835457867791204,0.600040531041236,0.600067800807631,0.60708635693362,0,0.60800926809006,0.608202712995427,0.751831720419237,0.753161121531008,0.888431945554661,0.879731185714162,0.877898998284478,0.921394275684971,0.719343202480044,0,0.997136051847899,0.637712008955934,0.75650592881543,0.988622771651368,0.725804432755329,0.72638221093083,0.71820809845384,0.655548992719055,0.838587925665263,0,0.661568793650816,0.663362632971506,0.664416779878724,0.690381006207843,0.665894460345269,0.692606900889859,0.737942887522034,0.70297026430027,0.70326256210882,0,0.747806873335332,0.736160126543942,0.718760311223345,0.725899876937713,0.811741692829297,0.81027764724595,0.760239330270986,0.797429326372767,0.791858624406329,0,0.870655466585729,0.869828851791871,0.8795096188622,0.882747903621642,0.892761020969913,0.916460152327823,0.950070139410022,0.951655194581748,0.939375277901868,0,0.942298255987363,1.04144090043825,0.960381519828242,0.970965597910415,1.02083518320581,0.992193406688752,1.03354118998562,1.0475169452632,1.08736489140833,0,1.09682409162669,1.07718985982208,1.07411348930061,1.08417773746088,1.09114004969367,1.1622374437674,1.14549210284029,1.15322989905496,1.16302144955127,0,1.17572745633107,1.26303331780601,1.20700246966568,1.21588218734814,1.28668984015392,1.40072007269624,1.34732246137346,1.34556697016176,1.30569345861064,0,1.30452597173684,1.35713105547377,1.35681574879982,1.35652600753187,1.43019698580915,1.45917111260415,1.43059751050309,1.34221790197634,1.34076919563659,0,1.37794129595417,1.33970397038677,1.30328178864506,1.30660529142449,1.27513427664392,1.26399628143184,1.26113295596033,1.26071538766241,1.30433849209288,0,1.31370395248926,1.25012278777823,1.25278159000178,1.25287532982376,1.25329289812169,1.32305236928165,1.33542602578351,1.37134542120731,1.23116177833151,0,1.22011752294141,1.26092843271237,1.17978383408237,1.1790424373085,1.18126662763012,1.22623617677636,1.20102016466271,1.20141216755464,1.20648263974377,0,1.20261374163643,1.2004832911368,1.19258358068417,1.15456782196873,1.11979034801273,1.12365924612006,1.09573330097088,1.09062021977176,1.11219742243204,0,1.11051862743833,1.11275986136394,1.07777786415998,1.06109217584686,1.06074278196492,1.04651137262738,1.04658806884536,1.08550713857265
0.715440217164718,0.712318681092657,0.708029658146797,0,0.704090029082877,0.705351255778659,0.700723917293458,0.593649179542339,0.656915037579419,0.647827387928188,0.623444808049996,0.609163120080661,0.608338209647203,0,0.621641594747107,0.689039674573275,0.61774542687338,0.632478770348637,0.625005149995927,0.670684565248643,0.943176001593212,0.529884796088344,0.530615114519618,0,0.529259295821652,0.528951658769505,0.540814007151458,0.537810924127176,0.538201222658709,0.53947011897629,0.541478707707343,0.669068831589722,0.667196591690645,0,0.662896490402187,0.613120644928778,0.644709260576926,0.581857562116974,0.582308365442696,0.58199646748955,0.582136225042326,0.587960024528121,0.587994111736115,0,0.784788085288149,0.783758651606727,0.901052734314482,0.633175001571917,0.897320185039126,0.898376888486944,0.917891815063576,0.792656265073391,0.800435818117848,0,0.791722275574352,0.633117053318327,0.861963228547229,0.968068185230916,0.597840201765215,0.59879720012965,0.600088253132427,0.599988548049045,0.601770456846937,0,0.608869970091912,0.608759186665931,0.610477181948834,0.610564104329219,0.610922872193357,0.615235756184813,0.616746671679152,0.61965516270125,0.741185433182475,0,0.739137644162228,0.830870581775395,0.632294699425469,0.73651804222788,0.747038206795064,0.715321764116938,1.21981073806947,0.6541309648665,0.70349179858258,0,0.703365675913002,0.662804454940603,0.661900291748559,0.656112283831158,0.691786251357401,0.692916242302406,0.706206844699312,0.694749281912289,0.718105836829858,0,0.745113131723597,0.745434403658941,0.726637012810586,0.807214911607678,0.809099934209753,0.760728481705702,0.794900055539604,0.794554922558663,0.795549416851892,0,0.889701694052441,0.871857040667521,0.871055991279659,0.912352643764532,0.914585355888146,0.970633247632473,0.926098310388159,0.930273993367439,0.945945587242734,0,0.984080651186152,0.963398237735722,0.96462537722351,1.00022946597336,1.0104300629656,1.01838942603223,1.02475521212513,1.03969393102855,1.04719311678726,0,1.04626424036942,1.07220460565294,1.08367495114296,1.09268249585541,1.1245710789339,1.16181987546948,1.16055012697169,1.15801062997613,1.16344753965119,0,1.19137348480037,1.20141216755464,1.20392609914421,1.20411357878818,1.22154918567717,1.26673177987337,1.35237588995859,1.29232275127495,1.286255228252,0,1.44605605932842,1.36645390686016,1.35731001331573,1.45286497912524,1.45126288034952,1.46251165898758,1.46269913863154,1.31284325048741,1.2885646365936,0,1.2885561147916,1.34148502700447,1.37942408950192,1.28545417886414,1.26590516507951,1.26591368688151,1.26470359099772,1.30100646751145,1.30335848486305,0,1.26370654016389,1.2509067935621,1.2508727063541,1.25360820479563,1.25376159723161,1.35089309641084,1.41352834110003,1.33802517539306,1.21569470770418,0,1.20995101315717,1.26309297042,1.22954263595179,1.18931973051873,1.19635021716752,1.22815358222603,1.1744491860313,1.19728761538735,1.20345740003429,0,1.20135251494065,1.1622459655694,1.16008994966377,1.15016205033549,1.12829510640726,1.12642883176958,1.09529016726696,1.14458027002645,1.08652123301047,0,1.0764995938602,1.06920493134946,1.06871918863554,1.05921737940718,1.05382307874211,1.04591484648748,1.04771294670917,1.03290205483573
0.524945559649997,0.524615765912654,0.523975778582564,0,0.524132579739337,0.583421312783704,0.586404795663389,0.658564858446335,0.686732822772273,0.650282519083964,0.736887036254417,0.736426858946496,0.68101384145106,0,0.491691783891336,0.491062874903845,0.678085750284365,0.633242323807705,0.627495220539897,0.62510059417831,0.823984113580384,0.529609541883792,0.529034320248891,0,0.529339400760438,0.52880593595533,0.631897583452337,0.536403122437019,0.537979655806747,0.565591998642381,0.663578234562069,0.667909866517922,0.911798726634627,0,0.639973695206343,0.617189805383076,0.583930916543216,0.583607940247472,0.582860578212201,0.583159693462349,0.58350397426309,0.58535661401757,0.584919445575045,0,0.584391093851137,0.583703384429855,0.932975404600973,0.783599293909354,0.907000952109456,0.579695580949947,0.564126248698634,0.564306058720803,0.564396389821988,0,0.792087008699889,0.595186512622873,0.608296452817411,0.596418765191861,0.596937742933571,0.598003820363587,0.599361343421953,0.601008607748268,0.770849825939355,0,0.609149485197463,0.609354008445428,0.61033060695446,0.61171880850002,0.610491669012232,0.614922153871267,0.61681655045554,0.617836610154764,0.922348717508807,0,0.819570672325346,0.632365430382057,0.63217113329649,0.631889913830538,0.721818785960617,0.645520536127186,0.646504804258016,0.656396059837709,0.656169379904548,0,0.65893981773427,0.660759222460956,0.689476843015799,0.647853805514383,0.653248106179452,0.652889338315314,0.707417792763303,0.72128020807431,0.719166801178675,0,0.746743352445915,0.76531747208191,0.814877715964756,0.807160372074888,0.808371320138879,0.771562248586432,0.772528620933065,0.788121814229974,0.837693988635618,0,0.877685953234515,0.860378173375502,0.868814757354046,0.877012730876631,0.901299866572439,0.917687291815611,0.932114702599121,0.930631909051377,0.94318452339521,0,0.957100626058809,0.963278932507742,1.04814755861109,0.986765018815689,1.0347853730774,1.01750315862438,1.03921671011664,1.04371622157186,1.0649355085482,0,1.08591618506858,1.08664053823845,1.10346257538355,1.11035671320036,1.13836787636952,1.15408207925481,1.15316172463897,1.15142327703127,1.17301752329554,0,1.1807808849162,1.20407949158018,1.20593724441586,1.20469306132408,1.23674355864054,1.25594317854323,1.28667279654993,1.27425653103807,1.29269771056289,0,1.29334536751477,1.30802843235824,1.30754268964432,1.32094748418801,1.32182522979386,1.30759382045632,1.44822911883804,1.3372582132132,1.28618705383601,0,1.28490878353623,1.34172363746042,1.31321820977534,1.30231030321723,1.27781864427345,1.26668064906138,1.26544498777159,1.29185405216503,1.28829193892965,0,1.28735454070981,1.23891661815017,1.25492056230341,1.25081305374012,1.24931321658837,1.28951907841743,1.27802316752142,1.29289371200885,1.25452003760948,0,1.21895003606761,1.22150657666717,1.21052197389107,1.19842101505316,1.20151442917862,1.25651413927713,1.1929414963681,1.16641312674668,1.1611210877056,0,1.20610768045583,1.1831329022678,1.1593570746919,1.22447216376266,1.1998952867989,1.10415284134543,1.10336883556156,1.10898470307859,1.07682342233614,0,1.08629966615851,1.19444985532184,1.05170115004448,1.05303055115625,1.04570180143752,1.06675917417588,1.04335830588792,1.0220197136836
0.691753868509806,0.659019922673056,0.582106398735331,0,0.698401726248859,0.690000081658509,0.754453878894185,0.755807993231751,0.756783739560582,0.682686671183371,0.719187253503471,0.686243671337557,0.63680614140349,0,0.49219286584885,0.491152353824829,0.492457893891004,0.675716689328774,0.596621584079426,0.67273064990849,0.782922662830671,0.664336674939938,0.661470792927833,0,0.528960180571504,0.528846840604923,0.666290724138201,0.54769536226527,0.615639689599543,0.661009763439713,0.882918339661612,0.882108768471752,0.93959684475383,0,0.630399450660996,0.628331209315953,0.58506431620902,0.584391093851137,0.584114987466384,0.583482669758093,0.583873820469826,0.585376214162167,0.585026820280227,0,0.584861497321456,0.585151238589405,0.783500441006171,0.927640756549893,0.616313764137627,0.904205801053938,0.564592391267954,0.564756862046525,0.564136474861032,0,0.689268911047035,0.668550706028211,0.676712887982402,0.677138978082329,0.602206773109262,0.878393262800393,0.670738252601234,0.606337290537949,0.757235395066505,0,0.60783797986989,0.608448993073184,0.608633916176552,0.668053032791497,0.61333880305994,0.612898225896616,0.759448507045522,0.757056437224535,0.621598985737115,0,0.740290643972629,0.738498509012338,0.736686773907451,0.640506307831251,0.639953242881547,0.645927026082516,0.645885269252723,0.658434474875757,0.656771871305844,0,0.650774227059279,0.689120631692261,0.6465976918998,0.641746230022037,0.641251965506123,0.65685453278523,0.656337259403919,0.690680121457992,0.770837043236357,0,0.770787616784765,0.853168728884747,0.854063518094592,0.81189593744547,0.811803901983886,0.816623833194254,0.817899546953434,0.839630994229883,0.838524864330474,0,0.860906525099411,0.872291652569446,0.909267751441065,0.910136975244914,0.92140279748697,0.92291115644071,0.983254036392295,0.948817434516238,0.960015082342306,0,0.959452643410403,1.0179974231403,1.02208788809959,1.06077686917291,1.05974573113109,1.02762705939864,1.04435535672175,1.05560413535981,1.07088372634317,0,1.10717808105491,1.10183491120183,1.10058220630804,1.11744685246313,1.13351044923036,1.14711976702201,1.14986378726554,1.22167701270714,1.18016731517231,0,1.17769599259273,1.23313031459317,1.22286154318494,1.22797462438406,1.22903984963387,1.26327192826196,1.27087337564465,1.33048338062436,1.43586398413818,0,1.4009842485582,1.30849713146816,1.30793469253626,1.32165479375389,1.32423689975944,1.33155712767618,1.489048550411,1.38261976525137,1.28589731256806,0,1.28589731256806,1.29356693436674,1.31293699030939,1.26930536407692,1.27036206752474,1.28661314393594,1.33347453312585,1.30959644392597,1.25684648955507,0,1.26328897186596,1.22911654585186,1.24821390413056,1.25826110868683,1.24405526475528,1.28864133281159,1.26628012436745,1.28967247085341,1.22955967955578,0,1.2416521165917,1.22390972483076,1.22010047933742,1.24900643171643,1.24420013538926,1.25434107976751,1.19712570114938,1.18292837901983,1.18992477846062,0,1.16075465021966,1.16146195978554,1.16508372563491,1.16521155266489,1.1263095265416,1.12743440440541,1.16268909927332,1.09194109908154,1.09436129084912,0,1.0857713144346,1.07448844858855,1.05454743191199,1.04595745549747,1.06767952879172,1.089239687848,1.0753321069864,1.00960344817175
0.714570993360868,0.814945890380744,0.688087789290039,0,0.68912659695366,0.700000416303783,0.710070629725445,0.688478940001772,0.755970759649923,0.683749339892588,0.681044519938255,0.491367103235192,0.490820855727087,0,0.491013448452253,0.493414892255439,0.493142194591486,0.492416989241411,0.711695737366564,0.663045621937161,0.550430860706798,0.766160278299564,0.565530641667992,0,0.532856348445231,0.532133699635756,0.612436344228296,0.549951083254281,0.720162147652103,0.70789501367522,0.882977992275602,0.623975716314504,0.59428064507043,0,0.60581149535464,0.586241177065017,0.587570578176788,0.588045242548106,0.584991880892033,0.585040455163425,0.585056646587222,0.584668052416089,0.584957793684039,0,0.584439668122528,1.24961147965832,0.609797994329552,0.70633552390949,0.888244465910693,0.564801175416918,0.564802879777317,0.5643273632258,0.565045751134276,0,0.680101156457018,0.611982132181775,0.607750205309305,0.602983961451528,0.602593662919995,0.602724898670772,0.950291706261984,0.949942312380044,0.897345750445122,0,0.712923729034552,0.796854104737866,0.607337750092576,0.607532899358343,0.607592551972332,0.612477248877889,0.61148871984606,0.621501837194331,0.622098363334229,0,0.653571082475196,0.656428442685303,0.643755670933291,0.644065012345837,0.641456488754087,0.648495497204872,0.656080753163763,0.656748010260248,0.656835784820833,0,0.635457992327323,0.698588353712627,0.647018668918527,0.653738961974567,0.707452732151497,0.660111565509068,0.65951759590977,0.69653971251218,0.788227484574755,0,0.785789397022976,0.852725595180823,0.852827856804806,0.859321469927685,0.859849821651594,0.860003214087567,0.881128761241921,0.881043543221936,0.859347035333681,0,0.916272672683855,0.920618791703105,0.991733229380831,0.930947215725322,0.943372003039178,0.936903955322294,0.948246473782337,0.945059319834887,1.07375557361667,0,0.986057709249811,1.03385649665956,1.03486206929539,1.06652908552192,1.06483324692421,1.0533458578302,1.08370903835096,1.08847272566813,1.09984933133617,0,1.10408466692944,1.14934395734363,1.1628510135113,1.20921813818529,1.16076317202166,1.1361607296519,1.1378906554576,1.21864325119567,1.20011685365087,0,1.21791037622379,1.2172882846779,1.21689628178597,1.22990055163572,1.22950854874379,1.23108508211352,1.25520178176936,1.40132512063814,1.33962727416879,0,1.42891019370738,1.59091817150141,1.33180425993414,1.33167643290416,1.38251750362738,1.407912473583,1.4160337508876,1.34704976370951,1.34655549919359,0,1.3395420561488,1.29480259565652,1.25982059845256,1.26949284372089,1.29276588497887,1.30911922301405,1.30793469253626,1.35153223156073,1.33748830186716,0,1.26211296319016,1.25082157554211,1.32975902745449,1.24907460613242,1.24484779234114,1.24444726764721,1.24789007565462,1.25969277142258,1.27281634650032,0,1.25687205496107,1.23553346275675,1.2532076801017,1.28825785172165,1.21001066577116,1.20949083584925,1.20447149447211,1.21944430058353,1.19502081605574,0,1.19579630003761,1.17605128480702,1.16494737680294,1.16518598725889,1.13410697537026,1.14798046902386,1.13122660629476,1.10849043856268,1.10745930052086,0,1.09782114246052,1.07661889908818,1.05732553936351,1.12713614133546,1.02895646051041,1.0278230608446,1.07447992678655,1.01127372136346
0.57202766351167,0.573287185847053,0.691322665328681,0,0.709912124208272,0.688726924439929,1.12446881730992,1.12384672576403,0.68234409474303,0.681643602618751,0.682182180505058,0.493441309841634,0.4907407507883,0,0.49022347740699,0.492473233134601,0.492510729063395,0.524549295857065,0.68066529974932,0.76242005940241,0.657699895543484,0.756547685645223,0.650562034189516,0,0.646143479853278,0.638979200913115,0.643803393024482,0.641453932213488,0.54352649672759,0.626169228148926,0.699044270119548,0.618810652123196,0.613144505974374,0,0.607521821015744,0.58628634261561,0.586867529511909,0.586723511058134,0.584317806353949,0.584113283105985,0.584071526276192,0.583801385152838,0.741004770980106,0,0.794329946985902,0.57562386395505,0.606828146333064,0.606295533708156,0.66009707844567,0.562578689455701,0.563510974594341,0.565113925550264,0.687428201815353,0,0.611453780457866,0.608383375197796,0.607860136555086,0.60459032112825,0.601783239549935,0.601341810206411,0.901419171800419,0.728124067259329,0.727180703778092,0,0.601954527770105,0.602887665088944,0.602996744154525,0.607007104175033,0.606721623808083,0.606697762762487,0.654316740150068,0.786744691027011,0.653195271007061,0,0.654142895389298,0.660057025976277,0.643269928219374,0.642938430121632,0.642278842646945,0.650590156136111,0.731018071218029,0.668454409665628,0.638340065763225,0,0.637459763616777,0.692346133748704,0.655589897368648,0.653766231740963,0.705759450094389,0.659177576010029,0.659682918868542,0.723418328195741,0.768397251324178,0,0.785735709670386,0.88582427414311,0.862406362251152,0.834329581206598,0.833201294621993,0.890724310292265,0.877455864580555,1.05950712067513,0.892062233206034,0,0.916562413951805,0.940823984241618,0.992065579658774,0.994894817922286,0.997204226263887,0.977885301133221,1.02191745205962,1.06792666104968,1.06111774125286,0,1.066102995422,1.09799157850049,1.07398566227063,1.04674146128134,1.04719311678726,1.06047008430097,1.10937670597053,1.11168611431213,1.12681231285952,0,1.12141801219445,1.11717415479918,1.15714992797428,1.15692836112232,1.15926333486992,1.16813453075038,1.15133805901128,1.19690413429742,1.21922273373157,0,1.29162396351107,1.25638631224715,1.25821849967684,1.2294829833378,1.22877567377192,1.25688909856507,1.26817196441112,1.3494103028631,1.35089309641084,0,1.35059483334089,1.32706613802295,1.39545359906115,1.31303925193338,1.32954598240453,1.28582913815207,1.27301234794628,1.28360494783046,1.31298812112138,0,1.31910677495633,1.33886031198892,1.26502741947366,1.26625455896145,1.28993664671536,1.31026966628385,1.30925557184603,1.43549754665224,1.42522025344201,0,1.25769014795293,1.25740040668498,1.36321562210071,1.28597400878605,1.26818048621312,1.24848660179452,1.24833320935854,1.24950069623234,1.31481178674907,0,1.33576689786345,1.33402845025575,1.29569738486637,1.28461904226828,1.23438301948695,1.22684122471825,1.22555443261647,1.22053509123934,1.21301886187664,0,1.21269503340069,1.21661506232002,1.17195229804573,1.17058880972596,1.13363827626034,1.13438819483621,1.15054553142542,1.11275133956194,1.10439145180139,0,1.09534129807895,1.06709152445382,1.10105942721996,1.0550928272399,1.02402233715326,1.02469555951114,1.05510987084389,1.0046352376066
0.600240793388201,0.573110784545684,0.611961679856978,0,0.68988077643053,0.820624819232564,0.867706923094237,0.865772474040571,0.746140008864419,0.741930238677146,0.493034819886304,0.493569136871612,0.492058221377273,0,0.497876055601669,0.496077103199779,0.495411550463694,0.785638561127602,0.68391040195036,0.683324954153061,0.565998488597711,0.658978165843263,0.647023781999727,0,0.646663309775189,0.565430936584609,0.628775195200076,0.629634192841528,0.542554159119558,0.626766606469023,0.69827645575948,0.695404608485976,0.594464715993598,0,0.607541421160341,0.614568499088328,0.586486604962575,0.586324690724603,0.598090742743972,0.758864763608623,0.659463908557179,0.61166000806623,0.659269611471613,0,0.6576044513611,0.657864366322055,0.684876774296993,0.659348864230199,0.660111565509068,0.738408177911154,0.686618630625493,0.688795951036117,0.618520910855246,0,0.611277379156496,0.740478975796797,0.603888124643572,0.735520139213852,0.598599494323284,0.597724305258035,0.66606574856544,0.599476387748933,0.727799386603185,0,0.600840728248898,0.603583896312224,0.642860029543245,0.708179641861971,0.72116516374733,0.674220260897832,0.696869506249523,0.697910018273544,0.67064536495945,0,0.677864183432404,0.709249980192987,0.688433774451179,0.642577957897094,0.673178044513412,0.694150199231793,0.69387579720744,0.663000456386569,0.668531958063814,0,0.651588911330339,0.651565902464943,0.654509332875234,0.655606940972645,0.655737324543223,0.706305697602495,0.702985603543868,0.71189685189373,0.757677676590228,0,0.778684770696802,0.78547494252923,0.821765036339967,0.820020623470868,0.882083203065756,0.92076366233708,0.883199559127564,0.899416548330765,0.899050110844828,0,1.03134256506999,0.945357582904835,0.985844664199848,0.970241244740541,0.951825630621719,0.988886947513323,0.995278299012219,1.0678073558217,1.06980145748936,0,1.06671656516589,1.11363760696979,1.11350977993981,1.05741927918549,1.05475195515995,1.04336682768992,1.23842235363425,1.11246159829399,1.21067536632704,0,1.11627084378734,1.11687589172923,1.112436032888,1.1593741182959,1.19771370548728,1.17822434431664,1.18509291672746,1.27481896996997,1.26208739778417,0,1.22752296887813,1.22707983517421,1.22151509846917,1.2306249048056,1.23042038155763,1.29696713336415,1.33013398674242,1.29323458408879,1.28674097096591,0,1.29908906206178,1.31330342779533,1.3221916672798,1.37706355034832,1.2902945623993,1.26895597019498,1.27262034505435,1.23903592337815,1.23798774173233,0,1.27026832770276,1.33590324669543,1.28308511790854,1.25224471647587,1.26255609689409,1.40238182408595,1.40174268893607,1.40142738226212,1.24840138377453,0,1.24644136931487,1.38658240318068,1.36348831976467,1.33762465069913,1.33852796171098,1.25003756975825,1.24845251458652,1.43104916600901,1.43148377791093,0,1.37281969295306,1.37161811887126,1.38618187848675,1.37451553155076,1.25692318577306,1.23956427510206,1.24030567187593,1.22514538612055,1.22854558511796,0,1.21247346654873,1.21310407989662,1.17997983552834,1.15960420694986,1.13998701874924,1.12738327359342,1.12726396836544,1.10425510296941,1.10584867994314,0,1.13599029361193,1.07264773935687,1.06810561889165,1.03301283826171,1.02397120634127,1.11614301675736,1.0336349298076,1.01354052069507
0,0,0,0,0,0,0,0,0,0,0,0,0,0,0,0,0,0,0,0,0,0,0,0,0,0,0,0,0,0,0,0,0,0,0,0,0,0,0,0,0,0,0,0,0,0,0,0,0,0,0,0,0,0,0,0,0,0,0,0,0,0,0,0,0,0,0,0,0,0,0,0,0,0,0,0,0,0,0,0,0,0,0,0,0,0,0,0,0,0,0,0,0,0,0,0,0,0,0,0,0,0,0,0,0,0,0,0,0,0,0,0,0,0,0,0,0,0,0,0,0,0,0,0,0,0,0,0,0,0,0,0,0,0,0,0,0,0,0,0,0,0,0,0,0,0,0,0,0,0,0,0,0,0,0,0,0,0,0,0,0,0,0,0,0,0,0,0,0,0,0,0,0,0,0,0,0,0,0,0,0,0,0,0,0,0,0,0,0,0,0,0,0,0,0,0,0,0,0,0,0,0
0.528698561250149,0.574866275757381,0.641331218264709,0,0.63993790363795,0.74213731846571,0.691358456897075,0.850457091488815,0.736351867088909,0.815925045430375,0.492255927183639,0.491684114269538,0.492876314369132,0,0.491650879241743,0.491698601332935,0.661501471415028,0.65285610328752,0.652784520150732,0.653077670139482,0.56861468181126,0.572344674546016,0.573062210274292,0,0.638131281614261,0.627796040150445,0.628787125722874,0.581174965776892,0.578816130983699,0.699025522155151,0.700844926881837,0.596870420697783,0.61652595700739,0,0.59827651802754,0.603911985689167,0.617427563658835,0.676067787571114,0.748573835515199,0.666674205228135,0.661221956309476,0.658731885765506,0.851019530420718,0,0.657353058202144,0.754476035579381,0.697073177317288,0.754824577281121,0.660435393985012,0.660287114630237,0.753157712810208,0.606095271361191,0.750950566092589,0,0.751270133667534,0.745691762079297,0.706687474332029,0.602851021340351,0.596875533778982,0.594899327895523,0.596825255147191,0.597518929829871,0.600067800807631,0,0.719857067140556,0.845332079766899,0.724215116682604,0.698850825214181,0.776303779218413,0.733324070838831,0.71913527051128,0.657080360538191,0.719154018475677,0,0.715664340557279,0.710082560248243,0.709506486433142,0.698921556170769,0.811935989914863,0.693726665672466,0.646940268340141,0.613702684005278,0.613798128187661,0,0.671837565059044,0.721153233224532,0.701576949673511,0.654995075589151,0.706074756768335,0.761636053618545,0.782378971863165,0.818994598510245,0.818510560156729,0,0.805381871997795,0.805797735935323,0.779818170362607,0.867723966698235,0.824850780843634,0.878870483712311,0.938821360771963,0.901708913068369,0.944539489912977,0,0.944334966665012,0.96926123751071,1.01557723137272,1.01540679533275,1.0237752048953,0.976300245961495,1.07143764347307,1.06869362322955,1.0741987073206,0,1.07322722189277,1.07866413156783,1.04654545983537,1.04309413002597,1.04415935527578,1.23948757888407,1.0869388013084,1.11029706058637,1.15492573765266,0,1.11349273633582,1.112436032888,1.12918137381511,1.16563764276482,1.17983496489437,1.30732964459436,1.30103203291745,1.26472915640371,1.26541942236559,0,1.27187042647848,1.22291267399693,1.22197527577709,1.23517554707281,1.27135911835857,1.31021853547186,1.28536896084415,1.28429521379234,1.2839202545044,0,1.27682159343963,1.28300842169056,1.27635289432971,1.27485305717797,1.27516836385191,1.23955575330006,1.23981992916201,1.24110672126379,1.24087663260983,0,1.27825325617538,1.23538007032078,1.23309622738517,1.24497561937112,1.25976094583857,1.41594853286761,1.40256930372992,1.40187903776804,1.24638171670088,0,1.24537614406505,1.378963912194,1.37146472643529,1.34193668251039,1.38420482042309,1.28580357274608,1.2845082588423,1.40628480940128,1.40534741118144,0,1.4212490937107,1.35649192032388,1.35583574156999,1.3569435758298,1.27383896274014,1.29167509432306,1.25172488655396,1.22996020424971,1.2346557171509,0,1.23636007755061,1.21376025865051,1.20707064408166,1.1691912341982,1.13835083276553,1.13920301296538,1.11884442799089,1.11450683077364,1.12125609795648,0,1.08565200920662,1.07425835993459,1.10385457827548,1.06346975860445,1.08392208340092,1.02064770356184,1.02217310611958,0.990301566645078
0.60946053097041,0.482024651704205,0.479725469525001,0,0.479275518379479,0.475404915911747,0.691363569978274,0.689477695195999,0.683500503274231,0.683513285977229,0.550205885134037,0.493319448073055,0.492434885025608,0,0.491796602055918,0.49114724074363,0.504811950248272,0.79787842533809,0.653300089171643,0.652037158115461,0.515557942568417,0.570745984491092,0.572115438072255,0,0.669414816750862,0.626654118682642,0.61107967335013,0.788377468289929,0.812229992083813,0.704157351318665,0.612120185374151,0.6182073085417,0.583063397099766,0,0.582555497700654,0.673639074001533,0.615243425806612,0.682186441406058,0.747849482345324,0.671011802445386,0.725874311531717,0.773939831344021,0.702686488293719,0,0.673220653523405,0.692900050878609,0.703717626335541,0.703312840740611,0.750175934290923,0.631029211828687,0.754983934978493,0.602958396045532,0.602479470773215,0,0.749102187239108,0.591865566384047,0.748833750476155,0.632479622528837,0.596567044546635,0.594265305826832,0.626969425356588,0.744587336540287,0.742562556385437,0,0.974246491679849,0.759497933497114,0.758933790204811,0.725265002688822,0.753695438516315,0.657957253963839,0.668170633659077,0.668623141345199,0.668047919710298,0,0.621993545169647,0.71067738202774,0.718227698598437,0.809077777524557,0.662270990135495,0.617090952479893,0.652833094422124,0.61316581047937,0.625123603043706,0,0.653329063298438,0.642350425783733,0.645021158530072,0.644620633836141,0.724111150698222,0.733028364309482,0.742019717598131,0.799257252901452,0.745532404381924,0,0.76195306465289,0.760993509747856,0.777963826247727,0.779767891730815,0.799171182701267,0.839169112561563,0.914960315176082,0.921104534417021,0.945093407042881,0,0.958804986458514,0.985495270317908,0.97737399301331,0.976939381111385,0.977561472657277,0.97777451770724,1.04392926662182,1.06525081522214,1.05107053669659,0,1.07155694870105,1.07148025248307,1.0295529866503,1.05701023268956,1.06177392000674,1.06861692701156,1.11772807192908,1.21749280792587,1.21406704352246,0,1.11695258794722,1.1159299717074,1.18574909548134,1.18430038914159,1.14818499227183,1.14769924955791,1.22388415942476,1.20075598880075,1.26106478154435,0,1.22580156487443,1.22463407800063,1.2242591187127,1.26194252715019,1.28676653637191,1.31771772123057,1.28713297385785,1.28541156985414,1.29078030511322,0,1.22752296887813,1.26756691646922,1.27767377363948,1.2306163830036,1.23313031459317,1.23259344106726,1.23217587276933,1.24145611514573,1.24137941892774,0,1.22666226687628,1.22545217099249,1.23346266487111,1.23662425341256,1.2433735205954,1.2445324856672,1.4131448600101,1.42747853097162,1.25011426597624,0,1.25102609879008,1.36018186058924,1.33496584847559,1.33392618863177,1.38460534511702,1.2868347107879,1.29187109576903,1.24488187954914,1.40103537937019,0,1.39602455979505,1.39596490718106,1.35525625903409,1.35251223879056,1.39392819650341,1.34172363746042,1.22784679735408,1.23347970847511,1.23425519245697,0,1.20609915865383,1.20707064408166,1.20929483440328,1.2016422562086,1.15268450372705,1.12990572698498,1.12965007292503,1.0990738473543,1.1095556638125,0,1.08831933323216,1.0799764890756,1.06095582701488,1.07739438307005,1.02475521212513,1.01504887964881,1.09547764691093,1.00707247297818
0.482074930335996,0.480685024430036,0.479944479836364,0,0.479221831026888,0.475061487291206,0.474718910850866,0.480517997110865,0.481347168445321,0.482271783962162,0.488156940422346,0.651519032553951,0.491872446093705,0,0.491649174881344,0.635443505263925,0.627076800061769,0.653935815600734,0.638098046586467,0.512675016952315,0.792734665651777,0.636559861325733,0.697551250409406,0,0.555129782328787,0.809128056156348,0.653392976813427,0.536579523738389,0.528009999648668,0.528124191795448,0.782772679115497,0.782888575622677,0.694810638886679,0,0.635251764718958,0.75731720436569,0.757517466712656,0.603452660561447,0.545467763222855,0.547179793244359,0.612860729967823,0.611919070846985,0.693691726284272,0,0.691660980868022,0.699340828829097,0.533230455552967,0.532757495542048,0.736738756899642,0.638009419845682,0.725216428417431,0.636420955953157,0.60743148991456,0,0.753121921241814,0.745113983903797,0.676084831175111,0.740437218967004,0.742827584427591,0.691943052514174,0.674993188339099,0.969414629946683,0.96769322594298,0,0.751952730007616,0.752729918349882,0.758776136867839,0.719684074559986,0.852964205636782,0.698598579875025,0.689800671491743,0.682709680048767,0.667414749821807,0,0.621959457961653,0.623996168639301,0.711521040425594,0.621320322811763,0.603362329460262,0.605191108169147,0.605860069626031,0.653269410684449,0.641868943970816,0,0.620979450731822,0.701646828449899,0.673719178940319,0.705799502563782,0.758989181917802,0.785509881917424,0.791898676875722,0.75129399471313,0.750073672666941,0,0.748209954569862,0.756781183019983,0.756763287235786,0.757625693598037,0.791079731703663,0.845229818142917,0.87985901274414,0.909600101719007,0.955847921165025,0,1.03616590500116,1.00683386252222,0.985001005801993,0.984958396792,0.977126860755352,0.976760423269415,1.01321669221912,1.04480701222767,1.05660970799563,0,1.05695910187757,1.02565852313698,1.02686009721877,1.04943435071287,1.05767493324545,1.11272577415595,1.10320692132359,1.10470675847533,1.13554715990801,0,1.16044786534771,1.16736756857052,1.16718861072855,1.1854423106094,1.23561868077674,1.19322271583405,1.21262685898471,1.21549870625821,1.21293364385665,0,1.2694246693049,1.22263997633298,1.22246101849101,1.24561475452101,1.28925490255548,1.32139061789193,1.25778388777491,1.24139646253174,1.29128309143113,0,1.22934663450582,1.22874158656392,1.23900183617015,1.24746398555469,1.23284057332522,1.23344562126711,1.26297366519202,1.23589137844069,1.23687990747252,0,1.25804806363687,1.24477961792516,1.23774913127637,1.23779174028636,1.23803887254432,1.24495005396513,1.24428535340924,1.24715720068275,1.24679928499881,0,1.39879414544457,1.39802718326471,1.3563385278879,1.3563726150959,1.38970138271214,1.27229651657841,1.27129094394258,1.292024488205,1.29283405939486,0,1.25431551436151,1.39493376913924,1.39612682141903,1.39530020662518,1.27095007186264,1.2503187892242,1.23924044662611,1.23423814885298,1.26936501669091,0,1.20497428079003,1.20390053373821,1.20939709602726,1.20124173151467,1.20148034197063,1.13853831240949,1.12526986669778,1.09878410608635,1.09110596248568,0,1.07603941655228,1.07352548496271,1.05907250877321,1.14520236157234,1.01207477075132,1.0070042985622,0.991417922706885,1.02501086618509
0.480500953506868,0.479220978846689,0.47961553827922,0,0.476770108591912,0.475887249904864,0.476470993341763,0.476097738414228,0.47759075812437,0.613916581235441,0.689409520780011,0.648224503901319,0.64121106085653,0,1.060308170063,0.62684159832661,0.626507543688267,0.623518947727383,0.511821984572262,0.512522476696541,0.791292776753626,0.790740563984122,0.601858231407522,0,0.677375884177888,0.597108178973542,0.671991809675217,0.528039825955663,0.527220028603404,0.527920520727683,0.616053849176672,0.544706766304386,0.612568432159273,0,0.774387225948944,0.849985835838296,0.602946465522734,0.602633715389388,0.993786983662477,0.993412024374541,0.538759400689612,0.539210204015335,0.743062786162751,0,0.742689531235215,0.533004627800006,0.534051957265625,0.533067689134795,0.689565469756584,0.621897248807063,0.603120310283504,0.590905159298812,0.732732657780134,0,0.762984202694712,0.824043766194374,0.823055237162544,0.618080333691922,0.876399161132737,0.875172021644949,0.624977028049332,0.878734134880334,0.575242939405716,0,0.752727361809283,0.752824510352066,0.752329393655951,0.686609256643294,0.716404032970752,0.717635433359539,0.753778099995701,0.753702255957914,0.623469521275792,0,0.622188694435413,0.619256342367719,0.730303944210553,0.7682719808348,0.603829324209782,0.606585274976106,0.605906939537023,0.616519991745991,0.620707605248069,0,0.699713231576433,0.732524725811369,0.743829748342618,0.750975279318385,0.75181382463504,0.792270227442858,0.787149476621941,0.774871264302461,0.811924059392065,0,0.811949624798061,0.777382639351427,0.821198336507065,0.818859101858468,0.819071294728232,0.847556270088515,0.859014685055738,0.903115010398126,0.919928525741224,0,1.08883064135207,1.03010690378021,1.00237696007699,0.983475603244256,0.973811879777924,0.976453638397468,0.988861382107327,1.02720096929871,1.08950386370996,0,1.07275000098085,1.07142912167108,1.071855211771,1.04275325794603,1.07815282344792,1.13246226758454,1.13166121819668,1.11604927693537,1.12888311074516,0,1.1327179216445,1.13302470651644,1.17803686467268,1.17911913352649,1.23673503683854,1.31009923024388,1.26973997597885,1.21363243162053,1.21289103484666,0,1.21344495197656,1.21828533551173,1.2213702278352,1.24601527921494,1.27708576930158,1.28066492614096,1.24313491013944,1.24135385352175,1.24201855407763,0,1.23494545841885,1.23630042493662,1.23031811993365,1.2300283786657,1.25081305374012,1.26391106341185,1.2462368460669,1.24603232281894,1.30140699220538,0,1.34193668251039,1.34214120575835,1.31762398140858,1.2392915774381,1.23854165886223,1.2393000992401,1.24287073427749,1.24217194651361,1.24363769645735,0,1.35312580853446,1.35276789285052,1.34683671865954,1.33102025415027,1.33097764514028,1.27043024194073,1.38637787993272,1.29171770333306,1.28530930823016,0,1.24794972826861,1.26316966663798,1.36405075869657,1.26776291791519,1.27131650934858,1.24667145796883,1.21658949691402,1.23157082482744,1.26103921613835,0,1.21432269758241,1.20496575898803,1.20289496110239,1.20129286232666,1.14816794866783,1.14525349238433,1.18712110560311,1.18663536288919,1.11979034801273,0,1.12072774623257,1.06720230787981,1.06466281088424,1.0677903122177,1.02124422970174,0.992125232272764,0.998260929711705,1.02242876017953
0.47875142755657,0.478765062439767,0.477266929648426,0,0.475929858914857,0.473977514076994,0.473507962786875,0.474443656646313,0.477275451450424,0.614756830912496,0.614721891524302,0.813158016321452,0.924564386028424,0,0.924053077908513,0.499487528359591,0.50181142376459,0.787054032439558,0.615154799065827,0.659421299547187,0.655876229915799,0.514750927919156,0.515304845049061,0,0.677591485768451,0.521360437549215,0.675416721898426,0.525958801907622,0.526357622241153,0.747622802412164,0.747054398218862,0.746826013925301,0.533910495352449,0,0.533816755530466,0.535165756786833,0.534920328889275,0.533207446687571,0.994093768534424,0.993369415364549,0.744258394983144,0.531767262149819,0.532271752828132,0,0.532327144541123,0.532143925798154,0.5318806021164,0.532531667789087,1.05891059453524,0.833902638926472,0.730060220673395,0.732932920127099,0.680274149037588,0,0.7242347168272,0.724401744146371,0.727383522665657,0.729903419516622,0.808680661551425,0.63900647067951,0.933324798482912,0.882083203065756,0.639948981980548,0,0.876424726538733,0.715943855662831,0.70436272674683,0.835065012719071,0.746876292557092,0.745583535193916,0.55974945119219,0.564881280355704,0.737647180992685,0,0.619042445137556,0.78350896280817,0.610827428010974,0.725211315336232,0.691550197442041,0.65308619194148,0.656369642251514,0.662247129089899,0.660719169991563,0,0.651488354066756,0.703093830429249,0.717265587152803,0.75592559409933,0.770648711412189,0.80703339722511,0.795406250578316,0.78686910933619,0.792049512771096,0,0.785481759970829,0.774491191933326,0.818765362036485,0.819607316073939,0.824746814859252,0.848732278764312,0.874873758575,0.903379186260081,0.893272329089825,0,0.936648301262339,0.93577055565649,0.93409176066278,0.980910540842699,0.981072455080671,0.978106867985183,0.985691271763874,1.0115890280374,1.01495513982682,0,1.02944220322432,1.02471260311514,1.06520820621215,1.05908103057521,1.26477176541371,1.14579888771224,1.13746456535768,1.12164810084841,1.17118533586586,0,1.15198571596317,1.15034100817746,1.16200735511344,1.18347377434774,1.18583431350133,1.25501430212539,1.25447742859948,1.21417782694844,1.21320634152061,0,1.21274616421269,1.22375633239478,1.22126796621121,1.22096118133927,1.23548233194476,1.24760033438667,1.24459213828119,1.24377404528933,1.25532108699734,0,1.23866948589221,1.23037777254764,1.23220995997733,1.23130664896548,1.24730207131672,1.25129879645403,1.25405986030155,1.24293038689148,1.26576881624753,0,1.35083344379685,1.25795432381488,1.32880458563065,1.24170324740369,1.24100445963981,1.2404761079159,1.239905147182,1.22704574796622,1.22792349357207,0,1.26371506196589,1.35294685069249,1.35486425614216,1.33259678752,1.26939910389891,1.3691212308857,1.3922920105197,1.22520503873454,1.2242335533067,0,1.23326666342514,1.26580290345553,1.26898153560098,1.26439680612577,1.26054495162244,1.25925815952066,1.20127581872267,1.23449380291293,1.23710147432448,0,1.18869763897284,1.18923451249874,1.20084120682074,1.15625513876444,1.14608862898019,1.135589768918,1.13359566725035,1.10010498539613,1.09860514824439,0,1.09524755825697,1.05183749887646,1.054513344704,1.10012202900012,1.01345530267508,0.992355320926724,0.992628018590677,1.02095448843379
0.478885219847947,0.477440774409196,0.478424190359826,0,0.475132218247794,0.474398491095721,0.472992393765964,0.47324293474472,0.476003146412044,0.628814395489269,0.690750852414579,0.691486283927052,0.66542661341555,0,0.589787098876605,0.502577533764257,0.50255963798006,0.502262227090312,0.502586907746456,0.751231785558541,0.665119828543603,0.515418185015641,0.5173935387189,0,0.519287083122973,0.520630119117941,0.628492271373725,0.596201459240898,0.542378609998388,0.750098385892736,0.773968805470816,0.537958351301751,0.533834651314663,0,0.532721703973655,0.534059626887424,0.534461003761554,0.532523145987089,0.531440024953076,0.527900920583087,0.531163918568323,0.530169424275095,0.532116656031759,0,0.531788566654816,0.531840549647007,0.531267884552705,0.730407910194935,0.729540390751485,0.725746484501739,0.553854920749807,0.550140267258648,0.726428228661622,0,0.72585726792772,0.725306759518615,0.813083024463865,0.728419773788678,0.825016103802406,0.823706302835232,0.896825920523212,0.640649474104827,0.552085794654912,0,0.552197430261093,0.548834727192474,0.827178084969433,0.747589567384369,0.746766361311311,0.558968854129124,0.560005957432345,0.559393239868651,0.892258234652,0,0.960074734956295,0.886659410738966,0.821752253636969,0.614844605473081,0.620084661521976,0.620690561644072,0.619820485660022,0.613768301880666,0.654268165878676,0,0.738645936186913,0.703585538404564,0.73014373433298,0.773818821755642,0.812889579558499,0.812794135376115,0.810303212651945,0.804695014756713,0.801777149752417,0,0.827812107038123,0.888815426644594,0.830774285412812,0.845939684249395,0.85540996281036,0.873288703403274,0.884324436991369,0.882057637659761,0.903046835982138,0,0.941727295253462,0.914542746878154,0.936213689360414,1.0040642768727,1.04169655449821,0.968136359646904,0.976197984337512,0.984532306692074,1.0046693248146,0,1.02686861902077,1.03250153014179,1.0423016024401,1.24422570079525,1.3245010756214,1.14273956079477,1.14148685590098,1.13506993899609,1.13472054511415,0,1.17046098269598,1.16580807880479,1.17749146934477,1.20950787945324,1.22372224518679,1.20530663106797,1.22776157933409,1.22125092260722,1.25375307542961,0,1.25747710290296,1.22269962894697,1.22269962894697,1.22044987321936,1.21944430058353,1.23966653672604,1.24601527921494,1.24483074873715,1.24242760057356,0,1.23300248756319,1.23101690769753,1.24818833872457,1.24840138377453,1.2294574179318,1.234084756417,1.23316440180116,1.23669242782855,1.26263279311207,0,1.35119988128279,1.25865311157876,1.25605396196921,1.257298145061,1.25151184150399,1.24151576775972,1.23309622738517,1.23281500791922,1.23084647165756,0,1.2300198568637,1.25644596486114,1.25457969022346,1.25355707398364,1.27028537130675,1.25065966130414,1.2485632980125,1.22222240803505,1.22131909702321,0,1.22298937021492,1.21236268312275,1.26279470735005,1.26323784105397,1.25873832959875,1.25988025106655,1.25048070346217,1.19397263440993,1.23739973739443,0,1.23730599757245,1.24769407420865,1.16120630572558,1.1442905287585,1.13340818760638,1.14466548804644,1.14480183687841,1.11259794712597,1.14346391396464,0,1.07101155337315,1.05308168196824,1.05421508163405,1.06594108118402,1.01716228654444,1.01590105984866,0.994664729268325,1.03690730177503
0.477388791417005,0.477837038202127,0.479082925654312,0,0.476519567613155,0.474159028459562,0.473115959894942,0.473611076591057,0.634540194252081,0.644217552601611,0.691596215172833,0.629459495900558,0.527840415788897,0,0.50331466963713,0.50447619124953,0.504120832106191,0.502468454698676,0.501869372018179,0.505353936855378,0.51061614958947,0.510655349878663,0.510519001046687,0,0.516136572924117,0.517167710965939,0.659163088946631,0.657526050782714,0.518410189697325,0.518962402466829,0.518855879941848,0.518472398851914,0.53216693466355,0,0.532988436376209,0.533423900458333,0.52764952742413,0.526871486901664,0.527398986445373,0.527715145299519,0.527144184565617,0.529368374887233,0.529801282428759,0,0.913545696044326,1.00023798777536,0.731324003909777,0.79445862619608,0.729999715879205,0.729456877091899,0.728153041386124,0.547719223310866,0.72475795546991,0,0.635318234774547,0.72470000721632,0.727903352587567,0.728404434545081,0.813129042194657,0.814455886765828,0.64062987396023,0.553738172062427,0.552776912796993,0,0.552311622407873,0.549824108404503,0.549004311052244,0.918778082471423,0.555630012106101,0.551963932886333,0.559474196987637,0.560017887955143,0.892939978811882,0,0.574909736947573,0.575356279372296,0.809301048736918,0.723270901021167,0.630274180171617,0.619332186405506,0.601433845667995,0.600829649906299,0.654076425333709,0,0.737500605998311,0.698240664191087,0.736027186432765,0.753054599006026,0.81259302084895,0.806871482987138,0.806896196212933,0.826182738496004,0.895070429311515,0,0.855784922098295,0.886369669471016,0.858980597847744,0.904103539429956,0.906123206503607,0.877293950342583,0.859227730105701,0.892522410513954,0.885321487825197,0,0.93380201939483,0.901052734314482,0.920686966119093,0.927504407717917,0.949021957764203,0.95141658412579,0.961216656424098,0.962358577891901,0.977987562757204,0,1.01621636652261,1.02976603170027,1.03345597196563,1.32568560609919,1.36206517883091,1.16638756134069,1.1802099241823,1.15140623342727,1.17162846956978,0,1.16647277936067,1.21698149980595,1.18934529592472,1.18507587312346,1.20963570648322,1.21183433139884,1.22823027844401,1.23828600480228,1.25349742136965,0,1.24351839122937,1.22338989490885,1.22341546031484,1.22155770747916,1.22096970314127,1.22545217099249,1.25642892125715,1.32750074992488,1.24158394217571,0,1.2416521165917,1.22962785397177,1.22840923628598,1.22834958367199,1.22781271014608,1.22996020424971,1.23393988578303,1.23099986409353,1.25452855941147,0,1.32974198385049,1.32864267139268,1.26047677720645,1.26524046452362,1.25394055507358,1.23330075063314,1.23242300502729,1.22837514907799,1.23214178556134,0,1.23112769112351,1.24012671403396,1.23897627076416,1.2717766866565,1.24154133316572,1.23621520691663,1.23714408333447,1.21779107099581,1.21312964530262,0,1.20373009769824,1.21233711771676,1.21802968145177,1.26060460423643,1.2595990316006,1.31640536372279,1.24939843460836,1.1779090376427,1.17703981383885,0,1.23593398745068,1.16772548425446,1.15332363887694,1.13880248827145,1.12671857303753,1.13294801029846,1.09238423278546,1.14731576846798,1.14446096479847,0,1.07167625392903,1.05270672268031,1.06187618163072,1.04541206016957,1.03099317118806,1.00743891046412,0.994724381882315,1.02792532246858
0.829329839974061,0.826083885592822,0.724252612611397,0,0.645700346149355,0.477278007991024,0.638272743527437,0.539937965906009,0.639202472125477,0.642064093236583,0.58280774303981,0.530400365109255,0.503928239381024,0,0.504405460292942,0.504233319892571,0.503744168457856,0.503992152896013,0.505246562150197,0.504838367834467,0.504782123941277,0.511158136196576,0.51026760788773,0,0.513449648753981,0.513182064171227,0.514628213970377,0.518374398128931,0.518965811187629,0.518672661198879,0.518652208874083,0.519292196204172,0.518474955392514,0,0.7416191929042,0.525550607591892,0.526823764810473,0.527749232507513,0.52683569533327,0.5266669636537,0.526809277747075,0.70007540816137,0.54393043014232,0,0.633350550693086,0.735194606377509,0.733514107023399,0.885355575033191,0.883574518415499,0.729214857915141,0.638809617053344,0.554254593263538,0.546378743856497,0,0.722400825037117,0.724025080498036,0.724077063490227,0.623587974323571,0.815765687733002,0.813841464841735,0.815007247355133,0.552603920216423,0.552113916601508,0,0.552050003086519,0.55007038848226,0.548668552053502,0.554955085387817,0.555167278257581,0.55123276227486,0.551203788148065,0.714991970379595,0.562858204561253,0,0.725022983512064,0.576874012308234,0.577384468247946,0.580617639926188,0.621101312500401,0.638526693226993,0.600994972865071,0.600689040173324,0.636779723817295,0,0.75059776348985,0.752919102354249,0.75558046111839,0.757219203642707,0.806294556991837,0.806466697392207,0.807163780795687,0.832955014544236,0.865124817088683,0,0.856816060140117,0.879407357238218,0.869436848899939,0.915471623295994,0.887758723196777,0.918011120291555,0.859875387057589,0.889224473140524,0.888602381594631,0,0.909736450550983,0.905961292265635,0.879850490942142,0.910264802274892,0.937372654432213,0.980041317038849,0.979734532166902,0.959912820718323,0.972576218488138,0,1.09359432866925,1.08990438840389,1.071872255375,1.31837389998445,1.41927203564704,1.21722011026191,1.20748821237959,1.1668647822526,1.20016798446286,0,1.17362257123744,1.21766324396584,1.19201261995026,1.20172747422859,1.24900643171643,1.2445495292712,1.21491922372231,1.21909490670159,1.23099986409353,0,1.24293038689148,1.24212933750361,1.23116177833151,1.22752296887813,1.22233319146103,1.22475338322861,1.23100838589553,1.27398383337412,1.24156689857171,0,1.24143907154173,1.23297692215719,1.23221848177932,1.25812475985485,1.29867149376386,1.23725486676046,1.32071739553405,1.33566463623947,1.32987833268247,0,1.32947780798854,1.33113955937825,1.26023816675049,1.26004216530452,1.27481044816797,1.28117623426087,1.31325229698334,1.22843480169198,1.23561015897474,0,1.23376944974306,1.23955575330006,1.24007558322197,1.24229977354358,1.24604084462094,1.245674407135,1.21988743428745,1.26533420434561,1.23848200624824,0,1.20379827211423,1.18587692251132,1.18562126845137,1.1854508324114,1.17337543897948,1.19969076355094,1.24664589256283,1.15541148036658,1.15476382341469,0,1.15432921151277,1.1575930616782,1.15490017224667,1.13928823098536,1.11075723789429,1.14579036591024,1.08353008050899,1.09745470497458,1.14881560561972,0,1.14875595300573,1.05114723291458,1.05048253235869,1.03804070144084,1.03092499677207,1.01456313693489,1.00460967220061,0.976061635505536
0.829269335179872,0.823558023480457,0.654282652942074,0,0.708505174698315,0.552473536645845,0.551561703832003,0.53935592682951,0.518411894057724,0.517413138863497,0.641366157652903,0.794042762258552,0.503757803341054,0,0.504063736032801,0.502920110204598,0.503435679225509,0.503941022084022,0.504736958390685,0.508269245319075,0.508847875674775,0.512443223937954,0.512996288887659,0,0.512670756051315,0.512503728732144,0.512091273515415,0.51009631966756,0.517026249052764,0.517429330287294,0.518284919207946,0.517751454402838,0.514825919776743,0,0.514412612379815,0.526310752330161,0.526869782541264,0.527124584421021,0.525497772419501,0.701690289640091,0.547163601820562,0.694993857629647,0.703175639728435,0,0.545166943612306,0.735550817701047,0.620982007272421,0.624730747971574,0.62417768302187,0.730453075745527,0.95019796644,0.726922493177536,0.7259757209755,0,0.723434519619538,0.676333667793468,0.675908429873741,0.676159823032698,0.676132553266302,0.675443991664821,0.549354557114384,0.614319662469971,0.551340989160241,0,0.551716800628376,0.551824175333558,1.04458544537571,0.609741750436361,0.807717697925591,0.82719001549223,0.613158993037771,0.65372703145177,0.583278146510129,0,0.582944091871786,0.580380733830629,0.577853167357865,0.582825638824007,0.58889230966676,0.653562560673198,0.64219532898736,0.640965632958972,0.638976644372515,0,0.750488684424269,0.75309124275462,0.75929000152835,0.771384995104862,0.805837788404716,0.838179731349534,0.842467049934994,0.851515499297032,0.849195864793032,0,0.878947179930297,0.888389336544668,0.8893608219725,0.900166466906635,0.947990819722381,0.947283510156503,0.936784650094315,0.897618448109075,0.881733809183816,0,0.879347704624228,0.880770845557983,0.908415571241211,0.915565363117977,0.936358559994389,0.931168782577284,0.951808587017722,0.977765995905242,0.98038218911879,0,1.08631670976251,1.08297616337908,1.07983161844163,1.25636926864316,1.30762790766431,1.20444592906612,1.23682025485853,1.20373009769824,1.22678157210426,0,1.20762456121157,1.18132628024411,1.19911128101504,1.25125618744404,1.20972092450321,1.20560489413792,1.2045481906901,1.24806051169459,1.21956360581151,0,1.22330467688886,1.25801397642887,1.27960822269315,1.25172488655396,1.28896516128753,1.24590449578896,1.22784679735408,1.24023749745994,1.26242826986411,0,1.24584484317497,1.24525683883707,1.23245709223528,1.268836664967,1.24300708310946,1.28612740122202,1.24254690580154,1.2485632980125,1.24056132593588,0,1.27590123882379,1.32150992311991,1.26212148499216,1.26052790801844,1.26238566085412,1.25628405062317,1.24420013538926,1.24841842737853,1.25970129322458,0,1.22777010113609,1.24196742326564,1.25365933560762,1.23045446876563,1.22979829001174,1.2445069202612,1.2375957388404,1.26904971001697,1.23885696553618,0,1.20330400759831,1.18735971605907,1.18622631639326,1.18350786155573,1.17632398247097,1.18614109837328,1.15980020839582,1.15631479137842,1.24545284028304,0,1.15694540472632,1.15927185667191,1.15922072585992,1.11790702977105,1.1002754214361,1.1019797818358,1.10473232388133,1.11339899651383,1.15091196891136,0,1.07004006794532,1.0863593187725,1.05702727629356,1.05731701756151,1.06132226450082,1.01597775606665,1.00098790635123,0.97951296531494
0,0,0,0,0,0,0,0,0,0,0,0,0,0,0,0,0,0,0,0,0,0,0,0,0,0,0,0,0,0,0,0,0,0,0,0,0,0,0,0,0,0,0,0,0,0,0,0,0,0,0,0,0,0,0,0,0,0,0,0,0,0,0,0,0,0,0,0,0,0,0,0,0,0,0,0,0,0,0,0,0,0,0,0,0,0,0,0,0,0,0,0,0,0,0,0,0,0,0,0,0,0,0,0,0,0,0,0,0,0,0,0,0,0,0,0,0,0,0,0,0,0,0,0,0,0,0,0,0,0,0,0,0,0,0,0,0,0,0,0,0,0,0,0,0,0,0,0,0,0,0,0,0,0,0,0,0,0,0,0,0,0,0,0,0,0,0,0,0,0,0,0,0,0,0,0,0,0,0,0,0,0,0,0,0,0,0,0,0,0,0,0,0,0,0,0,0,0,0,0,0,0
0.506158394964039,0.548809161786478,0.549618732976338,0,0.553233681384114,0.550967734232705,0.552981436044958,0.520897703700695,0.518529494925304,0.516832804147397,0.64248336589491,0.639693327920592,0.635226199312963,0,0.503501297100898,0.511222049711565,0.511049909311195,0.510577801480476,0.509799760958011,0.510549679533881,0.509904579122593,0.510023032170372,0.512978393103462,0,0.512029916541026,0.512433849955756,0.511032865707198,0.510808742314637,0.510184946408344,0.528419046144597,0.515032147385108,0.51629507844129,0.514479082435403,0,0.514410908019415,0.526688268158696,0.526801608125276,0.526627763364506,0.526834843153071,0.703695469650345,0.710021203273853,0.901478824414409,0.921283492258991,0,0.511752957976074,0.89776331874305,0.81832734141376,0.780217842876338,0.780170972965346,0.676428259795651,0.676233110529885,0.675496826837212,0.675528357504607,0,0.961804660761997,0.676877358760974,0.67608994425631,0.674977849095502,0.673795875158306,0.54080037226826,0.547135479873967,0.547241150218749,0.750832965225009,0,0.612393735218304,0.615269843392807,0.798082948586054,0.88919038593253,0.567498325749452,0.567577578508039,0.573800198327365,0.573450804445425,0.583665888501062,0,0.584071526276192,0.580945729303131,0.583807350414237,0.583012266287775,0.577523373620522,0.57655018383229,0.622244938328603,0.623231763000033,0.713662569267825,0,0.724861069274092,0.718493578820791,0.767497349033133,0.764396265285869,0.792976684828536,0.839640368212082,0.818413411613945,0.854583348016503,0.853654471598663,0,0.85679901653612,0.862551232885127,0.89677478971122,0.938991796811934,0.911500463564679,1.00704690757219,1.0133274756451,1.16014960227776,0.899246112290794,0,0.898964892824842,0.907452607615378,0.904026843211969,0.924044556106514,0.917508333973642,0.927760061777873,0.937560134076181,0.954492954647259,0.979385138284962,0,1.0921541441315,1.08096501810743,1.09259727783542,1.26063869144442,1.20127581872267,1.1755570202911,1.1755996293011,1.17575302173707,1.17482414531923,0,1.17656259292693,1.19214044698024,1.23027551092366,1.23055673038961,1.21015553640513,1.2103685814551,1.2016422562086,1.20840004519344,1.22121683539922,0,1.23336040324713,1.24469439990517,1.24493301036113,1.24515457721309,1.25151184150399,1.25111983861206,1.23982845096401,1.2393171428441,1.23976027654802,0,1.24653510913685,1.24600675741294,1.2474384201487,1.24768555240666,1.24483927053915,1.24456657287519,1.24526536063907,1.24297299590147,1.24317751914943,0,1.24368882726934,1.32129687806995,1.26001659989853,1.25621587620718,1.26543646596959,1.2480179026846,1.24757476898067,1.2480093808826,1.25153740690999,0,1.24531649145106,1.22806836420604,1.23457902093292,1.24092776342182,1.25049774706617,1.29264657975089,1.2775459466095,1.28357086062246,1.26680847609135,0,1.23020733650767,1.22798314618606,1.20419879680816,1.20505949881001,1.19524238290771,1.15466156179071,1.15389459961084,1.15342590050092,1.14958256779959,0,1.15663861985437,1.16269762107532,1.14763107514192,1.16869696968229,1.10480902009931,1.09196666448753,1.09237571098346,1.09361989407525,1.11253829451198,0,1.1089761812766,1.10088046937799,1.0632055827425,1.07239208529691,1.02098857564178,1.0058197680844,1.02397972814327,1.02097153203778
0.494584935669837,0.493354387461249,0.548257801197173,0,0.498846688849301,0.498547573599153,0.661804847566175,0.647454133000652,0.647576846949431,0.651398022965571,0.639741050011783,0.641222991379328,0.759468959370319,0,0.510010249467374,0.511352433282143,0.511372885606939,0.512247222491988,0.51119563212537,0.510345156285917,0.510447417909899,0.510988552336806,0.51078914217004,0,0.513465840177778,0.513347387129999,0.511354989822742,0.511286815406754,0.51136692034554,0.782651669527118,0.513593667207756,0.51536620202345,0.514983573113716,0,0.516832804147397,0.669662801189019,0.863156280827023,0.522285905246256,0.520096654312834,0.520487805024566,0.512629851401722,0.741563801191209,0.933725323176843,0,0.51194555070124,0.511977933548835,0.512388684405164,0.649741384657057,0.621982466827048,0.775178049174408,0.675553922910602,0.619626188574455,0.959444121608404,0,0.675419278439026,0.743205100256126,0.643258849876776,0.620359915726528,0.650107822142994,0.888704643218613,0.726779326903961,0.726542420808402,0.726336193200038,0,0.882492249561686,0.794635027497449,0.572060046359265,0.58883180487257,0.567794884459001,0.567912485326581,0.573507900518815,0.575978370918189,0.575226747981918,0,0.576660115078071,0.582359496254687,0.584510399079116,0.584235144874564,0.580481291094211,0.613124053649577,0.694262687018173,0.689458947231602,0.714390331158499,0,0.7138099964424,0.715473452192512,0.725171262866839,0.756606486079013,0.836019454542907,0.791571439678978,0.812323731905796,0.853705602410654,0.853236903300735,0,0.855401441008361,0.894209727309663,0.89463581740959,0.90072038403654,0.995005601348266,1.01611410489862,1.01608001769063,1.02472112491714,1.0238092921033,0,0.932830533966997,0.922365761112804,0.967880705586948,0.935020637080619,0.930947215725322,0.936213689360414,0.956529665324907,0.959290729172431,1.00297348621689,0,1.07909874346975,1.08919707883801,1.15256519849907,1.21024075442512,1.17820730071265,1.20718994930964,1.23285761692921,1.17714207546283,1.17727842429481,0,1.20174451783258,1.18625188179926,1.1929500181701,1.23713556153248,1.19919649903502,1.19900901939106,1.19605195409757,1.26937353849291,1.23418701804098,0,1.23347970847511,1.24673963238482,1.24500118477712,1.25388090245959,1.2520828022379,1.27129946574458,1.29790453158399,1.2561306581872,1.23306214017718,0,1.29675408831419,1.24747250735669,1.24757476898067,1.24737876753471,1.24593858299696,1.24503527198511,1.24460066008319,1.24290482148548,1.24372291447734,0,1.24446431125121,1.29946402134972,1.26158461146626,1.30040141956956,1.30046959398554,1.24937286920236,1.24818833872457,1.24830764395255,1.24345021681339,0,1.25095792437409,1.23685434206652,1.21891594885962,1.21825977010573,1.24938139100436,1.25232141269385,1.25138401447402,1.25134992726602,1.27167442503251,0,1.23926601203211,1.23860131147622,1.21799559424378,1.22355180914682,1.20355113985627,1.26224931202214,1.15401390483882,1.15334068248094,1.15774645411418,0,1.15658748904238,1.13980806090727,1.12843145523924,1.11608336414337,1.10117021064594,1.09520494924697,1.16985593475409,1.12567039139171,1.12392342198202,0,1.10220134868776,1.060257039251,1.06228522812665,1.06738126572177,1.03046481946415,1.03252709554779,1.06881292845753,0.974093099243876
0.697298152890049,0.502578385944457,0.501880450360778,0,0.500138594032278,0.499593198704372,0.500078941418289,0.499560815856778,0.64856537598126,0.692722797397039,0.690999689032937,0.640074252469926,0.667707047630357,0,0.510340043204717,0.511151318754977,0.511339650579145,0.512056334127221,0.510868394928626,0.51020965963414,0.511930211457643,0.512192682959198,0.511580817575703,0,0.512329031791174,0.513678885227741,0.514393864415418,0.512640077564121,0.512205465662196,0.514357220666824,0.514201271690251,0.514827624137143,0.51548295071083,0,0.51583149241257,0.517314285960314,0.517223954859129,0.517205206894733,0.515697700121193,0.514801206550948,0.513903008620303,0.511941289800241,0.511481112492321,0,0.511393337931736,0.511516904060714,0.511492190834919,0.509721360379624,0.509733290902422,0.729477329416695,0.617666174114793,0.517318546861313,0.518704191866274,0,0.51803352604899,0.638737181736357,0.621283679063169,0.697915131354743,0.673865753934694,0.656191536589744,0.883659736435484,0.882969470473603,0.883063210295587,0,0.883216602731561,0.882134333877747,0.788710670748072,0.944940014606907,0.808061978726332,0.942136341749391,0.575123634177736,0.574481090307047,0.576543366390691,0,0.576866342686435,0.577119440205792,0.584641634829893,0.581446811260645,0.579819147078926,0.570517600197531,0.569503505759706,0.691202507920501,0.686886215208246,0,0.711964174129518,0.735452816978064,0.733902701194532,0.826358287617174,0.8383748806153,0.839408575197722,0.81560292131483,0.818167131536188,0.857037626992079,0,0.855878661920279,0.895649911847415,0.897056009177172,0.903038314180139,0.999914159299419,0.980654886782743,1.0238007703013,1.00007607353739,0.95286529046554,0,0.935284812942574,0.947470989800471,0.962315968881909,0.957271062098779,0.959588992242379,1.03677947474506,0.979598183334926,0.986594582775718,1.01821898999226,0,1.13366384166633,1.08639340598049,1.14867073498574,1.20705360047767,1.17572745633107,1.24630502048289,1.2022046951405,1.17984348669636,1.17859078180258,0,1.20707916588366,1.20776943184554,1.1964354351875,1.19937545687699,1.19408341783591,1.20116503529668,1.23543120113277,1.18805850382295,1.23126403995549,0,1.22594643550841,1.24657771814685,1.28714149565985,1.28698810322387,1.25314802748771,1.25344629055766,1.23486024039887,1.26436271891778,1.23822635218829,0,1.25162262492998,1.24968817587631,1.24926208577638,1.27049841635672,1.27010641346479,1.24066358755987,1.23975175474602,1.24806051169459,1.23973471114203,0,1.23761278244439,1.27962526629714,1.24830764395255,1.30078490065949,1.30110872913543,1.24693563383078,1.24656919634485,1.26571768543554,1.23243152682929,0,1.23185204429339,1.25737484127898,1.25831223949882,1.25991433827454,1.26182322192221,1.26831683504509,1.2578776275969,1.30967314014396,1.23125551815349,0,1.23009655308169,1.23903592337815,1.21862620759167,1.24911721514241,1.21196215842882,1.22239284407502,1.23995627799399,1.18162454331406,1.15798506457014,0,1.15680053409234,1.12541473733176,1.11179689773811,1.10019872521811,1.08738193501232,1.08631670976251,1.08031736115554,1.11171167971812,1.12769858026736,0,1.12664187681955,1.06806300988166,1.04899973881095,1.05463264993198,1.02249693459552,1.02190893025762,0.997170139055893,0.981984287894514
0.651538632698547,0.503219225454747,0.503064980838573,0,0.50273774364183,0.500509292419214,0.499596607425172,0.499544624432981,0.498775105712514,0.609200616009455,0.506022898312263,0.509552628700053,0.510625523571668,0,0.5121799002562,0.512379310422966,0.513487144682774,0.51374535528333,0.512878688020079,0.513057645862048,0.512803696162492,0.513143716062234,0.513326934805202,0,0.513482883781775,0.512797730901093,0.51298947144606,0.513717233336735,0.512842896451686,0.514755188820156,0.514577935338586,0.515754796194583,0.516242243268899,0,0.51658396752904,0.518042900031188,0.519867417839073,0.517694358329448,0.517227363579929,0.517084197306354,0.516209008241105,0.511932767998243,0.511709496785881,0,0.512384423504165,0.512427032514157,0.51131067645235,0.510409069800906,0.50997786661978,0.510166198443948,0.516514940932852,0.517025396872564,0.517840933323823,0,0.517710549753245,0.982947251520348,0.557013100570462,0.691838234349592,0.672774111098682,0.708088458580587,0.715218650312756,0.5567940902591,0.559002941337119,0,0.883020601285594,0.881324762687887,0.946252372114681,0.558734504574165,0.562098059822984,0.562723560089676,0.771523900477438,0.566173185538681,0.566928217195751,0,0.566169776817882,0.582129407600727,0.581265296878076,0.580101218725077,0.560925459867987,0.569464305470513,0.694462949365139,0.630874967212514,0.693346593303331,0,0.706143783364523,0.776876444312715,0.773960283668818,0.77180597212359,0.876910469252649,0.811745101550096,0.811751066811495,0.855801965702292,0.851813762366981,0,0.85129563680547,0.964344157757558,0.95692166821684,0.978149476995176,0.941957383907422,0.932924273788981,0.960637173888198,0.940645026399649,0.931254000597269,0,0.948340213604321,0.976180940733515,0.958907248082497,0.95912029313246,0.948902652536223,0.968434622716852,0.979828271988886,0.996164566420066,1.07249434692089,0,1.08626557895052,1.0933301528073,1.13189130685064,1.13930527458936,1.17633250427297,1.1750116249632,1.17780677601872,1.20081564141474,1.18131775844211,0,1.1900440836886,1.18568944286736,1.18789658958497,1.20023615887884,1.18823746166492,1.18067010149022,1.1715091643418,1.19202966355426,1.20986579513718,0,1.23050559957762,1.22114866098324,1.24224012092959,1.28846237496962,1.24154985496771,1.25734075407099,1.22978124640775,1.23444267210094,1.29555251423239,0,1.29513494593447,1.23999036520198,1.23610442349065,1.23355640469309,1.23278092071123,1.25050626886817,1.24020341025195,1.23908705419014,1.23606181448066,0,1.2364367737686,1.28190058743075,1.28023031423904,1.2908910885392,1.29791305338599,1.24754068177268,1.28272720222461,1.23169013005542,1.23165604284742,0,1.2561136145832,1.25815884706285,1.25349742136965,1.26905823181897,1.26395367242185,1.26040860279046,1.28086944938893,1.28786584882972,1.2856501803101,0,1.30173082068133,1.24209525029562,1.24765998700066,1.24837581836854,1.25475012626344,1.24912573694441,1.21774846198582,1.2126609461927,1.21371764964052,0,1.15544556757457,1.11481361564559,1.1043232773854,1.08942716749197,1.08082014747346,1.08238815904118,1.07215347484095,1.07213643123695,1.09108039707968,0,1.04409970266179,1.08100762711742,1.04184994693418,1.01789516151632,1.04251464749007,1.02239467297154,1.00211278421504,0.965699124275325
0.504853707078064,0.505151117967813,0.616029135950876,0,0.502060260382947,0.499798574132537,0.499423614844602,0.498979628960478,0.643968715983254,0.641654194560453,0.50962932491804,0.510536896830884,0.511246762937361,0,0.512807957063491,0.514178262824855,0.514341029243027,0.514430508164011,0.51432398563903,0.514818250154945,0.513314152102204,0.514577935338586,0.513158203125631,0,0.512250631212788,0.510626375751868,0.513175246729628,0.519427692855949,0.51901523763922,0.518156239997768,0.517199241633334,0.516032606939735,0.516477445004058,0,0.51588688412556,0.517505174325081,0.517250372445325,0.516946144113977,0.517332181744511,0.517292981455317,0.516731394703614,0.513248534226815,0.511637061468894,0,0.51154161728651,0.512247222491988,0.511789601724667,0.511101892303386,0.510143189578552,0.50939838408388,0.513462431456979,0.512984358364861,0.512663086429517,0,0.554108870449363,0.718147593659651,0.757244769048703,0.704506745200605,0.618952966216571,0.618285709120087,0.682161728180262,0.845425819588883,0.883199559127564,0,0.609406843617819,0.958915769884495,0.847925264115052,0.618791904158799,0.561699239489453,0.562175608221171,0.564312023982202,0.565387475394417,0.565648242535572,0,0.565421562602411,0.578799939559902,0.580203480349059,0.579945269748504,0.561955745729609,0.562011137442599,0.59132613631754,0.707930805243614,0.709130674965007,0,0.695318538285791,0.71855664015558,0.719627830666795,0.838587073485063,0.823934687128792,0.859423731551667,0.856764929328126,0.851965450442554,0.852700029774828,0,0.853603340786672,0.849299830777414,0.892394583483977,0.903259881032101,0.907674174467339,0.933691235968849,0.927512929519915,0.935557510606527,0.947292031958502,0,0.961745008148007,1.02947629043232,1.00377453560475,1.02732027452669,0.977118338953354,0.97661555263544,1.00472897742859,1.04492631745565,1.08653827661447,0,1.08857498729212,1.09338128361929,1.1199693058547,1.11956025935877,1.10585720174513,1.1118650721541,1.13013581563894,1.16233970539139,1.19289888735811,0,1.17146655533181,1.17284708725557,1.18064453608423,1.18641379603723,1.17068254954795,1.17144098992581,1.17114272685587,1.19766257467529,1.18491395888549,0,1.19481629280778,1.25037844183819,1.23911261959613,1.23727191036445,1.23267865908724,1.23264457187925,1.21806376865977,1.20845117600543,1.20774386643955,0,1.22768488311611,1.22748888167014,1.24546988388704,1.24226568633559,1.24181403082967,1.24185663983966,1.24373143627934,1.24467735630117,1.23592546564868,0,1.23566981158873,1.24237646976157,1.2683083132431,1.28347712080048,1.25950529177861,1.23265309368125,1.23019029290367,1.22965341937777,1.23253378845327,0,1.25397464228157,1.25271341558579,1.25342924695366,1.25178453916795,1.25123914384004,1.32286488963768,1.32246436494375,0.00382270141869822,1.26617786274346,0,1.26243679166611,1.25932633393665,1.24032271547993,1.26301627420201,1.28283798565059,1.23111064751952,1.21930795175155,1.23335188144513,1.16304701495726,0,1.14206633843688,1.14182772798093,1.19489298902577,1.09358580686725,1.07092633535316,1.06812266249565,1.07164216672104,1.09175361943757,1.09149796537761,0,1.04439796573174,1.07897943824177,1.02749071056666,1.02762705939864,0.991954796232793,0.982947251520348,1.00996136385569,0.963500499359704
0.505810705442499,0.506563180558969,0.506392744518999,0,0.505561868824142,0.505057378145829,0.504142136611187,0.507343777622035,0.507820146353752,0.507844007399348,0.510502809622889,0.511233128054163,0.512347779755571,0,0.514449256128408,0.514945225004723,0.515246044615271,0.514428803803612,0.514623953069378,0.517408025782298,0.51646551448126,0.515295471066862,0.510657054239063,0,0.51014915483995,0.50963102927844,0.519063811910612,0.519908322488666,0.520345490931191,0.519033133423417,0.517581018362868,0.516743325226412,0.515443750421637,0,0.515753944014383,1.00226617665101,1.00228322025501,0.515224740110274,0.515798257384775,0.515840866394768,0.515564760010016,0.514806319632147,0.510461052793097,0,0.510832603360233,0.511571443593505,0.513110481034439,0.511550991268709,0.50974777796582,0.509352366353088,0.514490160778001,0.512808809243691,0.512143256507606,0,0.511963446485437,0.648482714501875,0.649925455580226,0.700338731843125,0.915539797711982,0.912557167012497,0.654632899004213,1.08451860954082,0.793766655873799,0,1.01667654383053,0.683699061260796,1.04362248174988,0.626558674500259,0.841882454317895,0.64040148966667,0.853424382944703,0.609786915986953,0.565248570021841,0,0.603363181640462,0.582491584185664,0.591805913770057,0.578206822140804,0.561827066519431,0.561837292681829,0.621345036037559,0.706403698325478,0.704395109594424,0,0.724334421910583,0.767620062981912,0.776271396370819,0.826012302456034,0.847246928675969,0.852026807416944,0.852495506526863,0.812666308346137,0.827091162589048,0,0.835789365888946,0.84909445534925,0.88513400818123,0.883378516969533,0.916894764229748,0.91792590227157,0.92175219136891,0.950624056539927,0.964949205699454,0,0.956725666770873,0.986594582775718,0.972669958310121,0.98096167165469,1.07975492222364,1.03647268987311,1.02807019310256,1.08073492945347,1.10104238361596,0,1.12826954100127,1.09139570375363,1.08992143200788,1.09004073723586,1.09171101042758,1.11227411865003,1.11874216636691,1.14609715078219,1.22166849090515,0,1.16386510794912,1.17372483286142,1.17783234142471,1.17715059726483,1.17143246812382,1.17076776756793,1.17248917157163,1.1964524787915,1.23802182894032,0,1.20044068212681,1.17680972518489,1.18245115810791,1.19282219114012,1.23116177833151,1.24847807999252,1.24354395663537,1.20838300158944,1.20759047400358,0,1.20638889992178,1.23474945697289,1.23616407610464,1.24264064562353,1.24224864273159,1.24224864273159,1.24515457721309,1.24473700891516,1.33307400843192,0,1.23000281325971,1.22852001971196,1.30092124949147,1.29206709721499,1.28296581268057,1.22447216376266,1.22403755186074,1.23780026208836,1.23651346998658,0,1.23607033628266,1.25359968299363,1.25133288366203,1.25155445051399,1.32239619052776,1.32192749141784,1.32997207250445,1.32924771933458,1.36013925157925,0,1.26056199522643,1.25111983861206,1.25360820479563,1.28297433448256,1.2931919750788,1.23720373594846,1.22229910425304,1.22666226687628,1.18117288780813,0,1.15156814766524,1.14164024833696,1.19623943374153,1.08934194947198,1.17466223108126,1.08295059797309,1.06216592289867,1.08855794368812,1.07837439029988,0,1.07712168540609,1.07885161121179,1.0365067770811,0.99805640646374,0.997161617253894,1.01241564283126,0.972030823160232,0.965238946967404
0.5081209659643,0.506259804407822,0.507688058422775,0,0.506911722260709,0.506012672149864,0.507534665986802,0.508451611881844,0.508337419735063,0.509301235541097,0.51136606816534,0.510766133304644,0.511940437620041,0,0.514444995227409,0.5144952738592,0.514683605683368,0.513391700500391,0.514277115728038,0.51727764221172,0.517488982901284,0.515409663213643,0.514537882869193,0,0.510369017331513,0.516174068852911,0.519333953033965,0.520146932944625,0.518884854068643,0.518407633156725,0.51779832431383,0.874226101623112,0.8731353109673,0,0.624579059896,0.506179699469036,0.506468588556786,0.507394056253826,0.508430307376847,0.508098809279104,0.511664331235289,0.988793207691338,0.509531324195057,0,0.510003432025776,0.511327720056347,0.511757218877073,0.510694550167856,0.50968812535183,0.50957052448425,0.510971508732809,0.512558268264935,1.0967729608147,0,0.511651548532291,0.669302328964481,0.624215178950663,0.519606650697918,0.519636477004913,0.827931412266103,0.827812107038123,1.08552418217664,1.0846379147688,0,1.08369199474696,0.539568119699273,0.683135770148694,0.542624037895945,0.542457010576774,0.545194213378702,0.545197622099501,0.548612308160312,0.556163476911209,0,0.541576708430326,0.54097677356963,0.539981427096202,0.568269548830319,0.558784783205956,0.624298692610249,0.630122492096044,0.701478948950528,0.704390848693425,0,0.705398977869851,0.741634532147797,0.754363547793,0.806342279083029,0.862448971261145,0.827976577816695,0.824275559208734,0.826693194435716,0.837832041827994,0,0.842228439479035,0.852682986170831,0.874038621979145,0.879151703178262,0.907588956447354,0.913767262896288,0.927956063223839,0.931918701153155,0.952754507039559,0,0.960637173888198,1.03366049521359,1.03360084259961,1.01256903526723,1.06599221199601,1.02432912202521,1.04475588141568,1.07171034113703,1.08670019085244,0,1.09721609451863,1.17748294754277,1.17737216411679,1.08618888273253,1.11385065201975,1.12832067181326,1.15048587881143,1.13977397369928,1.14781855478589,0,1.17719320627482,1.17186708002574,1.1738441380894,1.16329414721522,1.16500702941692,1.18245967990991,1.17416796656534,1.17435544620931,1.17553997668711,0,1.16987297835809,1.18574057367935,1.22734401103617,1.22095265953727,1.22525616954653,1.22743775085815,1.22850297610797,1.27421392202808,1.23947053528007,0,1.27758855561949,1.21783368000581,1.22513686431855,1.29426572213062,1.22856262872196,1.23109360391552,1.21055606109906,1.234084756417,1.24829060034855,0,1.22955967955578,1.25156297231599,1.23560163717274,1.2700211954448,1.268870752175,1.2294403743278,1.23138334518347,1.27144433637855,1.27222834216242,0,1.2248045140406,1.23226109078932,1.23182647888739,1.32554073546522,1.32530212500926,1.32285636783568,1.32191044781384,1.3836082942832,1.35557156570803,0,1.40641263643126,1.2509153153641,1.25096644617609,1.25046365985818,1.24591301759096,1.2416435947897,1.21550722806021,1.20218765153651,1.18295394442583,0,1.16539051050686,1.18353342696173,1.10725477727289,1.1952509047097,1.08916299163002,1.08993847561188,1.09177066304157,1.09552877772292,1.04478144682168,0,1.06500368296418,1.01256051346524,1.03531372480131,0.987591633609546,1.00433697453666,0.961983618603966,0.96920158489672,0.991903665420802
0.506656068200753,0.507449447966816,0.506310935219813,0,0.506899791737911,0.506953479090502,0.507754528478364,0.508533421181029,0.507649710313782,0.50713925437407,0.509528767654458,0.510509627064488,0.512538668120338,0,0.512190978598798,0.513595371568156,0.513933687107497,0.513836538564714,0.514341029243027,0.513992487541287,0.513302221579406,0.514984425293916,0.514410908019415,0,0.515114808864493,0.515516185738624,0.517254633346324,0.517563122578671,0.518284919207946,0.517116580153948,0.514667414259571,1.20929483440328,0.634077460403561,0,0.504436138780137,0.506219751938429,0.506032272294461,0.508333158834064,0.508637387165411,0.508409002871851,0.507872129345944,0.618374335860871,0.506796677933729,0,0.508848727854975,0.509316574784694,0.509287600657899,0.510426113404903,0.51055649697548,0.510257381725332,0.907409998605385,0.985299268871942,0.862142186389198,0,0.862960279381057,0.862159229993195,0.804209272042797,0.51884054069825,0.518507338240108,0.800636080464814,0.800526149219033,1.08513217928471,1.08490209063075,0,1.01556870957072,0.539107942391352,0.538989489343573,0.54271266463673,0.545241935469894,0.544193753824074,0.545849539952389,0.546431579028888,0.546695754890843,0,0.54242377554898,0.541765040254494,0.540309516473145,0.584114987466384,0.553193628914721,0.629595844732534,0.629877064198486,0.703416806724993,0.703895731997311,0,0.705674232074404,0.735668418568627,0.734945769759152,0.820983587096702,0.821003187241298,0.824686310065063,0.824509056583493,0.823679033068837,0.845455645895878,0,0.853245425102734,0.908764965123151,0.908534876469191,0.886318538659025,0.897439490267106,0.908560441875186,0.924768909276389,0.942178950759384,0.965997387345273,0,0.98565718455588,0.985776489783859,1.0446450979897,1.03216917986385,1.02349398542935,1.04179029432019,1.042881084976,1.05170967184648,1.12197192932435,0,1.0840499104309,1.0857798362366,1.08488504702675,1.11342456191983,1.12492899461784,1.15900768080996,1.14000406235324,1.14047276146316,1.16930201762418,0,1.21564357689219,1.23202248033336,1.26011886152251,1.23342005586112,1.18405325688364,1.17133020649983,1.28294024727457,1.176179111837,1.1442820069565,0,1.17698016122486,1.17247212796764,1.19157800804834,1.19079400226447,1.23127256175749,1.22494938467458,1.26198513616019,1.25704249100104,1.2213276188252,0,1.21958064941551,1.21926534274156,1.25080453193812,1.24879338666646,1.20033842050283,1.3134909074393,1.21061571371305,1.21019814541513,1.20405392617419,0,1.20333809480631,1.24427683160724,1.24471144350917,1.25405133849956,1.24265768922752,1.24817981692257,1.2103515378511,1.21643610447805,1.21536235742623,0,1.26271801113206,1.23151969401545,1.23227813439331,1.28089501479492,1.24673963238482,1.31911529675833,1.31729163113064,1.38045522754374,1.32917954491859,0,1.24573405974899,1.25014835318423,1.24984156831228,1.36951323377763,1.33056859864435,1.20354261805427,1.21945282238553,1.18639675243323,1.17433840260531,0,1.17413387935735,1.1744321424273,1.14521088337434,1.10469823667333,1.17737216411679,1.07494862589647,1.09442094346311,1.066085951818,1.07979753123363,0,1.08012135970958,1.00586237709439,0.991238964864917,0.977263209587329,0.963244845299748,0.95744149813875,0.957577846970726,0.949064566774196
