0.615028, 0.590471, 0.58304, 0.585277, 0.580925, 0.580054, 0.727391, 1.01269, 0.714943, 0.600333, 0.60192, 0.780179, 0.779519, 0.733685, 0.594803, 0.594725, 0.595422, 0.589984, 0.592307, 0.592805, 0.777741, 0.976503, 0.955542, 0.602864, 0.60224, 0.599014, 0.597188, 0.596858, 0.59372, 1.16024, 1.0098, 0.618154, 0.618724, 0.781487, 0.632868, 0.631126, 0.628545, 0.721464, 0.652242, 0.810339, 0.686027, 0.684643, 0.760599, 0.815598, 0.832883, 0.860726, 1.05388, 1.05489, 1.06403, 1.02949, 1.04268, 1.08215, 1.16999, 1.19131, 1.1964, 1.17041, 1.26538, 1.2466, 1.22582, 1.22701, 1.27361, 1.34381, 1.33873, 1.44481, 1.3293, 1.36234, 1.50001, 1.39182, 1.39678, 1.407, 1.40488, 1.40225, 1.35892, 1.3924, 1.40308, 1.4062, 1.3735, 1.38858, 1.36778, 1.37877, 1.38496, 1.35932, 1.35777, 1.36714, 1.36713, 1.40417, 1.46163, 1.44361, 1.44015, 1.43938, 1.42197, 1.41839, 1.39413, 1.36767, 1.41067, 1.38776, 1.4409, 1.30624, 1.24299, 1.20226, 1.17366, 1.18555, 1.19277, 1.12396, 1.12107, 1.14847, 1.07498, 1.05179, 1.0316, 1.00813, 1.00864, 0.963444, 0.960794, 0.898153, 0.897785, 0.890992, 0.903294, 0.895721, 0.928696, 0.926717, 0.910104, 0.915175, 0.90773, 0.900693, 0.885828, 0.876964, 0.876956, 0.870238, 0.869175, 0.871563, 0.87355, 0.872207, 0.876285, 0.869991, 0.869368, 0.867676, 0.870153, 0.896945, 1.0089, 0.887353, 0.86724, 0.870758, 0.888558, 0.891023, 0.894211, 1.02357, 1.01605, 0.905622, 0.907384, 0.950498
0.877154, 0.87708, 0.570028, 0.580504, 0.586265, 0.586026, 0.582822, 0.581295, 1.11536, 0.959433, 0.798652, 0.797356, 0.580696, 0.594684, 0.593369, 0.595148, 0.868527, 0.589726, 0.590522, 0.59249, 0.980888, 0.58926, 0.588822, 0.773502, 0.597951, 0.596976, 0.597322, 0.597711, 0.594527, 0.595821, 1.00593, 0.809332, 0.739641, 0.621943, 0.631085, 0.630856, 0.649736, 0.64877, 0.77552, 0.657405, 0.655587, 0.688703, 0.773594, 0.861127, 0.891361, 0.912245, 0.954326, 0.998251, 1.05464, 1.02983, 1.14323, 1.15113, 1.23064, 1.19503, 1.1935, 1.19141, 1.30159, 1.25464, 1.23253, 1.2417, 1.26378, 1.28562, 1.2972, 1.29811, 1.32177, 1.40306, 1.34536, 1.37268, 1.3828, 1.40326, 1.40227, 1.40015, 1.39332, 1.35523, 1.35704, 1.39584, 1.38885, 1.36971, 1.37443, 1.36237, 1.37126, 1.33794, 1.34819, 1.35125, 1.42281, 1.37746, 1.47105, 1.39475, 1.40285, 1.53666, 1.46684, 1.41444, 1.43706, 1.36915, 1.46157, 1.42888, 1.30898, 1.27109, 1.25135, 1.20189, 1.16906, 1.17018, 1.18029, 1.16032, 1.11274, 1.05831, 1.08639, 1.09084, 1.03686, 0.986482, 0.969811, 1.02839, 0.932468, 0.902403, 0.913316, 0.919508, 0.901599, 0.877048, 1.02658, 1.00913, 0.901406, 0.904799, 0.898526, 0.89711, 0.890427, 0.873158, 0.873123, 0.87185, 0.872714, 0.867593, 0.867565, 0.869386, 0.870068, 0.868437, 0.867684, 0.867516, 0.876332, 0.879237, 0.852778, 0.878382, 0.864212, 0.867808, 0.870701, 1.38789, 0.89478, 0.884695, 1.00061, 0.846035, 0.970288, 0.984336
1.2169, 0.56948, 0.570393, 0.577005, 0.586857, 0.585923, 0.582605, 0.579464, 0.580584, 0.978113, 0.645205, 0.580955, 0.579568, 0.599378, 0.597607, 0.587226, 0.587378, 0.588254, 0.586996, 0.584478, 0.910678, 0.654487, 0.588962, 0.589523, 1.58909, 0.590936, 0.588863, 0.593602, 0.594718, 0.596377, 0.595033, 1.08279, 1.12669, 0.769177, 0.631426, 0.633897, 0.637653, 0.682855, 0.777208, 0.778854, 0.655585, 0.740378, 0.74535, 0.836206, 0.926655, 0.932115, 0.96604, 0.970709, 1.00802, 1.09194, 1.09777, 1.15752, 1.2032, 1.28553, 1.23715, 1.24245, 1.23658, 1.21873, 1.20565, 1.25346, 1.24894, 1.2753, 1.38504, 1.35854, 1.31412, 1.37383, 1.36076, 1.36071, 1.38832, 1.37922, 1.37264, 1.38081, 1.37066, 1.42509, 1.39949, 1.3964, 1.37411, 1.37476, 1.37548, 1.37501, 1.34519, 1.34456, 1.35144, 1.3327, 1.34038, 1.37857, 1.39864, 1.39496, 1.4787, 1.47875, 1.48017, 1.54364, 1.45035, 1.40613, 1.35872, 1.30996, 1.28274, 1.26738, 1.25718, 1.27958, 1.21918, 1.21239, 1.16124, 1.11319, 1.08269, 1.06406, 1.04655, 1.03792, 0.992335, 0.980703, 0.944196, 0.945443, 0.916927, 0.92143, 0.883233, 0.938235, 0.939869, 0.954886, 0.888586, 0.888102, 0.895786, 0.894257, 0.893816, 0.893625, 0.88925, 0.887657, 0.870681, 0.870262, 0.868096, 0.867397, 0.861965, 0.861835, 0.864079, 0.86476, 0.866435, 0.864829, 0.924941, 0.848916, 0.849402, 0.850512, 0.863466, 0.862263, 0.867173, 0.866449, 0.865321, 0.863237, 0.855492, 0.848053, 0.868241, 0.872921
0.984143, 0.612346, 0.573178, 0.795404, 0.582843, 0.58015, 0.579789, 0.579746, 0.579055, 0.572419, 0.572254, 0.572285, 0.653193, 0.655176, 0.885528, 0.647728, 0.580598, 0.580015, 0.583273, 0.589878, 0.912257, 0.908171, 0.590561, 0.960347, 0.576779, 0.823414, 0.586355, 0.594721, 0.911309, 0.739424, 0.964736, 0.61385, 0.943276, 0.940408, 0.631808, 0.634157, 0.635161, 0.647896, 0.646335, 0.65236, 0.664152, 0.680811, 0.761364, 0.798684, 0.911213, 0.932483, 0.963651, 0.988558, 1.0026, 1.07807, 1.13987, 1.1466, 1.20143, 1.14127, 1.15557, 1.16792, 1.19251, 1.20286, 1.27075, 1.22018, 1.21627, 1.26531, 1.28171, 1.34822, 1.35606, 1.39889, 1.35552, 1.35566, 1.3735, 1.38031, 1.38066, 1.36175, 1.36525, 1.478, 1.40258, 1.39605, 1.38814, 1.39878, 1.3671, 1.40606, 1.33792, 1.33879, 1.43225, 1.33824, 1.33824, 1.34885, 1.38046, 1.44307, 1.41548, 1.48005, 1.47586, 1.485, 1.51016, 1.33978, 1.33731, 1.28529, 1.26833, 1.25314, 1.28384, 1.19164, 1.15486, 1.1448, 1.14694, 1.09162, 1.12289, 1.09778, 1.03763, 1.01533, 0.994702, 0.965804, 0.969863, 0.949887, 0.933661, 0.935915, 0.884785, 0.89006, 0.904884, 0.896965, 0.872086, 0.901079, 0.891027, 0.891721, 0.890225, 0.890414, 0.890717, 0.888043, 0.887802, 0.926849, 0.951902, 0.956629, 0.86329, 0.863088, 0.857241, 0.860309, 0.861297, 0.861582, 0.855934, 0.847569, 0.84928, 0.852504, 0.862825, 0.863445, 0.864505, 0.863914, 0.865928, 0.85455, 0.851899, 0.842577, 0.844021, 0.834852
0.670433, 0.682947, 0.564138, 0.565668, 0.575448, 0.576745, 0.578993, 0.576212, 0.574676, 0.571437, 0.571428, 0.571751, 0.662376, 0.564823, 0.564707, 0.56303, 0.563184, 0.568881, 0.569191, 0.569327, 0.570847, 0.573859, 0.577716, 0.577222, 0.577285, 0.577026, 0.593868, 0.593894, 0.698345, 0.90721, 1.05715, 0.732445, 0.632722, 0.927473, 0.648942, 0.648423, 0.647992, 0.641663, 0.638473, 0.837713, 0.69, 0.689648, 0.746287, 0.815355, 0.826002, 0.881966, 0.936509, 1.00907, 1.02588, 1.04931, 1.10855, 1.13964, 1.1236, 1.12333, 1.13696, 1.14639, 1.17011, 1.18326, 1.24474, 1.20663, 1.21376, 1.22883, 1.28159, 1.28814, 1.29636, 1.32171, 1.3535, 1.3893, 1.38239, 1.34403, 1.36163, 1.32493, 1.36444, 1.49841, 1.38919, 1.38747, 1.38491, 1.36389, 1.36845, 1.35639, 1.3383, 1.33401, 1.33357, 1.37418, 1.35265, 1.35987, 1.35661, 1.38443, 1.38402, 1.5016, 1.4987, 1.47217, 1.38988, 1.32498, 1.31467, 1.31327, 1.27404, 1.23655, 1.21621, 1.17128, 1.17174, 1.16527, 1.11058, 1.2269, 1.22581, 1.16797, 1.05041, 1.01554, 0.992661, 0.984562, 0.995565, 0.963269, 0.929299, 0.894978, 0.89192, 0.894124, 0.890939, 0.898606, 0.91743, 0.91201, 1.01535, 0.891205, 0.889854, 0.886806, 0.876547, 0.87834, 0.87692, 0.865405, 0.869255, 0.866856, 0.866372, 0.854068, 0.854657, 0.854637, 0.860024, 0.860203, 0.921526, 0.869952, 0.890963, 0.922192, 1.17248, 0.863804, 0.863017, 0.86241, 0.861089, 0.85448, 0.850372, 0.85228, 0.836889, 0.829041
0.679523, 0.680434, 0.564691, 0.56559, 1.0058, 0.575187, 0.575644, 0.574272, 0.572266, 0.567808, 0.552858, 0.553147, 0.563711, 0.563831, 0.565054, 0.55931, 0.564312, 0.568041, 0.57268, 0.572154, 0.572204, 0.573077, 0.576978, 0.578783, 0.619446, 0.633313, 0.59113, 0.631272, 1.0746, 0.00428601, 0.667076, 0.669093, 0.658659, 0.660056, 0.84963, 0.638233, 0.638283, 0.636991, 0.715325, 0.826009, 0.699156, 0.687012, 0.780355, 0.771402, 0.815781, 0.89582, 0.963007, 0.998598, 1.07061, 1.06204, 1.09509, 1.11796, 1.12868, 1.12579, 1.13663, 1.13562, 1.15429, 1.17659, 1.19441, 1.20639, 1.20518, 1.19607, 1.20274, 1.26819, 1.28291, 1.30692, 1.32984, 1.32613, 1.33034, 1.32599, 1.32916, 1.3289, 1.48557, 1.43173, 1.37419, 1.38287, 1.39502, 1.38811, 1.41409, 1.38368, 1.38858, 1.33899, 1.33999, 1.34354, 1.37779, 1.42544, 1.39151, 1.36473, 1.37543, 1.36829, 1.37078, 1.39009, 1.3471, 1.32572, 1.31537, 1.2844, 1.27354, 1.23978, 1.20966, 1.18904, 1.14825, 1.21352, 1.0959, 1.11204, 1.2698, 1.07815, 1.01432, 0.955133, 0.962485, 0.973445, 1.01632, 0.933015, 0.907693, 0.891176, 0.890431, 0.907652, 0.901564, 0.902069, 0.929035, 0.918952, 0.900638, 0.893956, 0.893797, 0.8775, 0.875726, 0.875773, 0.86591, 0.860013, 1.03961, 0.863569, 0.856733, 0.852958, 0.853894, 0.844344, 0.843077, 0.948824, 0.829531, 1.07406, 0.841179, 1.03283, 0.876722, 0.857454, 0.860484, 0.85434, 0.855082, 0.850576, 0.852387, 0.851197, 0.840736, 0.841175
1.2484, 0.57322, 0.578792, 0.736488, 1.32658, 0.713157, 0.57088, 0.668938, 1.09217, 0.557903, 0.555561, 0.553433, 0.558575, 0.557727, 0.559939, 0.562381, 0.565003, 0.568324, 0.571231, 0.570696, 1.2223, 0.576699, 0.574552, 0.677469, 0.595635, 0.597471, 0.597529, 0.606096, 0.722629, 0.839614, 0.78877, 0.659023, 0.660312, 0.660256, 0.814649, 0.638152, 0.727162, 0.725954, 0.690515, 0.687463, 0.690602, 0.691308, 0.740051, 0.785223, 0.92477, 0.97747, 0.984839, 1.04303, 1.05854, 1.07514, 1.10513, 1.10159, 1.12612, 1.13391, 1.15701, 1.17023, 1.16138, 1.16676, 1.20855, 1.24594, 1.22668, 1.26109, 1.25653, 1.27712, 1.26578, 1.28791, 1.30787, 1.33027, 1.32904, 1.3248, 1.32277, 1.32724, 1.38404, 1.40187, 1.47195, 1.40053, 1.44771, 1.39304, 1.38404, 1.40361, 1.45507, 1.37321, 1.3807, 1.36689, 1.36557, 1.38603, 1.41359, 1.38966, 1.38461, 1.37084, 1.37192, 1.365, 1.34418, 1.40303, 1.34753, 1.28669, 1.26839, 1.22737, 1.20118, 1.17763, 1.14124, 1.10265, 1.07334, 1.05693, 1.07227, 0.996444, 1.00788, 0.932291, 0.938581, 0.93508, 0.927285, 0.933632, 0.890975, 0.891376, 0.936865, 0.905143, 0.877867, 0.864098, 0.872666, 0.90239, 0.905617, 0.891539, 0.881462, 0.879884, 0.879714, 0.876284, 0.892167, 0.905891, 0.850168, 0.847558, 0.846876, 0.852775, 0.853743, 0.853689, 0.86183, 1.31001, 1.09078, 1.09209, 0.953288, 0.852152, 0.852733, 0.858245, 0.85824, 0.855538, 0.851857, 0.85053, 0.851436, 0.852153, 0.852424, 0.853111
0.976975, 0.748116, 1.01962, 0.556027, 0.748776, 0.731747, 0.559158, 0.553, 0.55175, 0.548882, 0.553883, 0.555109, 0.556221, 0.559259, 0.559195, 0.557693, 0.693131, 0.683431, 0.620159, 0.678731, 1.13122, 0.573387, 0.572904, 0.588052, 0.921305, 0.59788, 0.597393, 0.605882, 0.607651, 0.790257, 0.654656, 0.656786, 0.659509, 0.654365, 0.651754, 0.743293, 0.720104, 0.69757, 0.694654, 0.688478, 0.693993, 0.712403, 0.792376, 0.824991, 0.88885, 1.00464, 1.00612, 1.04059, 1.0472, 1.06788, 1.13754, 1.12756, 1.12809, 1.18787, 1.18165, 1.18541, 1.17187, 1.21328, 1.21233, 1.30873, 1.23433, 1.22554, 1.31912, 1.2522, 1.25292, 1.31841, 1.30787, 1.30837, 1.34701, 1.35208, 1.35413, 1.33601, 1.34454, 1.42337, 1.44197, 1.44395, 1.40268, 1.40472, 1.40636, 1.3962, 1.38197, 1.38137, 1.36731, 1.38223, 1.3726, 1.3751, 1.41842, 1.37544, 1.43365, 1.43342, 1.36979, 1.40557, 1.35653, 1.32671, 1.27247, 1.27979, 1.28123, 1.25192, 1.17872, 1.17109, 1.17644, 1.17331, 1.06063, 1.06098, 1.0259, 0.964574, 0.960503, 0.932097, 0.911189, 0.909203, 0.903248, 0.901257, 0.960342, 0.887276, 0.887459, 0.862626, 0.907774, 0.912223, 0.917107, 0.919439, 0.939318, 0.88375, 0.883259, 0.883659, 0.882671, 0.967278, 1.17921, 0.878473, 0.844798, 0.844649, 0.845852, 0.842301, 0.911784, 0.822001, 0.82231, 0.80056, 1.07391, 1.07095, 0.867644, 0.856267, 0.866395, 0.918927, 0.85131, 0.851718, 0.850006, 0.850198, 0.849433, 0.88495, 0.891839, 0.866921
0.718875, 0.705983, 0.548045, 0.548274, 0.54943, 0.929484, 0.551591, 0.552024, 0.549829, 0.549475, 0.556177, 0.557897, 0.557697, 0.561586, 0.560496, 0.555678, 0.556023, 0.838392, 0.562331, 0.562776, 0.566919, 0.572302, 0.576062, 0.586218, 0.59679, 0.596473, 0.895913, 0.71124, 0.640427, 0.639577, 0.655353, 0.6557, 0.655762, 0.655255, 0.74335, 0.719996, 0.697733, 0.698781, 0.69741, 0.694284, 0.777371, 0.722731, 0.777022, 0.823683, 0.91555, 0.966011, 0.991901, 1.01326, 1.11666, 1.08591, 1.12525, 1.18269, 1.26224, 1.23348, 1.18579, 1.30746, 1.21429, 1.2117, 1.20988, 1.2289, 1.26675, 1.26558, 1.22543, 1.24394, 1.28654, 1.3504, 1.35207, 1.37843, 1.35121, 1.35343, 1.35447, 1.3312, 1.32622, 1.46121, 1.41626, 1.43048, 1.36498, 1.41548, 1.3931, 1.4424, 1.37767, 1.44412, 1.43672, 1.34951, 1.34903, 1.34832, 1.39316, 1.3541, 1.33371, 1.44262, 1.43389, 1.42725, 1.34198, 1.29974, 1.28993, 1.31237, 1.28196, 1.19648, 1.17017, 1.16806, 1.15851, 1.13951, 1.0882, 1.11785, 1.06032, 0.981557, 0.939866, 0.927575, 0.901189, 0.901952, 0.896732, 0.885609, 0.884174, 0.863751, 0.86827, 0.866907, 0.861893, 0.911182, 0.882139, 0.890054, 1.05146, 0.880762, 0.879568, 0.87692, 0.876434, 0.856803, 0.858598, 0.902867, 0.943054, 0.841813, 0.842011, 0.838054, 0.829476, 0.828293, 0.804201, 0.806117, 0.800936, 0.8852, 0.858236, 0.862795, 0.843732, 0.846289, 0.853003, 0.852669, 0.85225, 0.852194, 0.85425, 0.855866, 0.86252, 0.863323
0.745219, 0.772364, 0.537866, 0.545938, 0.70474, 0.981164, 0.562811, 0.548499, 0.548949, 0.551424, 0.557076, 0.558443, 0.557864, 0.559385, 0.558499, 0.55738, 0.557103, 0.561895, 0.563352, 0.563806, 0.56814, 0.57601, 0.576378, 0.575805, 1.02987, 0.596538, 0.596188, 0.77777, 0.708518, 0.687399, 0.653287, 0.655121, 0.703715, 1.00873, 0.850193, 0.811503, 0.97037, 0.882422, 0.691164, 0.690439, 0.701671, 0.685406, 0.747015, 0.765063, 0.919215, 0.960411, 0.970014, 1.01597, 1.01474, 1.10692, 1.13651, 1.13706, 1.14911, 1.15077, 1.16598, 1.14968, 1.14747, 1.14645, 1.17018, 1.17105, 1.19394, 1.21219, 1.22692, 1.24623, 1.29219, 1.29202, 1.35681, 1.36126, 1.35414, 1.33723, 1.36337, 1.32256, 1.31462, 1.3134, 1.31235, 1.35236, 1.36094, 1.35468, 1.37615, 1.4333, 1.43259, 1.37454, 1.35753, 1.35671, 1.35681, 1.34113, 1.35429, 1.32539, 1.32739, 1.31559, 1.30589, 1.30314, 1.3177, 1.27737, 1.31182, 1.29902, 1.28474, 1.31415, 1.30937, 1.14939, 1.14968, 1.16438, 1.05755, 1.05969, 1.02222, 0.955446, 0.955644, 0.922875, 0.902854, 0.888289, 0.915652, 0.881415, 0.882225, 0.902379, 0.853408, 0.912108, 0.915124, 1.02981, 0.880311, 0.883692, 0.873029, 0.876844, 0.878279, 0.883101, 1.02963, 0.855782, 0.855307, 0.849212, 0.843226, 0.842175, 0.840947, 0.834264, 0.83456, 0.83041, 0.824985, 1.00149, 0.817821, 0.826919, 0.831935, 0.857855, 0.845509, 0.847362, 0.849451, 0.850509, 0.852082, 0.852493, 0.852924, 0.854928, 0.859554, 0.861123
0.790392, 0.724945, 1.30321, 0.710866, 0.534777, 0.534193, 0.53347, 0.538623, 0.539468, 0.676653, 0.65204, 0.733039, 0.574199, 0.55651, 0.555656, 0.558138, 0.558456, 0.561239, 0.563991, 0.564332, 0.565943, 0.570129, 0.568164, 0.846321, 0.591067, 0.590106, 0.732026, 0.604428, 0.605761, 0.725936, 0.722214, 0.814724, 0.812798, 0.809428, 0.77086, 1.00821, 0.64273, 0.6643, 0.814061, 0.808204, 0.708273, 0.709887, 0.716406, 0.802408, 0.853072, 0.919022, 1.00321, 0.97085, 0.984517, 1.02264, 1.05503, 1.07894, 1.1274, 1.14098, 1.12591, 1.13639, 1.12381, 1.13743, 1.19113, 1.1884, 1.16488, 1.16367, 1.2016, 1.22322, 1.24508, 1.25277, 1.31243, 1.31755, 1.47272, 1.33052, 1.33866, 1.326, 1.3006, 1.31371, 1.30368, 1.30344, 1.35642, 1.34314, 1.3425, 1.41858, 1.3826, 1.3442, 1.41917, 1.39046, 1.34693, 1.33683, 1.32091, 1.32164, 1.48487, 1.43647, 1.24883, 1.24959, 1.27068, 1.29907, 1.29851, 1.26453, 1.21507, 1.21682, 1.20201, 1.20554, 1.16478, 1.14471, 1.08377, 1.0596, 0.979274, 0.962808, 0.938491, 1.01421, 0.896885, 0.85035, 0.855625, 0.891237, 0.893887, 0.865445, 0.848283, 0.908586, 0.838993, 0.844068, 0.880574, 0.877343, 0.877253, 0.963575, 1.06352, 0.893946, 0.901386, 0.855569, 0.851382, 0.850631, 0.848026, 0.842883, 0.842374, 0.836774, 0.832896, 0.822078, 0.820945, 0.856807, 0.832735, 0.831123, 0.832453, 0.835213, 0.843318, 0.843459, 0.844453, 0.846676, 0.847293, 0.847751, 0.851261, 0.853175, 0.853646, 0.854905
0.513196, 0.514447, 0.51934, 0.519877, 0.524355, 0.524241, 0.532378, 0.539089, 0.540285, 0.543238, 0.545562, 0.544132, 0.573541, 0.550549, 0.548803, 0.548727, 0.549584, 0.556263, 0.561451, 0.562941, 0.569336, 0.569246, 0.568462, 0.740177, 0.589076, 0.71837, 0.604416, 0.605538, 0.604975, 0.602419, 0.600674, 0.600424, 0.608075, 0.759671, 0.61499, 0.614032, 0.642656, 0.787723, 0.787787, 0.782314, 0.698733, 0.70886, 0.715192, 0.800964, 0.895887, 0.94072, 0.953063, 0.946479, 1.01304, 0.985532, 0.991807, 1.03342, 1.07093, 1.07392, 1.13988, 1.10792, 1.15521, 1.13264, 1.14138, 1.22934, 1.14917, 1.20743, 1.25295, 1.19809, 1.2573, 1.28131, 1.27812, 1.30671, 1.32863, 1.33904, 1.31193, 1.31751, 1.30124, 1.31742, 1.31816, 1.31035, 1.37572, 1.34935, 1.33706, 1.34633, 1.34638, 1.34788, 1.3445, 1.41341, 1.34084, 1.34028, 1.34477, 1.39232, 1.37179, 1.36735, 1.31403, 1.24911, 1.24934, 1.29883, 1.23164, 1.19499, 1.17491, 1.17037, 1.17062, 1.13378, 1.10744, 1.05845, 1.07429, 1.05454, 1.00788, 0.950939, 0.895647, 0.949002, 0.873216, 0.926206, 0.85314, 0.859403, 0.845687, 0.854258, 0.865463, 0.867408, 0.87046, 0.873493, 0.872435, 0.873615, 0.942626, 0.90912, 0.970345, 0.975926, 0.984326, 0.871641, 0.852318, 0.852354, 0.846644, 0.838232, 0.834603, 0.834779, 0.835465, 0.821187, 0.820549, 0.832693, 0.834925, 0.833948, 0.836027, 0.83317, 0.835029, 0.832976, 0.843475, 0.845089, 0.844572, 0.845854, 0.851821, 0.863699, 0.848921, 0.929885
0.513997, 0.514107, 0.553223, 0.52102, 0.524011, 0.524425, 0.53082, 0.540496, 0.53971, 0.538533, 0.543865, 0.544515, 0.537642, 0.548369, 0.54695, 0.545711, 0.54869, 0.55129, 0.560141, 0.561168, 0.569387, 0.57047, 0.574244, 0.57606, 0.60902, 0.602412, 0.608559, 0.609158, 0.607986, 0.603256, 0.602286, 0.601817, 0.603954, 1.10593, 0.906608, 0.943647, 0.763815, 0.790177, 0.644334, 0.64392, 0.79009, 0.873735, 0.749186, 0.74995, 0.801285, 0.917297, 0.944411, 0.959195, 0.959362, 0.973575, 0.984471, 1.01211, 1.04041, 1.08045, 1.06699, 1.08299, 1.09963, 1.13093, 1.1157, 1.14611, 1.19933, 1.20632, 1.24584, 1.19466, 1.27575, 1.26886, 1.25086, 1.23262, 1.26482, 1.32784, 1.29993, 1.27939, 1.27696, 1.36149, 1.32938, 1.31221, 1.36039, 1.35019, 1.34671, 1.34699, 1.36754, 1.43299, 1.38123, 1.41168, 1.34989, 1.38215, 1.38045, 1.37065, 1.47588, 1.35912, 1.32767, 1.3096, 1.2533, 1.26919, 1.25133, 1.17964, 1.15754, 1.14103, 1.09515, 1.09772, 1.05058, 1.04059, 1.01249, 0.964287, 0.934337, 0.960714, 0.906317, 0.892506, 0.860727, 0.906726, 0.902948, 0.856273, 0.84382, 0.843197, 0.862571, 0.862887, 0.861811, 0.87129, 0.871251, 1.00469, 0.907926, 0.909937, 1.05957, 0.925458, 0.873645, 0.852699, 0.852704, 0.842671, 0.992107, 0.830931, 0.835729, 0.834961, 0.834554, 0.829037, 0.830215, 0.832368, 0.834169, 0.839533, 0.840288, 0.83947, 0.8392, 0.832596, 0.834045, 0.834365, 0.835275, 0.857404, 0.858304, 0.863426, 0.863235, 0.927964
1.12173, 0.925386, 0.91889, 0.519976, 0.520753, 0.924023, 0.522891, 0.529524, 0.528631, 0.539194, 0.538535, 0.534859, 0.538056, 0.542237, 0.546959, 0.548464, 0.548669, 0.549498, 0.558531, 0.557511, 0.593161, 0.881018, 0.571188, 0.576173, 0.950008, 0.987655, 0.608739, 0.607893, 0.604857, 0.604624, 0.604071, 0.603655, 0.603487, 0.598668, 0.604185, 0.943569, 0.944394, 0.784157, 0.635809, 0.635569, 0.78666, 0.802799, 0.810434, 0.809139, 0.818534, 0.946028, 0.999251, 1.02506, 1.02563, 0.987748, 0.977393, 1.06485, 1.03353, 1.05964, 1.05271, 1.05618, 1.10962, 1.10801, 1.10543, 1.12605, 1.20142, 1.22285, 1.24343, 1.2465, 1.43782, 1.37588, 1.27385, 1.30197, 1.24175, 1.24148, 1.27033, 1.29716, 1.29167, 1.28228, 1.30514, 1.32699, 1.28926, 1.28837, 1.30908, 1.31904, 1.31875, 1.32687, 1.30194, 1.34073, 1.33312, 1.34682, 1.36543, 1.32274, 1.45627, 1.27908, 1.28074, 1.24634, 1.24736, 1.27741, 1.20584, 1.15328, 1.18172, 1.12978, 1.06996, 1.04206, 1.02184, 1.02202, 1.02184, 0.980742, 0.95789, 0.983685, 0.885646, 0.886254, 0.906001, 0.92303, 0.857377, 0.860006, 0.86276, 0.839259, 0.83866, 0.83553, 0.925112, 0.871239, 0.931981, 0.905742, 0.907396, 0.893558, 1.0809, 0.925735, 0.923994, 0.852621, 0.842622, 0.842586, 0.835262, 0.831858, 0.828437, 0.826354, 0.995023, 0.827534, 0.827557, 0.820327, 0.821486, 0.83822, 0.839433, 0.838338, 0.8378, 0.838079, 0.836795, 0.835752, 0.835365, 0.836903, 0.836694, 0.865752, 0.864782, 0.86652
0.503452, 0.501495, 0.510887, 0.520667, 0.52084, 0.517725, 0.523269, 0.528858, 0.54001, 0.737818, 0.55507, 0.556038, 0.555982, 0.555141, 0.55523, 0.555225, 0.548636, 0.559099, 0.558595, 0.60691, 0.555341, 0.555793, 1.38413, 0.561179, 0.560384, 0.980191, 0.680841, 0.603519, 0.60407, 0.604732, 0.603727, 0.600954, 0.782119, 0.599256, 0.593718, 0.846802, 0.866717, 0.787351, 0.63548, 0.79217, 0.790912, 0.770846, 0.774681, 0.767577, 0.783009, 0.799076, 0.939321, 0.964353, 0.95958, 1.02538, 0.972105, 0.973345, 0.99542, 1.00458, 1.05754, 1.05625, 1.11771, 1.10412, 1.09728, 1.09599, 1.16716, 1.20065, 1.2366, 1.23682, 1.4717, 1.47867, 1.24633, 1.20424, 1.20442, 1.20856, 1.29472, 1.26231, 1.28067, 1.2962, 1.28528, 1.29639, 1.36599, 1.2667, 1.32582, 1.35016, 1.29287, 1.29274, 1.30668, 1.31035, 1.30175, 1.31941, 1.31301, 1.2933, 1.28855, 1.26186, 1.26064, 1.23975, 1.24666, 1.17313, 1.19255, 1.15312, 1.15651, 1.14314, 1.09588, 1.03716, 1.05623, 1.05635, 1.00856, 0.970299, 0.932093, 0.931999, 0.888208, 0.895192, 0.883801, 0.853103, 0.852203, 0.840063, 0.839229, 0.841354, 0.847603, 0.845244, 0.847092, 0.865181, 0.876813, 0.876387, 0.949884, 0.964328, 0.928941, 0.862258, 0.862037, 0.841242, 0.839995, 0.835124, 0.887732, 0.821721, 0.822659, 0.823535, 0.819687, 0.82478, 0.819937, 0.821117, 0.823829, 0.827198, 0.835852, 0.836101, 0.837069, 0.839588, 0.837329, 0.838319, 0.840008, 0.841697, 0.834739, 0.860111, 0.860978, 0.832964
0.656945, 0.507995, 0.511166, 0.510324, 0.509506, 0.518026, 0.516171, 0.55974, 0.540969, 0.956914, 0.553724, 0.554461, 0.55813, 0.556585, 0.557052, 0.556995, 0.556894, 0.557858, 0.558453, 0.557398, 0.554068, 0.573882, 0.915587, 0.560382, 1.0805, 0.566866, 0.636758, 0.940237, 1.021, 0.999098, 0.599953, 0.588429, 0.587675, 0.587643, 0.593673, 1.17475, 0.613506, 0.612452, 0.610325, 0.792999, 0.788386, 0.794893, 0.738419, 0.742666, 0.779583, 0.820509, 0.93366, 0.967984, 1.06737, 1.00754, 0.954403, 0.966895, 0.974203, 1.01061, 1.03561, 1.05999, 1.10823, 1.11189, 1.15174, 1.11184, 1.13775, 1.30604, 1.25311, 1.1814, 1.19479, 1.24892, 1.24938, 1.20797, 1.20215, 1.20396, 1.20102, 1.23362, 1.34092, 1.26457, 1.26329, 1.2694, 1.23295, 1.25687, 1.30246, 1.31819, 1.31841, 1.35721, 1.28201, 1.27739, 1.27778, 1.27065, 1.26847, 1.28495, 1.22646, 1.22394, 1.21278, 1.20585, 1.19447, 1.19855, 1.16823, 1.13419, 1.14734, 1.10145, 1.15759, 1.04937, 1.0495, 1.06523, 1.01112, 0.971368, 0.927267, 0.907637, 0.87562, 0.883775, 0.982353, 0.905042, 0.913993, 0.840322, 0.816029, 0.831516, 0.83622, 0.849708, 0.861617, 0.858253, 0.954494, 1.10882, 0.932365, 0.931987, 0.877086, 0.861846, 0.90333, 0.903111, 0.834855, 0.835465, 0.832886, 1.10292, 1.08927, 0.82573, 0.817743, 0.817923, 0.816222, 0.819905, 0.826936, 0.828616, 0.829409, 0.83107, 0.828822, 0.831918, 0.834616, 0.837301, 0.839029, 0.840766, 0.83235, 0.823988, 0.824357, 1.06883
0.514959, 0.51522, 0.513837, 0.511039, 0.510447, 0.510508, 0.513576, 1.05218, 0.560388, 0.947772, 0.552342, 0.557146, 0.557029, 0.554464, 0.555275, 0.555601, 0.555405, 0.556073, 0.554977, 0.704253, 0.708321, 0.544923, 0.543685, 0.552421, 0.850658, 0.568088, 0.567314, 0.870443, 1.07556, 0.84639, 0.795223, 0.588522, 0.588433, 0.589972, 0.590502, 0.798184, 0.880249, 0.770001, 0.792658, 0.790227, 0.711163, 0.705351, 0.800137, 0.802489, 0.785178, 0.855927, 0.923145, 0.9121, 0.998581, 0.939961, 0.937533, 0.981175, 0.974527, 0.973949, 1.00292, 1.04332, 1.02557, 1.08412, 1.12546, 1.15146, 1.15818, 1.08044, 1.27045, 1.15715, 1.17843, 1.23859, 1.25292, 1.25426, 1.19456, 1.19543, 1.20627, 1.23283, 1.21497, 1.2566, 1.27972, 1.27965, 1.24801, 1.2316, 1.29386, 1.27725, 1.24933, 1.24821, 1.3494, 1.26875, 1.27153, 1.24801, 1.22201, 1.26035, 1.20294, 1.18771, 1.21956, 1.19211, 1.16331, 1.14721, 1.17073, 1.12677, 1.13676, 1.11342, 1.13358, 1.12994, 1.0982, 1.04278, 0.960366, 0.959146, 0.959507, 0.905349, 0.877694, 0.861434, 0.905898, 0.9187, 0.854095, 0.873191, 0.878688, 0.83845, 0.825177, 0.846136, 0.85929, 0.853262, 0.837332, 0.845852, 1.10966, 0.896175, 0.979602, 0.94158, 1.03427, 0.882302, 0.888187, 0.831275, 0.825701, 0.823899, 1.08884, 1.0778, 1.06729, 0.814263, 0.814561, 0.81459, 0.815843, 0.826991, 0.828335, 0.829078, 0.827948, 0.827992, 0.829382, 0.825891, 0.832986, 0.831764, 1.32322, 0.823727, 0.824687, 0.826687
0.532725, 0.514751, 0.517781, 0.516009, 0.511651, 0.506805, 0.506145, 0.509168, 0.645417, 0.782182, 0.911055, 0.777188, 0.759452, 0.719495, 0.824984, 0.545748, 0.543886, 0.600593, 0.852226, 0.849475, 0.690178, 0.549824, 0.608325, 0.784454, 0.818149, 0.555256, 0.557736, 0.562733, 0.562323, 0.572551, 0.800424, 0.793411, 0.589459, 0.589135, 0.797276, 0.625009, 0.863559, 0.767729, 0.766312, 0.945975, 0.748495, 0.808443, 0.778159, 0.748958, 0.760987, 0.846266, 0.845794, 0.932669, 0.918723, 0.930681, 0.921386, 0.952696, 0.95294, 0.982178, 0.986044, 0.99135, 1.01679, 1.03502, 1.11252, 1.11597, 1.07811, 1.09161, 1.07032, 1.17364, 1.16701, 1.22378, 1.20176, 1.22171, 1.23261, 1.24096, 1.20786, 1.20729, 1.24432, 1.24135, 1.42026, 1.23307, 1.26648, 1.27444, 1.30621, 1.26384, 1.25309, 1.24969, 1.32644, 1.33216, 1.27437, 1.2374, 1.23429, 1.21302, 1.2039, 1.17393, 1.17547, 1.18522, 1.16039, 1.23672, 1.13755, 1.07431, 1.13339, 1.11613, 1.10675, 1.11609, 1.11639, 0.984896, 0.960887, 0.941995, 0.919862, 0.892862, 0.86892, 0.878206, 0.881027, 0.84055, 0.838521, 0.826534, 0.822273, 0.844132, 0.826584, 0.854014, 0.851925, 0.85046, 0.842483, 1.10795, 1.10988, 1.05859, 1.02413, 0.922287, 0.922745, 1.19211, 0.856655, 1.01158, 0.83802, 0.815139, 0.815379, 0.807353, 0.807057, 0.810599, 0.811852, 0.817095, 0.817544, 0.880737, 0.827083, 0.828553, 0.828294, 0.826952, 0.825796, 0.822301, 0.831652, 0.831398, 0.826386, 0.823537, 0.822197, 0.822479
0.52495, 0.522557, 0.521299, 0.516385, 0.512047, 0.507027, 0.51411, 0.513343, 0.52109, 0.520523, 0.518311, 0.519074, 0.753766, 0.649777, 0.525599, 0.542334, 0.716865, 0.717428, 0.697633, 0.861616, 0.859505, 0.55012, 0.550694, 0.830033, 0.555337, 0.745986, 0.557475, 0.562344, 0.570843, 0.57151, 0.571703, 0.577574, 0.581633, 0.749534, 0.795073, 0.794171, 0.745916, 0.777751, 0.756797, 0.866065, 0.792194, 0.774361, 0.783743, 0.774378, 0.767714, 0.78816, 0.790033, 0.86408, 0.895865, 0.921693, 0.913684, 0.910267, 0.93271, 1.00917, 0.950385, 0.986963, 1.03146, 1.01656, 1.01136, 1.12234, 1.07071, 1.04298, 1.05523, 1.11529, 1.14188, 1.21846, 1.21305, 1.24786, 1.18088, 1.33277, 1.2158, 1.25309, 1.24729, 1.21521, 1.171, 1.2364, 1.23609, 1.28345, 1.22829, 1.25719, 1.2578, 1.23749, 1.21572, 1.28242, 1.24444, 1.22653, 1.25318, 1.2529, 1.20021, 1.16677, 1.17681, 1.17584, 1.17544, 1.23676, 1.0582, 1.03653, 1.07022, 1.04425, 1.03223, 1.00032, 0.992451, 0.956006, 0.956077, 0.929468, 0.921542, 0.948462, 0.887314, 0.860706, 0.887586, 0.846659, 0.892018, 0.842221, 0.89981, 0.88222, 0.88173, 0.85545, 0.844675, 0.842219, 1.00107, 0.867483, 1.03977, 1.02661, 1.03007, 0.922003, 0.922469, 0.984636, 0.987157, 0.840692, 0.839922, 0.830979, 0.813366, 0.805238, 0.80425, 0.810761, 0.812586, 0.817683, 0.815491, 0.81974, 0.825042, 0.826394, 0.827315, 0.828291, 0.828464, 0.828536, 0.82828, 0.828554, 0.827282, 0.828216, 0.821966, 0.821975
0.525561, 0.523348, 0.522621, 0.532188, 0.76722, 0.769745, 0.836162, 0.746698, 0.526306, 0.522039, 0.518453, 0.519346, 0.515882, 0.52144, 0.522773, 0.677578, 0.714603, 1.04084, 0.997904, 0.701356, 0.697697, 0.772393, 0.765836, 0.598201, 0.550735, 0.825003, 0.82523, 0.82495, 0.566865, 0.57262, 0.579787, 0.579957, 0.579483, 0.585429, 0.785207, 0.886725, 0.908162, 0.639151, 0.638448, 0.692783, 0.873349, 0.788276, 0.88914, 0.672139, 0.672517, 0.6835, 0.726389, 0.875135, 0.837107, 0.867005, 0.955858, 0.908625, 0.911619, 0.940457, 0.960026, 0.970926, 0.975916, 1.02221, 1.01677, 1.09512, 1.07452, 1.00785, 1.00837, 1.06007, 1.1196, 1.15823, 1.21057, 1.21185, 1.22349, 1.17468, 1.16325, 1.21241, 1.20134, 1.20003, 1.22975, 1.16535, 1.2501, 1.2535, 1.22301, 1.21365, 1.22553, 1.17944, 1.207, 1.19157, 1.20238, 1.20138, 1.17559, 1.21185, 1.19829, 1.1609, 1.16269, 1.16643, 1.09787, 1.06163, 1.0547, 1.04263, 1.03023, 1.00516, 1.04388, 1.06377, 0.966979, 0.953162, 0.94171, 0.915869, 0.912351, 0.886964, 0.90455, 0.929896, 0.845146, 0.840763, 0.841062, 0.877355, 0.808053, 0.839795, 0.855356, 0.852895, 0.838928, 0.838478, 0.868025, 0.869609, 0.863421, 0.864577, 0.00379916, 1.02212, 0.911043, 0.918361, 0.897307, 1.09487, 0.839793, 0.874764, 0.867332, 0.795424, 0.797087, 0.801477, 0.8099, 0.815115, 0.816059, 0.823378, 0.824848, 0.826135, 0.8276, 0.831782, 0.831775, 0.82666, 0.826448, 0.823185, 0.824468, 0.820674, 0.821223, 0.821462
0.538971, 0.541074, 0.538968, 0.537965, 0.534147, 0.531031, 0.885146, 1.05498, 0.751871, 0.752491, 0.534954, 0.53209, 0.530935, 0.522864, 0.521242, 0.518323, 0.720725, 0.509361, 0.510039, 0.508062, 0.505722, 1.04618, 1.05039, 1.04922, 1.31284, 0.743444, 0.65674, 0.86461, 0.823696, 0.776591, 1.46451, 0.583772, 0.587925, 0.767582, 0.749847, 0.624462, 0.623548, 1.00877, 0.978093, 0.977685, 0.00398418, 0.957027, 0.701206, 0.672398, 0.670578, 0.666346, 0.709731, 0.756961, 0.87509, 0.861025, 0.939729, 0.929745, 1.03264, 0.965339, 1.07987, 0.967536, 0.987148, 0.99869, 1.00518, 0.998443, 1.01865, 1.0167, 1.11706, 1.07101, 1.04827, 1.11626, 1.12298, 1.1285, 1.20042, 1.20588, 1.14605, 1.15083, 1.32397, 1.19564, 1.19575, 1.15625, 1.15755, 1.23335, 1.22745, 1.22664, 1.23345, 1.23689, 1.14968, 1.19565, 1.20595, 1.20405, 1.19823, 1.17061, 1.17753, 1.28817, 1.07618, 1.06376, 1.08478, 1.0691, 1.02058, 1.02879, 1.01894, 0.989387, 0.98451, 0.972657, 0.946561, 0.914451, 0.903097, 0.904112, 0.898859, 0.928856, 0.917021, 0.891621, 0.844845, 0.906087, 0.843063, 0.828529, 0.834281, 0.870363, 0.852235, 0.852644, 0.930491, 0.878406, 0.869824, 0.865757, 0.866388, 0.86852, 0.942746, 0.9078, 0.901928, 0.860468, 0.873582, 0.841318, 0.874057, 0.949458, 0.862206, 0.877025, 0.799328, 0.800585, 0.809904, 0.812518, 0.832802, 0.825133, 0.826469, 0.826198, 0.831074, 0.830035, 0.828445, 0.82805, 0.828193, 0.8244, 0.819713, 0.812109, 0.813164, 1.1997
0.538372, 0.541897, 0.541182, 0.541088, 0.542877, 0.541362, 0.5413, 0.540473, 0.539331, 0.538087, 0.536393, 0.534414, 0.5334, 0.524834, 0.524311, 0.520685, 0.510687, 0.510428, 0.511889, 0.508113, 0.505896, 1.0722, 0.589066, 0.977006, 0.950063, 0.763679, 0.557906, 1.0077, 0.968576, 0.777711, 0.584156, 0.587634, 0.587334, 0.58698, 0.814941, 0.710966, 0.00420929, 0.954626, 0.959746, 0.683609, 0.721618, 0.719997, 0.711446, 0.658612, 0.65834, 0.659742, 0.710919, 0.705432, 0.720829, 0.848819, 0.864712, 0.889965, 0.935331, 0.966298, 0.972515, 0.965278, 0.973239, 0.961345, 0.966232, 0.984771, 0.975547, 0.976851, 0.943774, 0.970324, 1.00391, 1.0101, 1.10698, 1.12323, 1.12834, 1.15052, 1.10911, 1.12827, 1.09578, 1.13439, 1.19179, 1.21763, 1.12949, 1.2313, 1.23415, 1.24034, 1.23807, 1.39834, 1.11674, 1.10101, 1.1018, 1.17457, 1.16768, 1.1682, 1.17369, 1.09481, 1.09114, 1.02984, 1.02352, 0.984872, 1.05312, 0.986969, 1.03169, 1.02059, 0.962127, 0.942001, 0.89526, 0.895568, 0.910382, 0.90205, 0.913962, 0.923884, 0.899561, 0.90003, 0.865798, 0.883601, 0.889847, 0.846493, 0.850985, 0.860711, 0.928064, 0.901427, 0.877399, 0.878083, 0.87887, 0.87342, 0.867794, 0.860424, 0.841188, 0.839829, 0.839009, 0.829451, 1.0195, 0.946409, 0.908535, 0.901219, 0.819963, 0.818263, 0.81228, 0.800089, 0.804367, 0.814344, 0.815696, 0.825892, 0.827229, 0.829176, 0.864533, 0.82741, 0.827883, 0.829146, 0.831129, 0.828209, 0.825601, 0.81663, 0.928715, 1.19882
0.538528, 0.540486, 0.540046, 0.542842, 0.542508, 0.542242, 0.542049, 0.541436, 0.540376, 0.529607, 0.537831, 0.536942, 0.535928, 0.525998, 0.525389, 0.523723, 0.919251, 0.511113, 0.510681, 0.500041, 0.500667, 0.808829, 0.517535, 0.991552, 0.833178, 1.04791, 1.00874, 0.690566, 0.669918, 0.697176, 0.74687, 1.11591, 0.586811, 0.587057, 0.665689, 0.709265, 0.621283, 0.621356, 0.937625, 0.72023, 0.731839, 0.713224, 0.651673, 0.65186, 0.660389, 0.659425, 0.752636, 0.664489, 0.717704, 0.802809, 0.849629, 0.850304, 0.868375, 0.877897, 0.881953, 0.956204, 0.938344, 0.938658, 1.02178, 0.988246, 0.950168, 0.938074, 0.938455, 0.939244, 0.975682, 0.977571, 1.02618, 1.0406, 1.11068, 1.16323, 1.10904, 1.08204, 1.08089, 1.13048, 1.13631, 1.09384, 1.08719, 1.08936, 1.09379, 1.22342, 1.25412, 1.12039, 1.11662, 1.11069, 1.16602, 1.21267, 1.19563, 1.11261, 1.11236, 1.08101, 1.01507, 1.00226, 1.00354, 0.963695, 0.969407, 0.981465, 0.953206, 0.963984, 0.940553, 0.928109, 0.89819, 0.970856, 0.973591, 0.891297, 0.876932, 0.880875, 0.859942, 0.851373, 0.853817, 0.869573, 0.890725, 0.848952, 0.849206, 0.863377, 0.864228, 0.873898, 0.881108, 0.882337, 0.880631, 0.874507, 0.877598, 0.860498, 0.830027, 0.8277, 0.925073, 1.12397, 1.01351, 0.815719, 0.926617, 0.925478, 0.99445, 0.812867, 0.813958, 0.813204, 0.801204, 0.808782, 0.811228, 0.821387, 0.821335, 0.824172, 0.824836, 0.827557, 0.830889, 0.827352, 0.828443, 0.825633, 0.824944, 0.817466, 0.820248, 1.21687
0.548489, 0.537971, 0.845562, 0.657325, 0.536684, 0.538091, 0.531425, 0.531372, 0.531787, 0.531432, 0.53573, 0.536648, 0.53931, 0.537954, 0.531656, 0.524191, 0.521534, 0.519578, 0.500398, 0.500885, 0.500895, 0.577094, 0.871473, 0.985188, 0.939045, 0.908628, 0.792054, 0.820267, 0.549679, 0.550381, 0.805174, 0.571628, 0.572409, 0.573885, 0.677786, 0.825193, 0.811707, 0.698941, 0.70124, 0.69457, 0.866754, 0.897203, 0.653581, 0.652251, 0.65414, 0.649497, 0.659871, 0.653497, 0.755426, 0.758927, 0.853788, 0.853822, 0.857173, 0.877522, 0.878146, 0.88907, 0.888142, 0.905042, 0.909254, 0.929177, 0.923098, 0.935354, 0.941694, 0.956069, 0.959881, 0.949738, 1.02776, 0.999381, 1.01503, 1.09628, 1.09779, 1.07444, 1.05189, 1.03339, 1.04293, 1.08032, 1.11536, 1.08222, 1.08098, 1.11324, 1.07778, 1.06288, 1.06655, 1.09524, 1.09608, 1.22967, 1.1232, 1.1092, 1.04654, 1.06798, 1.00696, 0.973205, 0.992945, 0.95618, 0.957351, 0.958193, 0.943573, 0.919832, 0.918447, 0.922113, 0.880305, 0.877261, 0.890199, 0.864299, 0.858382, 0.848569, 0.939885, 0.847746, 0.848668, 0.84925, 0.911364, 0.85211, 0.879805, 0.946061, 0.95426, 0.904245, 0.873354, 1.06808, 0.9961, 0.844719, 0.842869, 0.830097, 1.1507, 0.808849, 0.814117, 1.1406, 1.2451, 0.908501, 0.795148, 1.2014, 0.795874, 0.808714, 0.812652, 0.813386, 0.794267, 0.795695, 0.807738, 0.810906, 1.20132, 0.827948, 0.82357, 0.826648, 0.83087, 0.830404, 0.827918, 0.824017, 0.813775, 0.815524, 0.819951, 0.825842
0.866605, 0.865933, 0.633315, 0.846826, 0.523877, 0.523062, 0.530375, 0.531794, 0.531727, 0.531765, 0.53277, 0.539311, 0.539146, 0.53773, 0.53353, 0.530894, 0.529137, 0.515577, 0.514986, 0.508696, 0.507709, 0.677154, 0.913419, 1.03636, 0.898694, 0.537588, 0.538156, 0.537827, 0.551376, 0.550791, 0.808687, 0.570526, 0.570866, 0.573223, 0.613723, 0.823492, 0.663986, 0.684511, 0.970676, 1.0306, 0.94186, 0.650175, 0.651133, 0.651442, 0.652452, 0.652114, 0.635022, 0.634898, 0.718629, 0.726418, 0.739708, 0.745608, 0.85757, 0.856956, 0.884502, 0.924483, 0.945803, 0.87892, 0.875616, 0.908272, 0.939904, 0.981318, 0.961402, 0.950369, 0.951884, 0.953851, 0.970101, 0.994966, 1.04229, 1.05437, 1.02283, 1.01543, 1.06273, 1.0436, 1.02966, 1.08965, 1.30671, 1.23255, 1.07058, 1.07836, 1.02861, 1.02362, 1.05345, 1.06519, 1.0658, 1.06654, 1.08306, 1.03338, 1.1474, 1.03749, 1.00608, 0.977184, 0.962467, 0.957756, 0.960933, 1.05379, 0.954928, 0.954256, 0.909181, 0.864331, 0.857363, 0.87038, 0.845098, 0.857035, 0.82875, 0.881816, 0.842062, 0.843824, 0.848423, 0.948241, 0.875342, 0.912996, 0.870596, 0.856837, 0.856096, 0.857305, 0.885219, 0.971894, 0.97292, 1.01602, 0.807033, 0.843513, 0.802141, 0.799855, 0.799121, 0.797004, 0.792845, 1.10151, 1.20308, 1.20293, 0.886023, 0.90264, 0.810798, 0.807191, 0.800334, 0.797676, 0.800058, 0.811382, 0.812026, 0.828298, 0.831588, 0.832121, 0.823456, 0.823617, 0.812405, 0.814119, 0.814787, 0.816293, 0.818151, 0.822947
0.499302, 0.505809, 0.50675, 0.519882, 0.519456, 0.522388, 0.53118, 0.531154, 0.528621, 0.528373, 0.518358, 1.00155, 0.524449, 0.523625, 0.519702, 0.518986, 0.517676, 0.516439, 0.515921, 0.513771, 0.512116, 0.791096, 0.520442, 0.526076, 0.526811, 0.535825, 0.540071, 0.538513, 0.576056, 0.64248, 0.565492, 0.569427, 0.571193, 0.832415, 0.641587, 0.650254, 1.0738, 0.635686, 0.616925, 0.773844, 0.832365, 0.698376, 0.653088, 0.649326, 0.65324, 0.837801, 0.635778, 0.635478, 0.652931, 0.687846, 0.71385, 0.695263, 0.741323, 0.77656, 0.843273, 0.862949, 0.862068, 0.860218, 0.874958, 0.884205, 0.891116, 0.918861, 0.945488, 0.993961, 0.940651, 0.951237, 0.952424, 1.06461, 0.999456, 0.987653, 0.987845, 1.02627, 0.998358, 0.992123, 0.983357, 0.98387, 1.02919, 0.99032, 1.03397, 0.984342, 0.986537, 1.01117, 1.00874, 1.03951, 1.13386, 1.04621, 1.03289, 1.07326, 1.03194, 1.01215, 0.978755, 0.947118, 0.947388, 0.939818, 0.942959, 1.04973, 0.975559, 0.891313, 0.876243, 0.875195, 0.863225, 0.815673, 0.816519, 0.821722, 0.819373, 0.824726, 0.943802, 0.83563, 0.844445, 0.841139, 0.902271, 0.950269, 0.857995, 0.857947, 0.858137, 0.857447, 0.852188, 0.864785, 1.11479, 0.788735, 0.787981, 0.796751, 0.805148, 0.806925, 0.791671, 0.791513, 0.785973, 0.785546, 0.776904, 0.772972, 0.775967, 0.793447, 0.860147, 0.805827, 0.803682, 0.798421, 0.802676, 0.805982, 0.814799, 0.814175, 0.815156, 0.817594, 0.820283, 0.821359, 0.817481, 0.812758, 0.817602, 0.821099, 0.819402, 0.82507
0.501166, 0.504486, 0.503962, 0.504931, 0.647452, 0.654615, 0.522499, 0.523802, 0.523521, 0.521812, 0.520632, 0.524951, 0.525174, 0.524578, 0.52358, 0.518785, 0.517755, 0.514593, 0.514052, 0.512911, 0.512754, 0.524023, 0.52339, 0.524256, 0.521876, 0.519338, 0.538177, 0.590126, 0.552615, 0.557161, 0.829787, 0.634999, 0.581019, 0.633655, 0.648593, 0.757605, 0.747155, 0.613, 0.614008, 0.614463, 0.613867, 0.636163, 0.634247, 0.852967, 0.621659, 0.62201, 0.624959, 0.625036, 0.638602, 0.638351, 0.655437, 0.651026, 0.693831, 0.780504, 0.799375, 0.863195, 0.862577, 0.871697, 0.927902, 0.901931, 0.879589, 0.896655, 0.928448, 0.922781, 0.921222, 0.95094, 1.01147, 0.95436, 0.943812, 0.992939, 1.01573, 0.978887, 0.970215, 1.0202, 0.987728, 0.985063, 1.00574, 1.01977, 0.960231, 0.977577, 0.949733, 0.949675, 1.13427, 1.03216, 1.03224, 1.12219, 1.04776, 0.966895, 0.965021, 0.988488, 0.978396, 0.948877, 0.974575, 0.930468, 0.91565, 0.891863, 0.878844, 0.864237, 0.873838, 0.853502, 0.848743, 0.826371, 0.816807, 0.811751, 0.810196, 0.849086, 0.801268, 0.904121, 0.902715, 0.852303, 0.85228, 0.925962, 0.858554, 0.856285, 0.856837, 0.876997, 0.839752, 0.832361, 0.908197, 0.790141, 0.790481, 0.796635, 0.804662, 0.796682, 0.794219, 0.781617, 0.785261, 0.787189, 0.786858, 0.778857, 0.779528, 0.790595, 1.06799, 0.799432, 0.80374, 0.805656, 0.806974, 0.807979, 0.808135, 0.810962, 0.809078, 0.806196, 0.807095, 0.815436, 0.815793, 0.814506, 0.817709, 0.819229, 0.822577, 0.827674
0.501391, 0.506059, 0.505475, 0.711347, 0.613482, 0.527868, 0.528372, 0.527535, 0.528605, 0.527586, 0.530251, 0.530001, 0.529826, 0.528939, 0.527466, 0.526969, 0.919468, 0.510802, 0.510933, 0.51075, 0.521896, 0.522504, 0.522552, 0.521746, 0.519196, 0.524565, 0.856573, 0.540442, 0.554177, 0.553593, 0.633224, 0.637857, 0.57725, 0.607747, 0.59699, 0.597695, 0.598536, 0.928039, 0.739378, 0.648696, 0.649033, 0.60665, 0.609947, 0.614727, 0.621947, 0.623689, 0.634541, 0.634495, 0.634731, 0.661283, 0.660602, 0.640056, 0.640983, 0.722052, 0.721192, 0.766368, 0.843041, 0.808192, 0.807449, 0.836933, 0.925875, 0.882446, 0.890683, 0.925112, 0.924669, 0.921781, 0.939667, 0.971837, 0.943473, 0.990758, 0.974347, 0.945977, 0.94652, 0.957644, 0.979249, 0.974829, 0.974101, 0.995089, 0.962457, 0.9536, 0.947148, 1.02212, 1.02544, 1.04368, 0.978107, 0.97225, 0.950247, 0.932712, 0.918785, 0.939161, 0.937222, 0.997886, 0.956236, 0.891349, 0.871641, 0.867338, 0.872815, 0.869858, 0.844245, 0.826608, 0.831968, 0.820061, 0.862951, 0.811235, 0.811647, 0.811217, 0.829519, 0.91645, 0.891783, 0.836307, 0.959322, 0.860023, 0.860221, 0.862777, 0.852143, 0.89825, 1.06337, 0.803896, 0.800795, 0.841867, 0.773874, 0.794373, 0.793764, 0.78844, 0.783065, 0.783144, 0.785101, 0.786821, 0.785506, 0.7874, 0.787841, 0.791479, 0.794945, 0.797627, 0.800338, 0.801004, 0.806151, 0.807623, 0.806828, 0.800299, 0.802066, 0.807465, 0.808276, 0.812738, 0.814446, 0.814971, 0.81751, 0.818285, 0.822303, 0.861512
0.502776, 0.511843, 0.513357, 0.519396, 0.521878, 0.524416, 0.52984, 0.530211, 0.528522, 0.523172, 0.528476, 0.530636, 0.532262, 0.530512, 0.527675, 0.526185, 0.545911, 0.49517, 0.494657, 0.00434553, 0.520909, 0.52119, 0.522984, 0.521092, 0.522786, 0.524598, 0.798734, 0.545233, 0.736254, 0.622984, 0.665635, 0.659746, 0.577803, 0.586435, 0.679782, 0.613774, 0.59821, 0.905919, 0.736714, 0.604251, 0.606848, 0.606955, 0.60675, 0.614068, 0.614163, 0.787301, 0.633815, 0.633023, 0.719719, 0.659433, 0.68343, 0.638608, 0.639926, 0.675971, 0.766127, 0.768038, 0.842883, 0.794602, 0.821088, 0.835788, 0.81905, 0.845154, 0.884912, 0.885244, 0.863885, 0.945618, 0.926387, 0.907706, 1.01088, 0.994757, 0.936913, 0.946832, 0.966434, 1.02521, 0.964033, 0.966167, 0.975073, 0.961292, 0.963722, 0.942033, 0.946943, 1.02362, 1.02831, 1.01742, 0.962049, 0.932464, 0.925897, 0.962615, 0.899208, 0.919565, 0.923261, 1.0137, 0.894007, 0.88087, 0.84395, 0.848898, 0.827031, 0.814799, 0.833169, 0.83761, 0.816498, 0.818217, 0.796537, 0.799695, 0.809601, 0.810641, 0.813935, 0.815563, 0.874643, 0.983587, 0.94448, 0.88729, 0.853089, 0.850469, 1.07321, 0.824491, 0.80956, 1.02539, 1.01091, 0.777749, 0.77674, 0.78122, 0.776241, 0.777154, 0.77948, 0.780983, 0.783429, 0.782574, 0.786921, 0.790925, 0.789141, 0.789797, 0.796023, 0.79736, 0.800376, 0.801934, 0.804226, 0.796071, 0.797044, 0.795413, 0.798445, 0.805395, 0.808332, 0.812408, 0.812809, 0.814663, 0.814095, 0.815779, 0.819236, 0.822142
0.507732, 0.513, 0.514792, 0.522387, 0.521898, 0.524538, 0.523401, 0.523546, 0.522555, 0.523973, 0.522274, 0.526433, 0.53472, 0.530756, 0.525672, 0.514922, 0.496474, 0.496961, 0.501865, 0.592651, 0.518438, 0.517927, 0.560834, 0.620522, 0.547005, 0.548138, 0.547569, 0.54708, 0.735688, 0.629049, 0.616615, 0.701733, 0.721357, 0.697682, 0.704104, 0.763105, 0.575892, 0.89974, 0.591697, 0.590862, 0.682976, 0.59912, 0.605914, 0.606252, 0.614598, 0.783034, 0.627833, 0.626396, 0.625343, 0.640667, 0.645861, 0.663386, 0.638894, 0.68755, 0.697704, 0.701973, 0.721691, 0.765535, 0.777009, 0.777058, 0.783125, 0.779758, 0.798337, 0.861193, 0.82679, 0.86111, 0.906973, 0.902378, 0.893748, 0.897881, 0.935705, 0.928204, 0.98634, 0.991694, 0.966385, 0.963637, 1.01201, 1.0007, 0.939067, 0.949334, 0.930176, 0.950957, 0.955614, 0.964281, 0.919523, 0.899759, 0.871871, 0.913042, 0.870378, 0.870944, 0.857312, 0.96513, 0.840931, 0.843075, 0.834125, 0.81287, 0.815085, 0.809035, 0.859157, 0.80715, 0.815168, 0.800738, 0.79495, 0.793997, 0.794384, 0.804589, 0.81515, 0.81746, 0.919082, 0.894398, 0.846273, 0.84946, 0.841768, 0.830022, 0.914659, 1.02593, 0.798112, 0.787169, 0.780977, 0.757892, 0.75941, 0.759368, 0.771167, 0.773975, 0.779008, 0.780065, 0.781805, 0.783063, 0.786436, 0.790817, 0.791514, 0.777587, 1.22529, 0.79367, 0.794982, 0.795254, 0.796584, 0.798871, 0.797144, 0.798131, 0.801325, 0.802054, 0.808249, 0.810962, 0.809993, 0.809469, 0.811849, 0.815635, 0.821025, 0.821653
0.508916, 0.508852, 0.519163, 0.519422, 0.520315, 0.521506, 0.521174, 0.524467, 0.524685, 0.52403, 0.524266, 0.526054, 0.52776, 0.526834, 0.549094, 1.13159, 0.503592, 0.50322, 0.502783, 0.517062, 0.52129, 0.519193, 0.518176, 0.548536, 0.548335, 0.549584, 0.548316, 0.536386, 0.538805, 0.58795, 0.733358, 0.963532, 0.746301, 0.743658, 0.697397, 0.649639, 0.626158, 0.628072, 0.590823, 0.590557, 0.597133, 0.597794, 0.59708, 0.608996, 0.617761, 0.617577, 0.623535, 0.624572, 0.635138, 0.645232, 0.644597, 0.638541, 0.640772, 0.618063, 0.69759, 0.714501, 0.691786, 0.758373, 0.717982, 0.745494, 0.746516, 0.790649, 0.777159, 0.805827, 0.774115, 0.837346, 0.814506, 0.860985, 0.881355, 0.8904, 0.850006, 0.865921, 1.03547, 0.952645, 0.983631, 0.97, 0.948061, 0.932541, 0.925501, 0.920649, 0.935256, 0.914919, 0.922297, 0.919928, 0.928953, 0.864152, 0.886423, 0.858843, 0.880855, 0.827331, 0.786851, 0.816443, 0.790518, 0.79077, 0.805068, 0.818617, 0.866929, 0.852679, 0.907718, 0.902463, 0.78537, 0.768251, 0.768141, 0.936504, 0.935214, 0.814559, 0.815511, 0.811177, 0.849638, 0.857131, 0.874387, 0.851844, 0.839263, 1.01375, 0.805718, 0.792942, 0.791562, 0.785053, 0.763418, 0.762576, 0.761429, 0.763288, 0.770651, 0.77132, 0.776322, 0.777685, 0.778162, 0.778899, 0.783805, 0.785822, 0.772282, 0.772894, 0.780686, 0.790638, 0.790829, 0.795569, 0.795951, 0.7947, 0.793839, 1.01288, 0.796729, 0.799849, 0.804517, 0.807616, 0.809979, 0.80961, 0.810956, 0.814511, 0.817264, 0.819629
0.512277, 0.513903, 0.519326, 0.518898, 0.521169, 0.521044, 0.521202, 0.523, 0.522016, 1.38075, 0.524515, 0.573891, 0.518228, 0.518136, 1.2624, 0.504678, 0.50435, 0.504268, 0.504342, 0.517922, 0.518506, 0.518167, 0.615302, 0.543419, 0.546059, 0.52985, 0.534375, 0.536568, 0.541391, 0.541405, 0.750907, 0.735613, 0.53586, 0.537118, 0.539716, 0.704454, 0.774226, 0.885788, 0.584338, 0.58834, 0.592263, 0.598669, 0.608594, 0.610334, 0.617139, 0.618307, 0.622315, 0.635511, 0.635028, 0.653084, 0.643818, 0.638128, 0.732017, 0.612432, 0.609146, 0.669701, 0.687032, 0.683293, 0.682546, 0.715204, 0.729772, 0.753633, 0.759594, 0.766729, 0.755851, 0.752268, 0.773828, 0.828395, 0.799501, 0.81615, 0.851098, 0.897521, 0.938143, 0.949986, 0.966312, 0.932142, 0.918271, 0.930451, 0.906153, 0.894891, 0.867332, 0.877615, 0.886896, 0.877577, 0.840345, 0.835424, 0.843159, 0.829868, 0.823221, 0.812097, 0.778691, 0.790654, 0.825756, 0.807748, 0.800849, 0.958225, 0.761479, 0.903959, 0.904091, 0.786889, 0.769421, 0.772546, 0.77058, 0.961073, 0.998735, 0.809282, 0.814039, 0.815075, 0.81526, 0.87384, 0.887954, 0.855362, 0.815431, 0.804872, 0.797955, 0.791058, 1.12423, 0.76888, 0.767582, 0.766521, 0.762415, 1.08174, 0.764136, 0.767863, 0.772819, 0.772691, 0.771714, 0.775609, 0.778119, 0.776499, 0.777382, 0.776866, 0.88798, 0.788355, 0.783663, 0.78522, 0.787149, 0.771259, 0.771002, 0.791113, 0.793193, 0.793646, 0.842889, 0.797036, 0.805731, 0.80797, 0.811444, 0.813973, 0.821468, 0.82514
0.512657, 0.517594, 0.517834, 0.518322, 0.519047, 0.739544, 0.837278, 0.832043, 0.670067, 0.71487, 0.714178, 0.703295, 0.550836, 0.689539, 0.696785, 0.505547, 0.504896, 0.504672, 0.494588, 0.892202, 0.516879, 0.721823, 0.606825, 0.532475, 0.520849, 0.531767, 0.528966, 0.529149, 0.52794, 0.539523, 0.547262, 0.545565, 0.545181, 0.536677, 0.734, 0.745571, 0.66938, 0.665491, 0.66435, 0.586707, 0.590512, 1.07417, 0.610109, 0.611036, 0.616092, 0.679845, 1.25551, 0.832221, 0.656674, 0.656233, 0.642344, 0.686349, 0.615493, 0.615393, 0.643675, 0.64316, 0.629619, 0.693824, 0.735299, 0.679446, 0.688267, 0.741988, 0.757461, 0.755507, 0.753869, 0.745163, 0.753626, 0.875319, 0.875965, 0.811537, 0.764771, 0.856632, 0.855833, 0.889167, 0.846703, 0.847871, 0.871728, 0.898859, 0.891387, 0.89097, 0.857545, 0.832968, 0.812547, 0.838595, 0.847579, 0.839984, 0.840774, 0.796568, 0.794483, 0.77777, 0.773276, 0.805231, 0.864003, 0.786014, 0.741082, 0.740142, 0.740832, 0.749782, 0.748531, 0.749143, 0.749502, 0.770163, 0.82678, 1.02136, 1.01208, 0.858901, 0.944151, 0.898073, 0.872489, 0.866394, 0.815152, 0.850947, 0.805762, 0.79811, 0.790806, 0.779791, 0.76918, 0.764439, 0.763246, 0.762424, 0.759575, 0.770034, 0.761253, 0.766631, 0.7647, 0.766956, 0.769558, 0.771324, 0.777281, 0.777654, 0.777467, 0.777007, 0.7774, 0.777716, 0.779836, 0.779403, 0.771101, 0.773273, 0.773079, 0.788119, 0.790785, 0.792537, 0.793867, 0.797325, 0.801315, 0.81035, 0.816183, 0.816718, 0.819673, 0.821572
0.595242, 0.477576, 0.762499, 0.762354, 0.558968, 0.737111, 0.700345, 0.691938, 0.697604, 0.718581, 0.671151, 0.779997, 0.72365, 0.496704, 0.496812, 0.502994, 1.08769, 0.496459, 0.494805, 0.495169, 0.513629, 0.519097, 0.532624, 0.524242, 0.523798, 0.521163, 0.529536, 0.537781, 0.538129, 0.538391, 0.545714, 0.546688, 0.54827, 0.550528, 0.75388, 0.646318, 0.670101, 0.754117, 0.751711, 0.587664, 0.627406, 0.819998, 0.606323, 0.610367, 0.700007, 0.682335, 0.687551, 0.650227, 0.96923, 0.695938, 0.953492, 0.686505, 0.612346, 0.632856, 0.631759, 0.633877, 0.652468, 0.69435, 0.695718, 0.712964, 0.773988, 0.695105, 0.755279, 0.80817, 0.760853, 0.745688, 0.746598, 0.765969, 0.759347, 0.764004, 0.764873, 0.761373, 0.784868, 0.851258, 0.831833, 0.839059, 0.867176, 0.925037, 0.924648, 0.855895, 0.818409, 0.787664, 0.839855, 0.793959, 0.788228, 0.7633, 0.786918, 0.791964, 0.784506, 0.746113, 0.733192, 0.726596, 0.74581, 0.722949, 0.735656, 0.740989, 0.741783, 0.755363, 0.748496, 0.748332, 0.748007, 0.769247, 0.814392, 0.867079, 1.3126, 0.846875, 0.811457, 0.794306, 0.843242, 0.821387, 0.819604, 1.15132, 0.79438, 0.782876, 0.772749, 0.764802, 0.765914, 0.761363, 0.765859, 0.766545, 0.770882, 0.771358, 0.778524, 0.760909, 0.762188, 0.764296, 0.767822, 0.768854, 0.789689, 0.765454, 0.76347, 0.763316, 0.764049, 0.775862, 0.772574, 0.776607, 0.774688, 0.7749, 0.777083, 0.784146, 0.786977, 0.789757, 0.791555, 0.795936, 0.799194, 1.06755, 0.811492, 0.841964, 0.907585, 0.833138
0.478603, 0.474761, 0.47275, 0.69708, 0.536329, 0.482523, 0.481714, 0.479404, 0.472328, 0.468468, 0.469982, 0.584335, 0.584146, 0.497602, 0.496943, 0.494886, 0.494012, 0.494658, 0.493677, 0.494567, 0.515693, 0.803325, 0.512151, 0.522137, 0.522662, 0.538787, 0.538829, 0.54027, 0.539614, 0.538209, 0.734829, 0.543405, 0.54286, 0.550464, 0.689291, 0.5586, 0.558954, 0.559917, 0.573662, 0.581059, 0.796848, 0.714889, 0.60083, 0.688505, 0.667278, 1.03571, 0.731473, 0.894187, 0.981919, 0.82451, 0.968207, 0.608805, 0.608959, 0.606648, 0.610523, 0.624351, 0.653721, 0.627681, 0.621379, 0.619352, 0.648718, 0.7425, 0.720752, 0.71304, 0.763651, 0.743804, 0.743258, 0.741565, 0.759197, 0.760837, 0.762726, 0.762598, 0.754669, 0.820078, 0.784863, 0.776893, 0.767849, 0.75186, 0.833412, 0.780575, 0.734625, 0.776686, 0.780104, 0.801517, 0.728706, 0.727633, 0.75302, 0.763814, 0.723154, 0.708608, 0.766447, 0.724811, 0.719427, 0.724204, 0.72534, 0.74235, 0.744035, 0.745286, 0.952178, 0.746887, 0.746988, 0.768062, 0.776417, 0.846096, 1.13401, 0.801312, 0.79275, 0.847872, 0.836404, 0.826352, 0.815791, 1.34277, 0.773221, 0.77176, 0.764964, 0.761342, 0.762767, 0.761633, 0.74516, 0.744424, 0.762783, 1.0466, 1.04565, 0.772691, 0.774307, 0.747215, 0.747522, 0.748822, 0.756243, 0.760534, 0.761687, 0.761622, 0.764458, 0.768538, 0.769836, 0.772425, 0.772114, 0.773542, 0.773043, 0.783475, 0.78561, 0.790582, 0.792576, 0.793534, 0.797779, 1.01677, 0.802021, 0.800764, 1.53037, 1.37012
0.475597, 0.472753, 0.471644, 0.4729, 1.13228, 0.481692, 0.481512, 0.475214, 0.474312, 0.472122, 0.470927, 0.475433, 0.49026, 0.497083, 0.494873, 0.494096, 0.491781, 0.49227, 0.492515, 0.49219, 0.753748, 0.65888, 0.514005, 0.51295, 0.515829, 0.53934, 0.539132, 0.539903, 0.537538, 0.535113, 0.534685, 0.534336, 0.680267, 0.552333, 0.55175, 0.559666, 0.559116, 0.557764, 0.573515, 0.574172, 0.587715, 0.588125, 0.66731, 0.625427, 0.756759, 0.617874, 0.822339, 0.710597, 0.734951, 0.721411, 0.692162, 0.607503, 0.607522, 0.610281, 0.608608, 0.608377, 0.628839, 0.632096, 0.627921, 0.690677, 0.673595, 0.638551, 0.645282, 0.677965, 0.669726, 0.704783, 0.737696, 0.743608, 0.749104, 0.721978, 0.760984, 0.794251, 0.745555, 0.740073, 0.7427, 0.731912, 0.752116, 0.791648, 0.779524, 0.74962, 0.710667, 0.721692, 0.743498, 0.718017, 0.715213, 0.725552, 0.760862, 0.807786, 0.747443, 0.706965, 0.817834, 0.818049, 0.924153, 0.929346, 0.733576, 0.742188, 0.747446, 0.750766, 0.964292, 0.950464, 0.83082, 1.0167, 0.979829, 0.945082, 0.845026, 0.859402, 0.929739, 0.843375, 0.857534, 0.789918, 0.790937, 0.781049, 0.773491, 0.769981, 0.746167, 0.756737, 0.742794, 0.758607, 0.745715, 0.745294, 0.748653, 0.767885, 0.773608, 0.746415, 0.746445, 0.747758, 0.747702, 0.749307, 0.753185, 0.754506, 0.763639, 0.764683, 0.763261, 0.762991, 0.762455, 0.769272, 0.760579, 0.765654, 0.771558, 0.780623, 0.784854, 0.787212, 0.790254, 0.781913, 0.783528, 0.785358, 0.788524, 0.794012, 0.794074, 0.797669
0.465594, 0.465655, 0.465143, 0.466445, 1.13429, 1.46128, 0.474729, 0.474962, 0.478357, 0.478, 0.476863, 0.476273, 0.725573, 0.939294, 0.804486, 0.491593, 0.490197, 0.49154, 0.493468, 0.493234, 0.503904, 0.503046, 0.50286, 0.517667, 0.516498, 0.649486, 0.692173, 0.690933, 0.797228, 0.530573, 0.534709, 0.534444, 0.531256, 0.621694, 0.545223, 0.548592, 0.558478, 0.556239, 0.572543, 0.57641, 0.587815, 0.588803, 0.587696, 0.604067, 0.781832, 0.61495, 0.66492, 0.697042, 0.701327, 0.981609, 0.636988, 0.698392, 0.76084, 0.609357, 0.603629, 0.600905, 0.611106, 0.629084, 0.630054, 0.63675, 0.691067, 0.637305, 0.638054, 0.674213, 0.665195, 0.666571, 0.731977, 0.742008, 0.732132, 0.704117, 0.7665, 0.765054, 0.720985, 0.705684, 0.701003, 0.691483, 0.785401, 0.787341, 0.766584, 0.7146, 0.714353, 0.696868, 0.695576, 0.696644, 0.754382, 0.754905, 0.685851, 0.678288, 0.797101, 0.75447, 0.797947, 0.817158, 0.708898, 0.77769, 0.732035, 0.73953, 0.750593, 0.752078, 1.05615, 0.817911, 1.02381, 0.910877, 0.83251, 0.81599, 0.767849, 0.772855, 0.825074, 0.805628, 0.772989, 0.772504, 0.764919, 0.766508, 0.755814, 0.747308, 0.746811, 0.74677, 0.745506, 0.734885, 0.741847, 0.734341, 0.736827, 0.733957, 1.03358, 0.736372, 0.743888, 0.746665, 0.747679, 0.75138, 0.755177, 0.754696, 0.754075, 0.759686, 0.762145, 0.761391, 0.759705, 0.758899, 0.761171, 0.766931, 1.02013, 0.981398, 0.829048, 0.781, 0.783264, 0.783037, 0.783586, 0.784348, 0.784982, 0.936786, 1.35266, 1.27491
0.466412, 0.465444, 0.464979, 0.464454, 0.463991, 1.13178, 0.472193, 0.473816, 0.477361, 0.476468, 0.476042, 0.470186, 0.4693, 0.470102, 0.477689, 0.477749, 0.777033, 0.486385, 0.493235, 0.479695, 0.642544, 0.503227, 0.502075, 0.676752, 0.727969, 0.669676, 0.611626, 0.691558, 0.688788, 0.5216, 0.520894, 0.524896, 0.532657, 0.59234, 0.534893, 0.710802, 1.35096, 0.681221, 0.666773, 0.663722, 0.605122, 0.58556, 0.581375, 0.82971, 0.703197, 0.560907, 0.694315, 0.594256, 0.68141, 0.995509, 0.698402, 0.721739, 0.591279, 0.594899, 0.602818, 0.603465, 0.612615, 0.925221, 0.65879, 0.655454, 0.649918, 0.651865, 0.636928, 0.653232, 0.663936, 0.66238, 0.658983, 0.709642, 0.651356, 0.74627, 0.70739, 0.728539, 0.714821, 0.670134, 0.673484, 0.673489, 0.671427, 0.689771, 0.667314, 0.695811, 0.691883, 0.691701, 0.687177, 0.687362, 0.678128, 0.671848, 0.682255, 0.652908, 0.659479, 0.657759, 0.73066, 0.817996, 0.825201, 0.776659, 0.81914, 0.928022, 0.928328, 0.822332, 1.00399, 1.00518, 1.00523, 0.945944, 0.774707, 0.77494, 0.767954, 0.77, 0.770002, 0.790036, 0.771085, 0.769886, 0.768119, 0.752783, 0.743023, 0.746008, 0.746399, 0.745417, 0.728729, 0.726154, 0.732528, 0.734584, 0.734884, 0.733047, 0.733046, 0.735849, 0.736994, 0.735273, 0.755778, 0.764355, 0.749401, 0.750527, 0.752902, 0.750654, 0.751302, 0.752252, 0.755748, 0.757407, 0.765678, 0.767585, 0.770308, 0.962133, 1.1757, 0.780099, 0.781089, 0.780792, 0.780238, 0.776926, 0.770863, 1.37433, 1.32877, 1.1534
0.466929, 0.466727, 0.465541, 0.46535, 0.464772, 0.464014, 0.466417, 0.929076, 0.466227, 0.466069, 0.863788, 0.470983, 0.471542, 0.46936, 0.470184, 0.470872, 0.468633, 0.467416, 0.66616, 0.478425, 0.479077, 0.492814, 0.508681, 0.491566, 0.491479, 0.647124, 0.504719, 0.505336, 0.511097, 0.520316, 0.521488, 0.521827, 0.533049, 0.540063, 0.536352, 0.535756, 0.919564, 0.66982, 0.666623, 0.56698, 0.874611, 0.00388253, 0.728924, 0.716569, 0.71188, 0.81978, 0.546244, 0.691583, 0.559737, 0.56716, 1.06025, 0.58365, 0.80108, 0.803567, 0.601394, 0.60102, 0.607086, 0.610385, 0.740588, 0.641626, 0.643956, 0.64175, 0.628416, 0.707838, 0.690788, 0.657525, 0.658778, 0.704898, 0.652895, 0.634505, 0.686618, 0.749217, 0.684009, 0.678993, 0.656698, 0.646984, 0.677326, 0.655716, 0.670451, 0.670434, 0.683438, 0.663383, 0.668973, 0.661651, 0.765483, 0.690118, 0.685, 0.65234, 0.655161, 0.657148, 0.659392, 0.804225, 0.804656, 0.76355, 0.750203, 0.728363, 0.925565, 0.797271, 1.02926, 1.00249, 0.983181, 0.798053, 0.763475, 0.763179, 0.763185, 0.770282, 0.770765, 0.768903, 0.758398, 0.945812, 0.784504, 0.79991, 0.74232, 0.741649, 0.742917, 0.742267, 0.727391, 0.726118, 0.72226, 0.722518, 0.72323, 0.728701, 0.728482, 0.735055, 0.735226, 0.732106, 0.731541, 0.736314, 0.738996, 0.743264, 0.745093, 0.750895, 0.755895, 0.758747, 0.759376, 0.760068, 0.760775, 0.765124, 0.769564, 0.771414, 1.3884, 1.52161, 0.778487, 0.772819, 0.773448, 0.769035, 0.771714, 1.5202, 0.782717, 0.780437
0.959647, 0.960458, 1.22282, 0.466692, 0.465354, 0.464704, 0.467917, 0.949904, 0.466737, 0.905483, 0.454167, 0.457969, 0.457236, 0.465914, 0.466998, 0.471867, 0.47097, 0.468552, 0.563491, 0.449387, 0.489486, 0.619981, 0.521869, 0.490448, 0.490558, 0.537946, 0.505611, 0.505387, 0.514671, 0.517925, 0.521293, 0.525643, 0.812121, 0.625941, 0.534544, 0.534525, 0.534713, 0.628483, 0.758548, 0.56724, 0.722638, 0.733932, 0.856543, 0.83817, 0.541285, 0.539907, 0.708631, 0.853296, 0.555438, 0.55431, 0.814501, 1.1816, 0.582559, 0.783289, 0.864872, 0.759804, 0.777035, 0.888558, 1.07795, 0.810591, 0.648294, 0.646403, 0.645728, 0.629351, 0.658517, 0.663146, 0.624042, 0.623275, 0.701245, 0.688038, 0.687095, 0.679842, 0.660626, 0.644526, 0.644943, 0.643313, 0.645137, 0.636007, 0.706867, 0.65572, 0.667552, 0.652424, 0.668977, 0.678453, 0.669488, 0.760305, 0.658312, 0.657405, 0.808677, 0.661516, 0.660193, 0.658814, 0.806797, 0.777144, 0.777786, 0.780525, 0.774913, 0.849999, 0.882643, 0.769686, 0.79066, 0.763894, 0.764424, 0.765257, 0.765887, 0.769785, 0.769929, 0.762483, 0.753356, 0.743145, 0.743218, 0.748204, 0.746892, 0.745797, 0.743408, 0.741756, 0.741697, 0.722256, 0.722827, 0.724533, 0.723775, 0.721447, 0.71858, 0.717795, 0.714657, 0.721561, 0.731472, 0.733294, 0.733954, 0.73853, 0.77378, 0.75857, 0.75916, 0.758103, 0.754142, 0.759327, 0.760556, 0.76754, 0.769484, 0.770445, 0.783946, 0.771774, 0.771528, 0.769313, 0.761847, 0.758144, 0.763111, 0.764839, 0.773052, 0.776457
0.445916, 0.445653, 0.446253, 0.460215, 0.460549, 0.991738, 0.448313, 0.457292, 0.457059, 0.457203, 0.454866, 0.457391, 0.457043, 0.472387, 0.47214, 0.471988, 0.470774, 0.626424, 0.45177, 0.451399, 0.449887, 0.618553, 0.528361, 0.604987, 0.538019, 0.538773, 0.618984, 1.38825, 0.590949, 0.579504, 0.696956, 0.657468, 0.542343, 0.854295, 0.531803, 0.789866, 0.529869, 0.681681, 0.790309, 0.777006, 0.517299, 0.522598, 0.522869, 0.525445, 0.702157, 0.744075, 0.816404, 0.82748, 0.552126, 0.995322, 0.828584, 0.804181, 0.974111, 0.568738, 0.572683, 0.572716, 0.932717, 0.589935, 0.593608, 0.654373, 0.593901, 0.593762, 0.594021, 0.66946, 0.603321, 0.603477, 0.612421, 0.660692, 0.657367, 0.613821, 0.610965, 0.61127, 0.642307, 0.646353, 0.646988, 0.635349, 0.64931, 0.632667, 0.705774, 0.672322, 0.670739, 0.714264, 0.670739, 0.683948, 0.666308, 0.667826, 0.673211, 0.658707, 0.691293, 0.702886, 0.802426, 0.659711, 0.696338, 0.78993, 0.904687, 0.787241, 0.775988, 0.779555, 0.874851, 0.793819, 0.805827, 0.830105, 0.829987, 0.829675, 0.820303, 0.816256, 0.788944, 0.780962, 0.748083, 0.742323, 0.741859, 0.738441, 0.770992, 0.741885, 0.741032, 0.73985, 0.749788, 0.730954, 0.707162, 0.721141, 0.721968, 0.721382, 0.720681, 0.720713, 0.71474, 0.74686, 0.742446, 0.745224, 0.745953, 0.748933, 0.75484, 0.759189, 0.755939, 0.75514, 0.752979, 0.760421, 0.762522, 0.762887, 0.769146, 0.768874, 0.843944, 0.825938, 0.812876, 0.764344, 0.765126, 0.761826, 0.76237, 0.762645, 0.770415, 0.773249
0.440081, 0.444931, 0.444179, 0.663159, 0.926021, 0.877965, 0.448375, 0.447852, 0.456815, 0.455328, 0.452598, 0.451936, 0.472233, 0.473178, 0.472201, 0.470465, 0.446659, 0.447701, 0.444718, 0.445201, 0.446286, 0.612005, 0.608606, 0.469976, 0.471551, 0.593536, 0.473383, 0.853241, 0.48993, 0.715215, 0.715528, 0.709262, 0.526319, 0.521425, 0.518122, 0.519237, 0.519145, 0.517822, 0.517001, 0.513625, 0.512296, 0.521898, 0.525174, 0.524886, 0.514232, 0.513229, 0.856679, 0.662983, 0.677677, 0.994599, 0.908435, 0.970519, 0.842434, 0.673025, 0.669821, 0.667481, 0.659203, 0.72424, 0.723291, 0.580979, 0.591346, 0.591718, 1.02856, 0.943351, 0.603761, 0.603855, 0.634766, 0.595535, 0.597798, 0.599646, 0.600893, 0.597131, 0.643461, 0.626375, 0.634808, 0.635731, 0.649919, 0.631752, 0.632064, 0.643522, 0.700914, 0.706259, 0.700315, 0.70051, 0.667465, 0.667576, 0.667142, 0.870979, 0.895769, 0.760628, 0.759019, 0.710665, 0.710887, 0.816168, 0.769496, 0.89819, 0.787722, 0.794295, 0.84745, 0.835471, 0.919473, 0.91227, 0.83847, 0.838497, 0.8174, 0.807076, 0.803474, 0.788142, 0.78055, 0.743568, 0.740378, 0.739991, 0.819082, 0.788235, 0.788821, 0.777079, 0.731955, 0.761862, 0.709369, 0.729131, 0.728778, 0.730808, 0.757809, 0.732359, 0.753004, 0.760972, 0.744792, 0.746509, 0.747517, 1.00073, 1.26844, 0.75281, 0.75268, 0.754892, 0.755646, 0.757296, 0.76422, 0.76479, 0.769034, 0.831282, 0.760372, 1.68674, 1.67478, 0.762613, 0.763446, 0.763809, 0.762441, 0.759797, 0.761943, 0.770296
0.436147, 0.916127, 0.44301, 0.438321, 0.447015, 0.866381, 0.45185, 0.448652, 0.438206, 0.43674, 0.62136, 0.458481, 0.465414, 0.650756, 0.442171, 0.44416, 0.445511, 0.447935, 0.44672, 0.447308, 0.446912, 0.484381, 0.483609, 0.473233, 0.474438, 0.473537, 0.47211, 0.469683, 0.776566, 0.840692, 0.810944, 0.527358, 0.529792, 1.13431, 0.532196, 0.519207, 0.519059, 0.51997, 0.518541, 0.516612, 0.51541, 0.515019, 0.519322, 0.524448, 0.514937, 0.514807, 0.522327, 0.531833, 0.53264, 0.593804, 0.561934, 0.594543, 0.712715, 0.632083, 0.913091, 0.673386, 0.565178, 0.565772, 0.573151, 0.58072, 0.582171, 0.956947, 0.623967, 0.715, 0.913845, 0.633432, 0.83584, 0.595701, 0.595183, 0.600435, 0.602547, 0.604214, 0.609227, 0.626552, 0.626006, 0.627638, 0.632429, 0.639053, 0.65306, 0.655475, 0.65897, 0.663698, 0.681296, 0.683416, 0.669242, 0.785187, 0.893405, 0.891232, 0.794666, 0.853508, 0.909341, 0.711218, 1.00245, 0.968577, 0.9051, 0.909594, 0.803875, 0.742797, 0.888004, 0.912555, 0.872979, 0.870571, 0.82245, 0.856786, 0.82275, 0.838414, 0.823299, 0.802214, 0.780847, 0.780815, 0.801619, 0.73708, 0.849427, 0.811261, 0.811657, 0.784727, 0.732229, 0.731298, 0.730183, 0.731368, 0.733247, 0.734727, 0.734311, 0.736392, 0.739611, 0.813594, 0.814674, 0.744239, 0.73558, 0.738531, 0.73807, 0.735604, 0.750069, 0.754822, 0.756411, 0.759332, 0.761508, 1.27684, 0.759317, 1.31164, 1.68811, 1.65576, 0.743706, 0.749971, 0.759234, 0.754427, 0.75594, 0.755973, 0.757603, 0.759967
0.435078, 0.435955, 0.437713, 0.436089, 0.443333, 0.798786, 0.44732, 0.445443, 0.439946, 0.437079, 0.438026, 0.792898, 0.452481, 0.451352, 0.439171, 0.446743, 0.446384, 0.446149, 0.455313, 0.454138, 0.612712, 0.481068, 0.475035, 0.474208, 0.474527, 0.474331, 0.472793, 0.472126, 0.4708, 0.756293, 0.750424, 0.771374, 0.81537, 0.71115, 0.532986, 0.831742, 0.520442, 0.518575, 0.517877, 0.517163, 0.51733, 0.518822, 0.520697, 0.51965, 0.517149, 0.517167, 0.518811, 0.591228, 0.525894, 0.525078, 0.535322, 0.55515, 0.944142, 1.37102, 0.919156, 0.562925, 0.565602, 0.565714, 0.650995, 0.649852, 0.576566, 0.698361, 0.667499, 0.578146, 0.849218, 0.93942, 0.585354, 0.589611, 0.590284, 0.591534, 0.593011, 0.592005, 0.742478, 0.72254, 0.6422, 0.627766, 0.627812, 0.68346, 0.669458, 0.666841, 0.661588, 0.66139, 0.776646, 0.685704, 0.682503, 0.683169, 0.783419, 0.783731, 0.871359, 0.743847, 0.748121, 0.919003, 0.991122, 0.954065, 0.936923, 0.908937, 0.824679, 0.744916, 0.928715, 0.884966, 0.867749, 0.848714, 0.857944, 0.846926, 0.847429, 0.835177, 0.809447, 0.822936, 0.831983, 0.818793, 0.803488, 0.727662, 0.729352, 0.731534, 0.839356, 0.822624, 0.73019, 0.730578, 0.727597, 0.733417, 0.73444, 0.734932, 0.735181, 0.730937, 0.725416, 0.723341, 0.724823, 0.730944, 0.732653, 0.735862, 0.735159, 0.735293, 0.740359, 0.750583, 0.752692, 0.756619, 0.757208, 0.748847, 0.748862, 0.751478, 0.734883, 0.738279, 0.738523, 0.742379, 0.751599, 0.753315, 0.75632, 0.755256, 0.754839, 0.755722
0.430016, 0.430295, 0.426834, 0.427972, 0.427177, 0.625058, 0.78129, 0.448209, 0.447853, 0.445726, 0.444665, 0.473082, 0.438256, 0.443127, 0.439393, 0.448934, 0.449005, 0.487856, 0.473478, 0.473033, 0.472813, 0.469224, 0.469194, 0.475738, 0.475814, 0.475731, 0.472116, 0.472145, 0.472194, 0.473517, 0.69176, 0.478283, 0.683414, 0.518362, 0.874921, 0.497469, 0.634888, 0.512565, 0.510368, 0.508718, 0.515489, 0.590753, 0.5096, 0.508386, 0.515658, 0.51467, 0.515813, 0.588558, 0.52572, 0.526583, 0.526602, 0.682747, 0.540777, 0.541007, 0.54613, 0.935969, 0.939691, 0.556165, 0.556511, 0.902345, 0.881107, 0.854613, 0.566148, 0.565287, 0.571243, 0.570579, 0.858628, 0.588811, 0.592132, 0.592343, 0.590245, 0.591558, 0.59662, 0.819612, 0.721468, 0.676917, 0.671582, 0.692157, 0.6849, 0.788453, 0.749039, 1.19563, 0.759122, 0.682322, 0.682816, 0.78414, 1.0724, 0.783599, 0.88242, 1.15088, 0.894212, 0.966781, 0.967547, 0.920977, 0.957093, 0.822362, 0.910459, 0.737536, 0.870717, 0.897542, 0.862777, 0.862771, 0.849708, 0.848467, 0.882595, 0.885176, 0.742146, 0.747637, 0.866596, 0.839662, 0.715676, 0.726746, 0.800927, 0.725889, 0.726614, 0.717823, 0.721719, 0.722508, 0.726048, 0.918029, 0.716239, 0.731287, 0.72605, 0.729647, 0.728191, 0.725195, 0.72469, 0.728144, 0.731733, 0.732708, 0.733754, 0.732778, 0.735841, 0.737127, 0.743571, 0.74304, 0.743913, 0.7451, 0.74573, 0.739945, 0.737066, 0.737668, 0.766623, 0.743311, 0.748101, 0.752236, 0.755613, 0.755851, 0.756167, 0.760682
0.429833, 0.428569, 0.427735, 0.43034, 0.429389, 0.445433, 0.444532, 0.446421, 0.44906, 0.447773, 0.445157, 0.435365, 0.437745, 0.437807, 0.438954, 0.438368, 0.467961, 0.469652, 0.475377, 0.475679, 0.474118, 0.47355, 0.471916, 0.472176, 0.471538, 0.460014, 0.470389, 0.471216, 0.583576, 0.548388, 0.539929, 0.622636, 0.542088, 0.608844, 1.10502, 0.49507, 0.494391, 0.654465, 0.493102, 0.645289, 0.50241, 0.500669, 0.629752, 0.508245, 0.504674, 0.507739, 0.508117, 0.5915, 0.522541, 0.525062, 0.525588, 0.523149, 0.523741, 0.959532, 0.933906, 0.918043, 0.884951, 0.555526, 0.553456, 0.554521, 0.55413, 0.557295, 0.565527, 0.564284, 0.569402, 0.569455, 0.569885, 0.726804, 0.574103, 0.575233, 0.777497, 0.639691, 0.594842, 0.594693, 0.593913, 0.851393, 0.83523, 0.824676, 0.686448, 0.888273, 0.698291, 0.863011, 0.744667, 1.04953, 0.953481, 0.77097, 0.786554, 0.919032, 0.90047, 0.905785, 0.98277, 0.720363, 0.934526, 0.964029, 0.969891, 0.915931, 0.916701, 0.936552, 0.867648, 0.932698, 0.894914, 0.878256, 0.871402, 0.835581, 0.842999, 0.842791, 0.864829, 0.870455, 0.794462, 0.870204, 0.771632, 0.719221, 0.721438, 0.723135, 0.922358, 0.715192, 0.714774, 0.716045, 0.721438, 0.72215, 0.716214, 0.716884, 0.727334, 0.72794, 0.726646, 0.723516, 0.72329, 0.727748, 0.729196, 0.730355, 0.725139, 0.725628, 0.724433, 0.729062, 0.731425, 0.748567, 0.743745, 0.746162, 0.738231, 0.73546, 0.736694, 0.736047, 0.740935, 0.755937, 0.749519, 0.752035, 0.750038, 0.75605, 0.757046, 0.761123
0.42858, 0.424739, 0.425772, 0.426726, 0.434242, 0.442145, 0.446971, 0.44728, 0.448118, 0.446762, 0.434562, 0.433922, 0.437712, 0.439022, 0.438845, 0.49395, 0.468952, 0.470837, 0.469343, 0.476947, 0.475712, 0.475736, 0.474227, 0.470262, 0.580411, 0.460292, 0.458838, 0.565346, 0.589497, 0.585417, 0.531762, 0.545834, 0.524675, 0.560089, 1.12896, 1.10755, 0.801583, 0.663826, 0.493147, 0.569962, 0.500248, 0.501046, 0.9957, 0.496608, 0.496209, 0.494391, 0.493943, 1.00119, 0.906247, 0.520486, 0.521164, 0.522591, 0.523743, 0.573746, 0.739482, 0.739026, 0.635222, 0.884942, 0.864267, 0.552683, 0.552107, 0.628136, 0.561027, 0.562215, 0.562181, 0.555536, 0.555548, 0.701689, 0.574825, 0.576216, 0.636369, 0.587165, 0.634667, 0.590121, 0.947125, 0.937216, 0.674187, 0.711411, 0.908101, 0.889036, 0.620744, 0.867616, 0.849162, 0.777945, 0.941855, 0.765377, 0.774597, 1.08385, 0.817887, 1.03076, 0.884373, 0.969751, 0.971386, 0.904959, 0.939908, 0.880621, 0.969469, 0.864676, 0.856279, 0.933649, 0.936788, 0.727306, 0.88481, 0.900904, 0.798107, 0.701537, 0.703719, 0.704808, 0.824889, 0.804795, 0.701086, 0.703531, 0.707167, 0.87434, 0.713977, 0.71193, 0.710996, 0.716064, 0.715631, 0.711353, 0.711608, 1.06415, 0.72439, 0.727114, 0.724381, 0.722887, 0.718929, 0.72007, 0.721518, 0.72602, 0.727555, 0.725549, 0.72604, 0.729588, 0.733042, 0.737426, 0.738412, 0.738788, 0.7388, 0.736501, 0.7362, 0.737062, 0.741172, 0.744319, 0.74704, 0.748763, 0.75126, 0.754305, 0.758683, 0.760977
0.426668, 0.425848, 0.411481, 0.411249, 0.433968, 0.59055, 0.445512, 0.439388, 0.438788, 0.437962, 0.435401, 0.434882, 0.437303, 0.529006, 0.743424, 0.463614, 0.463636, 0.468925, 0.469062, 0.800823, 0.474195, 0.473377, 0.472009, 0.584968, 0.4768, 0.451237, 0.449204, 0.447099, 0.449619, 0.450851, 0.579805, 0.458191, 0.457278, 0.580211, 1.06765, 1.06726, 0.611251, 0.749581, 0.486924, 0.900995, 0.491513, 0.493082, 0.491026, 0.490711, 0.496288, 0.493158, 0.493148, 0.905809, 0.909339, 0.963298, 0.727461, 0.82892, 0.517519, 0.905608, 0.902986, 0.649991, 0.889581, 0.53181, 0.752829, 0.546557, 0.545765, 0.544498, 0.550654, 0.551654, 0.763579, 0.555436, 0.55584, 0.653709, 0.643171, 1.0391, 0.572844, 0.655177, 1.00053, 0.997297, 0.580121, 0.580221, 0.667078, 0.628683, 0.905837, 0.621058, 0.620896, 0.859995, 0.856778, 0.826762, 0.849655, 0.856715, 0.832319, 0.89831, 0.704286, 0.887726, 1.00113, 0.927327, 0.909793, 0.725061, 0.727081, 0.92812, 0.906851, 0.982471, 0.952662, 0.857055, 0.846243, 0.794105, 0.855936, 0.881588, 0.888046, 0.690116, 0.690424, 0.839134, 0.794092, 0.68372, 0.697908, 0.757379, 0.707625, 1.01531, 0.70834, 0.71048, 0.710575, 0.710837, 0.710748, 0.712319, 0.713027, 0.714486, 0.714892, 0.723042, 0.724512, 0.718169, 0.719463, 0.719861, 0.72183, 0.723094, 0.72894, 0.73069, 0.728239, 0.732635, 0.734585, 0.737458, 0.738677, 0.740843, 0.739102, 0.736995, 0.737019, 0.738324, 0.741785, 0.743444, 0.744006, 0.748523, 0.749792, 0.760748, 0.763452, 0.758938
0.413695, 0.416058, 0.416642, 0.422671, 0.421561, 0.47064, 0.441193, 0.441328, 0.434069, 0.436163, 0.434854, 0.434302, 0.447839, 0.459168, 0.459332, 0.463622, 0.460431, 0.451921, 0.458449, 0.746154, 0.718691, 0.577703, 0.527738, 0.458185, 0.456592, 0.453685, 0.451022, 0.449009, 0.449059, 0.449165, 0.76733, 0.847643, 0.460352, 0.657454, 1.07064, 1.06802, 0.486712, 0.830976, 0.886639, 0.486687, 0.865047, 0.491578, 0.492435, 0.488775, 0.491668, 0.492796, 0.488764, 0.488257, 0.493431, 0.494327, 0.50152, 0.505863, 0.505737, 0.82849, 0.869205, 0.748202, 0.634279, 0.541005, 0.525044, 0.521758, 0.521626, 0.548904, 0.548782, 0.546117, 0.546063, 0.550969, 0.549061, 1.13046, 1.03313, 0.572695, 1.01502, 0.925866, 0.586004, 0.584949, 0.577905, 0.874996, 0.950759, 0.931544, 0.918788, 0.616146, 0.617671, 0.884198, 0.8734, 0.912534, 0.9608, 0.720819, 0.853756, 1.03248, 1.03278, 0.96943, 0.866857, 0.930037, 0.725243, 0.72595, 0.725918, 0.928484, 0.925915, 0.904705, 0.86309, 0.863319, 0.868036, 0.893669, 0.951138, 0.891245, 0.735806, 0.685151, 0.676746, 1.01182, 0.678493, 0.679415, 0.681825, 0.693013, 1.01933, 0.905042, 0.704437, 0.694663, 0.702687, 0.702607, 0.705348, 0.708466, 0.710984, 0.712396, 0.712979, 0.713331, 0.715208, 0.71729, 0.718258, 0.720283, 0.724292, 0.724268, 0.728817, 0.730125, 0.730237, 0.733721, 0.736102, 0.738798, 0.740244, 0.739378, 0.738469, 0.737312, 0.74098, 0.742384, 0.738934, 0.756062, 0.755184, 0.750704, 0.749181, 0.748488, 0.769643, 0.921097
0.683864, 0.416695, 0.424695, 0.425038, 0.424359, 0.425311, 0.469403, 0.423845, 0.427526, 0.425891, 0.434689, 0.443517, 0.441514, 0.652744, 0.459863, 0.453585, 0.452532, 0.451449, 0.451915, 0.79175, 0.962939, 0.452313, 0.460143, 0.460377, 0.459171, 0.457284, 0.54851, 0.450543, 0.447607, 0.441052, 0.89857, 0.776356, 0.846018, 0.834033, 1.08091, 0.872054, 0.822948, 0.473605, 0.959061, 1.01035, 0.487759, 0.518315, 0.489944, 0.486301, 0.482721, 0.482656, 0.487146, 0.489062, 0.491037, 0.494058, 0.497474, 0.498724, 0.495749, 0.496818, 0.503549, 0.503456, 0.840512, 0.642254, 0.815597, 0.522935, 0.523711, 0.521895, 0.539657, 0.748452, 0.578695, 0.548773, 0.54899, 0.598429, 1.01824, 1.01247, 1.01075, 0.559331, 0.73486, 0.58968, 0.565804, 0.567893, 0.583178, 0.660023, 0.908159, 0.893996, 0.905614, 0.89097, 0.948176, 0.74982, 0.838449, 1.05349, 0.952916, 0.960591, 0.987397, 0.863731, 0.991184, 0.977196, 0.729042, 0.729637, 0.815187, 0.942754, 0.942246, 0.909761, 0.819798, 0.867639, 0.804864, 0.90831, 0.909553, 0.667457, 0.739795, 1.03657, 1.05888, 0.679445, 0.678982, 0.678513, 0.68261, 1.29226, 1.42099, 0.718429, 0.704962, 0.689591, 0.700757, 0.701516, 0.701966, 0.704185, 0.70837, 0.711006, 0.711385, 0.713153, 0.715496, 0.716103, 0.718354, 0.720536, 0.715242, 1.37492, 1.08397, 0.729916, 0.732476, 0.734932, 0.735709, 0.738459, 0.75218, 0.759661, 0.719039, 0.788175, 0.739324, 0.740529, 0.734652, 0.732035, 0.752266, 0.744361, 0.746196, 0.746096, 0.745641, 0.746783
0.629157, 0.420704, 0.422211, 0.424632, 0.423908, 0.470031, 0.425855, 0.424426, 0.423934, 0.428428, 0.43832, 0.447024, 0.446957, 0.44555, 0.455278, 0.454529, 0.45301, 0.451016, 0.449813, 0.448249, 0.454191, 0.453521, 0.453271, 0.458603, 0.457878, 0.45657, 0.589784, 0.864419, 0.867373, 0.439925, 0.827024, 0.435874, 0.434537, 0.834555, 0.784315, 0.442523, 0.444389, 0.443935, 0.701472, 0.72505, 0.731751, 0.468672, 0.532033, 0.481472, 0.480192, 0.481782, 0.49026, 0.488089, 0.488407, 0.490407, 0.491176, 0.497419, 0.496776, 0.495353, 0.504995, 0.505027, 0.507513, 0.509013, 0.516603, 0.521019, 0.518538, 0.770296, 0.563374, 0.590611, 0.555668, 0.559201, 0.71932, 1.0153, 1.01626, 0.569889, 1.00896, 0.642968, 0.643829, 0.593406, 0.642658, 0.862538, 0.679218, 0.932522, 0.928352, 0.916849, 0.613828, 0.614094, 0.816052, 0.750683, 0.864064, 0.860188, 0.998026, 0.912387, 0.939718, 0.854045, 0.898585, 0.880673, 0.902754, 0.719492, 0.720678, 0.974589, 0.960926, 1.01846, 0.980484, 0.782985, 0.780442, 0.657603, 0.657111, 0.657322, 0.970262, 0.650866, 0.656809, 0.669791, 0.673595, 0.674586, 1.13016, 0.677048, 1.29866, 1.35204, 1.35291, 0.698476, 0.695215, 0.698599, 0.699027, 1.56058, 0.705046, 1.67123, 0.867216, 0.698395, 0.712111, 0.713899, 0.71503, 0.717627, 0.716409, 0.717252, 0.724585, 0.725998, 0.729571, 0.731069, 0.728925, 0.728331, 0.728177, 0.731661, 0.721355, 0.722164, 0.729057, 0.727316, 0.727646, 0.732138, 0.739566, 0.740804, 0.736916, 0.740289, 0.74256, 0.743754
0.39305, 0.392255, 0.532693, 0.481272, 0.416708, 0.41858, 0.425405, 0.425679, 0.424754, 0.424396, 0.431132, 0.441223, 0.446249, 0.466912, 0.45276, 0.450311, 0.445492, 0.44457, 0.443504, 0.450985, 0.455041, 0.452292, 0.453113, 0.450841, 0.915938, 0.915468, 0.907523, 0.619639, 0.590181, 0.428355, 0.428066, 0.436056, 0.436367, 0.434724, 0.438803, 0.438755, 0.439564, 0.436339, 0.723008, 0.742208, 0.735162, 0.762945, 0.469798, 0.469543, 0.750972, 0.476293, 0.480934, 0.486556, 0.48674, 0.490291, 0.491878, 0.496128, 0.493402, 0.488089, 0.490877, 0.504228, 0.508769, 0.510797, 0.514109, 0.512492, 0.517014, 0.836455, 0.510523, 0.518289, 0.537196, 0.602931, 0.700469, 0.588362, 1.01773, 0.533797, 1.0154, 0.646139, 0.638867, 0.634872, 0.692858, 0.557182, 0.558353, 0.649399, 0.884077, 0.97023, 0.614145, 0.614772, 0.773564, 0.860958, 0.857048, 0.750519, 0.974423, 0.902796, 0.90287, 0.956656, 0.94669, 0.957569, 0.749096, 0.783809, 0.883103, 0.845314, 0.745073, 0.842083, 1.05758, 1.05962, 0.653637, 0.654386, 0.659153, 0.639361, 0.636952, 0.649759, 0.656264, 0.660419, 0.652235, 0.666941, 0.663224, 1.28541, 0.711786, 0.678123, 0.671424, 0.672537, 0.690885, 0.691688, 0.739492, 0.729235, 0.697508, 0.868114, 0.69822, 0.699534, 0.697782, 0.699944, 0.994439, 0.71193, 0.71292, 0.717582, 0.724114, 0.722656, 0.72249, 0.722089, 0.725358, 0.728532, 0.731534, 0.731668, 0.731303, 0.724881, 0.72451, 0.728668, 0.729296, 0.736314, 0.738482, 0.737128, 0.738242, 0.732596, 0.733879, 0.74132
0.394726, 0.393909, 0.439818, 0.477593, 0.416533, 0.414964, 0.420398, 0.425743, 0.424089, 1.07282, 0.440908, 0.441318, 0.440848, 0.43943, 0.714285, 0.442314, 0.43914, 0.443478, 0.443729, 0.443081, 0.448784, 0.448865, 0.448005, 0.449316, 0.918188, 0.425563, 0.42652, 0.430865, 0.420999, 0.413893, 0.414629, 0.422681, 0.42446, 0.425324, 0.440917, 0.439289, 0.438107, 0.438059, 0.437901, 0.449779, 0.449613, 0.908427, 0.948299, 0.946566, 1.02369, 0.477302, 0.477662, 0.866059, 0.485886, 0.486066, 0.486978, 0.837738, 0.479295, 0.488115, 0.487814, 0.487674, 0.501237, 0.502412, 0.508452, 0.509209, 0.508051, 0.506234, 0.511845, 0.842451, 0.594669, 0.700296, 0.587192, 0.517932, 0.681568, 1.02562, 0.925278, 0.669057, 0.884877, 0.531711, 0.766559, 0.645984, 0.649492, 0.645902, 0.852065, 0.642377, 0.818908, 0.951469, 0.817795, 0.934635, 0.707914, 0.935952, 0.971201, 0.919277, 0.888827, 0.932144, 0.753598, 0.897315, 0.885839, 0.942607, 0.862559, 0.869504, 0.756151, 1.02855, 0.665254, 0.654873, 0.653758, 0.654409, 0.658497, 0.629524, 0.637003, 0.641238, 0.641634, 0.635302, 0.633726, 0.801923, 0.659597, 0.660437, 0.710155, 0.70853, 1.60872, 0.681357, 0.6822, 0.684968, 0.683851, 0.700912, 0.692213, 0.741761, 0.690239, 0.691278, 0.695174, 0.699024, 0.702363, 0.703935, 0.70506, 0.706026, 1.31678, 0.722093, 0.723538, 0.724057, 0.721203, 0.724428, 0.731228, 0.731098, 0.742688, 0.754058, 0.723381, 0.717381, 0.717814, 0.728298, 0.730091, 0.738111, 0.736471, 0.7353, 0.735763, 0.737439
0.394704, 0.393476, 0.493568, 0.396652, 0.403951, 0.411636, 0.415106, 0.420782, 0.413921, 0.414353, 0.441811, 0.440004, 0.439937, 0.435275, 0.433986, 0.434043, 0.435634, 0.441683, 0.440945, 0.435216, 0.448237, 0.448231, 0.448149, 0.811756, 0.422621, 0.422286, 0.42035, 0.726175, 0.412962, 0.414835, 0.415483, 0.423549, 0.424916, 0.435827, 0.447649, 0.446374, 0.448106, 0.448505, 0.448656, 0.446276, 0.450568, 0.439995, 0.424994, 0.4239, 0.567153, 0.580842, 0.479524, 0.867072, 0.84347, 0.484388, 0.473842, 0.811574, 0.471152, 0.474157, 0.477354, 0.491097, 0.493947, 0.495276, 0.505569, 0.506678, 0.856397, 0.501211, 0.502182, 0.502547, 0.503079, 0.535166, 0.962418, 0.912785, 0.907814, 0.902952, 0.881444, 0.884064, 0.531661, 0.5321, 0.533276, 0.962747, 0.648994, 0.570977, 0.5873, 0.597591, 0.997686, 0.99872, 1.02488, 0.984239, 0.712182, 0.90286, 0.966066, 0.954112, 0.908896, 0.942966, 0.852148, 0.899268, 0.940234, 0.871498, 0.870557, 0.761305, 0.762996, 1.09414, 0.646118, 0.641229, 0.641201, 0.654284, 0.650357, 0.631333, 0.622997, 0.619873, 0.635562, 0.63543, 0.635503, 0.636843, 0.639617, 0.646586, 0.646579, 1.58287, 0.675035, 0.679358, 0.680853, 0.683577, 0.729491, 0.684207, 0.69963, 0.67607, 0.676519, 0.686198, 0.686319, 0.701896, 0.70077, 0.70376, 0.705312, 0.704672, 0.701135, 0.843553, 0.702603, 0.714676, 0.716741, 0.72267, 0.719176, 0.720572, 0.720916, 0.718241, 0.718967, 0.71825, 0.780669, 0.72866, 0.780555, 0.732905, 0.735024, 0.733249, 0.736182, 0.737876
0.511192, 0.507804, 0.396266, 0.396538, 0.396928, 0.416771, 0.402772, 0.403323, 0.414376, 0.613893, 0.429374, 0.438043, 0.435934, 0.433995, 0.434254, 0.433508, 0.432519, 0.430871, 0.43235, 0.435997, 0.44601, 0.446527, 0.755809, 0.687919, 0.414977, 0.414303, 1.14974, 0.418909, 0.414331, 0.413904, 0.554056, 0.429436, 0.436115, 0.437932, 0.436916, 0.448338, 0.44958, 0.450869, 0.450821, 0.448628, 0.442689, 0.441646, 0.427337, 0.42574, 0.87833, 0.877514, 0.872437, 0.85667, 0.833285, 0.83554, 0.821759, 0.468982, 0.468699, 0.469378, 0.477103, 0.4818, 0.491312, 0.498727, 0.500223, 0.500921, 0.49988, 0.502828, 0.503252, 0.503401, 0.503527, 0.504706, 0.503982, 0.499496, 0.498548, 0.515991, 0.517019, 0.768238, 0.897475, 0.532971, 0.53469, 0.997493, 0.567027, 0.568621, 0.992255, 0.600266, 1.01596, 0.814635, 0.933453, 0.885973, 0.901338, 0.936334, 0.721967, 0.652542, 0.904449, 0.928596, 0.957573, 0.990527, 0.946243, 0.849289, 0.775088, 0.637979, 0.645299, 0.642264, 0.644209, 0.64066, 0.640024, 0.641728, 0.633327, 0.63337, 0.62471, 0.622292, 0.629215, 0.631903, 0.681029, 0.692411, 0.639432, 0.638579, 0.650256, 0.650052, 0.649202, 0.647536, 0.676283, 0.68304, 0.728262, 0.695321, 0.694522, 0.676143, 0.677308, 0.972213, 0.718307, 0.690372, 0.69544, 0.946484, 0.684256, 0.685812, 0.686699, 0.69613, 0.701507, 0.925326, 0.71123, 0.754543, 0.718087, 0.721492, 0.721516, 0.717568, 0.717888, 0.706964, 0.707169, 0.7144, 0.842361, 0.78093, 0.734322, 0.733825, 0.734019, 0.73577
0.562705, 0.603066, 0.396663, 0.396076, 0.400825, 0.414342, 0.406501, 0.404604, 0.419561, 0.428259, 0.432382, 0.431714, 0.430862, 0.428205, 0.429294, 0.428821, 0.429572, 0.429671, 0.432459, 0.623496, 0.445484, 0.444737, 0.632518, 0.423484, 0.415603, 0.412971, 0.415048, 0.420499, 0.423971, 0.422986, 0.425854, 0.425984, 0.43235, 0.435303, 0.764165, 0.448968, 0.449416, 0.450111, 0.451512, 0.451644, 0.448643, 0.443175, 0.439542, 0.435264, 0.437126, 0.439055, 0.473667, 0.862008, 0.475583, 0.916202, 0.463504, 0.468392, 0.468386, 0.469816, 0.491707, 0.47986, 0.654173, 0.49019, 0.496557, 0.497269, 0.496592, 0.495358, 0.502371, 0.502972, 0.504008, 0.503674, 0.500639, 0.499735, 0.499327, 0.514759, 0.514855, 0.523597, 0.998334, 0.531768, 0.905635, 0.63951, 0.736781, 0.569557, 0.983465, 0.98733, 1.01876, 0.963157, 0.911237, 0.714686, 0.912606, 0.682586, 0.857126, 0.675721, 0.673719, 0.921913, 0.92007, 0.627283, 0.628581, 0.629678, 0.631795, 0.635286, 0.634852, 0.64286, 0.644018, 0.64071, 0.639386, 1.20873, 0.625964, 0.62915, 0.620969, 0.619376, 0.61787, 0.628957, 0.626237, 0.644257, 0.638502, 0.639354, 0.648931, 0.650185, 0.649084, 0.646374, 0.645748, 0.645352, 0.719069, 0.690956, 0.655519, 0.65651, 0.00429462, 0.670122, 0.697497, 0.701351, 0.692026, 0.68057, 0.682559, 0.687464, 0.689505, 0.694705, 0.695475, 0.710842, 0.705491, 0.720466, 0.718655, 0.717778, 0.712674, 0.714229, 0.709294, 0.709402, 0.710805, 0.714319, 0.841778, 0.733129, 0.825247, 0.728604, 0.724616, 0.724498
0.482385, 0.478884, 0.396073, 0.394459, 0.394773, 0.406579, 0.406957, 0.406239, 0.405556, 0.5489, 0.427069, 0.431587, 0.431455, 0.431049, 0.430286, 0.429091, 0.433866, 0.432422, 0.432335, 0.444807, 0.445351, 0.442049, 0.42439, 0.939927, 0.410903, 0.412874, 0.411259, 0.415002, 0.424098, 0.423891, 0.425027, 0.427268, 0.43471, 0.441026, 0.442722, 0.447321, 0.448259, 0.44936, 0.452238, 0.454913, 0.453972, 0.443701, 0.441144, 0.438529, 0.437785, 0.438004, 0.742511, 0.735276, 0.457503, 0.458754, 0.465284, 0.465011, 0.461805, 0.469639, 0.47139, 0.471229, 0.746717, 0.587374, 0.588255, 0.496418, 0.49408, 0.492511, 0.71183, 0.940008, 0.698599, 0.698901, 0.936898, 0.93602, 0.866814, 0.563597, 0.549857, 0.559806, 0.566311, 0.567188, 0.567704, 0.714821, 0.552999, 1.01124, 0.816042, 0.752841, 0.970835, 0.96117, 0.856815, 0.732558, 0.913993, 0.750829, 0.750407, 0.784222, 0.822862, 0.832958, 0.831692, 0.627452, 0.628126, 0.77737, 0.630104, 0.633666, 0.635144, 0.629669, 0.630303, 1.17916, 1.17248, 0.631054, 0.62594, 0.628763, 0.615279, 0.616493, 0.616182, 0.614851, 0.604203, 0.628141, 0.631267, 0.63214, 1.68109, 0.64747, 0.648604, 0.648323, 0.645448, 0.645058, 0.645291, 0.652283, 0.655176, 0.652852, 0.667492, 0.669339, 0.669451, 0.677625, 0.680392, 0.682926, 0.683277, 0.687939, 0.690197, 0.732708, 0.701567, 0.698323, 0.718212, 0.712528, 0.713522, 0.714249, 0.714319, 0.714769, 0.710781, 0.710783, 0.702314, 0.703894, 0.704676, 0.73878, 0.716086, 0.724237, 0.725026, 0.725907
0.512899, 0.383924, 0.389119, 0.390004, 0.400517, 0.410792, 0.406868, 0.406772, 0.406233, 0.412313, 0.425239, 0.430358, 0.430764, 0.428577, 0.429535, 0.436224, 0.435863, 0.432593, 0.431488, 0.447103, 0.439643, 0.625512, 0.625621, 0.004561, 0.409097, 0.407576, 0.939795, 0.416492, 0.415527, 0.422708, 0.4209, 0.426056, 0.434935, 0.439772, 0.441055, 0.448293, 0.44887, 0.448494, 0.487036, 0.454603, 0.454112, 0.445452, 0.444995, 0.441148, 0.437349, 0.438699, 0.849125, 0.739424, 0.458058, 0.457803, 0.461808, 0.463007, 0.464117, 0.4686, 0.471368, 0.4749, 0.744329, 0.468864, 0.468923, 0.480464, 0.481592, 0.487994, 0.488339, 0.808631, 0.488866, 0.486676, 0.485917, 0.480692, 0.766753, 1.13663, 0.544391, 0.537137, 1.09081, 1.13711, 0.546337, 0.548763, 0.548842, 0.887407, 0.629998, 0.904573, 0.901354, 0.855352, 0.687299, 0.815634, 0.639227, 0.646473, 0.76008, 0.841996, 0.928604, 0.687042, 0.619241, 0.612827, 0.611941, 0.702915, 0.635175, 1.29333, 0.622139, 0.622513, 0.631249, 0.623809, 0.636816, 0.634775, 0.636045, 0.642367, 0.615371, 0.615464, 0.613792, 0.609127, 0.611046, 0.620373, 0.625459, 0.628194, 0.6305, 0.63151, 0.639961, 0.645578, 0.646004, 0.6447, 0.644958, 0.644207, 0.643223, 0.94343, 0.655292, 0.668754, 0.669101, 0.669228, 0.669242, 0.679683, 0.676413, 0.684419, 0.685055, 0.911782, 0.693515, 0.711043, 0.705431, 0.710524, 0.710442, 0.708252, 0.708871, 0.708739, 0.707139, 0.71006, 0.710846, 0.705099, 0.705343, 0.729303, 0.718094, 0.721632, 0.727864, 0.729802
0.379706, 0.380507, 0.386002, 0.387089, 0.395146, 0.399534, 0.526749, 0.407686, 0.414013, 0.412874, 0.410757, 0.425293, 0.429475, 0.429627, 0.43666, 0.437642, 0.436667, 0.431599, 0.963142, 0.962013, 0.663771, 0.601739, 0.619332, 0.632523, 0.726527, 0.532095, 0.537004, 0.413764, 0.410843, 0.422544, 0.422194, 0.421954, 0.427966, 0.429032, 0.437964, 0.439345, 0.448246, 0.447076, 0.774785, 0.452999, 0.453704, 0.445914, 0.446342, 0.445984, 0.446575, 0.442341, 0.804884, 0.454048, 0.455071, 0.455467, 0.455545, 0.961088, 0.570259, 0.767697, 0.771786, 0.459966, 0.558934, 0.46951, 0.468994, 0.894134, 0.480795, 0.488545, 0.488436, 0.482502, 0.473782, 0.473826, 0.474202, 0.759825, 0.819082, 1.14011, 0.997654, 0.5393, 1.16214, 1.15631, 0.546362, 0.549163, 0.549158, 0.548257, 0.547988, 0.548844, 0.78849, 0.963068, 0.803963, 0.668254, 0.865265, 0.756679, 1.00839, 0.842498, 0.877259, 0.762674, 0.745797, 0.72947, 0.610389, 0.608923, 0.612334, 0.63534, 0.623853, 0.624278, 0.61613, 0.617536, 0.636096, 1.02892, 0.640638, 0.625684, 0.622339, 0.602753, 0.606321, 0.606549, 0.613036, 0.61833, 0.621609, 0.627954, 0.631733, 0.629712, 0.631235, 0.639278, 0.6408, 0.645072, 0.633852, 0.635769, 0.63133, 0.639135, 0.638683, 0.654035, 0.658655, 0.658868, 0.663688, 0.666127, 0.667469, 0.675585, 1.62054, 0.818488, 0.694575, 0.69808, 0.703325, 0.699625, 0.700436, 0.704421, 0.711051, 0.712281, 0.712635, 0.709624, 0.702191, 0.70222, 0.70437, 0.710638, 0.716872, 0.723419, 0.727221, 0.730512
0.381357, 0.380435, 0.383426, 0.387264, 0.388292, 0.392796, 0.394754, 0.400335, 0.646004, 0.410692, 0.421138, 0.425289, 0.428054, 0.427801, 0.431195, 0.436343, 0.435278, 0.943296, 0.643993, 0.620324, 0.659374, 0.388544, 0.766632, 0.633643, 0.632515, 0.884111, 0.531019, 0.601971, 0.407221, 0.409116, 0.419909, 0.415253, 0.58411, 0.433054, 0.435312, 0.439456, 0.438226, 0.71179, 0.634142, 0.72766, 0.443601, 0.444796, 0.444778, 0.445279, 0.447687, 0.445211, 0.444619, 0.448578, 0.454923, 0.454779, 0.768975, 0.767211, 0.96109, 0.776744, 0.800975, 0.461741, 0.460654, 0.447159, 0.448142, 0.763546, 0.760499, 0.477559, 0.482774, 0.483419, 0.482682, 0.47492, 0.474953, 0.486858, 0.491042, 0.493785, 0.494412, 0.587977, 1.14047, 0.538756, 0.543449, 0.545274, 0.542188, 0.542239, 0.864155, 0.865421, 0.749943, 0.733318, 0.728952, 0.83581, 0.669387, 0.601017, 0.600361, 0.58998, 0.593207, 0.592097, 0.591115, 0.592397, 0.598348, 0.596287, 0.614563, 0.613937, 0.614031, 0.614966, 0.616219, 0.615658, 0.609036, 0.601684, 0.601614, 0.600621, 0.600903, 0.603335, 0.601199, 0.60038, 0.884572, 0.614383, 0.61532, 0.625556, 0.631171, 0.630628, 0.629895, 0.673384, 0.669406, 0.669874, 0.660864, 0.634142, 0.633698, 0.635572, 0.705366, 0.656038, 0.658637, 0.659065, 0.66339, 0.668108, 0.669675, 0.838642, 0.683817, 0.690969, 0.693316, 0.753857, 0.732141, 0.700604, 0.701481, 0.708061, 0.711148, 0.711267, 0.715858, 0.715916, 0.703622, 0.704348, 0.70672, 0.711759, 0.715239, 0.720721, 0.72447, 0.726622
0.38013, 0.383218, 0.385055, 0.388971, 0.390774, 0.390911, 0.438931, 0.497345, 0.490924, 0.408796, 0.5954, 0.713038, 0.695651, 0.696065, 0.751566, 0.649589, 0.6679, 0.5715, 0.681019, 0.661016, 0.662814, 0.37941, 0.745471, 0.646674, 0.64441, 0.640194, 0.635045, 0.396331, 0.409952, 0.410991, 0.417348, 0.417224, 0.581122, 0.428779, 0.434547, 0.437902, 0.657637, 0.659309, 0.416209, 0.675897, 0.815637, 0.800952, 0.427686, 0.434108, 0.436125, 0.437628, 0.443652, 0.448296, 0.77703, 0.771963, 0.96331, 0.492288, 0.694712, 0.694914, 0.452146, 0.447576, 0.451641, 0.451288, 0.449161, 0.757914, 0.477356, 0.478374, 0.482975, 0.484335, 1.18638, 0.489731, 0.490868, 0.494331, 1.12106, 0.496351, 0.542666, 0.518126, 0.564882, 0.534851, 0.535973, 0.537839, 0.537853, 0.53819, 0.545479, 0.703486, 0.563124, 0.704428, 0.731503, 0.731086, 0.626405, 0.597321, 0.591579, 0.59293, 0.594423, 0.595486, 0.594829, 0.594651, 0.59733, 0.599926, 0.598821, 0.611285, 0.612976, 0.612408, 0.609206, 0.607587, 0.596703, 0.601085, 0.603135, 0.600772, 0.597404, 0.597232, 0.597952, 0.598868, 0.622284, 0.614649, 0.618408, 0.622303, 0.630566, 0.629371, 0.62823, 0.622966, 0.66298, 0.664368, 0.660452, 0.66347, 0.660069, 0.682811, 0.686978, 0.684226, 0.685685, 0.686791, 0.671799, 0.673123, 0.678753, 0.682885, 0.686055, 0.687781, 0.692642, 0.693124, 0.72141, 0.695907, 0.700028, 0.707993, 0.710015, 0.713674, 0.713842, 0.712386, 0.704406, 0.708292, 0.710597, 0.71221, 0.714592, 0.721577, 0.725904, 0.728523
0.378096, 0.383911, 0.383013, 0.385089, 0.631962, 0.629737, 0.377886, 0.472018, 0.472387, 0.632537, 0.64273, 0.685107, 0.960257, 0.797461, 0.688095, 0.63947, 0.586875, 0.589225, 0.377281, 0.377847, 0.378295, 0.380505, 0.377761, 0.370176, 0.359036, 0.359343, 0.639925, 0.435461, 0.00450255, 0.74666, 0.4093, 0.41365, 0.710988, 0.425711, 0.424546, 0.660416, 0.411603, 0.417045, 0.417259, 0.412719, 0.711584, 0.802174, 0.432084, 0.434596, 0.435378, 0.436843, 0.445398, 0.446844, 0.776551, 0.435203, 0.434396, 0.435509, 0.441145, 0.445095, 0.441502, 0.448196, 0.447939, 0.450738, 0.755778, 0.468544, 0.749529, 0.477835, 0.488024, 0.490614, 0.491842, 0.492574, 0.492001, 0.496033, 0.501211, 0.631228, 0.737947, 0.651859, 0.642954, 0.537816, 0.538695, 0.539149, 0.538964, 0.547497, 0.546668, 0.557065, 0.829435, 0.711315, 0.731274, 0.749397, 0.82562, 0.59128, 0.593556, 0.593515, 0.594102, 0.594184, 0.593327, 0.731935, 0.596196, 0.599908, 0.59943, 0.600414, 0.605179, 0.606573, 0.596487, 0.596533, 0.596919, 0.600506, 0.59961, 0.589923, 0.597663, 0.598653, 0.600174, 0.600849, 0.602941, 0.604281, 0.614787, 0.617954, 0.629941, 0.631769, 0.625032, 0.624637, 0.62347, 0.620953, 0.621886, 0.662698, 0.668151, 0.631063, 0.633655, 0.676746, 1.23623, 0.682069, 0.67281, 0.674362, 0.675062, 0.759262, 0.686403, 0.686054, 0.687401, 0.690663, 0.693658, 0.69923, 0.700266, 0.705742, 0.705795, 0.707444, 0.705704, 0.709139, 0.708184, 0.710477, 0.710861, 0.715603, 0.717657, 0.718586, 0.725242, 0.729373
0.3763, 0.383536, 0.382536, 0.768155, 0.585813, 0.369761, 0.369145, 0.370015, 0.594895, 0.659794, 0.766308, 1.13759, 1.13668, 1.1157, 0.646359, 0.601686, 0.538602, 0.894656, 0.378868, 0.377349, 0.371626, 0.375499, 0.369947, 0.808872, 0.361491, 0.635413, 0.416504, 0.415426, 0.421828, 0.418139, 0.408735, 0.407918, 0.408116, 0.646932, 0.415316, 0.413774, 0.413983, 0.417139, 0.413754, 0.413635, 0.603068, 0.806871, 0.802419, 0.434759, 0.435785, 0.436951, 0.444704, 0.434918, 0.434829, 0.438035, 0.435453, 0.435465, 0.441705, 0.442891, 0.44361, 0.44716, 0.756173, 0.753004, 0.464351, 0.469033, 0.468822, 0.727921, 0.756402, 0.784897, 0.493558, 0.493634, 0.492784, 0.684184, 0.677461, 0.888897, 0.689241, 0.777412, 1.14059, 0.796818, 0.538839, 0.549322, 0.551658, 0.555041, 0.557252, 0.558871, 0.920869, 0.655228, 0.821016, 0.725697, 0.826281, 0.826638, 0.591443, 0.591377, 0.580813, 0.581988, 0.578026, 0.581581, 0.598474, 0.599383, 0.59728, 0.601573, 0.603182, 0.603586, 0.599767, 0.598415, 0.596595, 0.596105, 0.59569, 0.591328, 0.591469, 0.597926, 0.600044, 0.598605, 0.596731, 0.605662, 0.60746, 0.615407, 0.619587, 0.622952, 0.62611, 0.627515, 0.62124, 0.62094, 0.621326, 0.621632, 0.623129, 0.626796, 0.772778, 0.639099, 0.642146, 0.6689, 0.668022, 0.672492, 0.672512, 0.689171, 1.07382, 0.684424, 0.686067, 0.687363, 0.685946, 0.687501, 0.696902, 0.695667, 0.707099, 0.708, 0.710427, 0.70944, 0.707433, 0.707349, 0.707904, 0.711097, 0.712741, 0.718661, 1.05435, 0.733327
0.378187, 0.378769, 0.368941, 0.577931, 0.797485, 0.370076, 0.369395, 0.372237, 0.382772, 0.652818, 0.363775, 0.362273, 1.13752, 1.14065, 0.574157, 0.372273, 0.370865, 0.369275, 0.368584, 0.372514, 0.372135, 0.371804, 0.372424, 0.367873, 0.368503, 0.368933, 0.377082, 0.380165, 0.391197, 0.390936, 0.390829, 0.404516, 0.40699, 0.402792, 0.395505, 0.403286, 0.412274, 0.413879, 0.413875, 0.412449, 0.81791, 0.808908, 0.805091, 0.545812, 0.795342, 0.436302, 0.43741, 0.436322, 0.435032, 0.43308, 0.432982, 0.412773, 0.415534, 0.851246, 0.441686, 0.772763, 0.776172, 0.468708, 0.46729, 0.466586, 0.783984, 0.484139, 0.48777, 0.490356, 0.494423, 0.494004, 0.495126, 0.49541, 0.536491, 0.704963, 0.510108, 0.657533, 0.746866, 0.744972, 0.545605, 0.551392, 0.554679, 0.557302, 0.558316, 0.550134, 0.551231, 0.565933, 0.684746, 0.82553, 1.11978, 0.574459, 0.574452, 0.573187, 0.582986, 0.583238, 0.580157, 0.580455, 0.777507, 0.592289, 0.591646, 0.596327, 0.602672, 0.603607, 0.598677, 0.593838, 0.596864, 0.590593, 0.627704, 0.582953, 0.58374, 0.621954, 0.59887, 0.599416, 0.596793, 0.602811, 0.606431, 0.606617, 0.608892, 0.616022, 0.619603, 0.624936, 0.624416, 0.623343, 0.624439, 0.624672, 0.626191, 0.62773, 0.630231, 1.13266, 0.662366, 0.664261, 0.660683, 0.663838, 0.667009, 1.08463, 1.07945, 0.825181, 0.819031, 1.1711, 0.693044, 0.689574, 0.692223, 0.695578, 0.697461, 0.700436, 0.701413, 0.700185, 0.700364, 0.706999, 0.70295, 0.708766, 0.713355, 1.13313, 0.726162, 0.733162
0.36986, 0.369074, 0.367003, 0.360372, 0.358974, 0.358958, 0.360913, 0.43942, 1.18159, 0.36551, 0.365118, 0.362932, 0.539059, 0.388227, 0.708561, 0.602875, 0.371478, 0.370696, 0.367494, 0.369889, 0.368294, 0.370645, 0.363364, 0.363362, 0.368339, 0.368863, 0.378796, 0.379313, 0.631618, 0.392488, 0.393363, 0.393143, 0.403159, 0.592879, 0.397099, 0.403049, 0.401504, 0.400932, 0.842827, 0.399523, 0.409964, 0.41043, 0.808032, 0.803988, 0.798482, 0.609063, 0.435687, 0.433987, 0.434357, 0.433539, 0.430846, 0.42808, 0.42858, 0.825939, 0.815573, 0.800931, 0.469896, 0.472126, 0.470291, 0.46905, 0.787518, 0.487854, 0.490044, 0.491444, 0.495064, 0.497377, 0.496582, 0.496707, 0.499527, 0.712473, 0.51153, 0.813842, 0.754915, 0.539346, 0.540176, 0.684917, 0.639711, 0.724655, 0.558667, 0.556876, 0.555551, 0.75059, 0.72545, 0.828843, 1.10623, 0.574303, 0.574822, 0.57409, 1.29302, 1.29375, 0.769865, 1.34058, 0.766315, 0.767598, 0.590611, 0.59109, 0.736049, 0.586211, 0.589548, 0.590035, 0.591287, 0.58622, 0.707838, 0.584536, 0.573728, 0.598685, 0.586438, 0.587224, 0.593275, 0.601384, 0.603689, 0.604475, 0.608779, 0.614788, 0.621234, 0.62222, 0.625722, 0.624485, 0.626241, 0.625914, 0.627751, 0.629322, 0.632278, 1.28203, 0.659613, 0.652894, 0.656264, 0.656004, 0.65418, 0.655412, 0.661979, 0.662063, 0.867538, 0.705674, 0.835179, 1.05511, 1.04985, 0.695102, 0.694515, 0.701381, 0.694414, 0.697053, 0.696963, 0.698952, 0.701272, 0.711245, 0.713806, 0.724946, 0.725803, 0.725578
