0.501573389229352,0.503458743107482,0.504982959535726,0.506253750256075,0.507014825532185,0.507758942483756,0.507898246530741,0.508834152530674,0.509356732915414,0.50987768065535,0.509571077701735,0.508734838324021,0.507519107913585,0.506936838263825,0.506024245765679,0.513123853224511,0.512823240679089,0.51306356485196,0.513542542368109,0.514162213424281,0.514963574667662,0.516172594602675,0.517547331775794,0.518801712560322,0.526188321093536,0.526130944404156,0.526922677080069,0.527076024902997,0.527262965236518,0.543438859427421,0.548146838741683,0.547918351861705,0.547685815250519,0.547746252455882,0.599711655056465,0.639879975246903,0.669189755298067,0.649844429962477,0.650047429592,0.683988291315019,0.685834783687075,0.685368123885213,0.603318894413751,0.603517375751952,0.603601764000743,0.603747030496177,0.603602065649245,0.635896691067014,0.657637089381534,0.673505856909055,0.685557314175265,0.681624217959076,0.66648617546326,0.655584971608107,0.640320878942323,0.640205913635802,0.639808999749107,0.638510387408163,0.637419741021375,0.63647676483859,0.635646120548099,0.636041475533884,0.633903800077138,0.630873223517873,0.629391972591035,0.681521582461558,0.701164002247179,0.701573244883948,0.703465761694824,0.794736966632825,0.853131719907884,0.853725219007538,0.8942325892511,0.894744683516182,0.902192959580552,0.920879631396369,0.94740877946465,0.947401871603417,0.947480754713561,1.00786746242099,1.02333266925577,1.03492618847428,1.04018109332009,1.04030047262496,1.05520749372192,1.07157627618507,1.09016068616643,1.09086873968738,1.09131662897954,1.09161566532974,1.09186115411242,1.09218262968188,1.09259996108204,1.09290710305725,1.09335177697909,1.09411284657947,1.09515962123387,1.09608357351759,1.09640942654084,1.1084119675413,1.11325282639777,1.11708856166713,1.12165370371851,1.12541370643641,1.12884197835308,1.13365740166175,1.14158393332905,1.14813342785345,1.16101670667462,1.16490362133039,1.17048803975127,1.20952291510565,1.22406778636357,1.22447224957814,1.22406301846805,1.23311879247557,1.27007832354065,1.26926656077816,1.26826766908156,1.26112704290845,1.25878038596465,1.25855953976058,1.25807061666507,1.24749969116542,1.24505976803159,1.24707278005817,1.24736286072156,1.24756024625854,1.24817937567571,1.24879165104528,1.24917392595802,1.2495192342259,1.24976715026708,1.25184280016812,1.25175454799197,1.28321184661497,1.29185667903916,1.30104788837468,1.32973314670454,1.31984566895021,1.31187111910553,1.30493008657213,1.28715449032385,1.28618779399865,1.30474265940026,1.27341172357835,1.27115533276208,1.27086721918966,1.26649358107137,1.26582865999714,1.26481511801875,1.2635220468351,1.26274156951451,1.26259005632889,1.26312500683424,1.25817873435863,1.25146674249453,1.24853863881206,1.24902557811056,1.31074506273443,1.31427894535991,1.29756969883018,1.28570092320181,1.2739387754178,1.26192488039204,1.24857051352885,1.24657519428702,1.23486364602138
0.501556943004139,0.504088545109207,0.506273326137443,0.506517032786995,0.507679405629588,0.507614078960782,0.508048508126268,0.508158178554031,0.509490726253219,0.509577703126207,0.510212053987593,0.508472022700498,0.50726486329859,0.507037355627285,0.506089783056581,0.512608803209443,0.512090541557678,0.513140078147741,0.513201046376907,0.514319164616003,0.514117610420636,0.516241471086852,0.517182786893484,0.518235005043717,0.527130630991897,0.52696404849353,0.527419223676687,0.527032033064865,0.527120012334916,0.54407664583643,0.849257984330517,0.547470126226996,0.54701934308192,0.547113233271513,0.546984649982631,0.615578841078198,0.693211152309949,0.650083717057878,0.650669833538748,0.68097786451346,0.691210691359755,0.681117180996617,0.602781456557367,0.60322200174893,0.603267784103033,0.603492617199295,0.603315220632404,0.643825579415287,0.862207940857414,0.87333030059022,0.884633939498854,0.844639896384291,0.818434157372319,0.655520775672563,0.639763327467959,0.639872531061854,0.63962035268369,0.637205585178333,0.635173229265671,0.635098419476202,0.633980287202741,0.638053652490372,0.672711970865939,0.63550904432658,0.628993478083974,0.669573141747996,0.700259779382319,0.7010362450131,0.702797204674256,0.792216141351057,0.85505351785797,0.854590543367202,0.893638042349487,0.893731543741131,0.897923859920725,0.918475840033564,0.981951608360401,0.95968503311843,0.943462237639502,1.00805104211861,1.00712645133481,1.03152037621312,1.03686366458955,1.04010596354734,1.06267856203565,1.07436554048549,1.08881536462309,1.07620006775578,1.05786855686572,1.05736371653066,1.05726395621534,1.07507264979791,1.09273994883021,1.08072581742156,1.06799638850693,1.08355111703719,1.08659421288562,1.08911533167843,1.0925509437542,1.10198196886394,1.11066002630435,1.11587476936005,1.11895836392054,1.12377709824737,1.12833550418336,1.13259792036368,1.14075166996879,1.14250910403389,1.16172801683466,1.16354533229208,1.16257488032077,1.21416793447201,1.2264130464306,1.22509464297394,1.22155042161575,1.23158230448362,1.27100786093399,1.26930826725708,1.26819191092512,1.25602733623959,1.25010314366573,1.25397289231943,1.25659354978432,1.2462682896376,1.24604460073508,1.2384933758622,1.22828571261243,1.22745737617519,1.22773574420091,1.23174897466753,1.23649320584141,1.24021058128155,1.24769576964088,1.24873322847365,1.24908132585985,1.27551487341223,1.28326224388051,1.29199316736874,1.34908244245945,1.31119173875362,1.29724117455791,1.29519438247959,1.27432603504243,1.28387451335423,1.31948351503036,1.27237261243683,1.27061817928686,1.26938533653339,1.26767566671707,1.26634660327782,1.26730878442817,1.26259598656413,1.26290428643108,1.26249804346657,1.28097032560891,1.25526488623051,1.23863806613983,1.24799583657978,1.24019751829988,1.30176645348873,1.34798333105298,1.28501484229798,1.22838120968626,1.22978611491066,1.23189584357801,1.23798256808311,1.24240643994138,1.22309873832021
0.500926108369402,0.505416500443695,0.505522458175479,0.506436535819497,0.507210741973587,0.507470224821752,0.507309495368532,0.507260202116514,0.507275522258137,0.508806855885114,0.50814701555017,0.507771338570411,0.507476176451125,0.507962666377778,0.509058522411528,0.510858790027906,0.512907407866495,0.513085891266564,0.514285579036165,0.51413968464594,0.515417562117684,0.515819662035402,0.517060673117648,0.518081240549329,0.763746043854367,0.527335213374453,0.5269973473978,0.52644130450916,0.52640959551607,0.542732746585317,0.541637304640174,0.542679535863811,0.545819524157251,0.54667010783816,0.546693817432992,0.568747463983921,0.578305997116408,0.635054112740359,0.601786205389441,0.669003701202584,0.669234443914577,0.668746027857012,0.601379982385094,0.637675736871166,0.654537680649611,0.652125550659821,0.651150870124324,0.650603623652442,1.01948384049017,0.895196373145015,1.04459056061343,0.870980153974679,0.933896557555513,0.655443292619921,0.608068257057979,0.608883884353307,0.610491970884735,0.635553530285507,0.633991163348073,0.634274941150918,0.633566717153344,0.639535467281043,0.642501440660685,0.640731389769806,0.648393914469659,0.655242330108029,0.653480106918947,0.698280810059277,0.712273687000005,0.788649315078367,0.850009291312141,0.84968777583971,0.849870052964169,0.869420238643911,0.87553571840376,0.916419678097972,0.974958689111635,0.967149924652402,1.02991072031493,1.01865240504427,1.02021741516413,1.02520104070058,1.02697359107786,1.03340593444188,1.15576927214516,1.07848174452618,1.08358454200014,1.06881955574001,1.05743822727934,1.05717554579885,1.05736928945262,1.05526997878496,1.05402075193599,1.06724171095965,1.12214709226479,1.08029849259512,1.07558792596051,1.08243518911749,1.08929001733436,1.08961789956738,1.09074694374546,1.10041041159903,1.10137539100484,1.1027263566378,1.10338348170463,1.13187351345747,1.13433277713282,1.13921958134899,1.14453256346018,1.16279824062566,1.19913018202929,1.21745807967754,1.23114113359044,1.22802050756227,1.22777741621758,1.22933774664508,1.29525634912585,1.25999915907437,1.24665272553316,1.2536761661323,1.28010822071235,1.24652445812961,1.2388445960416,1.24309450209352,1.24706073019782,1.23409146058977,1.22944155796699,1.22729627694352,1.22267541126678,1.22433963120016,1.22386796277362,1.22664948673512,1.23249991966933,1.24138382227696,1.25279877898222,1.25773593187594,1.25793460369682,1.25876651809819,1.25948531040609,1.26217364208865,1.26413546969376,1.29313922264542,1.34003178005098,1.28364000209513,1.28172758578884,1.27156912704534,1.27003409933603,1.26834019817439,1.26766918656892,1.26560405842643,1.27608205046945,1.26112067739552,1.25157143382954,1.25080231341288,1.23883603649087,1.23972134230843,1.24010947865273,1.25468016016672,1.28566782263332,1.29418084895715,1.27535073911919,1.27437874120751,1.20485931561466,1.20362822169393,1.20244326064702,1.21523696093266,1.23164848774771,1.21349870530803
0.619586449005785,0.561003907241353,0.603875026505459,0.598096084179895,0.828645051722277,0.523514792040389,0.524420796810494,0.512176902004926,0.522374538632266,0.50889181981336,0.507489175130048,0.506989525710169,0.507463322749946,0.508464805401227,0.50877989169203,0.509488694203441,0.511368524429415,0.513212678394584,0.513736024634296,0.51491635190536,0.514356311260594,0.516396850085107,0.516694074575721,0.518579336551715,0.519638728296733,0.521565709576501,0.525292847476638,0.525490284775348,0.525426459125948,0.541401766048751,0.541092927567177,0.541767666562412,0.540667656213166,0.547778121351356,0.54528096747131,0.563264374098835,0.706081823627608,0.64762405468203,0.683656851798006,0.670664938386716,0.67071028624023,0.670421341905706,0.759206196917082,0.75309167888627,0.753510757898262,0.656694412292663,0.651105653277392,0.650645719953126,0.748593028717284,0.742734003691307,0.736750928735077,0.77220602612534,0.933610479206691,0.655297089883009,0.590249706052954,0.590428438247501,0.59066653719396,0.664208026259151,0.734380369909018,0.73230070355667,0.733361651728926,0.653789466186109,0.640982679208902,0.641115708937922,0.652815440710937,0.656634392282349,0.656539164830112,0.696115966977144,0.739346546331636,0.78399357600134,0.778218752325435,0.849477575480132,0.849876733851092,0.866351067824033,0.929304052000528,0.914935843320472,0.914241282481682,0.919711806022427,0.913314529667638,0.958106327323535,1.02226680479602,0.988384988447565,0.964491816583255,0.989029891375595,1.00315062376972,1.02940296019845,1.0413793849048,1.06332621218506,1.0654525740331,1.05089411399928,1.04311177488762,1.04829274331464,1.0517954836168,1.05174077978849,1.05316059161007,1.06532975556126,1.06627467575349,1.07601012400021,1.08771196541765,1.08812792047028,1.10999839796702,1.09888675258145,1.09732374069188,1.09758653410328,1.09768818212061,1.12490405325821,1.11099314602218,1.12362569997355,1.13228497402263,1.16165488179978,1.22529523950022,1.22004128070979,1.23028416671442,1.22872917618672,1.22754342496977,1.2245177934301,1.22157800271284,1.23113390538473,1.24315428284176,1.24035402505185,1.2380399207199,1.24230288306245,1.2727109755392,1.23769859035486,1.23296930947798,1.22773836338574,1.22413543147538,1.22392180003546,1.22405144347054,1.22494476507387,1.22379915212382,1.22590784074684,1.21829260159255,1.23827196511518,1.24738505423908,1.25749928995896,1.2773557233349,1.25870924287451,1.25189552694149,1.25567796783948,1.28899598997079,1.29151213784123,1.32285748922097,1.27842043824636,1.26198758609645,1.26772342421832,1.27424948905601,1.2658229373667,1.26627877658527,1.26530110963075,1.31054783861466,1.25915622241834,1.24965306529606,1.25045126596364,1.23909853658765,1.23989646954686,1.25638070402964,1.26365599605622,1.35623118908044,1.30543485080279,1.35172975587613,1.27458524172039,1.16742864472454,1.17201499582071,1.16780784203679,1.2015027715233,1.23411429731323,1.20269299880147
0.490220963529088,0.534826855406815,0.587754412272392,0.593878853034611,0.788516351134824,0.522984229851616,0.522718479916846,0.508281098586935,0.499412419432563,0.500010867149975,0.500414295609804,0.504390955467599,0.50700097549596,0.508588658441578,0.507834350477185,0.506394875057802,0.505143053418691,0.511990008956159,0.514922220260044,0.514039844099827,0.515936452179426,0.515815760881813,0.518047046757454,0.518676996427875,0.520438545992209,0.520072578491578,0.519354619260197,0.52481777181947,0.524827047485841,0.540047346669733,0.540900267113691,0.541067948998737,0.541020249203771,0.549651980060615,0.677855638925654,0.559913137716993,0.555272473436658,0.55531242047855,0.554626802538092,0.554324722195983,0.553716116777248,0.600857608730567,0.758940353000205,0.752672464615582,0.753429903839219,0.661899504433099,0.667568106821539,0.650503349125182,0.649304796405563,0.725692801378835,0.712694567559991,0.727740800250754,0.654524294819713,0.654994538777228,0.590869662831287,0.590535486393698,0.590475217736163,0.687455357798281,0.725533683812627,0.729291881914386,0.805474616904299,0.658538074323145,0.641224256043646,0.641257240957016,0.641449087940273,0.657507089338772,0.657904012337193,0.694805882598627,0.693988402535082,0.78537638870938,0.786104904666521,0.848659448712027,0.867680472340825,0.864728332240163,0.853151932424492,0.910435992600162,0.9505096555765,0.922689547130045,0.89513914726387,0.922433018184013,0.92199644573653,0.932176006333794,0.94608951428608,0.968950929473895,0.982707802806023,1.00829895286769,1.06018539759086,1.06086295495336,1.06051159936766,1.04497381172277,1.02659363923157,1.03126603366646,1.03358144526221,1.04526730547193,1.0636590156665,1.06484157461706,1.06550195594706,1.06888552718697,1.10694153098939,1.08639020524008,1.08426381609674,1.08620286700541,1.0865351691909,1.08925395854576,1.08390863597229,1.12874617480904,1.17040769740675,1.11874763147197,1.11585350875634,1.16029962309311,1.20838590795513,1.20428882853567,1.19909062083167,1.19659081949421,1.17534253045999,1.20640673312142,1.21340282238751,1.21398366920368,1.21509184005729,1.23061579448686,1.25094046335807,1.24001615811979,1.23245533963256,1.23430067726551,1.23673687174853,1.22396428100205,1.22302689783559,1.22248023299032,1.2308653144174,1.22983311421466,1.23027498626327,1.22620013931306,1.21817851429507,1.23500272159578,1.25855175375494,1.2572935181727,1.32129968172796,1.25859077112299,1.2512752143701,1.25249082393847,1.25151144205033,1.25281191906228,1.25169882966298,1.25862187233275,1.25714930471243,1.26349445230596,1.32670905016891,1.2635600018802,1.25841274112879,1.26325381886635,1.27705098237998,1.25773444597505,1.24874312252751,1.25112653338624,1.22945656119623,1.24048827314365,1.24080341943249,1.27291584672858,1.27819608619269,1.27803154854851,1.27806827042951,1.27623432296957,1.18214349599202,1.17620903432297,1.16760507003326,1.17253183481917,1.17473708464631,1.19055596779998
0.492830210028419,0.49316784438745,0.494629545859421,0.494492897197887,0.495243332068744,0.503622510111972,0.52213820990762,0.504674053422699,0.50058607715346,0.500057084111751,0.500025416670667,0.498921382262279,0.498285384765367,0.49817756520625,0.499481337813815,0.504779634353018,0.506548659176487,0.510195301900958,0.511298839736024,0.513369473365928,0.51340389554696,0.515890426713414,0.518095552651747,0.519647286661442,0.519977978268125,0.520138633624465,0.519887114184095,0.52381440662267,0.690883035271301,0.53846812325481,0.539512638235458,0.541317731426187,0.540653710833141,0.549774047155139,0.606123239425032,0.55845477314094,0.556288670459885,0.555881246183274,0.555736121896343,0.554370628937537,0.553592968888831,0.552746421544698,0.552167446951328,0.551893141562373,0.551436550212413,0.555342581336976,0.557378179913,0.634007343326125,0.703070355226299,0.731977407391991,0.741617090397379,0.740327738244252,0.740270611903116,0.698383395767919,0.590294418158976,0.64264189454485,0.727256379819442,0.72684705404479,0.726393358428189,0.724715874659805,0.722966845691882,0.664308117682792,0.641473120436019,0.68223855968159,0.714097119464323,0.69002142553597,0.663763445373402,0.706500302406413,0.791811120495207,0.788809446441142,0.830198983031454,0.847824496072799,0.868794474147161,0.861271072276247,0.859769617534976,0.903302548746976,0.932102798365541,0.926088231113202,0.940446700897773,0.922850334774284,0.922669535328089,0.925608568351566,0.928555429874212,0.952615127855192,0.967056059896022,0.97236387574475,0.97708964264101,0.993986217571579,1.00480399902293,1.0294158379335,1.06200373334889,1.0297189947383,1.02797019918079,1.03889583261491,1.04935339897782,1.0523694861274,1.05668966436323,1.05984172157584,1.06227232941548,1.07363868722574,1.14829555372372,1.07801239254525,1.06990747159146,1.10062621102314,1.13962848857865,1.14153743003011,1.16978326345715,1.11644829600651,1.11615439900389,1.15917562385966,1.20011778866098,1.19405905186074,1.1579196597919,1.19163651017547,1.19383174667844,1.19910543610575,1.25108304909915,1.2081836723396,1.19066689057632,1.21790077389531,1.25042148128076,1.23580166653931,1.22501963772437,1.23460157108016,1.23179026448488,1.22167315023724,1.21965983540349,1.2225374046556,1.23084504587635,1.2303884330522,1.23051132785627,1.2255625533386,1.22459685073544,1.23107236212049,1.26811460989689,1.25659428948285,1.25924620389789,1.25847083126841,1.2595352700338,1.25580753619921,1.25138710713521,1.25587729429233,1.25823797651243,1.25939641415929,1.26059654674791,1.26106566550757,1.26121794294198,1.2609796178738,1.32080271144757,1.26118909448469,1.25491026304643,1.25716643891919,1.25440052717865,1.2534896382905,1.24519867385828,1.2540941462854,1.29403292502442,1.2811256803823,1.27898333995931,1.27812582922338,1.27789195229505,1.27695780899125,1.22438028957988,1.17751070826408,1.16742000780105,1.16934002929102,1.16777275457814,1.17288831833586
0.490817600329042,0.492241627833022,0.493783861297673,0.493784012255476,0.494470666985345,0.495034249309871,0.495595462874651,0.498121167805636,0.500313134437653,0.499773044150502,0.498894413292627,0.498725680813037,0.497874553494662,0.498037775667247,0.498357863376265,0.502449015952715,0.503535278492234,0.508737320710713,0.511893044604545,0.511373135706388,0.513755129668974,0.5138668522208,0.519470675835492,0.520000151974018,0.520173214854511,0.520362405128143,0.519471498594497,0.523437295423508,0.530681031057806,0.536403961200373,0.538302507110479,0.543789099002371,0.544979702074224,0.551394881891023,0.557987737056311,0.558594745588194,0.557807293745296,0.557467226965388,0.556516724332639,0.555583919441461,0.553310966068814,0.553577654677059,0.552567337789195,0.55265851352189,0.552158005156869,0.553187375242477,0.552621467366686,0.611778414477174,0.876281877258656,0.898389232220323,0.933884927891158,0.877031632983606,0.937617009665715,0.79459464919547,0.779871886097292,0.753166806533973,0.746653047463793,0.726341146008139,0.725276139253797,0.639195841960683,0.589895486265468,0.672795697005054,0.727228950879959,0.718549173637695,0.716863676137736,0.715462075479529,0.713939019229233,0.712462719222135,0.712309667852107,0.765108998006007,0.847632084125032,0.847416442844195,0.847129696100414,0.859682797253165,0.857635444761761,0.891806509796882,0.884270917686087,0.884375628922569,0.884435985853187,0.903751772846626,0.910722021064352,0.918617512036692,0.922647271585653,0.929055375057904,0.936447780859159,0.954571530828111,0.953331265441663,0.987812891536103,0.994159412779326,1.01229055742531,1.01777375784614,1.0199384611258,1.0209615841957,1.02250252538097,1.02805241309204,1.0489351415479,1.05595190667533,1.05785523680904,1.05897711162056,1.0632780526257,1.06478707058297,1.07502163642341,1.10702927117429,1.11239987951433,1.14896122736897,1.1428926968,1.1094315777339,1.11347965394033,1.11108839865592,1.15894805830444,1.18846971225082,1.18780450664078,1.18780259327926,1.18778748632473,1.15154053950503,1.15179009826669,1.15144195630477,1.1797496475069,1.19374518903459,1.20463879492523,1.2122713636534,1.22554062482596,1.23772796100379,1.23725773528597,1.23957271071436,1.21807618001441,1.20917326177061,1.21588532300468,1.25742880517554,1.25377770739118,1.25729417399992,1.22513914906266,1.22463480066499,1.22744566592854,1.28338639940105,1.25519933913557,1.2554612849685,1.25724537564609,1.25706862796949,1.25730277992349,1.25793196162509,1.25747331399304,1.25816303313517,1.25943858586662,1.25128714032404,1.25412682851567,1.27243078550997,1.25894715916377,1.257230078656,1.25900341394835,1.25764424877459,1.25839355418632,1.26027904796861,1.26217047843665,1.27414235019485,1.26598340375462,1.25808798150073,1.28207406641083,1.27969325441278,1.27759971228168,1.27796993058441,1.27729303423398,1.37400754927292,1.18391796708771,1.17203454770114,1.17030453941459,1.17070441585225,1.17141702565945
0.489802509041554,0.491132713830161,0.492854373088857,0.492432445579744,0.493607570268211,0.489979134302813,0.488483024216895,0.488326058753768,0.488430611838043,0.499168684327843,0.498072470403086,0.497948373957896,0.497085831810745,0.497925835166744,0.497715079751745,0.500534220758454,0.501298346295196,0.507320066528318,0.51026139018936,0.509718069833471,0.507956125602918,0.51494195835932,0.516135716182844,0.521269717401563,0.520968278027597,0.522116534333962,0.52452595147167,0.523874297634707,0.524449424727729,0.532624000888553,0.785906284417785,0.716957192305141,0.690485456460288,0.596020104104441,0.558832920122148,0.558834941249709,0.559520470996596,0.557918425513161,0.5588072307451,0.555821830310473,0.555284554700723,0.553810118715258,0.554071201933012,0.553046639527519,0.553127085746897,0.55300986010018,0.55322283002849,0.589294091678917,1.02538062249095,0.925085142977321,1.00283522745069,0.850665410936178,0.811775695895059,0.804428315967987,0.798278034601521,0.762752756466882,0.726585572070948,0.726314618407007,0.58973509548099,0.589094864389595,0.589574591291698,0.682586746371037,0.725049091935761,0.721410002580869,0.80879669376563,0.720356822457572,0.690669824253148,0.711089577881232,0.709777294730666,0.753089821256974,0.756765296928061,0.812921153142676,0.933892573344502,0.884682258385021,0.903718480054299,0.896893517443201,0.884700901074415,0.884561639813261,0.884582230955017,0.898200366714615,0.890244538846243,0.915549794013156,0.923886988102919,0.923897641682295,0.93978718988644,0.956548732265239,0.958904323978001,0.980528639766519,0.987103042331576,1.00663161760031,1.03915263363613,1.01930512502158,1.01753053804,1.01875488677725,1.03604779791555,1.04068185688015,1.06877184413742,1.04995988500999,1.03879946460712,1.05402871414331,1.07335628790886,1.0737719674893,1.12206555131998,1.11562876474111,1.12463248695313,1.14327450278163,1.1562468000012,1.13364320929671,1.11324029055263,1.15973119893886,1.19014569859998,1.18926563130105,1.18585637522626,1.18706205449503,1.16579453229449,1.15191212188992,1.15122504747632,1.17081171630976,1.17953796419452,1.19099372848057,1.23721565750518,1.21902452181173,1.20527392495109,1.20350787486777,1.19647771377368,1.19660320766585,1.19512457032605,1.21214865838748,1.27082823475085,1.24965780270477,1.24211724086417,1.22402723263754,1.22528987561716,1.22501636796193,1.22260540197382,1.24594515240899,1.25160979148469,1.25852532608982,1.25807967000666,1.25815356088218,1.25855403016792,1.26676249651236,1.28084506626016,1.26786037734666,1.34074855192654,1.25027257431703,1.24669937616135,1.2573392850955,1.32042998115677,1.26020199738065,1.26089655190919,1.25931956368799,1.26121960620276,1.26386659873687,1.28894603325169,1.26997469253977,1.26210762762207,1.28449539340151,1.38279063808577,1.2748165700391,1.27280339133433,1.24896288981062,1.2287288082155,1.19318127600019,1.20719509833689,1.16958585470609,1.17027543179583,1.16981238548368
0.489509637426762,0.490106678839399,0.489924184900301,0.488831037311243,0.486608499452493,0.488245536979186,0.488706954795761,0.488404998304364,0.488225258360486,0.498716765059037,0.497058030041075,0.497743332421352,0.497041939869183,0.498347743927907,0.499438185771568,0.500483826959004,0.500703634343284,0.506460871063865,0.506195377127739,0.50801704915239,0.508377551103421,0.514715886728402,0.569900554090388,0.526446804567617,0.5393175745664,0.522605864737513,0.525673928338827,0.524266309599247,0.524847421860379,0.52782158297677,0.877215612792611,0.82221345038081,0.796078950309037,0.620333027200966,0.55905492009126,0.55891488172011,0.558449380334646,0.558186796388533,0.557034868881656,0.556572994717238,0.554632032290644,0.55492627675522,0.553847742333327,0.554019895873617,0.553500527343992,0.553451881632043,0.553273152168149,0.55132549448481,0.549294633968546,0.554572172964872,0.555339679738241,0.704850623480691,0.83791773647991,0.852659729790384,0.872714819251687,0.772184529205088,0.795498877260772,0.72586791111072,0.589130823013124,0.589140956612176,0.589115009085503,0.692308812177564,0.715004074310258,0.721391146386752,0.754214653543335,0.726601430178613,0.745520426911063,0.719790889259029,0.723929532492039,0.746433589748034,0.764588198625522,0.791022811432256,0.841957252133724,0.869304596818047,0.924402367564357,0.904904635181849,0.945870649636134,0.928208825460466,0.967741246324743,0.91357476458954,0.913792316401381,0.911345815913469,0.910610405256193,0.92062407040876,0.971879353304838,0.961454376293835,0.96841783710879,0.96836075989611,1.04003182122903,0.999421746489103,0.992389514957284,0.996331446371292,1.00187877512815,1.01589605125711,1.03644668811267,1.03761246704746,1.03683289129195,1.03487411599695,1.03479342886935,1.04559502614588,1.05564818801401,1.07001761215942,1.08027704014591,1.10645412752476,1.14007696369615,1.14252125010602,1.14222228962046,1.14468407222164,1.16401568416898,1.16101720837232,1.42001582893541,1.28095896685295,1.27391495714245,1.21702888030233,1.1829594564791,1.15208953246258,1.15172417386155,1.16198724189104,1.1657900446425,1.16901762268809,1.17272896377219,1.19246072776435,1.2072359859717,1.20082675323194,1.19871536398759,1.19799356966655,1.20835385671209,1.20847808821887,1.21563323663052,1.23492559608482,1.22097023920905,1.22211667137716,1.21288725658615,1.21724343768334,1.21098133182092,1.23976153745545,1.26044052421905,1.25936709876854,1.33312191998751,1.28094669507161,1.30105755557017,1.27471197947209,1.28262058240001,1.25370198031742,1.21992976460839,1.24773945814894,1.28042365197817,1.2561460643138,1.2537601376763,1.25557422196086,1.31210567061995,1.26568845323381,1.27303947792606,1.26736314726613,1.28189820125522,1.27523598617581,1.24858877827086,1.28615467317775,1.36579756190555,1.27334848091086,1.27232700801948,1.22900826808973,1.20096505499292,1.19031239918652,1.16508897998199,1.168091653881,1.1706580756428,1.17010715740404
0.48843934430846,0.489163153539148,0.48884726157647,0.487411666765631,0.485907618163952,0.487314423043266,0.488427582585349,0.489593240006449,0.492245158410516,0.498736709445301,0.498491424083834,0.49874317830424,0.497050591635031,0.499308123102481,0.499908943223776,0.501184506266541,0.50053073894515,0.505956210458896,0.50643680188686,0.507847246343347,0.50790465046416,0.513136277648875,0.514584209199495,0.519378122632345,0.813569551028548,0.520048079356725,0.522286726739745,0.523001863534639,0.526026168969481,0.525815734225626,0.915195857403737,0.848520412909712,1.07474347343751,0.645327334329533,0.558778308718461,0.558445727024876,0.558158337054749,0.557217291353122,0.556880173392234,0.556041756599089,0.556270880608103,0.554954624267451,0.554996152337913,0.554065039100599,0.554112065570284,0.553422614469987,0.553200568427909,0.551702459200974,0.550609568545605,0.552518206463461,0.553507263347513,0.682218903977347,0.871982094930654,0.860097563701929,0.872010121213239,0.762362072505591,0.725574949735194,0.72556157976137,0.582902745777029,0.582391678937243,0.582517378411747,0.700584807827524,0.714268487694309,0.719939820116269,0.720288768847134,0.718461489473602,0.712505945951276,0.712273953230144,0.712197108590007,0.737973052475257,0.766200858354432,0.75842066527462,0.751924808120789,0.853158506289679,0.880793283511299,0.897032186100692,0.927699504207724,0.920113786333399,0.9114854683706,0.913140122958156,0.911792494492172,0.909859908163373,0.904751832949301,0.91560778695556,0.977668728304413,0.957252257006603,0.951972735586748,0.960639460739402,1.02597311787359,0.994246129646409,0.976532531613549,0.993100402490144,1.01408114688441,1.01439008949064,1.02781368851038,1.03087987667724,1.03170885205201,1.03294724180879,1.03295714764532,1.03371281843559,1.02329299960052,1.06844203237366,1.09854090189197,1.10152945080775,1.11340656708735,1.14428441860754,1.14362072427116,1.14675191017249,1.15791317034725,1.15865241052926,1.34666444614742,1.28976595065362,1.25853180774001,1.25815766294984,1.25851484919152,1.15210914807384,1.15081637892585,1.1589937214465,1.16287231653708,1.16022227806,1.15680671839524,1.18421821140828,1.19857442248084,1.19600239427891,1.19077135453724,1.19133129829709,1.19159834002682,1.20412532841955,1.29516078792704,1.24920613061927,1.27380047795371,1.22831689053315,1.24040215817473,1.23211058181869,1.23457456384711,1.2346440608006,1.23439246497118,1.2317912321858,1.22916129681393,1.23267823550847,1.23266401943978,1.23213868257179,1.23165138410648,1.23095941762404,1.21940430216662,1.21922493393805,1.21735867798001,1.21892676049626,1.21855280871506,1.2371685306431,1.24645750676562,1.25357656701312,1.26091735466597,1.26208984632992,1.31282245640762,1.27946921469511,1.28715661551422,1.28720739605922,1.36572180103685,1.24969835060004,1.19476629746388,1.19478239530249,1.19501601466511,1.18686828780866,1.16382163389744,1.16718288972696,1.1705711313425,1.17029834351865
0.487962227977442,0.488886060298377,0.488133255747877,0.486827370583297,0.485817427713976,0.487412728566139,0.489891121914126,0.49336043568139,0.495479031330575,0.497032750873897,0.498293889008616,0.500669449444841,0.50130924650772,0.500978664427026,0.500889693569921,0.502190436690399,0.503665308686112,0.505481667125391,0.507083885444674,0.508128393568673,0.509240960526022,0.511119276123037,0.512714846499179,0.512783443446481,0.513461343942622,0.515898310295618,0.519045054309836,0.52024344583863,0.522627592579286,0.523132005150066,0.693995238332809,0.720169329210476,0.746303262297371,0.671096163966615,0.615789298645076,0.564642322821439,0.557053380145149,0.556907753004153,0.556267607258476,0.556181872144703,0.555610912953518,0.555162794172299,0.554524489851594,0.554056059950582,0.553639272029637,0.55328202706676,0.552695371786341,0.551685732408695,0.550971189292783,0.551279784600399,0.551733176766659,0.66320630657406,0.796983119403065,0.795859020443827,0.794894785986345,0.751188700549413,0.725540683321162,0.725573944410662,0.5822012762779,0.58235302918786,0.582124914608721,0.706239042892097,0.716203442026534,0.717383213730114,0.716729512620162,0.716137739495284,0.713989454788302,0.714748171490034,0.71880069863218,0.728999908676257,0.735544393480381,0.737537812995968,0.743546247674207,0.837574090781397,0.879329761327228,0.887768295884234,0.890981574881157,0.89675987625977,0.900773609874528,0.914526363490567,0.912473446805,0.908538831299639,0.907865019556543,0.911094403910603,0.928559542632128,0.938118584055934,0.947296562154061,0.957041958856549,0.966976134202615,0.975719127217775,0.986935271117598,0.992022415787108,1.00445730007078,1.01356127768183,1.0302254314629,1.03045741714642,1.03073879865669,1.03247438109912,1.0334970954654,1.0341195897473,1.02973995175556,1.0666732008404,1.08142818254665,1.09636884341006,1.11446224724343,1.14806273779976,1.15003328056996,1.14982421837938,1.1564369035695,1.15719729367062,1.31289932013398,1.3013205265911,1.27752931380267,1.25774444535107,1.25806081541896,1.15299623555459,1.15274811187481,1.15398098682686,1.15576497506914,1.15641287113407,1.15656470420662,1.17262268465677,1.19371794953522,1.1934169114241,1.19193900125939,1.19200539396493,1.19357456939701,1.20139499408366,1.21789473541854,1.21898118085408,1.22557796588174,1.2268063291267,1.22910652344442,1.23056199263146,1.23155601652733,1.23175522296781,1.23178916748066,1.23187894770514,1.23229234886927,1.23307992493006,1.2325937106184,1.232075077637,1.2314915662387,1.23087309086246,1.22582303059817,1.21925020656372,1.21930941620751,1.22031781963701,1.22406533408539,1.22479129729827,1.22618408121433,1.22996680478241,1.23445598347405,1.23611048239085,1.23847962395179,1.22587052918052,1.22316457002113,1.22234952391126,1.22001597018024,1.21432747602607,1.19609429839004,1.1872474188883,1.18382168129906,1.18124223508336,1.16963909727629,1.16671976318134,1.16507096152893,1.15778185129431
0.776591853454588,0.686128538235533,0.742431614003247,0.495409660405316,0.484678231955575,0.499115872612968,0.505501797936167,0.505582579364785,0.505002874602039,0.50606817180421,0.505201088367367,0.503829715512966,0.504799270616655,0.502555224910376,0.50042009458494,0.503292291835566,0.505022614259326,0.50634589446676,0.507414433038576,0.508157990740715,0.554201915795154,0.508972266634912,0.507536550512766,0.507270537260571,0.507446282382697,0.511051545958338,1.28979920857782,0.517505015939094,0.512775770344496,0.515771841814291,0.668239201771503,0.69399523833421,0.937858806403217,0.878206491739185,0.871359045926907,0.567515053362253,0.556273299496429,0.556354373395821,0.555839721736491,0.555878553723388,0.555753226277008,0.554715522348747,0.554476224806262,0.553513318984987,0.553235203343588,0.55314117556908,0.552465266596371,0.551382459879033,0.550501644268798,0.550465722492507,0.550529132425896,0.652183693320396,0.798493106705916,0.796130334974167,0.794316443428462,0.738852097932311,0.725705609488687,0.725726848433109,0.58203959768654,0.582048078381019,0.582159556010342,0.71058276494554,0.728056507703283,0.723294935768828,0.713677841165721,0.71480279237149,0.712337955270584,0.713655999152188,0.722412220432434,0.721043807720544,0.717935422561831,0.738260105926026,0.737549407139346,0.822697458620774,0.877136283053216,0.876574283882258,0.876586228345577,0.894817382323028,0.887428520837469,0.915753803881532,0.913328303465072,0.904220259478239,0.902380177828427,0.902459169419778,0.902251220575783,0.909955386969754,0.92245429658558,0.942981265043672,0.960401304067315,0.970022623259319,0.998216112924981,0.989996858590532,0.980510538220904,1.01222376564484,1.03272844958789,1.03013885239877,1.0285950538955,1.03246857662803,1.04251870363271,1.03811200121633,1.02004558428357,1.06261760200368,1.06660080736344,1.08826881387623,1.11567732738953,1.15004555446448,1.15399132790082,1.15201548340924,1.15455510421992,1.15608867486747,1.33739419580366,1.35204963962561,1.38629537555719,1.25766163206794,1.25831157138757,1.15335616436001,1.15301662549292,1.14108895282406,1.12241362624851,1.13555355112883,1.14631699629576,1.1596431605606,1.19468348052363,1.19319989196424,1.19191781574036,1.1914563960187,1.19685724242395,1.19912360498532,1.2165083629449,1.2181929256615,1.22485483646115,1.21871196314054,1.21418744031788,1.21312468128925,1.20038504811175,1.19110349387832,1.18421131090928,1.21291015378443,1.23514947763034,1.23510243461327,1.26778900281004,1.24259336498417,1.20806619473345,1.24176210590283,1.2738100304322,1.21958070634289,1.22105742290646,1.21975556536615,1.22718430098314,1.22533014761851,1.22235145950985,1.22783301061876,1.23689024459794,1.23669820732621,1.23832918635028,1.22530527856964,1.21298737995303,1.21062491303255,1.20820896177865,1.20322615013954,1.19878413925091,1.18390485419197,1.1750586069146,1.17413640832255,1.17232718202558,1.16530076236934,1.1640003906813,1.15494823130453
0.776580385373976,0.66217701287345,0.504393373581857,0.504905570852441,0.505115593990257,0.50569939933911,0.506151514297526,0.506071110816107,0.505786688717763,0.506039807049566,0.506072649812316,0.505439021376215,0.505592776409109,0.505097469184057,0.505831684224482,0.505561086870286,0.506390430243218,0.507159174438734,0.508493408018547,0.508437605440887,0.508641852307131,0.508223624755567,0.507517968413328,0.506919411637455,0.506725606502217,0.50752959841368,0.810551399255912,0.515226387997156,0.513331374781764,0.512551143858332,0.512528148757002,0.61113813174264,1.13130288329265,0.882839331347322,0.888380290139402,0.584621775475443,0.581452253463639,0.566169249114959,0.556793683542982,0.556087677859592,0.555265967046094,0.553875641221515,0.552497939299577,0.552392685041398,0.551731056457566,0.552668484407071,0.5512166945883,0.550686692532707,0.549968237249504,0.549069598671112,0.545630628473679,0.641938169345661,0.617296497493031,0.738098171407231,0.72655490493558,0.726339080318656,0.725851439169749,0.725873228228843,0.729918647308207,0.729181296336624,0.729678260037026,0.728014521425805,0.72731566206655,0.726263997929999,0.726723862820584,0.716655093094332,0.69302877148369,0.691208011049632,0.68286305499554,0.713533006275184,0.737609117268621,0.738498184711316,0.778673402492607,0.809585643878131,0.870581020581362,0.875718700045919,0.905946575663278,0.898463971895346,0.971286959066127,0.916977320313906,0.890956665258671,0.895977373119992,1.00661031479316,0.902678148160094,0.901286856450483,0.903786331185925,0.9085349204476,0.920983817908179,0.930821705469178,0.958059065809745,0.984186517768868,0.987484619403702,1.00405924882917,1.00949992115015,1.03637115951004,1.02870821872265,1.02698827738303,1.03220117746199,1.03824322647885,1.04164923300788,1.04763540214485,1.05390754360044,1.05392573801441,1.07933840746137,1.09618977396149,1.15132422480569,1.1525017633991,1.15109586964386,1.15161646761715,1.1531556044262,1.37825093103044,1.35895434655997,1.38050914299494,1.19561087151736,1.14604787369535,1.14530556115653,1.12569044669105,1.12566599254075,1.12466046960297,1.12573270606958,1.12718901405623,1.1500026244557,1.16773629334284,1.17214438172863,1.17648300247006,1.17614734454088,1.17558599307058,1.19201550823102,1.21070320084172,1.21366979637409,1.25458097166136,1.21556295998114,1.21226446081363,1.21248555661222,1.24788139030034,1.18588515696096,1.17761715423455,1.18262638488903,1.1927303195334,1.23731575896569,1.31871924522115,1.24892771760247,1.25521915064948,1.24656149846265,1.20761716470112,1.21911625941223,1.21791144937208,1.21346774910896,1.20037388657333,1.19713666339158,1.19518131114889,1.20345720084824,1.21466044027528,1.2260299313878,1.2377113227507,1.20955741645891,1.19324448219902,1.19188697614083,1.19131806356909,1.18774405432629,1.18438529382503,1.18112086938014,1.1761924773052,1.17141137299599,1.1634910330011,1.14822981299328,1.13559505098724,1.12875579643762
0.94709295675449,0.640420998969448,0.503783322221577,0.504450186934805,0.504600320056576,0.505737220513805,0.507012944808541,0.506456041170148,0.506005268169212,0.506093117062611,0.506567046617007,0.506134659088404,0.506624361318013,0.506188826248614,0.506620465565607,0.506549700287659,0.507370172909891,0.50752581187162,0.508579129908836,0.508531882478012,0.508518340762461,0.507706690884978,0.506449567937583,0.506268878751464,0.505757110384696,0.50507895480741,0.844606496636721,0.514306338775121,0.512850071314819,0.512296684062934,0.512019658808196,0.583490382709671,0.601414719402256,0.592259046809877,0.585479561797834,0.586042726029118,1.13575653063846,0.904674838412666,0.935213374242594,0.610466188555247,0.553109795942036,0.552751561390162,0.551500092664652,0.5516430661748,0.550882901711322,0.547592847571133,0.538959704159834,0.539141637032058,0.538688304523895,0.542984074686056,0.544210749187401,0.651867553392574,1.09165968171642,0.747719254805147,0.560417578072992,0.559597887650176,0.559504269106199,0.558367445349511,0.557923919325769,0.72752433802402,0.728655472748755,0.727239583983702,0.726133430421093,0.725260418847577,0.723649126942691,0.719613868173616,0.685217572815273,0.688629849757392,0.6807890322421,0.712012044503099,0.703143395344496,0.729199968413173,0.759575281587567,0.797324946547915,0.874225937411174,0.874854613795883,0.891297687579068,0.896033517359681,0.98955074970357,0.916895127292447,0.882214931398463,0.883000440760596,0.882606538201056,0.898403043122179,0.896997116386296,0.897969454077367,0.897576957591694,0.91468908686434,0.92705070142349,0.946751322951469,0.958069452349565,0.962701093668659,0.970257896187322,0.990650765926711,1.03059692127579,1.03090625391539,1.03264902720504,1.03248774965092,1.07521175592139,1.04491282517256,1.04963935272732,1.05520458371631,1.05563598753929,1.07151711665005,1.1494734838543,1.15097476935154,1.16744819298175,1.16200690912955,1.10181905335827,1.13513261039764,1.15253193012476,1.15440228714335,1.15648820821247,1.15457821986654,1.1449090907639,1.14470214214936,1.12688526670702,1.12599442972431,1.12547720345461,1.12459788349409,1.12271148051187,1.13574406994641,1.14519888673056,1.15201253651013,1.16277229023438,1.16560754747497,1.16847144717105,1.18075638789776,1.18034322570653,1.18000448130651,1.1794987425271,1.18816655391882,1.18673393301345,1.19808420237816,1.21029284853726,1.18181589079613,1.16853763991032,1.17755766053,1.27826368314979,1.24003147417928,1.2424476598058,1.24575588566369,1.25577130271864,1.25023973606578,1.26244658604957,1.22848637170909,1.23933676768794,1.21201076848586,1.19467506802857,1.19540008844745,1.19468157281454,1.19934782815727,1.20482133810167,1.18726775016204,1.1516406151923,1.15954688251189,1.17736825046045,1.16714544999067,1.15863645426543,1.1665927449244,1.17495801722686,1.16035791404946,1.1483433729697,1.13519340333425,1.12711968300097,1.13002233862566,1.13278358257736,1.1214640010749
0.618095477618681,0.612503469582936,0.50313605546586,0.50394910494164,0.50407399245021,0.505692139372924,0.507045060056857,0.50628786119985,0.505989370103952,0.505774012529033,0.506487351227393,0.506107176139231,0.506730088312496,0.506604458511567,0.506855765507385,0.506768591428806,0.507221888402545,0.507038173169742,0.507353723585581,0.546769306870981,1.2191333963999,0.709059547375008,0.817612239499099,0.714488086941197,1.26483584620174,0.502552753989231,0.495577554882716,0.513927966107666,0.512486262270783,0.557116744931161,0.794935911049744,0.570342043885089,0.51984368303786,0.519618246561793,0.519564371840556,0.576139700380972,0.868268181198914,0.885577643464621,1.00703083149795,0.846972006768585,0.852801573074811,0.734930507518274,0.734606482857406,0.571557872252072,0.540039510258976,0.539471691189655,0.540316126824894,0.539948570310942,0.540597147425061,0.541910753821938,0.542655131106624,0.662081720631257,1.07194322466845,0.757539356891964,0.560559469041593,0.559666120093508,0.559615073430037,0.558434404031617,0.558060710711608,0.724229584907758,0.728632413936187,0.726822928381286,0.725568166965061,0.72581455866883,0.728680489679285,0.729927826907205,0.730566835784615,0.729990044369112,0.729241223595256,0.717686804130479,0.717219198141573,0.726932034480158,0.738739666344087,0.785717095386185,0.848435802094757,0.84864703273057,0.848899604873297,0.885938500412671,0.914232356057839,0.916031367071124,0.873008262270386,0.883916955765005,0.884330077349366,0.899801447364504,0.898179784465982,0.89947586406729,0.90081753309454,0.901606343941921,0.9017559317088,0.936682435840571,0.943925849899932,0.955271117563972,0.982938927492979,0.982728727751146,0.982813687244623,1.00078338160558,1.03310319868627,1.03261932842186,1.03539096887476,1.04318302401609,1.01790687270391,1.05716685635178,1.05975646276616,1.06250680827129,1.06172846993126,1.1085208754739,1.18758828774794,1.16604001200687,1.11522296063117,1.1143306156559,1.11493469966776,1.13676263470444,1.15173333416098,1.15290888577207,1.17318900665248,1.14378865541628,1.1439849438143,1.12882908145123,1.12296058509737,1.12342907993865,1.12300434936434,1.12361377501386,1.12303483592785,1.14005208474242,1.15007316331062,1.15793745680258,1.18164361181291,1.18168984992035,1.18312754523136,1.18100598548319,1.25132198681531,1.190740268081,1.18509492228063,1.18305235639399,1.15035174138524,1.15523625128178,1.15040655618089,1.16815521780597,1.17561636740948,1.19441547141911,1.19474662698258,1.21785136805187,1.24782422644369,1.21564119934985,1.19557225270691,1.1951045124689,1.19503302191157,1.20791366420064,1.21016113071942,1.19548914642416,1.1894155955065,1.18861167816661,1.18003648976153,1.17834585296319,1.13616164046461,1.1386699120189,1.13633513019839,1.14651607240574,1.14694307578117,1.15814480282892,1.16751491360373,1.14335254572667,1.1117380667104,1.11931692563146,1.11399094306079,1.10998940509031,1.10487935495062,1.11726198402588
0.873940365522115,0.607841667899266,0.502006226777989,0.503941264672657,0.506033848820132,0.50599700945661,0.506587967710981,0.505875114607282,0.504801497820822,0.505170863279914,0.505401050364734,0.505346898863625,0.506219476953795,0.506488221814405,0.506361320338899,0.506477341153452,0.506580827763242,0.506221419650645,0.505245722972896,0.569256002861697,0.577941977326088,0.68378973083379,0.651121333926291,0.688442829520377,0.810880159695321,0.501224762162418,0.496154764293,0.55161973243666,0.575182059729361,0.583116034202472,0.590101488580826,0.557235316374588,0.520236540087466,0.519696841873579,0.520181954162338,0.56701284596857,0.800511571704655,0.827131973408264,0.994291105076133,0.842364469869129,0.836371850919186,0.735304219224482,0.735348940419547,0.585679789946886,0.539795496210134,0.540115067711275,0.540043999384574,0.541070695169831,0.54138777677781,0.542082974050097,0.54230423065972,0.677624539926884,0.736466979203533,0.768098935015658,0.812000908172489,0.61427976232798,0.55849315090094,0.612494453742686,0.729833552831088,0.721534342376561,0.71860859289264,0.722209127276511,0.722893763631757,0.724259508163599,0.740194068466812,0.730888900513619,0.74935347430983,0.730004267580305,0.73079130979899,0.717742285461648,0.716320543017804,0.723824356493718,0.724767365119813,0.776670347554725,0.84406045403698,0.841693818789569,0.839364742206564,0.880943954683685,0.924934856895413,0.920096503228398,0.923946048431976,0.894047315336261,0.905510832282218,0.90269052489167,0.937386665579627,0.900956193478554,0.902238424169524,0.901866585839036,0.901846358102666,0.925701658266972,0.94112422678445,0.94068628519855,0.94005199164914,0.944338686938484,0.958626233150245,0.958306947313045,0.959807522727116,1.03028778276504,1.05218016345212,1.0476116151781,1.07219493422821,1.06854905278462,1.07262761212915,1.06205833998742,1.06434864502863,1.08582291174984,1.18783045670097,1.16916115466638,1.17226556241817,1.10505362631393,1.09902227545537,1.12558673068169,1.1520116440988,1.15255729374053,1.16687807765722,1.14235195699383,1.14173080490007,1.13285876198095,1.13260523940474,1.12631042503544,1.12382856436418,1.12458700050215,1.1257928957186,1.12676119990756,1.12730162770631,1.12921156955521,1.13153081610434,1.15302546005399,1.15610258535804,1.17758777920813,1.20211169199877,1.19244754775258,1.19387885526679,1.18132946214405,1.16617153469042,1.15982821513312,1.15049077707888,1.16465642032645,1.20889755859024,1.19458861620127,1.19534769979298,1.18082746233924,1.16736215303038,1.16702044968306,1.16672228153631,1.17321780862766,1.18079169664839,1.20691125404128,1.21943862089146,1.19504931487885,1.18474315683512,1.18723490332721,1.17819808879812,1.17681942080137,1.14192441533892,1.14273400178696,1.17747368709689,1.14510479511932,1.11950715556995,1.11673730709683,1.1158923823513,1.12553445211127,1.13879265206883,1.13013032808944,1.13796434740497,1.1019862608339,1.08598748037963,1.08612931179212
0.73598529397552,0.604506604695241,0.584861383890449,0.622536188366784,0.774919346669784,0.634138321791652,0.607678198814319,0.556380514970942,0.504255330557806,0.504507361580366,0.504413467355614,0.504401179690799,0.505090974012805,0.506189810142659,0.505134109715151,0.543046227918819,0.570529147745142,0.569437022854089,0.568353174833066,0.599187940804928,1.03074220223558,0.707037287473319,0.504792255105785,0.557709672652263,0.49819313639844,0.500125917210102,0.496263437172804,0.576304252643193,0.762280307778437,0.60624750396385,0.508379073180135,0.543846672649958,0.519400653595479,0.519139848701292,1.3546638105864,0.54981261618802,0.514714069324291,0.514611568823145,0.514574694096954,0.571975707533605,0.840383535036106,0.735681875880477,0.736109219581813,0.599878999994275,0.630681371794078,0.540874707946592,0.541774470422485,0.541621432354178,0.541789578941125,0.542242458469145,0.544246252470943,0.695587406807451,0.812455176887943,0.784662834477095,0.812167816222013,0.701020295041635,0.70800725677651,0.638936142754062,0.577831115858728,0.708955112662471,0.693538341257112,0.721336016995535,0.721224739277881,0.721710953569884,0.659491511485506,0.726389903574234,0.742765715319082,0.728419808013118,0.726632097169439,0.719140096304832,0.722465912040905,0.722933886329905,0.726213998052406,0.770227716417152,0.752582716111429,0.82339093100942,0.868947384497794,0.875029417182544,0.910316899906935,0.891926312937701,0.872787024204313,0.870255091471946,0.867715592524253,0.879512841043487,0.894226516004687,0.88911904840958,0.883470437936386,0.893877608475702,0.907744796990636,0.912230556720126,0.919495807877749,0.927848842326284,0.938686718265587,0.937857459199874,0.935962797451675,0.956741816667446,0.95451831887819,1.01607676696638,1.01756721493668,1.0248815920587,0.993110129425493,0.994480103224195,0.994447127538743,0.999313295137596,1.00417544891823,1.01072064325471,1.02416691404306,1.06003254913084,1.07662660316544,1.09288149873068,1.09825206209014,1.10133659642953,1.09091448605095,1.14714701358098,1.15986916257367,1.1409866807956,1.13948957640754,1.13528938991371,1.13164963268237,1.13774478184239,1.15923038530072,1.13104814003479,1.12662442292437,1.12704434190701,1.12606363939404,1.12863299734431,1.1209415193583,1.15011331851051,1.15562832718911,1.17590338575332,1.17334169340028,1.18599800706623,1.19430208724996,1.17919725902655,1.17976756795755,1.17031617856966,1.15506625251832,1.16079668409495,1.17863291451073,1.17777905389884,1.17714359244691,1.17841378589424,1.1670415646269,1.16663236377572,1.16669717282728,1.16929729078975,1.2452310583842,1.2052612125948,1.19201706562171,1.19404228869883,1.19407308723603,1.18914384485126,1.1729262491524,1.17145270412876,1.14900567150638,1.14465599878287,1.15850935517371,1.14276775056896,1.13904403245403,1.11418434910463,1.1085843675802,1.10272709597802,1.09318983749874,1.09419079159205,1.09298109190567,1.09584605636255,1.08679474125256,1.08599844791698
0.597183249312976,0.60121957075391,0.839051390592228,0.695027180771862,0.694300038541048,0.691712168665363,0.687385918518597,0.689585620934476,0.689945025406574,0.61566315662708,0.601845455298208,0.501103521430993,0.495699085054718,0.494088690368428,0.494719145923596,0.569361961533351,0.644992080250922,0.645159656869214,0.785896727230719,0.624938749345739,0.544943892936708,0.731765332334265,0.792861478445395,0.786263136626955,0.782648800536367,0.501906192351856,0.502782501847812,0.601441237038071,0.761096452236631,0.74487088645021,0.758526851111801,0.561551748456758,0.50904064083727,0.509942072788586,0.510891243612846,0.512502683641964,0.514459858824354,0.514727209569509,0.515030521612665,0.524283816162164,0.524043613119861,0.524216417012738,0.52439770268779,0.565734740328587,0.604112416084962,0.540874425632632,0.54125947900386,0.541856036096412,0.541152119989585,0.541136825181767,0.730240478048594,0.730044816531663,0.729741918264679,0.730015676353474,0.567828567978636,0.695664412730785,0.779519223418363,0.73770472605936,0.703498519657156,0.741240207314369,0.876930808128346,0.72424371759457,0.720344252951954,0.720631601291681,0.719280644292088,0.723340509660952,0.71702843309845,0.71546678066945,0.705293117658308,0.704354224203561,0.703790226549946,0.711204796569593,0.778692728051902,0.779069275251758,0.779733442254264,0.806471096393337,0.861828979458026,0.857500443778822,0.853025986505219,0.853222040164765,0.853117796799505,0.852007732197015,0.852529329503919,0.869284256803082,0.882135621853981,0.882285591857648,0.882427207880043,0.889019045378211,0.90714624548928,0.908455822314877,0.908041506631649,0.912449580168205,0.913833727231016,0.929864321698911,0.961663549850676,0.958681809923798,1.01631092850033,1.01598256555647,1.03435373058427,1.02939887998307,1.03495841231207,0.996158495272093,0.987193762802737,0.983237668588625,0.977900308562778,0.982752480256121,0.993614323958426,1.03885531451904,1.0909156470032,1.08673040879059,1.08396765216171,1.10256755897993,1.14569729223109,1.13735597936169,1.1293310388503,1.13571970769544,1.13804979219009,1.13591285381623,1.15121269312612,1.14120036742569,1.15688674822519,1.13766693433179,1.12738372294302,1.12834204410722,1.12984715447163,1.12943290146728,1.11983831110448,1.14667338832587,1.32322067803767,1.2228922219871,1.32976734849234,1.18241772415722,1.17475057610946,1.1775760645157,1.18814738266084,1.17899837489932,1.19303276947338,1.15519753250026,1.14986924507036,1.17162098915468,1.18147696590468,1.17966189745324,1.16124304825733,1.1650059791555,1.1676081873265,1.16857637711665,1.23679806669727,1.20241565535421,1.19978596711177,1.19350767825594,1.19250687336452,1.19044560896973,1.16569071191542,1.16890773896591,1.15632060404751,1.1430796745376,1.13197301617017,1.14078068055748,1.15205436785551,1.11187337045264,1.09653936903174,1.09679042485925,1.09655962862741,1.09658207839017,1.09874130949169,1.09793691565545,1.08814330618401,1.08988500533817
0.471436136065399,0.521282720943062,0.838671014703037,0.695955821140389,0.698267132844957,0.694741557101164,1.57477848134035,0.695955892149469,0.642819008226393,0.631992800704741,0.676857865595188,0.497813982761167,0.494529291447805,0.494200786082854,0.49437159283622,0.595703439459397,0.646572172865913,0.645857593847079,0.639435222798812,0.641340908960637,0.794410682446071,0.794316946168365,0.792864643368898,0.789880560708391,0.501319923368027,0.501508215092031,0.782791598426742,0.627154350566376,0.723007869106048,0.737928314355809,0.756909797085325,0.578933317046365,0.509290864103686,0.50991200835323,0.510840966084844,0.512283519200158,0.513677247070849,0.514396203497506,0.514676677774656,0.523787378829775,0.523359469913898,0.523985783758347,0.524162537588303,0.530471659966755,0.531228425804452,0.531602940925459,0.532491351613071,0.531461267965391,0.53129419416781,0.539394606774419,0.730082777280251,0.729888678354424,0.72940426893267,0.729831966914278,0.66613180825903,0.690030601900486,0.805401975563836,0.759921836938952,0.819037215137137,0.766993648990788,0.818106345871643,0.733390092201212,0.732505712114732,0.731022040260049,0.739114433141679,0.733137123121068,0.744132180074695,0.713977085532599,0.700614377239799,0.702944710083406,0.703458329087158,0.706259867533712,0.779476404597398,0.779016424732,0.778913542960383,0.790127797094927,0.808191408695773,0.813395040173397,0.818641079601436,0.842034008082058,0.8638419667683,0.851957849676211,0.853316781324303,0.851391690446904,0.840971353237771,0.878238283351715,0.88289285796058,0.887047794099281,0.982946729324876,0.902104466866626,0.898118394383859,0.909569348260034,0.913757816501485,0.926053169072037,0.93588751090954,0.936755577170452,0.937711369052764,0.94243381807883,0.956167197160799,0.993125195132323,1.0359374907124,0.997254716439361,0.976431694935955,0.981160775023357,0.975118021408305,0.977687578063334,0.979636712034482,1.01759039073501,1.03933410795919,1.06805898218698,1.11353819658231,1.10671010007832,1.13324468295664,1.13243279669544,1.13204998706809,1.13429856509045,1.13791551574591,1.1360694284822,1.09886581776724,1.13754834754093,1.15191723833831,1.14470646038653,1.16361581285658,1.14212204330286,1.15319989364823,1.14284077313677,1.1585882051231,1.143097699379,1.13893798680729,1.13906094055586,1.09212638696239,1.13317383461326,1.13098109491326,1.14820187238004,1.14146867247101,1.14782501844034,1.14528260901474,1.14591324304313,1.14564142994433,1.16357570709978,1.18410699480395,1.17946185588762,1.17903316637555,1.1641606204603,1.16275244240431,1.16455082294241,1.19329098039685,1.19545474270488,1.19778556634931,1.1940343258514,1.19407478896302,1.1911259337305,1.19129133799624,1.1749513542341,1.1777746289734,1.14235132815964,1.14176530069952,1.13981573797064,1.13944079199867,1.10977583402703,1.10219743166227,1.09650604007853,1.09692509929098,1.09673453280862,1.09691272344828,1.09810663056676,1.09927447637769,1.09160879210549
0.471542947760289,0.47101893649011,0.469966197958839,0.469179344891031,0.46863510289645,0.527697428308046,1.57517351157704,0.705575986547627,0.745802427124089,0.534814390294914,0.475433040999418,0.483617353987005,0.492998500200017,0.542921729061563,1.01181897960747,0.687392635218034,0.655628456890703,0.645173096470684,0.611522113525151,0.643279485335962,0.794838161743213,0.794712753056329,0.793105700238353,0.791186092432509,0.501506841686325,0.501633433715822,0.501959306737478,0.576232618367998,0.534972893445048,0.593765929621323,0.617705583297501,0.596514025267397,0.692614796857268,0.538515167302548,0.509214853415435,0.51319349359716,0.513918333780378,0.515399874743798,0.522616796202181,0.523484855195036,0.523843761071177,0.524387080359417,0.524292904843705,0.530194300275972,0.530003034146554,0.531151110704733,0.531223147853427,0.531948645226479,0.532381535594352,0.536245091986733,0.729398171591618,0.729607969509829,0.729354001260694,0.729609451447916,0.676950509171832,0.684238270422446,0.580254818095694,0.631780042252051,0.58205061423814,0.693005561162845,0.656589002044257,0.732665055245785,0.731068681843832,0.730952973618385,0.745262885470087,0.728185651199319,0.710184502200191,0.712210312688147,0.745432594494039,0.703604101560749,0.70352912180741,0.692787118743701,0.679779059295388,0.680525802948486,0.681812786624533,0.766468377454958,0.808291988475851,0.807829267995175,0.807791989534797,0.827195715652114,0.836511164457335,0.840007128702794,0.844424318712514,0.849382312729146,0.881155868443938,0.872432392048397,0.860151314796802,0.878938582501159,0.880278848617429,0.878546811738701,0.87732409020574,0.907777048629538,0.908371289189171,0.919239995016262,0.981092624176156,0.9366589393887,0.936754338552521,0.939276271287325,0.939347932902761,0.965339306076758,0.972461587402187,0.997367280901752,0.996774098882402,0.983925158814815,0.967184780614379,0.966239098934604,0.966656586678666,0.988537020472989,0.993942414419873,1.05712099333008,1.06007743232784,1.06502447011951,1.05663284945416,1.12470469990303,1.12345603504762,1.13094344928932,1.15539638771706,1.14876046621874,1.15316243077266,1.13487815817944,1.12882609032429,1.12876885971011,1.12844593936371,1.13409184577457,1.16919715808041,1.1333484846205,1.12011029778182,1.13530278200783,1.14085532563067,1.13961655004951,1.09189066474603,1.13478027533967,1.20159596007436,1.15360351099028,1.16245143145206,1.14987824861893,1.15055582715762,1.14763018465005,1.1463881298626,1.15317714562904,1.1822613579341,1.15950126843247,1.12549827440332,1.12327226270465,1.12056062478238,1.14733175052,1.16213434787588,1.17762103107888,1.19922185017983,1.16414451052237,1.12095144713448,1.12165230689809,1.12212074491009,1.13271168886046,1.13664809085272,1.13820910367841,1.16508762739145,1.13823599431756,1.1390773434266,1.10791451815453,1.09566582359507,1.09658251232226,1.09614086543716,1.09679972629587,1.09762277696941,1.09766873007935,1.09660046243066,1.06020415546502
0.472043226375474,0.471404702711333,0.470413256090232,0.469508423844618,0.469130522320316,0.469366333361787,0.469941466718864,0.471040699160905,0.472306795493438,0.473546266065263,0.474441268686509,0.477591743077124,0.541512845507498,0.569532433626087,0.739983133115768,0.713739880265855,0.687431718260468,0.645101701568126,0.645401516675641,0.644784020324591,0.795074403934299,0.795099052977664,0.793554065972332,0.791649004318466,0.663616937391885,0.639333567015165,0.616997375109126,0.596178874219145,0.536954910194949,0.535921608208824,0.53509521196234,0.53498813251507,0.537209027686979,0.538343904041811,0.538894803193357,0.541117045664347,0.516935133252703,0.518669301812161,0.521417250738061,0.52311181951793,0.524268103485901,0.525043054209213,0.525888476858171,0.528699739460557,0.530227128102998,0.531066850244461,0.531676115395552,0.532615907203706,0.533831004823219,0.535142554544983,0.588004154926179,0.62281217936869,0.729404657225635,0.729525419574598,0.705702458477535,0.69823760367039,0.674092520666801,0.654906741738047,0.632436211131191,0.706835653055524,0.724764461073517,0.732599126046635,0.731906073229853,0.731568495728471,0.728528421532695,0.724707259148111,0.709942804594097,0.71066215069797,0.725057834862872,0.697854979924832,0.694844046422794,0.690363761423312,0.680015276330906,0.680490329963648,0.681480260648397,0.743589808414025,0.808148938804888,0.807943374537455,0.807829209903683,0.820196707708096,0.829898480746508,0.836649113562924,0.844360412074691,0.846070207994358,0.846758960748891,0.848889068929519,0.852849075733734,0.877778510200871,0.878740817336822,0.87791624404422,0.877209695783884,0.906693874361491,0.908345149776661,0.911679479945094,0.914351572598347,0.91953696969184,0.927647129076972,0.931999528141055,0.940826209350107,0.959947133452032,0.982659685022393,0.99721656834546,0.995993588480222,0.987974744531525,0.978814529519559,0.965519170078458,0.96552854798661,0.984593164476245,1.02201926701009,1.05555760969169,1.06617401129628,1.06952347549073,1.091769463179,1.1263990884343,1.12550537007445,1.12507451622682,1.1248497958364,1.12550597378199,1.12619690332371,1.12623503117406,1.12546832868279,1.12472117741201,1.1236416395386,1.12289098219653,1.12219344343226,1.12133058322405,1.12058379124773,1.13055628867701,1.13975758746916,1.13876822901039,1.13723891307078,1.13607918406913,1.14268926033045,1.14829269950518,1.15564889813529,1.15000186206434,1.15019500540325,1.14722893891966,1.14455680640947,1.14332218514397,1.13879681242118,1.13743385965627,1.12391447499584,1.1221423626104,1.12081629217499,1.12012343139001,1.12085277027374,1.1172482482939,1.11672161826032,1.11748361742368,1.1197444175903,1.12081770191672,1.12092923042757,1.13017433815931,1.13251639497998,1.13372321775639,1.13544044933055,1.13668831585506,1.13765925684019,1.10649459876804,1.09636271907987,1.09666937585201,1.09627631362767,1.09480846708137,1.09407763235215,1.06513189915927,1.05110940464014,1.03734005053582
0.472497775731713,0.471850673439566,0.470918386528357,0.470018384983728,0.469675093004866,0.46885674316945,0.468549325818347,0.470303713007032,0.471748256209096,0.473273497705196,0.473599633941843,0.476199269419995,0.630841352875988,0.633122300768421,0.899867091959259,0.792854909262501,0.897800828963199,0.645565255117968,0.646685685932865,0.645671670503057,0.793904334537278,0.794663909515951,0.793076391845488,0.791516985157981,0.792027694376229,0.729894666666189,0.706855001255493,0.620138178773655,0.539576386123607,0.537253009342133,0.503188561020098,0.533009552288631,0.50408789233497,0.59494692602952,0.759212470349442,0.575767969716787,0.515152227721407,0.52059754148932,0.521343086320506,0.523046244389899,0.524586908382309,0.525720533125449,0.524833069575354,0.529624675863728,0.530343872037498,0.531321751501168,0.53103125017675,0.533054305692656,0.53388814223471,0.535093549147892,0.534628064007348,0.595844441951451,0.814877929401168,0.749364208935784,0.835017781443705,0.708775116806314,0.736479371425235,0.681334314621348,0.582551409900303,0.730153581439377,0.867703347801354,0.805933045456828,0.783907878871955,0.75797224653833,0.693709711937093,0.694192328370776,0.665763904912679,0.699044216195059,0.861416632728237,0.681935232497427,0.660193978039672,0.661084322637713,0.661781993196815,0.673972152847736,0.682693016887537,0.721111231831578,0.808178863293667,0.808009359736669,0.808065770231228,0.803168576683285,0.799104942139067,0.831524647472342,0.843075684506738,0.843524173911829,0.841909358374283,0.848388163217432,0.844802828267579,0.875488912472038,0.878457233484906,0.877229339695303,0.874039620712434,0.904304491320492,0.902205740045252,0.907173028749062,0.906649663569256,0.918008544710518,0.921900114836572,0.929248923362149,0.943021600029414,0.952992242212997,1.02420674965747,1.00124587669229,0.993711820140897,0.991954832352606,0.996441541968254,0.964439077753868,0.962342318777665,0.981138291823392,1.05258676201712,1.05559754536739,1.08596368684632,1.07599338849128,1.13113484786488,1.12916881545964,1.13092934548907,1.12343968012442,1.117542904759,1.11979475690752,1.12147461480418,1.12090177290158,1.08774447042217,1.11390498768329,1.12134399441154,1.12126783419708,1.12112083836879,1.12062105545105,1.11961608339121,1.12611634019644,1.1624877405254,1.15171882179106,1.19820316351619,1.12989982228422,1.0857629121344,1.14369248891698,1.16023221244896,1.15162679352293,1.15151556430239,1.1460558940933,1.14250358961672,1.14183104136055,1.13296242164691,1.13529434016805,1.1198146228134,1.12101056268717,1.10459073423281,1.11249577320443,1.12568727685659,1.11502441382974,1.11073415737701,1.11709254794981,1.18621844974924,1.1208244596239,1.12054919862244,1.11901540740911,1.10013160598396,1.12576357235728,1.13592844507297,1.1361592370162,1.15124438880864,1.10613244691916,1.08442726915929,1.0850883533823,1.08745500213393,1.09127918440455,1.09336253274886,1.04511548739402,1.01728683221221,1.01720597187642
0.473868691630604,0.472203565658419,0.470484085143827,0.470267497460968,0.470064738450881,0.468886373178922,0.467999104152602,0.470583266150741,0.473577522251521,0.473716024304642,0.474283319975553,0.475726352111989,0.638816443269439,0.635760346397117,0.772473337859808,0.772036791427502,0.771438868356138,0.512259463908277,0.459645992636302,0.459782123075472,0.459092373663809,0.51242490934915,0.640030122145869,0.638985583060729,0.638102629355046,0.75423462726128,0.971267851521061,0.645281167990883,0.567255134911534,0.607905731111135,0.907483211211838,0.777314217219019,0.772397206811474,0.759759063652934,0.759407735473227,0.759236171337577,0.759294008856462,0.758807967785809,0.758326377945171,0.567727630798783,0.525709724966364,0.527320852741557,0.530404191082993,0.530668343392932,0.532085909645157,0.532024061096346,0.531437286179536,0.533738065578921,0.535506851670408,0.535743108833214,0.534990293358633,0.566064369169444,0.565941783907574,0.566109772844069,0.566190241375665,0.660424261518921,0.736307393935164,0.765445674019774,0.891027656649334,0.754894790629205,0.604617988778968,0.829456956500173,0.911691876094389,0.775543338059433,0.694044023626708,0.694303951483196,0.767174205448662,0.672759568011299,0.614397675737703,0.613676420065464,0.613237911661591,0.61171413551129,0.610434376110112,0.656237516768951,0.680868915471536,0.693861803095146,0.703590966719301,0.766898121559603,0.835549144569365,0.802146134426132,0.793143200109502,0.825978116138551,0.842523770702039,0.843402006772424,0.851118213022786,0.850867926211384,0.852347045146706,0.873037238970637,0.871937506252337,0.891460656146844,0.906962374866771,0.904799436110058,0.902650715208067,0.906980249079715,0.907076495134437,0.915191158404452,0.92440115106789,0.927406058356885,0.928363012685598,0.946410333997978,1.017742651395,1.01069874998037,1.01846533266937,0.971119318829409,0.937094916091063,0.944300304751614,0.936919010382909,0.978522851726169,0.987433673435244,0.995642990925211,1.00729848562813,1.04593508632002,1.07855235862712,1.07892505352141,1.07933134454157,1.0968376428133,1.1216130447024,1.12069895286293,1.121022637486,1.12095133854235,1.09638160907631,1.10801676710535,1.08415724055346,1.10753559575554,1.12017959025319,1.12025322848927,1.15747200966375,1.12237015794294,1.1183362124326,1.11884518838218,1.11907854129066,1.12321056986712,1.12920606662261,1.13708722894431,1.14942811459627,1.14636400309624,1.14424699515073,1.14539834346006,1.14007940700516,1.14074402919877,1.13361636321928,1.13569826914797,1.13849777342536,1.13934064171977,1.14105536583468,1.10904520647478,1.08587960120492,1.10215587446903,1.11235617106018,1.11658439079378,1.12254518801778,1.12204003208367,1.11642425355751,1.11806884536025,1.09669193660544,1.11208992515571,1.16860455835407,1.11919416434694,1.09800672117822,1.10539906320345,1.11520248972992,1.08047586682808,1.07248051811508,1.0582434751206,1.04414136406557,1.02124255505575,1.00268203693881,0.994785348601164
0.690400397522453,0.484743771501743,0.484537196314119,0.48396387343112,0.482940584972344,0.481886546335482,0.480260415660681,0.478460378255077,0.475152241912867,0.474351539911086,0.473736968788595,0.473040816546931,0.471458582472117,0.526074740304225,0.661463158398394,0.509580969398043,0.461912366022905,0.462341893107283,0.462113378853384,0.461197223584462,0.460151199478605,0.460298960024237,0.459945603733838,0.520036517651217,1.27824457415489,0.779533435799655,0.904452628436396,0.721390954972598,0.904905470235148,0.900840645056615,0.962905316268738,0.780999236106531,0.759176452356575,0.759592708381866,0.759356902971722,0.75919267893645,0.758979760312632,0.758888106201567,0.758816024457536,0.59825195050605,0.525647850589718,0.527754537930939,0.530223169498497,0.532417985247366,0.533367083747795,0.534580107574382,0.535559393885521,0.536129034171373,0.536758163936299,0.538231203904684,0.540776267098232,0.566247482911444,0.566851159140061,0.566488333775036,0.566533848737933,0.634310271240911,0.909302879082416,0.90344303557883,0.910879496158239,0.902384461426636,0.908146401418022,0.85430246145644,0.909048996381883,0.793246342016673,0.835253839247034,0.690206179877539,0.643921438734027,0.635970644711851,0.614105362911789,0.613780859942413,0.613782249883192,0.611946601947281,0.610930323162344,0.643819046652447,0.64788173248292,0.688238873415694,0.702614791388467,0.742003023467277,0.767878581578418,0.799406892645264,0.795788073712817,0.821276363128171,0.831597071340108,0.842983872395621,0.852411250462457,0.850376067981406,0.859786726367445,0.872243339506568,0.90727076537471,0.90671853553676,1.00277788435181,0.946591201390166,1.00325574350909,0.908004728915188,0.909298261208606,0.912566465609323,0.922882384687646,0.926834007331259,0.927644983300271,0.928193690172103,0.926573276440607,0.950482720144677,0.960252423534906,0.958604395368152,0.95818399592804,0.960721784634917,0.96143025740236,0.976679695442948,0.995138045220625,0.98209886581336,0.971162900886707,1.00244410864162,1.019882873325,1.04866366675698,1.07631837333318,1.06813227005283,1.05919670725626,1.08490261376161,1.12148463164348,1.12144385758524,1.1224236670172,1.1141848560355,1.14392791266813,1.09738056616703,1.08243697279625,1.10644307261515,1.15851060464169,1.11982557684321,1.11819101450427,1.11950689436136,1.11249205452687,1.11629446738092,1.10472746893202,1.10540213615998,1.10551760371338,1.12913038988604,1.1447446857698,1.1475441122524,1.19874791002923,1.15140222154345,1.14477316871002,1.14769896965075,1.17887856366244,1.14503580944797,1.12374323972424,1.10132308494935,1.07974940749474,1.09579881444475,1.11548256279917,1.11577422269916,1.12457152491716,1.12353416896952,1.12465401286814,1.11818760266094,1.1184406468813,1.10611053748362,1.09757114147706,1.09831321961549,1.09835888425333,1.10205749130741,1.12148075150068,1.07641609809525,1.07224684379852,1.02683507147975,1.00053196467202,0.985611166049078,0.971185304492954,0.972534382792548
0.486919290530461,0.485777525159845,0.48587316867358,0.484584883835866,0.484126095314686,0.482787463032086,0.481987025214908,0.478477018385287,0.475352498497254,0.47447193966127,0.473082497892012,0.473393549801559,0.472601542295996,0.474401408001283,0.464040311238514,0.463094229874094,0.462516872902423,0.462756203294378,0.463908542161272,0.461757410131205,0.461813366138065,0.460416476800311,0.460659002472622,0.465388505092809,0.469923632312272,0.610862750157847,0.607372946755373,0.698388640762157,1.22817449165556,0.897281556987368,0.891784880736887,0.782992311236793,0.574911396407774,0.749661160611764,0.736311400221834,0.744914955246014,0.736470349526751,0.748438915650243,0.713883363969995,0.761228299608222,0.833267114271399,0.563843571419246,0.534378272729114,0.534287262140035,0.535681662572424,0.535533624381627,0.537337040012026,0.536702124241861,0.538154407608159,0.538548300061071,0.540247757091169,0.565826242282627,0.566577655993652,0.566499963827934,0.56631505886834,0.608486565815898,0.897007663089797,0.896584594436255,0.895996816502977,0.895575022398334,0.896314056846895,0.747044050484405,0.716605241654197,0.702772146664481,0.6869311439106,0.676066213544435,0.645664054506824,0.630337053228145,0.612735514666535,0.608122833142183,0.599344380047881,0.601023838011917,0.601794920372312,0.640271492348976,0.649350870381954,0.678927478418981,0.691304471251626,0.71685510302741,0.80889121648939,0.802078510474362,0.811713083910359,0.816797444405479,0.855183376541844,0.843611803594533,0.845150517697649,0.847717905212829,0.865048904644547,0.871045359285892,0.894586955936334,0.905472942492292,0.907467721729485,0.907911064714542,0.907696877914798,0.902926826990624,0.894227786338841,0.904548326107073,0.925731757933018,0.925484616064323,0.931175618214035,0.930897847187462,0.933648400946381,0.942821744751453,0.988442114343818,0.949788906498593,0.930748211637341,0.963197688755907,0.967983079506746,0.972867791420697,0.995073718483564,0.963801712015168,0.940601725113334,0.976548122179432,1.03354035022882,1.0315246432516,1.02997457343057,1.02854136678674,1.02717273584261,1.03339420911166,1.0410449952757,1.07645717062051,1.12244843788735,1.0996686631258,1.08202716346713,1.07653704022012,1.07264697445053,1.06725152998424,1.06107918563573,1.09228978368134,1.2303248578633,1.12064126742091,1.12294997215524,1.11895779335803,1.09676571311993,1.09891606567326,1.10153380206855,1.11677701902168,1.20464470181106,1.15158779477024,1.15824132173239,1.1581828162984,1.1748829934358,1.15538281033023,1.1516600202074,1.15306374984223,1.2108568759453,1.09041069584255,1.06991285125373,1.07650967963277,1.08248530691951,1.07192171783874,1.06322725088837,1.10217731192967,1.12469632307157,1.10411518813448,1.08766147223805,1.08862476531303,1.08774861410989,1.09334375174219,1.13027070072067,1.07669338302426,1.02444984018493,1.02008338800251,1.00107666753811,0.992401195013365,0.95644141451892,0.95577413320013,0.94464758424972,0.969439025626764
0.487611274204035,0.486807420381827,0.485987359945049,0.48551117174398,0.484309861447851,0.484295228263,0.483874301642881,0.480691325600204,0.475779525481342,0.475603696604003,0.475099099642913,0.474636041062962,0.473974032999868,0.474925547376514,0.463132281751022,0.462931317164653,0.462710457274566,0.463150525516257,0.463333992528829,0.461940924168725,0.460772368617843,0.460272120766758,0.459382908092322,0.462444722203651,0.990343989079502,0.614106117411032,0.617208346370498,0.679893429030064,0.902133119452784,0.890885322275586,0.879084101517238,0.788783204098969,0.798391267573865,0.772767764565408,0.795096481018988,0.765137807349035,0.928763235199713,0.779817150031478,0.857655881160478,0.787653964123303,0.843965963246816,0.582676478964411,0.535091302660719,0.535448832994586,0.536125320286242,0.536148197091734,0.535985781841508,0.53662367688854,0.536689554861853,0.538106715535957,0.539593767050578,0.564612259022141,0.646379021766346,0.597181157472275,0.56050564775282,0.560503372631439,0.56076259974707,0.735734146991622,0.894472331041671,0.888654605389479,0.884804179630229,0.709967995072131,0.663349738282886,0.665358461502955,0.661454914733231,0.660751211434804,0.660087495380372,0.62299200015763,0.60114807627532,0.600417668537659,0.600559330578519,0.601708170032926,0.602580424216175,0.633125106205688,0.649219799327921,0.669169914245204,0.65029934295445,0.68299846438932,0.679883972638481,0.756991592380986,0.811497771774533,0.801168602382736,0.79018867127879,0.813159006363334,0.822589397682928,0.836730347108891,0.864775521140894,0.869810802683282,0.894297548505766,0.903245643362346,0.901618278059177,0.89718803685101,0.893246081057194,0.90043061478368,0.907249007961511,0.89525165768525,0.888707815252233,0.893158812301631,0.897794883412385,0.914146504385165,0.934237838765377,0.916068439805108,0.90456822566367,0.930089511690701,0.967638413646975,0.965774143231367,0.970938202299481,0.961165378765252,0.949811110146207,0.933151753372118,0.908106552383777,0.930096555121247,0.944319513017541,0.981071314149925,1.026825285064,1.02047426524352,1.01098574148824,1.02049252990494,1.02410159705017,1.05149051414164,1.07222038741364,1.05005305725296,1.03570949148121,1.02811313336567,1.02417054268946,1.02244277946186,1.02090117605146,1.04388395653591,1.03444499600261,1.08721336594656,1.21237646792396,1.13056452768525,1.13845248737041,1.07935833046266,1.04342468970299,1.08469951463185,1.14759532681404,1.14925923611554,1.17078761187667,1.15813087821781,1.15900593388306,1.15723795937831,1.15686897148116,1.15514912047657,1.30940099120926,1.08010732050277,1.03470117973342,1.03394647724294,1.03341270826842,1.03068414934152,1.02791214581344,1.08781080209795,1.08616705773441,1.09164181098032,1.09092801130361,1.09005998542752,1.08948383120137,1.09183149506198,1.16216302299073,1.0556293558516,1.03992643989329,1.01688431023758,1.01448072717606,0.981971549488126,0.955562570994824,0.955441163354025,0.957999546080607,0.963803247532379
0.488450591801294,0.487112630609303,0.487279503647112,0.486229240273123,0.486298372160803,0.485500504695256,0.485756324728795,0.484162427756385,0.477104517469921,0.476325925862985,0.476346195700201,0.475455309984725,0.474795613767574,0.475191428298775,0.46304329284939,0.46274310623506,0.463359298949529,0.463327093485833,0.46327634227197,0.460249940072503,0.459829708002784,0.458408515196575,0.457936063836734,0.46073083842967,0.550405817187194,0.524687501724865,0.464829849501143,0.679193325204897,0.714849583453142,0.771166945845301,0.765927891862179,0.785897693776163,0.966709075160652,0.765983180816206,0.699779529739311,0.698581822057185,0.697384117402738,0.636884464638678,0.59718727887941,0.636884439199966,0.717040567954911,0.601077159344401,0.534701080088508,0.535383467589587,0.536606914908087,0.535735598543158,0.536560777787812,0.535794295849786,0.535947201975186,0.536585942768147,0.557352056175731,0.563284169065944,0.656592675930191,0.614129928994492,0.561386857213063,0.561028866579167,0.561437761023096,0.710820012849826,0.885429705465164,0.717918696048935,0.631168809377824,0.677369764554312,0.669727873622253,0.667605821682125,0.662088405267058,0.660622653928104,0.659142860206808,0.615440433217556,0.601623545894557,0.601109771863483,0.602603877687288,0.602418200996882,0.60281105702904,0.624084112108348,0.690275406114972,0.690485166644906,0.690891396294434,0.685233643593669,0.656338576413535,0.729067658794134,0.739217466565504,0.77521561373234,0.794763633658789,0.806104227815343,0.818313016569394,0.827907873130939,0.867738568277556,0.86854225204386,0.978493079928007,0.930451104651929,0.978559980238637,0.894850514735005,0.892280162184229,0.893135100713222,0.878783046535113,0.884086559046571,0.88396839787938,0.884911902447506,0.885965133386286,0.90162181132962,0.901211892228139,0.892532310015945,0.881667445944376,0.881267431698216,0.88137319830772,0.879411182221636,0.87611258408449,0.889372078450796,0.906692926195958,0.913973233779223,0.928689708277224,0.927948074558317,0.927645893945948,0.933789127193363,0.941135159657296,0.978708359300242,1.02536242193868,1.01739413904194,1.00956325426541,1.02841828904233,1.02097069508274,1.02058739195394,1.02008992093923,1.01988748776531,1.01689234391017,1.02258383872987,1.03523398098475,1.04922763249272,1.05169047668908,1.05120163632228,1.02693844639656,1.03990299234619,1.05114755867642,1.04841337155704,1.04632974802696,1.04789272223504,1.04974149716182,1.09783142397651,1.15109666861697,1.15662580115088,1.18801519553883,1.15814928502503,1.15837284995574,1.14901921422216,1.13850895283065,1.06638249600477,1.02071503429119,1.02491585025796,1.02434815099369,1.03002552846857,1.06348510746755,1.090027911761,1.09247630118375,1.09162049684164,1.09025860635824,1.09042625632991,1.09051489927029,1.05907719553314,1.03025480125624,1.02098674809581,1.0041385887091,0.993163779923991,0.975081969981713,0.972704398516182,0.970016049202562,0.966200171652949,0.971001352484028,0.939843258178991
0.487865724881658,0.486772416833159,0.487426544348217,0.486774547934408,0.486766125514938,0.486786549114632,0.486365990921388,0.486674279474153,0.477295647707145,0.476832954505463,0.47691216066653,0.476159249351507,0.475274989527413,0.475341994821764,0.474813861588451,0.466937214778598,0.464147447815557,0.464187195867054,0.463889071726392,0.45715498043975,0.453972529081339,0.455738728804126,0.454934661896133,0.454826534363499,0.454282056090178,0.510126458272428,0.665567220015579,0.676587423453673,0.514279670814334,0.775576273158126,0.782842461304694,0.784926849350067,0.766707819660482,0.762962665515385,0.510845774910152,0.633640340387657,0.63367755715492,0.606833199544815,0.569436087149883,0.608668271695305,0.716950729894181,0.619823646679173,0.636839072235675,0.66456713687658,1.03789097522842,0.535124987510409,0.535307753192324,0.535347883191065,0.534899854119285,0.535425314519504,0.534492466652833,0.562007555384655,0.654352785552449,0.631078552397957,0.561816824626934,0.561355164094021,0.561603380317377,0.68722575402121,0.893355567706521,0.689983251887888,0.65839911665585,0.683261534641585,0.693168593102257,0.679514439678994,0.655415302925753,0.634245376998309,0.615179341578067,0.606887229310341,0.595228728927792,0.601631784444259,0.60301737090037,0.602897624960544,0.602963932308953,0.614352567187767,0.690736079247586,0.690430961464058,0.690204241389613,0.687846607528609,0.694391437110804,0.712443707762685,0.756787496515141,0.765865201028822,0.79335644488943,0.790611409846894,0.787661483324978,0.789308336910858,0.790121136504111,0.801922801391855,0.807489063129185,0.811843286813534,0.811724547444749,0.860571748900058,0.893524979799833,0.893463898735253,0.918021899020583,0.884620731068745,0.885347912995119,0.884921629349465,0.944805919387954,0.901892549684986,0.901856316697649,0.886660674227188,0.882046420972997,0.876864959486654,0.870908504097263,0.874260522089575,0.889498365478368,0.877897541137027,0.872312566876213,0.897329586053413,0.908309709253084,0.906504493837653,0.902448592568507,0.917934419567641,0.925129021208099,0.933777838803432,0.943620653387528,0.984059407086544,1.04349291305931,1.03503913556939,1.08275238914165,1.02129226428173,1.02243560326034,1.02172062272527,1.02377571417103,1.02274589185227,1.05639845227585,1.05103025048193,1.05260568669025,1.0520782183763,1.05331472776673,1.03549787039913,1.02386549857712,1.01744734125411,1.01298969791499,1.01252028376011,1.00778434371046,1.00555559432732,1.00185850055078,1.05543380581809,1.14166280774382,1.15461483681371,1.17070186597119,1.09807301084436,1.04451984695527,1.04654340706385,1.04690292565309,1.02553374721374,1.02663637475387,1.02847227941213,1.09018673304819,1.0958171027242,1.13507697270102,1.11008659294017,1.11206246417491,1.06372080736082,1.02295128719183,1.02221081398216,1.02118476899206,1.01737017657375,1.01336024874486,0.980961294276615,0.944748459714993,0.943568336074363,0.937568608726963,0.934764943803119,0.929770158493911,0.916314445730956
0.481572932957809,0.483515671001677,0.482890174092299,0.485424257041768,0.487304096758489,0.487158526349109,0.488075482307033,0.488214484639301,0.488163886247429,0.48704607677746,1.10014646623828,0.476588301915035,0.476523429444026,0.475352515662705,0.474330009473792,0.47177442118822,0.471431439199095,0.465354693971884,0.454052617705717,0.455156924059945,0.454326089345272,0.455109110605375,0.455142164642233,0.454912244341819,0.454186600303085,0.49783314718242,0.471540896062345,0.679544290659877,0.951016180435722,0.874322733069426,0.885833318511757,0.811934729692184,0.852652690613812,0.757825389343846,0.749594448365677,0.633800736755748,0.634158549711932,0.5483514823049,0.501862481829067,0.502257481058597,0.501990311849173,0.550189491003453,0.742690613382008,0.690457385532232,0.739703038219124,0.522399793510656,0.520055841480863,0.520984204207208,0.521186339593917,0.529799023660139,0.534367394179336,0.561081335834768,0.723376504277902,0.657899060506139,0.560796184073695,0.611871749769323,0.649661945691411,0.659178537973499,0.633762470620523,0.634825460929794,0.634632044047929,0.687714729759666,0.692462174682867,0.685397319567692,0.597752021026083,0.597912545839045,0.59812680847355,0.597470838335621,0.59682463910369,0.599087469624756,0.604178476364196,0.60199986501955,0.592492994874654,0.606759547129514,0.690520645936311,0.672870355723906,0.652057932192087,0.653555996807377,0.653816399334701,0.690975734747352,0.700268263007626,0.720370779545599,0.734938797302847,0.761308612502773,0.789811992643945,0.790203026121969,0.791365518348022,0.797433327306695,0.809261243781856,0.810972355757209,0.81128260818708,0.815643265341064,0.81416007774821,0.846643407215543,0.856988772325758,0.857720599945043,0.858841678743422,0.857981439660523,0.857883019279869,0.859295632516377,0.861592910269015,0.867243609689768,0.878524417319893,0.873391835592465,0.866951101221427,0.866463448858428,0.866388005779289,0.876129988435206,0.873762318239058,0.882334485129441,0.882453749749311,0.898258382550385,0.904846573569635,0.914094593055857,0.90813354474641,0.930823861749493,0.934314148437518,0.947405106812,0.94909319047978,1.00206676238992,1.02032864018582,1.02125706865321,1.02208260270324,1.02179741458254,1.02163489984083,1.0135671790105,1.00634038050616,0.996275524591879,0.98719110795111,0.992339754903063,0.997572671476486,1.01544938791331,1.04222955803989,1.0143500171546,1.01145163807307,1.0119745144392,1.01149042047034,1.00359915956738,1.0027282081161,1.01680227809292,1.03721248593422,1.01836188143622,1.00607970851103,1.04096791872812,1.05948030175308,1.0410963130629,1.03757701203398,1.02510914906086,1.02454572684447,1.02911426515842,1.10569546181393,1.10380681207053,1.12654436890389,1.10790918761989,1.10606986491612,1.04609700033713,1.01634881534862,1.01215997962987,0.973506180286654,0.980319750304705,0.963981905147789,0.957543294853075,0.94518314783409,0.942130300014608,0.931258409622701,0.922604103281053,0.911517094764752,0.907508709485241
0.482042350360064,0.483463074225087,0.485046318104678,0.485475784408152,0.486235033490397,0.487490716622377,0.488687309291605,0.488276287839603,0.488063198047699,0.486487673497846,0.484606515950565,0.478122153055408,0.476410362955586,0.475796454143936,0.473598066309694,0.471835656581832,0.471684333975174,0.466896859710777,0.454296450465676,0.454862141065757,0.454737285205632,0.455998600070337,0.454433780576671,0.456422459915172,0.458954557647813,0.507065643588824,0.517893265494727,0.683302320581146,0.910243325704261,0.87053928609879,0.506470600034341,0.496606775591663,0.486335685109398,0.489424312738621,0.490490652530139,0.490419546160615,0.490544290830943,0.504233915539236,0.503032893643961,0.5029105470567,0.502620619278151,0.504013170393256,0.502442904646835,0.520749939614117,0.520588620285464,0.520555786356086,0.520519862653,0.521012814865424,0.521308163023049,0.520885231312022,0.521483678040977,0.560780933805838,0.746315340605272,0.745579407280852,0.75753198381309,0.722343830160333,0.828004720451528,0.671486836326261,0.638428840628799,0.635777499511652,0.624866025982814,0.711421817286991,0.864661296406138,0.702170618667375,0.598046292541574,0.597918342755498,0.598000731642791,0.597345163227424,0.596713184935158,0.598221651307168,0.598506588671525,0.599471304566705,0.5928047051966,0.600835858932242,0.601363099091148,0.631144344037581,0.647281312150386,0.648861456043335,0.663363470815933,0.679696351839554,0.702083088923288,0.702211213104739,0.702747596997389,0.739918543055977,0.77589271372263,0.785906497808505,0.790676569491285,0.794162226158412,0.80933682578857,0.810823887009766,0.81615949998866,0.818077218656955,0.898672439026016,0.843570660285898,0.84023180991669,0.844301612952033,0.84630530168102,0.844790380019674,0.844461775958453,0.853058552047494,0.864086291600055,0.861209313007767,0.857385108883453,0.863871491517331,0.866036376098918,0.866665151881099,0.867172567080767,0.877956743127452,0.879335699197377,0.880887015904745,0.949595014152842,0.891429009605591,0.882632564961696,0.917404530581491,0.918795570943769,0.925135820843676,0.924950369957431,0.945642032636309,0.951301488849594,0.984343682483532,1.02224586097244,1.02160705911272,1.02143135043894,1.00919532767053,0.996814042189022,0.987760468385054,0.980164448778406,0.975873322121132,0.971448275062197,0.970203156798895,0.963714251193627,0.988925972483738,1.00007328227347,1.00816976783859,1.18381004749409,1.05424068618739,1.00472972122248,1.00304633841339,0.997983386217592,0.997746351018485,0.99159119763745,0.997250323753047,1.00407277400184,1.02622216116828,1.07666450352592,1.02742110944734,0.99359267295418,1.01685268036902,1.03242143240984,1.03093660191221,1.097469921306,1.10076129273545,1.14704358123457,1.06584337523301,1.01619621766963,1.02144307931181,1.02668354794408,1.00621033411065,0.982954769737616,0.984051580163244,0.992391602309432,0.953172144491162,0.938189244126566,0.939158206471912,0.912049062472591,0.911908792901831,0.912627146652027,0.905310562605385
0.482485879287894,0.483243323037817,0.484024034810158,0.484970891528945,0.486139775736883,0.487215662665185,0.488376997168797,0.488206004601144,0.487630751623937,0.486247684920669,0.484311111238467,0.480665387294737,0.479116399662834,0.477789703369162,0.473058194946472,0.471342356384194,0.470610193154448,0.468281154822533,0.464559314778536,0.459690336977412,0.455513350404819,0.458255473392981,0.460275260392308,0.460190189774673,0.511184079919094,0.53756959843099,0.564881033762316,0.705914656783333,0.85304667220225,0.852637310917831,0.554923317837374,0.490881758549272,0.488335510968013,0.489245268001017,0.490174251418563,0.490330507020635,0.490652326425039,0.504153272780484,0.503774585656216,0.503519959964252,0.503281111762977,0.507940663465636,0.509793455087931,0.520695861777401,0.520353408666483,0.520343912988381,0.520407555055532,0.520709113027176,0.520803484669707,0.520545390945973,0.521047751923345,0.56125719939448,0.745585292280844,0.745866981373233,0.746724848704567,0.709484412925069,0.696920462342465,0.685702681891382,0.698653226367057,0.715519062723047,0.734226578596847,0.755238906748241,0.778884386736063,0.725264091516626,0.597875790063235,0.597771907476647,0.596826708707485,0.596712821179777,0.596724468637023,0.597202244682088,0.597393306854365,0.597293341104881,0.596865737360422,0.599482309639034,0.600601283484188,0.617298844626279,0.630634402440813,0.640431676462087,0.662880609586369,0.670923145386514,0.680205258322498,0.690766859276436,0.701740346984617,0.718466631188196,0.731370263087522,0.745059467786628,0.758214560179798,0.772613181162774,0.80151080441493,0.80316428310842,0.819223086050692,0.821536792876054,0.830077738236791,0.832094592838568,0.843889721160398,0.843949358932754,0.843717223145698,0.843796519135041,0.843796633712904,0.851498445520667,0.854962772170388,0.856253859283719,0.858293222142731,0.861632534476035,0.864218042467464,0.867175377751499,0.870479083171435,0.878775983964312,0.879883307108026,0.880773121278704,0.926865186651544,0.885608061772932,0.883949614141625,0.921462874640378,0.922776089950584,0.926557065166701,0.926809953975077,0.943296157949437,0.943755686540978,0.95589581979131,0.963003982001009,0.964048224368787,0.969416479510273,0.966110995204976,0.964297188917501,0.963826295238731,0.964446635692397,0.964602085317914,0.96565350659504,0.967272445364209,0.965497042210146,0.979327222703813,0.989941436866639,1.00336176221701,1.10306070310718,1.07808655705418,1.04463654244354,1.00167373172988,0.996896300489623,0.996515121648002,0.994297949675989,0.994415943018637,0.993932150858649,0.993628706428137,0.994076905827096,0.995043159887855,0.995250636085132,0.993056663155605,0.992128839672873,0.992034382867752,0.992907029731926,0.994544197848472,0.997345726423551,1.00126241569935,1.00587224157699,1.00352829246647,1.0018820542729,0.999082187763396,0.992667992042909,0.98444109519079,0.984035833935774,0.949478060001944,0.936830039676183,0.936802909132873,0.922007730366695,0.907433190588552,0.905132881823309,0.903128210998916
0.482205776430159,0.482888826763081,0.483400893530351,0.484453389953216,0.485798470251438,0.487159598826503,0.488984075791371,0.488737307192691,0.487908958655936,0.486602297370803,0.484640754983856,0.482765868155486,0.481844106282586,0.480067633678552,0.472063678226371,0.470756686168341,0.467749904526283,0.468212983184334,0.467535920721367,0.462953948089943,0.45289127989603,0.459375341055974,0.460978758669904,0.4643815641674,0.968018409251587,0.614686298748663,0.84142803482426,0.854944558936422,0.854471457432487,0.854644382030769,0.851475664182863,0.490727419357349,0.488867115481531,0.489731756148015,0.490905362414691,0.490753009929217,0.490750579474277,0.503974847674019,0.503692948081232,0.503214335978715,0.502665633694971,0.50940598807743,0.510750754161427,0.520096466558157,0.51948044787579,0.519795604171434,0.519532676571757,0.520015862679498,0.520529267445564,0.520294573739919,0.521093264039561,0.562595162704606,0.780036261049535,0.746705221763869,0.748523434189884,0.667213834879618,0.625912329626538,0.664705814468755,0.836774392029507,0.862540956980272,0.972269762889443,0.870618051035405,0.871066982760196,0.749907822113927,0.59793441008201,0.598334836917372,0.594845693680512,0.595670488059368,0.595877540448915,0.596208426771195,0.59588537645996,0.596297721027645,0.596320234398193,0.598900856742798,0.600774017947824,0.587682818584784,0.580291152619291,0.619789199287731,0.661474466871351,0.661315565514115,0.660211755401863,0.680755451220718,0.702376290602916,0.698169656407551,0.693056074313655,0.693350178470014,0.693063830190298,0.74962354987431,0.794856513783764,0.800426741297331,0.84131563895333,0.824453157566564,0.829222217535483,0.829766110786858,0.891501681683619,0.831917858656442,0.81187111425409,0.820020057876296,0.831116248300996,0.842229726318049,0.853585878735728,0.855372388667052,0.858799648868658,0.859510755071907,0.85901676531818,0.867436812022243,0.88907491712635,0.878491906206153,0.881474778255779,0.880911464541346,0.958805276743988,0.883660579824147,0.88257810849351,0.92321589419147,0.924985605919638,0.926350911109642,0.927412313897287,0.939589949583983,0.940652386135441,0.95112556763228,0.960265647970116,0.96253307749288,0.972661598429434,0.963555802415497,0.953342089881725,0.959643728559068,0.965223508647457,0.9631803707176,0.959788700855568,0.957097832373314,0.954423337431047,0.958579363619592,0.966136522727489,0.997229402838231,1.38992981639334,1.17094865071414,1.20474027238611,0.985993527402618,0.979991120634197,0.975887945852163,0.972025018000194,0.97413426874912,0.97672760834799,0.982724902050388,0.987620713226828,0.992551683332444,0.997983578518236,0.995230291971903,0.993985273922234,0.99252427499213,0.991249654439373,0.990989148362178,0.991203966446522,1.00108294592941,1.01027429081916,0.999746872973801,0.987517478742109,0.995814679478538,1.00634678761526,0.984724904235668,0.984517645078333,0.944505569913031,0.935693282310989,0.935005357506351,0.933098229497517,0.90670873179266,0.90476920063757,0.89998120845362
