0.524797324811783,0.500490614311575,0.808313473114729,0.511176357655303,0.511506325654577,0.511212710062002,0.536541948514764,0.992364776122328,0.518224063990083,0.582169811600844,0.853237590891622,0.854635760380072,0.984907872183928,0.927516743135021,0.920142797252935,0.549899127694424,0.549428410633312,0.548993113865908,0.548449691991397,0.537904697709507,0.537785387246492,0.536829039316392,0.536973516830199,0.714165400327462,0.541987352615781,0.713129822793017,0.712946196533533,0.805903028916641,0.559862483469119,0.559637844237975,0.558569642748799,0.557145374096564,0.72703974497711,0.725794442019397,0.725293897342532,0.721087271408282,0.721321231769349,0.741853816763735,0.663135010338011,0.680734235745628,0.673015408056391,0.692915088329005,0.702151395969707,0.797919481137591,0.733864676306731,0.759286193945731,0.870035199125861,0.885406674481881,0.881386471146091,0.97988378315543,0.980237986092504,0.924458480407285,0.873604259773378,0.875533733667439,0.934778835458031,0.888496629051356,0.888977599355383,0.950000240622291,0.908664757865753,0.926908073351049,0.945563382778942,0.97084228713012,0.956114901851779,0.975987550847616,1.01972229244633,1.02275165967131,1.02277962306108,1.06226392941491,1.02226696091531,1.0387560397491,1.05629840626419,1.04852458390841,1.04909317283371,1.2036561492169,1.15340593780201,1.1434323287844,1.088642727097,1.08862408483715,1.11168456026666,1.13567714868846,1.13230289965633,1.13054120610089,1.12369949673741,1.11330643687326,1.11503084590901,1.2542326001791,1.10757394197061,1.10995083010098,1.10758326310054,1.1302615722032,1.13694482235799,1.14592107047384,1.23392185807689,1.15464564808177,1.17665283582997,1.16445147676076,1.16461925709938,1.17048224782094,1.17551565797937,1.19748556120788,1.13602203049561,1.1367863631493,1.20463486785882,1.15767501530674,1.17430391108938,1.2143940908882,1.21597868297511,1.25039229465083,1.25060668063906,1.2326728266672,1.23106959232045,1.1758139341369,1.17892719153118,1.1782467490468,1.19801686561349,1.18073549073625,1.16294145371324,1.14362807251278,1.12389524046579,1.1218725552725,1.13752273241322,1.1331790858691,1.13227493626657,1.14333911748517,1.11743569742915,1.11714674240154,1.12768894034445,1.1790949718698,1.10050852548898,1.10191601610735,1.11705353110231,1.11155406444774,1.07618037638995,1.107527336321,1.05740762072503,1.07818441932339,1.04601719995912,1.04420890075406,1.01700052250882,1.06635590545111,1.03383448314976,1.07018688984946,0.965445352904703,0.99892685158812,0.980312555131888,0.98612894020384,0.951901751126583,0.930176061502053,0.891816815529929,0.851920515233502,0.852513339096605,0.833298761873332,0.833316472020185,0.883437119729152,0.80418421255884,0.803912035565088,0.872784000340154,0.881903793856818,0.831206168205618,0.811686790033863,0.852488172045813,0.84039400597072,0.772161470708371,0.7930156346851,0.750270797084205,0.785993095401112,0.751362301398188,0.756183189794364
0.807587357093727,0.496413552083254,0.495261460424772,0.537619471133863,0.547429028264829,0.552544464366571,0.787607515103775,0.78467135917803,0.518791720802394,0.51825109526686,0.78061480343554,0.791391893852514,0.799034288276382,0.868792692507125,0.845977362794597,0.730987243499501,0.728910495752656,0.734484531446611,0.766549218381733,0.538212294996966,0.538749192080531,0.538361433075734,0.53915838968415,0.539224569706603,0.71256775865866,0.733296087381428,0.730435432608059,0.808258478448183,0.559241696216247,0.559178312532771,0.557497712807654,0.557010217712681,0.577012430414448,0.724743950677075,0.720495379658172,0.640072670682523,0.73070294903685,0.730565928426981,0.746989759351308,0.680058453826211,0.737714302964931,0.676869695279552,0.709157157219834,0.751812511973469,0.723900388419044,0.88556420157758,0.841083769585022,0.843478367862241,0.846101333822573,0.904651079320908,0.907040084920173,0.88226545369783,0.898587684305997,0.891536249519247,0.888789312530938,0.891261276186518,0.89226702610521,0.893319381673517,0.893792895073605,0.920200588258458,0.977851776832216,0.974151288252785,0.972939541362795,0.951128097342974,1.01820294826889,1.02363716701399,1.02505397876229,1.0246531701756,1.00801495326305,0.992383418382174,0.996074585831682,1.05033288311347,1.05016510277485,1.01348645652785,1.17149825098255,1.17150757211248,1.15812242954305,1.1057842850254,1.10766715326984,1.10691214174608,1.12360628543818,1.14585582256438,1.15994937100795,1.1575351983579,1.25313270684819,1.13006582847481,1.11245821405027,1.11667136477546,1.10564446807655,1.10764851101,1.10863655078184,1.16001461891742,1.11975665877998,1.23151700655675,1.13975048246481,1.17111608465571,1.23628010394741,1.17983134113371,1.1782467490468,1.19087688009247,1.16206526750048,1.13580764450738,1.14350689782378,1.18919907670633,1.18738145637134,1.17639184419213,1.20802775915079,1.20114876526762,1.15188659362456,1.16521580941445,1.17019329279333,1.16360325393777,1.19397149522691,1.17198294973855,1.1717219581007,1.1748818211446,1.15229672334117,1.12688732317107,1.13604999388538,1.13363582123532,1.16508531359553,1.11039824433728,1.12890068723444,1.10860858739207,1.09790793024046,1.12379270803664,1.11837713155137,1.08607009523825,1.079200422485,1.09073066019975,1.116606116866,1.04485205871874,1.04630615498673,1.08004864530799,1.03335910552368,1.060194638572,1.04454446143128,1.0198714305251,1.03028313264909,1.04034995296593,1.05693224309895,1.02946287321587,1.04954058707001,0.952703368299961,0.947474214413157,0.995086546059844,0.896083096695686,0.884487611071474,0.873344200248526,0.846710935719537,0.840839555981039,0.836470742386129,0.83828277004316,0.838523255195174,0.81858722251586,0.796943558834653,0.798968108253928,0.798212164617173,0.84880725783922,0.843065441806652,0.863516932970707,0.79349380865015,0.793604730096234,0.805909553707587,0.808028246539085,0.817246844032932,0.771007514823904,0.770732541491175
0.64087801630787,0.496524473529338,0.495595156876015,0.494880226210921,0.574109830556425,0.621283136983739,0.62106875099551,0.518398369119643,0.518033912939654,0.517298475788729,0.865818319948696,0.96298457460503,0.794957226048061,0.986017086644765,0.986352647321993,0.985439176589539,0.772231379182794,0.728861093764065,0.77072228824826,0.537141297168813,0.540173460732765,0.540005680394151,0.539983309682336,0.539665459151961,0.672804750520132,0.653559413568113,0.577220291611731,0.806560168576212,0.807066305931031,0.704185266518905,0.707845674239668,0.718125016318753,0.604415620275077,0.713454198114337,0.713960335469156,0.717717682941117,0.809340661632243,0.736508148752894,0.711684115541959,0.734191847967029,0.721596205102078,0.715510439375351,0.72129699683155,0.721283947249657,0.726907384932204,0.746527431307127,0.829970186377828,0.846752880804191,0.84686193802429,0.899067722497031,0.917175881598444,0.866576127811436,0.866155744851909,0.884103580518646,0.866015927903064,0.927983731744163,0.895050315500218,0.894717551161967,0.896364594819361,0.901722380299102,0.914649855389311,0.930290711400106,0.937957340761774,0.938227653529541,0.947502177802926,0.946560743680703,0.962527839238803,1.00698962897152,1.00797766874335,1.05724916151633,1.05850751405594,0.993222320075244,0.994583205044002,1.02110181967494,1.00603887371937,1.04922366865263,1.04016353036747,1.07242396103098,1.07526690565749,1.08066383988291,1.14223922415425,1.10071359034729,1.14249089466217,1.12502309718647,1.12514427187547,1.13449336518824,1.10042463531967,1.10186008932782,1.11341829043234,1.11188962512496,1.11226247032188,1.11025842738844,1.11812546104345,1.11899232612629,1.15888676219673,1.15211030074271,1.17737988396397,1.17847977729488,1.17837724486573,1.18872369908026,1.15363896605008,1.13914460901982,1.17888058588157,1.19333765839214,1.15943670886219,1.18640273772943,1.1587096607282,1.15135528921895,1.14990119295096,1.16677243811159,1.16620384918629,1.19012186856871,1.18338269163438,1.17491910566429,1.17619610046374,1.15517695248738,1.15313562503424,1.12623484407646,1.12662633153323,1.13031749898274,1.1397877669845,1.11887115143729,1.0976376174727,1.10734091372254,1.09779607668139,1.12341986283972,1.08276109411559,1.07482881255111,1.07161302272768,1.07474492238181,1.05395880265352,1.05097604107816,1.04360302730906,1.06830402160501,1.03528857941775,1.0527377346336,1.02169837199001,1.02255591594293,1.0215305916514,1.01965704453687,1.03854165376087,1.03915684833579,1.03675199681566,0.947530141192696,0.943279705947807,0.907255403021395,0.87406285936559,0.873246328384335,0.856464566070965,0.879589357296937,0.846058456624927,0.831680613718699,0.82449588677405,0.828761235826815,0.794993578454761,0.790031008883756,0.788898491598111,0.809859848568955,0.821842161084972,0.77511533678097,0.784332070048833,0.81570978970863,0.815178485303019,0.766347881975396,0.804431222501799,0.805157338522801,0.771989029804796,0.758012927598249
0.776714842675757,0.775802304056295,0.769688574939799,0.631010668171382,0.718904262780315,0.704470493094549,0.513299711051762,0.742119468966541,0.516051308605032,0.509217056145488,0.508901069841098,0.513409700384854,0.514201064315316,0.513777885016812,0.512744171708351,0.523608880746601,0.522893950081507,0.729862183117795,0.769533844183077,0.628273052312997,0.722029637643497,0.539276768034172,0.539084752757759,0.539272107469211,0.684549374223112,0.726710709090828,0.64487771315783,0.975530815481389,0.596521555343288,0.59554563304035,0.595374124249766,0.699483688585744,0.744831917774134,0.865836962208542,0.63180016787586,0.720775945668854,0.727911270624911,0.738141210715404,0.737386199191641,0.702645415855626,0.719835443659623,0.68665967803768,0.698152631232739,0.701736605688133,0.723417553889032,0.738250267935503,0.749156922058406,0.853973028042547,0.853377407840467,0.898547603447328,0.923381889901178,0.862811323435536,0.84789937978472,0.862700401989452,0.860024305588559,0.874732116494061,0.875630673418639,0.930799645093902,0.887920583222115,0.899000610361585,0.915182091907915,0.923461119505523,0.91845474062388,0.925351444653908,0.951286556551665,0.983780015463244,0.950074809661674,1.02379562622269,1.02346938667538,1.02388883752192,0.987657605511213,0.97410468260317,0.971578656394037,0.986725492518913,0.984805339754775,0.998777713509352,1.04451649804152,1.07893943084716,1.06046495133977,1.10437679440703,1.12716695706876,1.12823888700991,1.14302219906779,1.14599563951322,1.12437061809186,1.14421530369793,1.10325825881627,1.14196891138649,1.14519402233984,1.11332507913311,1.1114981376682,1.13704735478714,1.1056631103364,1.10660454445862,1.30440824255462,1.15557776107407,1.31081185881172,1.15856052264943,1.15329408424293,1.21911990375916,1.16529037845383,1.14123254212257,1.20109283848808,1.20430862831151,1.16226101122886,1.16286688467385,1.15315426729409,1.15281870661686,1.15170949215602,1.15100108628187,1.23735203388855,1.22122647912176,1.18004572712194,1.1849299992016,1.18045585683856,1.15650987406637,1.1495935956635,1.13763458597229,1.14264935387087,1.11905757403575,1.11981258555951,1.13634827004292,1.12462228859978,1.08861476370723,1.08426179603319,1.11662475912585,1.07703792034286,1.08602348958864,1.07657186384671,1.06574071087619,1.06121996286353,1.13810064246844,1.04042452200532,1.05268180785406,0.998870924808582,0.998973457237735,0.995235684138612,1.02346938667538,1.01896728092257,1.01981550374556,1.02001124747395,1.0599895737137,1.02869854056218,0.963590448050025,0.964000577766637,0.894936597715157,0.882544155482528,0.879539955308345,0.855936058004331,0.843435490664595,0.832612726710999,0.888505018068287,0.815071292308904,0.797579259895401,0.798538404164478,0.807440083240944,0.81092805005813,0.768502927213593,0.771536022890538,0.775974744959871,0.770601113559261,0.770918964089635,0.768839420003814,0.759842665402134,0.804944816760556,0.788850953835504,0.782565715928424,0.759027998646863
0.500198862944985,0.501475857744436,0.778075727644515,0.543941993560634,0.506029229711822,0.72872966583215,0.751681084041555,0.85959926206407,0.507508493030602,0.509609475715246,0.510508032639823,0.510469816007139,0.513841268700288,0.51306388646471,0.52108378665046,0.521161152028821,0.521972090332122,0.522407387099526,0.528951752418465,0.530747934154627,0.531090951735793,0.530971641272779,0.538571158499001,0.683471851604013,0.727142277406263,0.726830019553843,0.726619362017583,0.727557999800829,0.56589698298127,0.800642183188099,0.799115382106712,0.777864137995263,0.811621542124402,0.811532991390133,0.718210770714044,0.731474738594474,0.73053703292422,0.740005436700004,0.739515145266054,0.662968162112389,0.714474861840906,0.686180571959638,0.699072626756139,0.694046673501658,0.682756920938919,0.775930935649233,0.798297919012465,0.807858601974486,0.820468226534321,0.818900412481273,0.845146850118458,0.918756745233385,0.821177564521462,0.84314187507202,0.834745401237381,0.875246642865811,0.874871933442906,0.873330218553642,0.89380314831652,0.894895584743496,0.894769749489536,0.904634301287047,0.930213346021745,0.904649215094924,0.927773074207903,0.926585562255713,0.939989347084988,0.945460850349789,1.02562256768759,1.02633097356174,0.969267016173133,0.972725155374566,0.96298457460503,0.966554567365539,1.00079107757272,0.977283187906913,1.02800877694788,1.08628448122648,1.05191747520038,1.12296312747349,1.12064216612266,1.11946770375236,1.14589310708407,1.1251163084857,1.12574082419054,1.0850354498168,1.08578114021064,1.15142053712841,1.15071213125426,1.15033928605734,1.14010468540189,1.13042003141189,1.14727263431267,1.14495167296185,1.12247842871749,1.2167430156288,1.07936820282361,1.11055670354597,1.15652851632621,1.16827314002919,1.12804314328152,1.13071830756942,1.18907790201733,1.13252660677449,1.13198598123895,1.17125590160455,1.12393252498548,1.15256703610894,1.13688889557845,1.16521580941445,1.17758494882227,1.18775430156826,1.18204977005539,1.18279546044923,1.17859163085396,1.17798575740896,1.13727106190529,1.14140964359111,1.16578439833975,1.1670613931392,1.16638095065482,1.1666139789029,1.09568018018887,1.12034388996513,1.08359999580866,1.08359999580866,1.09115943217621,1.08379573953704,1.07759718813824,1.09231525228666,1.08333900417081,1.06857433437278,1.0045940985813,1.00562874400276,0.991805508326948,0.978895743383592,0.976695956721764,1.00164862152564,1.01658107166228,1.0174386156152,1.1027455966705,0.956981766934618,1.01504308522499,0.90584325183806,0.905544975680524,0.87641737678414,0.872919156724038,0.869871147239216,0.872283455663289,0.844340572380118,0.844808493102253,0.837217364892961,0.855837254027147,0.818600272097752,0.825393511585635,0.837211772215007,0.836537854521574,0.815938157391743,0.776064227807132,0.795433535787127,0.773905454116965,0.803337853961831,0.784429009800032,0.784741267652453,0.791541964044274,0.79363548982498,0.793546939090711,0.761691977578857
0.501662280342896,0.500939892773863,0.705022303985991,0.501647366535019,0.515294432855284,0.760611658620781,0.750405021355096,0.68296385002321,0.708666865785884,0.508599065231593,0.507998784464552,0.513823558553435,0.513179468475755,0.521073533407545,0.521424940005642,0.522513647980648,0.522868783030714,0.522934030940176,0.528289020080939,0.527800592872974,0.530649130177443,0.531880451440271,0.530427287285276,0.727109653451533,0.726714437542798,0.726301511487209,0.724714123061322,0.677088741832743,0.683301274926423,0.678647234755868,0.707627559799469,0.582114816934298,0.812849134935261,0.65864036148914,0.794548028444442,0.724149262587988,0.733943905911077,0.730572453217927,0.706999315642659,0.741590028786914,0.721182346933497,0.667389174034868,0.707458847347863,0.707705857290823,0.67181111807034,0.701732877236164,0.699692481896019,0.803363953125615,0.801192129853556,0.795952722723838,0.811066934893983,0.835378305959153,0.839317415464613,0.839189715984668,0.834811581259835,0.875391120379617,0.850493450242291,0.869626933635234,0.926957475339641,0.860339359779956,0.863289497400586,0.890968592706936,0.895474426911715,0.947129332606007,0.946020118145169,0.917132072287806,0.93629817963548,0.930636525320249,0.931092328573484,0.986399252971608,0.956674169647159,0.985196827211541,0.957009730324387,0.948191941417228,0.953048250107112,0.962630371667956,0.985373928680078,1.03970679500125,1.03919413285548,1.12029728431551,1.04542064764405,1.0717435185466,1.22625988928018,1.14052413624842,1.14016993331135,1.13977844585458,1.23463958508096,1.2289816592177,1.1136886032001,1.11401484274741,1.25059735950913,1.15523287926692,1.10667911349801,1.1492673561162,1.12432401244225,1.12700849786007,1.07868776033924,1.0786318335597,1.18611378270182,1.14195026912664,1.13714056608637,1.20352565339798,1.1882949271038,1.1325732124241,1.13243339547526,1.17213208781732,1.13916325127966,1.10700535304531,1.10698671078547,1.1271017091593,1.16113315450818,1.1490250067382,1.18429616236683,1.1435162189537,1.1717592426204,1.10766715326984,1.12962773536843,1.1025032472925,1.12251571323718,1.1509731228921,1.12663565266315,1.12648651458438,1.10184144706797,1.0751084464488,1.07621766090964,1.08376777614727,1.08423383264342,1.08440161298204,1.10062970017798,1.13987165715381,1.00450088728207,0.99538482221738,0.98249369953387,0.953486343213493,0.953299920615033,0.995086546059844,0.96963054024013,0.957419860040999,0.941042634766287,0.939709713187298,0.927284646999938,0.927381586751138,0.916141236176991,0.891620139688554,0.897868093075941,0.877961888012381,0.878084926927365,0.878210762181325,0.838295819625052,0.852323188046176,0.89923736706163,0.875432133351279,0.875202833555173,0.81397139897799,0.821159854374608,0.81423891540678,0.814683533304107,0.819981663552341,0.777005661929355,0.777762537679102,0.82096597487221,0.824374712085051,0.804015500107233,0.783039229328513,0.825376733551774,0.734092111876852,0.751052839884744,0.810574779234049
0.787971971283765,0.501937253675624,0.498799761343543,0.544089267413418,0.772830727836843,0.599381278003664,0.501639909631081,0.501544834105866,0.973647947236943,0.756316481952263,0.740782818935582,0.724454995649462,0.681114537846487,0.516025209441248,0.521621615847017,0.52332085783198,0.523178244544158,0.524781478890914,0.529911828800534,0.529500766970929,0.529321801276408,0.529225793638201,0.53349300691695,0.53377636926661,0.53438037848562,0.87149768441078,0.550539489320134,0.76739930543071,0.676563030105086,0.686691369879418,0.581345823715651,0.581907887850007,0.833149623794564,0.599879026341552,0.641259250521721,0.723730743854445,0.72029217902585,0.688667449423094,0.661264259562465,0.760861464902718,0.757112506447687,0.758944108477557,0.708184031255873,0.650764938817197,0.65597358621817,0.666890493583988,0.667403155729753,0.690149509080851,0.802519458754592,0.833856165442727,0.807740223624464,0.794613276353903,0.838482242223512,0.83652387282669,0.835779114545842,0.876518977100301,0.836639454837735,0.845762976806368,0.865331756966715,0.863293225852555,0.879936103330073,0.886802979744347,0.892386336568224,0.901976847145999,0.902847440680808,0.904397544587003,0.927764685190973,0.929046340555385,0.933734868906655,1.00876996478681,0.945740484247479,0.98230727693541,0.987396613873369,0.930943190494716,0.947231865035159,0.94720390164539,0.946299752042859,1.03958562031225,1.04040587974547,1.07565839311426,1.07533215356696,1.11833984703168,1.09362953160581,1.10211175983574,1.10934495665598,1.1339900241724,1.10784425473838,1.0760405594411,1.07508980418896,1.11346489608195,1.10733159259262,1.10876704660076,1.10456321700549,1.10589613858447,1.10257781633189,1.10299726717842,1.18278613931931,1.07236803425144,1.07272223718852,1.14580921691476,1.14621934663137,1.13784897196052,1.2085590635564,1.12926421130144,1.12691528656084,1.11813478217337,1.1294506338999,1.10639947960032,1.11455546828294,1.10425561971803,1.07980629593,1.11033299642782,1.09581999713771,1.09614623668502,1.107890860388,1.10762054762023,1.10481488751341,1.08687171241163,1.12654244136392,1.14211804946525,1.11488170783025,1.13676772088945,1.07349589097212,1.06992589821162,1.10641812186016,1.07206043696398,1.09162548867236,1.08012321434738,1.00893774512542,1.00912416772388,0.981887826088875,0.977982272651138,0.968903492106135,0.966526603975771,0.955881873603704,0.990435302228267,0.948313116106227,0.948061445598306,0.929672720486211,0.915885837217101,0.951976320165967,0.951351804461126,0.89228753259104,0.891151286853427,0.876010043406505,0.88189260850091,0.863636243433721,0.862565245605569,0.856585740759964,0.836066205347471,0.834923434818911,0.811564683231871,0.813061656697505,0.8146359955415,0.840067766423415,0.844074920177313,0.859044654833652,0.85991524836846,0.775449965345206,0.77067754682463,0.771468910755092,0.772029110663465,0.80921762271726,0.744386367763814,0.744970802609986,0.750454423343688,0.807580832302781,0.784956585753674
0.636126104273125,1.17434119560907,0.477008823809552,0.814184852853227,0.482647175299975,1.20948185541878,0.900092114675569,0.551232981386405,0.755266922722933,0.755230570316233,0.755435635174539,0.755340559649324,0.756361223375893,0.754004841731359,0.753365412218641,0.52396121945769,0.525378031205986,0.529783197207596,0.529907168235572,0.529004882859026,0.52865813682589,0.533165835256653,0.533479025222066,0.533981434124916,0.534042021469415,0.819057007463979,0.565992058506484,0.566374224833327,0.70210012975513,0.731873682955178,0.663892818200751,0.618250973419787,0.904452539253549,0.934238209922497,0.915775847884009,0.913873405266725,0.704957988189522,0.706058813633428,0.64640544635221,0.762774160762917,0.613611847057109,0.614162725835559,0.613060036165668,0.60943411662562,0.659651704085786,0.628469728154372,0.65710423927783,0.66775456232785,0.829648607395485,0.765359842203558,0.762490798413258,0.78821711700074,0.824506140016965,0.878171613435648,0.844733924062869,0.844493438910855,0.845541133914201,0.847873280620935,0.879416916393361,0.887063039269199,0.894908634325388,0.992989291827169,0.895026080562418,0.897375005303014,0.897546514093598,0.912133150310101,0.935170322914797,0.92177772344143,0.919776476846961,1.00760482354643,0.935058469355721,0.940352871151985,0.949226586838682,0.933511161788503,0.92705441509084,0.949338440397758,0.955285321288632,0.972156566449263,1.03400226348837,1.03535382732721,1.06536786567927,1.06515347969104,1.06471538658466,1.12333597267041,1.10675368253739,1.10703331643508,1.10793746603761,1.08305937027312,1.07252649346013,1.08504477094672,1.06238510410391,1.14520334346977,1.2070583616388,1.10192533723728,1.10419969293849,1.10383616887149,1.15350847023116,1.08811142269139,1.10419969293849,1.12371813899725,1.1363016643933,1.1300192228252,1.1286396955966,1.12424944340286,1.12182594962288,1.12086587324081,1.12366221221771,1.12340122057987,1.12581539322993,1.08336696756058,1.07618037638995,1.06039970343031,1.06827605821524,1.09961369701637,1.11027706964828,1.10477760299371,1.10271763328073,1.10232614582397,1.07806324463439,1.08305937027312,1.08375845501735,1.08487699060811,1.11075244727436,1.10098390311505,1.06678467742756,1.06923613459731,1.03432850303568,1.00379248140793,0.991311488441029,0.985234111731233,0.982503020663793,0.968577252558831,0.963870081947715,0.94272975928235,0.936913374210398,0.962732904097109,0.943363596117114,0.925126805422764,0.915242679252414,0.905807831544353,0.893661467141691,0.892252112297333,0.891806562287014,0.882955217312132,0.876179687971103,0.852192692227254,0.853964639025616,0.850830875145503,0.830900435144144,0.837085936961047,0.836797914046426,0.851711721923227,0.843880108561922,0.834468563678668,0.83269009208936,0.856501850590657,0.775259814294777,0.777184627623876,0.776322423105999,0.772260274685555,0.773066552423895,0.775061274227417,0.774900950792741,0.759237724070131,0.759915370215533,0.801306779751609,0.803881275836342,0.773058163406964
0.488341453569936,0.960122987718669,0.885247283160198,0.895654324719228,0.962099067262345,0.956226755410855,0.954343887166409,0.884139000812353,0.502917836543524,0.626885136067462,0.775363278836922,0.805715674205189,0.722365198320726,1.06608559268334,0.711102477034764,0.710171296155456,0.709041575208789,0.530491603081744,0.53363468809178,0.533384881809844,0.536463651023411,0.536635159813994,0.537323059202311,0.702152328082699,0.541236069543987,0.731317211498775,0.567299813034681,0.567344554458312,0.566256778596297,0.618444852922185,0.927648171066935,0.901316911147451,0.881181406287785,0.896921066275764,0.920928568505444,0.688285283096251,0.682630153571967,0.828061218969598,0.64362961386114,0.633167577635564,0.613919444344568,0.612455094833665,0.612103688235568,0.599570496941101,0.599563972150155,0.647111055887381,0.647422381626809,0.644878645270822,0.647044875864927,0.762280140876998,0.802205336676187,0.789080253631609,0.797569006652486,0.827045215807991,0.821479569130967,0.837388873683544,0.856844868171823,0.94956214751591,0.885839174910309,0.886293113937559,0.991982609795485,0.992942686177554,0.884337540879713,0.883785729988272,0.906294394526333,0.917845138726916,0.923100391777503,0.91735671151895,0.924516271412807,0.917028607745661,0.917141393417729,0.926491418843491,0.957718136198535,0.923211313223587,0.963748907258716,0.984059649360934,0.985047689132772,0.986306041672378,0.960644970994357,0.962667656187648,1.03393701557891,1.01813770035942,1.02977979163325,1.03173722891708,1.04573756606143,1.10721041790362,1.10825438445499,1.1065952233287,1.26566962659463,1.05581370750819,1.04785346255395,1.05013713938509,1.04021013601709,1.22227044567314,1.10398530695026,1.10072291147721,1.10134742718205,1.08814870721108,1.06492977257289,1.06563817844704,1.13138942892388,1.13012175525435,1.13655333490122,1.1443644417767,1.13021496655358,1.13030817785281,1.13665586733038,1.14340436539463,1.14266799613071,1.1098389765419,1.11386570466864,1.06292572963944,1.07187401436552,1.10130082153244,1.05648482886265,1.11244889292034,1.10679096705708,1.10510384254102,1.07388737842889,1.0745398575235,1.08301276462351,1.0843456862025,1.08430840168281,1.18913382879687,1.1258433566197,0.993641770921779,0.981179420214727,0.983835942242782,0.993884120299777,1.00161133700594,0.983826621112859,0.937798881553083,0.938292901439002,0.969807641708667,0.966498640586001,0.913971277130917,0.936316821895326,0.909574500146237,0.903610841221502,0.9047489511851,0.92401479462295,0.945936227975862,0.885071113804653,0.856270686568567,0.841445429426034,0.902303086693305,0.880411480956146,0.829362448706848,0.847212412509394,0.893796623525574,0.834990546954356,0.852866609920687,0.852890844858487,0.840764054828663,0.83323724241584,0.819237837384485,0.776730688596626,0.82003013342794,0.779022754444692,0.77255016182616,0.774819856962411,0.773250178683378,0.814969691992743,0.760428032361298,0.766085958224559,0.766499816393141,0.802503612833723,0.801522097852831
1.07813781367378,1.24687822866986,1.1247900689384,1.47229111359778,1.20737528005618,0.956813986596004,0.716789298400787,0.520133031398314,0.546783073961165,0.776536809094228,0.936922695340321,0.512091692613741,0.924590840452191,0.663100522157296,0.64172064645291,0.827908352438861,0.624092525542531,0.532751977088072,0.534928460925092,0.534251746892683,0.536192406142651,0.537410677823588,0.537498296444864,0.539613260824393,0.756401304234562,0.68939915812205,0.566096455161622,0.566052645850984,0.598679396920462,0.88926002959205,0.88900463063216,0.883453897763013,0.889391457523964,0.914110161966769,0.708370453854333,0.660833623360022,0.675978595258913,0.832878378913804,0.638612981736581,0.811164806758175,0.610301913821452,0.599627355833631,0.598460350367272,0.600629377300354,0.60074123085943,0.646386804092364,0.684816890651903,0.649938154593027,0.641148329075637,0.676803515257099,0.80565974742565,0.80546493581026,0.786750903263852,0.798664239418439,0.81911013790454,0.932970536252969,0.858116270293321,0.858495640281187,0.887902873075261,0.95068068310667,0.901138877565922,0.900781878289871,0.891928669089005,0.885625721035072,0.90451405871104,0.916760159203878,0.920140933026951,0.920747738584938,0.926108320403656,0.978066162820445,0.926732836108497,0.921919404616259,0.963907366467407,0.962005855963115,0.95860364354122,0.902153016501544,0.899151612666338,0.960244162407668,0.930331724371767,0.921115923216897,0.94850885983461,0.965790234711853,0.97904488146236,1.02963997468441,1.01645989697328,1.02658264406966,1.05400540830313,1.0472662313688,1.04635276063635,1.05709070230764,1.05700681213834,1.02475570260475,1.07797935446509,1.02468113356537,1.03087036383424,1.11253278308965,1.11095751213266,1.10213972322551,1.08893168212461,1.07657186384671,1.04436735996275,1.1329367364911,1.1473658456119,1.14308744697725,1.15046046074634,1.16068574027187,1.1345586130977,1.13643216021222,1.14696503702521,1.11980326442959,1.13903275546074,1.02992892971202,1.04159898437562,1.04266159318684,1.04583077736066,1.07952666203231,1.11185234060527,1.07286205413736,1.07284341187751,1.07265698927905,1.1423790411031,1.14349757669386,1.12237589628834,1.00975800455865,1.00922670015304,0.97932451536005,0.946392963342089,0.946327715432628,0.947241186165082,0.941350232053746,1.01441856952015,0.919243308215366,0.940828248778058,0.917302648965397,0.914794332903118,0.915338686890621,0.937547211045162,0.939448721549454,0.897049697868701,0.90748843126947,0.897333060218361,0.879170838563394,0.859893809769637,0.847937596417404,0.822672673761111,0.836461421256206,0.836967558611025,0.826229616939728,0.825831604692016,0.823186268019868,0.828586930697255,0.809759180365786,0.844232447273011,0.840262578038805,0.840087340796253,0.856526085528457,0.834585077802706,0.836242374703015,0.772295694979262,0.814445844491071,0.826910059424107,0.82896164012016,0.775943053118132,0.782063307025575,0.774509463335975,0.766919267239676,0.801385077242962,0.800782000136944
0.985588314668306,0.982670801002408,0.497286009844047,0.715690337182865,0.71263673502009,0.71143337714703,0.756277333206586,0.499841863668934,0.797409615330803,0.703159010114383,1.00127577632872,0.938274259179156,0.925755981692566,0.850364818649353,0.852214130826077,0.710905801193389,0.711781055293158,0.534269457039537,0.535425277149988,0.535573483115764,0.537036900513675,0.536005051431199,0.534780254959317,0.538070613822136,0.556445357239347,0.676372879054656,0.63514738563121,0.64526267582365,0.562592642423566,0.562516209158197,0.562899307598033,0.882147075347808,0.880186841725001,0.618003031363835,0.676180863778242,0.68395282190804,0.660117760581936,0.662750047672191,0.653516536370467,0.640849120805109,0.601834599399398,0.601833667286406,0.601140175220135,0.60264180925073,0.602366835918001,0.646626357131385,0.683787837908403,0.647663798891815,0.642208141547883,0.639917007812809,0.735406391195996,0.770657040338799,0.823901198684963,0.776534012755251,0.843236950597235,0.811882533762246,0.862870046554051,0.930757700009248,0.886648248987625,0.886627742501795,0.893588762328291,0.886552241349418,0.886180328265491,0.87899094075588,0.860721526106799,0.877881726295043,0.885033829284962,0.899614872823511,0.885549287769703,0.895080143115971,0.895405450550284,0.898340674363037,0.894946850958073,0.873988290326206,0.867074808262316,0.866874403968972,0.897477537732167,0.92040006043881,0.920162371625774,0.914806450372017,0.933073068682122,1.02298468791938,0.961847396754424,1.0145211019493,0.966377465897002,1.00033434220649,1.00059533384434,1.00546096366414,1.00816409134181,1.02658264406966,1.02766389514073,1.0275706838415,1.00398822513631,1.0036992701087,1.02374902057307,1.04286665804514,1.05280298254306,1.02800877694788,1.20250965023637,1.15200776831356,1.14738448787175,1.03422597060652,1.13620845309407,1.13649740812168,1.19610603397927,1.18299120417761,1.24480893782695,1.12708306689945,1.12321479798141,1.1206980929022,1.03103814417286,1.00954361857042,1.01485666262653,1.01435332161069,1.05100400446792,1.04610109012843,1.07566771424418,1.08845630449854,1.10811456750615,1.07714977390194,1.07777428960678,1.00211467802179,1.01769960725304,0.995366179957534,0.982335240325179,0.968539968039139,0.966955375952228,0.942534015553967,0.942832291711503,0.90808405147155,0.917687611631217,0.915848552697409,0.9047489511851,0.905583192313208,0.90600543949872,0.904756408089038,0.890848350130929,0.891761820863383,0.917800397303285,0.88816200048712,0.875571950300124,0.866943380330402,0.845011693734574,0.823585212380573,0.823263633398229,0.988636324153128,0.831278873019017,0.826423496442127,0.840235546762029,0.831137191844188,0.884475493602574,0.817656973749544,0.874713474234215,0.875498313373732,0.788458534265745,0.827006067062314,0.794627258048787,0.794690641732263,0.784990141821397,0.811587053943687,0.817038050722657,0.817073471016365,0.776608581794635,0.776568500935966,0.777069977725823,0.7817818089019,0.791119716858762,0.852976599253778
0.455056630727893,0.549010824012762,0.464927707316351,0.957541034729998,0.712563098093698,0.74101305084468,0.873685353603708,0.528375706589223,0.901363516797066,0.960262804667514,0.508975638880482,0.703979269547607,0.631555954271877,0.60549500712016,0.516304843338938,0.637000426259902,0.636690964746458,0.647558470123685,0.534489435705719,1.02657332293974,0.53554365550001,0.53515030381726,0.534493164157688,0.533523766645696,0.625749822442841,0.628319657962612,0.673585861207679,0.627142399253337,0.563217158128407,0.563705585336372,0.563004636366162,0.881984887687148,0.00413095700153522,0.665577146377837,0.685704262220572,0.684737661047557,0.656480655685981,0.650507675631322,0.617264797873933,0.59372614847938,0.593935873902647,0.596425547705081,0.60239479930777,0.602074152438419,0.601510224078078,0.596575617896841,0.687861171684755,0.687326138827174,0.609461147902397,0.654645325204142,0.731633197803165,0.752194678300312,0.750664148766955,0.789664688477782,0.786445170202377,0.812121154688274,0.812617038800178,0.797721873183223,0.89119323193808,0.837204315311069,0.906261770571603,0.885745963611079,0.870301783441659,0.863328646146262,0.871854683686831,0.856510239607588,0.878683343468421,0.936410033194556,0.936587134663093,0.898810459311156,0.885536238187811,0.873091597627613,0.872073730240021,0.862696673537483,0.879257525071678,0.866907027923702,0.89766116399165,0.875724816830861,0.893631639525937,0.900673753182764,0.90625244944168,0.917646598659556,0.912097730016393,0.956292003320316,0.959517114273674,1.02697413152643,0.999691184241806,1.07061566182592,1.00083768322234,1.0084810097592,1.0285027968338,1.00611344275875,1.1117404870462,1.06314943675759,1.04013556697771,1.04028470505647,0.983211426537942,1.0113612389054,1.00539571575468,1.06039970343031,1.00232906401002,1.00329846152201,0.994611168433771,0.994229002106928,1.14741245126152,1.12735337966722,1.36219924807722,1.24560123387041,1.00245023869901,1.02951879999541,1.032715947559,1.01389658624446,1.02268641176185,1.023515992325,1.0769726724334,1.06978608126277,1.05668989372095,1.06984200804231,1.09562425340933,1.16550476444206,1.01174340523225,1.02363716701399,0.995272968658304,0.99137673635049,0.998050665375358,0.962229563081267,0.914460636451874,0.92053801316167,0.920751467036907,0.892015355597289,0.886539191767526,0.887064903495183,0.901083882899376,0.902733722895747,0.885210930753498,0.883691586576049,0.876240275315603,0.885824261102432,0.8709141816776,0.872469878261749,0.863816141241235,0.843833502912307,0.831716034012406,0.829643014717531,0.891863421179544,0.892995006352196,0.894265476360701,0.814435591248156,0.808996711938085,0.81047411103088,0.802140088766725,0.799526443936316,0.80903958913573,0.810473178917888,0.845022879090482,0.781242115479358,0.782027886731867,0.78399837359759,0.784784144850099,0.797572735104455,0.818658995216267,0.818549005883176,0.798688474356238,0.779877502058631,0.780270853741382,0.803408694549246,0.79321417475246,0.793289675904837
0.454584049440797,0.470287357022076,0.466811507673789,0.756437656641262,0.943261063687961,0.882188088319469,0.872011278669537,0.822635389241419,0.904703277648477,0.764770746792424,0.631744241096322,0.634229254333794,0.630662057912262,0.628494895205164,0.500828039214787,0.501803029404733,0.73424124995562,0.692272862477311,0.892869171098236,1.02669449762874,0.519632486721449,0.519396662134397,0.533912457763486,0.533876105356786,0.530059102653317,0.646283339550218,0.605573304611513,0.614541163710432,0.562577728615689,0.56387895835294,0.563691603641488,0.638804997012995,0.637628670416712,0.734054827357161,0.656681059979325,0.789597576342336,0.616094996068597,0.822289575321276,0.597907607362838,0.594789689403594,0.595017124973715,0.594689953313418,0.604763298421205,0.604011083236419,0.592330775329907,0.687779145741432,0.687169543844468,0.598003615001045,0.646270289968326,0.644510460638864,0.687377405041751,0.734481735107634,0.733304476398359,0.732968915721131,0.775261678520761,0.77503424295064,0.778851245654109,0.79242374293499,0.804414444467938,0.804879568851095,0.80511259709917,0.80880842511364,0.889672023534647,0.830340235235771,0.830044755417212,0.863887913941642,0.853190053129015,0.872379463301496,0.84823587257494,0.918205866454936,0.873283612904027,0.904470249400402,0.871543357947403,0.860509936457547,0.858010941525191,0.865431493056891,0.864683006324074,0.886089913305237,0.875681007520223,0.872819420633862,0.907947030861681,0.906165762933396,0.927376926186176,0.928299718048553,0.944332993629106,0.950112094181367,1.00693370219198,1.00725994173928,1.00794038422366,1.01162223054325,1.01205100251971,0.998535364131354,0.993744303350932,0.981253989254111,0.972753118764335,0.975120685764777,0.971065994248272,0.983127536368634,1.01497783731553,0.999085310796811,1.00051144367503,1.00109867486018,0.992280885953021,0.99268169453971,0.983817299982936,1.02474638147483,1.01767164386327,0.996484715548294,1.00843440410958,1.01769028612312,0.991414020870182,1.02593016497505,1.04974565192832,1.06683128307718,1.1152265896374,1.11165659687689,1.07190197775529,1.07112832397168,1.08423383264342,1.08210861502098,1.00569399191222,0.963273529632643,0.976052798757077,0.953775298241106,0.953271957225264,0.935114396135259,0.91815087178839,0.905367874211987,0.891470069496793,0.896005731317326,0.887944818159915,0.872359888928658,0.872541650962156,0.875382731362687,0.872001025426622,0.881622295733143,0.872442846984972,0.890163247081589,0.888274786159189,0.856961382295861,0.850201698875701,0.908455964555477,0.843606067342186,0.830590041517708,0.824567659474457,0.81057943979901,0.818786694696212,0.817025001140765,0.808317201566698,0.791054468949301,0.79270337683268,0.813992837576813,0.779055378399422,0.778597710920203,0.864360495228739,0.780322119955958,0.782732564154046,0.784128869416512,0.779486014601865,0.779938089403131,0.797802967013553,0.798741604796799,0.78033516953785,0.782383953894926,0.808612681385257,0.796457927965665,0.79608321854276,0.795510901165488
0.457513680575596,0.526005343249804,0.518239909910952,0.798710845068054,0.903758115074285,0.902969547482799,0.504897644539169,0.819748635304266,0.485988800377371,0.726685542040036,0.490829263146385,0.748483004364973,0.72473369743416,0.504167800066199,0.501545766218859,0.501926068319717,0.501883191122071,0.509637439105015,0.737956652342929,0.520614933815333,0.520753818651186,0.520964476187445,0.52255093250034,0.521694320660416,0.618183861284341,0.564840898960994,0.715730418041534,0.753513618184416,0.75262345027677,0.740130339840972,0.637493514032829,0.630822381346937,0.825004820467846,0.633958009453035,0.631085237210766,0.625237160297075,0.798175812210473,0.598160209983751,0.598539579971617,0.597938367091584,0.594840023505179,0.60840879233409,0.59813131448099,0.595779593401417,0.59154593619039,0.600944431491751,0.601394642067032,0.595363871006851,0.656656825041526,0.64702157304012,0.699367174461706,0.69422191074421,0.70103006403997,0.784197845777942,0.783110069915928,0.764122928262776,0.779330351732151,0.785030222680066,0.80404253138401,0.804963459020402,0.804148792265132,0.788054929340079,0.892131869721327,0.88865229192107,0.83490292833308,0.83084637259059,0.840448068524273,0.843265846099996,0.824545288762642,0.856498122138688,0.843199666077543,0.848145457614687,0.849376778877515,0.858607493840263,0.858888991963937,0.88487537007627,0.871479974263927,0.870848001655147,0.941079919285979,0.882001665721009,0.874326647342411,0.898729365480826,0.904473045739379,0.912155521021916,0.914291924000268,0.938693710025691,0.937248934887626,1.00628122309737,0.985010404613081,1.08574385569095,1.11469528523179,0.984833303144543,0.966358823637156,0.964587808951786,0.966815559003384,0.953225351575649,0.958454505462452,0.954157464567949,0.963953972117022,1.06692449437641,1.16555137009168,1.00126645519879,0.994145111937621,1.02020699120233,0.975241860453776,1.02399136995107,0.995832236453684,0.971634583173575,1.06912428103824,1.06369006229313,0.991143708102415,0.992513914201096,1.01875289493434,1.00797766874335,1.0868996758014,1.13656265603115,1.13328161829825,1.03925005963502,1.00703623462113,1.01337460296877,0.989959924602194,1.01560235302037,0.972659907465105,0.981459054112417,0.930972085997477,0.926149333375317,0.908168873753849,0.896312396491792,0.895662713736159,0.882257996793892,0.877523794906,0.882541359143551,0.882876919820779,0.887736024849639,0.890786830673437,0.911062152481948,0.871845362556908,0.88590442281977,0.885216523431452,0.837694606745019,0.837077547944116,0.833523401104476,0.78596419989835,0.80800587582727,0.794014859812846,0.773509306095237,0.774501074319044,0.810585032476964,0.817706375738136,0.795510901165488,0.793815387632494,0.817228201773086,0.776683150834019,0.779173756749445,0.769335304115717,0.770076333944596,0.77359972105549,0.778553901609565,0.778791590422601,0.77481519639745,0.838236164393545,0.783106341463959,0.782147197194882,0.849699289972851,0.808141032211153,0.80753981933112,0.870317629362528,0.782926443656445
0.959610325572904,0.52706142727008,0.470360993948468,0.836616152012928,0.968241691881602,0.847517213457877,0.822708094054818,0.486390541077052,0.488661168326295,0.491669096952447,0.491295319642535,0.490589710107364,0.489962398063546,0.503795886982271,0.502627949402919,0.501554155235789,0.501433912659783,0.739857230734228,0.776944142471863,0.518505562113758,0.518604366090942,0.51911423189773,0.521985139914014,0.522247995777843,0.765836151942623,0.781441587659711,0.817361493930985,0.754668506181876,0.736455018312333,0.624406647620936,0.627413644134096,0.889636603240939,1.01054097947218,0.980974355356421,0.596387331072396,0.866856693822118,0.866736451246112,0.596884147297293,0.595433779481274,0.593987140117224,0.595080508657192,0.593204165203692,0.595759086915586,0.594721645155156,0.595477588791912,0.598968351948075,0.579297039358575,0.580201188961106,0.578651085054911,0.608474972356544,0.658015845784299,0.659439182323541,0.650309135563962,0.678665877015714,0.673297838293058,0.680057521713218,0.689627525805163,0.784920233346974,0.784598654364631,0.790973375118971,0.835250606479208,0.815202720240818,0.847501367537008,0.847249697029087,0.840344603982128,0.888943111174668,0.806841666699887,0.819224787802593,0.830130509812504,0.839444182831566,0.932439231847358,0.848007504891827,0.847623474338999,0.866264802072008,0.901254459576967,0.881522559642967,0.874950230934259,0.874893372041729,0.949431651696988,0.882261725245861,0.873559518349748,0.873847541264369,0.908002025528227,0.913670204634404,0.92571310449492,0.934760193198185,0.957047014844079,0.920546402178601,0.959507793143751,0.950512902768056,0.986231472632994,0.936661703702477,0.966023262959928,0.943577982105343,0.937649743474315,0.940697752959136,0.944640590916565,0.958184192694685,0.999681863111883,0.994844196681846,1.14181977330772,1.43287205515341,1.35482623430813,0.975064758985239,0.963944650987099,0.964876763979399,0.962527839238803,0.960700897773895,0.975260502713622,0.962182957431652,0.970534689842661,0.977134049828145,0.985467139979307,0.985504424499,0.978178016379521,0.981207383604496,0.981477696372263,1.00406279417569,0.998619254300661,0.98379865772309,0.982325919195256,0.960104345458823,0.99724904820198,0.98184122043926,0.934266173312266,0.924733453740013,0.899503019264435,0.900441657047681,0.898142134295677,0.905736990956938,0.879402002585485,0.888722200395493,0.898550399786304,0.908010414545158,0.917947671156069,0.874888711476768,0.918680311968017,0.829444474650171,0.830060601338081,0.836667418227504,0.836352364036107,0.824506140016965,0.785851414226282,0.78225998286695,0.793298064921767,0.77508271282624,0.77502212548174,0.775653165977527,0.795782146046247,0.758725061924366,0.758261801767193,0.757659656774167,0.810808739595116,0.943354274987191,0.770008289696158,0.77095345227035,0.914868901942502,0.920393535647864,0.920179149659635,0.872109150533729,0.775454625910167,0.803942795293834,0.791591366032866,0.833858029668712,0.800382123663248,0.806309430181284,0.786124523333026,0.784236062410626
0.547342341756545,0.909944549004181,0.959517114273674,0.86504186982611,0.843244407501173,0.959638288962673,0.866610615992151,0.487427982837482,0.486933030838571,0.491643929901655,0.491884415053668,0.491533940568564,0.502390260589882,0.502363229313106,0.501827264342533,0.592320522086991,0.550012845479484,0.51438096212283,0.69765861134682,0.520112524912483,0.519848736935662,0.519403186925343,0.519551392891119,0.763765928986725,0.754461577097586,0.558340342952693,0.71483745379491,0.920449462427402,0.621202043153408,1.02661060745943,0.567125507905121,0.680153529351425,0.77264337312539,0.773705981936612,0.865053055182017,0.864894595973327,0.86239560104097,0.592346621250776,0.592572192594912,0.594562253833473,0.594645211889788,0.592766072097311,0.594599538353165,0.59471512036421,0.763970061732038,0.578437631179674,0.579168407765638,0.579344577121182,0.579129259019961,0.621887146202749,0.589320050364778,0.662799449660783,0.6625552360568,0.664063394878342,0.692809759560876,0.678610882349169,0.66241728333394,0.784781348511122,0.784549252376039,0.754081274996727,0.790448595504306,0.791283768745407,0.79269125936378,0.89390847708465,0.811663487209055,0.856905455516323,0.802454210845131,0.808729195509295,0.801914517422589,0.802888575499543,0.90430712962675,0.839143110335053,0.831322682329656,0.841198419483075,0.880706028661712,0.881820835800503,0.873095326079582,0.870365167125136,0.945721841987633,0.947632673621849,0.947753848310848,0.878009425774988,0.889902255443745,0.918626249414463,0.924039961673742,0.947632673621849,0.918094945008852,0.902749568816616,0.903124278239521,0.907908814228997,0.934508522690264,0.947064084696545,0.917236468942944,0.917594400331987,0.931455852640481,0.964261569404481,0.964093789065868,0.928507579245836,0.946169256223937,0.960085703198977,1.16334226229993,1.20042171713362,1.12849055751783,0.948956274070915,0.936149041556712,0.947837738480154,0.936354106415018,0.946020118145169,0.934955936926568,0.924649563570706,0.942282345046046,0.942897539620964,0.97401147130394,0.981449732982494,0.98100231874619,0.980424408690964,0.99454592052431,0.994489993744772,0.995412785607149,0.972184529839032,0.981766651399876,0.940250338722832,0.946467532381474,0.965930051660699,0.914731881332634,0.923793883843775,0.920451326653386,0.870672764412595,0.872158552522321,0.870224418063298,0.863732251071928,0.859988885294851,0.900560035397703,0.968269655271372,0.968353545440679,0.984469779077547,0.872254560160528,0.864303636336208,0.874992176018913,0.852669934079311,0.809111361836138,0.808169927713914,0.819863285202319,0.775600035536966,0.765627358632348,0.766583706562448,0.802645294008552,0.753173396942227,0.754863317797267,0.757887092344288,0.748904319437493,0.749602472068725,0.755610872417091,0.975950266327924,0.760977979026755,0.776139728959508,0.94965535881514,0.769984986871351,0.770648651321868,0.767671482424462,0.767334989634242,0.837120425141762,0.83046513837674,0.839354699984305,0.813325444674326,0.792872089284286,0.793147994730007,0.787967310718803
0.464937960559266,0.4739645427767,0.472977435117854,0.473939375725908,0.962304132120651,0.478707133681523,0.479229116957211,0.479327920934394,0.487568731899319,0.491761376138685,0.491999064951721,0.495165452786565,0.747275918039944,1.06875143584132,0.548597897957173,0.567546822977641,0.515410014866329,0.515963689983756,0.517696488036442,0.519741543941548,0.518003153210908,0.519133806270568,0.762458174458528,0.763328767993336,0.534841774416809,0.559835452192342,0.576810161895119,0.604952517358642,0.595947373740031,0.665915503394042,0.566585814482579,0.562507820141267,0.562323261768791,0.561342678900892,0.765975036778476,0.763495616218958,0.834103175385687,0.63881897870788,0.6400391146148,0.594872647459909,0.590692120689443,0.591898274901479,0.593721487914418,0.767572678447278,0.766602348822294,0.578683709009642,0.580326092102074,0.580210510091029,0.577056239725086,0.576363679771807,0.594971451437093,0.595057205832384,0.612235116167482,0.636252871640077,0.652006513322941,0.650957886206603,0.680589758231822,0.678833657354329,0.726377944752577,0.741232097397871,0.791654749716342,0.795928487786038,0.789767220906935,0.789637657201005,0.783330048582111,0.857315585232935,0.795936876802969,0.794292629484551,0.79549971580958,0.811170399436128,0.821365851345906,0.829929173406167,0.845809582455983,0.84622157639858,0.904006989243229,0.86847857042872,0.918645823787301,0.944230461199953,0.862787088497736,0.948014839948692,0.878297448689609,0.885306006278713,0.965892767141006,0.966293575727695,0.91141542330603,0.92688010996128,0.901109982063161,0.91472256020271,0.907477245913562,0.907741033890383,0.941312947534054,0.972622622945413,0.918745559877477,0.917165628355529,0.912016636186063,0.911573882514721,0.914987280292524,0.903808449175869,0.904597016767355,0.958445184332529,0.948154656897536,1.18076345412601,0.911777083147042,0.916055481781699,0.905809695770337,0.911132060956371,0.911350175396569,0.910989447668549,0.920527759918755,0.937342146186856,0.928841275697079,0.942869576231195,0.963963293246945,0.94729711294462,1.04413433171467,1.03998642889894,0.980321876261811,0.988421938164899,0.920487679060086,0.987303402574139,0.948471575314918,0.924783787841597,0.950950995874437,0.914982619727562,0.930579666427719,0.93144746362355,0.901732633542017,0.871540561608426,0.871942302308107,0.860735507801684,0.861204360636811,0.879535294743384,0.870483545475158,0.965622454373239,1.04651121984504,0.96074750342351,0.899228978044699,0.82820383225742,0.817508767783769,0.804880500964088,0.80394932008478,0.801251785085064,0.79189709909434,0.793034276944946,0.760386087276645,0.746498535804366,0.746693347419757,0.756323938856201,0.791213860270984,0.746241272618491,0.747344894401375,0.752972992648882,0.754656388712976,0.862721840588275,0.760642418349527,0.762115156877361,0.910174780913279,0.770132260724134,0.771048527795565,0.769885250781175,0.835843430342311,0.835280434094962,0.872293708906204,0.791328510169037,0.789586390986428,0.791166322508377,0.787684880482136,0.788187289384986
0.474905976898923,0.475599468965194,0.475482954841157,0.475482022728164,0.476456080805118,0.478805937658706,0.477044244103259,0.472976503004862,0.488296712146305,0.49193381704226,0.492515455549456,0.492486560046694,0.498703753705336,0.49845021897143,0.505016022889192,0.567132032696067,0.714559684123205,0.51566541382622,0.514531964427583,0.575912537083534,0.528163184826979,0.527704585234767,0.528301137549839,0.582685270085586,0.599401784489495,0.599687943178131,0.56975127020443,0.947157295995775,0.669242214663561,0.669533966030151,0.666655601109928,0.560788071670473,0.561748148052542,0.560596988507051,0.55992773137858,0.766020710315098,0.767361088798026,0.573737917472497,0.576016933738671,0.633134021567841,0.827578384439586,0.782376496990988,0.619163512039248,0.615999920543382,0.769353946375563,0.572526170582508,0.570170721050965,0.570180042180888,0.575772720134689,0.575640360089782,0.581748496528324,0.633672782877391,0.592951562582778,0.598174191678636,0.594762658126818,0.594337614602329,0.637442247818252,0.681928272488765,0.680298938978224,0.730968601239655,0.731169005533,0.736827863509253,0.789381326128122,0.79092024467841,0.858957968325368,0.798142256142751,0.799095807733874,0.79999809311042,0.811748309491354,0.811049224747129,0.834234603317601,0.882555340838436,0.888716607717539,0.826057176036153,0.844359214639964,0.851971781448079,0.866343099563361,0.850260421994216,0.908071001889657,0.971625262043652,0.87420081208845,0.874011593151013,0.87887722297082,0.876587021348738,0.876676504195999,0.893127366397103,0.900378273364205,0.908668486317722,0.908306826476709,0.903724559006562,0.907947030861681,0.966703705444308,0.908134385573134,0.910965212730749,0.916624070707003,0.911705310446635,0.917428484219357,0.904325771886596,0.904622183818147,0.974505491189859,0.948676640173225,0.933436592749119,0.933436592749119,0.892186864387872,0.88603025807373,0.882734306532957,0.907359799676532,0.872401834013311,0.873289205581981,0.926761731611258,1.06948780510523,1.11042620772705,0.931808191351571,0.949142696669374,1.03250156157077,1.03267866303931,0.968931455495905,0.917018354502745,0.923929040227658,0.918314923675035,0.965212324656627,0.933156958851429,0.933809437946039,0.933445913879042,0.910778790132289,0.898185011493323,0.897853179268064,0.870772500502771,0.872618084227525,0.892605383121415,0.856337798704012,0.858412682224872,0.843988233669029,0.849703950537812,0.869596173906488,0.863591502010091,0.890379497295802,0.79199031039357,0.792159022845177,0.804872111947157,0.814630402863546,0.781524545716025,0.77565409809052,0.760933237603125,0.755781449094682,0.747033568661946,0.746328891239768,0.746198395420846,0.74127217825654,0.746968320752485,0.741991769486595,0.746379225341352,0.853058625197101,0.80201611773875,0.746862991984356,0.752861139089806,0.868925984665024,0.87841116647467,0.814259421892611,0.826740414859509,0.83081002018389,0.781981281082252,0.780856220700546,0.786995116867834,0.787767838538451,0.789426999664745,0.788480904977561,0.787908587600288
0.47412673043736,0.475124091339121,0.473832182731793,0.476896038137484,0.477090849752874,0.476939847448122,0.47577190986877,0.472934557920208,0.472177682170461,0.60848988616442,0.492234889538773,0.903944537672745,0.903041320183206,0.504455822980819,0.504481922144604,0.503685897649179,0.713906272915603,0.512225916884632,0.579547777753504,0.578290357326891,0.663230085863226,0.529809296371381,0.528371978137254,0.686526385879781,0.596289459208205,0.699244135546723,0.550233756258659,0.683915537388348,0.555099386078466,0.557145374096564,0.558190272760933,0.558769114929151,0.560466492688129,0.560034924372694,0.55991561390968,0.559749697797051,0.655056387033746,0.580374561977674,0.57894656487347,0.637278195931608,0.780648359503263,0.773321951383785,0.567247614707112,0.567476914503218,0.568053892445452,0.567964409598191,0.570903361862913,0.56982024656586,0.569750338091438,0.579383725866859,0.582397247170965,0.582215485137467,0.63371286373606,0.598178852243597,0.594250928094045,0.622291683241407,0.628122982121236,0.629472681734087,0.65590460985674,0.699585288901905,0.73192308494377,0.690178404583612,0.794481848421988,0.790078546646363,0.815536416692062,0.798540268390463,0.792989535521316,0.800915292294843,0.847286049435786,0.832650943343683,0.828379069499972,0.806263756644661,0.86978352861794,0.868139281299523,0.844996779926697,0.816901962225781,0.842178070237982,0.844154149781658,0.844766548017599,0.872298369471166,0.872347771459758,1.02247202577362,0.901561124751434,0.876292473643172,0.871743762240747,0.867190390273362,0.882600082262066,0.885330241216513,0.893427506780624,0.897917495064533,0.888708218700608,0.889149108145966,0.89340979663377,0.886395646366712,0.936708309352092,0.937370109576625,0.914624688338519,0.943783046963649,0.94366187227465,0.898002317346832,0.908394445097986,0.907813738703783,0.923655931120914,0.883640320361473,0.885335833894467,0.88545887280945,0.919936800281637,0.874207336879396,0.873566975253686,0.887956935628815,1.06854637098301,1.09633265928348,0.946952231137469,0.95030783790975,0.950205305480596,0.909742280484851,0.908458760894454,0.895406382663277,0.963376062061796,0.895897606210219,0.869760225793133,0.886493518230903,0.955210752249248,0.862808527096559,0.911034189092179,0.902269530625582,0.885712407543356,0.872392512883388,0.895954465102749,0.917110633688983,0.849428045092092,0.859134137680912,0.833179451410317,0.802730116290851,0.793729633237202,0.828452706426364,0.81200184422526,0.792521614799181,0.792868360832317,0.807537022992143,0.781379136089226,0.802509205511676,0.781669955342824,0.817145243716772,0.774379899630045,0.754236005753449,0.746558191035873,0.745925286314102,0.743341469099446,0.738210187076834,0.740792140065505,0.740701725105252,0.912782833065734,0.741408266753416,0.736011332527998,0.736903364661629,0.828757507374846,0.828352038223195,0.818068967692141,0.817958046246057,0.872961101808691,0.872572410690902,0.868676178383088,0.788973992750487,0.78913711252414,0.790155912024724,0.787320424302147,0.78786477828965
0.474961903678461,0.475598536852202,0.475250858706074,0.475838089891223,0.475913591043599,0.473328841715951,0.472013630283816,0.476601490431917,0.477361162520641,0.479123788189081,0.761486912720551,0.759980618124994,0.823685880583741,0.504607757398564,0.504587250912733,0.504620806980456,0.504082977783899,0.714489775648782,0.511605129631761,0.579715558092118,0.526073387498242,0.525774179227714,0.532407095280921,0.550409925614204,0.7048032574328,0.69934014318493,0.692972879334528,0.690752586186869,0.682811915605465,0.682235869776224,0.644700611689293,0.557270277237533,0.551620740391202,0.558943420058711,0.55327337672655,0.592464067487806,0.55349615173171,0.552867907574899,0.553936109064075,0.556263595205848,0.558796146205928,0.560782478992519,0.567604613983163,0.567777054886739,0.569018629392482,0.569120229708643,0.578790902003756,0.578630578569081,0.57916933987863,0.579116209438069,0.580420235514297,0.634764287191374,0.604637463167244,0.604593653856606,0.654326542560775,0.588465302750838,0.585476016384532,0.629115682458036,0.642756223987355,0.6428596885295,0.654030130629224,0.670964759473331,0.704927228460776,0.705121107963175,0.768541143846278,0.737388995530618,0.740495728133954,0.740045517558673,0.738933506758859,0.730795228223087,0.808445833159635,0.849360000843654,0.810608335301771,0.868189615401107,0.875616691723754,0.817523681591646,0.848138932823741,0.849040286087295,0.847532127265754,0.84770083971736,0.845713574817776,0.851984831029971,0.854224698550468,0.888894641299068,0.872092372499867,0.874785246934622,0.872220071979813,0.872236850013674,0.873882961558076,0.879940763895034,0.888414603108034,0.879087880507079,0.869474999217489,0.881148782333055,0.902115731981852,0.895928365938964,0.90170560226524,0.915128029354361,0.896504411768206,0.896830651315511,0.927816883518542,0.930799645093902,0.920119494428128,0.884107308970615,0.904089947299544,0.877781058091875,0.870029606447908,0.873678828812762,0.920942550200329,0.921482243622871,1.08435500733242,1.07874368711877,0.942422161994891,0.905740719408907,0.915027361151193,0.893867464112989,0.89177673467126,0.884037400496193,0.86519194001787,0.862802934418605,0.897340517122299,0.844218465578127,0.894595444359976,0.863134766643864,0.85282746117501,0.855178250141591,0.865295404560016,0.918449147945926,0.878640466270775,0.878760708846782,0.850002226695349,0.823383875974236,0.806603045773858,0.870175948187699,0.792639993149203,0.789187446625724,0.789319806670631,0.777374778674305,0.802586570890037,0.779083341789191,0.772502624063553,0.784277075382287,0.760544546485336,0.760644282575512,0.814607100038739,0.756684666584221,0.833365874008777,0.834122749758525,0.740837813602128,0.739672672361753,0.738775047550168,0.738664126104084,0.737306037474303,0.745086384621031,0.743869045053088,0.849978923870541,0.850292113835954,0.811107947865644,0.765712180914647,0.765582617208717,0.906305579882241,0.868103861005816,0.854344941126475,0.829843419010875,0.789576137743513,0.790635018102766,0.786762088619759,0.787411771375392
0.473728718189648,0.47313775855253,0.475602265304171,0.475787755789639,0.475590147835271,0.472959724971001,0.472637213875665,0.478780770607914,0.478379962021225,0.479327920934394,0.542455273337915,0.547311582027799,0.676388724975525,0.500952010242763,0.504245165444559,0.503616921287749,0.67303498242923,0.573507685563399,0.601669615399761,0.52730470876107,0.527201244218925,0.527230139721687,0.526256081644733,0.538873163108506,0.584869210826545,0.540495971828101,0.697483374104268,0.680246740650655,0.547495208287282,0.608809600920779,0.55849320948343,0.557106225350888,0.552923834354437,0.553042212704459,0.552660978490609,0.553127967099751,0.553574449223063,0.554277262419257,0.553570720771094,0.557586263541922,0.560583006812167,0.561095668957932,0.566149585602183,0.567909414931645,0.569440876577994,0.571973427578074,0.577029208448309,0.580164836554406,0.579297039358575,0.673590521772641,0.656764950148632,0.651916098362688,0.605107248115364,0.604824817878697,0.583612722512924,0.58081451931004,0.585879621310198,0.61116038988736,0.61374979977997,0.696380684434377,0.656045358918577,0.69929167330933,0.701980819292116,0.769755687075245,0.76854207595927,0.775314808961322,0.740644866212722,0.743983694951141,0.741865934232635,0.763989636104877,0.736317065589473,0.735959134200429,0.799194611711057,0.816871202497035,0.805261735177938,0.804313776264769,0.811601035638571,0.812429684088726,0.858509621976071,0.873675100360793,0.876645744467253,0.858450898857556,0.887772377256339,0.887726703719716,0.946821735318547,0.856489733121757,0.956804665466081,0.878552847649499,0.873721706010408,0.882603810714035,0.866907027923702,0.869488048799381,0.869555160934827,0.919883669841076,0.911951388276602,0.912333554603445,0.909438411649362,0.909092597729218,0.903931488090853,0.893218713470348,0.894322335253231,0.913881794283656,0.916712621441271,0.884651662958118,0.905681996290392,0.875928949576175,0.871827652410054,0.93993342030545,0.939159766521841,0.940902817817442,0.940790964258366,0.936344785285095,0.935804159749561,0.883135115119646,0.884863252607371,0.884976038279439,0.890695483600192,0.864607505171698,0.856674291494232,0.843063577580667,0.85332987007786,0.833085307998095,0.835893764443895,0.851282949946769,0.847784729886667,0.851547670036582,0.879709599872944,0.847253425481056,0.878515563129807,0.820829886375334,0.798295122673488,0.799364256275656,0.785938100734566,0.788477176525591,0.77657409361392,0.782566648041417,0.745785469365257,0.746420238313013,0.770621620045092,0.761050683840155,0.766178237410797,0.770471549853331,0.752602011677947,0.77246906799583,0.756149633726641,0.754845607650413,0.791274447615484,0.78947360531436,0.734378270565489,0.737010557655744,0.736865148028945,0.737132664457735,0.737741334241707,0.737596856727901,0.738648280183215,0.739692246734591,0.833389176833585,0.820111227258271,0.8212092563632,0.900393187172082,0.894396904292616,0.865561988875813,0.843373971207103,0.81861984647059,0.788889170468188,0.794514472376719,0.789723411596296,1.00208671463202
0.474508896764203,0.473910480223147,0.476197885506251,0.474731671769363,0.474168675522014,0.474327134730705,0.474078260561761,0.477564363152963,0.477249308961565,0.566393799206165,0.495959613056004,0.496298902185201,0.496554301145092,0.497360578883431,0.671482082184058,0.671865180623893,0.57390103724615,0.604053028321072,0.601066538293743,0.526007207475789,0.527053970366142,0.526752897869629,0.547754335699141,0.534237765197798,0.621786477999581,0.621323217842408,0.560291255445577,0.60479778660192,0.693831355400436,0.641324498431182,0.545131369738809,0.675234769091058,0.55173352606327,0.552161365926736,0.551495837250234,0.551152819669067,0.552708516253216,0.553067379755252,0.55194418359953,0.553170844297397,0.554360220475572,0.559314401029646,0.559612677187182,0.559739444554135,0.720572745036532,0.573565476568922,0.578458137665505,0.578928854726616,0.577863449576418,0.575512660609837,0.6579431409709,0.645791183890284,0.624439271575667,0.589420718567946,0.581909752075992,0.580804266067124,0.581958221951592,0.580959928936838,0.608896287429063,0.711630052988406,0.633070637884365,0.640860306161017,0.70130596948569,0.772552958165137,0.771934967251242,0.707968713154651,0.717891988070678,0.751364165624173,0.749979977830607,0.764711091560917,0.788882645677242,0.789855771641203,0.760963065218878,0.749415117357273,0.748510967754742,0.811412748814126,0.78886586764338,0.792883274640194,0.789835265155373,0.875824552921037,0.868616523151581,0.832370377333001,0.830009335123505,0.827249348553304,0.835627180128097,0.818387750335508,0.949030843110299,0.885660209215787,0.912958070308286,0.853198442145946,0.859423092708525,0.869490845138358,0.889850989229168,0.921177442674388,0.940436761321292,0.94161122369159,0.887086342094006,0.885678851475633,0.892171950579995,0.905070530167443,0.896529578818998,0.921812211622145,0.883475336361836,0.884800801036886,0.910484242426722,0.868281894587345,0.871757743935632,0.935356745513257,0.877903164893866,0.873713316993477,0.944081323121185,0.937929377372005,0.936344785285095,0.880593242989644,0.884670305217964,0.911176802380001,0.843287284698819,0.850564290829705,0.829545142853339,0.839452571848497,0.827202742903689,0.900645789792995,0.817519021026684,0.814192309757165,0.848359843602916,0.85365424539918,0.853318684721952,0.9319256375886,0.861129791597427,0.798584077701101,0.808174588278876,0.773919435811849,0.775282185006592,0.82407457170153,0.776390467354437,0.772970544785688,0.744539234294551,0.747524792208889,0.746437948459867,0.765177148057067,0.771728970279944,0.753079253530004,0.745626078043573,0.746616914154388,0.764213343223029,0.726807648842028,0.727363188185438,0.728214207347408,0.731002157307378,0.901082950786384,0.734874154677392,0.73636460335208,0.945843016676632,0.824903220151685,0.743581954251459,0.744397553119722,0.745866563195587,0.818112777002779,0.760521243660528,0.869549568256873,0.770014814487104,0.865095000266671,0.814718953597815,0.818170568008302,0.789973217878233,0.781509631908148,0.778026325655923,0.766847494539269
0.474137915793268,0.474090378030661,0.476155940421597,0.509160197252958,0.479766014040776,0.492731705763669,0.494688210934507,0.497346597188547,0.498325315830462,0.4983206552655,0.497999076283157,0.497642077007106,0.497358714657447,0.496927146342012,0.672345218814928,0.671794340036479,0.569197595087004,0.513388261786031,0.556655082662614,0.641930371876177,0.640013947564008,0.579558963109411,0.630157784783427,0.63606738115461,0.628175180448805,0.637590453784028,0.626020135210608,0.54734047753056,0.544765981445827,0.824315056853544,0.540822211375406,0.874911082188583,0.543930808204727,0.861228595574611,0.54801719156297,0.549953190247977,0.549965307716877,0.551053083578891,0.550711930223709,0.552239663418089,0.553677913765208,0.560530808484598,0.56156079334109,0.559794439220681,0.733905689278393,0.571175538856665,0.571480339805147,0.571175538856665,0.575815597332334,0.662601841706415,0.58272348671827,0.582667559938732,0.646870570735367,0.591819045297134,0.582383265476081,0.582357166312296,0.582442920707588,0.58082290832697,0.580154583311491,0.633703542606137,0.634300094921209,0.642750631309401,0.64181385775214,0.711232972853686,0.667223257922239,0.708694829175653,0.715872099216363,0.741288024177409,0.71502387639337,0.714221327107,0.708935314327666,0.788147208526317,0.760913663230287,0.743427223494737,0.742293774096101,0.760052390825401,0.76166867475405,0.768666979100238,0.795869764667523,0.796193207875851,0.830383112433417,0.834079872560879,0.835222643089439,0.83704678821537,0.924159272136756,0.821958675209009,0.821377036701814,0.821665991729427,0.811269203413312,0.858804169681638,0.851405988861753,0.825257423088759,0.920694608144377,0.913796972001357,0.895763381939327,0.909372231626908,0.886092709644214,0.886363954524974,0.885190424267668,0.883791322666225,0.920660119963662,0.912895618737802,0.897159687201793,0.89586964282045,0.862374162442147,0.861443913675832,0.862432885560662,0.862303321854732,0.862304253967725,0.869364077771405,0.885840107023301,0.86892039198707,0.876381956490432,0.879226765342932,0.902735587121732,0.876298066321125,0.833120728291802,0.813238758166042,0.805615938115012,0.834715573621628,0.79918342635515,0.798110564301012,0.798629751237724,0.797648236256832,0.881925232455641,0.807713192347688,0.883529398915389,0.850893326715987,0.769564603911823,0.811670012000001,0.8155923434716,0.771809131997282,0.752067910933359,0.749787962554193,0.750515010688187,0.743100983947433,0.743891415764903,0.741238622188817,0.740570297173338,0.765714045140632,0.776786615376164,0.738865462510421,0.74814557946176,0.74728617128286,0.755023641231942,0.727086350626725,0.728205818330478,0.722349352399856,0.722291561394334,0.726524286492368,0.725395497658693,0.73542037289088,0.949133375539451,0.943363596117114,0.743572633121536,0.74495588880211,0.746135943850362,0.804997015088125,0.892189660726849,0.852554352068266,0.77377402618505,0.839768558152886,0.805386638318907,0.784806515561914,0.784920233346974,0.772923939136073,0.772143760561517,0.761485048494566
0.472529088768558,0.471251161856115,0.470443952004783,0.557527540423407,0.00404152075992403,0.497828499605566,0.498397088530869,0.499227601207008,0.499895926222487,0.499579007805105,0.498446490519461,0.498207869593432,0.497189070092848,0.625402144296712,0.587031712968681,0.578770395517926,0.972771761024181,0.538350247719826,0.51941810073322,0.64106443890633,0.640528473935758,0.660004042796875,0.637898983184479,0.657936616179954,0.657329810621966,0.589249209777363,0.644055589498621,0.521622547960009,0.825359955517912,0.531147810628324,0.532572079280558,0.811090237718791,0.540025254766989,0.539950685727605,0.54252611392533,0.626819888158001,0.543100295528587,0.544073421492548,0.544350259051261,0.709171138914718,0.552963915213106,0.561318443963092,0.560882215082695,0.73407906229496,0.617379447771986,0.572342544323024,0.571963174335158,0.569808129096961,0.569004647697598,0.570088695107643,0.58231428911465,0.583149462355751,0.58802814175745,0.588269559022455,0.577959457214624,0.606726328382989,0.584873871391506,0.581591901545618,0.622808073839141,0.644216845046289,0.637251164654831,0.636985512452025,0.701025403475008,0.632150642360965,0.634737255914598,0.757707194536774,0.702313583630367,0.701319951180575,0.678081442169542,0.708268853538172,0.757552463780052,0.716281296819983,0.716079028300654,0.712370150704292,0.73123798189443,0.740699860879268,0.737376878061718,0.72742470764293,0.763803213506417,0.769351150036587,0.784702118906776,0.792182325669984,0.823148051387184,0.823574027024665,0.820825225810372,0.82567128125734,0.865515383226198,0.814486857462732,0.808478457114366,0.804956002116464,0.799791164026129,0.795867900441539,0.818993623780503,0.872777475549208,0.872403698239296,0.911503041927306,0.880342504594715,0.917997073144661,0.921516731803585,0.914717899637749,0.912574039755459,0.892280075687102,0.873003979006337,0.861041240863158,0.849317123646008,0.850092641655602,0.847063274430627,0.840907600229477,0.840914125020423,0.850880277134095,0.846869394928228,0.88489960501407,0.854721514775364,0.853926422392932,0.844431919453363,0.818817454424958,0.791364862575737,0.790736618418927,0.800767086329068,0.795659107131263,0.781955181918468,0.798276480413642,0.798630683350716,0.799950555347813,0.788981449654426,0.780129172566552,0.775198294837285,0.75837831589123,0.771542547681484,0.771104454575103,0.762117021103346,0.758759550105081,0.720805773284607,0.739073323707704,0.722262665891573,0.759801652430472,0.733628851719679,0.757224360006763,0.802894168177496,0.750040565175106,0.815251190116418,0.740726892156044,0.7414343659172,0.760145602124631,0.713052457414656,0.701374013734128,0.708500017560262,0.764557292917187,0.727204728976747,0.727109653451533,0.72762324771029,0.846312923471825,0.762940076875547,0.926857739249465,0.81249213565921,0.802305072766363,0.780256872046497,0.772382381487546,0.834255109803432,0.814389917711533,0.813798025961422,0.775534787627505,0.792410693353097,0.785677109096722,0.779325691167189,0.762827291203478,1.16292281145339,0.927855100151226
0.472792876745379,0.471490714895136,0.470704943642627,0.591561782111259,0.575819325784304,0.498552751400583,0.498831453185281,0.49943080183933,0.500159714199308,0.499308695037338,0.498180838316655,0.497167631494025,0.48748390961702,0.487254609820914,0.492961005559775,0.535518488449218,0.669539558708105,0.54501019504981,0.555718309105353,0.883138843571616,0.882430437697467,0.68211283086124,0.680665259384198,0.656995182057731,0.637725610167912,0.655232556389291,0.657176011978237,0.659465281487326,0.528797021661743,0.573009937225511,0.565996719071446,0.531845963259556,0.537325855541288,0.538097645098913,0.53823839416075,0.544145194192955,0.544735221717081,0.544803265965519,0.545107134801009,0.544298992836685,0.72529296522954,0.56322647925833,0.559897903762826,0.562522733949143,0.562929135213786,0.572519645791561,0.56896922740389,0.568729674364869,0.56949587124454,0.578801155246671,0.578773191856902,0.580171361345353,0.588306843542147,0.587919084537351,0.580396932689489,0.582612565272186,0.586261787637041,0.613918512231576,0.563228343484314,0.555804063500645,0.636896961717757,0.704855455760369,0.704891808167069,0.632514166427962,0.631096422566674,0.691860868534714,0.658094143275652,0.657108899842791,0.664755954831621,0.682105373957302,0.664189230132302,0.716508732390104,0.695643383057468,0.724010377752135,0.731122399883385,0.730718794957719,0.737121479101828,0.724780303083775,0.708322916091725,0.791055401062293,0.783323523791164,0.731513887340151,0.763132092151961,0.766075704981644,0.869571938968688,0.807397206043298,0.819990984682264,0.79844985343021,0.791533575027343,0.790812119571303,0.785853278452267,0.826151319448375,0.802402944630554,0.89916466224823,0.874711610008231,0.874873797668891,0.901887364298739,0.924502289717923,0.890028090697705,0.901882703733777,0.869808695668733,0.856952061165938,0.856723693482824,0.854254526166221,0.855428056423527,0.847325198181463,0.855940718569292,0.861010481134412,0.850252965090277,0.830514540365331,0.839354699984305,0.837599531219804,0.836946120012202,0.843497942235079,0.851504792838936,0.798513237113686,0.789668416929751,0.808640644775026,0.812082005942598,0.820276211257908,0.776615106585581,0.803500973735484,0.804417240806915,0.757586951960768,0.730239688879676,0.720676209578678,0.773292123768031,0.748417756455512,0.747152879124961,0.72307640053385,0.723386794160286,0.741554608493207,0.740644866212722,0.773296784332993,0.762991343090123,0.792888867318147,0.792358495025529,0.792086318031777,0.779749802578686,0.830994578556366,0.830785785246091,0.829015702673713,0.718324488499105,0.717375597472943,0.71533986269776,0.702013443246846,0.702583896398134,0.702843955922985,0.726335067554931,0.726743333045559,0.727251334626362,0.930415614541074,0.833129117308733,0.811408088249165,0.740228211705164,0.741133293420687,0.74146698987193,0.739317537311686,0.817669091218444,0.784595858025654,0.804941088308587,0.830816544974837,0.784107430817689,0.781989670099183,0.76522282159369,0.864778081849289,0.856257636986674,0.933091710941968
0.471223198466345,0.471825343459371,0.471030251076939,0.566589542934548,0.494732020245145,0.497750202114213,0.498087627017425,0.498131436328063,0.498508942089945,0.498746630902981,0.679289460607563,0.48854558631525,0.487535175831596,0.487818538181256,0.492331829289972,0.49105017392556,0.52848383169633,0.679838475160028,0.669958077441647,0.621120949323078,0.672632309616556,0.67591241523646,0.663512516099893,0.669126632652516,0.659690852831462,0.650036958570211,0.666501802466199,0.664863147825735,0.601458957863501,0.598782861462608,0.534234968858821,0.531929853428863,0.532373539213198,0.532720285246334,0.540684258652545,0.543053689878972,0.543734132363351,0.544825636677335,0.544779963140712,0.555074219027674,0.555823637873483,0.555505787343109,0.562560950581828,0.5622253899046,0.562798639394864,0.566021886122238,0.567733245576101,0.568755773528654,0.571350776099217,0.579401436013713,0.578731246772249,0.577764645599234,0.595011532295762,0.596568160992903,0.583113109949051,0.580918915965177,0.59528650562849,0.5987837935756,0.563956323731301,0.558028085100273,0.557273073576509,0.654480341204505,0.604869559302327,0.633326968957248,0.628218057646451,0.620091896579579,0.619079621869941,0.64431844536245,0.640723285551149,0.663181615987626,0.666478499641391,0.664812813724151,0.666197933630709,0.708960481378458,0.708585771955554,0.710786490730374,0.711305677667085,0.705063316957652,0.703642776757387,0.708031164725135,0.767532597588609,0.702719052782017,0.735068966292783,0.734634601638371,0.806949791806994,0.808523198537996,0.816278378633933,0.816803158248598,0.81707160679038,0.757189871826048,0.757152587306356,0.823525557149066,0.823437006414797,0.820799126646588,0.869575667420657,0.947949592039231,0.947455572153311,0.875062084493336,0.872432593742057,0.846407066884047,0.892319224432779,0.893455470170393,0.856400250274496,0.835258995496139,0.846922525368789,0.822056547073201,0.815128151201434,0.831747725854144,0.817130329908895,0.813745827633854,0.827959618653437,0.827610076281324,0.820765570578865,0.82174428922078,0.809638937789779,0.779713450171986,0.780001473086607,0.775476996621983,0.774538358838736,0.778845652976155,0.751966310617198,0.752486429666902,0.73059762026872,0.717237644750083,0.711850963767581,0.712611567969298,0.722559077823124,0.72355830295087,0.724949947648374,0.724683363332576,0.730359931455683,0.690074007928475,0.782271168222858,0.760381426711683,0.881870237789095,0.695338582108985,0.69550263399563,0.752713865237023,0.752976721100852,0.800682264046768,0.805807953391426,0.802855951544812,0.720545713759756,0.717604897269049,0.704609377930402,0.704314830224835,0.700411141013082,0.824690698389441,0.9517060073982,0.929764999672449,0.848734553025821,0.849179170923148,0.832353599299139,0.789422339099784,0.786816151173313,0.742900579654088,0.741416655770346,0.813686172402346,0.804137606909225,0.804276491745077,0.802937045375142,0.796292943966027,0.795892135379338,0.747365400887205,0.750207413400728,0.744689304486312,0.739636319955053,0.740216094236264
0.473768799048317,0.475030880039891,0.834975633146479,0.683211792079162,0.720562491793617,0.495077834165288,0.495859876965828,0.482445838893638,0.480555513745254,0.483034002191779,0.486220896512453,0.479223524279257,0.47913963410995,0.679214891568179,0.495090883747181,0.493372999502372,0.769363267505486,0.669844359656587,0.498747563015974,0.671091526840284,0.691362188083834,0.487859551152917,0.487441032419374,0.492129560770643,0.491472421111072,0.657995339298469,0.64964360688746,0.602809589589344,0.815072224421896,0.814284588943403,0.569897611944221,0.531542094424066,0.532014675711163,0.534569597423057,0.537000548106976,0.540479193794239,0.560540129614521,0.917196388084275,0.555144127502096,0.556107000223142,0.55584694069829,0.55575745785103,0.562141499735293,0.562888122242125,0.564355268092005,0.564583635775119,0.569007444036575,1.13623641648384,0.580460316372965,0.580380154655628,0.598482721079087,0.596383602620427,0.595066526962307,0.587950776379089,0.586842494031244,0.581991778019315,0.669303734121053,0.625117849834061,0.557204097215079,0.556825659340205,0.556267323657818,0.548987521187954,0.587139838075788,0.678084238508519,0.627121892767506,0.623764421769241,0.624406647620936,0.624500791033158,0.624383344796129,0.659173530120736,0.650723925845536,0.664071783895273,0.677112976770543,0.714311742067253,0.692334381934802,0.690624886706924,0.691824516128014,0.743352654455353,0.691655803676408,0.691650210998454,0.687010152522785,0.70644843686421,0.706165074514551,0.715986749114416,0.740906789963558,0.733460139268073,0.732962390930185,0.764216139562006,0.777809143328717,0.747628256751034,0.80232837559117,0.822559888089043,0.827947501184537,0.827049876372952,0.825161415450552,0.886377004106866,0.883807168587095,0.852227180407969,0.847658894632706,0.847714821412244,0.846890833527051,0.847839724553213,0.830503355009424,0.815701400691699,0.830604955325585,0.821349073312045,0.791558742078135,0.786548634744523,0.788832311575658,0.776782886924195,0.802182033851379,0.823428617397866,0.824804416174501,0.772414073329285,0.770700849649437,0.758301882625862,0.764502298250642,0.773499984965314,0.761596902053642,0.750721939772478,0.751277479115888,0.738568118465877,0.710861059769758,0.743900736894826,0.71340293189976,0.718807323029116,0.746008244370416,0.72434873476834,0.72437296970614,0.758806155754696,0.744205537843308,0.777074638290785,0.733105936330999,0.701511966456989,0.881444262151614,0.881744402535135,0.695545511193276,0.6832071315142,0.705951620639314,0.827207403468651,0.828951386877244,0.734773486474224,0.857651145910163,0.705296345205727,0.704876894359192,0.704978494675353,0.703337975808905,0.724624640214061,0.842520155706156,0.939886814655835,0.923740753403213,0.828907577566606,0.812137932722136,0.783223787700988,0.765951733953668,0.842909778936938,0.744361200713022,0.74722558393836,0.798083533024236,0.802430908020323,0.767256692142888,0.766112057388344,0.761196093466953,0.775438779989298,0.747566737293542,0.762984818299177,0.73966335123183,0.740140593083888
0.842610570666409,0.665314290514009,0.642836385704693,0.486190136783707,0.614146879914689,0.483287536925685,0.62115823384277,0.471975413651132,0.482356356046377,0.480740072117729,0.485808902569857,0.482568877808622,0.479855496888036,0.479299957544625,0.494419762392725,0.495123507701911,0.674429423465711,0.702569914703249,0.496662426252198,0.495814203429205,0.495844031044959,0.488666761004249,0.488260359739606,0.487496959198912,0.672538166204334,0.682273154295916,0.648381525895886,0.710450930053146,0.705140682336013,0.527664504376098,0.606560412270359,0.608691222570757,0.533716714035102,0.534445626395081,0.536568979791541,0.566062899093899,0.543021065924242,1.13812860585821,0.556206736313318,0.556568396154331,0.557377470231647,0.558826905934674,0.560551314970429,0.560482338608999,0.621544128621583,0.95552767066663,0.718386940069589,0.633979448051858,0.737395520321564,0.599548126229286,0.600560400938924,0.598705496084247,0.595255745899744,0.59172024131995,0.586445413896524,0.582924823124607,0.625081497427361,0.560425479716468,0.557961905077819,0.560349978564092,0.591976572392833,0.593227468028499,0.588523093756361,0.588538007564238,0.62645077141305,0.624495198355205,0.671283542116698,0.671485810636027,0.630349800059841,0.731329328967675,0.686697894670364,0.628908753373745,0.685581223305589,0.689813016290631,0.693169555175903,0.692514279742316,0.691743422297684,0.689090628721598,0.689306878935812,0.689332978099596,0.683066382452363,0.694448414201339,0.7039196143161,0.712536066816921,0.802318122348255,0.735126757298306,0.734637397977348,0.72966550727642,0.733659611448425,0.709159021445818,0.71050126415473,0.787834018560904,0.833005146280757,0.901575106446318,0.786447034428362,0.770556372135631,0.89239286135917,0.801042991774788,0.779984695052746,0.86570646638962,0.797650100482816,0.834701591926743,0.841955295232822,0.816970938587212,0.817065081999434,0.837229482361861,0.775397767017637,0.797330385726457,0.745672683693188,0.764017599494646,0.743718042748335,0.74626084699133,0.770472481966324,0.836293640917592,0.839386391826043,0.80213356397578,0.802258467116748,0.728132181404086,0.73927838856601,0.739874940881082,0.728109810692271,0.742907104445034,0.709100298327303,0.711702757801805,0.709108687344234,0.714554091445251,0.750108609423544,0.737362896366833,0.737516695010563,0.726356506153754,0.721405121938656,0.753051290140236,0.754261172804241,0.680031422549434,0.676646920274393,0.676550912636186,0.685204649656699,0.684699444414873,0.683807412281242,0.684089842517908,0.794690641732263,0.684802908957018,0.684567084369966,0.686156337021838,0.702912000171423,0.70259042118908,0.756837533114958,0.842916303727884,0.844930599904244,0.940222375333063,0.946169256223937,0.818197599285079,0.794937651675223,0.794793174161416,0.84029706621952,0.832176497830602,0.804786357551865,0.804785425438873,0.795324478567028,0.804764918953042,0.80418048410687,0.804298862456892,0.778640588117849,0.773556843857844,0.748177271303499,0.733658679335433,0.732578360377357,0.732060105553638
0.697683778397612,0.572515917339592,0.483185004496532,0.483417100631615,0.512564273900837,0.474571348334687,0.473702619025864,0.473005398507623,0.471880338125917,0.480097846266034,0.479146158900896,0.48104021250125,0.479576795103339,0.487406544238659,0.48834704624789,0.694629244121845,0.665414958717177,0.496666154704168,0.497147125008195,0.49703993201408,0.496596246229745,0.497962723876457,0.498422255581661,0.49952401313856,0.689120456337352,0.714102016643986,0.687879813944601,0.612287314495051,0.620966218566357,0.618428074888324,0.608156189713177,0.607759109578457,0.533566643843342,0.53451833120848,0.53714409350779,0.536585757825402,0.547212778050615,0.547591215925489,0.556402480041701,0.556595427431107,0.555800335048675,0.560421751264499,0.561664257883235,1.089248600542,0.951258593161896,0.646205974171858,0.856017151834661,0.62548603446602,0.949450293956833,0.599572361167086,0.599885551132499,0.598946913349252,0.596054566734145,0.605712189447366,0.626304429673259,0.627038934711192,0.562316736977845,0.56095305567011,0.559827995288404,0.561064909229186,0.564295612860498,0.569311312872064,0.577020819431378,0.578508471767089,0.576504428833644,0.576345969624953,0.633904879012474,0.633975719599888,0.622156526857524,0.609821875630417,0.626107753831884,0.672576382837018,0.633422976595455,0.679871099114758,0.67863977785193,0.680064978617157,0.688707530281763,0.731251963589314,0.689393565444096,0.692810691673868,0.689097153512544,0.68075101377949,0.681035308242141,0.714512146360598,0.784720761166622,0.783421395655356,0.767116875194043,0.746483621996489,0.784804651335929,0.785571780328592,0.698608434485974,0.788875188773304,0.788104331328671,0.736962087780144,0.747079242198569,0.80777098335321,0.791442227954098,0.76747201024411,0.779410513449489,0.785016240985181,0.784457905302794,0.78536019067934,0.848622699466745,0.848728028234874,0.841777261651293,0.728536718442744,0.733976529865807,0.731360088696421,0.747032636548954,0.74439289255476,0.743713382183374,0.746615982041396,0.74638668224529,0.728172262262755,0.72682069842392,0.802910946211358,0.802681646415252,0.715580347849773,0.712291853212939,0.750219530869628,0.719491493965465,0.713493346860014,0.695817688187028,0.682095120714386,0.733688506951187,0.734644854881287,0.73435869619265,0.690182133035582,0.712121276535348,0.717980538804946,0.72158874819814,0.675233836978066,0.673584929094687,0.67498030224416,0.677166107211104,0.677542680859993,0.691909338410314,0.69141345429841,0.683538031626467,0.684799180505049,0.682192060465586,0.682071817889579,0.683530574722528,0.683607940100889,0.695030984821526,0.715681016052942,0.74150334227863,0.772191298324125,0.949683322204908,0.934303457831958,0.818369108075662,0.812878030438022,0.782185413827566,0.729344860407068,0.730004796405617,0.817578676258191,0.730521187003351,0.790971510892986,0.810724849425809,0.759806312995434,0.776766108890333,0.760442014056183,0.762008895996239,0.790033805222732,0.736717874176162,0.732290337462736,0.731697513599634,0.718579887458995
0.470116780344485,0.471144900974992,0.507821682996015,0.483949337150218,0.518581995379127,0.47504672596076,0.475793348467593,0.474109952403499,0.472030408317677,0.480074543441227,0.480106235282965,0.481831576431712,0.488887671783424,0.48846076403295,0.489175694698045,0.489078754946845,0.489257720641367,0.495809542864244,0.497395999177139,0.497258046454278,0.497612249391352,0.498359804011177,0.498153807039879,0.501451622806636,0.690460834820279,0.713525970814744,0.611575180168934,0.682066225211625,0.611668391468164,0.756885070877566,0.530812249951096,0.688300196904128,0.687588062578011,0.537633452828747,0.582625614854079,0.540956435646297,1.06605762929357,0.740458443614262,0.550091142970837,0.552100778582236,0.554571810124824,0.705900354424737,0.637247436202862,0.565559558078057,0.625211993246283,0.617691705624407,0.586549810551662,0.663252456575041,0.648008680698966,1.03369466620091,0.889259097479058,0.885957553260331,0.875622284401708,0.869608291375388,0.626976483140707,0.626896321423369,0.5630847980835,0.558301194207016,0.555910324381767,0.567118983114175,0.558693613776775,0.559256610024124,0.580258047853636,0.606141893536817,0.594959333968193,0.595309808453298,0.635219158331617,0.586671917353653,0.591042595174548,0.610397921459659,0.666842955821381,0.634054949204234,0.634811824953982,0.633877847735697,0.690891471022722,0.690661239113624,0.697768600679912,0.696054444887072,0.701895064896824,0.696526094061176,0.682104441844309,0.682352383900261,0.683378640304783,0.701753383721994,0.695306890267247,0.693465967107455,0.702107586659068,0.708539166305939,0.785752610249098,0.785214781052541,0.698363288768999,0.694843630110074,0.740271088902809,0.742344108197685,0.779574565336134,0.723670156509945,0.762652053960926,0.763005324785008,0.75889284226298,0.794366266410943,0.784708643697722,0.76358975963118,0.848314170066293,0.848947074788065,0.772689978775005,0.773253907135347,0.737062755983313,0.732230682231229,0.714896176913425,0.769172184342065,0.769168455890096,0.769129307144419,0.699124825083708,0.706258285813781,0.725388972867747,0.698467685424137,0.692847044080567,0.70265939755051,0.704229075829544,0.724477366361277,0.724740222225106,0.71454570242832,0.699377427704622,0.685972710762355,0.676922825720113,0.66329253743371,0.663782828867659,0.66807893764917,0.679962446188004,0.686768735257779,0.660100050435082,0.66045984605011,0.670413880694882,0.675820136050222,0.676939603753975,0.67776452375216,0.678749767185022,0.6794907970139,0.683869863851726,0.684142040845477,0.684868156866479,0.683769195648557,0.68400129178364,0.683824190315103,0.700887450752148,0.702056320444492,0.743491539291206,0.820287396613815,0.794508879698765,0.943801689223495,1.21627695913265,1.19564929861305,0.894127523637841,0.744012590453902,0.725832658652082,0.726005099555657,0.794785717257478,0.775074323809309,0.784863374454444,0.821575576769174,0.76590792464303,0.751929026097506,0.751441531002533,0.74045751150127,0.729582549220105,0.728528329425813,1.02401001221091,0.737746926919661
0.73433818970682,0.734532069209218,0.476140094500728,0.524004096655336,0.462619795547416,0.474160286505083,0.475029015813907,0.474676677102817,0.488565160688088,0.48863879761448,0.489036809862192,0.490255081543128,0.490913153315692,0.490092893882468,0.488888603896416,0.488917499399177,0.4898589335214,0.496064941824134,0.495487031768908,0.495532705305531,0.493397234440171,0.495704214096114,0.498589103807283,0.503044603910477,0.689167994099959,0.670232118661384,0.507887863018468,0.508458316169756,0.509220784597457,0.509706415466445,0.530711581747927,0.522306718896358,0.689662013985878,0.531680047146927,0.675293492209573,0.696080544050856,0.720011613015168,0.747381246808074,0.562393170243214,0.552975100569014,0.556646693645684,0.6288537587072,0.614246616004866,0.608448873192759,0.608320241599822,0.879918393183219,0.58742040408647,0.657338199638897,1.04209300426154,0.898693945187119,1.06551700375804,0.879588425183945,0.636769262237812,0.882820993041241,0.585831151434598,0.553755279143569,0.554209218170819,0.553963140340852,0.552221021158243,0.552155773248782,0.555893546347905,0.542506539552492,0.542395618106408,0.577965049892578,0.595968812338854,0.573766812975259,0.573066796118042,0.567901958027707,0.591889885884549,0.624961254851355,0.599119354252828,0.64106443890633,0.664041024166527,0.637061945717394,0.654182997159961,0.65943452175858,0.634883597654389,0.685647403328042,0.664259138606725,0.707979898510559,0.682128676782109,0.685770442243026,0.6823356058664,0.678248290395164,0.693924566699666,0.690320085758442,0.688196732361982,0.679055500246496,0.682178078770701,0.69829897297253,0.69803145654374,0.691953147720952,0.691375237665726,0.746739953069372,0.748638667234687,0.780935450304892,0.714466472823975,0.763342749688221,0.735636623105094,0.795486666227688,0.796279894384135,0.718327284838082,0.769954227142605,0.76317217301063,0.772285441736347,0.77326322826527,0.708860745288282,0.707959392024728,0.696568039145829,0.769259802963341,0.769553418555916,0.712748588579166,0.689438306867726,0.714632388936604,0.680566455407014,0.66810317258697,0.695312482945201,0.689503554777187,0.691863664873691,0.724427032259693,0.67819795629358,0.692055680150105,0.708838374576467,0.709008019141066,0.695010478335696,0.663411847896724,0.775671808237373,0.678402089038894,0.656156280364661,0.656527261335596,0.662560828734754,0.661974529662598,0.66724376440807,0.990192952850269,0.676728014104723,0.676922825720113,0.679997866481711,0.678983727546089,0.682649727944805,0.6831950140453,0.896677784784774,0.683926722744256,0.684062811241132,0.683042147514563,0.702005054229916,0.707484014398655,0.70746164368684,0.785574576667569,0.811273863978274,0.899722065817626,0.899181440282092,1.22272718103936,0.775069663244347,0.733757483312617,0.72340450430714,0.781673683794793,0.772867080243542,0.771997418821726,0.761342435206744,0.757826504999789,0.756021934246696,0.75689905257245,0.807401866608259,1.24706465126832,0.95944254523429,0.715677287600973,0.704051974361006,0.705671986741624
0.734120075266621,0.734779079152178,0.464140071837857,0.465498160467639,0.465672465597199,0.466399513731193,0.466508570951292,0.470402006920129,0.489791821385955,0.490458282175449,0.489582095962687,0.490476924435295,0.491524619438641,0.490311008322666,0.489053587896053,0.488450510790035,0.485375470028437,0.485212350254785,0.705316851691558,0.49277271873533,0.730228503523769,0.605458654713461,0.501920475641763,0.501506617473182,0.501494500004282,0.50891784787496,0.5096514207999,0.509583376551462,0.509670063059746,0.509839707624344,0.509422121003794,0.53696605992626,0.532010947259193,0.668478814122867,0.682830557865311,0.534446558508073,0.534730852970725,0.546905180763156,0.648369408426986,0.545300082190415,0.712913572578803,0.995086546059844,0.617585444743284,0.604875151980281,1.01426011031146,0.569895747718237,0.570225715717511,0.605071827821656,0.921534441950439,1.08997564867599,0.638613913849573,0.889617028868101,0.642600561117641,0.630604266906739,0.553501744409663,0.554292176227134,0.554863561491414,0.554341578215726,0.553648086149455,0.556139624177873,0.555949473127443,0.553324642941126,0.543164611325056,0.578981053054185,0.573232712230671,0.573399560456293,0.573462944139769,0.571228669297226,0.566587678708564,0.565771147727309,0.61139528236142,0.664659015080422,0.656882396385662,0.657045516159315,0.595762815367555,0.618657374684429,0.634751237609482,0.663369902812071,0.643707911352493,0.674334347940496,0.678320995208563,0.684429131647106,0.68263574624992,0.679329541466232,0.687092178466107,0.678790780156683,0.692789253075045,0.688520175570311,0.68147246923553,0.697125442715225,0.697749958420066,0.727320310987793,0.691060183474328,0.749853210463654,0.688685159569948,0.689009534891268,0.691279230027519,0.720431063861703,0.725226785207087,0.695372138176708,0.70939857448484,0.686099478129307,0.68943178207678,0.764284183810443,0.774543019403698,0.77412636489614,0.706792386558369,0.709522545512815,0.670588185824442,0.719227705988644,0.71169250455889,0.714414274496406,0.679790005284428,0.662701577796591,0.654199775193823,0.653306810947199,0.672845763491793,0.674158178584951,0.707593071618754,0.709080723954465,0.699156516925447,0.69755701103066,0.655627772298026,0.647152068859042,0.645427659823287,0.646947936113728,0.6485129538278,0.649968914321773,0.662866561796228,0.656918748792362,0.659492312764102,0.662638194113115,0.667292234283669,0.677335751775702,0.678739513942106,0.679896266165551,0.68180896202575,0.680599079361745,0.78264494553277,0.895320628267985,0.896762607067073,0.778687193767464,0.694620855104914,0.694589163263176,0.856198913868159,0.70740478479431,0.708143950397204,0.79621278224869,0.798735080005853,0.910021914382541,0.910056402563256,0.843108319004297,0.738226965110696,0.789451234602545,0.791995903071524,0.770873290553013,0.77030097317574,0.770423079977732,0.769748230171306,0.747477254446281,0.725084171919265,1.24547073805148,1.25306745893873,0.722053872581297,0.711411006435215,0.707881094533375,0.708795497378821,0.699702735138934
